2.302 7.080 1.095 2752
2.317 7.127 1.080 2193
2.340 7.197 1.067 2201
2.341 7.199 1.045 2226
2.330 7.165 1.018 2230
2.340 7.197 1.000 2149
2.326 7.154 0.973 1836
2.446 7.523 0.993 1974
2.449 7.533 0.971 1740
2.528 7.775 0.974 1705
2.765 8.504 1.026 1761
2.764 8.499 0.999 2513
2.764 8.501 0.974 2287
2.767 8.511 0.948 2317
2.766 8.506 0.922 2601
2.766 8.508 0.896 2454
2.765 8.503 0.869 2769
2.765 8.505 0.843 3289
2.766 8.506 0.817 3366
2.769 8.516 0.792 2752
2.772 8.525 0.766 1737
2.821 8.677 0.751 1235
2.820 8.671 0.724 966
2.822 8.680 0.698 669
2.823 8.682 0.671 262
0.613 1.869 1.510 3028
0.614 1.873 1.504 6057
0.612 1.864 1.489 4968
0.609 1.856 1.475 4414
0.610 1.860 1.469 4414
0.611 1.863 1.464 4318
0.614 1.873 1.462 4225
0.681 2.075 1.600 3847
0.682 2.079 1.594 4826
0.683 2.083 1.588 4826
0.685 2.087 1.582 5015
0.686 2.091 1.575 5203
0.689 2.101 1.573 5077
0.693 2.112 1.572 5116
0.696 2.122 1.570 6070
0.697 2.126 1.563 7206
0.703 2.142 1.565 6594
0.706 2.153 1.563 6626
0.707 2.157 1.557 13137
0.709 2.161 1.550 19648
0.710 2.165 1.544 20230
0.711 2.168 1.537 24514
0.713 2.172 1.531 28216
0.714 2.176 1.524 26824
0.717 2.186 1.522 25875
0.718 2.190 1.515 25878
0.722 2.200 1.513 27005
0.723 2.204 1.506 23855
0.722 2.202 1.496 18535
0.726 2.212 1.493 16104
0.727 2.216 1.486 13662
0.730 2.226 1.484 11338
0.729 2.223 1.473 7867
0.771 2.350 1.542 9177
0.772 2.354 1.535 7752
0.771 2.352 1.524 6373
0.803 2.447 1.572 6623
0.804 2.451 1.564 9098
0.807 2.461 1.561 10032
0.811 2.472 1.557 11184
0.810 2.469 1.546 9145
0.824 2.513 1.561 6500
0.828 2.523 1.558 7942
0.829 2.527 1.550 7415
0.835 2.544 1.550 7210
0.832 2.535 1.535 9384
0.831 2.532 1.523 14509
0.834 2.543 1.520 17061
0.835 2.546 1.512 13837
0.834 2.544 1.501 7351
0.862 2.628 1.536 8305
0.865 2.638 1.532 8845
0.867 2.642 1.524 6806
0.870 2.652 1.520 4304
0.902 2.750 1.561 2782
0.877 2.674 1.511 3321
0.883 2.691 1.510 3656
0.886 2.701 1.505 4191
0.912 2.780 1.535 5271
0.913 2.783 1.527 7491
0.914 2.787 1.518 9546
0.929 2.832 1.530 7548
0.937 2.856 1.532 8088
0.940 2.867 1.527 8341
0.944 2.877 1.521 9302
0.945 2.881 1.513 8855
0.946 2.885 1.504 7512
0.948 2.889 1.495 8059
0.958 2.920 1.500 9051
0.961 2.931 1.494 9512
0.963 2.934 1.485 7809
0.964 2.938 1.476 5693
0.972 2.963 1.477 3455
0.989 3.015 1.490 5372
0.988 3.011 1.478 8480
0.989 3.015 1.469 9912
0.990 3.019 1.460 9504
0.998 3.043 1.460 10542
0.999 3.047 1.450 13798
1.003 3.057 1.444 12200
1.016 3.096 1.450 11731
1.017 3.099 1.441 9227
1.020 3.110 1.434 10163
1.021 3.114 1.425 11228
1.025 3.124 1.418 10575
1.028 3.135 1.412 10567
1.029 3.138 1.402 9469
1.033 3.149 1.396 6764
1.055 3.215 1.412 7941
1.058 3.226 1.405 6986
1.089 3.321 1.431 4277
1.100 3.353 1.432 4333
1.106 3.370 1.428 5064
1.111 3.388 1.423 5484
1.115 3.399 1.415 7471
1.123 3.424 1.413 6658
1.136 3.463 1.416 8973
1.130 3.445 1.397 8863
1.129 3.441 1.384 5391
1.170 3.565 1.418 3976
1.157 3.526 1.392 6860
1.160 3.537 1.384 7789
1.189 3.626 1.403 7670
1.193 3.636 1.395 9572
1.194 3.640 1.384 9440
1.186 3.615 1.363 9613
1.192 3.632 1.357 7787
1.197 3.650 1.351 6503
1.227 3.740 1.368 4776
1.214 3.700 1.343 4292
1.245 3.797 1.362 3193
1.280 3.901 1.383 3575
1.278 3.897 1.369 3617
1.277 3.893 1.355 2294
1.304 3.976 1.368 1945
1.305 3.979 1.356 3912
1.309 3.990 1.346 5442
1.310 3.993 1.334 4290
1.316 4.011 1.326 3519
1.317 4.014 1.314 3948
1.363 4.155 1.342 4297
1.366 4.166 1.332 5202
1.398 4.263 1.346 6077
1.400 4.267 1.333 5369
1.446 4.408 1.359 5771
1.445 4.404 1.343 8296
1.441 4.393 1.326 6248
1.444 4.403 1.315 4465
1.450 4.421 1.305 6541
1.449 4.417 1.290 9318
1.452 4.428 1.278 8546
1.458 4.445 1.269 5173
1.490 4.544 1.279 4988
1.496 4.561 1.269 4944
1.500 4.572 1.257 4495
1.556 4.743 1.284 4641
1.569 4.783 1.279 4144
1.582 4.823 1.273 5023
1.595 4.863 1.267 5577
1.601 4.881 1.255 10370
1.602 4.884 1.241 12192
1.603 4.887 1.226 7394
1.606 4.897 1.213 3695
1.607 4.900 1.198 3897
1.703 5.190 1.245 2714
1.706 5.201 1.230 2715
1.707 5.204 1.215 4028
1.708 5.207 1.199 3749
1.762 5.372 1.216 2167
1.814 5.530 1.230 4071
1.815 5.533 1.214 4101
1.770 5.396 1.170 3566
1.858 5.665 1.204 3684
1.859 5.668 1.186 4246
1.855 5.656 1.166 2944
1.854 5.652 1.148 2564
1.952 5.951 1.183 3023
1.951 5.947 1.164 4517
1.981 6.038 1.161 4124
1.979 6.034 1.141 3414
2.073 6.319 1.169 2733
2.076 6.329 1.151 3160
2.077 6.332 1.132 3539
2.095 6.387 1.121 3780
2.096 6.390 1.101 2599
2.217 6.757 1.136 2161
2.173 6.626 1.096 2571
2.287 6.971 1.125 3094
2.293 6.989 1.105 3089
2.315 7.059 1.093 2764
2.311 7.046 1.070 2314
2.359 7.191 1.067 1989
2.360 7.193 1.045 2024
2.360 7.196 1.023 2099
2.359 7.191 1.000 2102
2.342 7.141 0.972 1963
2.466 7.517 0.993 2031
2.469 7.527 0.971 1751
2.548 7.769 0.974 1718
2.787 8.497 1.026 1720
2.786 8.492 0.999 2278
2.786 8.494 0.974 1895
2.790 8.504 0.948 2025
2.788 8.499 0.922 2521
2.835 8.643 0.908 2692
2.787 8.495 0.869 2696
2.787 8.497 0.843 3174
2.788 8.499 0.817 3192
2.791 8.509 0.792 2501
2.846 8.675 0.778 2016
2.844 8.670 0.751 1516
2.844 8.671 0.724 1169
2.845 8.673 0.698 839
2.846 8.674 0.671 369
0.621 1.873 1.514 3119
0.623 1.877 1.509 6238
0.616 1.856 1.485 5058
0.615 1.854 1.475 5210
0.616 1.857 1.469 5210
0.617 1.861 1.464 5278
0.619 1.865 1.458 5346
0.620 1.868 1.452 4634
0.687 2.071 1.590 4992
0.688 2.075 1.583 4992
0.690 2.079 1.577 5544
0.691 2.083 1.571 6096
0.694 2.093 1.569 6549
0.698 2.103 1.567 7178
0.701 2.113 1.565 8041
0.704 2.124 1.563 9140
0.712 2.146 1.570 8025
0.715 2.157 1.568 7877
0.715 2.154 1.557 14438
0.716 2.158 1.550 21115
0.717 2.162 1.544 21756
0.719 2.166 1.537 26171
0.720 2.170 1.531 29945
0.721 2.174 1.524 28726
0.724 2.184 1.522 28051
0.726 2.188 1.515 28608
0.729 2.198 1.513 30303
0.730 2.202 1.506 27006
0.730 2.199 1.496 21468
0.731 2.203 1.489 18916
0.734 2.213 1.486 16416
0.738 2.223 1.484 14152
0.739 2.227 1.477 9839
0.775 2.335 1.534 8615
0.776 2.339 1.527 7835
0.777 2.342 1.520 7056
0.774 2.333 1.505 6334
0.812 2.448 1.564 7833
0.816 2.459 1.561 8724
0.819 2.469 1.557 9930
0.818 2.466 1.546 8138
0.830 2.503 1.558 6062
0.834 2.514 1.554 7492
0.837 2.524 1.550 6933
0.845 2.548 1.554 6753
0.838 2.525 1.531 8996
0.839 2.529 1.523 14474
0.843 2.540 1.520 17074
0.842 2.537 1.508 13963
0.843 2.541 1.501 7511
0.871 2.625 1.536 8870
0.872 2.629 1.529 8733
0.871 2.626 1.517 6466
0.901 2.717 1.555 3856
0.914 2.754 1.565 3322
0.919 2.772 1.564 3718
0.921 2.775 1.555 3451
0.920 2.773 1.543 4612
0.921 2.777 1.535 6020
0.922 2.780 1.527 8284
0.924 2.784 1.518 10464
0.920 2.774 1.503 7463
0.949 2.860 1.535 9116
0.950 2.864 1.527 9890
0.954 2.874 1.521 10658
0.957 2.885 1.516 9406
0.956 2.882 1.504 7725
0.957 2.886 1.495 8663
0.963 2.903 1.493 9446
0.971 2.927 1.494 9295
0.972 2.931 1.485 7358
0.976 2.942 1.479 5828
0.984 2.966 1.480 4802
0.997 3.004 1.487 4724
0.998 3.008 1.478 7284
0.997 3.005 1.466 9590
1.000 3.015 1.460 9489
1.008 3.040 1.460 10097
1.010 3.043 1.450 13670
1.013 3.054 1.444 12000
1.026 3.092 1.450 10691
1.027 3.096 1.441 8810
1.031 3.107 1.434 10114
1.032 3.110 1.425 11441
1.035 3.121 1.418 10767
1.039 3.131 1.412 10402
1.042 3.142 1.405 8855
1.043 3.145 1.396 6886
1.063 3.205 1.409 7787
1.069 3.222 1.405 6917
1.096 3.303 1.426 4426
1.111 3.349 1.432 3917
1.115 3.360 1.425 4743
1.123 3.384 1.423 4503
1.126 3.395 1.415 5860
1.139 3.434 1.418 6299
1.147 3.459 1.416 10722
1.141 3.441 1.397 11431
1.147 3.459 1.392 7459
1.158 3.490 1.392 6715
1.166 3.515 1.389 7111
1.170 3.526 1.381 7403
1.199 3.615 1.401 8116
1.205 3.632 1.395 9438
1.201 3.622 1.379 9020
1.198 3.611 1.363 10075
1.204 3.628 1.357 8786
1.210 3.646 1.351 7273
1.237 3.728 1.366 5131
1.250 3.768 1.366 4668
1.256 3.785 1.360 4224
1.290 3.889 1.381 3732
1.291 3.893 1.369 3832
1.290 3.889 1.355 2686
1.320 3.979 1.370 1838
1.314 3.960 1.351 3484
1.298 3.913 1.324 4999
1.299 3.916 1.312 3889
1.343 4.050 1.339 2764
1.359 4.096 1.340 3502
1.379 4.158 1.344 5262
1.383 4.168 1.334 6339
1.413 4.259 1.346 6147
1.414 4.262 1.333 4971
1.461 4.403 1.359 5252
1.462 4.406 1.345 7546
1.460 4.403 1.330 5012
1.469 4.428 1.323 4079
1.465 4.416 1.305 5848
1.464 4.412 1.290 9123
1.467 4.423 1.278 9057
1.502 4.528 1.291 4876
1.506 4.539 1.279 5436
1.509 4.549 1.267 4969
1.537 4.633 1.273 4834
1.572 4.738 1.284 5417
1.585 4.778 1.279 5119
1.596 4.810 1.271 6269
1.609 4.850 1.265 5573
1.617 4.875 1.255 9840
1.618 4.878 1.241 11744
1.619 4.881 1.226 6924
1.623 4.892 1.213 3364
1.626 4.902 1.199 3802
1.674 5.045 1.215 2556
1.684 5.077 1.205 2547
1.724 5.198 1.215 3254
1.725 5.201 1.199 2867
1.775 5.352 1.213 2563
1.833 5.524 1.230 3877
1.836 5.535 1.215 4086
1.788 5.390 1.170 3531
1.877 5.659 1.204 3170
1.878 5.662 1.186 3765
1.864 5.620 1.161 2951
1.865 5.623 1.144 2666
1.972 5.945 1.183 3389
1.970 5.940 1.164 5054
2.003 6.039 1.162 3902
1.999 6.027 1.141 3112
2.096 6.319 1.171 3037
2.107 6.352 1.156 3747
2.101 6.332 1.133 3631
2.116 6.380 1.121 3360
2.117 6.383 1.101 2266
2.195 6.616 1.116 1901
2.196 6.618 1.096 2753
2.310 6.964 1.125 3238
2.316 6.981 1.105 3277
2.334 7.036 1.091 2895
2.335 7.039 1.070 2681
2.333 7.034 1.047 2150
2.384 7.185 1.045 1904
2.384 7.188 1.023 2068
2.385 7.190 1.001 2052
2.364 7.125 0.971 2084
2.365 7.128 0.949 1924
2.492 7.511 0.970 1554
2.574 7.760 0.974 1724
2.706 8.159 0.992 1708
2.814 8.482 0.999 1947
2.815 8.485 0.974 1661
2.815 8.487 0.948 1963
2.861 8.624 0.934 2692
2.864 8.634 0.908 3013
2.870 8.651 0.883 2684
2.816 8.488 0.843 2987
2.816 8.490 0.817 2887
2.877 8.672 0.805 2346
2.872 8.658 0.777 2436
2.873 8.660 0.751 1747
2.873 8.662 0.724 1320
2.874 8.663 0.698 1000
2.874 8.665 0.671 500
0.623 1.866 1.510 3670
0.624 1.870 1.504 7340
0.623 1.867 1.494 5960
0.620 1.859 1.479 5444
0.622 1.862 1.474 5444
0.623 1.866 1.468 5030
0.622 1.864 1.458 4656
0.627 1.880 1.461 3850
0.691 2.069 1.590 5173
0.692 2.073 1.583 5173
0.693 2.077 1.577 5938
0.695 2.081 1.571 6703
0.698 2.092 1.569 7571
0.701 2.102 1.567 8701
0.705 2.112 1.565 9474
0.708 2.122 1.563 10442
0.716 2.145 1.570 8866
0.719 2.155 1.568 8640
0.719 2.153 1.557 14982
0.720 2.157 1.550 21519
0.721 2.161 1.544 22191
0.722 2.165 1.537 26548
0.724 2.169 1.531 30232
0.725 2.172 1.524 29216
0.728 2.183 1.522 28818
0.730 2.186 1.515 29654
0.733 2.197 1.513 31608
0.734 2.200 1.506 28366
0.734 2.198 1.496 22896
0.735 2.202 1.489 20432
0.738 2.212 1.486 17989
0.742 2.222 1.484 15914
0.743 2.226 1.477 11081
0.777 2.327 1.530 8719
0.778 2.331 1.523 8227
0.781 2.341 1.520 7744
0.778 2.332 1.505 7788
0.777 2.329 1.494 8477
0.779 2.333 1.487 8398
0.824 2.468 1.557 8482
0.825 2.472 1.550 7124
0.835 2.502 1.558 5687
0.838 2.512 1.554 7114
0.842 2.523 1.550 6502
0.850 2.547 1.554 6434
0.842 2.524 1.531 8625
0.844 2.528 1.523 14036
0.847 2.538 1.520 16452
0.846 2.535 1.508 13470
0.845 2.533 1.497 7262
0.875 2.623 1.536 9066
0.874 2.620 1.525 8615
0.871 2.611 1.510 6679
0.873 2.614 1.502 4139
0.919 2.752 1.565 3650
0.922 2.763 1.560 4027
0.924 2.767 1.552 3751
0.923 2.764 1.540 5027
0.924 2.768 1.532 6565
0.927 2.779 1.527 8521
0.929 2.783 1.518 10396
0.950 2.847 1.541 7280
0.954 2.858 1.535 9553
0.955 2.862 1.527 10552
0.959 2.873 1.521 11205
0.962 2.883 1.516 9696
0.964 2.887 1.507 7923
0.963 2.884 1.495 8879
0.966 2.895 1.490 9567
0.976 2.926 1.494 8646
0.978 2.929 1.485 6680
0.984 2.947 1.483 5980
0.989 2.964 1.480 5921
0.984 2.947 1.462 4899
1.001 2.999 1.475 6444
1.002 3.003 1.466 9113
1.003 3.007 1.456 9069
1.009 3.024 1.454 9164
1.015 3.042 1.450 12491
1.016 3.045 1.441 11075
1.031 3.091 1.450 9476
1.033 3.094 1.441 8286
1.036 3.105 1.434 9738
1.037 3.108 1.425 11257
1.041 3.119 1.418 10499
1.044 3.129 1.412 9596
1.048 3.140 1.405 7717
1.051 3.150 1.399 6695
1.067 3.196 1.406 7323
1.075 3.220 1.405 6464
1.102 3.301 1.426 4448
1.115 3.340 1.429 3793
1.118 3.351 1.422 4480
1.148 3.439 1.445 3825
1.142 3.421 1.426 5215
1.152 3.453 1.426 7099
1.151 3.450 1.413 12592
1.150 3.446 1.400 13876
1.156 3.464 1.395 9911
1.162 3.481 1.390 9221
1.168 3.499 1.384 7850
1.174 3.517 1.379 7245
1.203 3.605 1.398 8082
1.207 3.616 1.390 9164
1.206 3.612 1.376 8438
1.204 3.609 1.363 9480
1.210 3.626 1.357 8978
1.214 3.637 1.348 7498
1.244 3.726 1.366 5300
1.257 3.765 1.366 5031
1.260 3.776 1.357 4670
1.297 3.887 1.381 3677
1.298 3.890 1.369 3799
1.297 3.886 1.355 2870
1.301 3.897 1.345 1963
1.319 3.951 1.349 3151
1.308 3.918 1.326 4764
1.306 3.914 1.312 3673
1.356 4.062 1.343 3055
1.366 4.094 1.340 4411
1.387 4.155 1.344 5567
1.390 4.166 1.334 6584
1.418 4.249 1.344 6097
1.422 4.259 1.333 4759
1.469 4.400 1.359 4377
1.472 4.411 1.347 6452
1.473 4.414 1.334 4151
1.479 4.432 1.325 4023
1.475 4.421 1.307 5227
1.474 4.417 1.292 8089
1.478 4.427 1.280 8629
1.505 4.511 1.287 5035
1.511 4.529 1.277 5635
1.515 4.539 1.265 4701
1.545 4.630 1.273 4770
1.580 4.735 1.284 5382
1.594 4.775 1.279 5234
1.604 4.807 1.271 6747
1.618 4.847 1.265 5334
1.626 4.872 1.255 8741
1.627 4.875 1.241 10582
1.628 4.878 1.226 6168
1.686 5.050 1.248 2966
1.682 5.039 1.230 3602
1.690 5.064 1.219 3018
1.694 5.074 1.205 3032
1.773 5.313 1.239 2762
1.774 5.316 1.223 3175
1.780 5.334 1.210 2925
1.840 5.514 1.229 3565
1.844 5.524 1.214 3890
1.798 5.387 1.170 3114
1.843 5.522 1.178 2862
1.886 5.651 1.185 3365
1.875 5.617 1.161 3088
1.957 5.864 1.188 3224
1.985 5.948 1.185 3664
1.984 5.944 1.165 5303
1.982 5.939 1.146 3759
2.013 6.031 1.143 2735
2.115 6.338 1.174 3120
2.119 6.348 1.156 4106
2.112 6.329 1.133 3480
2.128 6.376 1.121 2930
2.233 6.691 1.149 2268
2.207 6.612 1.116 1915
2.205 6.607 1.095 2817
2.323 6.959 1.125 3092
2.329 6.977 1.105 3191
2.344 7.024 1.090 2842
2.345 7.027 1.069 2780
2.346 7.029 1.047 2196
2.317 6.943 1.014 1977
2.398 7.184 1.023 1983
2.398 7.186 1.001 1951
2.369 7.099 0.968 2183
2.375 7.116 0.948 1925
2.615 7.835 1.006 1483
2.588 7.755 0.974 1645
2.724 8.161 0.992 1743
2.827 8.470 0.999 1688
2.828 8.472 0.973 1587
2.881 8.632 0.962 1969
2.877 8.619 0.934 2842
2.880 8.628 0.908 3124
2.885 8.646 0.883 2648
2.831 8.483 0.843 2737
2.832 8.485 0.817 2551
2.892 8.666 0.805 2486
2.888 8.653 0.777 2663
2.889 8.655 0.751 1823
2.889 8.657 0.724 1343
2.890 8.658 0.698 1049
2.890 8.660 0.671 563
0.629 1.864 1.510 3796
0.630 1.868 1.504 7593
0.632 1.871 1.498 6195
0.631 1.869 1.488 4810
0.632 1.873 1.483 4810
0.635 1.883 1.482 4389
0.639 1.892 1.480 4030
0.642 1.902 1.479 4026
0.698 2.067 1.590 5212
0.699 2.071 1.583 5212
0.698 2.069 1.573 6674
0.700 2.073 1.567 8273
0.703 2.083 1.565 9492
0.707 2.093 1.563 11201
0.710 2.103 1.561 11549
0.713 2.114 1.559 12129
0.723 2.143 1.570 9875
0.727 2.153 1.568 9557
0.726 2.151 1.557 15677
0.727 2.154 1.550 22051
0.729 2.158 1.544 22765
0.730 2.162 1.537 27045
0.731 2.166 1.531 30612
0.732 2.170 1.524 29780
0.736 2.180 1.522 29728
0.737 2.184 1.515 30656
0.741 2.194 1.513 32699
0.742 2.198 1.506 29553
0.741 2.195 1.496 24342
0.745 2.205 1.493 22118
0.746 2.209 1.486 19795
0.749 2.219 1.484 17939
0.750 2.223 1.477 12538
0.782 2.318 1.526 9673
0.784 2.321 1.519 9347
0.787 2.332 1.516 9082
0.786 2.329 1.505 9528
0.785 2.326 1.494 10257
0.787 2.330 1.487 9920
0.788 2.334 1.480 8205
0.789 2.337 1.473 6827
0.790 2.341 1.466 5386
0.847 2.509 1.554 6524
0.851 2.520 1.550 5900
0.861 2.550 1.557 5740
0.851 2.521 1.531 8141
0.852 2.525 1.523 13098
0.856 2.535 1.520 15125
0.855 2.533 1.508 12235
0.881 2.610 1.541 7459
0.882 2.613 1.533 9252
0.881 2.611 1.521 8706
0.880 2.608 1.510 7178
0.879 2.605 1.498 4719
0.928 2.749 1.565 3961
0.932 2.760 1.560 4345
0.931 2.757 1.548 4126
0.925 2.741 1.530 5943
0.933 2.765 1.532 7442
0.937 2.776 1.527 8581
0.938 2.779 1.518 9644
0.960 2.844 1.541 7362
0.964 2.855 1.535 9844
0.965 2.859 1.527 11010
0.969 2.869 1.521 11600
0.972 2.880 1.516 9958
0.978 2.897 1.514 8349
0.972 2.881 1.495 9015
0.976 2.891 1.490 9533
0.984 2.915 1.491 7871
0.988 2.926 1.485 6022
0.994 2.943 1.483 6372
1.000 2.961 1.480 7171
0.996 2.951 1.465 5601
1.002 2.968 1.462 6343
1.010 2.993 1.462 8402
1.011 2.996 1.453 8108
1.017 3.014 1.450 7959
1.023 3.031 1.447 10668
1.027 3.042 1.441 9907
1.040 3.080 1.447 8104
1.041 3.084 1.438 7785
1.047 3.101 1.434 9185
1.048 3.105 1.425 11092
1.052 3.115 1.418 10283
1.058 3.133 1.415 8487
1.070 3.171 1.420 6547
1.074 3.182 1.413 6600
1.075 3.185 1.403 6813
1.086 3.217 1.405 5757
1.116 3.305 1.428 4446
1.124 3.329 1.427 3865
1.158 3.431 1.455 4704
1.162 3.442 1.447 5506
1.161 3.438 1.434 7175
1.162 3.442 1.424 9453
1.163 3.446 1.413 15537
1.162 3.442 1.400 17295
1.168 3.460 1.395 13383
1.174 3.477 1.390 12265
1.177 3.488 1.382 8808
1.183 3.505 1.376 7168
1.216 3.601 1.398 7632
1.217 3.605 1.387 8678
1.218 3.608 1.376 7528
1.217 3.604 1.363 8330
1.223 3.622 1.357 8890
1.226 3.633 1.348 7576
1.254 3.715 1.363 5397
1.270 3.761 1.366 4929
1.273 3.771 1.357 4531
1.311 3.882 1.381 3547
1.312 3.886 1.369 3680
1.310 3.882 1.355 3055
1.312 3.885 1.343 2292
1.322 3.917 1.340 2891
1.321 3.914 1.326 3908
1.322 3.917 1.314 2988
1.372 4.064 1.346 3762
1.378 4.082 1.338 4862
1.401 4.150 1.344 5452
1.405 4.161 1.334 6036
1.433 4.244 1.344 6166
1.436 4.254 1.333 4978
1.437 4.258 1.320 4701
1.490 4.413 1.349 5491
1.481 4.388 1.328 4232
1.490 4.413 1.321 4387
1.493 4.423 1.309 4507
1.492 4.419 1.294 6211
1.493 4.422 1.280 7560
1.518 4.498 1.286 5176
1.524 4.516 1.276 5959
1.528 4.526 1.264 4556
1.564 4.632 1.275 4226
1.597 4.730 1.284 4574
1.622 4.806 1.288 4904
1.623 4.809 1.273 6894
1.629 4.827 1.262 5089
1.643 4.867 1.255 7043
1.644 4.870 1.241 8671
1.645 4.873 1.226 5141
1.700 5.037 1.247 3094
1.699 5.033 1.230 4003
1.710 5.065 1.221 3736
1.711 5.068 1.205 3672
1.791 5.307 1.239 2808
1.795 5.317 1.225 3363
1.798 5.327 1.210 3140
1.854 5.493 1.226 3653
1.858 5.503 1.211 3827
1.871 5.543 1.201 3036
1.865 5.523 1.180 3554
1.895 5.615 1.180 3475
1.894 5.610 1.161 3418
1.977 5.857 1.188 3268
2.006 5.941 1.185 3931
2.004 5.937 1.165 5517
2.003 5.932 1.146 3832
2.076 6.150 1.164 2679
2.140 6.338 1.175 3170
2.140 6.341 1.156 4249
2.146 6.358 1.139 3269
2.152 6.376 1.122 2520
2.254 6.676 1.148 2262
2.227 6.597 1.115 1852
2.198 6.510 1.082 3377
2.281 6.758 1.097 3439
2.353 6.969 1.105 2959
2.368 7.016 1.090 2778
2.369 7.019 1.069 2863
2.338 6.925 1.035 2403
2.341 6.935 1.014 2381
2.392 7.086 1.012 1922
2.395 7.096 0.991 2179
2.394 7.091 0.968 2362
2.397 7.100 0.947 1991
2.642 7.826 1.006 1707
2.615 7.746 0.974 1538
2.752 8.152 0.992 1740
2.750 8.147 0.967 1587
2.854 8.455 0.972 1545
2.908 8.614 0.961 2068
2.904 8.601 0.933 2918
2.907 8.611 0.908 3169
2.910 8.621 0.882 2555
2.860 8.473 0.843 2434
2.861 8.475 0.817 2168
2.917 8.641 0.804 2682
2.918 8.643 0.777 2875
2.918 8.645 0.751 1799
2.919 8.647 0.724 1235
2.919 8.648 0.698 1009
2.920 8.650 0.671 594
2.920 8.651 0.645 274
0.633 1.862 1.510 3886
0.634 1.866 1.504 7773
0.636 1.870 1.498 6244
0.643 1.892 1.507 4954
0.644 1.896 1.501 4954
0.642 1.887 1.486 4452
0.643 1.891 1.480 4039
0.659 1.938 1.506 4007
0.702 2.066 1.590 5503
0.703 2.070 1.583 5503
0.703 2.067 1.573 7467
0.704 2.071 1.567 9476
0.708 2.081 1.565 10542
0.711 2.092 1.563 12363
0.714 2.102 1.561 12724
0.716 2.106 1.554 13099
0.728 2.141 1.570 10136
0.731 2.151 1.568 9878
0.730 2.149 1.557 15568
0.732 2.153 1.550 21563
0.733 2.157 1.544 22286
0.734 2.161 1.537 26363
0.736 2.165 1.531 29718
0.737 2.168 1.524 29105
0.741 2.179 1.522 29411
0.744 2.189 1.520 30246
0.745 2.193 1.513 32170
0.744 2.190 1.502 29143
0.746 2.194 1.496 24440
0.749 2.204 1.493 22747
0.750 2.208 1.486 20513
0.754 2.218 1.484 18801
0.755 2.222 1.477 13192
0.787 2.316 1.526 10239
0.789 2.320 1.519 10123
0.790 2.324 1.512 10007
0.791 2.327 1.505 10486
0.790 2.325 1.494 11028
0.791 2.328 1.487 10613
0.793 2.332 1.480 8705
0.794 2.336 1.473 7212
0.795 2.339 1.466 5654
0.852 2.508 1.554 6146
0.854 2.512 1.546 5593
0.857 2.522 1.542 5126
0.856 2.519 1.531 7706
0.858 2.523 1.523 11843
0.861 2.534 1.520 13424
0.860 2.531 1.508 10670
0.886 2.608 1.541 7361
0.888 2.612 1.533 9052
0.887 2.609 1.521 8573
0.886 2.606 1.510 7245
0.885 2.603 1.498 4816
0.934 2.747 1.565 3985
0.937 2.758 1.560 4357
0.930 2.735 1.538 4556
0.931 2.739 1.530 6772
0.937 2.756 1.528 8117
0.940 2.767 1.523 8207
0.946 2.784 1.522 8287
0.968 2.849 1.544 7206
0.972 2.860 1.539 9603
0.971 2.857 1.527 10761
0.975 2.867 1.521 11374
0.978 2.878 1.516 9786
0.984 2.895 1.514 8517
0.978 2.879 1.495 8860
0.980 2.882 1.487 9403
0.986 2.900 1.484 7429
0.994 2.924 1.485 6005
1.000 2.941 1.483 6842
1.006 2.959 1.480 7910
1.002 2.949 1.465 5902
1.008 2.966 1.462 6168
1.014 2.984 1.459 7606
1.018 2.994 1.453 7092
1.021 3.005 1.447 6835
1.030 3.029 1.447 8897
1.031 3.033 1.438 8688
1.041 3.064 1.441 7307
1.047 3.081 1.438 7401
1.053 3.099 1.434 8294
1.055 3.103 1.425 10403
1.058 3.113 1.418 9742
1.064 3.131 1.415 7550
1.077 3.169 1.420 6640
1.078 3.172 1.410 6536
1.077 3.169 1.398 6314
1.121 3.299 1.438 5269
1.122 3.302 1.428 4358
1.131 3.327 1.427 3844
1.165 3.429 1.455 5443
1.169 3.439 1.447 7092
1.168 3.436 1.434 9489
1.169 3.440 1.424 11585
1.170 3.443 1.413 17674
1.172 3.447 1.403 19738
1.175 3.457 1.395 16045
1.181 3.475 1.390 14202
1.182 3.478 1.379 9276
1.188 3.496 1.373 6910
1.221 3.592 1.396 7216
1.224 3.602 1.387 8284
1.226 3.606 1.376 6348
1.224 3.602 1.363 6480
1.230 3.620 1.357 7743
1.234 3.630 1.348 6871
1.264 3.719 1.366 5484
1.275 3.751 1.364 4672
1.271 3.740 1.348 4061
1.272 3.743 1.337 3697
1.317 3.876 1.367 3594
1.319 3.879 1.355 3116
1.312 3.861 1.336 2922
1.340 3.943 1.349 2493
1.332 3.918 1.328 2656
1.374 4.044 1.354 2874
1.378 4.054 1.343 4182
1.384 4.072 1.335 4635
1.410 4.147 1.344 5188
1.438 4.230 1.355 5306
1.441 4.241 1.344 6157
1.443 4.244 1.331 5087
1.446 4.255 1.320 4687
1.501 4.417 1.351 5002
1.488 4.377 1.326 5506
1.491 4.388 1.315 5724
1.500 4.413 1.307 4780
1.501 4.416 1.294 5347
1.505 4.426 1.282 6096
1.528 4.495 1.286 4986
1.531 4.506 1.274 5980
1.537 4.523 1.264 4477
1.573 4.628 1.275 3519
1.607 4.726 1.284 3392
1.637 4.817 1.291 4611
1.634 4.806 1.273 6560
1.637 4.816 1.260 4973
1.653 4.863 1.255 5402
1.654 4.866 1.241 6800
1.655 4.869 1.226 4173
1.711 5.034 1.247 3042
1.710 5.029 1.230 4141
1.723 5.069 1.222 4396
1.724 5.072 1.207 4152
1.803 5.303 1.239 2461
1.806 5.313 1.225 3048
1.810 5.324 1.210 2849
1.863 5.481 1.224 4010
1.869 5.499 1.211 3964
1.883 5.539 1.201 3156
1.876 5.520 1.180 3798
1.907 5.611 1.180 3877
1.908 5.614 1.162 3857
1.907 5.609 1.144 3383
2.021 5.945 1.186 3965
2.017 5.933 1.165 5399
2.015 5.928 1.146 3827
2.089 6.146 1.164 2669
2.153 6.334 1.175 2937
2.154 6.336 1.156 3972
2.162 6.361 1.140 2944
2.269 6.676 1.169 2466
2.268 6.671 1.148 2129
2.223 6.540 1.107 1950
2.211 6.506 1.082 3649
2.210 6.501 1.061 3544
2.299 6.763 1.077 2810
2.383 7.011 1.090 2683
2.384 7.014 1.069 2994
2.352 6.920 1.035 2845
2.355 6.930 1.014 2639
2.407 7.081 1.012 2224
2.408 7.083 0.990 2292
2.408 7.086 0.968 2402
2.657 7.818 1.030 2062
2.658 7.821 1.006 1816
2.492 7.331 0.929 1493
2.769 8.146 0.992 1640
2.767 8.141 0.967 1468
2.872 8.449 0.972 1468
2.923 8.601 0.960 2076
2.922 8.595 0.933 2880
2.925 8.605 0.908 3137
2.928 8.615 0.882 2509
2.878 8.467 0.843 2187
2.924 8.604 0.828 2309
2.930 8.620 0.803 2861
2.936 8.637 0.777 2899
2.936 8.639 0.751 1655
2.940 8.648 0.725 1041
2.938 8.642 0.698 897
2.938 8.644 0.671 562
0.638 1.861 1.510 4491
0.639 1.865 1.504 8983
0.643 1.874 1.503 7167
0.650 1.897 1.511 6005
0.651 1.900 1.505 6005
0.657 1.916 1.509 5603
0.660 1.926 1.507 5498
0.664 1.936 1.506 5726
0.665 1.940 1.500 6021
0.709 2.068 1.583 5682
0.708 2.066 1.573 8238
0.709 2.069 1.567 10812
0.713 2.080 1.565 12427
0.716 2.090 1.563 14717
0.718 2.094 1.556 14530
0.721 2.104 1.554 14491
0.720 2.102 1.544 10697
0.741 2.162 1.576 10026
0.736 2.147 1.557 15216
0.737 2.151 1.550 20725
0.739 2.155 1.544 21467
0.740 2.159 1.537 25411
0.741 2.163 1.531 28613
0.745 2.173 1.529 28124
0.746 2.177 1.522 28668
0.750 2.187 1.520 29405
0.751 2.191 1.513 31084
0.750 2.188 1.502 28015
0.751 2.192 1.496 23932
0.755 2.202 1.493 23158
0.756 2.206 1.486 20945
0.760 2.216 1.484 19285
0.761 2.220 1.477 13588
0.793 2.314 1.526 10262
0.794 2.318 1.519 10490
0.796 2.322 1.512 10717
0.797 2.325 1.505 11172
0.798 2.329 1.498 11627
0.797 2.326 1.487 11261
0.799 2.330 1.480 9226
0.800 2.334 1.473 7494
0.801 2.337 1.466 5811
0.857 2.499 1.550 5829
0.858 2.503 1.542 5490
0.850 2.480 1.520 5622
0.861 2.510 1.527 7521
0.864 2.521 1.523 10541
0.868 2.531 1.520 11541
0.869 2.535 1.512 8972
0.891 2.599 1.537 7135
0.894 2.609 1.533 8818
0.893 2.606 1.521 8710
0.892 2.604 1.510 7578
0.914 2.667 1.534 5287
0.916 2.671 1.526 4023
0.942 2.749 1.557 4335
0.937 2.733 1.538 5073
0.938 2.736 1.530 7552
0.942 2.747 1.525 8875
0.948 2.764 1.523 7570
0.954 2.782 1.522 6686
0.976 2.846 1.544 6961
0.979 2.857 1.539 9171
0.978 2.854 1.527 10160
0.982 2.865 1.521 10953
0.986 2.875 1.516 9529
0.994 2.900 1.517 8509
0.986 2.876 1.495 8741
0.987 2.880 1.487 9506
0.991 2.890 1.481 7947
0.999 2.915 1.482 7285
1.005 2.932 1.479 7839
1.011 2.949 1.477 8373
1.012 2.953 1.468 5964
1.016 2.964 1.462 5471
1.022 2.981 1.459 6234
1.023 2.985 1.450 5612
1.029 3.002 1.447 5491
1.033 3.013 1.441 7314
1.036 3.023 1.435 8011
1.045 3.047 1.435 7347
1.053 3.072 1.435 7122
1.061 3.096 1.434 7178
1.063 3.100 1.425 9216
1.066 3.110 1.418 8853
1.075 3.135 1.418 7326
1.085 3.166 1.420 7073
1.084 3.163 1.407 6820
1.083 3.159 1.395 5728
1.130 3.296 1.438 5962
1.133 3.306 1.431 4615
1.173 3.422 1.465 4067
1.174 3.426 1.455 6264
1.178 3.436 1.447 8925
1.179 3.440 1.437 12229
1.178 3.437 1.424 13858
1.179 3.440 1.413 19546
1.180 3.444 1.403 21991
1.184 3.454 1.395 18479
1.188 3.465 1.387 15971
1.191 3.475 1.379 9621
1.195 3.486 1.371 6403
1.215 3.546 1.381 7269
1.234 3.599 1.387 7323
1.235 3.602 1.376 5462
1.234 3.599 1.363 4988
1.240 3.616 1.357 6330
1.273 3.712 1.377 6762
1.274 3.716 1.366 5691
1.282 3.741 1.362 4428
1.278 3.730 1.346 4068
1.282 3.740 1.337 4276
1.325 3.865 1.364 3712
1.326 3.869 1.353 3282
1.320 3.850 1.334 3953
1.373 4.005 1.369 2746
1.376 4.015 1.359 2950
1.382 4.033 1.351 3156
1.386 4.043 1.341 4260
1.417 4.133 1.355 4344
1.420 4.144 1.344 5059
1.449 4.227 1.355 5841
1.450 4.230 1.342 6278
1.454 4.240 1.331 5065
1.457 4.251 1.320 4468
1.513 4.413 1.351 4699
1.502 4.381 1.328 7150
1.500 4.377 1.313 8010
1.509 4.402 1.305 6264
1.510 4.405 1.292 5241
1.518 4.430 1.284 4681
1.537 4.484 1.284 4781
1.543 4.502 1.274 6145
1.552 4.527 1.265 5084
1.563 4.559 1.259 3607
1.566 4.569 1.247 3063
1.652 4.820 1.293 4366
1.646 4.802 1.273 5854
1.647 4.805 1.258 4939
1.663 4.852 1.254 3936
1.667 4.862 1.241 4947
1.668 4.865 1.226 3114
1.724 5.029 1.247 2705
1.725 5.032 1.231 4110
1.736 5.065 1.222 5134
1.737 5.068 1.207 4615
1.736 5.063 1.190 2517
1.787 5.213 1.205 2708
1.866 5.444 1.235 2762
1.877 5.476 1.224 4572
1.881 5.487 1.209 4373
1.899 5.541 1.202 3447
1.893 5.522 1.181 3955
1.922 5.606 1.180 4605
1.923 5.609 1.162 4640
1.924 5.612 1.145 3868
2.036 5.939 1.186 3926
2.032 5.928 1.165 5202
2.030 5.923 1.146 3847
2.102 6.133 1.162 2568
2.103 6.136 1.144 2548
2.170 6.331 1.156 3388
2.181 6.363 1.141 2548
2.286 6.670 1.169 2420
2.285 6.665 1.148 1938
2.230 6.505 1.103 2278
2.226 6.493 1.081 4186
2.226 6.495 1.061 4157
2.316 6.757 1.077 3034
2.322 6.775 1.059 2927
2.402 7.008 1.069 3193
2.372 6.921 1.036 3234
2.373 6.924 1.014 2892
2.425 7.075 1.012 2501
2.426 7.077 0.990 2451
2.427 7.079 0.968 2460
2.680 7.819 1.031 2189
2.681 7.821 1.007 1853
2.511 7.324 0.929 1428
2.792 8.146 0.993 1511
2.681 7.821 0.935 1687
2.952 8.613 0.989 1450
2.946 8.593 0.960 2063
2.944 8.588 0.933 2711
2.947 8.597 0.908 3040
2.948 8.599 0.881 2579
2.948 8.601 0.855 2203
2.947 8.596 0.828 2684
2.952 8.613 0.803 3086
2.955 8.622 0.777 2838
2.959 8.631 0.751 1431
2.962 8.640 0.725 831
2.957 8.627 0.697 757
2.960 8.636 0.671 492
0.642 1.859 1.510 4704
0.644 1.863 1.504 9409
0.647 1.873 1.503 7209
0.655 1.895 1.511 5829
0.656 1.899 1.505 5829
0.662 1.915 1.509 5391
0.667 1.931 1.512 5580
0.671 1.941 1.511 5965
0.672 1.945 1.505 6384
0.673 1.948 1.499 6080
0.713 2.064 1.573 8770
0.715 2.068 1.567 11722
0.718 2.078 1.565 13316
0.722 2.088 1.563 15662
0.723 2.092 1.556 15351
0.724 2.096 1.550 15039
0.726 2.100 1.544 11330
0.746 2.160 1.576 9515
0.741 2.145 1.557 14094
0.743 2.149 1.550 18987
0.744 2.153 1.544 19744
0.745 2.157 1.537 23589
0.747 2.161 1.531 26679
0.750 2.171 1.529 26325
0.752 2.175 1.522 26966
0.755 2.185 1.520 27411
0.756 2.189 1.513 28621
0.758 2.193 1.506 25518
0.759 2.196 1.500 22137
0.760 2.200 1.493 22201
0.764 2.210 1.490 20058
0.765 2.214 1.484 18420
0.766 2.218 1.477 13041
0.799 2.312 1.526 9542
0.800 2.316 1.519 10063
0.802 2.320 1.512 10584
0.803 2.323 1.505 11004
0.804 2.327 1.498 11425
0.803 2.324 1.487 11220
0.804 2.328 1.480 9200
0.806 2.332 1.473 7245
0.807 2.335 1.466 5525
0.858 2.484 1.542 5617
0.857 2.481 1.531 5842
0.859 2.485 1.524 6111
0.867 2.508 1.527 7622
0.870 2.519 1.523 9387
0.874 2.529 1.520 9875
0.878 2.540 1.516 7735
0.897 2.596 1.537 6723
0.901 2.607 1.533 8419
0.900 2.604 1.521 8902
0.899 2.601 1.510 8063
0.919 2.659 1.530 6218
0.922 2.669 1.526 4788
0.944 2.733 1.550 4305
0.943 2.730 1.538 5253
0.945 2.734 1.530 7787
0.948 2.745 1.525 9081
0.952 2.755 1.520 7185
0.963 2.786 1.525 5801
0.983 2.844 1.544 6517
0.986 2.855 1.539 8457
0.988 2.858 1.530 9316
0.989 2.862 1.521 10319
0.993 2.873 1.516 9065
1.001 2.897 1.517 8031
0.993 2.874 1.495 8444
0.992 2.870 1.483 9619
0.998 2.888 1.481 8760
1.006 2.912 1.482 9038
1.010 2.923 1.476 8915
1.018 2.947 1.477 8464
1.020 2.951 1.468 5689
1.026 2.968 1.465 4722
1.029 2.978 1.459 4902
1.030 2.982 1.450 4186
1.036 2.999 1.447 4432
1.040 3.010 1.441 6376
1.041 3.014 1.432 7687
1.050 3.038 1.432 7280
1.058 3.062 1.432 6470
1.069 3.094 1.434 5978
1.070 3.097 1.425 7541
1.079 3.122 1.424 7656
1.082 3.132 1.418 7544
1.086 3.143 1.411 7736
1.090 3.153 1.404 7122
1.134 3.282 1.446 5712
1.140 3.300 1.441 6746
1.144 3.310 1.434 5257
1.182 3.419 1.465 4294
1.183 3.423 1.455 6650
1.186 3.434 1.447 9892
1.188 3.437 1.437 13673
1.187 3.434 1.424 14790
1.188 3.437 1.413 19760
1.189 3.441 1.403 22280
1.193 3.451 1.395 19023
1.196 3.462 1.387 16197
1.197 3.465 1.376 9325
1.216 3.518 1.384 6281
1.222 3.536 1.378 7892
1.240 3.589 1.385 6196
1.246 3.606 1.379 5080
1.243 3.596 1.363 4332
1.246 3.606 1.354 5082
1.282 3.709 1.377 6833
1.283 3.713 1.366 5663
1.289 3.730 1.359 4145
1.275 3.691 1.334 3876
1.333 3.859 1.376 4685
1.335 3.862 1.364 3893
1.336 3.865 1.353 3311
1.329 3.847 1.334 4444
1.385 4.008 1.371 3123
1.386 4.012 1.359 3121
1.392 4.029 1.351 3361
1.428 4.134 1.369 4099
1.430 4.137 1.357 5166
1.433 4.147 1.346 5353
1.459 4.223 1.355 6585
1.460 4.226 1.342 6007
1.464 4.237 1.331 4050
1.495 4.327 1.343 3852
1.496 4.330 1.329 4513
1.515 4.384 1.330 7854
1.514 4.380 1.315 9622
1.520 4.398 1.305 7579
1.521 4.401 1.292 5396
1.532 4.433 1.286 4309
1.548 4.480 1.284 4773
1.557 4.505 1.276 6169
1.565 4.530 1.267 5886
1.579 4.569 1.263 5097
1.580 4.573 1.249 4102
1.616 4.678 1.259 3921
1.655 4.790 1.271 4975
1.659 4.801 1.258 4807
1.668 4.826 1.249 3746
1.679 4.858 1.241 4066
1.680 4.861 1.226 2416
1.739 5.032 1.248 2300
1.745 5.050 1.236 4026
1.749 5.060 1.222 5546
1.750 5.063 1.207 4812
1.789 5.176 1.215 3186
1.795 5.194 1.202 3297
1.877 5.432 1.234 3004
1.891 5.472 1.224 4771
1.894 5.482 1.209 4558
1.913 5.537 1.202 3442
1.912 5.532 1.184 3621
1.936 5.601 1.180 5131
1.937 5.604 1.162 5260
1.938 5.607 1.145 4220
1.936 5.602 1.127 4005
2.047 5.922 1.165 4608
2.045 5.918 1.146 3669
2.115 6.120 1.161 2272
2.118 6.130 1.144 2286
2.186 6.325 1.156 2704
2.153 6.232 1.121 2567
2.305 6.671 1.170 2260
2.240 6.482 1.120 1788
2.243 6.492 1.102 2376
2.242 6.487 1.081 4280
2.240 6.482 1.060 4295
2.336 6.759 1.078 3020
2.339 6.769 1.059 3134
2.419 7.002 1.069 3338
2.390 6.915 1.036 3443
2.393 6.925 1.015 3000
2.443 7.069 1.012 2592
2.443 7.071 0.990 2467
2.442 7.066 0.967 2390
2.699 7.812 1.031 2219
2.700 7.814 1.007 1797
2.526 7.311 0.928 1284
2.694 7.797 0.957 1429
2.700 7.814 0.935 1851
2.974 8.606 0.989 1363
2.967 8.586 0.960 1949
2.965 8.580 0.933 2442
2.968 8.590 0.908 2865
2.969 8.592 0.881 2673
2.967 8.587 0.854 2479
2.968 8.589 0.828 2894
2.971 8.598 0.802 3135
2.977 8.615 0.777 2616
2.977 8.616 0.750 1219
3.058 8.850 0.740 760
3.056 8.844 0.712 664
3.057 8.845 0.685 440
0.648 1.857 1.510 4806
0.649 1.861 1.504 9613
0.653 1.871 1.503 7513
0.661 1.893 1.511 6363
0.662 1.897 1.505 6363
0.665 1.907 1.504 5970
0.671 1.923 1.507 6046
0.674 1.933 1.506 5021
0.717 2.054 1.585 5926
0.718 2.058 1.579 5926
0.719 2.062 1.573 9152
0.721 2.066 1.567 12378
0.724 2.076 1.565 14065
0.728 2.086 1.563 16476
0.729 2.090 1.556 15969
0.731 2.094 1.550 15462
0.730 2.091 1.540 12015
0.731 2.095 1.533 8942
0.748 2.143 1.557 12460
0.749 2.147 1.550 16582
0.751 2.151 1.544 17354
0.752 2.155 1.537 21111
0.753 2.159 1.531 24097
0.757 2.169 1.529 23889
0.758 2.173 1.522 24683
0.762 2.183 1.520 24869
0.763 2.186 1.513 25572
0.764 2.190 1.506 22532
0.768 2.200 1.504 19885
0.769 2.204 1.497 20717
0.771 2.208 1.490 18762
0.772 2.212 1.484 17042
0.773 2.215 1.477 12205
0.806 2.310 1.526 8390
0.807 2.313 1.519 9329
0.806 2.311 1.508 10301
0.810 2.321 1.505 10659
0.811 2.325 1.498 11051
0.810 2.322 1.487 11034
0.812 2.326 1.480 8967
0.813 2.329 1.473 6726
0.853 2.444 1.531 5663
0.859 2.461 1.531 5922
0.865 2.478 1.531 6267
0.866 2.482 1.524 6700
0.872 2.499 1.524 8031
0.878 2.516 1.523 8456
0.884 2.533 1.523 8645
0.888 2.544 1.519 6994
0.905 2.594 1.537 6005
0.906 2.598 1.529 7786
0.908 2.601 1.521 9080
0.909 2.605 1.513 8795
0.924 2.649 1.527 7096
0.930 2.666 1.526 5324
0.950 2.724 1.546 4379
0.954 2.734 1.541 5259
0.953 2.731 1.530 7703
0.954 2.735 1.521 9016
0.961 2.752 1.520 6990
0.967 2.770 1.518 5935
0.966 2.767 1.507 7603
0.967 2.770 1.498 9051
0.966 2.767 1.486 9467
0.967 2.771 1.478 9593
0.999 2.863 1.513 8565
0.981 2.812 1.478 8055
0.999 2.864 1.492 8231
1.001 2.867 1.483 9977
1.007 2.885 1.481 10091
1.013 2.902 1.479 11210
1.016 2.913 1.473 10166
1.027 2.944 1.477 8226
1.031 2.954 1.471 5216
1.039 2.979 1.472 4177
1.041 2.982 1.462 4101
1.044 2.993 1.456 3498
1.046 2.996 1.447 3978
1.047 3.000 1.438 6084
1.048 3.003 1.429 7686
1.057 3.028 1.429 7273
1.065 3.052 1.429 6018
1.098 3.146 1.458 4886
1.082 3.101 1.428 5403
1.091 3.125 1.427 6533
1.094 3.136 1.420 7724
1.096 3.139 1.411 8717
1.097 3.143 1.401 7564
1.144 3.279 1.446 6405
1.150 3.296 1.441 7824
1.154 3.307 1.434 6357
1.158 3.318 1.427 4555
1.193 3.419 1.455 6409
1.197 3.430 1.447 9943
1.198 3.433 1.437 13959
1.197 3.430 1.424 14665
1.198 3.434 1.413 18979
1.199 3.437 1.403 21311
1.203 3.448 1.395 18258
1.204 3.451 1.384 15509
1.208 3.461 1.376 8633
1.229 3.521 1.386 6647
1.230 3.525 1.375 7811
1.241 3.557 1.375 5685
1.260 3.610 1.381 4780
1.249 3.578 1.358 4551
1.252 3.588 1.350 4472
1.293 3.705 1.377 6314
1.297 3.716 1.368 5188
1.276 3.655 1.336 3561
1.284 3.680 1.332 4083
1.343 3.847 1.374 5213
1.346 3.858 1.364 4016
1.337 3.833 1.343 3454
1.339 3.836 1.332 4465
1.400 4.011 1.374 3446
1.401 4.015 1.361 3226
1.442 4.133 1.384 3915
1.441 4.129 1.369 4929
1.442 4.133 1.357 6206
1.446 4.143 1.346 6059
1.470 4.211 1.353 7324
1.471 4.215 1.340 5743
1.512 4.333 1.360 3348
1.511 4.329 1.345 4281
1.515 4.340 1.333 4955
1.526 4.372 1.328 7950
1.527 4.375 1.315 10320
1.531 4.386 1.303 8413
1.532 4.389 1.290 5663
1.520 4.356 1.267 4842
1.572 4.504 1.291 4997
1.576 4.515 1.279 6675
1.582 4.532 1.269 6503
1.595 4.572 1.264 6548
1.597 4.575 1.250 5200
1.631 4.673 1.259 4072
1.670 4.785 1.271 4019
1.671 4.788 1.257 4413
1.682 4.821 1.249 3984
1.694 4.853 1.241 3948
1.697 4.863 1.227 2214
1.757 5.034 1.250 1912
1.760 5.045 1.236 3953
1.767 5.062 1.224 5777
1.765 5.058 1.207 4857
1.805 5.171 1.215 4496
1.808 5.181 1.200 3890
1.883 5.397 1.228 3363
1.908 5.466 1.224 4677
1.911 5.476 1.209 4653
1.930 5.531 1.202 3441
1.931 5.534 1.185 3251
1.953 5.595 1.180 5003
1.956 5.606 1.164 5260
1.955 5.601 1.145 4251
1.953 5.596 1.127 4166
2.065 5.916 1.165 3800
2.063 5.912 1.146 3274
2.046 5.863 1.119 2326
2.034 5.828 1.095 2916
2.032 5.824 1.076 2788
2.170 6.218 1.120 2576
2.256 6.465 1.139 2470
2.257 6.467 1.119 1812
2.258 6.470 1.100 2449
2.259 6.473 1.080 4432
2.260 6.475 1.060 4365
2.356 6.752 1.078 2842
2.360 6.762 1.059 2998
2.441 6.994 1.069 3453
2.413 6.915 1.037 3614
2.414 6.918 1.015 3119
2.464 7.061 1.012 2580
2.462 7.056 0.989 2449
2.463 7.058 0.967 2296
2.723 7.804 1.031 2177
2.724 7.806 1.007 1674
2.689 7.704 0.972 1230
2.726 7.811 0.959 1444
2.724 7.806 0.935 1955
2.725 7.808 0.911 1266
2.993 8.577 0.960 1786
2.991 8.571 0.933 2136
2.995 8.581 0.908 2675
2.993 8.576 0.881 2861
2.993 8.578 0.854 2771
2.994 8.580 0.828 2984
2.997 8.589 0.802 3051
3.001 8.598 0.776 2350
3.004 8.607 0.750 1047
3.085 8.840 0.740 868
3.086 8.842 0.713 769
3.084 8.836 0.685 543
3.084 8.837 0.658 256
0.654 1.855 1.510 5162
0.655 1.859 1.504 10324
0.658 1.869 1.503 7482
0.666 1.891 1.511 5794
0.668 1.895 1.505 5794
0.673 1.911 1.509 5546
0.677 1.921 1.507 5583
0.680 1.931 1.506 4991
0.725 2.058 1.590 5586
0.726 2.062 1.583 5586
0.726 2.059 1.573 8856
0.727 2.063 1.567 12172
0.730 2.074 1.565 14085
0.734 2.084 1.563 16556
0.735 2.088 1.556 16015
0.737 2.091 1.550 15474
0.736 2.089 1.540 12406
0.735 2.087 1.529 9644
0.754 2.141 1.557 10517
0.756 2.145 1.550 13885
0.757 2.149 1.544 14598
0.758 2.152 1.537 18109
0.760 2.156 1.531 20908
0.763 2.166 1.529 20769
0.767 2.177 1.526 21697
0.768 2.180 1.520 21697
0.769 2.184 1.513 22070
0.771 2.188 1.506 19325
0.774 2.198 1.504 17711
0.776 2.202 1.497 18886
0.777 2.206 1.490 16882
0.778 2.209 1.484 15089
0.780 2.213 1.477 10973
0.785 2.230 1.478 7441
0.814 2.311 1.519 8447
0.811 2.302 1.504 9874
0.815 2.312 1.501 9895
0.820 2.329 1.502 10034
0.815 2.313 1.483 10435
0.816 2.317 1.476 8538
0.820 2.327 1.473 6099
0.860 2.442 1.531 5961
0.866 2.459 1.531 6208
0.872 2.476 1.531 6365
0.878 2.493 1.531 6976
0.879 2.496 1.524 8148
0.885 2.513 1.523 7734
0.891 2.530 1.523 7609
0.897 2.547 1.523 6375
0.913 2.591 1.537 5142
0.914 2.595 1.529 6995
0.916 2.599 1.521 8823
0.917 2.603 1.513 9066
0.932 2.646 1.527 7277
0.938 2.663 1.526 5421
0.959 2.721 1.546 4332
0.962 2.731 1.541 5043
0.964 2.735 1.533 7243
0.963 2.732 1.521 8547
0.966 2.743 1.516 6813
0.975 2.767 1.518 6651
0.976 2.771 1.510 9037
0.975 2.768 1.498 10006
0.974 2.765 1.486 10008
0.975 2.768 1.478 10029
0.981 2.785 1.476 8443
0.992 2.816 1.481 8140
1.005 2.854 1.489 7924
1.009 2.864 1.483 10122
1.018 2.889 1.484 11196
1.021 2.899 1.479 12805
1.025 2.910 1.473 11290
1.034 2.934 1.474 8077
1.040 2.951 1.471 4680
1.048 2.975 1.472 3978
1.052 2.986 1.466 4462
1.053 2.990 1.456 4337
1.054 2.993 1.447 4200
1.056 2.997 1.438 5617
1.057 3.000 1.429 7235
1.063 3.018 1.426 6894
1.072 3.042 1.426 5547
1.107 3.143 1.458 3967
1.094 3.105 1.431 3622
1.100 3.122 1.427 5873
1.101 3.125 1.418 7775
1.105 3.136 1.411 9015
1.106 3.139 1.401 7811
1.156 3.282 1.448 6550
1.160 3.293 1.441 8352
1.164 3.304 1.434 6989
1.165 3.307 1.424 4922
1.203 3.416 1.455 5414
1.207 3.426 1.447 8767
1.208 3.430 1.437 12698
1.207 3.426 1.424 13375
1.208 3.430 1.413 17142
1.210 3.433 1.403 19000
1.213 3.444 1.395 16362
1.215 3.447 1.384 14351
1.216 3.451 1.374 7967
1.239 3.518 1.386 6504
1.241 3.521 1.375 6808
1.247 3.539 1.370 5544
1.255 3.563 1.366 4857
1.259 3.574 1.358 4575
1.260 3.577 1.347 4133
1.304 3.701 1.377 5133
1.313 3.726 1.373 4360
1.286 3.651 1.336 4121
1.293 3.669 1.329 4613
1.354 3.843 1.374 5164
1.355 3.847 1.362 3781
1.346 3.821 1.341 3396
1.350 3.832 1.332 4022
1.412 4.007 1.374 3230
1.413 4.010 1.361 2938
1.455 4.129 1.384 4115
1.453 4.125 1.369 5375
1.454 4.128 1.357 6837
1.458 4.139 1.346 6605
1.482 4.207 1.353 7627
1.481 4.203 1.338 5700
1.528 4.336 1.362 3271
1.529 4.339 1.349 4358
1.532 4.350 1.337 5027
1.539 4.368 1.328 7063
1.540 4.371 1.315 10105
1.544 4.381 1.303 8970
1.537 4.363 1.284 6119
1.533 4.351 1.267 5347
1.588 4.507 1.293 5909
1.589 4.510 1.279 6964
1.595 4.528 1.269 6357
1.609 4.567 1.264 7214
1.610 4.570 1.250 5761
1.644 4.668 1.259 3892
1.687 4.787 1.273 3151
1.688 4.791 1.258 3806
1.699 4.823 1.250 4202
1.708 4.848 1.241 4242
1.711 4.858 1.227 2356
1.733 4.920 1.226 2076
1.778 5.047 1.238 3792
1.779 5.050 1.222 5495
1.814 5.148 1.227 5308
1.820 5.166 1.215 5507
1.823 5.176 1.200 4276
1.897 5.384 1.226 3557
1.924 5.460 1.224 4282
1.824 5.177 1.151 4825
1.944 5.518 1.201 3099
1.947 5.528 1.185 2677
1.972 5.597 1.181 4652
1.973 5.600 1.164 5158
2.000 5.676 1.160 4382
1.970 5.591 1.127 4029
2.082 5.910 1.165 3043
2.073 5.883 1.142 3030
2.055 5.834 1.115 3025
2.051 5.822 1.095 3851
2.050 5.818 1.076 3637
2.188 6.212 1.120 2564
2.275 6.458 1.139 2522
2.273 6.453 1.118 1726
2.274 6.456 1.098 2377
2.278 6.466 1.080 4168
2.279 6.469 1.060 4017
2.431 6.900 1.100 3194
2.380 6.755 1.059 2764
2.462 6.987 1.069 3364
2.436 6.915 1.038 3638
2.435 6.911 1.015 3109
2.482 7.046 1.011 2520
2.483 7.049 0.989 2389
2.484 7.051 0.967 2203
2.746 7.796 1.031 2102
2.711 7.694 0.996 2056
2.709 7.689 0.971 1731
2.710 7.691 0.948 1405
2.750 7.805 0.935 1961
2.750 7.807 0.911 1278
2.997 8.508 0.955 1684
2.998 8.510 0.929 2014
3.020 8.572 0.908 2487
3.018 8.567 0.881 2926
3.019 8.569 0.854 2916
3.019 8.571 0.828 2983
3.023 8.580 0.802 2908
3.026 8.589 0.776 2096
3.108 8.822 0.766 1067
3.111 8.831 0.740 880
3.109 8.825 0.712 831
3.110 8.827 0.685 618
3.110 8.828 0.658 273
0.659 1.853 1.510 5144
0.661 1.857 1.504 10289
0.666 1.873 1.508 6854
0.683 1.919 1.534 5510
0.684 1.923 1.528 5510
0.686 1.927 1.522 5081
0.696 1.955 1.534 4906
0.686 1.928 1.506 5168
0.687 1.932 1.500 5665
0.733 2.059 1.583 5534
0.732 2.057 1.573 8827
0.733 2.061 1.567 12284
0.737 2.071 1.565 14057
0.740 2.081 1.563 16299
0.742 2.085 1.556 15632
0.743 2.089 1.550 14965
0.742 2.087 1.540 12660
0.741 2.084 1.529 10711
0.745 2.095 1.527 9520
0.760 2.136 1.546 10930
0.761 2.140 1.540 11321
0.765 2.150 1.537 14444
0.766 2.154 1.531 17007
0.770 2.164 1.529 16988
0.773 2.174 1.526 18141
0.775 2.178 1.520 17973
0.776 2.182 1.513 18158
0.780 2.192 1.510 15921
0.786 2.209 1.512 16088
0.787 2.212 1.505 17443
0.784 2.203 1.490 14347
0.785 2.207 1.484 12270
0.789 2.217 1.481 9189
0.799 2.247 1.490 8074
0.800 2.250 1.484 8825
0.809 2.273 1.488 9939
0.815 2.290 1.489 9280
0.818 2.300 1.486 9017
0.820 2.304 1.479 9829
0.821 2.308 1.472 8105
0.822 2.311 1.465 5569
0.868 2.439 1.531 6445
0.874 2.456 1.531 6832
0.880 2.473 1.531 6422
0.888 2.497 1.535 7023
0.889 2.500 1.527 7885
0.893 2.511 1.523 7110
0.902 2.534 1.527 6702
0.903 2.538 1.519 5640
0.907 2.549 1.515 4418
0.922 2.592 1.529 5896
0.923 2.596 1.521 8175
0.925 2.600 1.513 8947
0.938 2.637 1.523 7059
0.944 2.654 1.522 5408
0.967 2.718 1.546 4279
0.971 2.728 1.541 4954
0.972 2.732 1.533 6880
0.971 2.729 1.521 7948
0.970 2.726 1.510 7080
0.981 2.757 1.515 8018
0.985 2.768 1.510 10624
0.986 2.771 1.502 10796
0.985 2.768 1.490 10066
0.984 2.765 1.478 9700
0.992 2.789 1.480 8172
1.001 2.813 1.481 7722
1.007 2.831 1.479 7554
1.018 2.861 1.483 9979
1.026 2.885 1.484 12178
1.030 2.896 1.479 14058
1.034 2.906 1.473 12155
1.038 2.917 1.467 7782
1.024 2.880 1.440 4407
1.055 2.965 1.468 3957
1.059 2.976 1.462 5513
1.062 2.986 1.456 5843
1.064 2.990 1.447 5061
1.065 2.994 1.438 5448
1.066 2.997 1.429 6574
1.072 3.014 1.426 6208
1.079 3.032 1.423 4993
1.082 3.042 1.417 3438
1.123 3.157 1.454 3009
1.107 3.112 1.424 5420
1.108 3.115 1.415 7231
1.114 3.133 1.411 8574
1.116 3.136 1.401 7753
1.166 3.279 1.448 6385
1.170 3.289 1.441 8570
1.171 3.293 1.431 7220
1.175 3.304 1.424 4975
1.181 3.321 1.419 5656
1.188 3.339 1.415 6784
1.219 3.426 1.437 10146
1.220 3.430 1.426 11005
1.219 3.426 1.413 14548
1.220 3.430 1.403 15566
1.224 3.440 1.395 13117
1.225 3.444 1.384 12017
1.229 3.454 1.376 6717
1.253 3.521 1.389 6259
1.254 3.525 1.378 4950
1.258 3.535 1.370 4917
1.261 3.545 1.361 5223
1.267 3.563 1.356 4217
1.271 3.573 1.347 3894
1.320 3.712 1.382 4115
1.327 3.729 1.375 4096
1.300 3.654 1.338 4969
1.304 3.665 1.329 5349
1.363 3.832 1.371 4751
1.362 3.828 1.357 3689
1.355 3.810 1.339 3288
1.367 3.842 1.336 3512
1.424 4.003 1.374 2683
1.435 4.035 1.370 2835
1.462 4.110 1.380 4324
1.466 4.120 1.369 5570
1.467 4.124 1.357 7119
1.471 4.134 1.346 7121
1.492 4.195 1.351 7951
1.491 4.191 1.336 5949
1.543 4.339 1.364 3006
1.545 4.342 1.351 4259
1.546 4.345 1.337 5121
1.549 4.356 1.326 5521
1.551 4.359 1.313 8489
1.552 4.362 1.299 8948
1.550 4.358 1.284 6094
1.603 4.506 1.309 5167
1.596 4.488 1.289 7125
1.600 4.498 1.277 7405
1.609 4.523 1.269 5551
1.623 4.562 1.264 6829
1.621 4.558 1.249 5527
1.659 4.663 1.259 3689
1.657 4.659 1.243 2986
1.708 4.800 1.262 3319
1.714 4.818 1.250 4172
1.720 4.835 1.239 4223
1.719 4.831 1.222 2598
1.746 4.907 1.224 2924
1.793 5.041 1.238 3477
1.794 5.044 1.222 4825
1.829 5.142 1.227 5755
1.836 5.160 1.215 6532
1.839 5.170 1.200 4794
1.827 5.136 1.177 3625
1.833 5.154 1.164 4048
1.842 5.179 1.153 5323
1.843 5.182 1.137 3288
1.946 5.471 1.176 2502
1.991 5.598 1.182 4200
1.990 5.594 1.164 4941
2.020 5.677 1.161 4765
1.989 5.592 1.128 4160
2.098 5.896 1.164 2228
2.083 5.855 1.138 3294
2.073 5.828 1.115 4039
2.069 5.816 1.095 4722
2.067 5.811 1.076 4405
2.068 5.814 1.058 3092
2.206 6.200 1.100 2317
2.209 6.210 1.082 1805
2.297 6.456 1.100 2250
2.298 6.459 1.080 3745
2.299 6.462 1.060 3350
2.452 6.893 1.100 3950
2.453 6.896 1.079 3215
2.483 6.980 1.069 2878
2.457 6.908 1.038 3619
2.540 7.140 1.046 2988
2.504 7.039 1.011 2402
2.505 7.041 0.989 2272
2.730 7.674 1.042 2724
2.731 7.676 1.018 2926
2.734 7.686 0.996 2824
2.732 7.681 0.971 2487
2.733 7.683 0.948 2057
2.773 7.797 0.935 1814
3.015 8.474 0.979 1609
3.018 8.484 0.953 1949
3.022 8.494 0.928 2250
3.046 8.563 0.908 2217
3.047 8.565 0.881 2786
3.045 8.559 0.854 2830
3.046 8.561 0.828 2779
3.046 8.563 0.802 2594
3.049 8.572 0.776 1732
3.090 8.686 0.757 1085
3.075 8.643 0.728 859
3.136 8.816 0.712 817
3.137 8.817 0.685 641
3.137 8.819 0.658 295
0.663 1.852 1.510 4609
0.664 1.856 1.504 9218
0.687 1.920 1.544 6459
0.689 1.924 1.538 5649
0.690 1.928 1.533 5649
0.696 1.944 1.536 5140
0.699 1.954 1.534 4975
0.696 1.946 1.520 4584
0.737 2.060 1.594 5390
0.739 2.064 1.588 5390
0.738 2.062 1.577 8416
0.737 2.060 1.567 11631
0.741 2.070 1.565 13484
0.744 2.080 1.563 15641
0.746 2.084 1.556 14980
0.747 2.088 1.550 14319
0.746 2.085 1.540 12490
0.745 2.083 1.529 10940
0.749 2.093 1.527 9614
0.759 2.122 1.538 8945
0.765 2.138 1.540 8706
0.767 2.142 1.533 11265
0.768 2.146 1.527 13616
0.774 2.163 1.529 13722
0.778 2.173 1.526 14909
0.781 2.183 1.524 14835
0.783 2.187 1.517 15054
0.789 2.203 1.519 14108
0.797 2.226 1.524 16292
0.796 2.224 1.513 17157
0.799 2.234 1.511 13777
0.812 2.270 1.524 11270
0.802 2.241 1.497 9342
0.803 2.245 1.490 8749
0.807 2.255 1.487 9206
0.811 2.265 1.485 9958
0.814 2.276 1.482 8876
0.820 2.292 1.482 8310
0.824 2.302 1.479 9099
0.825 2.306 1.472 7589
0.869 2.427 1.534 5780
0.872 2.437 1.531 7007
0.878 2.454 1.531 7655
0.884 2.471 1.531 6647
0.893 2.495 1.535 6871
0.894 2.499 1.527 7387
0.898 2.509 1.523 6526
0.906 2.533 1.527 6010
0.908 2.536 1.519 5047
0.911 2.547 1.515 3952
0.927 2.590 1.529 4991
0.928 2.594 1.521 7294
0.930 2.598 1.513 8250
0.931 2.602 1.506 6475
0.949 2.652 1.522 5338
0.941 2.629 1.500 4288
0.976 2.726 1.541 5181
0.977 2.730 1.533 6976
0.976 2.727 1.521 7627
0.977 2.731 1.513 7509
0.986 2.755 1.515 9122
0.990 2.766 1.510 11395
0.991 2.769 1.502 10922
0.992 2.773 1.493 9504
0.989 2.763 1.478 8637
1.002 2.801 1.486 7439
1.006 2.811 1.481 6839
1.012 2.829 1.479 6795
1.023 2.859 1.483 9263
1.032 2.884 1.484 12223
1.036 2.894 1.479 14125
1.039 2.905 1.473 12138
1.029 2.874 1.448 7931
1.027 2.871 1.436 4953
1.061 2.963 1.468 3273
1.064 2.974 1.462 5902
1.068 2.984 1.456 7201
1.069 2.988 1.447 6240
1.071 2.992 1.438 5701
1.074 3.002 1.432 5723
1.081 3.019 1.429 5219
1.084 3.030 1.423 4428
1.086 3.033 1.414 3392
1.129 3.154 1.454 3526
1.110 3.103 1.421 5722
1.112 3.106 1.412 6554
1.123 3.137 1.414 7805
1.122 3.134 1.401 7326
1.150 3.214 1.423 6491
1.176 3.287 1.441 8266
1.178 3.291 1.431 6821
1.179 3.294 1.421 4591
1.188 3.319 1.419 6128
1.194 3.336 1.415 7999
1.225 3.424 1.437 7580
1.227 3.427 1.426 8530
1.228 3.431 1.416 11849
1.229 3.434 1.405 12606
1.233 3.445 1.397 11063
1.234 3.448 1.387 10583
1.261 3.522 1.402 7014
1.262 3.526 1.391 6140
1.266 3.536 1.383 3691
