0.974 3.317 1.442 5009
0.977 3.327 1.435 4403
0.997 3.395 1.450 4478
0.996 3.391 1.437 5137
0.997 3.395 1.427 5145
1.016 3.463 1.441 7123
1.018 3.466 1.431 6901
1.025 3.492 1.428 4377
1.030 3.509 1.423 6690
1.038 3.535 1.420 7970
1.043 3.552 1.415 8947
1.061 3.613 1.425 6973
1.066 3.631 1.420 7513
1.069 3.642 1.411 6363
1.076 3.667 1.408 6517
1.080 3.678 1.399 6191
1.091 3.718 1.401 6216
1.086 3.699 1.382 3648
1.131 3.855 1.422 3213
1.133 3.858 1.411 3427
1.151 3.920 1.418 3190
1.154 3.931 1.409 3500
1.142 3.891 1.383 3000
1.141 3.887 1.369 3018
1.144 3.897 1.360 4126
1.149 3.915 1.352 3498
1.172 3.992 1.363 4365
1.177 4.010 1.356 3953
1.184 4.035 1.350 3094
1.226 4.177 1.380 3119
1.236 4.210 1.376 3311
1.241 4.228 1.368 4108
1.246 4.246 1.359 4130
1.252 4.264 1.351 4971
1.293 4.406 1.378 5311
1.307 4.454 1.377 6131
1.308 4.457 1.363 8318
1.309 4.461 1.350 6137
1.315 4.479 1.340 9146
1.316 4.482 1.327 12308
1.319 4.493 1.315 8834
1.320 4.496 1.302 6193
1.321 4.499 1.288 3752
1.410 4.805 1.352 3492
1.418 4.830 1.343 2636
1.419 4.834 1.329 3156
1.422 4.845 1.316 6243
1.423 4.848 1.301 7881
1.422 4.844 1.285 5716
1.427 4.862 1.274 2801
1.448 4.932 1.275 2369
1.477 5.031 1.282 3017
1.524 5.190 1.302 3120
1.511 5.149 1.277 2984
1.543 5.256 1.284 2914
1.542 5.252 1.266 4038
1.549 5.277 1.255 3550
1.594 5.429 1.271 4960
1.592 5.425 1.253 4973
1.593 5.428 1.237 4303
1.601 5.454 1.225 4444
1.628 5.546 1.226 3214
1.638 5.579 1.215 2511
1.632 5.560 1.194 2297
1.736 5.914 1.243 2621
1.702 5.797 1.203 3426
1.705 5.808 1.187 3287
1.835 6.252 1.249 1949
1.757 5.986 1.182 2170
1.758 5.989 1.164 2309
1.873 6.381 1.212 1800
1.876 6.392 1.194 2545
1.908 6.500 1.192 2978
1.902 6.480 1.169 3123
1.901 6.476 1.148 2365
1.893 6.448 1.124 2273
1.894 6.451 1.105 2017
1.943 6.619 1.110 2238
1.948 6.637 1.092 2535
2.051 6.986 1.121 2537
2.051 6.989 1.100 2772
2.085 7.104 1.094 2247
2.164 7.371 1.107 2074
2.171 7.396 1.088 2773
2.174 7.406 1.066 2287
2.254 7.680 1.077 1904
2.381 8.113 1.106 1753
2.380 8.108 1.080 1709
2.381 8.111 1.056 1561
2.388 8.136 1.034 1586
2.389 8.138 1.009 1489
2.682 9.138 1.089 1779
2.683 9.141 1.061 1715
2.684 9.144 1.034 1656
2.685 9.146 1.006 1564
2.685 9.148 0.978 1445
2.686 9.151 0.951 1287
2.687 9.153 0.923 1157
2.687 9.155 0.895 1100
2.688 9.157 0.867 963
2.689 9.159 0.840 665
2.689 9.161 0.812 448
2.690 9.163 0.784 298
0.543 1.834 1.489 3444
0.545 1.838 1.484 6889
0.546 1.841 1.479 5474
0.547 1.845 1.473 4059
0.548 1.849 1.468 4059
0.567 1.915 1.508 4686
0.567 1.912 1.498 7643
0.570 1.922 1.496 9556
0.571 1.926 1.491 11528
0.572 1.930 1.485 9514
0.575 1.940 1.484 7601
0.576 1.944 1.478 7601
0.577 1.947 1.472 6386
0.576 1.945 1.462 5246
0.635 2.144 1.592 6520
0.635 2.142 1.582 9291
0.638 2.152 1.580 8907
0.639 2.156 1.573 8552
0.636 2.148 1.558 6460
0.636 2.145 1.547 4957
0.637 2.149 1.541 5634
0.640 2.160 1.539 7345
0.645 2.176 1.541 9038
0.650 2.193 1.543 8401
0.653 2.203 1.541 8339
0.654 2.207 1.534 5668
0.688 2.321 1.598 5979
0.687 2.319 1.587 5929
0.686 2.316 1.576 5941
0.691 2.333 1.577 6059
0.700 2.363 1.587 6823
0.713 2.406 1.604 6198
0.718 2.424 1.605 5958
0.690 2.330 1.537 5973
0.695 2.347 1.538 5683
0.698 2.357 1.535 5927
0.701 2.367 1.532 5185
0.705 2.378 1.529 4725
0.708 2.388 1.526 4050
0.709 2.392 1.519 2856
0.737 2.489 1.566 3318
0.737 2.486 1.555 4597
0.734 2.477 1.540 4987
0.743 2.507 1.548 4909
0.770 2.598 1.589 6059
0.775 2.615 1.589 7165
0.778 2.626 1.585 6855
0.783 2.643 1.585 5720
0.784 2.647 1.577 4237
0.766 2.584 1.532 4649
0.771 2.602 1.532 7284
0.778 2.626 1.535 9848
0.779 2.630 1.527 10460
0.780 2.634 1.519 8042
0.787 2.658 1.522 4822
0.799 2.695 1.532 6185
0.800 2.699 1.524 5584
0.815 2.751 1.541 6987
0.818 2.761 1.536 7984
0.821 2.772 1.531 7748
0.825 2.783 1.526 7601
0.834 2.814 1.532 12546
0.837 2.825 1.527 16325
0.840 2.836 1.522 16056
0.843 2.846 1.517 12234
0.842 2.843 1.505 6277
0.864 2.916 1.530 5713
0.867 2.927 1.524 5570
0.870 2.937 1.519 4646
0.878 2.962 1.520 5614
0.879 2.966 1.511 7401
0.878 2.963 1.499 8118
0.873 2.946 1.480 8397
0.899 3.033 1.510 7596
0.900 3.037 1.501 8267
0.899 3.033 1.489 4658
0.912 3.079 1.498 3487
0.911 3.076 1.486 4250
0.917 3.094 1.483 6151
0.920 3.104 1.477 9050
0.921 3.108 1.467 10427
0.924 3.119 1.461 8487
0.936 3.158 1.467 6740
0.941 3.175 1.463 6032
0.944 3.186 1.457 7259
0.949 3.204 1.453 9835
0.955 3.222 1.449 11451
0.958 3.232 1.443 8660
0.969 3.271 1.447 5265
0.977 3.296 1.446 5351
0.982 3.314 1.442 5239
0.987 3.332 1.437 4825
0.999 3.371 1.441 4847
1.004 3.389 1.437 5488
1.005 3.393 1.427 5208
1.025 3.460 1.441 6467
1.026 3.464 1.431 6562
1.030 3.475 1.423 4393
1.037 3.500 1.420 5949
1.063 3.589 1.442 7469
1.065 3.593 1.431 7507
1.072 3.618 1.428 6729
1.075 3.629 1.420 7145
1.078 3.639 1.411 6159
1.086 3.665 1.408 5629
1.100 3.711 1.412 5663
1.101 3.715 1.401 6083
1.095 3.697 1.382 4026
1.139 3.845 1.420 3288
1.140 3.848 1.408 3421
1.161 3.917 1.418 2660
1.162 3.920 1.406 2397
1.169 3.946 1.402 2231
1.144 3.862 1.362 2857
1.154 3.895 1.360 3376
1.177 3.971 1.371 3760
1.180 3.981 1.361 4482
1.185 3.999 1.354 3972
1.203 4.061 1.359 3190
1.239 4.181 1.382 3202
1.249 4.214 1.378 3446
1.252 4.224 1.368 3920
1.261 4.257 1.364 3984
1.297 4.378 1.384 5166
1.305 4.403 1.378 5940
1.308 4.414 1.366 7376
1.311 4.425 1.355 8977
1.308 4.413 1.338 7110
1.326 4.475 1.340 10000
1.327 4.479 1.327 13640
1.330 4.489 1.315 11548
1.331 4.493 1.302 7947
1.334 4.503 1.290 4360
1.423 4.801 1.352 3589
1.391 4.694 1.310 2755
1.431 4.830 1.329 2874
1.434 4.841 1.316 5945
1.435 4.844 1.301 7679
1.434 4.840 1.285 5911
1.442 4.865 1.276 3565
1.458 4.920 1.273 3099
1.490 5.027 1.282 3078
1.535 5.179 1.300 3715
1.524 5.145 1.277 2955
1.554 5.245 1.282 3063
1.553 5.240 1.265 4098
1.556 5.251 1.251 3421
1.610 5.433 1.272 4257
1.606 5.421 1.253 3937
1.607 5.424 1.237 3751
1.612 5.442 1.223 4149
1.642 5.542 1.226 3108
1.654 5.582 1.216 2625
1.648 5.563 1.195 2215
1.693 5.715 1.207 2730
1.716 5.793 1.203 3795
1.720 5.803 1.187 3406
1.853 6.255 1.250 2119
1.852 6.251 1.230 2301
1.773 5.984 1.164 2196
1.854 6.257 1.192 1830
1.893 6.387 1.194 2475
1.924 6.495 1.192 2868
1.919 6.475 1.169 2970
1.915 6.463 1.147 2384
1.909 6.443 1.124 2467
1.910 6.446 1.105 2302
1.960 6.614 1.110 2239
2.034 6.865 1.126 2600
2.068 6.981 1.121 2596
2.069 6.983 1.100 2738
2.170 7.325 1.124 2164
2.173 7.335 1.103 2290
2.188 7.383 1.087 2731
2.191 7.393 1.066 2132
2.276 7.682 1.078 2140
2.275 7.677 1.054 1921
2.401 8.102 1.080 1836
2.401 8.105 1.056 1655
2.521 8.507 1.076 1525
2.410 8.132 1.009 1438
2.706 9.132 1.089 1903
2.707 9.134 1.061 1882
2.707 9.137 1.034 1840
2.708 9.139 1.006 1720
2.709 9.142 0.978 1537
2.709 9.144 0.951 1369
2.710 9.146 0.923 1264
2.711 9.148 0.895 1201
2.711 9.150 0.867 1017
2.712 9.152 0.840 663
2.712 9.154 0.812 430
2.713 9.156 0.784 292
0.546 1.833 1.489 3948
0.547 1.837 1.484 7896
0.549 1.841 1.479 6108
0.548 1.838 1.468 4361
0.549 1.842 1.463 4361
0.570 1.914 1.508 4565
0.570 1.911 1.498 7610
0.573 1.921 1.496 9577
0.574 1.925 1.491 11656
0.575 1.929 1.485 9893
0.578 1.939 1.484 8170
0.579 1.943 1.478 8170
0.578 1.940 1.468 6982
0.579 1.944 1.462 5834
0.639 2.143 1.592 6711
0.640 2.147 1.586 9189
0.641 2.151 1.580 8659
0.644 2.162 1.577 8154
0.640 2.147 1.558 6371
0.639 2.144 1.547 5423
0.640 2.148 1.541 6207
0.643 2.159 1.539 8209
0.648 2.175 1.541 10253
0.651 2.186 1.539 9274
0.654 2.196 1.536 8673
0.657 2.206 1.534 5747
0.691 2.320 1.598 5508
0.689 2.311 1.583 5991
0.690 2.315 1.576 6549
0.691 2.319 1.569 6584
0.702 2.356 1.583 6941
0.717 2.405 1.604 6486
0.720 2.416 1.601 6353
0.696 2.335 1.541 6459
0.699 2.345 1.538 6565
0.702 2.356 1.535 7130
0.705 2.366 1.532 6410
0.708 2.377 1.529 5906
0.711 2.387 1.526 4807
0.713 2.391 1.519 3174
0.743 2.494 1.570 2629
0.743 2.492 1.559 3672
0.736 2.469 1.536 4292
0.751 2.519 1.555 4836
0.756 2.537 1.555 6438
0.779 2.614 1.589 6505
0.784 2.631 1.589 6445
0.787 2.642 1.585 5778
0.789 2.646 1.577 4268
0.770 2.583 1.532 5034
0.775 2.600 1.532 7526
0.782 2.625 1.535 9367
0.783 2.628 1.527 9888
0.784 2.632 1.519 8090
0.790 2.650 1.519 5460
0.801 2.687 1.529 5925
0.802 2.691 1.520 5459
0.819 2.749 1.541 7736
0.821 2.753 1.532 8905
0.824 2.764 1.528 8690
0.829 2.782 1.526 8512
0.836 2.806 1.528 11883
0.839 2.817 1.523 15069
0.845 2.834 1.522 15159
0.848 2.845 1.517 12218
0.849 2.849 1.508 6491
0.869 2.914 1.530 5124
0.872 2.925 1.524 5112
0.875 2.936 1.519 4409
0.882 2.961 1.520 5108
0.883 2.964 1.511 6559
0.883 2.961 1.499 7000
0.880 2.951 1.484 7411
0.901 3.024 1.507 7288
0.900 3.021 1.495 8711
0.904 3.032 1.489 5096
0.917 3.078 1.498 3707
0.916 3.074 1.486 4256
0.915 3.071 1.474 6180
0.923 3.096 1.474 7847
0.926 3.107 1.467 9088
0.931 3.124 1.464 7578
0.941 3.156 1.467 6272
0.944 3.167 1.460 5309
0.949 3.185 1.457 6136
0.954 3.202 1.453 8357
0.958 3.213 1.446 9887
0.961 3.224 1.440 7408
0.974 3.270 1.447 4444
0.984 3.302 1.449 5094
0.987 3.313 1.442 5296
0.995 3.337 1.440 5014
1.002 3.362 1.439 5000
1.009 3.387 1.437 5520
1.011 3.391 1.427 4996
1.029 3.452 1.438 6018
1.030 3.455 1.428 6346
1.029 3.452 1.415 4674
1.064 3.569 1.447 5858
1.069 3.587 1.442 7698
1.072 3.598 1.433 7179
1.078 3.616 1.428 6354
1.083 3.634 1.422 6845
1.088 3.652 1.416 6010
1.089 3.656 1.405 4639
1.105 3.710 1.412 5411
1.102 3.699 1.396 6103
1.101 3.695 1.382 4645
1.143 3.836 1.417 3200
1.118 3.752 1.377 3560
1.124 3.770 1.370 3566
1.122 3.767 1.357 2844
1.177 3.951 1.404 1841
1.178 3.955 1.392 2545
1.180 3.958 1.380 3386
1.183 3.969 1.371 4103
1.184 3.972 1.359 4219
1.206 4.048 1.369 4162
1.210 4.059 1.359 3752
1.245 4.179 1.382 3124
1.257 4.219 1.380 3533
1.261 4.230 1.370 3830
1.270 4.262 1.366 4045
1.306 4.383 1.387 5693
1.309 4.394 1.375 6773
1.315 4.412 1.366 8954
1.314 4.408 1.351 10897
1.312 4.404 1.336 9259
1.333 4.473 1.340 10614
1.334 4.477 1.327 14382
1.337 4.487 1.315 13887
1.338 4.491 1.302 9417
1.344 4.509 1.292 4921
1.430 4.799 1.352 3530
1.400 4.699 1.311 3074
1.437 4.821 1.327 2517
1.440 4.831 1.314 5276
1.441 4.835 1.299 7267
1.442 4.838 1.285 6002
1.451 4.871 1.277 4278
1.466 4.918 1.273 3580
1.498 5.025 1.282 3082
1.543 5.176 1.300 3918
1.495 5.017 1.248 3352
1.560 5.235 1.281 3574
1.561 5.238 1.265 4284
1.562 5.241 1.249 3422
1.578 5.296 1.244 3484
1.613 5.411 1.251 3120
1.613 5.414 1.235 3352
1.617 5.425 1.220 3858
1.657 5.562 1.230 2804
1.663 5.580 1.216 2534
1.704 5.717 1.225 2483
1.702 5.713 1.207 2824
1.726 5.790 1.203 3986
1.729 5.801 1.187 3378
1.863 6.252 1.250 2217
1.860 6.240 1.229 2465
1.861 6.243 1.210 2320
1.868 6.269 1.195 2055
1.903 6.384 1.194 2199
1.937 6.499 1.193 2772
1.929 6.472 1.169 2976
1.925 6.460 1.147 2508
1.917 6.433 1.123 2672
1.922 6.451 1.106 2602
1.970 6.611 1.110 2430
2.045 6.862 1.126 2927
2.077 6.970 1.120 2462
2.078 6.973 1.099 2621
2.182 7.321 1.124 2322
2.185 7.332 1.103 2597
2.199 7.379 1.087 2677
2.292 7.691 1.104 2255
2.290 7.686 1.079 2554
2.289 7.681 1.055 2333
2.528 8.483 1.125 2290
2.529 8.485 1.100 2086
2.530 8.488 1.074 1782
2.530 8.491 1.048 1740
2.720 9.127 1.089 1912
2.721 9.130 1.061 1963
2.722 9.132 1.034 1951
2.722 9.135 1.006 1790
2.723 9.137 0.978 1544
2.724 9.140 0.951 1385
2.724 9.142 0.923 1310
2.725 9.144 0.895 1238
2.726 9.146 0.867 1024
2.726 9.148 0.840 651
2.727 9.150 0.812 420
2.727 9.152 0.784 285
0.554 1.838 1.494 4426
0.555 1.841 1.489 8852
0.554 1.839 1.479 6592
0.553 1.836 1.468 4480
0.554 1.840 1.463 4480
0.563 1.869 1.476 4522
0.574 1.903 1.493 7259
0.577 1.913 1.492 9250
0.580 1.923 1.491 11365
0.581 1.927 1.485 9890
0.582 1.931 1.479 8414
0.583 1.935 1.474 8414
0.584 1.938 1.468 7232
0.585 1.942 1.462 6049
0.645 2.141 1.592 6791
0.646 2.145 1.586 9008
0.648 2.149 1.580 8374
0.651 2.160 1.577 7912
0.652 2.164 1.571 6419
0.646 2.142 1.547 5869
0.647 2.146 1.541 6744
0.652 2.163 1.543 9106
0.655 2.173 1.541 11418
0.658 2.184 1.539 10202
0.661 2.194 1.536 9257
0.662 2.198 1.530 6107
0.696 2.311 1.594 5235
0.694 2.303 1.579 6238
0.695 2.307 1.572 7330
0.698 2.317 1.569 7193
0.709 2.354 1.583 7037
0.724 2.403 1.604 6623
0.727 2.414 1.601 6623
0.703 2.333 1.541 6886
0.706 2.343 1.538 7282
0.709 2.354 1.535 8151
0.712 2.364 1.532 7564
0.716 2.375 1.529 7136
0.717 2.379 1.522 5655
0.720 2.389 1.519 3604
0.719 2.386 1.508 2455
0.754 2.503 1.566 3474
0.743 2.467 1.536 4008
0.764 2.537 1.567 5536
0.764 2.534 1.555 7275
0.765 2.538 1.548 5970
0.792 2.629 1.589 6180
0.795 2.640 1.585 5957
0.797 2.644 1.577 4571
0.782 2.594 1.540 5454
0.783 2.598 1.532 7545
0.788 2.615 1.531 8597
0.789 2.619 1.523 8899
0.792 2.630 1.519 7803
0.800 2.654 1.522 6011
0.809 2.685 1.529 5729
0.808 2.682 1.517 5645
0.826 2.740 1.537 8520
0.827 2.744 1.529 9920
0.832 2.762 1.528 9345
0.837 2.779 1.526 8887
0.845 2.803 1.528 11184
0.848 2.814 1.523 13285
0.851 2.825 1.518 13596
0.856 2.842 1.517 11572
0.872 2.894 1.532 6617
0.875 2.905 1.526 5271
0.881 2.923 1.524 4927
0.886 2.940 1.522 4143
0.891 2.958 1.520 4489
0.895 2.969 1.514 5474
0.894 2.966 1.502 5581
0.888 2.949 1.484 6266
0.908 3.015 1.504 7211
0.910 3.019 1.495 9233
0.911 3.022 1.485 5680
0.926 3.075 1.498 3926
0.921 3.058 1.480 4533
0.922 3.061 1.471 6859
0.928 3.079 1.468 7675
0.933 3.097 1.464 7602
0.941 3.122 1.464 6579
0.948 3.146 1.464 5909
0.943 3.129 1.445 5394
0.957 3.175 1.454 5163
0.964 3.199 1.453 7010
0.965 3.203 1.444 8381
0.964 3.200 1.431 6478
0.959 3.182 1.413 4010
0.996 3.306 1.452 4766
0.997 3.310 1.442 5096
1.005 3.334 1.440 4696
1.012 3.359 1.439 4745
1.022 3.391 1.440 5445
1.023 3.395 1.429 4916
1.037 3.441 1.436 6122
1.036 3.438 1.423 6322
1.039 3.448 1.415 4505
1.075 3.566 1.447 6247
1.078 3.577 1.439 7683
1.083 3.595 1.433 6720
1.091 3.620 1.430 5937
1.096 3.638 1.425 6566
1.097 3.642 1.414 5758
1.118 3.710 1.425 3724
1.119 3.713 1.414 5062
1.113 3.695 1.396 6372
1.115 3.699 1.385 5300
1.122 3.724 1.381 4100
1.130 3.749 1.377 4307
1.133 3.760 1.368 4305
1.136 3.770 1.359 3069
1.192 3.955 1.406 1764
1.190 3.951 1.392 2901
1.192 3.954 1.380 4082
1.195 3.965 1.371 4278
1.218 4.041 1.381 4286
1.221 4.052 1.371 4487
1.224 4.063 1.361 4202
1.234 4.095 1.358 3388
1.270 4.215 1.380 3559
1.276 4.233 1.372 4093
1.283 4.259 1.366 4388
1.319 4.379 1.387 5993
1.323 4.390 1.375 7443
1.328 4.408 1.366 10314
1.327 4.404 1.351 12750
1.326 4.400 1.336 11427
1.347 4.469 1.340 10445
1.348 4.473 1.327 14267
1.351 4.483 1.315 14823
1.352 4.486 1.302 10112
1.357 4.504 1.292 5314
1.414 4.692 1.326 3533
1.415 4.695 1.311 2884
1.451 4.816 1.327 2142
1.454 4.827 1.314 4559
1.455 4.830 1.299 6788
1.459 4.841 1.287 5974
1.466 4.866 1.277 4635
1.481 4.914 1.273 3729
1.513 5.020 1.282 3084
1.511 5.016 1.265 3915
1.510 5.012 1.248 3664
1.574 5.223 1.279 3867
1.577 5.233 1.265 4136
1.578 5.236 1.249 3262
1.597 5.299 1.246 3330
1.613 5.354 1.241 2616
1.614 5.357 1.224 3097
1.631 5.412 1.219 3528
1.677 5.564 1.232 2423
1.680 5.575 1.216 2290
1.721 5.712 1.225 2969
1.720 5.707 1.207 3122
1.743 5.785 1.203 3908
1.746 5.795 1.187 3238
1.882 6.247 1.250 2181
1.879 6.235 1.229 2465
1.882 6.245 1.211 2433
1.889 6.271 1.196 2337
1.888 6.266 1.176 2347
1.957 6.494 1.193 2787
1.946 6.459 1.168 3114
1.945 6.454 1.147 2562
1.937 6.427 1.123 2574
1.942 6.445 1.106 2759
2.067 6.860 1.147 2622
2.066 6.856 1.126 3060
2.067 6.858 1.105 2542
2.067 6.861 1.084 2467
2.204 7.315 1.124 2381
2.207 7.325 1.103 2812
2.222 7.373 1.087 2505
2.315 7.684 1.104 2785
2.314 7.679 1.079 3196
2.315 7.682 1.056 3041
2.318 7.692 1.034 2920
2.321 7.702 1.011 2540
2.555 8.480 1.074 1996
2.556 8.483 1.048 1974
2.557 8.485 1.023 2146
2.749 9.122 1.061 1921
2.749 9.124 1.034 1923
2.750 9.127 1.006 1727
2.751 9.129 0.978 1463
2.751 9.131 0.951 1352
2.752 9.134 0.923 1310
2.753 9.136 0.895 1213
2.753 9.138 0.867 962
2.754 9.140 0.840 585
2.755 9.142 0.812 362
0.557 1.836 1.494 4827
0.559 1.840 1.489 9654
0.560 1.844 1.483 7081
0.559 1.841 1.473 4577
0.560 1.845 1.468 4577
0.567 1.867 1.476 4809
0.577 1.902 1.493 6757
0.580 1.912 1.492 8620
0.584 1.922 1.491 10687
0.585 1.926 1.485 9482
0.586 1.930 1.479 8276
0.587 1.933 1.474 8276
0.588 1.937 1.468 7085
0.589 1.941 1.462 5893
0.650 2.140 1.592 6771
0.651 2.144 1.586 8740
0.654 2.154 1.584 8158
0.657 2.165 1.582 7759
0.658 2.169 1.575 6704
0.650 2.141 1.547 6346
0.651 2.145 1.541 7281
0.656 2.162 1.543 10034
0.659 2.172 1.541 12569
0.662 2.182 1.539 11183
0.664 2.186 1.532 9993
0.665 2.190 1.526 6622
0.699 2.304 1.590 5072
0.699 2.301 1.579 6527
0.700 2.305 1.572 8033
0.701 2.309 1.565 7683
0.714 2.352 1.583 7039
0.727 2.395 1.600 6634
0.732 2.412 1.601 6825
0.708 2.331 1.541 7157
0.711 2.342 1.538 7885
0.716 2.359 1.539 9181
0.717 2.363 1.532 8752
0.720 2.373 1.529 8517
0.724 2.384 1.526 6651
0.727 2.394 1.523 4088
0.726 2.391 1.512 2660
0.759 2.501 1.566 3740
0.762 2.512 1.563 4728
0.768 2.529 1.563 6514
0.769 2.533 1.555 8327
0.772 2.543 1.552 6841
0.798 2.627 1.589 6057
0.801 2.638 1.585 6304
0.798 2.629 1.570 5303
0.791 2.606 1.547 6351
0.790 2.603 1.535 7414
0.791 2.607 1.528 7601
0.815 2.685 1.560 7729
0.800 2.635 1.523 7077
0.805 2.652 1.522 6187
0.812 2.677 1.525 5331
0.814 2.680 1.517 5723
0.831 2.738 1.537 9331
0.832 2.742 1.529 10809
0.838 2.760 1.528 9741
0.847 2.791 1.533 9172
0.850 2.802 1.528 10575
0.852 2.806 1.520 11219
0.857 2.823 1.518 11467
0.862 2.841 1.517 10298
0.878 2.892 1.532 7105
0.881 2.903 1.526 5783
0.887 2.921 1.524 4962
0.892 2.938 1.522 4033
0.897 2.956 1.520 3912
0.905 2.981 1.521 4547
0.906 2.984 1.512 4560
0.903 2.974 1.496 5529
0.912 3.006 1.500 7724
0.914 3.010 1.491 9936
0.915 3.014 1.482 6443
0.924 3.045 1.486 4609
0.926 3.049 1.477 5228
0.929 3.060 1.471 7564
0.932 3.070 1.464 8032
0.939 3.095 1.464 6156
0.949 3.127 1.467 5434
0.950 3.130 1.458 5579
0.947 3.120 1.442 6081
0.948 3.124 1.433 4893
0.966 3.183 1.447 5985
0.970 3.194 1.441 7170
0.966 3.184 1.425 6271
0.965 3.180 1.413 3871
1.005 3.311 1.455 4449
1.000 3.293 1.436 4765
1.003 3.304 1.429 3889
1.017 3.350 1.436 4097
1.031 3.396 1.442 5093
1.041 3.428 1.443 5214
1.042 3.432 1.433 6798
1.041 3.428 1.420 6592
1.046 3.446 1.415 3922
1.082 3.564 1.447 6306
1.085 3.575 1.439 7163
1.091 3.593 1.433 5800
1.098 3.618 1.430 5577
1.101 3.629 1.422 6195
1.105 3.639 1.414 5459
1.128 3.715 1.428 3555
1.124 3.704 1.412 4792
1.119 3.686 1.393 7061
1.122 3.696 1.385 6268
1.130 3.722 1.381 4889
1.137 3.747 1.377 4664
1.141 3.757 1.368 4909
1.142 3.761 1.357 3264
1.200 3.952 1.406 1760
1.199 3.949 1.392 3402
1.200 3.952 1.380 4883
1.203 3.963 1.371 4638
1.228 4.046 1.384 4452
1.229 4.049 1.371 4487
1.233 4.060 1.361 4298
1.242 4.093 1.358 3975
1.283 4.227 1.385 3682
1.286 4.238 1.374 4722
1.292 4.256 1.366 4915
1.328 4.376 1.387 5903
1.332 4.387 1.375 7660
1.337 4.405 1.366 11039
1.336 4.401 1.351 13659
1.337 4.404 1.338 12852
1.338 4.408 1.324 12625
1.357 4.470 1.327 13449
1.358 4.473 1.313 14456
1.361 4.484 1.302 9954
1.367 4.502 1.292 5237
1.423 4.689 1.326 3405
1.393 4.589 1.285 3224
1.410 4.644 1.284 2110
1.462 4.817 1.312 3973
1.465 4.827 1.299 6346
1.471 4.845 1.288 5848
1.479 4.870 1.279 4578
1.488 4.903 1.271 3593
1.523 5.017 1.282 3029
1.524 5.021 1.267 3681
1.520 5.009 1.248 3704
1.584 5.219 1.279 3962
1.588 5.230 1.265 3810
1.586 5.226 1.247 2985
1.608 5.296 1.246 3031
1.624 5.351 1.241 2640
1.634 5.383 1.230 3059
1.637 5.394 1.216 3213
1.659 5.464 1.213 2662
1.662 5.474 1.198 2539
1.731 5.701 1.224 2932
1.731 5.704 1.207 2847
1.757 5.789 1.205 3594
1.758 5.792 1.187 3013
1.813 5.974 1.202 2256
1.862 6.134 1.211 2487
1.897 6.249 1.212 2482
1.907 6.282 1.198 2568
1.903 6.270 1.177 2489
1.970 6.489 1.193 2801
1.959 6.455 1.168 3069
1.960 6.458 1.148 2381
1.954 6.438 1.125 2249
1.955 6.441 1.106 2661
2.081 6.856 1.147 2637
2.080 6.851 1.126 3014
2.081 6.854 1.105 2605
2.084 6.864 1.085 2795
2.221 7.318 1.125 2420
2.220 7.313 1.102 2987
2.330 7.676 1.127 2437
2.331 7.679 1.104 3460
2.330 7.674 1.079 3996
2.333 7.684 1.057 4003
2.333 7.687 1.034 3856
2.334 7.689 1.010 3403
2.335 7.692 0.987 2570
2.574 8.478 1.048 2157
2.574 8.480 1.023 2438
2.575 8.483 0.997 2230
2.571 8.470 0.970 2117
2.574 8.480 0.945 1824
2.600 8.565 0.927 1860
2.596 8.552 0.899 1806
2.594 8.547 0.873 1405
2.600 8.564 0.848 1483
2.600 8.566 0.822 1396
2.598 8.560 0.796 821
2.597 8.554 0.769 435
2.597 8.556 0.743 250
0.565 1.841 1.499 5045
0.566 1.845 1.493 10091
0.566 1.842 1.483 7401
0.567 1.846 1.478 4754
0.568 1.850 1.472 4754
0.573 1.866 1.476 5085
0.582 1.894 1.488 6172
0.586 1.910 1.492 7708
0.590 1.920 1.491 9615
0.591 1.924 1.485 8650
0.592 1.928 1.479 7684
0.593 1.932 1.474 7684
0.594 1.935 1.468 6510
0.593 1.933 1.458 5342
0.658 2.144 1.597 6624
0.658 2.142 1.586 8357
0.661 2.152 1.584 7892
0.664 2.163 1.582 7545
0.663 2.160 1.571 6921
0.657 2.139 1.547 6750
0.658 2.143 1.541 7726
0.665 2.166 1.547 10897
0.666 2.170 1.541 13602
0.669 2.180 1.539 12134
0.670 2.184 1.532 10903
0.672 2.188 1.526 7280
0.706 2.301 1.590 4854
0.706 2.299 1.579 6579
0.707 2.303 1.572 8361
0.708 2.307 1.565 7885
0.721 2.350 1.583 6916
0.735 2.393 1.600 6501
0.740 2.410 1.601 6896
0.715 2.329 1.541 7083
0.720 2.346 1.542 8128
0.723 2.357 1.539 9809
0.725 2.361 1.532 9652
0.728 2.371 1.529 9748
0.731 2.381 1.526 7613
0.736 2.398 1.527 4704
0.746 2.429 1.535 3244
0.769 2.505 1.570 4292
0.774 2.523 1.570 5746
0.776 2.526 1.563 7620
0.777 2.530 1.555 9494
0.780 2.541 1.552 7769
0.806 2.625 1.589 5945
0.809 2.636 1.585 6666
0.804 2.620 1.566 6171
0.801 2.610 1.551 7088
0.798 2.601 1.535 7061
0.800 2.605 1.528 6492
0.823 2.682 1.560 8049
0.825 2.686 1.552 7590
0.813 2.650 1.522 6003
0.852 2.775 1.578 5286
0.845 2.752 1.556 5799
0.840 2.736 1.537 9830
0.841 2.740 1.529 11280
0.844 2.750 1.524 9838
0.858 2.795 1.537 9601
0.859 2.799 1.528 10165
0.858 2.796 1.517 9800
0.866 2.820 1.518 9317
0.871 2.838 1.517 8637
0.889 2.897 1.535 7452
0.892 2.907 1.530 6418
0.896 2.918 1.524 5182
0.901 2.936 1.522 4063
0.904 2.946 1.517 3578
0.916 2.985 1.524 3938
0.920 2.995 1.518 4729
0.916 2.985 1.503 5994
0.920 2.996 1.497 8522
0.923 3.007 1.491 10579
0.924 3.011 1.482 7251
0.934 3.042 1.486 5652
0.935 3.046 1.477 6036
0.936 3.050 1.468 8070
0.942 3.067 1.464 8098
0.953 3.106 1.470 5334
0.959 3.124 1.467 4627
0.958 3.120 1.455 5665
0.955 3.110 1.439 6763
0.958 3.121 1.433 5610
0.976 3.180 1.447 5635
0.977 3.184 1.438 6613
0.976 3.181 1.425 6103
1.008 3.283 1.456 4735
1.013 3.301 1.452 4446
1.006 3.276 1.430 4465
1.002 3.265 1.415 3888
1.032 3.361 1.441 3164
1.044 3.400 1.445 4485
1.051 3.425 1.443 5430
1.053 3.429 1.433 7348
1.049 3.418 1.417 6782
1.088 3.543 1.452 3915
1.093 3.561 1.447 6283
1.094 3.564 1.436 6718
1.102 3.589 1.433 4994
1.110 3.614 1.430 5043
1.113 3.625 1.422 5758
1.114 3.629 1.411 5408
1.115 3.632 1.400 3688
1.132 3.686 1.407 4540
1.130 3.682 1.393 6922
1.134 3.693 1.385 6418
1.144 3.725 1.383 5276
1.149 3.743 1.377 4892
1.152 3.754 1.368 5365
1.153 3.757 1.357 3354
1.194 3.891 1.388 1876
1.211 3.945 1.392 3847
1.212 3.948 1.380 5328
1.215 3.959 1.371 4899
1.241 4.042 1.384 4349
1.244 4.053 1.374 3939
1.247 4.064 1.364 3955
1.257 4.096 1.360 4354
1.299 4.230 1.387 3711
1.302 4.241 1.376 5228
1.305 4.252 1.366 5132
1.342 4.372 1.387 5373
1.345 4.383 1.375 7235
1.351 4.401 1.366 10886
1.352 4.404 1.353 13444
1.351 4.400 1.338 12886
1.352 4.404 1.324 14203
1.357 4.422 1.315 13383
1.372 4.469 1.313 12773
1.373 4.472 1.300 9051
1.378 4.490 1.290 4771
1.438 4.684 1.326 3090
1.435 4.673 1.308 3846
1.431 4.661 1.290 3013
1.477 4.812 1.312 3589
1.480 4.823 1.299 5923
1.486 4.840 1.288 5568
1.494 4.866 1.279 4245
1.504 4.899 1.271 3216
1.537 5.005 1.280 2887
1.540 5.016 1.267 3243
1.538 5.011 1.250 3603
1.601 5.214 1.279 3906
1.604 5.225 1.265 3473
1.605 5.228 1.249 2700
1.626 5.298 1.247 2725
1.641 5.346 1.241 2537
1.651 5.378 1.230 2982
1.652 5.381 1.214 2919
1.678 5.466 1.214 3341
1.679 5.469 1.198 3148
1.748 5.695 1.224 2908
1.749 5.698 1.207 2628
1.775 5.783 1.205 3161
1.776 5.786 1.187 2768
1.832 5.968 1.202 2260
1.883 6.135 1.213 2599
1.887 6.146 1.195 2525
1.927 6.276 1.198 2503
1.987 6.473 1.212 2521
1.988 6.476 1.192 2816
2.016 6.568 1.187 3080
1.981 6.452 1.148 2245
1.979 6.447 1.128 1988
1.978 6.442 1.107 2575
2.103 6.849 1.147 2531
2.104 6.852 1.127 2918
2.102 6.847 1.105 2614
2.105 6.858 1.085 3006
2.108 6.868 1.065 2658
2.243 7.306 1.102 3091
2.354 7.669 1.127 3141
2.355 7.672 1.104 4069
2.356 7.674 1.080 4713
2.357 7.677 1.057 4935
2.358 7.679 1.034 4683
2.358 7.682 1.010 4183
2.359 7.684 0.987 3449
2.360 7.687 0.964 2521
2.601 8.472 1.023 2592
2.602 8.475 0.997 2457
2.598 8.462 0.970 2446
2.601 8.472 0.945 2218
2.627 8.557 0.927 2459
2.625 8.551 0.900 2561
2.626 8.553 0.874 2209
2.626 8.555 0.848 2197
2.627 8.557 0.822 1881
2.625 8.552 0.796 1075
2.626 8.554 0.770 555
2.629 8.563 0.744 361
0.570 1.839 1.499 5295
0.571 1.843 1.493 10590
0.572 1.847 1.488 7846
0.573 1.851 1.482 5102
0.575 1.854 1.477 5102
0.578 1.864 1.476 5455
0.581 1.874 1.475 6055
0.592 1.909 1.492 6736
0.595 1.919 1.491 8365
0.596 1.923 1.485 7605
0.597 1.926 1.479 6846
0.598 1.930 1.474 6846
0.599 1.934 1.468 5746
0.663 2.138 1.603 4767
0.664 2.143 1.597 6363
0.665 2.147 1.590 7959
0.666 2.151 1.584 7542
0.670 2.161 1.582 7247
0.669 2.159 1.571 7096
0.662 2.137 1.547 7098
0.665 2.148 1.545 8127
0.671 2.164 1.547 11723
0.672 2.168 1.541 14558
0.673 2.172 1.534 13083
0.676 2.182 1.532 11835
0.677 2.186 1.526 7990
0.713 2.299 1.590 4604
0.712 2.297 1.579 6417
0.713 2.301 1.572 8318
0.714 2.305 1.565 7770
0.728 2.348 1.583 6617
0.741 2.391 1.600 6214
0.746 2.408 1.601 6871
0.721 2.327 1.541 6749
0.726 2.344 1.542 8073
0.730 2.355 1.539 10198
0.731 2.359 1.532 10334
0.734 2.369 1.529 10818
0.737 2.379 1.526 8459
0.751 2.423 1.542 5843
0.754 2.433 1.539 4331
0.776 2.503 1.570 4996
0.781 2.520 1.570 6832
0.782 2.524 1.563 8759
0.784 2.528 1.555 10685
0.785 2.532 1.548 8655
0.813 2.623 1.589 5731
0.814 2.627 1.581 6925
0.811 2.617 1.566 6813
0.808 2.608 1.551 7709
0.807 2.605 1.539 6951
0.829 2.676 1.568 5855
0.833 2.687 1.563 8158
0.834 2.691 1.555 7924
0.829 2.675 1.537 5671
0.859 2.773 1.578 5193
0.852 2.750 1.556 5857
0.847 2.734 1.537 9936
0.848 2.738 1.529 11285
0.852 2.748 1.524 9560
0.865 2.793 1.537 9848
0.867 2.797 1.528 10231
0.866 2.794 1.517 9191
0.871 2.811 1.515 8000
0.877 2.829 1.513 6928
0.897 2.894 1.535 7761
0.900 2.905 1.530 7117
0.904 2.916 1.524 5615
0.905 2.919 1.516 4344
0.904 2.916 1.504 4215
0.903 2.913 1.492 4020
0.927 2.993 1.518 4999
0.924 2.983 1.503 7019
0.928 2.994 1.497 9426
0.931 3.004 1.491 11170
0.934 3.015 1.485 7947
0.942 3.040 1.486 6642
0.943 3.043 1.477 6708
0.944 3.047 1.468 8282
0.950 3.065 1.464 7813
0.964 3.110 1.474 5390
0.965 3.114 1.464 4843
0.964 3.111 1.452 6689
0.963 3.107 1.439 7537
0.968 3.125 1.436 6147
0.983 3.171 1.444 5753
0.984 3.174 1.435 6365
1.015 3.277 1.466 6406
1.016 3.280 1.456 5866
1.020 3.291 1.449 4578
1.008 3.252 1.422 4555
1.011 3.263 1.415 4111
1.052 3.394 1.455 2920
1.055 3.404 1.448 3761
1.063 3.429 1.446 5409
1.064 3.433 1.436 7737
1.056 3.408 1.414 6906
1.051 3.390 1.396 4528
1.102 3.558 1.447 5946
1.104 3.561 1.436 6068
1.107 3.572 1.428 4181
1.121 3.619 1.433 4114
1.120 3.615 1.420 4806
1.121 3.619 1.409 4978
1.125 3.629 1.400 4539
1.139 3.676 1.404 4760
1.140 3.679 1.393 6868
1.146 3.697 1.387 6390
1.156 3.729 1.386 5204
1.159 3.740 1.377 4597
1.162 3.751 1.368 5329
1.163 3.754 1.357 3479
1.205 3.887 1.388 2190
1.219 3.934 1.390 4335
1.222 3.945 1.380 5478
1.226 3.956 1.371 5009
1.247 4.024 1.379 3880
1.255 4.050 1.374 3254
1.260 4.067 1.366 3567
1.273 4.107 1.365 4598
1.274 4.111 1.352 4018
1.313 4.238 1.376 5428
1.319 4.256 1.368 4982
1.322 4.266 1.357 4590
1.357 4.379 1.375 6113
1.363 4.397 1.366 10000
1.366 4.408 1.355 12461
1.365 4.404 1.340 11766
1.366 4.407 1.326 14614
1.369 4.418 1.315 14275
1.384 4.465 1.313 10419
1.385 4.468 1.300 7764
1.388 4.479 1.288 4031
1.421 4.585 1.301 3010
1.442 4.654 1.304 4305
1.443 4.658 1.290 3695
1.490 4.808 1.312 3519
1.491 4.811 1.298 5751
1.499 4.837 1.288 5184
1.507 4.862 1.279 3963
1.540 4.968 1.288 3145
1.547 4.994 1.279 2891
1.553 5.012 1.267 2913
1.549 5.000 1.248 3510
1.612 5.203 1.277 3760
1.620 5.228 1.266 3238
1.621 5.231 1.251 2571
1.652 5.331 1.255 2679
1.655 5.341 1.241 2391
1.665 5.374 1.230 2603
1.692 5.459 1.231 2929
1.692 5.462 1.214 3974
1.693 5.465 1.198 3422
1.759 5.676 1.221 2775
1.764 5.694 1.207 2262
1.791 5.779 1.205 2803
1.792 5.781 1.187 2535
1.853 5.978 1.205 2111
1.902 6.138 1.214 2706
1.905 6.148 1.197 2800
2.003 6.465 1.231 2430
2.004 6.468 1.212 2709
2.003 6.463 1.191 2888
1.994 6.436 1.167 3077
1.998 6.446 1.148 2060
2.082 6.718 1.170 2453
1.995 6.437 1.107 2413
2.121 6.844 1.147 2345
2.122 6.847 1.127 2745
2.123 6.849 1.106 2614
2.126 6.860 1.086 3125
2.126 6.862 1.065 2791
2.262 7.300 1.102 3061
2.375 7.663 1.127 3741
2.375 7.665 1.104 4579
2.376 7.668 1.080 5347
2.377 7.671 1.057 5747
2.378 7.673 1.034 5401
2.379 7.676 1.010 4845
2.379 7.678 0.987 4188
2.380 7.680 0.964 3112
2.626 8.473 1.023 2641
2.624 8.468 0.997 2563
2.622 8.462 0.970 2673
2.623 8.465 0.945 2511
2.649 8.550 0.927 3044
2.648 8.544 0.900 3356
2.648 8.546 0.874 3082
2.649 8.549 0.848 2914
2.650 8.550 0.822 2350
2.650 8.552 0.796 1323
2.651 8.554 0.770 691
2.651 8.556 0.744 499
0.574 1.838 1.499 5138
0.575 1.842 1.493 10276
0.578 1.852 1.492 7941
0.580 1.855 1.487 5613
0.581 1.859 1.481 5613
0.582 1.863 1.476 5888
0.585 1.873 1.475 6216
0.594 1.901 1.487 5847
0.599 1.917 1.491 6975
0.600 1.921 1.485 6423
0.601 1.925 1.479 5872
0.602 1.929 1.474 5872
0.602 1.926 1.463 5024
0.667 2.137 1.603 4391
0.669 2.141 1.597 5891
0.670 2.145 1.590 7391
0.671 2.149 1.584 7039
0.675 2.159 1.582 6786
0.674 2.157 1.571 7199
0.675 2.161 1.565 7711
0.670 2.146 1.545 8604
0.676 2.163 1.547 12538
0.677 2.167 1.541 15489
0.678 2.170 1.534 14048
0.681 2.181 1.532 12830
0.682 2.185 1.526 8811
0.682 2.182 1.515 4387
0.719 2.302 1.583 5986
0.718 2.299 1.572 7855
0.719 2.303 1.565 7312
0.733 2.346 1.583 6144
0.744 2.383 1.596 5825
0.750 2.400 1.597 6721
0.726 2.326 1.541 6194
0.732 2.343 1.542 7628
0.735 2.353 1.539 10031
0.738 2.363 1.536 10539
0.739 2.367 1.529 11383
0.743 2.378 1.526 8999
0.758 2.428 1.546 7199
0.762 2.438 1.543 5606
0.779 2.495 1.566 5811
0.787 2.519 1.570 7933
0.788 2.523 1.563 9914
0.789 2.527 1.555 11895
0.790 2.531 1.548 9596
0.819 2.621 1.589 5397
0.818 2.618 1.577 6967
0.815 2.609 1.562 7173
0.814 2.606 1.551 8055
0.813 2.603 1.539 6960
0.835 2.674 1.568 5719
0.839 2.685 1.563 8000
0.840 2.689 1.555 8008
0.837 2.680 1.540 5777
0.866 2.771 1.578 4840
0.858 2.748 1.556 5667
0.851 2.725 1.534 9672
0.854 2.736 1.529 10874
0.858 2.746 1.524 8989
0.874 2.798 1.540 9712
0.875 2.802 1.532 10585
0.874 2.799 1.520 9160
0.877 2.809 1.515 7349
0.902 2.888 1.544 6603
0.906 2.899 1.538 7994
0.907 2.903 1.530 7776
0.908 2.907 1.521 6114
0.909 2.911 1.512 4913
0.910 2.914 1.504 5254
0.912 2.918 1.495 5133
0.932 2.984 1.515 5218
0.931 2.981 1.503 7837
0.934 2.992 1.497 10039
0.938 3.002 1.491 11527
0.943 3.020 1.489 8527
0.949 3.038 1.486 7520
0.950 3.041 1.477 7182
0.951 3.045 1.468 8115
0.961 3.077 1.471 7420
0.971 3.108 1.474 6138
0.970 3.105 1.461 6184
0.969 3.102 1.449 8407
0.970 3.105 1.439 8261
0.975 3.123 1.436 6507
0.988 3.162 1.441 6060
0.991 3.172 1.435 6418
1.023 3.274 1.466 6751
1.024 3.278 1.456 6656
1.023 3.274 1.443 4655
1.015 3.250 1.422 4784
1.018 3.261 1.415 4371
1.057 3.384 1.453 2957
1.065 3.409 1.451 3047
1.070 3.427 1.446 5319
1.072 3.431 1.436 7964
1.062 3.399 1.412 6962
1.060 3.395 1.399 5428
1.110 3.555 1.447 5599
1.112 3.559 1.436 5689
1.108 3.548 1.420 4238
1.105 3.537 1.404 3495
1.122 3.591 1.412 4534
1.127 3.609 1.406 4786
1.133 3.627 1.400 5165
1.138 3.645 1.394 5309
1.148 3.677 1.393 6757
1.156 3.702 1.390 6408
1.164 3.727 1.386 5443
1.170 3.745 1.379 4575
1.171 3.748 1.368 5338
1.172 3.751 1.357 3510
1.216 3.892 1.390 2561
1.228 3.932 1.390 4766
1.229 3.935 1.378 5437
1.237 3.960 1.373 4801
1.247 3.993 1.370 3922
1.264 4.047 1.374 2584
1.270 4.065 1.366 3254
1.284 4.112 1.367 4949
1.283 4.108 1.352 4224
1.325 4.242 1.379 5289
1.328 4.253 1.368 4496
1.334 4.271 1.359 3957
1.367 4.376 1.375 4433
1.373 4.394 1.366 8613
1.376 4.405 1.355 11129
1.377 4.408 1.342 10254
1.376 4.404 1.326 14266
1.379 4.415 1.315 14338
1.382 4.425 1.304 8488
1.392 4.458 1.298 6379
1.439 4.608 1.323 3625
1.445 4.626 1.312 3001
1.453 4.651 1.304 4671
1.456 4.662 1.292 4121
1.501 4.805 1.312 3747
1.502 4.808 1.298 5627
1.514 4.848 1.292 4767
1.520 4.866 1.281 4109
1.549 4.957 1.287 3455
1.556 4.983 1.277 2889
1.564 5.008 1.267 2611
1.561 4.996 1.248 3405
1.624 5.199 1.277 3700
1.634 5.232 1.268 3194
1.633 5.228 1.251 2634
1.666 5.334 1.257 2680
1.667 5.337 1.241 2400
1.701 5.444 1.246 2899
1.704 5.455 1.231 3618
1.705 5.458 1.214 4414
1.703 5.453 1.196 3541
1.767 5.657 1.218 3045
1.775 5.682 1.205 1908
1.804 5.775 1.205 2481
1.802 5.770 1.186 2317
1.801 5.765 1.167 2096
1.918 6.141 1.215 2569
1.919 6.144 1.197 2780
2.015 6.453 1.230 2493
2.019 6.463 1.212 2734
2.010 6.436 1.187 2839
2.007 6.424 1.165 2930
1.993 6.382 1.139 1950
2.097 6.714 1.170 2810
2.098 6.717 1.150 2573
2.008 6.428 1.086 2238
2.137 6.842 1.127 2548
2.138 6.845 1.106 2557
2.141 6.855 1.086 3139
2.142 6.857 1.065 2722
2.391 7.655 1.150 3140
2.392 7.657 1.127 4061
2.393 7.660 1.104 4846
2.393 7.663 1.080 5790
2.397 7.673 1.058 6383
2.395 7.668 1.034 5964
2.396 7.670 1.010 5344
2.397 7.673 0.987 4742
2.397 7.675 0.964 3583
2.656 8.504 1.027 2898
2.664 8.529 1.004 2867
2.663 8.524 0.977 2829
2.670 8.549 0.953 2913
2.669 8.544 0.927 3585
2.667 8.538 0.900 4087
2.668 8.540 0.874 3887
2.668 8.543 0.848 3574
2.669 8.544 0.822 2776
2.669 8.546 0.796 1569
2.672 8.556 0.771 849
2.673 8.557 0.745 643
2.673 8.559 0.719 332
0.581 1.843 1.503 4999
0.582 1.846 1.498 9998
0.585 1.856 1.497 8206
0.586 1.860 1.491 6468
0.587 1.864 1.486 6468
0.588 1.868 1.480 6382
0.588 1.865 1.470 6327
0.593 1.881 1.474 5182
0.602 1.910 1.486 5398
0.603 1.914 1.480 5051
0.604 1.917 1.475 4703
0.605 1.921 1.469 4703
0.606 1.925 1.463 4287
0.606 1.922 1.453 3888
0.674 2.139 1.597 5267
0.675 2.143 1.590 6727
0.677 2.147 1.584 6426
0.680 2.158 1.582 6180
0.679 2.155 1.571 7264
0.680 2.159 1.565 8403
0.680 2.157 1.554 9303
0.681 2.161 1.547 13406
0.682 2.165 1.541 16464
0.683 2.169 1.534 15069
0.687 2.179 1.532 13948
0.688 2.183 1.526 9821
0.689 2.187 1.519 5472
0.725 2.300 1.583 5379
0.724 2.298 1.572 7040
0.725 2.302 1.565 6594
0.739 2.344 1.583 5435
0.750 2.381 1.596 5261
0.755 2.398 1.597 6458
0.759 2.408 1.594 6092
0.737 2.341 1.542 6949
0.741 2.351 1.539 9602
0.744 2.362 1.536 10464
0.747 2.372 1.533 11661
0.749 2.376 1.526 9249
0.766 2.432 1.550 8786
0.770 2.443 1.547 7089
0.783 2.486 1.563 6718
0.793 2.517 1.570 9030
0.794 2.521 1.563 11048
0.795 2.525 1.555 13065
0.797 2.529 1.548 10507
0.798 2.533 1.540 6018
0.824 2.616 1.577 6738
0.821 2.607 1.562 7252
0.820 2.604 1.551 8191
0.822 2.608 1.543 7016
0.842 2.672 1.568 5441
0.845 2.683 1.563 7552
0.847 2.687 1.555 7846
0.846 2.684 1.544 5977
0.872 2.769 1.578 4293
0.844 2.678 1.520 5429
0.858 2.723 1.534 9085
0.861 2.733 1.529 10133
0.867 2.751 1.528 8217
0.881 2.795 1.540 8948
0.882 2.799 1.532 10534
0.883 2.803 1.523 9510
0.887 2.814 1.518 6856
0.909 2.886 1.544 6350
0.913 2.897 1.538 8064
0.914 2.901 1.530 8336
0.915 2.904 1.521 6568
0.916 2.908 1.512 5350
0.917 2.912 1.504 6014
0.921 2.923 1.498 6179
0.931 2.954 1.502 5724
0.938 2.979 1.503 8143
0.942 2.989 1.497 10193
0.945 3.000 1.491 11620
0.951 3.018 1.489 9174
0.956 3.035 1.486 8457
0.957 3.039 1.477 7485
0.961 3.050 1.471 7556
0.973 3.088 1.477 7310
0.978 3.106 1.474 7197
0.977 3.102 1.461 8381
0.976 3.099 1.449 10625
0.980 3.110 1.442 9214
0.985 3.127 1.439 6843
0.993 3.152 1.438 6665
0.996 3.163 1.432 6733
1.029 3.265 1.463 6662
1.030 3.268 1.453 7056
1.022 3.244 1.432 4707
1.021 3.240 1.419 5059
1.026 3.258 1.415 4661
1.063 3.375 1.450 3221
1.064 3.378 1.440 2618
1.079 3.424 1.446 5261
1.080 3.428 1.436 7978
1.070 3.396 1.412 6961
1.069 3.393 1.399 6169
1.117 3.545 1.444 5159
1.118 3.549 1.434 5436
1.117 3.545 1.420 4472
1.118 3.549 1.410 4420
1.121 3.560 1.402 6016
1.132 3.592 1.401 4929
1.142 3.624 1.400 6005
1.145 3.635 1.392 6301
1.157 3.674 1.393 6189
1.163 3.692 1.387 5714
1.175 3.731 1.388 5037
1.179 3.742 1.379 4381
1.180 3.745 1.368 5060
1.186 3.763 1.361 3674
1.227 3.896 1.392 2969
1.235 3.921 1.388 5124
1.236 3.925 1.376 5392
1.247 3.957 1.373 4440
1.255 3.982 1.368 4319
1.262 4.007 1.362 2729
1.293 4.105 1.379 3424
1.294 4.108 1.367 5178
1.293 4.105 1.352 4409
1.335 4.239 1.379 4919
1.314 4.169 1.344 4175
1.315 4.173 1.332 3956
1.316 4.176 1.319 3042
1.383 4.391 1.366 6911
1.389 4.409 1.357 9428
1.390 4.412 1.344 8709
1.389 4.408 1.328 13606
1.390 4.411 1.315 13798
1.391 4.415 1.302 7173
1.399 4.440 1.294 4972
1.455 4.619 1.326 3380
1.433 4.549 1.294 3338
1.464 4.648 1.304 4658
1.468 4.658 1.292 4018
1.513 4.801 1.312 3904
1.514 4.804 1.298 5258
1.531 4.859 1.296 4596
1.534 4.869 1.283 4654
1.535 4.873 1.268 4145
1.543 4.898 1.258 4292
1.544 4.901 1.243 3262
1.573 4.993 1.248 3234
1.637 5.195 1.277 3753
1.647 5.228 1.268 3389
1.648 5.231 1.252 2999
1.640 5.204 1.230 2970
1.678 5.326 1.239 2467
1.714 5.440 1.246 3437
1.715 5.443 1.229 4516
1.716 5.446 1.213 4792
1.717 5.449 1.196 3309
1.781 5.653 1.218 3242
1.740 5.522 1.176 1778
1.820 5.778 1.206 2126
1.814 5.758 1.184 2093
1.813 5.754 1.166 2356
1.936 6.144 1.217 2409
1.936 6.147 1.198 2726
1.940 6.157 1.181 2473
1.941 6.160 1.162 2832
2.026 6.431 1.187 2688
2.015 6.397 1.162 3115
2.009 6.377 1.139 2314
2.114 6.709 1.170 2901
2.114 6.711 1.150 2619
2.023 6.423 1.086 2216
2.154 6.837 1.127 2352
2.157 6.847 1.107 2515
2.158 6.849 1.086 3044
2.159 6.852 1.065 2501
2.410 7.649 1.150 3151
2.411 7.651 1.127 4112
2.411 7.654 1.104 4855
2.412 7.657 1.080 5940
2.415 7.667 1.058 6740
2.414 7.662 1.034 6225
2.415 7.664 1.010 5585
2.415 7.667 0.987 5068
2.416 7.669 0.964 3873
2.682 8.513 1.029 3429
2.685 8.523 1.004 3436
2.683 8.518 0.977 3334
2.691 8.543 0.953 3271
2.690 8.537 0.927 3967
2.688 8.532 0.900 4669
2.689 8.534 0.874 4571
2.689 8.536 0.848 4128
2.692 8.545 0.823 3116
2.690 8.540 0.796 1750
2.693 8.549 0.771 979
2.694 8.551 0.745 779
2.694 8.552 0.719 448
0.587 1.854 1.513 5220
0.588 1.858 1.507 10440
0.589 1.862 1.502 8875
0.591 1.865 1.496 7310
0.592 1.869 1.491 7310
0.591 1.867 1.480 6697
0.590 1.864 1.470 6259
0.593 1.874 1.469 4855
0.656 2.070 1.603 3810
0.657 2.074 1.597 3810
0.605 1.910 1.470 3588
0.606 1.914 1.465 3588
0.607 1.918 1.459 3655
0.610 1.927 1.458 3741
0.677 2.138 1.597 4588
0.678 2.142 1.590 6052
0.680 2.146 1.584 5766
0.683 2.157 1.582 5495
0.682 2.154 1.571 7283
0.684 2.158 1.565 9087
0.683 2.156 1.554 10012
0.684 2.160 1.547 14261
0.685 2.164 1.541 17419
0.688 2.174 1.539 16151
0.690 2.178 1.532 15162
0.691 2.182 1.526 11037
0.694 2.192 1.523 7022
0.695 2.196 1.517 6658
0.729 2.303 1.576 6073
0.731 2.307 1.569 5769
0.730 2.305 1.558 4678
0.754 2.380 1.596 4640
0.759 2.397 1.597 6132
0.760 2.401 1.590 6008
0.743 2.346 1.546 6165
0.744 2.350 1.539 8789
0.747 2.361 1.536 9909
0.751 2.371 1.533 11425
0.754 2.381 1.530 9167
0.770 2.431 1.550 10310
0.773 2.442 1.547 8542
0.785 2.479 1.559 7587
0.797 2.516 1.570 9974
0.798 2.520 1.563 11992
0.797 2.517 1.552 14033
0.800 2.527 1.548 11282
0.802 2.531 1.540 6759
0.828 2.615 1.577 6213
0.825 2.606 1.562 7029
0.824 2.603 1.551 8183
0.826 2.607 1.543 7215
0.842 2.658 1.561 5121
0.849 2.682 1.563 6793
0.850 2.686 1.555 7327
0.850 2.683 1.544 6027
0.847 2.673 1.529 4429
0.848 2.677 1.520 5504
0.862 2.722 1.534 8325
0.865 2.732 1.529 9232
0.871 2.750 1.528 7398
0.885 2.794 1.540 7602
0.888 2.805 1.535 9781
0.889 2.809 1.527 9480
0.891 2.813 1.518 6634
0.913 2.885 1.544 6051
0.917 2.895 1.538 8130
0.918 2.899 1.530 8901
0.919 2.903 1.521 7011
0.921 2.907 1.512 5568
0.924 2.918 1.507 6476
0.927 2.928 1.501 7169
0.931 2.939 1.496 6790
0.943 2.977 1.503 7892
0.946 2.988 1.497 9721
0.950 2.999 1.491 11243
0.957 3.023 1.492 9705
0.961 3.034 1.486 9336
0.964 3.044 1.480 7644
0.967 3.055 1.474 6690
0.980 3.094 1.480 7303
0.983 3.104 1.474 8327
0.982 3.101 1.461 10520
0.983 3.105 1.452 12677
0.984 3.108 1.442 10165
0.990 3.126 1.439 7164
0.998 3.151 1.438 7211
0.999 3.154 1.429 7310
1.002 3.165 1.422 6391
1.034 3.267 1.453 6941
1.024 3.235 1.429 5110
1.026 3.239 1.419 5361
1.031 3.257 1.415 4844
1.041 3.288 1.416 3621
1.042 3.292 1.406 3501
1.084 3.423 1.446 5560
1.085 3.426 1.436 7997
1.075 3.395 1.412 6837
1.074 3.391 1.399 6467
1.120 3.537 1.442 4888
1.123 3.547 1.434 5238
1.124 3.551 1.423 4642
1.126 3.555 1.412 5686
1.127 3.558 1.402 7929
1.132 3.576 1.396 5818
1.147 3.622 1.400 6539
1.148 3.626 1.389 7383
1.154 3.644 1.383 6121
1.155 3.647 1.372 5043
1.183 3.737 1.391 4754
1.184 3.740 1.379 4326
1.185 3.743 1.368 4669
1.193 3.768 1.364 3521
1.233 3.894 1.392 3377
1.241 3.919 1.388 5305
1.240 3.916 1.373 5350
1.255 3.962 1.375 4021
1.260 3.980 1.368 4627
1.266 3.998 1.360 3365
1.281 4.045 1.361 3638
1.300 4.107 1.367 4719
1.301 4.110 1.354 4179
1.342 4.237 1.379 4415
1.320 4.167 1.344 4732
1.321 4.171 1.332 4462
1.322 4.174 1.319 2922
1.390 4.389 1.366 5611
1.395 4.407 1.357 7925
1.399 4.417 1.346 8033
1.398 4.413 1.330 12839
1.396 4.409 1.315 12355
1.441 4.552 1.339 6359
1.442 4.555 1.325 5122
1.439 4.544 1.307 3554
1.440 4.547 1.294 3871
1.471 4.645 1.304 4271
1.472 4.649 1.290 3558
1.520 4.799 1.312 3888
1.521 4.802 1.298 4631
1.543 4.871 1.299 5079
1.544 4.875 1.284 5596
1.545 4.878 1.270 5539
1.550 4.896 1.258 6024
1.549 4.891 1.242 4929
1.580 4.990 1.248 3271
1.644 5.193 1.277 4049
1.655 5.225 1.268 3658
1.656 5.229 1.252 3345
1.647 5.202 1.230 3724
1.648 5.205 1.214 2681
1.722 5.438 1.246 3789
1.723 5.441 1.229 4825
1.724 5.444 1.213 4648
1.793 5.662 1.238 3578
1.789 5.650 1.218 3502
1.783 5.631 1.197 1926
1.833 5.790 1.209 1921
1.808 5.711 1.176 2390
1.819 5.743 1.164 2641
1.909 6.029 1.197 2640
1.912 6.039 1.180 2595
1.949 6.154 1.181 2525
1.950 6.157 1.162 2909
2.033 6.421 1.186 2493
2.025 6.394 1.162 3498
2.021 6.382 1.140 2755
2.123 6.705 1.170 2785
2.124 6.708 1.150 2467
2.033 6.420 1.086 2132
2.166 6.841 1.128 2209
2.167 6.844 1.107 2480
2.170 6.854 1.087 2820
2.273 7.178 1.110 2203
2.421 7.645 1.150 2956
2.422 7.648 1.127 3909
2.423 7.651 1.104 4639
2.423 7.653 1.080 5837
2.427 7.663 1.058 6780
2.427 7.666 1.035 6197
2.426 7.661 1.010 5504
2.427 7.663 0.987 5016
2.427 7.666 0.964 3869
2.697 8.516 1.030 3873
2.698 8.519 1.004 3934
2.696 8.514 0.977 3775
2.701 8.531 0.953 3522
2.702 8.533 0.927 4169
2.700 8.528 0.900 4999
2.701 8.530 0.874 4982
2.702 8.532 0.848 4460
2.705 8.541 0.823 3316
2.703 8.536 0.796 1845
2.706 8.545 0.771 1054
2.706 8.547 0.745 858
2.707 8.548 0.719 518
0.593 1.852 1.513 5681
0.595 1.856 1.507 11363
0.596 1.860 1.502 9600
0.597 1.863 1.496 7838
0.598 1.867 1.491 7838
0.598 1.865 1.480 6824
0.597 1.862 1.470 6080
0.598 1.866 1.465 4592
0.663 2.068 1.603 3516
0.664 2.072 1.597 3516
0.667 2.082 1.595 3022
0.609 1.899 1.456 2843
0.614 1.915 1.459 3082
0.619 1.932 1.462 3780
0.685 2.136 1.597 3995
0.684 2.134 1.586 5521
0.687 2.144 1.584 5127
0.688 2.148 1.577 4794
0.690 2.152 1.571 7289
0.691 2.156 1.565 9784
0.690 2.154 1.554 10727
0.691 2.158 1.547 15121
0.693 2.162 1.541 18363
0.696 2.172 1.539 17294
0.697 2.176 1.532 16473
0.698 2.180 1.526 12481
0.702 2.190 1.523 9184
0.703 2.194 1.517 9196
0.704 2.197 1.510 8205
0.705 2.201 1.504 7629
0.709 2.212 1.501 6050
0.710 2.215 1.494 4549
0.767 2.394 1.597 5814
0.769 2.398 1.590 5938
0.753 2.350 1.550 5602
0.754 2.354 1.543 7896
0.758 2.365 1.540 9076
0.761 2.375 1.537 10678
0.775 2.418 1.554 9002
0.780 2.435 1.554 11509
0.784 2.446 1.551 9850
0.793 2.476 1.559 8309
0.805 2.513 1.570 10774
0.807 2.517 1.563 12748
0.806 2.514 1.552 14779
0.809 2.525 1.548 11888
0.808 2.522 1.536 7479
0.805 2.513 1.521 6601
0.834 2.603 1.562 6578
0.833 2.600 1.551 8064
0.834 2.604 1.543 7396
0.846 2.641 1.553 5042
0.861 2.686 1.567 5997
0.860 2.683 1.555 6742
0.861 2.687 1.547 5930
0.867 2.704 1.546 4444
0.859 2.681 1.524 5131
0.873 2.725 1.537 7537
0.877 2.736 1.532 8512
0.880 2.747 1.528 6714
0.894 2.791 1.540 6146
0.898 2.802 1.535 8459
0.901 2.812 1.530 8986
0.903 2.816 1.522 6629
0.921 2.875 1.540 6172
0.927 2.892 1.538 8421
0.928 2.896 1.530 9568
0.929 2.900 1.521 7534
0.937 2.924 1.522 5858
0.938 2.928 1.513 7002
0.937 2.925 1.501 8080
0.941 2.936 1.496 7713
0.951 2.967 1.500 7195
0.956 2.985 1.497 8589
0.960 2.995 1.491 10321
0.968 3.020 1.492 9972
0.971 3.030 1.486 10067
0.975 3.041 1.480 7987
0.982 3.066 1.480 6420
0.993 3.097 1.483 7568
0.994 3.101 1.474 9409
0.993 3.098 1.461 12191
0.994 3.101 1.452 14320
0.995 3.105 1.442 10985
1.001 3.123 1.439 7523
1.006 3.140 1.435 7549
1.010 3.151 1.429 7830
1.013 3.161 1.422 6660
1.046 3.263 1.453 6312
1.033 3.225 1.426 5590
1.037 3.235 1.419 5589
1.045 3.260 1.418 4893
1.053 3.285 1.416 4096
1.054 3.288 1.406 4180
1.093 3.412 1.443 5965
1.097 3.423 1.436 7982
1.087 3.391 1.412 6658
1.085 3.387 1.399 6355
1.130 3.526 1.439 4526
1.140 3.558 1.439 4736
1.137 3.547 1.423 4430
1.138 3.551 1.412 6340
1.139 3.554 1.402 8562
1.142 3.565 1.393 6175
1.155 3.604 1.395 6881
1.161 3.622 1.389 8015
1.164 3.632 1.381 6668
1.165 3.636 1.370 6080
1.201 3.747 1.395 4421
1.197 3.736 1.379 4102
1.198 3.739 1.368 4117
1.204 3.757 1.361 3258
1.247 3.890 1.392 3519
1.252 3.908 1.385 5106
1.253 3.911 1.373 5129
1.273 3.973 1.380 3705
1.274 3.976 1.368 4782
1.282 4.001 1.362 3885
1.295 4.041 1.361 4010
1.315 4.102 1.367 4045
1.318 4.113 1.357 3900
1.356 4.232 1.379 3815
1.334 4.163 1.344 4882
1.337 4.174 1.334 4709
1.369 4.271 1.348 2908
1.407 4.391 1.368 4780
1.408 4.395 1.355 6977
1.409 4.398 1.342 8343
1.413 4.409 1.330 12282
1.414 4.412 1.317 10779
1.457 4.547 1.339 6019
1.456 4.543 1.323 5219
1.454 4.539 1.307 4671
1.455 4.542 1.294 4293
1.475 4.604 1.295 3290
1.533 4.783 1.325 2873
1.536 4.793 1.312 3770
1.558 4.863 1.314 4570
1.559 4.866 1.299 5886
1.560 4.869 1.284 6605
1.561 4.872 1.270 6800
1.565 4.883 1.256 7380
1.566 4.886 1.242 6214
1.656 5.169 1.290 3598
1.660 5.180 1.276 4531
1.673 5.220 1.268 4009
1.671 5.215 1.251 3785
1.665 5.196 1.230 4540
1.666 5.199 1.214 3438
1.741 5.432 1.246 3873
1.742 5.435 1.229 4959
1.743 5.438 1.213 4240
1.812 5.656 1.238 3909
1.811 5.651 1.220 3879
1.805 5.632 1.198 2218
1.856 5.791 1.210 2056
1.828 5.705 1.176 2638
1.839 5.737 1.164 2807
1.932 6.030 1.198 3069
1.933 6.033 1.180 2868
1.970 6.147 1.181 2426
1.971 6.150 1.162 2764
2.048 6.391 1.182 2638
2.047 6.387 1.162 4060
2.043 6.375 1.140 3316
2.146 6.698 1.170 2547
2.147 6.701 1.150 2205
2.053 6.405 1.085 1839
2.192 6.841 1.129 2084
2.193 6.844 1.108 2482
2.194 6.846 1.087 2624
2.156 6.729 1.050 2171
2.447 7.637 1.150 2587
2.448 7.640 1.127 3450
2.449 7.642 1.104 4146
2.450 7.645 1.080 5400
2.453 7.655 1.058 6417
2.454 7.657 1.035 5880
2.452 7.652 1.010 5112
2.453 7.655 0.987 4618
2.454 7.657 0.964 3562
2.726 8.507 1.030 4152
2.727 8.510 1.004 4280
2.725 8.504 0.977 4089
2.728 8.514 0.952 3682
2.732 8.524 0.927 4194
2.730 8.519 0.900 4991
2.730 8.521 0.874 5007
2.734 8.530 0.849 4456
2.734 8.532 0.823 3273
2.732 8.526 0.796 1821
2.738 8.543 0.771 1086
2.736 8.537 0.745 882
2.736 8.539 0.719 541
0.599 1.850 1.513 5844
0.601 1.854 1.507 11688
0.602 1.858 1.502 9979
0.603 1.861 1.496 8269
0.604 1.865 1.491 8269
0.603 1.863 1.480 7029
0.603 1.860 1.470 6017
0.604 1.864 1.465 4496
0.667 2.060 1.599 3199
0.668 2.064 1.593 3199
0.674 2.080 1.595 2713
0.611 1.885 1.447 2515
0.618 1.907 1.454 2659
0.629 1.942 1.471 3941
0.630 1.946 1.465 4198
0.686 2.119 1.577 5415
0.692 2.136 1.580 4665
0.695 2.146 1.577 4230
0.696 2.150 1.571 7347
0.698 2.154 1.565 10464
0.699 2.158 1.558 11430
0.698 2.155 1.547 15946
0.699 2.159 1.541 19247
0.703 2.170 1.539 18425
0.704 2.173 1.532 17801
0.707 2.184 1.530 14269
0.711 2.194 1.527 11733
0.710 2.191 1.517 11904
0.711 2.195 1.510 10664
0.712 2.199 1.504 9853
0.716 2.209 1.501 8035
0.717 2.213 1.494 6318
0.775 2.392 1.597 5494
0.774 2.389 1.586 5799
0.760 2.348 1.550 5456
0.762 2.352 1.543 7347
0.765 2.362 1.540 8270
0.769 2.373 1.537 9742
0.785 2.422 1.557 9495
0.788 2.433 1.554 12388
0.791 2.443 1.551 10793
0.801 2.473 1.559 8766
0.815 2.517 1.574 11385
0.814 2.514 1.563 13182
