0.489 5.740 1.361 2475
0.497 5.836 1.364 3277
0.496 5.824 1.344 3057
0.496 5.828 1.327 2372
0.517 6.079 1.360 2968
0.517 6.075 1.341 2962
0.519 6.093 1.326 3629
0.519 6.097 1.309 3199
0.548 6.434 1.354 2317
0.160 1.878 0.481 3320
0.160 1.879 0.476 4863
0.161 1.887 0.472 6068
0.161 1.888 0.466 6978
0.161 1.889 0.461 6900
0.161 1.890 0.456 5978
0.161 1.891 0.450 5016
0.161 1.892 0.445 3946
0.161 1.893 0.440 2889
0.631 7.409 1.318 2634
0.631 7.412 1.296 2793
0.633 7.439 1.278 2676
0.635 7.458 1.259 2326
0.652 7.656 1.266 1992
0.662 7.776 1.261 1856
0.661 7.772 1.237 1774
0.690 8.103 1.260 1952
0.691 8.122 1.239 2084
0.740 8.696 1.291 1808
0.739 8.684 1.264 1567
0.782 9.188 1.303 1267
0.754 8.854 1.234 1470
0.754 8.858 1.208 1395
0.799 9.385 1.244 1606
0.804 9.451 1.224 1775
0.805 9.462 1.198 1877
0.805 9.458 1.169 1676
0.804 9.445 1.140 1264
0.801 9.416 1.109 812
0.800 9.403 1.080 601
0.806 9.469 1.059 489
0.806 9.471 1.031 580
0.806 9.474 1.004 583
0.807 9.477 0.976 479
0.807 9.479 0.949 307
0.162 1.901 0.189 513
0.162 1.901 0.184 781
0.162 1.901 0.179 1089
0.162 1.901 0.173 1707
0.162 1.901 0.168 2080
0.162 1.901 0.162 2404
0.162 1.901 0.157 2931
0.162 1.901 0.152 3135
0.162 1.901 0.146 3144
0.162 1.901 0.141 3080
0.162 1.901 0.135 2864
0.162 1.901 0.130 2429
0.162 1.901 0.124 2137
0.162 1.901 0.119 1821
0.162 1.901 0.114 1505
0.187 2.193 0.103 1391
0.187 2.193 0.097 1635
0.186 2.185 0.091 1895
0.187 2.192 0.085 2044
0.187 2.192 0.078 2200
0.187 2.192 0.072 2217
0.186 2.184 0.066 2104
0.186 2.184 0.060 1976
0.186 2.184 0.054 1714
0.186 2.191 0.047 1474
0.186 2.191 0.041 1194
0.186 2.191 0.034 915
0.186 2.182 0.029 693
0.186 2.182 0.022 474
0.186 2.190 0.016 323
0.160 1.879 -0.015 328
0.160 1.879 -0.020 461
0.160 1.878 -0.025 461
0.160 1.878 -0.031 689
0.159 1.869 -0.035 923
0.159 1.869 -0.041 1144
0.159 1.868 -0.046 1365
0.159 1.868 -0.051 1413
0.159 1.867 -0.057 1461
0.159 1.867 -0.062 1461
0.159 1.866 -0.067 1334
0.159 1.873 -0.073 1689
0.193 2.180 1.690 4517
0.193 2.184 1.683 9035
0.194 2.189 1.677 9035
0.194 2.187 1.666 7786
0.193 2.178 1.651 7103
0.194 2.189 1.649 6163
0.195 2.200 1.647 5486
0.195 2.204 1.641 4316
0.196 2.209 1.635 3145
0.196 2.213 1.628 3145
0.202 2.282 1.667 4383
0.202 2.287 1.660 6817
0.203 2.298 1.658 9929
0.204 2.302 1.652 13154
0.205 2.320 1.654 12808
0.206 2.331 1.651 14132
0.207 2.335 1.645 13670
0.207 2.333 1.634 13598
0.208 2.344 1.631 13729
0.208 2.348 1.625 10946
0.208 2.352 1.618 8163
0.209 2.357 1.611 6740
0.217 2.454 1.664 5583
0.216 2.439 1.644 6938
0.216 2.436 1.633 8578
0.217 2.454 1.634 7304
0.219 2.472 1.636 6822
0.220 2.483 1.633 5515
0.221 2.494 1.630 4411
0.221 2.498 1.622 5042
0.222 2.503 1.615 5673
0.222 2.507 1.608 4571
0.231 2.613 1.661 4131
0.232 2.617 1.654 5117
0.230 2.601 1.634 4732
0.230 2.599 1.623 3647
0.230 2.603 1.615 3121
0.234 2.648 1.632 2817
0.235 2.660 1.628 3723
0.238 2.684 1.632 5020
0.236 2.668 1.613 6239
0.237 2.679 1.609 6880
0.238 2.690 1.605 6457
0.240 2.709 1.605 5799
0.241 2.720 1.601 5792
0.242 2.731 1.597 7847
0.243 2.742 1.593 9771
0.243 2.746 1.585 9608
0.244 2.750 1.577 7431
0.246 2.776 1.580 5807
0.251 2.836 1.602 4228
0.251 2.833 1.590 4734
0.250 2.823 1.574 6607
0.251 2.834 1.570 6897
0.262 2.965 1.626 6698
0.263 2.969 1.618 7575
0.263 2.974 1.609 7055
0.263 2.971 1.597 8341
0.263 2.975 1.589 9969
0.265 2.993 1.587 8347
0.268 3.026 1.592 8635
0.267 3.016 1.577 5204
0.279 3.148 1.630 3496
0.278 3.145 1.617 3993
0.269 3.035 1.554 6923
0.270 3.047 1.549 8731
0.271 3.065 1.546 9191
0.272 3.076 1.541 7993
0.278 3.145 1.562 7987
0.282 3.185 1.569 6643
0.283 3.196 1.563 6191
0.283 3.193 1.551 7702
0.283 3.197 1.542 10481
0.283 3.201 1.532 9895
0.284 3.205 1.523 5541
0.288 3.253 1.533 3980
0.288 3.250 1.520 3936
0.298 3.370 1.561 3325
0.292 3.301 1.520 3548
0.293 3.312 1.514 6428
0.294 3.316 1.504 8189
0.306 3.451 1.549 6830
0.306 3.456 1.539 10136
0.306 3.452 1.526 12054
0.307 3.464 1.519 11734
0.308 3.475 1.512 10509
0.310 3.501 1.511 9938
0.312 3.520 1.506 9716
0.311 3.516 1.493 6971
0.314 3.542 1.492 4937
0.326 3.679 1.532 7805
0.327 3.690 1.525 8551
0.327 3.694 1.514 8489
0.328 3.705 1.506 11844
0.329 3.717 1.498 11631
0.331 3.743 1.495 8459
0.333 3.762 1.490 7137
0.333 3.766 1.479 6025
0.333 3.762 1.466 5869
0.341 3.855 1.486 8152
0.342 3.867 1.478 7274
0.345 3.893 1.474 6157
0.348 3.926 1.473 8551
0.349 3.938 1.465 8101
0.350 3.949 1.456 4464
0.359 4.050 1.477 6050
0.360 4.069 1.470 8629
0.361 4.080 1.461 5998
0.367 4.144 1.469 5340
0.367 4.148 1.457 3798
0.377 4.257 1.478 3680
0.376 4.246 1.461 3907
0.382 4.310 1.468 4318
0.383 4.321 1.457 4802
0.384 4.340 1.450 3778
0.385 4.352 1.439 2876
0.384 4.340 1.422 3316
0.397 4.488 1.452 3402
0.398 4.491 1.439 2997
0.400 4.518 1.433 2831
0.406 4.582 1.437 6192
0.406 4.586 1.424 8525
0.407 4.597 1.413 5231
0.413 4.662 1.416 3498
0.420 4.749 1.425 3660
0.428 4.829 1.432 5359
0.430 4.856 1.424 6970
0.430 4.860 1.410 6877
0.433 4.886 1.402 7221
0.434 4.897 1.390 6957
0.437 4.932 1.384 7437
0.436 4.920 1.365 5592
0.451 5.099 1.395 3601
0.452 5.111 1.382 4503
0.470 5.306 1.414 4674
0.469 5.302 1.397 7682
0.469 5.298 1.379 4952
0.483 5.455 1.400 3644
0.482 5.443 1.380 3333
0.487 5.501 1.377 2881
0.478 5.404 1.339 3900
0.492 5.554 1.355 3230
0.491 5.550 1.337 2890
0.507 5.723 1.358 2823
0.517 5.835 1.364 3382
0.516 5.823 1.344 3150
0.517 5.834 1.328 2558
0.538 6.077 1.360 3166
0.538 6.073 1.341 3189
0.539 6.092 1.326 3727
0.540 6.095 1.309 3235
0.570 6.439 1.356 2523
0.570 6.443 1.337 3014
0.166 1.878 0.476 4505
0.167 1.887 0.472 5830
0.167 1.888 0.466 7121
0.167 1.889 0.461 7610
0.167 1.890 0.456 7102
0.167 1.891 0.450 6320
0.167 1.891 0.445 5271
0.168 1.892 0.440 4045
0.168 1.893 0.434 2838
0.656 7.410 1.296 2371
0.658 7.437 1.278 2460
0.659 7.448 1.258 2094
0.678 7.654 1.266 2326
0.678 7.657 1.244 2145
0.689 7.777 1.238 1590
0.717 8.101 1.260 1995
0.719 8.120 1.239 2303
0.770 8.693 1.291 1628
0.768 8.673 1.263 1476
0.752 8.489 1.214 1223
0.784 8.860 1.235 1341
0.830 9.372 1.271 1482
0.830 9.375 1.244 2411
0.833 9.409 1.220 1954
0.838 9.460 1.198 1809
0.836 9.439 1.168 1768
0.835 9.426 1.138 1449
0.833 9.406 1.108 1226
0.832 9.401 1.080 970
0.833 9.411 1.054 477
0.100 1.131 0.241 327
0.100 1.131 0.238 304
0.839 9.474 0.976 363
0.839 9.476 0.949 535
0.839 9.478 0.921 592
0.839 9.481 0.893 539
0.840 9.483 0.866 353
0.167 1.891 0.227 253
0.256 2.892 0.258 264
0.256 2.892 0.250 362
0.256 2.893 0.241 458
0.255 2.885 0.233 568
0.256 2.893 0.225 581
0.255 2.885 0.216 515
0.168 1.892 0.184 542
0.168 1.892 0.178 542
0.167 1.885 0.173 511
0.256 2.894 0.183 468
0.168 1.893 0.162 817
0.168 1.901 0.157 1674
0.168 1.901 0.152 2192
0.168 1.901 0.146 2579
0.168 1.901 0.141 2918
0.168 1.893 0.135 2983
0.168 1.893 0.130 2825
0.168 1.901 0.124 2603
0.168 1.901 0.119 2205
0.168 1.893 0.114 1816
0.168 1.900 0.108 1419
0.168 1.900 0.103 856
0.168 1.900 0.097 581
0.194 2.192 0.085 513
0.194 2.192 0.078 652
0.194 2.191 0.072 713
0.193 2.183 0.066 713
0.193 2.183 0.060 702
0.193 2.183 0.054 606
0.194 2.190 0.047 513
0.193 2.182 0.041 404
0.193 2.182 0.035 298
0.166 1.878 -0.020 377
0.166 1.878 -0.025 377
0.166 1.877 -0.031 546
0.166 1.877 -0.036 715
0.166 1.876 -0.041 863
0.166 1.876 -0.047 1012
0.165 1.867 -0.051 1165
0.165 1.867 -0.057 1327
0.165 1.866 -0.062 1327
0.165 1.865 -0.067 1356
0.165 1.865 -0.072 1798
0.198 2.173 1.685 4616
0.199 2.177 1.679 9233
0.199 2.182 1.672 9233
0.199 2.180 1.662 8654
0.199 2.184 1.655 8308
0.200 2.188 1.649 7271
0.201 2.206 1.652 6777
0.202 2.210 1.646 5221
0.202 2.215 1.639 3666
0.202 2.219 1.633 3666
0.208 2.282 1.667 4378
0.208 2.286 1.660 6563
0.209 2.297 1.658 9460
0.210 2.302 1.652 12403
0.211 2.313 1.649 11865
0.212 2.330 1.651 13089
0.213 2.334 1.645 12507
0.213 2.332 1.634 12209
0.214 2.343 1.631 12360
0.213 2.341 1.620 9593
0.214 2.345 1.614 6874
0.214 2.349 1.607 5972
0.223 2.447 1.660 6517
0.223 2.445 1.648 7344
0.223 2.442 1.637 8501
0.224 2.453 1.634 7145
0.225 2.464 1.631 6139
0.226 2.482 1.633 5167
0.227 2.493 1.630 4553
0.228 2.498 1.622 5231
0.228 2.502 1.615 5910
0.229 2.506 1.608 4760
0.238 2.612 1.661 4389
0.239 2.617 1.654 5379
0.239 2.621 1.646 4951
0.238 2.605 1.627 3707
0.238 2.609 1.619 3013
0.241 2.641 1.628 2467
0.241 2.645 1.620 3683
0.242 2.656 1.616 4910
0.243 2.661 1.609 6741
0.244 2.679 1.609 7814
0.246 2.697 1.609 7898
0.248 2.715 1.609 7093
0.249 2.726 1.605 6775
0.249 2.730 1.597 8754
0.250 2.741 1.593 10073
0.250 2.746 1.585 9502
0.251 2.750 1.577 7314
0.253 2.775 1.580 5641
0.254 2.786 1.576 4028
0.258 2.832 1.590 4548
0.257 2.822 1.574 6734
0.258 2.834 1.570 6923
0.270 2.964 1.626 6648
0.271 2.969 1.618 7620
0.271 2.973 1.609 6920
0.271 2.970 1.597 7965
0.271 2.974 1.589 9703
0.272 2.978 1.580 8314
0.276 3.025 1.592 8181
0.276 3.022 1.580 5850
0.275 3.019 1.568 3498
0.275 3.016 1.556 3937
0.277 3.042 1.557 6800
0.279 3.060 1.555 10313
0.279 3.064 1.546 11105
0.280 3.076 1.541 9063
0.287 3.144 1.562 8193
0.290 3.177 1.566 7106
0.291 3.188 1.560 6122
0.291 3.192 1.551 7426
0.292 3.196 1.542 10087
0.292 3.201 1.532 9649
0.294 3.219 1.529 5580
0.296 3.245 1.530 4253
0.296 3.249 1.520 4731
0.297 3.260 1.514 4304
0.301 3.300 1.520 4171
0.302 3.312 1.514 6864
0.302 3.316 1.504 8138
0.315 3.451 1.549 7130
0.315 3.455 1.539 9567
0.315 3.452 1.526 10748
0.316 3.463 1.519 10890
0.318 3.481 1.515 10743
0.319 3.500 1.511 11146
0.321 3.519 1.506 11266
0.321 3.515 1.493 7713
0.323 3.541 1.492 5327
0.335 3.678 1.532 7450
0.336 3.689 1.525 8405
0.337 3.693 1.514 8162
0.338 3.705 1.506 11027
0.339 3.716 1.498 11125
0.341 3.742 1.495 8396
0.343 3.761 1.490 7203
0.344 3.772 1.482 6191
0.352 3.858 1.500 6488
0.352 3.854 1.486 9683
0.352 3.858 1.475 8408
0.354 3.884 1.472 6465
0.359 3.933 1.476 9082
0.360 3.944 1.467 8330
0.361 3.956 1.458 4691
0.369 4.042 1.474 5929
0.371 4.068 1.470 7726
0.372 4.079 1.461 5333
0.378 4.143 1.469 5939
0.379 4.155 1.459 4337
0.391 4.286 1.488 3617
0.393 4.305 1.480 4097
0.392 4.301 1.465 4395
0.394 4.320 1.457 4917
0.396 4.339 1.450 4231
0.397 4.351 1.439 3254
0.396 4.347 1.424 3520
0.409 4.487 1.452 3711
0.409 4.483 1.437 3095
0.417 4.570 1.448 2678
0.418 4.581 1.437 5659
0.418 4.585 1.424 7876
0.419 4.596 1.413 4987
0.426 4.676 1.420 4237
0.440 4.824 1.446 4311
0.435 4.775 1.418 5679
0.443 4.855 1.424 7042
0.443 4.858 1.410 7302
0.445 4.877 1.400 6589
0.447 4.896 1.390 6545
0.450 4.930 1.384 8718
0.449 4.919 1.365 6822
0.463 5.075 1.389 3487
0.467 5.117 1.384 3951
0.483 5.297 1.412 4798
0.483 5.293 1.395 7929
0.483 5.297 1.379 5341
0.488 5.346 1.375 3085
0.496 5.434 1.379 3051
0.493 5.407 1.356 2910
0.493 5.403 1.339 3995
0.506 5.545 1.353 3288
0.506 5.549 1.337 2790
0.521 5.714 1.356 3038
0.532 5.833 1.364 3215
0.531 5.821 1.344 3227
0.532 5.833 1.328 3021
0.554 6.076 1.360 3074
0.553 6.064 1.339 3157
0.555 6.083 1.325 3656
0.556 6.094 1.309 3103
0.577 6.322 1.334 2871
0.587 6.441 1.337 2971
0.589 6.460 1.321 3533
0.592 6.495 1.308 4027
0.172 1.887 0.466 4738
0.172 1.888 0.461 5338
0.172 1.889 0.456 5032
0.172 1.890 0.450 4417
0.172 1.891 0.445 3592
0.173 1.892 0.440 2611
0.648 7.109 1.271 2135
0.676 7.408 1.296 1943
0.677 7.427 1.277 2261
0.678 7.438 1.257 1934
0.698 7.652 1.266 2555
0.699 7.663 1.245 2421
0.710 7.783 1.240 1473
0.739 8.099 1.260 2011
0.740 8.110 1.238 2411
0.743 8.144 1.218 1640
0.774 8.484 1.239 1711
0.774 8.487 1.214 1557
0.252 2.763 0.476 1408
0.854 9.369 1.271 1988
0.855 9.373 1.244 3150
0.856 9.384 1.217 2732
0.858 9.410 1.192 2212
0.859 9.421 1.166 2167
0.858 9.408 1.137 1897
0.857 9.396 1.108 1842
0.857 9.398 1.080 1536
0.858 9.409 1.054 933
0.858 9.404 1.025 728
0.858 9.406 0.998 686
0.858 9.409 0.971 504
0.103 1.132 0.232 316
0.866 9.492 0.922 277
0.865 9.486 0.894 345
0.865 9.488 0.866 352
0.172 1.889 0.243 259
0.172 1.890 0.238 370
0.172 1.890 0.232 416
0.172 1.890 0.227 377
0.172 1.883 0.221 271
0.264 2.891 0.258 258
0.172 1.883 0.205 424
0.172 1.891 0.200 750
0.173 1.892 0.195 1143
0.173 1.892 0.189 1931
0.173 1.892 0.184 2411
0.173 1.892 0.178 2816
0.173 1.892 0.173 3529
0.173 1.892 0.168 3832
0.173 1.892 0.162 3973
0.173 1.892 0.157 4255
0.173 1.892 0.151 4395
0.173 1.892 0.146 4398
0.173 1.892 0.141 4359
0.173 1.892 0.135 4008
0.173 1.892 0.130 3133
0.173 1.892 0.125 2566
0.173 1.892 0.119 1987
0.173 1.892 0.114 1408
0.173 1.892 0.108 992
0.263 2.885 0.083 893
0.200 2.191 0.091 902
0.200 2.191 0.085 899
0.200 2.191 0.078 803
0.200 2.191 0.072 713
0.199 2.183 0.066 570
0.199 2.183 0.060 429
0.200 2.190 0.053 296
0.171 1.877 -0.031 264
0.170 1.868 -0.035 347
0.170 1.868 -0.041 399
0.171 1.875 -0.047 454
0.171 1.875 -0.052 482
0.171 1.874 -0.057 510
0.171 1.873 -0.063 510
0.171 1.873 -0.068 591
0.170 1.864 -0.072 906
0.202 2.172 1.685 4702
0.202 2.177 1.679 9404
0.202 2.181 1.672 9404
0.202 2.179 1.662 9406
0.203 2.184 1.655 9426
0.204 2.195 1.654 8349
0.205 2.205 1.652 7918
0.205 2.210 1.646 6124
0.206 2.221 1.644 4423
0.207 2.225 1.637 4423
0.211 2.275 1.662 4514
0.213 2.292 1.665 6271
0.213 2.297 1.658 8930
0.214 2.301 1.652 11589
0.215 2.312 1.649 10951
0.216 2.330 1.651 11984
0.217 2.334 1.645 11232
0.217 2.338 1.638 10666
0.217 2.343 1.631 10852
0.217 2.341 1.620 8143
0.218 2.345 1.614 5553
0.227 2.442 1.667 5712
0.227 2.447 1.660 7310
0.227 2.451 1.652 7828
0.227 2.449 1.641 8471
0.228 2.460 1.638 6946
0.229 2.464 1.631 5548
0.230 2.482 1.633 4806
0.231 2.493 1.630 4554
0.232 2.497 1.622 5251
0.232 2.502 1.615 5948
0.232 2.499 1.604 4923
0.242 2.605 1.657 4626
0.243 2.616 1.654 5541
0.243 2.621 1.646 5171
0.243 2.618 1.635 3902
0.243 2.623 1.627 3093
0.244 2.634 1.624 2315
0.245 2.638 1.616 3994
0.246 2.649 1.613 5723
0.247 2.660 1.609 7489
0.249 2.678 1.609 8746
0.250 2.696 1.609 9362
0.252 2.714 1.609 8360
0.254 2.739 1.612 8054
0.254 2.737 1.601 9690
0.254 2.741 1.593 10345
0.255 2.745 1.585 9304
0.255 2.749 1.577 7075
0.258 2.775 1.580 5324
0.259 2.786 1.576 3947
0.261 2.811 1.579 4582
0.262 2.822 1.574 6753
0.262 2.826 1.566 6781
0.275 2.964 1.626 6359
0.276 2.975 1.621 7377
0.277 2.979 1.613 6628
0.276 2.970 1.597 7449
0.276 2.974 1.589 9255
0.275 2.964 1.573 8636
0.274 2.954 1.558 8175
0.280 3.022 1.580 6824
0.282 3.040 1.578 5066
0.282 3.037 1.566 4797
0.283 3.049 1.561 7778
0.285 3.067 1.559 11814
0.285 3.071 1.550 12575
0.285 3.075 1.541 10012
0.293 3.158 1.568 8460
0.294 3.169 1.563 7557
0.296 3.188 1.560 6146
0.296 3.192 1.551 7185
0.297 3.196 1.542 9593
0.297 3.200 1.532 9204
0.299 3.219 1.529 5611
0.300 3.237 1.526 4673
0.301 3.248 1.520 5509
0.303 3.267 1.517 5600
0.306 3.293 1.517 5150
0.308 3.318 1.517 7680
0.308 3.315 1.504 7882
0.320 3.450 1.549 7125
0.321 3.462 1.542 8749
0.320 3.451 1.526 9226
0.321 3.462 1.519 9821
0.323 3.481 1.515 10951
0.325 3.500 1.511 11847
0.327 3.518 1.506 12233
0.327 3.522 1.496 8282
0.329 3.541 1.492 5851
0.341 3.677 1.532 6812
0.342 3.681 1.522 8226
0.343 3.693 1.514 7874
0.344 3.704 1.506 10143
0.344 3.708 1.495 10626
0.347 3.742 1.495 8423
0.349 3.760 1.490 7470
0.350 3.772 1.482 6521
0.358 3.857 1.500 7429
0.358 3.854 1.486 10930
0.358 3.858 1.475 9218
0.360 3.876 1.469 6643
0.365 3.932 1.476 9058
0.366 3.944 1.467 8160
0.368 3.970 1.463 5133
0.374 4.034 1.472 5771
0.377 4.060 1.468 6473
0.387 4.169 1.490 4628
0.385 4.150 1.471 6157
0.386 4.154 1.459 4396
0.398 4.286 1.488 3550
0.400 4.304 1.480 3976
0.398 4.293 1.463 4207
0.401 4.320 1.457 4718
0.403 4.339 1.450 4590
0.404 4.350 1.439 3474
0.404 4.354 1.427 3588
0.416 4.486 1.452 3842
0.416 4.482 1.437 3237
0.424 4.569 1.448 2455
0.425 4.581 1.437 4970
0.426 4.592 1.426 7133
0.427 4.603 1.415 4593
0.434 4.675 1.420 4997
0.447 4.816 1.444 4899
0.444 4.782 1.420 6053
0.451 4.862 1.426 6518
0.451 4.858 1.410 7243
0.452 4.869 1.398 6080
0.456 4.911 1.394 5906
0.457 4.922 1.382 8547
0.456 4.918 1.365 7111
0.470 5.059 1.386 4134
0.466 5.025 1.361 3670
0.492 5.296 1.412 4877
0.491 5.292 1.395 7949
0.491 5.288 1.378 5575
0.496 5.346 1.375 3267
0.501 5.403 1.372 3006
0.502 5.406 1.356 2776
0.501 5.402 1.339 3815
0.515 5.544 1.353 3408
0.516 5.556 1.339 2759
0.530 5.713 1.356 3146
0.541 5.825 1.362 2874
0.540 5.813 1.342 3305
0.541 5.832 1.328 3473
0.542 5.835 1.312 3255
0.563 6.063 1.339 3203
0.564 6.074 1.323 3701
0.566 6.093 1.309 2880
0.586 6.313 1.332 3036
0.598 6.448 1.339 2844
0.600 6.459 1.321 3420
0.603 6.494 1.308 4096
0.604 6.513 1.292 3313
0.175 1.888 0.461 3499
0.175 1.889 0.456 3381
0.175 1.890 0.450 3116
0.175 1.891 0.445 2721
0.660 7.112 1.292 2405
0.660 7.108 1.271 2372
0.659 7.103 1.249 1742
0.689 7.418 1.276 2038
0.690 7.437 1.257 1766
0.710 7.651 1.266 2634
0.711 7.662 1.245 2500
0.751 8.094 1.284 1532
0.752 8.105 1.262 2000
0.753 8.116 1.239 2451
0.786 8.463 1.261 1932
0.787 8.482 1.239 2139
0.788 8.493 1.215 1836
0.868 9.349 1.296 1480
0.869 9.368 1.271 2584
0.870 9.371 1.244 4000
0.870 9.374 1.216 3516
0.871 9.385 1.190 2707
0.871 9.388 1.162 2345
0.872 9.399 1.136 2233
0.872 9.394 1.108 2415
0.872 9.397 1.080 1943
0.872 9.392 1.052 1189
0.871 9.387 1.024 974
0.871 9.389 0.997 869
0.872 9.399 0.970 669
0.875 9.425 0.945 434
0.105 1.132 0.229 272
0.175 1.889 0.243 322
0.175 1.889 0.238 473
0.175 1.890 0.232 513
0.175 1.890 0.227 442
0.268 2.890 0.266 365
0.268 2.883 0.258 356
0.268 2.891 0.250 291
0.175 1.883 0.205 654
0.176 1.891 0.200 1138
0.176 1.891 0.195 1758
0.176 1.891 0.189 3170
0.176 1.892 0.184 4217
0.176 1.892 0.178 5395
0.176 1.892 0.173 7626
0.176 1.900 0.168 8807
0.176 1.892 0.162 9581
0.176 1.892 0.157 10381
0.176 1.900 0.152 10408
0.176 1.892 0.146 9844
0.176 1.892 0.141 9160
0.176 1.892 0.135 7991
0.176 1.892 0.130 5783
0.176 1.892 0.125 4605
0.176 1.892 0.119 3675
0.176 1.892 0.114 2744
0.176 1.892 0.108 2075
0.268 2.885 0.083 1321
0.268 2.885 0.075 1289
0.268 2.892 0.066 1170
0.268 2.884 0.058 1074
0.203 2.191 0.072 984
0.203 2.182 0.066 971
0.203 2.182 0.060 938
0.203 2.182 0.054 867
0.203 2.182 0.047 796
0.202 2.181 0.041 698
0.202 2.181 0.035 600
0.202 2.181 0.029 491
0.202 2.181 0.022 381
0.202 2.180 0.016 289
0.172 1.856 -0.072 264
0.207 2.165 1.680 4788
0.208 2.170 1.674 9577
0.208 2.174 1.668 9577
0.208 2.179 1.662 10023
0.209 2.183 1.655 10469
0.210 2.194 1.654 9359
0.211 2.205 1.652 8916
0.212 2.216 1.650 7028
0.212 2.220 1.644 5204
0.213 2.231 1.642 5265
0.217 2.268 1.658 4622
0.219 2.292 1.665 5953
0.220 2.296 1.658 8328
0.220 2.301 1.652 10703
0.221 2.312 1.649 10015
0.223 2.336 1.656 10882
0.223 2.333 1.645 9862
0.224 2.338 1.638 9037
0.224 2.342 1.631 9192
0.224 2.347 1.625 6704
0.224 2.338 1.609 4226
0.234 2.442 1.667 5798
0.234 2.446 1.660 7955
0.234 2.450 1.652 8237
0.235 2.455 1.645 8520
0.235 2.459 1.638 6723
0.236 2.463 1.631 4927
0.237 2.474 1.628 4390
0.238 2.492 1.630 4396
0.239 2.497 1.622 5102
0.239 2.501 1.615 5807
0.238 2.492 1.600 5004
0.249 2.604 1.657 4963
0.250 2.616 1.654 5737
0.251 2.620 1.646 5313
0.250 2.617 1.635 4062
0.251 2.622 1.627 3109
0.248 2.592 1.600 2222
0.252 2.637 1.616 4231
0.253 2.648 1.613 6309
0.254 2.660 1.609 7911
0.256 2.678 1.609 9227
0.259 2.703 1.613 10407
0.260 2.721 1.613 9459
0.262 2.739 1.612 9481
0.262 2.736 1.601 10696
0.262 2.740 1.593 10544
0.263 2.745 1.585 9015
0.263 2.749 1.577 6719
0.265 2.774 1.580 4869
0.267 2.792 1.580 3932
0.269 2.810 1.579 4912
0.269 2.814 1.571 6652
0.270 2.825 1.566 6485
0.283 2.963 1.626 5800
0.285 2.974 1.621 6827
0.285 2.979 1.613 6123
0.284 2.969 1.597 6748
0.284 2.966 1.585 8748
0.283 2.956 1.570 9262
0.283 2.953 1.558 9343
0.289 3.021 1.580 7573
0.291 3.039 1.578 6342
0.291 3.044 1.569 5908
0.292 3.055 1.564 9141
0.293 3.066 1.559 13781
0.294 3.070 1.550 14523
0.294 3.074 1.541 11351
0.302 3.157 1.568 8982
0.303 3.168 1.563 7867
0.305 3.187 1.560 6107
0.305 3.191 1.551 6947
0.306 3.195 1.542 8980
0.306 3.199 1.532 8547
0.309 3.225 1.533 5607
0.310 3.236 1.526 5204
0.311 3.255 1.523 6584
0.312 3.266 1.517 7185
0.315 3.292 1.517 6686
0.317 3.317 1.517 8405
0.317 3.314 1.504 7541
0.330 3.449 1.549 6833
0.331 3.461 1.542 7713
0.330 3.450 1.526 7593
0.331 3.461 1.519 8576
0.333 3.480 1.515 10786
0.335 3.499 1.511 11923
0.337 3.517 1.506 12544
0.338 3.529 1.499 8719
0.339 3.547 1.495 6492
0.340 3.559 1.487 6647
0.352 3.680 1.522 8147
0.352 3.684 1.511 7926
0.354 3.696 1.503 9602
0.354 3.700 1.493 10337
0.358 3.741 1.495 8517
0.360 3.759 1.490 7811
0.361 3.771 1.482 6728
0.369 3.856 1.500 7969
0.369 3.853 1.486 11636
0.369 3.857 1.475 9794
0.370 3.868 1.467 6993
0.376 3.931 1.476 8770
0.377 3.943 1.467 7577
0.382 3.991 1.471 5779
0.385 4.025 1.469 5659
0.388 4.051 1.465 5107
0.399 4.168 1.490 4863
0.397 4.149 1.471 6313
0.397 4.153 1.459 4414
0.410 4.284 1.488 3259
0.412 4.303 1.480 3596
0.411 4.292 1.463 3862
0.414 4.326 1.460 4415
0.415 4.337 1.450 4773
0.416 4.349 1.439 3453
0.417 4.360 1.429 3401
0.430 4.492 1.454 3991
0.429 4.481 1.437 3366
0.428 4.470 1.419 2478
0.438 4.579 1.437 4335
0.439 4.591 1.426 6492
0.440 4.602 1.415 4275
0.446 4.667 1.418 5377
0.461 4.815 1.444 5229
0.460 4.811 1.428 6089
0.462 4.830 1.418 6228
0.465 4.856 1.410 7123
0.466 4.868 1.398 5483
0.470 4.917 1.396 5469
0.471 4.921 1.382 7790
0.470 4.917 1.365 6703
0.483 5.050 1.384 4459
0.481 5.031 1.363 3922
0.507 5.295 1.412 4774
0.506 5.291 1.395 7809
0.506 5.287 1.378 5733
0.511 5.336 1.373 3558
0.517 5.401 1.372 3088
0.518 5.413 1.358 2573
0.516 5.393 1.337 3387
0.530 5.543 1.353 3395
0.531 5.554 1.339 2727
0.546 5.712 1.356 3183
0.556 5.808 1.359 2789
0.556 5.811 1.342 3630
0.558 5.830 1.328 3877
0.559 5.841 1.313 3706
0.580 6.061 1.339 3191
0.581 6.072 1.323 3738
0.583 6.091 1.309 2608
0.604 6.311 1.332 3034
0.605 6.322 1.315 2731
0.619 6.465 1.323 3193
0.620 6.484 1.307 4066
0.623 6.511 1.292 3208
0.644 6.732 1.311 2696
0.181 1.888 0.456 2396
0.663 6.933 1.305 2428
0.662 6.920 1.282 2263
0.680 7.103 1.291 2718
0.680 7.106 1.271 2583
0.679 7.101 1.249 1851
0.709 7.408 1.275 1803
0.730 7.630 1.286 1787
0.732 7.649 1.266 2500
0.733 7.660 1.245 2351
0.775 8.100 1.285 1613
0.775 8.103 1.262 1987
0.776 8.106 1.238 2343
0.809 8.461 1.261 2380
0.811 8.480 1.239 2586
0.812 8.491 1.215 2074
0.895 9.354 1.297 1844
0.896 9.366 1.271 3126
0.896 9.369 1.244 4763
0.897 9.372 1.216 4265
0.898 9.383 1.190 3370
0.898 9.386 1.162 2719
0.899 9.397 1.136 2582
0.899 9.400 1.108 3130
0.900 9.402 1.081 2535
0.899 9.397 1.053 1430
0.899 9.392 1.025 1036
0.900 9.402 0.998 1000
0.900 9.405 0.971 747
0.900 9.407 0.943 433
0.901 9.417 0.916 341
0.252 2.635 0.300 268
0.252 2.636 0.293 314
0.252 2.636 0.285 343
0.252 2.637 0.278 382
0.252 2.637 0.270 391
0.252 2.637 0.262 360
0.275 2.874 0.265 279
0.276 2.882 0.258 594
0.276 2.882 0.249 782
0.276 2.883 0.241 825
0.275 2.875 0.232 752
0.181 1.891 0.195 1020
0.181 1.891 0.189 1841
0.181 1.891 0.184 2449
0.181 1.891 0.178 3192
0.181 1.891 0.173 4795
0.182 1.899 0.168 5742
0.181 1.891 0.162 6504
0.181 1.892 0.157 7469
0.182 1.899 0.152 7754
0.182 1.899 0.146 7301
0.181 1.892 0.141 6786
0.181 1.892 0.135 5791
0.181 1.892 0.130 3840
0.181 1.892 0.125 2770
0.181 1.891 0.119 2009
0.210 2.191 0.110 1600
0.210 2.191 0.103 1932
0.210 2.191 0.097 2150
0.209 2.183 0.091 2386
0.210 2.190 0.085 2470
0.210 2.190 0.078 2484
0.210 2.190 0.072 2422
0.209 2.182 0.066 2283
0.209 2.182 0.060 2112
0.209 2.181 0.054 1846
0.209 2.189 0.047 1602
0.209 2.189 0.041 1327
0.209 2.181 0.035 1058
0.209 2.180 0.029 834
0.209 2.180 0.022 610
0.209 2.180 0.016 441
0.209 2.187 0.009 281
0.212 2.165 1.680 4797
0.213 2.169 1.674 9594
0.213 2.174 1.668 9594
0.214 2.178 1.662 10481
0.214 2.183 1.655 11367
0.215 2.193 1.654 10240
0.217 2.211 1.656 9774
0.217 2.215 1.650 7877
0.218 2.220 1.644 5979
0.219 2.230 1.642 6076
0.222 2.267 1.658 4728
0.225 2.291 1.665 5622
0.225 2.296 1.658 7684
0.226 2.300 1.652 9746
0.227 2.311 1.649 9050
0.229 2.335 1.656 9748
0.229 2.333 1.645 8365
0.230 2.344 1.642 7208
0.230 2.348 1.636 7455
0.231 2.353 1.629 5709
0.232 2.364 1.627 4005
0.239 2.441 1.667 5891
0.240 2.445 1.660 8498
0.240 2.450 1.652 8519
0.241 2.461 1.650 8626
0.241 2.459 1.638 6395
0.241 2.463 1.631 4251
0.247 2.514 1.653 3962
0.245 2.498 1.634 4105
0.245 2.496 1.622 4773
0.245 2.500 1.615 5470
0.244 2.491 1.600 4957
0.255 2.597 1.653 5345
0.256 2.615 1.654 5945
0.257 2.619 1.646 5500
0.257 2.617 1.635 4311
0.257 2.621 1.627 3352
0.254 2.591 1.600 2684
0.259 2.644 1.620 4704
0.260 2.648 1.613 7058
0.261 2.659 1.609 8408
0.263 2.684 1.613 9605
0.265 2.702 1.613 11248
0.267 2.720 1.613 10416
0.268 2.738 1.612 10740
0.268 2.735 1.601 11627
0.269 2.740 1.593 10676
0.268 2.737 1.581 8711
0.269 2.748 1.577 6307
0.273 2.780 1.584 4414
0.274 2.798 1.583 4110
0.275 2.809 1.579 5352
0.276 2.814 1.571 6584
0.277 2.825 1.566 6025
0.286 2.913 1.601 5728
0.283 2.882 1.575 6770
0.284 2.893 1.570 5752
0.288 2.940 1.583 6245
0.290 2.958 1.582 8202
0.290 2.955 1.570 9838
0.290 2.959 1.561 10427
0.296 3.020 1.580 8307
0.298 3.039 1.578 7486
0.298 3.043 1.569 7215
0.301 3.068 1.571 11142
0.301 3.073 1.562 15813
0.302 3.077 1.553 16040
0.302 3.081 1.544 11832
0.310 3.164 1.572 9294
0.311 3.168 1.563 7957
0.312 3.186 1.560 6041
0.313 3.190 1.551 6735
0.314 3.202 1.545 8288
0.314 3.198 1.532 7638
0.316 3.224 1.533 5507
0.319 3.257 1.536 5969
0.320 3.261 1.526 7875
0.321 3.272 1.520 8717
0.323 3.291 1.517 8185
0.325 3.317 1.517 8797
0.326 3.321 1.507 7194
0.324 3.303 1.488 6724
0.339 3.460 1.542 6439
0.338 3.449 1.526 5890
0.340 3.468 1.522 7220
0.341 3.479 1.515 10172
0.343 3.498 1.511 11422
0.346 3.524 1.509 12352
0.347 3.535 1.502 9016
0.348 3.554 1.497 7161
0.349 3.558 1.487 6983
0.361 3.679 1.522 8069
0.361 3.683 1.511 8139
0.362 3.695 1.503 9265
0.363 3.699 1.493 10310
0.367 3.740 1.495 8597
0.369 3.758 1.490 8120
0.370 3.777 1.485 6914
0.377 3.848 1.498 8451
0.378 3.852 1.486 12109
0.378 3.856 1.475 9948
0.378 3.860 1.464 7020
0.385 3.930 1.476 7760
0.387 3.949 1.470 6561
0.392 3.998 1.473 6361
0.393 4.009 1.464 5569
0.396 4.036 1.460 3950
0.408 4.159 1.488 4858
0.407 4.156 1.473 6240
0.407 4.152 1.459 4352
0.420 4.283 1.488 2661
0.414 4.227 1.456 3432
0.415 4.231 1.444 3610
0.424 4.325 1.460 4001
0.425 4.336 1.450 4668
0.426 4.340 1.437 3262
0.440 4.487 1.467 3401
0.440 4.491 1.454 4213
0.439 4.480 1.437 3508
0.438 4.469 1.419 2811
0.449 4.578 1.437 3626
0.450 4.590 1.426 5614
0.456 4.654 1.430 4089
0.457 4.665 1.418 5393
0.472 4.814 1.444 5108
0.472 4.810 1.428 5887
0.473 4.821 1.416 6298
0.475 4.848 1.408 6512
0.477 4.867 1.398 5017
0.483 4.924 1.398 4870
0.482 4.912 1.380 6322
0.481 4.908 1.364 5778
0.495 5.049 1.384 4645
0.494 5.037 1.365 4053
0.518 5.286 1.410 4495
0.519 5.290 1.395 7446
0.518 5.286 1.378 5755
0.522 5.328 1.371 4014
0.529 5.393 1.370 3240
0.540 5.511 1.380 2475
0.541 5.523 1.366 3187
0.543 5.542 1.353 3244
0.544 5.553 1.339 2640
0.560 5.710 1.356 3115
0.569 5.799 1.357 3102
0.569 5.802 1.341 4138
0.572 5.829 1.328 4212
0.573 5.840 1.313 4044
0.593 6.052 1.338 3085
0.595 6.071 1.323 3678
0.596 6.082 1.307 2420
0.618 6.302 1.331 2748
0.620 6.321 1.315 2680
0.634 6.464 1.323 2878
0.636 6.483 1.307 3937
0.636 6.486 1.288 3124
0.661 6.738 1.313 3086
0.684 6.974 1.333 1934
0.678 6.916 1.302 2349
0.678 6.911 1.281 2261
0.696 7.101 1.291 3008
0.697 7.104 1.271 2748
0.696 7.100 1.249 1910
0.712 7.259 1.252 1542
0.748 7.628 1.286 1741
0.750 7.647 1.266 2222
0.751 7.658 1.245 2046
0.794 8.098 1.285 1701
0.794 8.101 1.262 2017
0.795 8.105 1.238 2294
0.829 8.459 1.261 2914
0.831 8.478 1.239 3025
0.832 8.489 1.215 2265
0.917 9.352 1.297 2237
0.918 9.363 1.271 3540
0.918 9.367 1.244 5212
0.919 9.370 1.216 4860
0.920 9.381 1.190 4073
0.920 9.384 1.162 3285
0.921 9.395 1.136 3033
0.921 9.397 1.108 3622
0.921 9.392 1.080 2921
0.920 9.387 1.052 1587
0.920 9.382 1.024 1147
0.920 9.384 0.997 1008
0.921 9.395 0.970 757
0.928 9.468 0.949 495
0.930 9.486 0.922 478
0.930 9.488 0.895 376
0.259 2.643 0.301 372
0.258 2.635 0.293 474
0.258 2.636 0.285 523
0.258 2.636 0.278 566
0.258 2.636 0.270 558
0.259 2.637 0.262 520
0.259 2.637 0.255 430
0.284 2.897 0.258 679
0.283 2.890 0.250 880
0.283 2.890 0.241 896
0.283 2.882 0.233 774
0.282 2.875 0.224 632
0.283 2.883 0.216 536
0.284 2.899 0.208 687
0.284 2.899 0.200 910
0.283 2.891 0.191 1166
0.284 2.891 0.183 1417
0.284 2.892 0.175 1396
0.186 1.899 0.157 1933
0.186 1.899 0.152 2271
0.186 1.899 0.146 2503
0.186 1.899 0.141 2694
0.185 1.891 0.135 2687
0.185 1.891 0.130 2430
0.186 1.899 0.124 2183
0.186 1.899 0.119 1789
0.283 2.884 0.100 1454
0.214 2.182 0.103 1425
0.214 2.182 0.097 1507
0.214 2.182 0.091 1590
0.214 2.182 0.085 1548
0.214 2.182 0.078 1411
0.214 2.182 0.072 1335
0.214 2.181 0.066 1358
0.214 2.181 0.060 1361
0.214 2.181 0.054 1356
0.214 2.181 0.047 1352
0.214 2.180 0.041 1262
0.214 2.180 0.035 1173
0.214 2.180 0.029 1001
0.214 2.179 0.022 828
0.214 2.179 0.016 620
0.214 2.187 0.009 416
0.214 2.186 0.003 269
0.217 2.164 1.680 4715
0.217 2.169 1.674 9430
0.218 2.173 1.668 9430
0.218 2.178 1.662 10711
0.219 2.189 1.660 12015
0.220 2.199 1.658 10974
0.221 2.210 1.656 10485
0.222 2.215 1.650 8596
0.222 2.219 1.644 6707
0.223 2.230 1.642 6805
0.227 2.267 1.658 4762
0.229 2.291 1.665 5342
0.230 2.295 1.658 7081
0.230 2.300 1.652 8819
0.231 2.311 1.649 8178
0.234 2.335 1.656 8734
0.234 2.339 1.649 7119
0.235 2.343 1.642 5743
0.236 2.354 1.640 6085
0.237 2.365 1.638 5469
0.237 2.370 1.631 4934
0.243 2.427 1.658 6151
0.244 2.438 1.655 8999
0.245 2.449 1.652 8618
0.246 2.460 1.650 8584
0.247 2.465 1.643 5962
0.253 2.529 1.673 3704
0.252 2.520 1.657 3730
0.253 2.525 1.650 3810
0.250 2.496 1.622 4316
0.250 2.493 1.611 5003
0.249 2.491 1.600 4712
0.260 2.596 1.653 5516
0.262 2.614 1.654 5971
0.262 2.619 1.646 5591
0.261 2.610 1.631 4559
0.262 2.621 1.627 3707
0.259 2.591 1.600 3369
0.265 2.643 1.620 5317
0.265 2.647 1.613 7757
0.266 2.658 1.609 8873
0.269 2.683 1.613 9895
0.271 2.701 1.613 11784
0.272 2.719 1.613 11076
0.274 2.738 1.612 11633
0.274 2.735 1.601 12244
0.274 2.739 1.593 10608
0.274 2.736 1.581 8276
0.274 2.741 1.573 5800
0.279 2.787 1.588 3958
0.281 2.805 1.587 4427
0.281 2.809 1.579 5891
0.282 2.813 1.571 6669
0.282 2.817 1.563 5621
0.291 2.906 1.598 6284
0.289 2.889 1.578 7364
0.290 2.900 1.574 6160
0.294 2.939 1.583 6156
0.296 2.958 1.582 7883
0.296 2.955 1.570 10242
0.296 2.959 1.561 11319
0.302 3.020 1.580 8808
0.304 3.038 1.578 8395
0.305 3.049 1.573 8349
0.307 3.068 1.571 12713
0.308 3.072 1.562 16873
0.308 3.076 1.553 16617
0.308 3.080 1.544 11737
0.317 3.163 1.572 9396
0.318 3.174 1.566 7843
0.319 3.186 1.560 5923
0.319 3.190 1.551 6421
0.321 3.201 1.545 7337
0.320 3.198 1.532 6474
0.326 3.260 1.548 5754
0.326 3.256 1.536 6949
0.327 3.268 1.530 8949
0.328 3.272 1.520 9947
0.329 3.283 1.514 9545
0.333 3.323 1.520 8774
0.330 3.291 1.495 6424
0.331 3.302 1.488 6281
0.335 3.342 1.494 5906
0.345 3.449 1.526 4633
0.347 3.467 1.522 6049
0.348 3.479 1.515 9366
0.349 3.490 1.508 10539
0.353 3.523 1.509 11670
0.354 3.534 1.502 9200
0.357 3.560 1.500 7981
0.356 3.557 1.487 7287
0.368 3.671 1.519 8004
0.368 3.675 1.508 8554
0.369 3.687 1.500 9100
0.370 3.698 1.493 10178
0.374 3.739 1.495 8458
0.376 3.758 1.490 8189
0.378 3.776 1.485 6859
0.385 3.847 1.498 8569
0.386 3.851 1.486 12098
0.386 3.855 1.475 9763
0.385 3.844 1.459 6796
0.394 3.930 1.476 6521
0.395 3.948 1.470 5482
0.400 3.997 1.473 6865
0.401 4.001 1.462 5605
0.402 4.012 1.453 3480
0.416 4.158 1.488 4621
0.416 4.155 1.473 6087
0.416 4.151 1.459 4681
0.421 4.200 1.461 3141
0.422 4.219 1.454 3984
0.423 4.223 1.442 3865
0.432 4.317 1.457 3637
0.433 4.328 1.447 4365
0.435 4.339 1.437 3034
0.449 4.487 1.467 3445
0.450 4.490 1.454 4359
0.449 4.479 1.437 3603
0.447 4.468 1.419 3183
0.458 4.577 1.437 2874
0.460 4.589 1.426 4685
0.467 4.661 1.432 3952
0.468 4.672 1.420 5288
0.482 4.813 1.444 4276
0.482 4.809 1.428 4695
0.480 4.790 1.408 5880
0.481 4.801 1.396 6033
0.500 4.995 1.432 4664
0.501 5.006 1.420 4672
0.484 4.835 1.360 5872
0.487 4.861 1.352 4867
0.506 5.048 1.384 4468
0.504 5.036 1.365 3999
0.529 5.285 1.410 4100
0.529 5.281 1.393 6901
0.528 5.277 1.376 5673
0.533 5.319 1.369 4521
0.540 5.391 1.370 3267
0.552 5.510 1.380 2451
0.553 5.521 1.366 3054
0.555 5.540 1.353 3010
0.556 5.552 1.339 2551
0.571 5.701 1.354 2979
0.581 5.797 1.357 3585
0.581 5.801 1.341 4730
0.584 5.828 1.328 4431
0.585 5.839 1.313 4175
0.606 6.051 1.338 2924
0.607 6.062 1.322 3471
0.608 6.073 1.306 2283
0.631 6.301 1.331 2527
0.634 6.327 1.317 2713
0.635 6.339 1.300 3048
0.649 6.482 1.307 3617
0.647 6.462 1.284 3144
0.675 6.744 1.314 3314
0.677 6.755 1.296 2070
0.664 6.627 1.254 2698
0.710 7.088 1.311 2272
0.710 7.092 1.290 3258
0.711 7.103 1.271 2920
0.725 7.238 1.271 2219
0.727 7.257 1.252 1772
0.764 7.627 1.286 1612
0.766 7.645 1.266 1829
0.744 7.430 1.212 2035
0.805 8.034 1.276 1879
0.806 8.045 1.254 2067
0.846 8.446 1.285 2525
0.847 8.457 1.261 3403
0.849 8.476 1.239 3396
0.850 8.487 1.215 2378
0.936 9.350 1.297 2632
0.938 9.361 1.271 3846
0.938 9.365 1.244 5384
0.938 9.368 1.216 5221
0.939 9.379 1.190 4607
0.940 9.382 1.162 3745
0.940 9.385 1.135 3343
0.940 9.388 1.108 3800
0.941 9.398 1.081 2951
0.941 9.401 1.054 1710
0.941 9.396 1.025 1359
0.940 9.390 0.997 1178
0.941 9.393 0.970 790
0.946 9.442 0.947 448
0.949 9.476 0.922 397
0.949 9.478 0.894 397
0.951 9.496 0.867 290
0.265 2.642 0.308 287
0.265 2.642 0.301 490
0.265 2.642 0.293 613
0.265 2.643 0.286 681
0.264 2.635 0.278 746
0.264 2.636 0.270 757
0.264 2.636 0.262 700
0.264 2.637 0.255 570
0.291 2.904 0.259 736
0.292 2.913 0.250 931
0.291 2.905 0.242 1105
0.291 2.905 0.233 1369
0.290 2.898 0.225 1462
0.290 2.898 0.216 1182
0.189 1.890 0.184 1230
0.189 1.890 0.178 1366
0.189 1.890 0.173 1477
0.190 1.898 0.168 1465
0.190 1.899 0.162 1282
0.290 2.891 0.166 927
0.290 2.891 0.158 1077
0.289 2.883 0.150 1115
0.289 2.883 0.141 1060
0.288 2.875 0.133 968
0.288 2.875 0.125 988
0.219 2.182 0.122 1608
0.219 2.182 0.116 2203
0.219 2.190 0.110 2914
0.219 2.190 0.103 3641
0.219 2.190 0.097 4250
0.218 2.182 0.091 4866
0.219 2.189 0.085 5240
0.219 2.189 0.078 5549
0.219 2.189 0.072 5564
0.218 2.181 0.066 5316
0.218 2.181 0.060 5002
0.218 2.181 0.054 4386
0.219 2.188 0.047 3803
0.218 2.180 0.041 3150
0.218 2.180 0.035 2530
0.218 2.179 0.029 1987
0.218 2.179 0.022 1443
0.218 2.179 0.016 1049
0.219 2.186 0.009 658
0.219 2.186 0.003 435
0.222 2.157 1.676 4573
0.223 2.162 1.669 9147
0.223 2.166 1.663 9147
0.224 2.177 1.662 10740
0.226 2.188 1.660 12577
0.227 2.199 1.658 11547
0.228 2.210 1.656 10999
0.228 2.214 1.650 9211
0.229 2.218 1.644 7424
0.230 2.229 1.642 7480
0.229 2.221 1.627 5137
0.236 2.290 1.665 5058
0.237 2.295 1.658 6480
0.237 2.299 1.652 7901
0.239 2.316 1.654 7412
0.241 2.334 1.656 7824
0.241 2.338 1.649 6074
0.243 2.356 1.651 4747
0.244 2.367 1.649 5197
0.244 2.371 1.642 5975
0.245 2.376 1.635 6753
0.249 2.413 1.650 6772
0.251 2.431 1.651 9414
0.252 2.449 1.652 8560
0.254 2.460 1.650 8311
0.254 2.464 1.643 5433
0.261 2.529 1.673 3704
0.260 2.526 1.662 3637
0.261 2.531 1.654 3569
0.258 2.502 1.626 3717
0.256 2.486 1.607 4380
0.257 2.490 1.600 4273
0.268 2.596 1.653 5484
0.269 2.614 1.654 5845
0.270 2.618 1.646 5590
0.269 2.609 1.631 4767
0.266 2.579 1.604 4311
0.266 2.583 1.596 4116
0.273 2.649 1.624 5928
0.274 2.653 1.616 8430
0.274 2.658 1.609 9160
0.277 2.683 1.613 9749
0.278 2.701 1.613 11671
0.280 2.719 1.613 11275
0.282 2.737 1.612 12035
0.282 2.734 1.601 12459
0.282 2.738 1.593 10251
0.282 2.736 1.581 7630
0.282 2.740 1.573 5371
0.292 2.827 1.610 3746
0.291 2.818 1.594 4899
0.290 2.815 1.582 6536
0.290 2.812 1.571 6887
0.290 2.816 1.563 5305
0.299 2.898 1.594 6910
0.298 2.888 1.578 8040
0.299 2.899 1.574 6647
0.303 2.938 1.583 6252
0.304 2.950 1.578 7899
0.305 2.954 1.570 10567
0.306 2.965 1.564 12025
0.311 3.019 1.580 9161
0.313 3.037 1.578 9089
0.314 3.048 1.573 9239
0.316 3.067 1.571 13726
0.317 3.071 1.562 17352
0.317 3.075 1.553 16702
0.317 3.079 1.544 11478
0.326 3.162 1.572 8965
0.327 3.173 1.566 7301
0.328 3.185 1.560 5480
0.329 3.189 1.551 5829
0.330 3.200 1.545 6034
0.330 3.197 1.532 5077
0.336 3.259 1.548 6043
0.336 3.255 1.536 7847
0.337 3.267 1.530 9959
0.337 3.271 1.520 11351
0.338 3.282 1.514 11416
0.340 3.293 1.507 9419
0.339 3.290 1.495 6282
0.342 3.316 1.494 5801
0.345 3.342 1.494 6136
0.355 3.448 1.526 3986
0.357 3.459 1.519 5401
0.358 3.470 1.512 8466
0.360 3.489 1.508 9094
0.364 3.529 1.512 10448
0.365 3.541 1.505 9347
0.367 3.559 1.500 8805
0.367 3.563 1.490 7573
0.378 3.670 1.519 7854
0.378 3.667 1.506 9185
0.380 3.686 1.500 9334
0.381 3.697 1.493 9976
0.385 3.738 1.495 7966
0.387 3.757 1.490 7920
0.392 3.798 1.493 6590
0.397 3.846 1.498 8157
0.398 3.857 1.489 11374
0.397 3.854 1.475 9069
0.396 3.843 1.459 6421
0.410 3.981 1.494 5158
0.413 4.007 1.490 5548
0.413 4.003 1.476 7160
0.412 4.000 1.462 5672
0.414 4.011 1.453 3745
0.414 4.015 1.441 5213
0.428 4.153 1.473 5561
0.428 4.150 1.459 5027
0.432 4.191 1.459 4044
0.434 4.210 1.452 4598
0.434 4.214 1.439 3979
0.443 4.300 1.453 3514
0.445 4.319 1.445 4076
0.446 4.323 1.432 2992
0.451 4.372 1.433 3347
0.464 4.497 1.457 4424
0.462 4.485 1.439 3765
0.461 4.474 1.422 3569
0.456 4.425 1.393 2937
0.474 4.595 1.428 3799
0.481 4.667 1.434 3756
0.482 4.678 1.422 4891
0.483 4.682 1.409 4282
0.491 4.762 1.416 3391
0.493 4.781 1.406 5818
0.494 4.792 1.394 7365
0.515 4.994 1.432 5237
0.516 5.005 1.420 4655
0.498 4.826 1.358 5532
0.499 4.844 1.348 4368
0.531 5.146 1.408 4697
0.532 5.157 1.395 4453
0.533 5.168 1.382 4177
0.544 5.279 1.393 6301
0.544 5.275 1.376 5552
0.547 5.310 1.368 4897
0.547 5.305 1.350 3131
0.567 5.501 1.379 2420
0.568 5.512 1.364 2806
0.570 5.531 1.352 2536
0.573 5.558 1.341 2341
0.575 5.577 1.328 2732
0.598 5.796 1.357 4025
0.597 5.792 1.339 5263
0.601 5.826 1.328 4480
0.601 5.829 1.312 4065
0.623 6.041 1.336 2749
0.625 6.060 1.322 3037
0.625 6.064 1.304 2059
0.649 6.291 1.329 2109
0.653 6.333 1.318 2724
0.653 6.337 1.300 3397
0.667 6.472 1.305 3245
0.664 6.444 1.281 3316
0.695 6.742 1.314 3485
0.680 6.598 1.269 2539
0.682 6.617 1.252 2981
0.731 7.086 1.311 2379
0.731 7.090 1.290 3539
0.731 7.093 1.269 3068
0.745 7.228 1.269 2550
0.748 7.255 1.252 1996
0.748 7.251 1.230 1613
0.768 7.448 1.237 2024
0.767 7.436 1.213 2353
0.828 8.032 1.276 2081
0.829 8.043 1.254 2250
0.871 8.444 1.285 2736
0.872 8.455 1.261 3798
0.874 8.474 1.239 3704
0.875 8.485 1.215 2458
0.965 9.355 1.298 2739
0.965 9.359 1.271 3799
0.965 9.362 1.244 5102
0.966 9.365 1.216 5047
0.967 9.376 1.190 4579
0.967 9.379 1.162 3673
0.967 9.382 1.135 3286
0.968 9.393 1.108 3792
0.969 9.395 1.081 2955
0.970 9.406 1.054 1702
0.969 9.401 1.026 1288
0.969 9.395 0.998 1133
0.972 9.429 0.973 904
0.974 9.447 0.947 812
0.974 9.450 0.920 710
0.975 9.460 0.893 560
0.976 9.462 0.865 316
0.272 2.640 0.324 298
0.272 2.640 0.316 363
0.272 2.641 0.308 469
0.272 2.641 0.301 545
0.272 2.642 0.293 581
0.272 2.642 0.286 621
0.272 2.643 0.278 659
0.272 2.635 0.270 665
0.272 2.635 0.262 615
0.272 2.636 0.255 498
0.272 2.636 0.247 423
0.299 2.904 0.250 424
0.299 2.904 0.242 465
0.299 2.905 0.233 855
0.299 2.905 0.225 1203
0.300 2.905 0.217 1260
0.300 2.905 0.208 1108
0.195 1.890 0.178 1433
0.196 1.898 0.173 2043
0.196 1.898 0.168 2380
0.196 1.898 0.162 2522
0.196 1.898 0.157 2593
0.196 1.898 0.152 2522
0.196 1.898 0.146 2302
0.196 1.898 0.141 2023
0.196 1.898 0.135 1706
0.196 1.898 0.130 1183
0.297 2.882 0.116 1320
0.297 2.882 0.108 1533
0.297 2.882 0.100 1747
0.226 2.189 0.103 2005
0.226 2.189 0.097 2392
0.226 2.189 0.091 2779
0.226 2.189 0.085 3068
0.226 2.189 0.078 3387
0.226 2.188 0.072 3480
0.225 2.180 0.066 3377
0.225 2.180 0.060 3249
0.226 2.188 0.053 2870
0.226 2.187 0.047 2532
0.225 2.187 0.041 2079
0.225 2.179 0.035 1635
0.225 2.179 0.029 1257
0.225 2.178 0.022 878
0.225 2.178 0.016 603
0.225 2.186 0.009 335
0.227 2.157 1.676 4362
0.227 2.161 1.669 8724
0.228 2.166 1.663 8724
0.229 2.177 1.662 10522
0.230 2.187 1.660 12725
0.231 2.198 1.658 11775
0.232 2.209 1.656 11246
0.233 2.214 1.650 9655
0.233 2.218 1.644 8064
0.234 2.222 1.637 8064
0.234 2.220 1.627 5961
0.241 2.290 1.665 4787
0.241 2.294 1.658 5918
0.242 2.305 1.656 7104
0.244 2.316 1.654 6804
0.245 2.333 1.656 7122
0.247 2.344 1.654 5848
0.248 2.355 1.651 4976
0.248 2.360 1.644 5359
0.249 2.371 1.642 6976
0.250 2.375 1.635 8607
0.252 2.393 1.637 7956
0.255 2.424 1.647 9825
0.257 2.441 1.648 8554
0.259 2.459 1.650 7921
0.260 2.470 1.647 5033
0.265 2.521 1.669 3871
0.266 2.526 1.662 3710
0.266 2.530 1.654 3549
0.267 2.541 1.651 3350
0.261 2.485 1.607 3786
0.271 2.577 1.653 3907
0.273 2.595 1.653 5240
0.275 2.613 1.654 5613
0.275 2.617 1.646 5538
0.270 2.567 1.607 5268
0.271 2.578 1.604 4950
0.272 2.583 1.596 4685
0.279 2.655 1.628 6419
0.280 2.660 1.620 8727
0.280 2.657 1.609 9060
0.282 2.682 1.613 9194
0.285 2.707 1.616 11045
0.286 2.718 1.613 11015
0.288 2.736 1.612 11844
0.288 2.733 1.601 12146
0.287 2.731 1.589 9610
0.287 2.728 1.577 6942
0.288 2.739 1.573 5191
0.297 2.827 1.610 3838
0.296 2.817 1.594 5290
0.296 2.814 1.582 7168
0.297 2.819 1.574 7246
0.297 2.823 1.566 5061
0.305 2.897 1.594 7351
0.304 2.894 1.582 8566
0.306 2.905 1.577 7039
0.309 2.938 1.583 6396
0.310 2.949 1.578 7932
0.311 2.953 1.570 10725
0.312 2.964 1.564 12458
0.318 3.018 1.580 9310
0.320 3.044 1.582 9602
0.321 3.055 1.576 9893
0.323 3.066 1.571 14104
0.323 3.070 1.562 17112
0.323 3.074 1.553 16128
0.324 3.079 1.544 10834
0.333 3.161 1.572 8149
0.335 3.180 1.569 6542
0.336 3.191 1.563 4903
0.336 3.195 1.554 5167
0.337 3.199 1.545 4635
0.336 3.196 1.532 3828
0.343 3.258 1.548 6102
0.342 3.255 1.536 8565
0.344 3.266 1.530 10716
0.344 3.270 1.520 12547
0.345 3.281 1.514 12907
0.346 3.285 1.504 10235
0.345 3.282 1.492 6242
0.349 3.322 1.497 5336
0.351 3.341 1.494 5858
0.362 3.440 1.523 4454
0.363 3.451 1.516 5690
0.365 3.469 1.512 8223
0.366 3.481 1.505 8150
0.371 3.529 1.512 9322
0.373 3.547 1.508 9232
0.374 3.559 1.500 9134
0.375 3.563 1.490 7738
0.385 3.662 1.516 7663
0.385 3.659 1.503 9757
0.387 3.677 1.498 9541
0.388 3.689 1.490 9552
0.394 3.744 1.498 7118
0.395 3.756 1.490 7339
0.399 3.797 1.493 6034
0.404 3.845 1.498 7208
0.406 3.856 1.489 10242
0.405 3.853 1.475 8033
0.403 3.834 1.456 5796
0.420 3.995 1.499 5973
0.421 4.006 1.490 6379
0.421 4.002 1.476 7187
0.421 3.999 1.462 5600
0.423 4.018 1.455 4065
0.423 4.021 1.444 6273
0.423 4.025 1.432 5849
0.436 4.149 1.459 5029
0.441 4.190 1.459 4780
0.443 4.209 1.452 5129
0.443 4.213 1.439 3977
0.451 4.292 1.450 3571
0.453 4.303 1.440 3967
0.454 4.315 1.430 3025
0.461 4.379 1.436 3356
0.473 4.496 1.457 4204
0.473 4.492 1.441 3919
0.472 4.488 1.426 4093
0.473 4.499 1.415 3111
0.489 4.647 1.443 3493
0.479 4.552 1.402 3954
0.492 4.677 1.422 4516
0.492 4.681 1.409 4186
0.490 4.662 1.389 3714
0.504 4.787 1.408 6246
0.504 4.791 1.394 8024
0.505 4.802 1.382 5939
0.507 4.821 1.372 4447
0.508 4.824 1.358 4970
0.541 5.141 1.423 4307
0.541 5.145 1.408 4881
0.542 5.156 1.395 4806
0.544 5.167 1.382 4535
0.554 5.271 1.391 5912
0.555 5.274 1.376 5388
0.558 5.308 1.368 4870
0.558 5.304 1.350 3251
0.577 5.484 1.375 2571
0.577 5.488 1.359 2731
0.578 5.499 1.345 2344
0.608 5.780 1.389 2244
0.587 5.583 1.330 2735
0.610 5.794 1.357 4008
0.609 5.790 1.339 5325
0.612 5.817 1.327 4387
0.613 5.828 1.312 3729
0.635 6.032 1.335 2559
0.637 6.051 1.320 2551
0.618 5.877 1.268 2117
0.674 6.406 1.351 1969
0.666 6.332 1.318 2797
0.666 6.335 1.300 3615
0.680 6.463 1.304 2876
0.678 6.443 1.281 3490
0.709 6.741 1.314 3362
0.693 6.589 1.267 3201
0.695 6.608 1.251 3278
0.718 6.828 1.268 2464
0.745 7.080 1.289 3648
0.759 7.216 1.289 3268
0.760 7.227 1.269 2686
0.763 7.254 1.252 2126
0.763 7.249 1.230 1679
0.783 7.439 1.236 2378
0.782 7.434 1.213 2662
0.781 7.422 1.190 2198
0.846 8.041 1.254 2214
0.888 8.442 1.285 2767
0.889 8.453 1.261 3922
0.891 8.472 1.239 3817
0.892 8.483 1.215 2461
0.984 9.353 1.298 2668
0.984 9.357 1.271 3536
0.985 9.360 1.244 4567
0.986 9.371 1.217 4621
0.986 9.374 1.190 4307
0.986 9.377 1.162 3455
0.987 9.380 1.135 3243
0.988 9.391 1.108 3893
0.989 9.401 1.082 3097
0.989 9.404 1.054 1854
0.990 9.407 1.027 1413
0.989 9.401 0.999 1262
0.989 9.404 0.971 1039
0.992 9.430 0.946 788
0.993 9.440 0.919 645
0.993 9.442 0.891 399
0.277 2.631 0.331 441
0.278 2.639 0.324 595
0.278 2.640 0.316 744
0.278 2.640 0.308 989
0.278 2.641 0.301 1106
0.278 2.641 0.293 1124
0.278 2.642 0.286 1080
0.278 2.642 0.278 954
0.277 2.634 0.270 873
0.278 2.643 0.263 766
0.305 2.903 0.267 643
0.306 2.911 0.259 720
0.307 2.919 0.251 752
0.306 2.911 0.242 837
0.306 2.912 0.234 889
0.307 2.920 0.226 877
0.306 2.912 0.217 1045
0.306 2.905 0.208 1302
0.306 2.905 0.200 1326
0.199 1.889 0.173 1555
0.200 1.897 0.168 2020
0.199 1.890 0.162 2468
0.199 1.890 0.157 3191
0.200 1.898 0.152 3483
0.199 1.890 0.146 3485
0.199 1.890 0.141 3467
0.199 1.890 0.135 3143
0.199 1.890 0.130 2403
0.199 1.890 0.125 1941
0.199 1.890 0.119 1526
0.230 2.189 0.110 1475
0.230 2.189 0.103 1930
0.230 2.189 0.097 2376
0.230 2.188 0.091 2821
0.230 2.188 0.085 3165
0.230 2.188 0.078 3567
0.230 2.188 0.072 3700
0.229 2.180 0.066 3601
0.229 2.180 0.060 3467
0.229 2.179 0.054 3070
0.230 2.187 0.047 2719
0.230 2.187 0.041 2248
0.229 2.179 0.035 1792
0.229 2.178 0.029 1389
0.229 2.178 0.022 986
0.229 2.178 0.016 692
0.230 2.185 0.009 411
0.230 2.185 0.003 268
0.233 2.163 1.680 4130
0.233 2.167 1.674 8260
0.234 2.172 1.668 8260
0.235 2.183 1.666 10151
0.236 2.193 1.665 12569
0.237 2.204 1.663 11703
0.238 2.209 1.656 11250
0.238 2.213 1.650 9930
0.239 2.217 1.644 8611
0.239 2.222 1.637 8611
0.238 2.213 1.622 6834
0.238 2.211 1.611 5368
0.247 2.293 1.658 5329
0.248 2.304 1.656 6404
0.250 2.322 1.658 6277
0.252 2.339 1.660 6609
0.252 2.344 1.654 6162
0.253 2.348 1.647 6078
0.253 2.353 1.640 6442
0.254 2.364 1.638 8316
0.256 2.374 1.635 10336
0.257 2.385 1.632 9268
0.261 2.423 1.647 10287
0.262 2.434 1.644 8768
0.264 2.452 1.645 7653
0.264 2.449 1.634 4999
0.271 2.521 1.669 3961
0.272 2.525 1.662 3763
0.273 2.536 1.658 3577
0.274 2.541 1.651 3149
0.267 2.478 1.603 3286
0.277 2.577 1.653 3415
0.279 2.594 1.653 4748
0.281 2.612 1.654 5263
0.282 2.617 1.646 5510
0.276 2.567 1.607 5908
0.277 2.571 1.600 5470
0.287 2.664 1.643 5083
0.287 2.661 1.632 7029
0.286 2.659 1.620 9140
0.286 2.656 1.609 8940
0.289 2.681 1.613 8537
0.291 2.706 1.616 10188
0.293 2.717 1.613 10517
0.294 2.728 1.608 11402
0.294 2.733 1.601 11462
0.294 2.730 1.589 8801
0.294 2.727 1.577 6379
0.294 2.731 1.570 5225
0.295 2.743 1.565 4238
0.301 2.796 1.583 5677
0.303 2.814 1.582 7546
0.303 2.818 1.574 7546
0.306 2.843 1.577 5338
0.311 2.889 1.590 7612
0.312 2.893 1.582 8915
0.313 2.905 1.577 7331
0.316 2.937 1.583 6622
0.317 2.948 1.578 8028
0.318 2.952 1.570 10842
0.319 2.964 1.564 12687
0.325 3.017 1.580 9307
0.328 3.043 1.582 9822
0.329 3.054 1.576 10102
0.330 3.065 1.571 13850
0.331 3.070 1.562 16258
0.332 3.081 1.556 15035
0.332 3.085 1.548 10065
0.340 3.160 1.572 7157
0.342 3.179 1.569 5737
0.344 3.197 1.566 4318
0.346 3.209 1.560 4545
0.348 3.227 1.558 3707
0.341 3.167 1.520 3011
0.350 3.250 1.545 5929
0.350 3.254 1.536 8859
0.352 3.265 1.530 10963
0.352 3.269 1.520 13213
0.353 3.280 1.514 13643
0.354 3.284 1.504 10532
0.353 3.281 1.492 5999
0.358 3.321 1.497 4611
0.360 3.340 1.494 5223
0.369 3.431 1.520 5293
0.371 3.450 1.516 6243
0.373 3.461 1.509 7832
0.374 3.472 1.502 6943
0.380 3.528 1.512 7894
0.381 3.539 1.505 8725
0.383 3.558 1.500 9049
0.384 3.569 1.493 7791
0.394 3.661 1.516 7510
0.394 3.658 1.503 10254
0.396 3.676 1.498 9781
0.397 3.688 1.490 9037
0.403 3.743 1.498 6124
0.404 3.755 1.490 6572
0.406 3.766 1.482 5366
0.414 3.844 1.498 5706
0.415 3.855 1.489 8518
0.415 3.852 1.475 6922
0.430 3.990 1.511 5534
0.430 3.994 1.499 6710
0.431 4.005 1.490 7019
0.430 3.994 1.473 6989
0.430 3.998 1.462 5540
0.433 4.024 1.458 4736
0.433 4.020 1.444 7001
0.434 4.032 1.434 6586
0.447 4.148 1.459 4585
0.451 4.189 1.459 5095
0.453 4.208 1.452 5373
0.454 4.212 1.439 3982
0.460 4.276 1.446 3620
0.461 4.280 1.433 4008
0.464 4.313 1.430 2919
0.471 4.377 1.436 3318
0.484 4.494 1.457 3725
0.484 4.491 1.441 3933
0.483 4.487 1.426 4747
0.484 4.491 1.413 3528
0.499 4.638 1.441 3910
0.490 4.551 1.402 4384
0.492 4.570 1.393 5021
0.503 4.672 1.407 3889
0.502 4.661 1.389 4614
0.516 4.794 1.410 7142
0.517 4.797 1.396 8840
0.517 4.801 1.382 7206
0.518 4.812 1.370 5177
0.519 4.816 1.356 4331
0.553 5.140 1.423 4036
0.554 5.143 1.408 4512
0.555 5.155 1.395 4618
