-0.689 3.654 1.601 4813
-0.691 3.665 1.593 4970
-0.692 3.669 1.582 5172
-0.689 3.652 1.563 4830
-0.687 3.641 1.547 4120
-0.689 3.652 1.539 3435
-0.766 4.064 1.685 3651
-0.683 3.624 1.504 5114
-0.775 4.109 1.675 5517
-0.777 4.121 1.666 3800
-0.684 3.628 1.469 3242
-0.777 4.122 1.639 2880
-0.784 4.156 1.638 3810
-0.786 4.167 1.628 3638
-0.816 4.326 1.671 4084
-0.812 4.308 1.651 5187
-0.813 4.312 1.638 4719
-0.817 4.331 1.631 3966
-0.674 3.577 1.356 3389
-0.825 4.377 1.618 4802
-0.826 4.381 1.605 7240
-0.828 4.392 1.594 6780
-0.854 4.530 1.626 5832
-0.852 4.519 1.608 4917
-0.853 4.523 1.594 4477
-0.872 4.624 1.612 4934
-0.873 4.628 1.599 4427
-0.871 4.617 1.580 4140
-0.867 4.599 1.560 4493
-0.871 4.618 1.551 4500
-0.876 4.645 1.544 4028
-0.877 4.649 1.530 2817
-0.925 4.906 1.593 3079
-0.926 4.910 1.578 2848
-0.935 4.959 1.577 2556
-0.936 4.963 1.563 2485
-0.961 5.095 1.585 2833
-0.964 5.114 1.574 3956
-0.967 5.126 1.561 4533
-0.973 5.160 1.554 3735
-0.988 5.239 1.559 2948
-1.000 5.303 1.560 2701
-1.032 5.473 1.589 3851
-1.030 5.462 1.569 4588
-1.028 5.451 1.549 8322
-1.030 5.462 1.535 8112
-1.034 5.481 1.523 5379
-1.036 5.493 1.508 4362
-1.054 5.587 1.515 2727
-1.070 5.675 1.519 3632
-1.072 5.686 1.504 3363
-1.074 5.697 1.489 2983
-1.077 5.709 1.474 3628
-1.112 5.895 1.500 3474
-1.117 5.921 1.487 2375
-1.122 5.948 1.475 2142
-1.079 5.724 1.407 1652
-1.080 5.727 1.390 1428
-1.079 5.723 1.371 1064
-1.077 5.712 1.351 1018
-1.112 5.898 1.373 1123
-1.113 5.901 1.356 1104
-1.112 5.897 1.337 1027
-1.078 5.718 1.282 1432
-1.077 5.713 1.264 2157
-1.078 5.716 1.247 2455
-1.079 5.720 1.230 2621
-1.079 5.723 1.214 2756
-1.080 5.726 1.197 2981
-1.082 5.736 1.181 3186
-1.082 5.739 1.164 3037
-1.081 5.735 1.146 2523
-1.083 5.745 1.131 1876
-1.626 8.625 1.606 1571
-1.694 8.982 1.640 1695
-1.632 8.656 1.559 1731
-1.621 8.599 1.523 1588
-1.621 8.595 1.497 1790
-1.701 9.022 1.537 1671
-1.703 9.034 1.512 1874
-1.704 9.037 1.485 1920
-1.708 9.057 1.461 1023
-1.755 9.307 1.469 662
-1.753 9.295 1.440 737
-1.754 9.299 1.412 730
-1.754 9.303 1.385 592
-1.756 9.314 1.358 357
-0.516 2.737 0.267 353
-0.515 2.729 0.259 602
-0.515 2.729 0.251 723
-0.515 2.730 0.243 667
-0.513 2.722 0.235 492
-0.510 2.707 0.226 362
-0.513 2.723 0.219 409
-0.515 2.731 0.211 413
-0.515 2.731 0.203 373
-0.515 2.731 0.195 262
-0.517 2.739 0.148 302
-0.517 2.739 0.140 352
-0.515 2.732 0.132 339
-0.515 2.732 0.124 328
-0.515 2.732 0.116 275
-0.603 3.198 0.102 297
-0.603 3.198 0.093 355
-0.605 3.206 0.084 303
-0.606 3.213 0.074 255
-0.557 2.956 0.062 255
-0.557 2.956 0.054 311
-0.557 2.956 0.045 367
-0.557 2.956 0.036 423
-0.557 2.955 0.028 477
-0.557 2.955 0.019 531
-0.557 2.955 0.010 526
-0.557 2.954 0.002 521
-0.557 2.954 -0.007 466
-0.555 2.946 -0.015 417
-0.555 2.945 -0.024 339
-0.901 4.777 -0.141 301
-0.899 4.769 -0.154 335
-0.899 4.768 -0.168 267
-0.612 3.244 -0.107 265
-0.884 4.686 -0.232 313
-0.613 3.250 -0.127 360
-0.613 3.249 -0.136 375
-0.613 3.248 -0.146 391
-0.883 4.681 -0.287 412
-0.881 4.672 -0.300 573
-0.881 4.671 -0.314 608
-0.879 4.662 -0.327 643
-0.879 4.660 -0.341 643
-0.877 4.651 -0.353 481
-0.875 4.642 -0.366 363
-0.869 4.610 -0.376 432
-0.869 4.608 -0.390 530
-0.869 4.607 -0.403 265
-0.414 2.231 1.727 2692
-0.415 2.236 1.720 5385
-0.416 2.240 1.714 5385
-0.426 2.296 1.744 6715
-0.427 2.300 1.737 8440
-0.428 2.305 1.730 9024
-0.431 2.322 1.733 9875
-0.432 2.327 1.726 9875
-0.435 2.344 1.728 7791
-0.439 2.362 1.730 6812
-0.439 2.366 1.723 7932
-0.440 2.371 1.716 9053
-0.444 2.388 1.718 11723
-0.446 2.399 1.716 15132
-0.448 2.410 1.713 13801
-0.451 2.428 1.715 13715
-0.452 2.432 1.708 13980
-0.454 2.443 1.705 10163
-0.461 2.481 1.719 8469
-0.465 2.505 1.725 7659
-0.470 2.529 1.730 7827
-0.467 2.514 1.710 8926
-0.467 2.512 1.699 10441
-0.470 2.530 1.700 9239
-0.479 2.580 1.721 11279
-0.481 2.592 1.718 11331
-0.483 2.603 1.714 11779
-0.484 2.607 1.707 8794
-0.479 2.578 1.679 5967
-0.487 2.623 1.696 6127
-0.490 2.641 1.696 7042
-0.493 2.652 1.693 6100
-0.497 2.677 1.697 5480
-0.499 2.688 1.693 7010
-0.501 2.699 1.689 8854
-0.505 2.717 1.689 10189
-0.508 2.735 1.689 9889
-0.515 2.773 1.701 8311
-0.515 2.771 1.689 9246
-0.515 2.775 1.681 10191
-0.516 2.780 1.672 11355
-0.517 2.784 1.664 12519
-0.520 2.802 1.664 12660
-0.523 2.813 1.659 10062
-0.525 2.825 1.655 6622
-0.525 2.829 1.647 5167
-0.550 2.964 1.709 4484
-0.554 2.982 1.708 6363
-0.557 3.000 1.706 8313
-0.562 3.026 1.709 8647
-0.559 3.009 1.689 9162
-0.558 3.007 1.676 9214
-0.558 3.004 1.664 8360
-0.560 3.016 1.659 9362
-0.562 3.027 1.654 9710
-0.567 3.052 1.655 10250
-0.569 3.063 1.650 8061
-0.579 3.117 1.665 9966
-0.577 3.107 1.649 10327
-0.578 3.111 1.640 8979
-0.579 3.116 1.631 6855
-0.606 3.261 1.690 6248
-0.604 3.251 1.674 7362
-0.605 3.255 1.664 8461
-0.608 3.274 1.662 7589
-0.611 3.292 1.659 7342
-0.614 3.304 1.652 7561
-0.617 3.322 1.649 5809
-0.646 3.476 1.708 7433
-0.646 3.480 1.698 8643
-0.647 3.484 1.688 7363
-0.651 3.503 1.684 7075
-0.653 3.515 1.677 7685
-0.654 3.519 1.666 6647
-0.656 3.531 1.659 6386
-0.657 3.535 1.649 5251
-0.677 3.647 1.685 5485
-0.677 3.644 1.671 4842
-0.678 3.648 1.660 5358
-0.680 3.660 1.653 6748
-0.683 3.679 1.648 6753
-0.684 3.683 1.637 6086
-0.681 3.666 1.618 5344
-0.680 3.663 1.604 5150
-0.681 3.667 1.593 5701
-0.682 3.671 1.582 5625
-0.679 3.653 1.563 5340
-0.739 3.977 1.678 4549
-0.680 3.662 1.542 3201
-0.755 4.066 1.685 3846
-0.760 4.092 1.682 4941
-0.764 4.111 1.675 5920
-0.767 4.130 1.669 4064
-0.673 3.623 1.466 3408
-0.777 4.183 1.661 2930
-0.776 4.180 1.646 3484
-0.777 4.184 1.633 3327
-0.804 4.328 1.671 4178
-0.802 4.318 1.653 5085
-0.803 4.322 1.641 4248
-0.664 3.575 1.366 4128
-0.665 3.579 1.356 3611
-0.813 4.379 1.618 5389
-0.814 4.383 1.605 8196
-0.816 4.395 1.594 7290
-0.842 4.532 1.626 6488
-0.840 4.521 1.608 5336
-0.841 4.526 1.594 4666
-0.844 4.545 1.586 4815
-0.863 4.645 1.603 3964
-0.858 4.620 1.580 4157
-0.855 4.602 1.560 5035
-0.858 4.621 1.551 4666
-0.863 4.647 1.544 4103
-0.864 4.651 1.530 3106
-0.913 4.916 1.595 2880
-0.904 4.868 1.565 2761
-0.922 4.962 1.577 2365
-0.925 4.981 1.567 2661
-0.945 5.090 1.582 2754
-0.949 5.109 1.572 3971
-0.951 5.121 1.559 4301
-0.953 5.132 1.546 3692
-0.960 5.166 1.539 2813
-1.019 5.486 1.609 2750
-1.018 5.483 1.591 4036
-1.016 5.472 1.571 4104
-1.014 5.461 1.551 7853
-1.015 5.465 1.535 7882
-1.020 5.492 1.525 5426
-1.021 5.496 1.508 4611
-1.041 5.605 1.519 3130
-1.054 5.677 1.519 3342
-1.057 5.689 1.504 3502
-1.057 5.693 1.487 3011
-1.061 5.712 1.474 3746
-1.062 5.716 1.457 3096
-1.102 5.932 1.489 1897
-1.107 5.959 1.477 1905
-1.090 5.871 1.439 1226
-1.097 5.905 1.428 1043
-1.182 6.366 1.510 853
-1.094 5.890 1.389 1008
-1.096 5.901 1.373 1159
-1.097 5.905 1.356 1117
-1.096 5.900 1.337 1061
-1.063 5.721 1.282 1430
-1.062 5.716 1.264 2348
-1.062 5.719 1.247 2769
-1.063 5.723 1.230 3121
-1.063 5.726 1.214 3558
-1.064 5.729 1.197 4025
-1.066 5.739 1.181 4260
-1.067 5.742 1.164 4037
-1.066 5.738 1.146 3335
-1.068 5.748 1.131 2455
-1.068 5.751 1.114 1639
-1.669 8.987 1.640 1741
-1.610 8.668 1.560 1728
-1.598 8.603 1.523 1816
-1.597 8.599 1.497 2083
-1.677 9.026 1.537 1829
-1.679 9.038 1.512 1996
-1.679 9.042 1.485 2007
-1.683 9.061 1.461 1104
-1.728 9.304 1.468 713
-1.727 9.300 1.440 816
-1.728 9.304 1.412 804
-1.729 9.307 1.385 669
-1.731 9.319 1.358 444
-0.510 2.746 0.268 257
-0.510 2.746 0.260 319
-0.510 2.746 0.252 343
-0.510 2.747 0.244 313
-0.509 2.739 0.235 261
-0.720 3.877 0.095 274
-0.722 3.885 0.083 348
-0.721 3.884 0.072 424
-0.721 3.884 0.060 487
-0.721 3.884 0.049 549
-0.721 3.884 0.038 561
-0.549 2.958 0.054 674
-0.549 2.957 0.045 777
-0.549 2.957 0.036 881
-0.548 2.949 0.028 944
-0.548 2.949 0.019 1009
-0.548 2.948 0.011 961
-0.549 2.956 0.002 922
-0.549 2.955 -0.007 798
-0.547 2.947 -0.015 680
-0.547 2.947 -0.024 533
-0.705 3.793 -0.082 452
-0.704 3.792 -0.093 446
-0.704 3.792 -0.105 440
-0.704 3.791 -0.116 386
-0.704 3.790 -0.127 338
-0.704 3.790 -0.138 265
-0.604 3.253 -0.108 322
-0.604 3.252 -0.117 471
-0.604 3.252 -0.127 619
-0.604 3.251 -0.136 759
-0.604 3.250 -0.146 898
-0.604 3.249 -0.155 898
-0.603 3.248 -0.165 992
-0.603 3.248 -0.174 1085
-0.603 3.247 -0.184 1013
-0.603 3.246 -0.193 941
-0.603 3.245 -0.202 760
-1.185 6.378 -0.557 603
-0.601 3.235 -0.221 587
-0.856 4.610 -0.390 598
-0.600 3.233 -0.239 331
-0.408 2.232 1.727 2587
-0.409 2.237 1.720 5174
-0.410 2.241 1.714 5174
-0.419 2.291 1.739 6359
-0.420 2.295 1.732 7953
-0.422 2.306 1.730 8999
-0.424 2.317 1.728 10123
-0.425 2.322 1.721 10123
-0.425 2.326 1.715 7546
-0.418 2.286 1.677 5947
-0.433 2.367 1.723 7339
-0.434 2.372 1.716 8858
-0.437 2.389 1.718 11206
-0.439 2.400 1.716 14147
-0.441 2.412 1.713 12848
-0.443 2.423 1.710 12713
-0.445 2.434 1.708 12971
-0.447 2.445 1.705 9651
-0.454 2.482 1.719 8853
-0.457 2.500 1.720 7977
-0.463 2.530 1.730 7865
-0.460 2.515 1.710 9074
-0.460 2.513 1.699 10580
-0.463 2.531 1.700 8826
-0.472 2.582 1.721 10243
-0.474 2.593 1.718 10691
-0.476 2.604 1.714 11398
-0.477 2.609 1.707 8716
-0.472 2.580 1.679 6233
-0.480 2.624 1.696 6605
-0.484 2.649 1.700 8039
-0.485 2.653 1.693 6951
-0.490 2.678 1.697 6428
-0.492 2.689 1.693 7568
-0.494 2.700 1.689 8872
-0.496 2.711 1.685 9884
-0.500 2.736 1.689 9114
-0.507 2.775 1.701 7861
-0.508 2.779 1.692 8625
-0.508 2.777 1.681 9442
-0.509 2.781 1.672 10223
-0.509 2.785 1.664 11003
-0.513 2.804 1.664 11342
-0.515 2.815 1.659 9231
-0.517 2.826 1.655 6261
-0.518 2.830 1.647 5647
-0.520 2.842 1.642 5104
-0.521 2.846 1.634 5896
-0.550 3.009 1.710 7970
-0.552 3.020 1.705 8421
-0.551 3.011 1.689 9307
-0.550 3.008 1.676 9673
-0.550 3.006 1.664 8926
-0.552 3.017 1.659 9960
-0.554 3.028 1.654 9988
-0.559 3.054 1.655 10102
-0.561 3.065 1.650 7994
-0.570 3.118 1.665 9410
-0.569 3.109 1.649 9833
-0.569 3.113 1.640 8796
-0.570 3.117 1.631 6976
-0.572 3.129 1.626 6251
-0.595 3.253 1.674 7753
-0.596 3.257 1.664 9558
-0.599 3.275 1.662 8340
-0.602 3.294 1.659 7467
-0.605 3.305 1.652 7512
-0.608 3.324 1.649 5952
-0.636 3.477 1.708 7444
-0.637 3.482 1.698 8358
-0.638 3.486 1.688 7077
-0.641 3.505 1.684 6764
-0.643 3.517 1.677 7286
-0.645 3.528 1.669 6376
-0.646 3.532 1.659 6400
-0.647 3.537 1.649 5398
-0.667 3.649 1.685 4933
-0.668 3.653 1.674 4747
-0.662 3.622 1.648 5835
-0.668 3.655 1.650 6197
-0.671 3.666 1.642 5604
-0.667 3.649 1.622 5386
-0.668 3.653 1.612 5515
-0.669 3.657 1.601 5800
-0.671 3.669 1.593 6547
-0.673 3.680 1.585 6242
-0.670 3.663 1.566 5793
-0.728 3.979 1.678 5138
-0.739 4.042 1.689 3388
-0.744 4.068 1.685 4123
-0.749 4.094 1.682 4959
-0.752 4.113 1.675 5903
-0.757 4.140 1.671 4456
-0.763 4.173 1.670 3934
-0.764 4.178 1.658 3520
-0.773 4.226 1.662 3576
-0.772 4.223 1.647 3399
-0.791 4.323 1.669 4227
-0.770 4.209 1.614 4942
-0.772 4.221 1.604 5635
-0.792 4.328 1.628 3997
-0.794 4.340 1.618 3594
-0.801 4.381 1.618 5645
-0.801 4.378 1.602 8657
-0.803 4.390 1.592 7585
-0.829 4.534 1.626 6738
-0.827 4.524 1.608 5437
-0.828 4.528 1.594 4492
-0.832 4.547 1.586 4682
-0.828 4.529 1.565 3606
-0.845 4.622 1.580 3819
-0.842 4.604 1.560 5180
-0.846 4.623 1.551 4584
-0.850 4.649 1.544 3981
-0.852 4.661 1.533 3261
-0.886 4.844 1.573 2936
-0.889 4.863 1.563 3126
-0.892 4.875 1.551 2316
-0.914 4.999 1.571 2978
-0.919 5.025 1.563 2713
-0.935 5.112 1.572 3772
-0.937 5.123 1.559 3797
-0.939 5.135 1.546 3585
-0.944 5.161 1.537 3204
-1.004 5.489 1.609 3099
-1.003 5.486 1.591 3922
-1.001 5.475 1.571 3300
-0.999 5.464 1.551 6458
-1.001 5.475 1.537 6899
-1.005 5.494 1.525 4973
-1.007 5.506 1.510 4755
-1.026 5.608 1.519 3100
-1.038 5.673 1.517 2787
-1.040 5.684 1.502 3443
-1.040 5.688 1.485 3001
-1.045 5.715 1.474 3631
-1.047 5.726 1.459 3191
-1.047 5.722 1.440 1837
-1.090 5.962 1.477 1616
-1.074 5.874 1.439 1274
-1.163 6.357 1.527 1150
-1.165 6.369 1.510 1016
-1.078 5.893 1.389 1054
-1.080 5.904 1.373 1148
-1.080 5.907 1.356 1011
-1.267 6.926 1.546 1192
-1.045 5.716 1.281 1416
-1.046 5.719 1.264 2452
-1.047 5.722 1.247 3049
-1.047 5.725 1.230 3592
-1.048 5.729 1.214 4316
-1.048 5.732 1.197 4984
-1.050 5.742 1.181 5167
-1.051 5.745 1.164 4888
-1.050 5.740 1.146 4039
-1.052 5.751 1.131 2946
-1.052 5.754 1.114 1961
-1.163 6.356 1.197 1900
-1.163 6.359 1.179 1933
-1.573 8.600 1.522 1992
-1.574 8.604 1.497 2207
-1.652 9.031 1.537 1922
-1.654 9.043 1.512 1984
-1.655 9.047 1.485 1945
-1.703 9.312 1.497 1152
-1.703 9.309 1.468 782
-1.702 9.305 1.440 873
-1.703 9.308 1.412 865
-1.703 9.312 1.385 742
-1.707 9.331 1.359 529
-1.707 9.334 1.332 303
-0.970 5.303 0.452 335
-0.970 5.304 0.437 306
-0.960 5.246 0.341 252
-0.586 3.202 0.112 254
-0.540 2.952 0.097 324
-0.540 2.952 0.088 524
-0.541 2.960 0.079 725
-0.540 2.952 0.071 976
-0.540 2.952 0.062 1445
-0.541 2.959 0.054 1673
-0.540 2.951 0.045 1784
-0.540 2.951 0.037 1906
-0.540 2.950 0.028 1816
-0.540 2.950 0.019 1725
-0.540 2.950 0.011 1514
-0.539 2.949 0.002 1303
-0.539 2.949 -0.006 1013
-0.539 2.949 -0.015 723
-0.539 2.948 -0.024 511
-0.694 3.795 -0.082 492
-0.695 3.802 -0.094 498
-0.694 3.794 -0.105 492
-0.694 3.793 -0.116 454
-0.694 3.792 -0.127 420
-0.593 3.240 -0.097 501
-0.594 3.247 -0.107 653
-0.594 3.246 -0.116 763
-0.594 3.246 -0.126 865
-0.593 3.245 -0.135 793
-0.592 3.236 -0.144 735
-0.592 3.235 -0.154 735
-0.592 3.235 -0.163 689
-0.590 3.226 -0.172 651
-0.591 3.233 -0.182 744
-0.593 3.240 -0.192 867
-0.592 3.239 -0.202 919
-0.592 3.238 -0.211 971
-0.592 3.237 -0.221 971
-0.592 3.236 -0.230 893
-0.592 3.235 -0.239 816
-0.591 3.233 -0.249 408
-0.407 2.259 1.745 2613
-0.408 2.263 1.738 5227
-0.409 2.268 1.732 5227
-0.412 2.285 1.734 5446
-0.414 2.296 1.732 6145
-0.415 2.301 1.726 6972
-0.416 2.305 1.719 7800
-0.417 2.310 1.712 7800
-0.413 2.289 1.688 7530
-0.412 2.287 1.677 7774
-0.426 2.362 1.719 6705
-0.427 2.367 1.712 8421
-0.431 2.391 1.718 10254
-0.433 2.402 1.716 12767
-0.435 2.413 1.713 11524
-0.437 2.424 1.710 11367
-0.439 2.435 1.708 11582
-0.441 2.446 1.705 8935
-0.449 2.490 1.723 9111
-0.451 2.501 1.720 8174
-0.454 2.518 1.722 7692
-0.454 2.516 1.710 8941
-0.454 2.514 1.699 10392
-0.457 2.532 1.700 8197
-0.466 2.583 1.721 9014
-0.468 2.594 1.718 9803
-0.469 2.599 1.710 10762
-0.470 2.603 1.703 8410
-0.466 2.581 1.679 6410
-0.474 2.625 1.696 6896
-0.478 2.650 1.700 8729
-0.481 2.668 1.701 7644
-0.483 2.679 1.697 7132
-0.485 2.690 1.693 7913
-0.487 2.701 1.689 8709
-0.489 2.713 1.685 9517
-0.493 2.731 1.685 8265
-0.501 2.776 1.701 7264
-0.501 2.780 1.692 7848
-0.502 2.785 1.684 8432
-0.503 2.789 1.676 8637
-0.503 2.787 1.664 8954
-0.506 2.805 1.664 9636
-0.508 2.816 1.659 8293
-0.510 2.827 1.655 5939
-0.511 2.832 1.647 6039
-0.513 2.843 1.642 6155
-0.514 2.847 1.634 6824
-0.543 3.010 1.710 7399
-0.545 3.022 1.705 8167
-0.543 3.012 1.689 9356
-0.543 3.010 1.676 9941
-0.544 3.014 1.668 9247
-0.544 3.018 1.659 10360
-0.546 3.030 1.654 10203
-0.551 3.055 1.655 9936
-0.553 3.066 1.650 7944
-0.563 3.120 1.665 8901
-0.560 3.103 1.646 9436
-0.562 3.114 1.640 8619
-0.564 3.126 1.635 7003
-0.565 3.130 1.626 6211
-0.587 3.254 1.674 8116
-0.588 3.258 1.664 10495
-0.590 3.270 1.658 9121
-0.593 3.288 1.655 7817
-0.595 3.300 1.649 7717
-0.600 3.325 1.649 6097
-0.627 3.479 1.708 7399
-0.628 3.483 1.698 7936
-0.629 3.488 1.688 6630
-0.632 3.507 1.684 6193
-0.635 3.518 1.677 6723
-0.637 3.530 1.669 6095
-0.637 3.534 1.659 6195
-0.638 3.538 1.649 5272
-0.658 3.650 1.685 4275
-0.651 3.612 1.656 5281
-0.652 3.616 1.645 6855
-0.653 3.620 1.635 5962
-0.654 3.625 1.624 5476
-0.657 3.643 1.619 5796
-0.658 3.647 1.609 5890
-0.660 3.659 1.601 6323
-0.663 3.678 1.596 7314
-0.664 3.682 1.585 6839
-0.662 3.671 1.569 6023
-0.718 3.981 1.678 5580
-0.729 4.043 1.689 3814
-0.734 4.070 1.685 4261
-0.739 4.096 1.682 4731
-0.742 4.115 1.675 5473
-0.748 4.149 1.674 4698
-0.752 4.168 1.667 4915
-0.754 4.179 1.658 3925
-0.763 4.228 1.662 3688
-0.763 4.232 1.649 3311
-0.780 4.325 1.669 4062
-0.760 4.211 1.614 6945
-0.762 4.223 1.604 7194
-0.781 4.330 1.628 3964
-0.783 4.342 1.618 3879
-0.791 4.383 1.618 5413
-0.790 4.380 1.602 8550
-0.792 4.391 1.592 7532
-0.817 4.529 1.623 6556
-0.816 4.526 1.608 5193
-0.817 4.530 1.594 3949
-0.838 4.646 1.617 4165
-0.817 4.531 1.565 4056
-0.843 4.676 1.597 3659
-0.833 4.621 1.564 4902
-0.834 4.625 1.551 4132
-0.839 4.651 1.544 3601
-0.841 4.663 1.533 3115
-0.874 4.846 1.573 3163
-0.878 4.865 1.563 3437
-0.881 4.884 1.553 3022
-0.902 5.001 1.571 3119
-0.907 5.027 1.563 2820
-0.921 5.106 1.570 3495
-0.925 5.126 1.559 3118
-0.928 5.145 1.548 3472
-0.931 5.164 1.537 3629
-0.991 5.491 1.609 3156
-0.990 5.488 1.591 3520
-0.976 5.409 1.553 2945
-0.987 5.474 1.553 4673
-0.988 5.478 1.537 5251
-0.993 5.504 1.527 3904
-0.994 5.508 1.510 4545
-0.994 5.512 1.494 3412
-1.025 5.683 1.519 2331
-1.024 5.679 1.500 3328
-1.025 5.683 1.484 3132
-1.031 5.717 1.474 3272
-1.032 5.721 1.457 2954
-1.033 5.725 1.440 1674
-1.077 5.972 1.479 1273
-1.146 6.356 1.546 1277
-1.147 6.360 1.527 1314
-1.149 6.372 1.510 1151
-1.065 5.903 1.390 1053
-1.065 5.907 1.373 1100
-1.251 6.933 1.568 875
-1.251 6.937 1.548 1306
-1.031 5.718 1.281 1419
-1.032 5.722 1.264 2528
-1.033 5.725 1.247 3212
-1.033 5.728 1.230 3875
-1.034 5.731 1.214 4776
-1.034 5.734 1.197 5564
-1.036 5.745 1.181 5722
-1.037 5.748 1.164 5402
-1.036 5.743 1.146 4472
-1.038 5.754 1.131 3261
-1.038 5.756 1.114 2167
-1.147 6.359 1.197 2188
-1.147 6.362 1.179 2153
-1.552 8.604 1.522 2149
-1.553 8.608 1.497 2239
-1.630 9.035 1.537 1971
-1.646 9.124 1.524 2020
-1.635 9.066 1.488 1821
-1.680 9.317 1.497 1229
-1.678 9.305 1.467 867
-1.678 9.301 1.439 911
-1.680 9.313 1.412 895
-1.680 9.316 1.385 785
-1.684 9.335 1.359 581
-1.684 9.339 1.332 316
-0.958 5.312 0.468 330
-0.957 5.305 0.452 459
-0.959 5.314 0.437 399
-0.960 5.323 0.422 310
-0.960 5.324 0.406 276
-0.960 5.324 0.391 290
-0.945 5.240 0.356 280
-0.947 5.248 0.341 306
-0.948 5.257 0.325 285
-0.531 2.946 0.105 296
-0.531 2.946 0.097 439
-0.533 2.953 0.088 705
-0.533 2.953 0.080 976
-0.533 2.953 0.071 1340
-0.533 2.953 0.062 2072
-0.533 2.953 0.054 2440
-0.533 2.952 0.045 2700
-0.532 2.952 0.037 2960
-0.532 2.952 0.028 2977
-0.532 2.951 0.019 2995
-0.532 2.951 0.011 2769
-0.532 2.951 0.002 2544
-0.532 2.950 -0.006 2142
-0.532 2.950 -0.015 1740
-0.532 2.949 -0.024 1340
-0.685 3.797 -0.082 1002
-0.685 3.796 -0.093 1004
-0.685 3.795 -0.105 993
-0.684 3.795 -0.116 905
-0.684 3.794 -0.127 827
-0.684 3.793 -0.138 685
-0.585 3.241 -0.106 741
-0.586 3.248 -0.116 1105
-0.586 3.247 -0.126 1464
-0.586 3.246 -0.135 1838
-0.585 3.245 -0.145 2212
-0.585 3.245 -0.154 2212
-0.585 3.244 -0.164 2501
-0.585 3.243 -0.173 2791
-0.585 3.242 -0.183 2655
-0.585 3.241 -0.192 2519
-0.584 3.240 -0.202 2108
-0.583 3.231 -0.210 1699
-0.583 3.230 -0.220 1699
-0.582 3.229 -0.229 1351
-0.582 3.228 -0.239 1003
-0.582 3.227 -0.248 501
-0.399 2.254 1.740 2804
-0.400 2.258 1.734 5608
-0.401 2.263 1.727 5608
-0.405 2.286 1.734 5290
-0.406 2.291 1.728 5411
-0.407 2.296 1.721 6433
-0.405 2.287 1.705 7813
-0.406 2.292 1.699 7813
-0.406 2.290 1.688 8462
-0.407 2.294 1.681 9190
-0.412 2.325 1.692 7305
-0.419 2.361 1.707 8642
-0.423 2.385 1.714 9319
-0.425 2.396 1.711 11196
-0.427 2.407 1.709 9617
-0.430 2.425 1.710 9342
-0.432 2.436 1.708 9645
-0.435 2.454 1.709 8106
-0.441 2.491 1.723 9347
-0.442 2.495 1.716 8326
-0.444 2.507 1.713 7489
-0.445 2.511 1.706 8738
-0.446 2.516 1.699 9986
-0.449 2.533 1.700 7511
-0.458 2.584 1.721 7637
-0.459 2.589 1.714 8905
-0.460 2.593 1.706 10173
-0.458 2.584 1.691 8123
-0.458 2.582 1.679 6631
-0.466 2.627 1.696 7103
-0.470 2.651 1.700 9238
-0.473 2.669 1.701 8221
-0.475 2.681 1.697 7788
-0.476 2.685 1.689 8164
-0.479 2.703 1.689 8375
-0.480 2.707 1.681 9079
-0.482 2.719 1.677 7461
-0.492 2.777 1.701 6427
-0.494 2.789 1.696 6758
-0.495 2.793 1.688 7143
-0.495 2.791 1.676 6650
-0.494 2.788 1.664 6295
-0.497 2.806 1.664 7513
-0.498 2.811 1.656 7322
-0.498 2.808 1.644 5841
-0.502 2.833 1.647 6443
-0.503 2.837 1.638 7171
-0.505 2.849 1.634 7584
-0.534 3.012 1.710 6514
-0.535 3.016 1.701 7914
-0.534 3.014 1.689 9453
-0.534 3.011 1.676 10111
-0.535 3.016 1.668 9391
-0.535 3.020 1.659 10648
-0.537 3.031 1.654 10477
-0.542 3.057 1.655 9880
-0.544 3.068 1.650 8001
-0.554 3.128 1.669 8653
-0.549 3.098 1.642 9312
-0.551 3.109 1.637 8580
-0.554 3.127 1.635 7107
-0.555 3.132 1.626 6125
-0.577 3.256 1.674 8408
-0.578 3.260 1.664 11402
-0.580 3.272 1.658 9958
-0.582 3.283 1.652 8212
-0.585 3.302 1.649 8034
-0.590 3.327 1.649 6185
-0.616 3.474 1.705 7200
-0.618 3.485 1.698 7356
-0.619 3.490 1.688 6101
-0.621 3.501 1.681 5473
-0.626 3.534 1.683 5685
-0.627 3.539 1.673 5698
-0.628 3.543 1.662 6358
-0.629 3.547 1.652 5830
-0.631 3.559 1.645 4064
-0.639 3.606 1.653 6438
-0.640 3.611 1.642 8236
-0.639 3.608 1.629 7423
-0.641 3.619 1.621 6767
-0.645 3.638 1.616 6825
-0.646 3.642 1.606 6589
-0.649 3.661 1.601 6669
-0.652 3.680 1.596 7845
-0.654 3.691 1.588 7263
-0.654 3.688 1.575 6214
-0.707 3.990 1.681 5899
-0.716 4.038 1.686 4352
-0.720 4.065 1.683 4297
-0.726 4.098 1.682 4188
-0.728 4.110 1.673 4657
-0.737 4.158 1.677 5131
-0.739 4.170 1.667 6393
-0.740 4.174 1.655 5053
-0.748 4.223 1.659 3562
-0.632 3.566 1.408 3195
-0.745 4.202 1.624 5128
-0.748 4.221 1.617 8974
-0.749 4.225 1.604 8654
-0.757 4.274 1.607 4483
-0.770 4.344 1.618 4021
-0.776 4.378 1.615 4782
-0.775 4.375 1.600 7724
-0.777 4.386 1.590 7016
-0.802 4.524 1.621 5815
-0.799 4.506 1.600 4623
-0.820 4.629 1.626 3999
-0.825 4.655 1.619 4493
-0.803 4.533 1.565 4464
-0.821 4.634 1.583 4053
-0.821 4.631 1.567 4360
-0.823 4.642 1.555 3525
-0.826 4.661 1.546 3072
-0.828 4.673 1.535 2604
-0.859 4.849 1.573 3285
-0.863 4.868 1.563 3570
-0.868 4.894 1.555 3621
-0.870 4.906 1.543 3473
-0.892 5.030 1.563 2954
-0.904 5.102 1.567 2920
-0.930 5.249 1.592 2372
-0.914 5.155 1.550 3567
-0.916 5.167 1.537 3909
-0.939 5.299 1.556 3475
-0.973 5.491 1.591 3001
-0.959 5.412 1.553 3185
-0.960 5.416 1.537 3468
-0.958 5.405 1.517 3486
-0.988 5.575 1.544 3117
-0.977 5.511 1.510 4237
-0.978 5.515 1.494 3557
-1.009 5.693 1.521 2007
-1.007 5.682 1.500 3132
-1.006 5.679 1.482 3241
-1.014 5.720 1.474 2537
-1.015 5.724 1.457 2270
-1.015 5.728 1.440 1268
-1.128 6.363 1.566 1002
-1.129 6.367 1.548 1387
-1.128 6.364 1.527 1377
-1.130 6.375 1.510 1229
-1.047 5.906 1.390 1038
-1.049 5.917 1.375 1081
-1.202 6.784 1.536 874
-1.232 6.948 1.549 1412
-1.238 6.983 1.535 1728
-1.015 5.725 1.264 2401
-1.015 5.728 1.247 3135
-1.016 5.731 1.230 3847
-1.016 5.734 1.214 4873
-1.017 5.737 1.197 5715
-1.019 5.748 1.181 5820
-1.019 5.751 1.164 5579
-1.020 5.754 1.147 4699
-1.020 5.757 1.131 3418
-1.127 6.359 1.216 2324
-1.128 6.362 1.197 2411
-1.128 6.365 1.179 2271
-1.526 8.608 1.522 2256
-1.526 8.612 1.497 2195
-1.602 9.040 1.537 1865
-1.618 9.129 1.524 2052
-1.610 9.086 1.490 1690
-1.652 9.322 1.497 1273
-1.647 9.295 1.465 990
-1.649 9.306 1.439 948
-1.651 9.318 1.412 909
-1.653 9.329 1.386 800
-1.655 9.340 1.359 613
-1.655 9.336 1.331 335
-0.960 5.416 0.586 265
-0.947 5.343 0.517 279
-0.947 5.344 0.502 308
-0.946 5.338 0.485 319
-0.943 5.323 0.469 436
-0.942 5.316 0.453 579
-0.944 5.325 0.437 494
-0.944 5.326 0.422 395
-0.944 5.326 0.406 369
-0.944 5.327 0.391 367
-0.939 5.297 0.374 280
-0.929 5.243 0.356 341
-0.931 5.251 0.341 370
-0.932 5.260 0.325 330
-0.893 5.037 0.155 252
-0.893 5.037 0.140 291
-0.565 3.189 0.093 286
-0.524 2.955 0.088 479
-0.525 2.963 0.079 678
-0.524 2.955 0.071 927
-0.524 2.954 0.062 1403
-0.524 2.954 0.054 1629
-0.524 2.954 0.045 1778
-0.524 2.954 0.037 1926
-0.523 2.953 0.028 1923
-0.523 2.953 0.019 1920
-0.523 2.953 0.011 1771
-0.523 2.952 0.002 1622
-0.523 2.952 -0.006 1391
-0.674 3.800 -0.060 1382
-0.673 3.799 -0.071 1492
-0.673 3.799 -0.082 1460
-0.673 3.798 -0.093 1427
-0.673 3.797 -0.105 1411
-0.673 3.797 -0.116 1263
-0.673 3.796 -0.127 1131
-0.673 3.795 -0.138 931
-0.575 3.243 -0.106 847
-0.576 3.250 -0.116 1017
-0.576 3.249 -0.126 1182
-0.576 3.248 -0.135 1243
-0.576 3.247 -0.145 1305
-0.575 3.246 -0.154 1305
-0.575 3.246 -0.164 1296
-0.575 3.245 -0.173 1288
-0.576 3.252 -0.184 1122
-0.576 3.251 -0.193 968
-0.576 3.250 -0.202 761
-0.574 3.241 -0.211 565
-0.574 3.240 -0.221 565
-0.817 4.610 -0.389 474
-0.574 3.238 -0.239 295
-0.393 2.242 1.731 3233
-0.394 2.246 1.725 6467
-0.395 2.251 1.718 6467
-0.399 2.274 1.725 5467
-0.401 2.285 1.723 5088
-0.402 2.290 1.717 6140
-0.400 2.282 1.701 7396
-0.401 2.286 1.694 7396
-0.402 2.291 1.688 8265
-0.403 2.295 1.681 9134
-0.406 2.312 1.683 7186
-0.414 2.362 1.707 8159
-0.419 2.386 1.714 8224
-0.421 2.397 1.711 9311
-0.422 2.408 1.709 7597
-0.426 2.426 1.710 7025
-0.429 2.443 1.712 7543
-0.434 2.474 1.722 7463
-0.436 2.485 1.719 9334
-0.438 2.496 1.716 8308
-0.434 2.474 1.692 7700
-0.439 2.505 1.702 8263
-0.440 2.510 1.694 9236
-0.445 2.534 1.700 6907
-0.452 2.578 1.717 6743
-0.453 2.583 1.710 8404
-0.453 2.581 1.698 10210
-0.452 2.579 1.686 8471
-0.453 2.583 1.679 6816
-0.460 2.621 1.692 7113
-0.465 2.652 1.700 9294
-0.468 2.670 1.701 8391
-0.470 2.681 1.697 8122
-0.471 2.686 1.689 8202
-0.473 2.697 1.685 7964
-0.475 2.708 1.681 8524
-0.476 2.713 1.673 6963
-0.489 2.785 1.704 5422
-0.489 2.789 1.696 5647
-0.491 2.801 1.692 6051
-0.492 2.805 1.684 5000
-0.487 2.775 1.657 4235
-0.492 2.807 1.664 5631
-0.492 2.805 1.652 6638
-0.493 2.809 1.644 6146
-0.497 2.834 1.647 6716
-0.498 2.838 1.638 7783
-0.500 2.850 1.634 7847
-0.501 2.854 1.626 6093
-0.528 3.010 1.698 7869
-0.529 3.015 1.689 9477
-0.530 3.019 1.680 10005
-0.529 3.017 1.668 9071
-0.530 3.021 1.659 10504
-0.532 3.032 1.654 10533
-0.536 3.058 1.655 9827
-0.538 3.069 1.650 8046
-0.549 3.129 1.669 8678
-0.544 3.099 1.642 9531
-0.546 3.110 1.637 8657
-0.549 3.128 1.635 7037
-0.551 3.140 1.629 5950
-0.571 3.257 1.674 8181
-0.573 3.268 1.668 11718
-0.574 3.273 1.658 10356
-0.576 3.284 1.652 8429
-0.579 3.303 1.649 8249
-0.583 3.321 1.646 6199
-0.610 3.475 1.705 6914
-0.612 3.486 1.698 6773
-0.612 3.491 1.688 5574
-0.614 3.502 1.681 4836
-0.624 3.557 1.692 5385
-0.622 3.547 1.676 5486
-0.620 3.537 1.659 6392
-0.621 3.541 1.649 6074
-0.623 3.553 1.642 4483
-0.633 3.608 1.653 7331
-0.632 3.605 1.639 9509
-0.632 3.602 1.626 9170
-0.634 3.613 1.618 8055
-0.636 3.625 1.610 7520
-0.638 3.636 1.603 6689
-0.644 3.669 1.604 6210
-0.646 3.681 1.596 7711
-0.648 3.692 1.588 7423
-0.650 3.704 1.580 6130
-0.700 3.991 1.681 5822
-0.707 4.032 1.683 4728
-0.712 4.059 1.680 4119
-0.719 4.100 1.682 3335
-0.717 4.089 1.664 3745
-0.731 4.167 1.680 5394
-0.732 4.171 1.667 7634
-0.731 4.168 1.653 6208
-0.732 4.173 1.640 4596
-0.737 4.199 1.636 4063
-0.737 4.203 1.624 6306
-0.741 4.222 1.617 10214
-0.741 4.226 1.604 9300
-0.750 4.275 1.607 5101
-0.756 4.309 1.605 3746
-0.766 4.365 1.610 3879
-0.768 4.376 1.600 6270
-0.770 4.388 1.590 6061
-0.790 4.503 1.614 5409
-0.788 4.493 1.595 4581
-0.814 4.638 1.628 4130
-0.816 4.649 1.617 5006
-0.796 4.535 1.565 4715
-0.812 4.628 1.580 4528
-0.814 4.640 1.569 3674
-0.816 4.651 1.558 3113
-0.818 4.663 1.546 2712
-0.849 4.839 1.585 2535
-0.850 4.843 1.571 3074
-0.854 4.869 1.563 3146
-0.859 4.896 1.555 3462
-0.860 4.900 1.541 3626
-0.883 5.032 1.563 2905
-0.883 5.036 1.548 2428
-0.921 5.250 1.592 2499
-0.906 5.164 1.552 3716
-0.907 5.168 1.537 3576
-0.931 5.308 1.558 3999
-0.932 5.312 1.543 3583
-0.950 5.414 1.553 3336
-0.950 5.418 1.537 4335
-0.950 5.414 1.519 4289
-0.952 5.426 1.505 2958
-0.967 5.513 1.510 3891
-0.968 5.517 1.494 3335
-1.000 5.703 1.523 2023
-0.998 5.692 1.502 2942
-0.996 5.680 1.482 3020
-1.009 5.753 1.481 1955
-1.007 5.741 1.461 1539
-1.030 5.874 1.474 1059
-1.118 6.373 1.568 939
-1.117 6.369 1.548 1343
-1.117 6.366 1.527 1297
-1.119 6.377 1.510 1173
-1.038 5.916 1.392 1019
-1.040 5.927 1.376 1110
-1.190 6.786 1.536 780
-1.221 6.958 1.551 1395
-1.224 6.978 1.534 1883
-1.005 5.726 1.264 2098
-1.005 5.730 1.247 2800
-1.006 5.733 1.230 3419
-1.006 5.736 1.214 4367
-1.007 5.739 1.197 5183
-1.009 5.750 1.181 5272
-1.009 5.753 1.164 5127
-1.010 5.756 1.147 4391
-1.010 5.758 1.131 3194
-1.116 6.361 1.216 2497
-1.116 6.364 1.197 2467
-1.117 6.367 1.179 2193
-1.509 8.603 1.521 2257
-1.513 8.623 1.498 1970
-1.585 9.035 1.536 1679
-1.602 9.132 1.524 1972
-1.596 9.097 1.491 1576
-1.634 9.317 1.496 1325
-1.631 9.298 1.465 1156
-1.633 9.309 1.439 960
-1.635 9.320 1.412 898
-1.637 9.332 1.386 779
-1.639 9.343 1.359 569
-1.640 9.347 1.332 286
-0.951 5.423 0.619 286
-0.950 5.417 0.602 397
-0.950 5.418 0.586 424
-0.949 5.411 0.570 399
-0.951 5.420 0.555 312
-0.937 5.344 0.533 250
-0.938 5.345 0.517 333
-0.938 5.346 0.502 347
-0.950 5.417 0.490 373
-0.934 5.325 0.469 481
-0.933 5.318 0.453 613
-0.934 5.326 0.437 518
-0.935 5.327 0.422 406
-0.935 5.328 0.406 383
-0.933 5.321 0.390 395
-0.929 5.298 0.374 307
-0.920 5.244 0.356 361
-0.921 5.253 0.341 398
-0.922 5.253 0.325 353
-0.920 5.246 0.310 269
-0.884 5.038 0.155 315
-0.884 5.038 0.140 363
-0.882 5.031 0.125 307
-0.881 5.023 0.111 256
-0.878 5.007 0.096 262
-0.519 2.956 0.105 298
-0.519 2.956 0.097 387
-0.520 2.964 0.088 461
-0.520 2.964 0.079 543
-0.520 2.963 0.071 611
-0.520 2.963 0.062 767
-0.520 2.963 0.054 855
-0.520 2.963 0.045 912
-0.518 2.955 0.037 978
-0.518 2.954 0.028 914
-0.518 2.954 0.019 850
-0.667 3.803 -0.027 1023
-0.667 3.802 -0.038 1222
-0.667 3.802 -0.049 1421
-0.667 3.801 -0.060 1517
-0.667 3.801 -0.071 1612
-0.667 3.800 -0.082 1548
-0.666 3.799 -0.093 1484
-0.666 3.799 -0.105 1467
-0.666 3.798 -0.116 1296
-0.666 3.797 -0.127 1141
-0.666 3.796 -0.138 940
-0.666 3.796 -0.149 739
-0.572 3.258 -0.117 594
-0.571 3.258 -0.127 637
-0.571 3.257 -0.136 561
-0.571 3.256 -0.146 485
-0.571 3.255 -0.155 485
-0.823 4.691 -0.301 480
-0.572 3.261 -0.175 467
-0.572 3.260 -0.184 490
-0.570 3.252 -0.193 524
-0.570 3.251 -0.202 452
-0.569 3.242 -0.211 385
-0.569 3.241 -0.221 385
-0.809 4.611 -0.389 392
-0.384 2.243 1.731 3817
-0.385 2.248 1.725 7635
-0.386 2.252 1.718 7635
-0.388 2.263 1.716 6328
-0.405 2.364 1.778 5376
-0.391 2.279 1.708 6226
-0.391 2.283 1.701 7248
-0.392 2.288 1.694 7248
-0.393 2.292 1.688 8458
-0.394 2.297 1.681 9669
-0.397 2.314 1.683 7814
-0.405 2.364 1.707 7845
-0.409 2.388 1.714 7042
-0.411 2.399 1.711 7405
-0.414 2.416 1.713 5800
-0.418 2.440 1.719 5387
-0.420 2.451 1.716 5970
-0.424 2.476 1.722 7137
-0.426 2.487 1.719 9328
-0.427 2.491 1.712 8346
-0.424 2.476 1.692 8078
-0.426 2.487 1.689 8072
-0.428 2.498 1.686 8492
-0.436 2.542 1.704 6715
-0.442 2.580 1.717 6689
-0.440 2.565 1.697 8731
-0.441 2.576 1.694 10847
-0.442 2.580 1.686 8922
-0.443 2.585 1.679 6997
-0.450 2.623 1.692 7132
-0.455 2.654 1.700 9100
-0.458 2.672 1.701 8365
-0.460 2.683 1.697 8334
-0.461 2.688 1.689 8176
-0.461 2.692 1.681 7621
-0.464 2.710 1.681 7972
-0.464 2.708 1.669 6675
-0.464 2.705 1.658 4970
-0.480 2.798 1.700 4764
-0.483 2.816 1.700 5533
-0.482 2.814 1.688 4433
-0.475 2.770 1.653 3736
-0.480 2.802 1.660 4767
-0.481 2.807 1.652 6187
-0.482 2.811 1.644 6456
-0.485 2.829 1.643 7048
-0.487 2.840 1.638 8048
-0.489 2.851 1.634 7734
-0.489 2.856 1.626 5859
-0.515 3.005 1.694 8005
-0.516 3.010 1.685 9481
-0.518 3.021 1.680 9704
-0.516 3.012 1.664 8448
-0.518 3.023 1.659 10073
-0.520 3.034 1.654 10430
-0.524 3.060 1.655 9777
-0.526 3.071 1.650 8063
-0.537 3.131 1.669 9011
-0.531 3.101 1.642 9965
-0.533 3.112 1.637 8856
-0.538 3.138 1.638 6838
-0.538 3.142 1.629 5682
-0.559 3.259 1.674 7599
-0.561 3.270 1.668 11622
-0.561 3.275 1.658 10451
-0.563 3.286 1.652 8487
-0.565 3.298 1.646 8438
-0.593 3.458 1.708 6250
-0.596 3.477 1.705 6704
-0.598 3.489 1.698 6412
-0.599 3.493 1.688 5224
-0.614 3.583 1.716 4519
-0.611 3.566 1.696 5853
-0.610 3.557 1.679 5038
-0.607 3.539 1.659 5827
-0.607 3.544 1.649 6070
-0.608 3.548 1.639 5257
-0.619 3.610 1.653 7713
-0.618 3.607 1.639 10104
-0.618 3.604 1.626 10826
-0.618 3.608 1.615 9524
-0.620 3.620 1.607 8264
-0.621 3.624 1.597 6601
-0.631 3.679 1.607 5256
-0.633 3.691 1.599 7002
-0.634 3.702 1.591 7250
-0.639 3.728 1.589 6221
-0.685 3.994 1.681 5540
-0.690 4.028 1.680 4665
-0.695 4.054 1.677 3675
-0.642 3.744 1.545 3168
-0.699 4.077 1.659 3348
-0.713 4.162 1.677 5375
-0.714 4.167 1.665 8418
-0.715 4.171 1.653 7131
-0.716 4.175 1.640 5960
-0.720 4.202 1.636 5323
-0.722 4.213 1.626 7051
-0.724 4.225 1.617 10451
-0.726 4.237 1.607 9142
-0.734 4.285 1.610 5586
-0.736 4.297 1.600 3860
-0.747 4.360 1.608 3172
-0.749 4.372 1.597 4458
-0.763 4.450 1.609 5009
-0.770 4.491 1.609 5461
-0.768 4.481 1.591 5134
-0.795 4.641 1.628 4185
-0.797 4.653 1.617 5339
-0.791 4.612 1.589 5556
-0.794 4.631 1.580 5266
-0.797 4.650 1.571 3190
-0.799 4.662 1.560 2498
-0.798 4.658 1.544 2212
-0.830 4.842 1.585 2355
-0.829 4.839 1.568 2766
-0.830 4.843 1.554 2722
-0.838 4.892 1.553 3150
-0.840 4.903 1.541 3532
-0.863 5.035 1.563 2867
-0.866 5.054 1.553 2369
-0.899 5.246 1.590 2526
-0.902 5.265 1.579 3724
-0.904 5.277 1.566 3601
-0.910 5.311 1.558 4186
-0.911 5.315 1.543 3836
-0.931 5.433 1.557 3583
-0.932 5.437 1.541 4460
-0.933 5.441 1.525 4707
-0.934 5.452 1.511 4346
-0.938 5.471 1.499 3705
-0.946 5.521 1.494 2810
-0.982 5.729 1.528 2075
-0.977 5.703 1.504 2763
-0.977 5.699 1.485 2508
-0.987 5.756 1.481 2192
-1.006 5.867 1.489 1553
-1.007 5.878 1.474 1205
-1.015 5.920 1.465 948
-1.092 6.374 1.548 1121
-1.093 6.378 1.529 1063
-1.094 6.382 1.510 1012
-1.016 5.927 1.394 1030
-1.017 5.931 1.376 1091
-1.094 6.386 1.452 932
-1.196 6.978 1.554 1268
-1.197 6.982 1.534 1828
-0.982 5.730 1.264 1632
-0.983 5.734 1.247 2135
-0.983 5.737 1.230 2568
-0.984 5.740 1.214 3402
-0.984 5.743 1.197 4197
-0.986 5.754 1.181 4358
-0.987 5.757 1.164 4331
-0.987 5.760 1.147 3748
-0.988 5.762 1.131 2710
-1.091 6.365 1.216 2539
-1.092 6.368 1.197 2399
-1.415 8.259 1.489 2181
-1.473 8.594 1.518 2202
-1.548 9.029 1.562 1803
-1.519 8.864 1.509 1754
-1.566 9.138 1.524 1871
-1.597 9.319 1.523 1616
-1.594 9.300 1.492 1432
-1.593 9.296 1.464 1300
-1.595 9.308 1.438 929
-1.599 9.327 1.412 838
-1.601 9.338 1.386 730
-1.602 9.349 1.359 492
-0.933 5.441 0.636 304
-0.930 5.427 0.619 471
-0.929 5.420 0.602 598
-0.929 5.422 0.586 608
-0.928 5.415 0.570 537
-0.930 5.424 0.555 373
-0.931 5.433 0.539 285
-0.917 5.349 0.517 339
-0.930 5.427 0.507 409
-0.929 5.421 0.490 547
-0.913 5.328 0.469 488
-0.913 5.329 0.453 604
-0.916 5.346 0.438 522
-0.915 5.339 0.422 411
-0.914 5.332 0.406 404
-0.913 5.325 0.390 413
-0.913 5.325 0.375 319
-0.899 5.248 0.356 359
-0.901 5.256 0.341 388
-0.902 5.265 0.325 342
-0.900 5.250 0.310 250
-0.867 5.057 0.170 257
-0.864 5.042 0.155 332
-0.864 5.042 0.140 385
-0.863 5.034 0.125 325
-0.861 5.026 0.111 270
-0.860 5.018 0.096 277
-0.507 2.958 0.105 354
-0.507 2.958 0.097 497
-0.507 2.958 0.088 639
-0.508 2.966 0.079 789
-0.508 2.965 0.071 901
-0.508 2.965 0.062 1087
-0.508 2.965 0.054 1161
-0.508 2.965 0.045 1195
-0.508 2.964 0.036 1229
-0.507 2.956 0.028 1198
-0.507 2.956 0.019 1173
-0.652 3.805 -0.027 1070
-0.652 3.805 -0.038 1248
-0.652 3.804 -0.049 1426
-0.652 3.804 -0.060 1517
-0.651 3.795 -0.071 1609
-0.652 3.803 -0.082 1560
-0.652 3.802 -0.093 1512
-0.652 3.801 -0.105 1497
-0.651 3.800 -0.116 1333
-0.651 3.800 -0.127 1182
-0.651 3.799 -0.138 981
-0.651 3.798 -0.149 780
-0.558 3.253 -0.116 660
-0.559 3.260 -0.127 865
-0.557 3.251 -0.135 987
-0.557 3.250 -0.145 1113
-0.557 3.250 -0.154 1113
-0.557 3.249 -0.164 1114
-0.557 3.248 -0.173 1115
-0.557 3.247 -0.183 944
-0.556 3.246 -0.192 772
-0.556 3.245 -0.202 555
-0.555 3.236 -0.210 340
-0.555 3.235 -0.220 340
-0.791 4.614 -0.389 267
-0.378 2.244 1.731 4265
-0.379 2.249 1.725 8530
-0.380 2.253 1.718 8530
-0.380 2.258 1.712 7087
-0.398 2.365 1.778 5850
-0.383 2.273 1.703 6380
-0.385 2.284 1.701 7009
-0.386 2.289 1.694 7009
-0.386 2.293 1.688 8664
-0.388 2.304 1.686 10400
-0.390 2.315 1.683 8665
-0.393 2.332 1.685 7735
-0.402 2.389 1.714 6265
-0.405 2.406 1.716 6176
-0.407 2.417 1.713 5092
-0.411 2.442 1.719 4729
-0.413 2.453 1.716 5088
-0.417 2.477 1.722 6826
-0.419 2.488 1.719 9206
-0.419 2.486 1.708 8414
-0.417 2.477 1.692 8190
-0.418 2.482 1.685 8012
-0.420 2.493 1.682 7962
-0.429 2.544 1.704 6764
-0.432 2.561 1.705 7661
-0.432 2.566 1.697 9650
-0.433 2.570 1.690 11638
-0.434 2.575 1.682 9435
-0.435 2.579 1.675 7231
-0.441 2.617 1.688 7205
-0.446 2.649 1.696 8766
-0.450 2.673 1.701 8129
-0.452 2.684 1.697 8344
-0.453 2.689 1.689 8035
-0.453 2.687 1.677 7440
-0.456 2.705 1.677 7552
-0.456 2.709 1.669 6367
-0.456 2.707 1.658 4833
-0.473 2.806 1.704 4267
-0.475 2.818 1.700 5369
-0.474 2.815 1.688 4835
-0.472 2.799 1.668 4876
-0.472 2.804 1.660 5075
-0.474 2.815 1.656 5952
-0.475 2.819 1.647 6753
-0.477 2.830 1.643 7280
-0.479 2.842 1.638 8071
-0.481 2.853 1.634 7465
-0.506 3.002 1.703 6087
-0.505 3.000 1.690 8021
-0.507 3.011 1.685 9382
-0.508 3.016 1.676 9212
-0.508 3.013 1.664 7678
-0.511 3.032 1.662 9420
-0.511 3.036 1.654 10095
-0.516 3.061 1.655 9614
-0.519 3.080 1.654 8002
-0.528 3.133 1.669 9351
-0.523 3.102 1.642 10491
-0.525 3.114 1.637 9086
-0.529 3.139 1.638 6435
-0.531 3.150 1.632 5282
-0.549 3.261 1.674 6739
-0.551 3.272 1.668 10953
-0.552 3.276 1.658 10120
-0.554 3.288 1.652 8303
-0.556 3.299 1.646 8394
-0.558 3.311 1.639 6153
-0.586 3.479 1.705 6457
-0.588 3.490 1.698 6158
-0.588 3.488 1.684 5056
-0.604 3.585 1.716 4790
-0.602 3.575 1.699 6168
-0.601 3.565 1.682 4381
-0.595 3.534 1.656 4886
-0.596 3.538 1.646 5702
-0.598 3.550 1.639 5887
-0.608 3.612 1.653 7784
-0.608 3.609 1.639 9994
-0.608 3.606 1.626 11803
-0.608 3.610 1.615 10694
-0.610 3.622 1.607 8898
-0.610 3.619 1.594 6638
-0.608 3.608 1.578 4285
-0.622 3.692 1.599 5952
-0.625 3.711 1.594 6845
-0.627 3.722 1.586 6089
-0.673 3.996 1.681 5361
-0.678 4.022 1.677 4501
-0.632 3.749 1.559 3773
-0.631 3.746 1.545 3381
-0.686 4.072 1.656 3456
-0.700 4.157 1.674 5484
-0.702 4.169 1.665 8547
-0.703 4.173 1.653 7466
-0.704 4.177 1.640 6772
-0.708 4.204 1.636 6089
-0.710 4.216 1.626 7111
-0.712 4.227 1.617 9846
-0.714 4.239 1.607 8525
-0.722 4.287 1.610 5828
-0.724 4.299 1.600 3918
-0.735 4.362 1.608 2594
-0.748 4.441 1.620 4328
-0.750 4.452 1.609 5388
-0.756 4.486 1.606 5767
-0.755 4.483 1.591 5592
-0.781 4.636 1.626 4122
-0.784 4.655 1.617 5376
-0.771 4.577 1.577 6465
-0.779 4.626 1.578 5574
-0.784 4.653 1.571 3014
-0.786 4.664 1.560 2092
-0.817 4.848 1.601 1905
-0.807 4.792 1.569 2102
-0.813 4.826 1.564 2603
-0.815 4.838 1.552 2494
-0.823 4.887 1.551 2520
-0.825 4.898 1.539 3078
-0.850 5.045 1.565 2777
-0.852 5.057 1.553 2673
-0.883 5.241 1.588 2608
-0.888 5.268 1.579 3994
-0.889 5.280 1.566 3826
-0.895 5.314 1.558 4400
-0.897 5.326 1.545 4028
-0.916 5.435 1.557 3841
-0.918 5.447 1.543 4056
-0.917 5.443 1.525 4598
-0.918 5.447 1.509 5030
-0.917 5.444 1.491 3657
-0.928 5.508 1.490 2419
-0.962 5.709 1.523 1705
-0.963 5.713 1.506 2739
-0.966 5.733 1.493 2832
-0.970 5.759 1.481 2664
-0.970 5.755 1.463 1778
-0.992 5.889 1.475 1222
-0.998 5.923 1.465 933
-0.993 5.896 1.441 948
-1.075 6.381 1.529 831
-1.076 6.385 1.510 888
-0.999 5.930 1.394 1098
-1.002 5.949 1.379 1040
-1.076 6.389 1.452 941
-1.176 6.982 1.554 1019
-1.177 6.986 1.534 1520
-1.176 6.982 1.511 1279
-0.966 5.736 1.247 1403
-0.967 5.739 1.230 1630
-0.967 5.743 1.214 2322
-0.969 5.753 1.198 3106
-0.970 5.756 1.181 3333
-0.970 5.759 1.164 3367
-0.971 5.762 1.147 2953
-1.072 6.365 1.235 2584
-1.073 6.368 1.216 2462
-1.073 6.372 1.197 2199
-1.392 8.263 1.489 2045
-1.426 8.467 1.497 1922
-1.471 8.733 1.514 1761
-1.494 8.868 1.509 2055
-1.495 8.872 1.483 1895
-1.570 9.316 1.522 1698
-1.566 9.297 1.491 1664
-1.566 9.293 1.463 1403
-1.569 9.312 1.438 874
-1.572 9.331 1.412 824
-1.574 9.343 1.386 735
-1.577 9.362 1.360 455
-0.916 5.434 0.651 307
-0.917 5.443 0.636 405
-0.915 5.429 0.619 590
-0.914 5.423 0.602 733
-0.914 5.424 0.586 738
-0.914 5.425 0.571 636
-0.914 5.427 0.555 429
-0.916 5.436 0.539 367
-0.916 5.437 0.523 410
-0.916 5.438 0.507 561
-0.915 5.431 0.491 723
-0.915 5.432 0.475 533
-0.900 5.340 0.454 614
-0.901 5.348 0.438 529
-0.899 5.333 0.422 407
-0.899 5.334 0.406 403
-0.897 5.327 0.390 409
-0.898 5.328 0.375 312
-0.885 5.251 0.356 325
-0.886 5.259 0.341 356
-0.887 5.267 0.325 325
-0.852 5.060 0.170 266
-0.850 5.044 0.155 346
-0.850 5.044 0.140 394
-0.850 5.044 0.125 325
-0.848 5.036 0.111 261
-0.847 5.028 0.096 262
-0.844 5.013 0.081 275
-0.497 2.952 0.088 277
-0.576 3.420 0.070 340
-0.576 3.419 0.060 446
-0.577 3.427 0.050 564
-0.577 3.427 0.040 688
-0.577 3.426 0.030 859
-0.576 3.418 0.020 1033
-0.576 3.418 0.010 1254
-0.576 3.418 0.000 1475
-0.577 3.425 -0.010 1652
-0.577 3.425 -0.020 1838
-0.577 3.424 -0.030 1903
-0.577 3.424 -0.040 1969
-0.577 3.423 -0.050 1851
-0.577 3.422 -0.060 1734
-0.641 3.804 -0.093 1523
-0.641 3.803 -0.105 1514
-0.641 3.802 -0.116 1414
-0.640 3.802 -0.127 1321
-0.640 3.801 -0.138 1149
-0.640 3.800 -0.149 976
-0.641 3.807 -0.161 798
-0.641 3.806 -0.172 626
-0.548 3.253 -0.135 610
-0.548 3.252 -0.145 670
-0.548 3.251 -0.154 670
-0.548 3.250 -0.164 656
-0.547 3.249 -0.173 642
-0.547 3.249 -0.183 553
-0.548 3.255 -0.193 469
-0.548 3.254 -0.202 390
-0.572 3.393 -0.227 368
-0.571 3.392 -0.237 368
-0.571 3.391 -0.247 340
-0.571 3.390 -0.257 312
-0.372 2.245 1.731 4667
-0.373 2.250 1.725 9334
-0.373 2.254 1.718 9334
-0.374 2.259 1.712 7850
-0.376 2.270 1.710 6383
-0.377 2.274 1.703 6564
-0.378 2.279 1.696 6744
-0.378 2.283 1.690 6744
-0.380 2.294 1.688 8724
-0.382 2.305 1.686 10940
-0.384 2.316 1.683 9380
-0.385 2.327 1.681 8273
-0.396 2.390 1.714 5576
-0.401 2.421 1.724 5691
-0.401 2.419 1.713 5442
-0.401 2.423 1.706 5249
-0.402 2.428 1.699 5213
-0.409 2.471 1.718 6707
-0.411 2.483 1.715 9237
-0.411 2.481 1.703 8669
-0.412 2.485 1.696 8249
-0.411 2.483 1.685 7891
-0.412 2.487 1.678 7562
-0.423 2.551 1.708 6998
-0.425 2.563 1.705 8730
-0.425 2.567 1.697 10546
-0.425 2.565 1.686 12452
-0.427 2.576 1.682 9935
-0.427 2.581 1.675 7508
-0.434 2.618 1.688 7441
-0.437 2.636 1.688 8592
-0.443 2.674 1.701 7822
-0.445 2.686 1.697 8257
-0.446 2.690 1.689 7854
-0.445 2.688 1.677 7308
-0.447 2.699 1.673 7191
-0.448 2.703 1.666 6089
-0.447 2.701 1.654 4637
-0.465 2.808 1.704 4045
-0.466 2.812 1.696 5462
-0.464 2.803 1.680 5805
-0.464 2.800 1.668 6662
-0.465 2.805 1.660 5968
-0.467 2.816 1.656 6074
-0.468 2.827 1.651 6956
-0.470 2.839 1.647 7263
-0.471 2.843 1.638 7781
-0.473 2.854 1.634 7018
-0.498 3.004 1.703 6643
-0.497 3.001 1.690 7936
-0.499 3.013 1.685 9128
-0.500 3.017 1.676 8544
-0.499 3.015 1.664 6723
-0.502 3.033 1.662 8555
-0.504 3.044 1.657 9623
-0.509 3.070 1.659 9394
-0.510 3.081 1.654 7953
-0.518 3.127 1.665 9624
-0.514 3.104 1.642 11064
-0.516 3.115 1.637 9283
-0.519 3.133 1.635 5828
-0.522 3.152 1.632 4683
-0.540 3.262 1.674 5817
-0.542 3.274 1.668 9774
-0.543 3.278 1.658 9377
-0.545 3.289 1.652 7915
-0.547 3.301 1.646 8080
-0.548 3.305 1.636 6169
-0.575 3.473 1.701 6427
-0.577 3.485 1.694 6259
-0.578 3.489 1.684 5181
-0.593 3.580 1.712 5106
-0.593 3.577 1.699 6342
-0.593 3.581 1.688 3890
-0.585 3.528 1.653 3659
-0.586 3.540 1.646 5070
-0.590 3.559 1.642 6474
-0.599 3.613 1.653 7971
-0.598 3.611 1.639 9524
-0.598 3.608 1.626 12153
-0.598 3.612 1.615 11423
-0.599 3.616 1.604 9556
-0.599 3.613 1.591 7534
-0.598 3.610 1.578 4660
-0.612 3.694 1.599 4980
-0.614 3.705 1.591 6477
-0.617 3.724 1.586 5888
-0.662 3.998 1.681 5249
-0.665 4.017 1.675 4547
-0.621 3.751 1.559 4182
-0.620 3.741 1.543 3480
-0.675 4.074 1.656 3993
-0.688 4.152 1.671 5431
-0.690 4.163 1.662 8183
-0.690 4.168 1.650 7358
-0.692 4.179 1.640 7009
-0.697 4.206 1.636 6334
-0.699 4.217 1.626 6678
-0.701 4.229 1.617 8618
-0.702 4.241 1.607 7419
-0.712 4.297 1.613 5874
-0.714 4.308 1.603 3967
-0.733 4.423 1.628 2723
-0.735 4.435 1.617 5299
-0.738 4.454 1.609 5801
-0.743 4.488 1.606 6073
-0.744 4.492 1.593 5970
-0.745 4.497 1.580 4378
-0.770 4.650 1.615 4960
-0.759 4.579 1.577 7178
-0.763 4.606 1.571 5648
-0.771 4.655 1.571 3118
-0.772 4.659 1.558 2373
-0.776 4.685 1.551 2115
-0.786 4.742 1.553 2339
-0.796 4.806 1.557 2846
-0.798 4.817 1.545 2381
-0.825 4.979 1.577 2656
-0.824 4.976 1.560 3776
-0.837 5.055 1.567 2644
-0.838 5.059 1.553 3157
-0.867 5.236 1.586 2816
-0.872 5.263 1.577 4065
-0.875 5.282 1.566 3707
-0.882 5.324 1.560 4407
-0.881 5.320 1.543 4122
-0.900 5.430 1.555 4132
-0.903 5.449 1.543 3358
-0.903 5.453 1.527 4072
-0.902 5.442 1.507 5085
-0.901 5.439 1.489 3546
-0.914 5.518 1.492 2475
-0.915 5.522 1.476 2070
-0.949 5.731 1.509 2865
-0.950 5.735 1.493 3952
-0.953 5.754 1.479 3186
-0.954 5.758 1.463 1815
-0.976 5.891 1.475 1147
-0.975 5.888 1.456 863
-0.975 5.884 1.437 977
-0.978 5.903 1.423 831
-0.982 5.929 1.411 877
-0.983 5.933 1.394 1147
-0.983 5.937 1.376 948
-1.040 6.277 1.429 889
-1.025 6.189 1.391 841
-1.158 6.989 1.534 1090
-0.976 5.889 1.294 1272
-0.976 5.892 1.277 1487
-0.975 5.888 1.258 1340
-0.953 5.753 1.215 1297
-0.954 5.756 1.198 2076
-0.954 5.759 1.181 2370
-0.955 5.762 1.164 2421
-1.054 6.365 1.253 2519
-1.055 6.368 1.235 2372
-1.366 8.243 1.535 2207
-1.367 8.255 1.512 1932
-1.403 8.467 1.522 1830
-1.403 8.471 1.497 2352
-1.410 8.513 1.478 1896
-1.470 8.872 1.509 2235
-1.470 8.876 1.483 2106
-1.543 9.313 1.521 1807
-1.539 9.293 1.490 1858
-1.539 9.289 1.462 1465
-1.543 9.316 1.438 788
-1.547 9.336 1.412 772
-1.548 9.347 1.386 692
-1.549 9.351 1.358 385
-0.908 5.480 0.688 259
-0.900 5.435 0.667 268
-0.901 5.437 0.651 349
-0.901 5.438 0.636 484
-0.900 5.432 0.619 725
-0.899 5.425 0.602 865
-0.899 5.427 0.586 848
-0.899 5.428 0.571 717
-0.899 5.429 0.555 456
-0.901 5.438 0.539 426
-0.901 5.439 0.523 520
-0.901 5.440 0.507 696
-0.900 5.434 0.491 863
-0.543 3.275 0.340 681
-0.543 3.276 0.331 666
-0.541 3.269 0.321 539
-0.887 5.352 0.423 340
-0.883 5.329 0.406 338
-0.883 5.330 0.390 342
-0.883 5.330 0.375 257
-0.870 5.253 0.356 267
-0.872 5.261 0.341 300
-0.872 5.262 0.325 272
-0.583 3.522 0.253 325
-0.585 3.530 0.243 481
-0.585 3.530 0.232 584
-0.585 3.530 0.222 647
-0.585 3.531 0.212 686
-0.585 3.531 0.202 666
-0.585 3.531 0.191 576
-0.585 3.531 0.181 506
-0.585 3.531 0.171 410
-0.836 5.046 0.155 326
-0.836 5.046 0.140 365
-0.835 5.039 0.125 298
-0.831 5.015 0.081 270
-0.568 3.429 0.080 363
-0.568 3.429 0.070 567
-0.567 3.421 0.060 772
-0.490 2.960 0.062 1180
-0.490 2.960 0.054 1436
-0.568 3.428 0.030 1743
-0.568 3.428 0.020 2101
-0.568 3.427 0.010 2440
-0.566 3.419 0.000 2796
-0.568 3.427 -0.010 3030
-0.568 3.426 -0.020 3281
-0.567 3.426 -0.030 3308
-0.567 3.425 -0.040 3335
-0.567 3.425 -0.050 3102
-0.566 3.416 -0.059 2890
-0.567 3.423 -0.070 2487
-0.567 3.423 -0.080 2105
-0.567 3.422 -0.090 1658
-0.652 3.936 -0.136 1540
-0.652 3.935 -0.148 1437
-0.652 3.934 -0.159 1334
-0.653 3.941 -0.171 1182
-0.539 3.255 -0.126 1301
-0.539 3.254 -0.135 1491
-0.538 3.246 -0.144 1690
-0.538 3.245 -0.154 1690
-0.537 3.244 -0.163 1789
-0.537 3.243 -0.173 1887
-0.537 3.242 -0.182 1715
-0.537 3.241 -0.191 1542
-0.537 3.240 -0.201 1250
-0.537 3.239 -0.210 957
-0.536 3.238 -0.220 957
-0.536 3.237 -0.229 742
-0.561 3.384 -0.256 597
-0.560 3.382 -0.266 298
-0.365 2.240 1.727 4975
-0.366 2.244 1.720 9950
-0.366 2.249 1.714 9950
-0.368 2.260 1.712 8564
-0.369 2.264 1.705 7182
-0.371 2.275 1.703 6732
-0.388 2.383 1.769 6692
-0.389 2.387 1.762 6692
-0.374 2.295 1.688 8179
-0.376 2.306 1.686 10297
-0.376 2.311 1.679 8967
-0.378 2.322 1.677 7858
-0.391 2.397 1.718 5545
-0.395 2.422 1.724 6401
-0.395 2.426 1.717 6561
-0.395 2.424 1.706 6960
-0.395 2.422 1.695 6871
-0.401 2.459 1.709 7016
-0.404 2.477 1.711 9407
-0.404 2.482 1.703 8861
-0.405 2.486 1.696 8315
-0.406 2.491 1.689 7716
-0.405 2.488 1.678 7309
-0.418 2.566 1.716 7413
-0.419 2.570 1.709 9611
-0.418 2.568 1.697 11226
-0.418 2.566 1.686 13112
-0.419 2.571 1.678 10386
-0.421 2.582 1.675 7751
-0.427 2.620 1.688 7789
-0.429 2.631 1.684 8649
-0.435 2.669 1.697 7481
-0.438 2.687 1.697 8006
-0.437 2.685 1.685 7633
-0.438 2.689 1.677 7106
-0.440 2.700 1.673 6905
-0.441 2.705 1.666 5748
-0.440 2.702 1.654 4346
-0.458 2.809 1.704 4063
-0.457 2.806 1.692 5909
-0.457 2.804 1.680 6860
-0.457 2.802 1.668 8094
-0.457 2.806 1.660 6940
-0.459 2.817 1.656 6496
-0.461 2.829 1.651 7294
-0.463 2.840 1.647 7167
-0.486 2.982 1.713 7402
-0.488 2.994 1.708 6805
-0.489 2.998 1.699 6938
-0.487 2.989 1.683 7719
-0.490 3.007 1.682 8719
-0.491 3.011 1.673 7754
-0.491 3.016 1.664 5615
-0.496 3.041 1.666 7569
-0.496 3.046 1.657 8992
-0.500 3.071 1.659 9128
-0.503 3.089 1.657 7942
-0.510 3.129 1.665 9964
-0.506 3.105 1.642 11577
-0.508 3.116 1.637 9401
-0.511 3.135 1.635 5127
-0.514 3.153 1.632 3893
-0.532 3.263 1.674 5190
-0.532 3.268 1.664 8375
