0.266 2.327 0.047 302
0.231 2.019 0.031 251
0.230 2.018 0.025 337
0.231 2.026 0.019 435
0.231 2.026 0.013 516
0.231 2.025 0.007 583
0.231 2.025 0.002 644
0.232 2.032 -0.005 641
0.232 2.032 -0.011 632
0.232 2.031 -0.016 574
0.233 2.039 -0.023 532
0.233 2.038 -0.029 435
0.232 2.030 -0.034 343
0.252 2.167 1.685 3010
0.252 2.172 1.679 6021
0.253 2.176 1.672 6021
0.255 2.193 1.675 6750
0.256 2.204 1.674 8087
0.256 2.202 1.663 8173
0.257 2.207 1.656 8450
0.257 2.211 1.650 7868
0.258 2.215 1.644 7286
0.258 2.220 1.637 7286
0.259 2.230 1.636 5631
0.260 2.235 1.629 4031
0.272 2.337 1.689 3612
0.273 2.348 1.687 4358
0.273 2.346 1.676 4797
0.273 2.344 1.665 5431
0.273 2.348 1.658 6614
0.273 2.346 1.647 8847
0.273 2.350 1.640 9717
0.275 2.361 1.638 10878
0.276 2.372 1.635 12380
0.276 2.377 1.628 10965
0.277 2.381 1.621 9549
0.282 2.425 1.640 9042
0.283 2.436 1.637 9558
0.284 2.440 1.630 7860
0.286 2.458 1.631 6338
0.289 2.489 1.641 4280
0.294 2.527 1.654 4716
0.294 2.532 1.647 4033
0.296 2.543 1.644 3392
0.296 2.547 1.636 3662
0.296 2.545 1.625 4189
0.294 2.529 1.606 4631
0.304 2.614 1.646 6135
0.304 2.619 1.639 7296
0.306 2.630 1.635 7396
0.307 2.641 1.632 7918
0.310 2.666 1.636 7836
0.311 2.677 1.632 8937
0.312 2.681 1.624 7661
0.311 2.672 1.609 5632
0.315 2.710 1.620 5609
0.316 2.715 1.613 5771
0.315 2.705 1.597 6055
0.314 2.703 1.586 4885
0.317 2.727 1.589 4781
0.318 2.732 1.581 5872
0.318 2.736 1.573 5628
0.319 2.747 1.569 5418
0.332 2.856 1.616 5373
0.332 2.853 1.604 6698
0.332 2.857 1.596 7378
0.333 2.861 1.588 7962
0.333 2.865 1.580 9023
0.334 2.870 1.571 9499
0.335 2.881 1.567 7458
0.344 2.955 1.594 8067
0.344 2.960 1.585 10196
0.344 2.957 1.573 11308
0.342 2.940 1.554 13081
0.342 2.944 1.546 10592
0.344 2.962 1.544 8624
0.352 3.030 1.566 7408
0.353 3.034 1.557 5879
0.359 3.088 1.572 5448
0.360 3.092 1.563 6192
0.360 3.096 1.554 6128
0.368 3.165 1.575 6081
0.369 3.176 1.569 6062
0.371 3.187 1.563 4906
0.373 3.206 1.560 4257
0.375 3.224 1.558 3435
0.375 3.228 1.548 4607
0.376 3.232 1.539 7683
0.376 3.236 1.530 9036
0.379 3.262 1.530 9525
0.381 3.273 1.523 11588
0.381 3.277 1.514 10285
0.381 3.274 1.501 7401
0.382 3.285 1.495 4607
0.383 3.296 1.488 3658
0.395 3.395 1.518 4170
0.393 3.377 1.499 6035
0.392 3.374 1.486 6225
0.403 3.465 1.512 6419
0.402 3.455 1.496 6994
0.402 3.458 1.486 5762
0.408 3.506 1.493 6177
0.409 3.518 1.486 6346
0.415 3.573 1.496 6385
0.422 3.628 1.505 5075
0.425 3.654 1.503 6872
0.424 3.651 1.489 5718
0.425 3.655 1.479 3934
0.425 3.659 1.468 4233
0.430 3.699 1.471 5009
0.431 3.703 1.460 5160
0.431 3.707 1.450 4990
0.432 3.718 1.442 4045
0.449 3.863 1.480 3608
0.448 3.852 1.464 3735
0.460 3.953 1.486 5727
0.458 3.942 1.470 5513
0.458 3.938 1.456 3609
0.471 4.054 1.482 4522
0.472 4.058 1.470 4714
0.471 4.054 1.456 4601
0.471 4.050 1.442 4808
0.480 4.129 1.454 3700
0.479 4.118 1.437 4187
0.478 4.114 1.423 5079
0.480 4.125 1.413 4175
0.498 4.279 1.448 3926
0.499 4.290 1.438 3867
0.509 4.377 1.451 2909
0.510 4.388 1.440 2431
0.500 4.302 1.401 3589
0.520 4.471 1.437 3539
0.521 4.483 1.426 4498
0.528 4.539 1.428 3698
0.528 4.543 1.415 5040
0.528 4.539 1.400 4679
0.551 4.740 1.441 3953
0.554 4.766 1.434 6778
0.556 4.778 1.422 8502
0.557 4.789 1.410 8143
0.559 4.808 1.400 9527
0.559 4.804 1.384 11268
0.558 4.800 1.368 10275
0.558 4.796 1.352 7518
0.578 4.967 1.381 4375
0.578 4.971 1.366 4270
0.593 5.104 1.384 2334
0.599 5.153 1.380 3513
0.601 5.165 1.367 4280
0.613 5.275 1.378 4476
0.616 5.294 1.366 3856
0.631 5.428 1.380 3183
0.635 5.462 1.372 4313
0.633 5.443 1.351 3061
0.650 5.592 1.367 3349
0.651 5.596 1.351 3643
0.670 5.761 1.369 2055
0.670 5.764 1.353 3027
0.670 5.760 1.334 4217
0.670 5.764 1.317 3093
0.696 5.983 1.344 1875
0.696 5.986 1.327 2763
0.698 6.005 1.313 3156
0.699 6.009 1.295 2505
0.702 6.035 1.282 2638
0.703 6.046 1.266 3145
0.745 6.405 1.314 3139
0.746 6.416 1.297 3027
0.217 1.867 0.464 2496
0.217 1.868 0.458 2186
0.766 6.589 1.269 3416
0.765 6.577 1.247 3715
0.217 1.863 0.441 1976
0.835 7.180 1.306 1970
0.836 7.192 1.287 2342
0.824 7.086 1.249 2387
0.896 7.703 1.323 2295
0.896 7.707 1.300 2169
0.887 7.632 1.266 2129
0.900 7.737 1.259 2048
0.900 7.740 1.236 2888
0.900 7.743 1.214 2533
0.922 7.925 1.216 2198
1.001 8.607 1.283 1754
1.000 8.602 1.257 1563
1.037 8.917 1.272 1423
1.036 8.913 1.245 1510
1.059 9.111 1.242 1868
1.060 9.114 1.216 1858
1.062 9.133 1.191 1212
1.088 9.355 1.189 989
1.090 9.373 1.163 1139
1.090 9.376 1.136 1654
1.090 9.371 1.108 1727
1.090 9.374 1.080 1035
1.100 9.463 1.061 522
1.101 9.466 1.034 653
1.101 9.468 1.006 648
1.101 9.471 0.978 663
1.101 9.473 0.951 576
1.101 9.467 0.922 480
1.102 9.478 0.895 378
0.271 2.328 0.154 351
0.271 2.328 0.148 482
0.271 2.328 0.141 604
0.271 2.328 0.134 780
0.271 2.328 0.128 835
0.270 2.320 0.121 934
0.270 2.320 0.114 1039
0.271 2.328 0.108 1250
0.271 2.328 0.101 1467
0.271 2.327 0.094 1470
0.271 2.327 0.088 1217
0.271 2.327 0.081 947
0.270 2.319 0.074 751
0.270 2.319 0.068 568
0.270 2.319 0.061 491
0.270 2.318 0.054 413
0.270 2.326 0.047 303
0.235 2.018 0.031 305
0.235 2.018 0.025 406
0.236 2.025 0.019 536
0.235 2.025 0.013 647
0.235 2.025 0.007 788
0.235 2.024 0.002 920
0.236 2.032 -0.005 976
0.236 2.031 -0.011 1022
0.236 2.031 -0.016 986
0.237 2.038 -0.023 974
0.237 2.038 -0.029 842
0.236 2.029 -0.034 715
0.236 2.029 -0.040 566
0.236 2.028 -0.045 418
0.236 2.028 -0.051 418
0.236 2.027 -0.057 283
0.257 2.166 1.685 2873
0.258 2.171 1.679 5746
0.258 2.175 1.672 5746
0.259 2.186 1.671 6067
0.261 2.203 1.674 7048
0.261 2.202 1.663 7677
0.261 2.199 1.652 8535
0.261 2.204 1.646 8058
0.261 2.202 1.635 7643
0.262 2.206 1.628 7643
0.261 2.204 1.618 5607
0.274 2.312 1.683 3858
0.276 2.323 1.680 4292
0.278 2.341 1.682 4973
0.277 2.339 1.671 5141
0.278 2.343 1.665 5361
0.278 2.341 1.654 6721
0.278 2.345 1.647 9004
0.279 2.350 1.640 9892
0.280 2.361 1.638 10872
0.281 2.372 1.635 12202
0.282 2.376 1.628 11164
0.280 2.360 1.609 10612
0.288 2.424 1.640 9069
0.289 2.435 1.637 10116
0.289 2.440 1.630 8612
0.291 2.451 1.627 7210
0.294 2.482 1.637 4635
0.300 2.527 1.654 4886
0.300 2.531 1.647 4275
0.302 2.542 1.644 3740
0.303 2.553 1.641 4262
0.303 2.551 1.629 4851
0.304 2.562 1.626 4620
0.309 2.607 1.642 6126
0.311 2.618 1.639 7360
0.312 2.629 1.635 7524
0.314 2.647 1.636 8207
0.316 2.665 1.636 8452
0.317 2.676 1.632 9802
0.318 2.681 1.624 8805
0.317 2.671 1.609 6623
0.321 2.710 1.620 5789
0.323 2.721 1.616 5832
0.325 2.739 1.616 6169
0.329 2.771 1.623 4539
0.332 2.796 1.627 4149
0.323 2.724 1.577 5073
0.324 2.735 1.573 4946
0.339 2.857 1.628 4990
0.340 2.862 1.620 5334
0.339 2.859 1.608 6038
0.339 2.856 1.596 6691
0.339 2.861 1.588 7627
0.340 2.865 1.580 8916
0.340 2.869 1.571 9269
0.341 2.873 1.563 7160
0.351 2.955 1.594 7829
0.351 2.959 1.585 9561
0.351 2.956 1.573 10812
0.349 2.939 1.554 13581
0.349 2.943 1.546 11210
0.351 2.961 1.544 9138
0.357 3.008 1.556 6473
0.360 3.033 1.557 5122
0.365 3.080 1.569 4215
0.367 3.091 1.563 5258
0.367 3.095 1.554 6169
0.374 3.157 1.572 6762
0.376 3.168 1.566 5979
0.377 3.179 1.560 4315
0.380 3.205 1.560 3509
0.382 3.223 1.558 3210
0.383 3.227 1.548 5053
0.383 3.231 1.539 8405
0.384 3.236 1.530 9729
0.386 3.254 1.526 9729
0.389 3.280 1.526 10580
0.389 3.276 1.514 8497
0.388 3.273 1.501 6137
0.391 3.292 1.498 4543
0.392 3.303 1.491 4138
0.403 3.394 1.518 4026
0.401 3.383 1.502 5567
0.400 3.373 1.486 5802
0.419 3.530 1.538 6202
0.421 3.549 1.534 6166
0.410 3.458 1.486 5270
0.416 3.505 1.493 6019
0.417 3.517 1.486 6266
0.423 3.565 1.493 5663
0.429 3.620 1.502 4157
0.433 3.653 1.503 5380
0.433 3.650 1.489 4717
0.433 3.654 1.479 4038
0.434 3.658 1.468 4546
0.439 3.698 1.471 4836
0.439 3.702 1.460 5589
0.440 3.706 1.450 5892
0.441 3.717 1.442 4795
0.444 3.743 1.439 3556
0.455 3.836 1.459 3807
0.456 3.840 1.448 5201
0.467 3.941 1.470 5345
0.467 3.937 1.456 3873
0.481 4.053 1.482 4033
0.480 4.049 1.468 4343
0.481 4.053 1.456 4412
0.480 4.049 1.442 5187
0.491 4.135 1.457 4018
0.487 4.109 1.435 4244
0.488 4.113 1.423 5564
0.489 4.124 1.413 4493
0.507 4.271 1.446 4861
0.508 4.282 1.436 4638
0.520 4.383 1.453 2889
0.520 4.387 1.440 2146
0.510 4.300 1.401 3532
0.530 4.470 1.437 3214
0.532 4.481 1.426 3949
0.538 4.538 1.428 3688
0.539 4.542 1.415 5303
0.538 4.538 1.400 4427
0.562 4.739 1.441 5137
0.564 4.757 1.432 8167
0.567 4.776 1.422 9919
0.568 4.788 1.410 7654
0.570 4.807 1.400 8062
0.571 4.810 1.386 9792
0.569 4.799 1.368 9401
0.569 4.794 1.352 8331
0.569 4.798 1.339 4784
0.590 4.969 1.366 3846
0.607 5.118 1.388 2424
0.609 5.137 1.377 3276
0.612 5.156 1.365 3331
0.626 5.274 1.378 4363
0.628 5.293 1.366 4509
0.638 5.381 1.370 3365
0.648 5.461 1.372 4055
0.644 5.426 1.347 3178
0.663 5.591 1.367 3009
0.664 5.594 1.351 3518
0.684 5.767 1.371 2070
0.685 5.770 1.354 3113
0.683 5.759 1.334 3701
0.683 5.754 1.316 2625
0.709 5.973 1.343 1971
0.710 5.985 1.327 2839
0.712 6.003 1.313 3232
0.714 6.015 1.297 2598
0.716 6.033 1.282 3051
0.717 6.044 1.266 3617
0.760 6.403 1.314 3122
0.761 6.414 1.297 3192
0.221 1.866 0.464 2277
0.785 6.615 1.293 2313
0.783 6.602 1.271 3477
0.780 6.575 1.247 3437
0.816 6.880 1.278 1915
0.834 7.031 1.282 1722
0.853 7.190 1.287 1849
0.840 7.076 1.247 2299
0.914 7.701 1.323 2092
0.914 7.705 1.300 1985
0.866 7.296 1.217 2188
0.917 7.727 1.258 2087
0.918 7.738 1.236 2972
0.917 7.733 1.213 2529
0.940 7.923 1.216 2241
0.939 7.918 1.191 2001
0.939 7.914 1.167 1609
1.067 8.993 1.282 1433
1.058 8.918 1.246 1460
1.081 9.109 1.242 1753
1.082 9.120 1.217 1659
1.116 9.404 1.223 1040
1.116 9.407 1.195 1155
1.119 9.433 1.170 1154
1.108 9.343 1.133 987
1.112 9.377 1.108 1088
1.113 9.379 1.081 662
1.122 9.460 1.061 465
1.123 9.463 1.034 510
1.123 9.466 1.006 529
1.123 9.468 0.978 585
1.124 9.470 0.951 497
1.123 9.465 0.922 385
1.123 9.467 0.895 277
0.276 2.327 0.154 429
0.276 2.327 0.148 617
0.276 2.327 0.141 881
0.276 2.327 0.134 1409
0.276 2.327 0.128 1673
0.276 2.327 0.121 1751
0.276 2.327 0.114 1829
0.276 2.327 0.108 1632
0.275 2.319 0.101 1378
0.274 2.311 0.095 1142
0.275 2.319 0.088 860
0.275 2.319 0.081 782
0.275 2.318 0.074 706
0.275 2.318 0.068 630
0.275 2.318 0.061 533
0.275 2.318 0.054 435
0.276 2.325 0.047 322
0.238 2.010 0.031 252
0.239 2.017 0.025 324
0.240 2.025 0.019 480
0.240 2.025 0.013 613
0.240 2.024 0.007 845
0.240 2.024 0.002 1068
0.241 2.031 -0.005 1227
0.241 2.031 -0.011 1377
0.241 2.030 -0.016 1378
0.242 2.038 -0.023 1396
0.241 2.029 -0.028 1238
0.241 2.029 -0.034 1096
0.241 2.028 -0.040 923
0.241 2.028 -0.045 750
0.241 2.027 -0.051 750
0.240 2.027 -0.057 561
0.241 2.034 -0.064 376
0.259 2.160 1.680 2869
0.260 2.164 1.674 5739
0.260 2.169 1.668 5739
0.262 2.179 1.666 5724
0.265 2.210 1.678 6215
0.263 2.195 1.658 7370
0.264 2.199 1.652 8744
0.264 2.197 1.641 8308
0.263 2.195 1.630 8018
0.264 2.199 1.624 8018
0.264 2.204 1.618 5723
0.277 2.312 1.683 4498
0.278 2.316 1.676 5370
0.278 2.321 1.669 6243
0.280 2.332 1.667 5871
0.280 2.336 1.660 5542
0.281 2.341 1.654 6887
0.281 2.345 1.647 9094
0.282 2.349 1.640 9956
0.283 2.360 1.638 10661
0.285 2.371 1.635 11748
0.284 2.369 1.624 11325
0.282 2.353 1.604 11981
0.284 2.364 1.602 9925
0.292 2.435 1.637 10576
0.293 2.439 1.630 9266
0.294 2.450 1.627 7970
0.297 2.475 1.633 5125
0.303 2.526 1.654 5014
0.304 2.530 1.647 4500
0.306 2.548 1.648 4077
0.306 2.553 1.641 4826
0.308 2.564 1.637 5608
0.308 2.568 1.630 5062
0.313 2.606 1.642 5975
0.313 2.611 1.635 7167
0.315 2.629 1.635 7378
0.318 2.647 1.636 8318
0.320 2.665 1.636 9115
0.321 2.676 1.632 10771
0.321 2.673 1.620 10178
0.320 2.671 1.609 7789
0.325 2.709 1.620 6081
0.326 2.720 1.616 6054
0.329 2.745 1.620 6837
0.332 2.764 1.619 5035
0.335 2.789 1.623 4119
0.336 2.800 1.618 4481
0.327 2.728 1.570 4361
0.343 2.857 1.628 5026
0.343 2.861 1.620 5096
0.343 2.859 1.608 5227
0.342 2.849 1.592 5831
0.343 2.860 1.588 7002
0.344 2.864 1.580 8632
0.343 2.861 1.568 9059
0.344 2.866 1.560 7090
0.355 2.961 1.597 7524
0.355 2.958 1.585 8738
0.354 2.948 1.570 10174
0.353 2.938 1.554 13801
0.353 2.942 1.546 11575
0.355 2.961 1.544 9411
0.355 2.958 1.532 6012
0.364 3.033 1.557 4276
0.364 3.030 1.545 3962
0.370 3.084 1.560 4588
0.371 3.095 1.554 6386
0.379 3.156 1.572 7296
0.380 3.167 1.566 5747
0.381 3.172 1.557 3685
0.384 3.197 1.557 2897
0.386 3.216 1.554 3140
0.386 3.220 1.545 5642
0.388 3.231 1.539 9046
0.388 3.235 1.530 10252
0.390 3.253 1.526 10043
0.393 3.279 1.526 9584
0.394 3.283 1.517 6902
0.394 3.280 1.504 4596
0.399 3.327 1.513 4438
0.396 3.302 1.491 4282
0.407 3.393 1.518 3988
0.407 3.390 1.505 5019
0.406 3.380 1.489 5183
0.423 3.522 1.535 5811
0.426 3.548 1.534 5736
0.415 3.457 1.486 4855
0.421 3.505 1.493 5737
0.422 3.516 1.486 5713
0.429 3.571 1.496 4691
0.434 3.619 1.502 3227
0.438 3.653 1.503 3982
0.438 3.649 1.489 3989
0.438 3.653 1.479 4462
0.439 3.657 1.468 4986
0.442 3.683 1.466 4432
0.443 3.694 1.458 5513
0.444 3.698 1.447 6002
0.446 3.717 1.442 4671
0.451 3.758 1.444 4089
0.456 3.798 1.446 4416
0.461 3.839 1.448 5976
0.473 3.940 1.470 4925
0.472 3.936 1.456 3991
0.474 3.948 1.447 3954
0.486 4.048 1.468 4527
0.486 4.052 1.456 4620
0.486 4.049 1.442 5786
0.486 4.052 1.430 4784
0.492 4.101 1.433 4521
0.493 4.112 1.423 6185
0.495 4.123 1.413 4758
0.511 4.262 1.443 5734
0.513 4.274 1.433 5496
0.526 4.383 1.453 3102
0.526 4.386 1.440 2386
0.516 4.300 1.401 3147
0.527 4.394 1.415 3155
0.529 4.405 1.404 3527
0.545 4.545 1.430 3352
0.545 4.541 1.415 4920
0.545 4.545 1.402 4072
0.569 4.738 1.441 5531
0.571 4.757 1.432 8634
0.573 4.776 1.422 9674
0.575 4.794 1.412 6695
0.579 4.821 1.404 7328
0.577 4.809 1.386 9098
0.577 4.805 1.370 8723
0.575 4.794 1.352 7955
0.576 4.797 1.339 4602
0.605 5.045 1.386 3693
0.615 5.125 1.390 2621
0.616 5.136 1.377 3263
0.617 5.140 1.362 2820
0.634 5.281 1.379 4344
0.635 5.292 1.366 4819
0.646 5.380 1.370 3717
0.647 5.391 1.356 4060
0.650 5.418 1.345 3159
0.671 5.590 1.367 2606
0.670 5.586 1.349 3164
0.693 5.774 1.373 2136
0.693 5.777 1.356 3341
0.692 5.765 1.336 3255
0.691 5.761 1.317 2094
0.717 5.973 1.343 1894
0.717 5.976 1.325 2759
0.719 5.995 1.311 3127
0.721 6.006 1.295 2505
0.725 6.040 1.284 3166
0.725 6.043 1.266 3703
0.768 6.402 1.314 3026
0.770 6.413 1.297 3292
0.770 6.417 1.278 2291
0.794 6.614 1.293 2531
0.794 6.617 1.274 3715
0.792 6.597 1.251 3231
0.826 6.879 1.278 2371
0.828 6.898 1.261 1909
0.832 6.932 1.246 1980
0.847 7.060 1.245 2277
0.848 7.063 1.224 2193
0.924 7.703 1.300 1853
0.875 7.295 1.217 2211
0.927 7.726 1.258 2192
0.927 7.729 1.235 3069
0.928 7.732 1.213 2476
0.951 7.922 1.216 2261
0.949 7.909 1.190 2283
0.949 7.912 1.167 1960
1.078 8.984 1.281 1507
1.071 8.925 1.247 1446
1.093 9.107 1.242 1568
1.094 9.118 1.217 1353
1.128 9.402 1.223 1216
1.130 9.413 1.196 1403
1.130 9.416 1.168 1408
1.131 9.427 1.142 1078
1.133 9.446 1.116 749
1.134 9.448 1.088 622
1.135 9.459 1.061 446
1.135 9.461 1.034 415
1.136 9.464 1.006 504
1.136 9.467 0.978 608
1.136 9.469 0.951 481
1.137 9.471 0.923 338
1.137 9.473 0.895 271
0.281 2.343 0.154 279
0.281 2.343 0.148 421
0.281 2.343 0.141 570
0.281 2.343 0.134 831
0.281 2.343 0.128 946
0.280 2.335 0.121 923
0.280 2.335 0.114 911
0.279 2.327 0.108 859
0.280 2.334 0.101 879
0.280 2.334 0.094 1043
0.280 2.334 0.087 1100
0.281 2.342 0.080 1086
0.281 2.342 0.074 858
0.281 2.341 0.067 631
0.281 2.341 0.060 430
0.242 2.017 0.031 256
0.242 2.017 0.025 293
0.241 2.009 0.020 320
0.241 2.008 0.014 350
0.242 2.016 0.008 531
0.243 2.023 0.002 719
0.244 2.031 -0.005 978
0.244 2.030 -0.011 1234
0.244 2.030 -0.016 1403
0.244 2.030 -0.022 1573
0.243 2.029 -0.028 1505
0.243 2.029 -0.034 1438
0.243 2.028 -0.040 1253
0.243 2.028 -0.045 1068
0.243 2.027 -0.051 1068
0.243 2.026 -0.057 804
0.244 2.034 -0.064 546
0.244 2.033 -0.069 356
0.265 2.153 1.676 2979
0.265 2.157 1.669 5958
0.266 2.162 1.663 5958
0.267 2.172 1.662 5729
0.268 2.183 1.660 5747
0.269 2.188 1.654 7321
0.270 2.198 1.652 8903
0.270 2.196 1.641 8559
0.270 2.194 1.630 8310
0.270 2.198 1.624 8310
0.270 2.196 1.613 5818
0.283 2.305 1.678 5275
0.284 2.309 1.671 6606
0.284 2.313 1.665 7937
0.286 2.324 1.663 6904
0.286 2.329 1.656 5951
0.287 2.333 1.649 7180
0.288 2.344 1.647 9126
0.289 2.348 1.640 9933
0.290 2.359 1.638 10307
0.291 2.370 1.635 11123
0.290 2.361 1.620 11545
0.289 2.352 1.604 13199
0.290 2.363 1.602 11012
0.299 2.434 1.637 10850
0.300 2.439 1.630 9742
0.300 2.443 1.623 8634
0.303 2.467 1.628 5684
0.310 2.519 1.650 5076
0.311 2.530 1.647 4635
0.316 2.574 1.664 4361
0.314 2.559 1.645 5242
0.315 2.563 1.637 6226
0.316 2.567 1.630 5402
0.320 2.605 1.642 5676
0.321 2.610 1.635 6770
0.323 2.628 1.635 7010
0.325 2.646 1.636 8279
0.327 2.664 1.636 9740
0.329 2.675 1.632 11708
0.328 2.672 1.620 11595
0.328 2.670 1.609 9066
0.330 2.688 1.609 6550
0.335 2.726 1.620 6347
0.337 2.744 1.620 7387
0.339 2.756 1.616 5567
0.341 2.774 1.615 4195
0.344 2.799 1.618 4671
0.350 2.845 1.633 4087
0.351 2.856 1.628 4789
0.352 2.867 1.624 4658
0.353 2.872 1.615 4380
0.349 2.841 1.589 5317
0.351 2.852 1.584 6468
0.351 2.856 1.576 8368
0.352 2.860 1.568 8942
0.351 2.857 1.556 7284
0.365 2.967 1.601 7322
0.364 2.964 1.589 8136
0.361 2.940 1.566 9554
0.361 2.937 1.554 13426
0.362 2.941 1.546 11314
0.364 2.960 1.544 9169
0.363 2.957 1.532 5766
0.371 3.017 1.551 3603
0.372 3.029 1.545 3865
0.380 3.090 1.563 3825
0.380 3.094 1.554 6275
0.388 3.155 1.572 7237
0.389 3.166 1.566 5198
0.390 3.170 1.557 2947
0.382 3.110 1.518 2835
0.393 3.200 1.548 3358
0.395 3.211 1.542 6280
0.397 3.230 1.539 9623
0.398 3.241 1.533 10865
0.399 3.245 1.523 10642
0.402 3.271 1.523 8807
0.404 3.289 1.520 5855
0.407 3.315 1.520 3836
0.409 3.326 1.513 5055
0.409 3.330 1.504 4651
0.417 3.392 1.518 4064
0.417 3.389 1.505 4810
0.415 3.378 1.489 4858
0.433 3.521 1.535 5211
0.437 3.554 1.537 4865
0.425 3.456 1.486 4548
0.431 3.504 1.493 5509
0.432 3.515 1.486 5106
0.441 3.585 1.501 3810
0.439 3.574 1.485 2642
0.450 3.659 1.506 2870
0.448 3.648 1.489 3565
0.449 3.652 1.479 5175
0.449 3.656 1.468 5693
0.451 3.667 1.460 4556
0.453 3.686 1.455 5847
0.453 3.689 1.444 6520
0.456 3.708 1.439 4830
0.462 3.756 1.444 4750
0.467 3.797 1.446 5263
0.471 3.831 1.445 6545
0.474 3.857 1.442 5081
0.484 3.935 1.456 3875
0.486 3.954 1.449 4223
0.496 4.039 1.465 4932
0.498 4.051 1.456 5026
0.497 4.047 1.442 6363
0.498 4.051 1.430 5544
0.504 4.100 1.433 4400
0.506 4.118 1.425 6289
0.508 4.129 1.416 4924
0.524 4.261 1.443 6281
0.525 4.272 1.433 5950
0.526 4.276 1.421 3164
0.539 4.385 1.440 2325
0.528 4.298 1.401 2680
0.540 4.392 1.415 3542
0.541 4.404 1.404 3735
0.559 4.551 1.433 2984
0.558 4.539 1.415 4043
0.558 4.543 1.402 3693
0.582 4.736 1.441 5770
0.584 4.755 1.432 8229
0.587 4.774 1.422 8264
0.590 4.800 1.414 6539
0.592 4.819 1.404 7178
0.592 4.815 1.388 8464
0.590 4.804 1.370 8394
0.589 4.792 1.352 6861
0.618 5.032 1.398 5301
0.620 5.043 1.386 4651
0.631 5.131 1.392 3015
0.631 5.134 1.377 3311
0.630 5.122 1.358 2649
0.649 5.279 1.379 4596
0.650 5.290 1.366 5145
0.660 5.370 1.368 4109
0.661 5.381 1.354 4641
0.666 5.416 1.345 3114
0.673 5.473 1.342 3123
0.672 5.469 1.324 3208
0.710 5.779 1.374 2226
0.711 5.783 1.357 3711
0.710 5.779 1.339 3144
0.710 5.774 1.321 1796
0.735 5.978 1.344 1745
0.734 5.974 1.325 2576
0.736 5.985 1.310 2996
0.738 6.004 1.295 2307
0.744 6.053 1.286 3082
0.743 6.041 1.266 3407
0.787 6.400 1.314 2914
0.787 6.403 1.295 3210
0.787 6.407 1.277 2472
0.812 6.604 1.292 2850
0.813 6.615 1.274 4071
0.812 6.610 1.254 3486
0.845 6.877 1.278 2872
0.848 6.903 1.262 2227
0.851 6.922 1.244 2261
0.866 7.050 1.244 2393
0.868 7.060 1.224 2307
0.896 7.289 1.238 2115
0.897 7.300 1.218 2174
0.949 7.723 1.258 2227
0.950 7.726 1.235 3063
0.950 7.729 1.213 2407
0.972 7.911 1.214 2323
0.972 7.907 1.190 2545
0.972 7.910 1.167 2256
1.104 8.981 1.281 1600
1.097 8.929 1.248 1435
1.119 9.104 1.242 1382
1.154 9.388 1.249 1461
1.155 9.399 1.223 1520
1.157 9.410 1.196 1801
1.157 9.413 1.168 1846
1.159 9.432 1.143 1362
1.162 9.450 1.117 894
1.162 9.453 1.089 808
1.162 9.456 1.061 630
1.163 9.458 1.034 514
1.163 9.461 1.006 478
1.163 9.463 0.978 468
1.163 9.466 0.951 470
1.164 9.468 0.923 446
1.164 9.470 0.895 385
1.164 9.472 0.867 256
0.287 2.334 0.148 316
0.286 2.326 0.141 496
0.286 2.326 0.134 801
0.286 2.326 0.128 920
0.286 2.326 0.121 1063
0.286 2.326 0.114 1206
0.287 2.334 0.107 1251
0.287 2.334 0.101 1283
0.288 2.341 0.094 1060
0.289 2.349 0.087 691
0.291 2.365 0.080 544
0.290 2.357 0.073 557
0.289 2.348 0.067 590
0.289 2.348 0.060 495
0.289 2.348 0.053 400
0.289 2.348 0.047 286
0.249 2.025 0.036 291
0.248 2.017 0.031 386
0.248 2.016 0.025 467
0.247 2.008 0.020 499
0.247 2.008 0.014 537
0.248 2.015 0.008 615
0.248 2.015 0.002 694
0.249 2.022 -0.004 885
0.249 2.022 -0.010 1074
0.249 2.029 -0.016 1152
0.249 2.029 -0.022 1239
0.249 2.028 -0.028 1141
0.249 2.028 -0.034 1044
0.249 2.027 -0.040 934
0.249 2.027 -0.045 824
0.249 2.026 -0.051 824
0.249 2.026 -0.057 671
0.250 2.033 -0.064 528
0.250 2.032 -0.069 383
0.267 2.146 1.671 3161
0.267 2.150 1.665 6322
0.268 2.155 1.659 6322
0.269 2.166 1.657 5956
0.271 2.176 1.655 5888
0.272 2.187 1.654 7457
0.273 2.192 1.647 9091
0.272 2.189 1.637 8708
0.273 2.194 1.630 8455
0.273 2.198 1.624 8455
0.273 2.196 1.613 5888
0.286 2.298 1.674 6140
0.287 2.309 1.671 7807
0.288 2.313 1.665 9524
0.288 2.317 1.658 8112
0.289 2.322 1.651 6701
0.290 2.333 1.649 7644
0.291 2.337 1.642 9225
0.291 2.341 1.636 9858
0.293 2.352 1.633 9963
0.295 2.370 1.635 10437
0.293 2.354 1.615 11934
0.293 2.352 1.604 14223
0.294 2.363 1.602 11953
0.302 2.427 1.633 10990
0.302 2.431 1.626 10090
0.303 2.436 1.619 9190
0.303 2.440 1.612 6294
0.313 2.518 1.650 5063
0.315 2.529 1.647 4686
0.320 2.574 1.664 4529
0.318 2.558 1.645 5504
0.320 2.569 1.641 6684
0.320 2.574 1.634 5608
0.324 2.605 1.642 5218
0.325 2.609 1.635 6116
0.328 2.634 1.639 6496
0.330 2.652 1.640 8218
0.331 2.663 1.636 10267
0.332 2.668 1.628 12662
0.332 2.672 1.620 12894
0.332 2.669 1.609 10337
0.333 2.680 1.605 7522
0.339 2.726 1.620 6594
0.341 2.744 1.620 7748
0.342 2.748 1.612 6088
0.337 2.711 1.581 4649
0.347 2.791 1.615 4951
0.346 2.782 1.599 4055
0.355 2.855 1.628 4348
0.357 2.867 1.624 4190
0.352 2.829 1.593 4058
0.352 2.826 1.582 5371
0.354 2.845 1.581 6079
0.355 2.856 1.576 8070
0.355 2.853 1.564 8933
0.355 2.857 1.556 7656
0.369 2.967 1.601 6978
0.369 2.964 1.589 7647
0.366 2.940 1.566 8877
0.364 2.930 1.551 12953
0.366 2.941 1.546 11093
0.368 2.959 1.544 9130
0.369 2.963 1.535 6053
0.373 3.003 1.544 3638
0.377 3.028 1.545 3949
0.390 3.139 1.587 4085
0.386 3.100 1.558 6450
0.392 3.154 1.572 6780
0.395 3.173 1.569 4527
0.386 3.105 1.527 2731
0.387 3.109 1.518 3119
0.398 3.200 1.548 3698
0.399 3.211 1.542 6963
0.402 3.229 1.539 10218
0.403 3.241 1.533 11668
0.404 3.245 1.523 11892
0.405 3.256 1.517 9625
0.409 3.289 1.520 5836
0.413 3.322 1.523 4260
0.414 3.326 1.513 4846
0.409 3.286 1.485 5034
0.422 3.392 1.518 4297
0.421 3.388 1.505 4971
0.421 3.385 1.492 4496
0.438 3.520 1.535 4245
0.442 3.554 1.537 3727
0.430 3.455 1.486 4305
0.437 3.510 1.496 5239
0.437 3.514 1.486 4748
0.447 3.591 1.504 3297
0.444 3.573 1.485 2254
0.456 3.666 1.508 2383
0.455 3.655 1.492 3550
0.454 3.651 1.479 5690
0.455 3.655 1.468 6095
0.455 3.659 1.458 4819
0.458 3.685 1.455 6067
0.459 3.689 1.444 6647
0.461 3.707 1.439 4486
0.467 3.756 1.444 5435
0.472 3.796 1.446 5817
0.475 3.823 1.443 6994
0.479 3.849 1.439 5388
0.490 3.942 1.458 3677
0.493 3.960 1.452 4356
0.502 4.039 1.465 5069
0.504 4.050 1.456 5262
0.503 4.046 1.442 6895
0.504 4.050 1.430 6341
0.509 4.091 1.430 4411
0.512 4.118 1.425 6255
0.513 4.129 1.416 5040
0.530 4.260 1.443 6294
0.531 4.271 1.433 5938
0.533 4.283 1.423 3084
0.545 4.384 1.440 2330
0.546 4.388 1.427 2667
0.546 4.392 1.415 3551
0.548 4.403 1.404 3463
0.566 4.550 1.433 2783
0.564 4.539 1.415 3089
0.587 4.724 1.453 3098
0.589 4.735 1.441 5577
0.591 4.754 1.432 7324
0.593 4.766 1.420 6898
0.597 4.800 1.414 6882
0.599 4.818 1.404 7299
0.600 4.822 1.390 7968
0.597 4.803 1.370 8111
0.596 4.791 1.352 6319
0.626 5.031 1.398 5551
0.627 5.042 1.386 5183
0.637 5.122 1.390 3207
0.637 5.126 1.375 3164
0.651 5.236 1.386 2676
0.656 5.278 1.379 4858
0.657 5.282 1.364 5190
0.664 5.339 1.361 4589
0.668 5.373 1.352 5161
0.673 5.415 1.345 3203
0.681 5.472 1.342 3312
0.680 5.468 1.324 3498
0.679 5.463 1.306 2584
0.720 5.790 1.359 3924
0.720 5.785 1.341 3375
0.720 5.789 1.324 1932
0.742 5.969 1.343 1468
0.742 5.965 1.324 2253
0.744 5.984 1.310 2835
0.747 6.003 1.295 2079
0.754 6.060 1.288 2885
0.751 6.040 1.266 2818
0.795 6.391 1.313 3066
0.796 6.402 1.295 3282
0.797 6.406 1.277 2638
0.821 6.602 1.292 3265
0.822 6.606 1.273 4422
0.822 6.609 1.254 3870
0.855 6.876 1.278 3302
0.858 6.902 1.262 2597
0.860 6.913 1.243 2479
0.876 7.041 1.242 2563
0.877 7.051 1.223 2387
0.905 7.280 1.237 2398
0.907 7.291 1.217 2114
0.960 7.721 1.258 2210
0.962 7.732 1.236 3069
0.961 7.728 1.213 2365
1.016 8.167 1.250 2437
0.983 7.905 1.190 2725
0.984 7.908 1.167 2479
1.116 8.971 1.280 1657
1.111 8.935 1.249 1490
1.165 9.368 1.275 1337
1.169 9.402 1.251 1658
1.170 9.405 1.223 1898
1.170 9.408 1.196 2198
1.171 9.419 1.169 2247
1.173 9.430 1.143 1600
1.175 9.448 1.117 1019
1.175 9.451 1.089 964
1.176 9.454 1.061 759
1.176 9.457 1.034 595
1.176 9.459 1.006 467
1.177 9.462 0.978 383
1.177 9.464 0.951 414
1.177 9.466 0.923 402
1.178 9.468 0.895 343
0.332 2.671 0.187 289
0.332 2.671 0.180 289
0.291 2.341 0.148 327
0.290 2.333 0.141 485
0.290 2.333 0.134 662
0.290 2.333 0.128 680
0.290 2.333 0.121 529
0.290 2.333 0.114 379
0.292 2.349 0.107 329
0.293 2.357 0.100 300
0.292 2.349 0.094 325
0.292 2.349 0.087 333
0.292 2.348 0.080 318
0.252 2.024 0.036 303
0.252 2.024 0.031 494
0.252 2.024 0.025 678
0.252 2.023 0.019 892
0.252 2.023 0.013 1069
0.251 2.015 0.008 1110
0.252 2.022 0.002 1157
0.251 2.022 -0.004 1000
0.250 2.014 -0.009 870
0.250 2.013 -0.015 815
0.251 2.021 -0.022 786
0.251 2.020 -0.027 775
0.251 2.020 -0.033 765
0.252 2.027 -0.040 737
0.252 2.026 -0.045 711
0.252 2.026 -0.051 711
0.252 2.025 -0.057 635
0.252 2.025 -0.063 560
0.252 2.024 -0.069 432
0.252 2.024 -0.074 304
0.277 2.138 1.666 3358
0.278 2.143 1.660 6716
0.278 2.147 1.654 6716
0.281 2.164 1.657 6316
0.282 2.175 1.655 6229
0.283 2.179 1.649 7725
0.284 2.190 1.647 9235
0.284 2.188 1.637 8846
0.284 2.192 1.630 8471
0.285 2.197 1.624 8471
0.284 2.188 1.609 5925
0.297 2.290 1.669 7014
0.298 2.301 1.667 8870
0.300 2.311 1.665 10880
0.299 2.309 1.654 9345
0.299 2.307 1.643 8042
0.300 2.312 1.636 8377
0.302 2.329 1.638 9388
0.303 2.340 1.636 9929
0.304 2.344 1.629 9718
0.307 2.368 1.635 9693
0.305 2.353 1.615 12102
0.305 2.350 1.604 14825
0.306 2.361 1.602 12539
0.314 2.419 1.629 10986
0.315 2.430 1.626 10277
0.316 2.434 1.619 9593
0.315 2.432 1.608 6751
0.323 2.490 1.634 5056
0.327 2.521 1.643 4687
0.334 2.572 1.664 4585
0.334 2.577 1.657 5683
0.333 2.568 1.641 6961
0.333 2.572 1.634 5720
0.338 2.603 1.642 4750
0.338 2.608 1.635 5357
0.341 2.632 1.639 5989
0.344 2.650 1.640 8077
0.345 2.661 1.636 10595
0.346 2.666 1.628 13436
0.345 2.663 1.617 13913
0.346 2.667 1.609 11475
0.347 2.679 1.605 8501
0.352 2.717 1.616 6759
0.356 2.742 1.620 7837
0.353 2.726 1.601 6602
0.352 2.716 1.585 5565
0.361 2.783 1.611 5484
0.360 2.780 1.599 4505
0.370 2.854 1.628 3861
0.372 2.872 1.627 3883
0.366 2.820 1.590 4315
0.366 2.825 1.582 5773
0.368 2.836 1.577 5951
0.369 2.847 1.572 7863
0.370 2.851 1.564 9184
0.370 2.855 1.556 8235
0.384 2.965 1.601 6352
0.384 2.962 1.589 6928
0.381 2.938 1.566 7609
0.380 2.928 1.551 11892
0.382 2.946 1.549 10844
0.383 2.957 1.544 9443
0.385 2.968 1.539 6738
0.388 2.994 1.540 4106
0.405 3.126 1.592 4786
0.406 3.130 1.583 4767
0.402 3.098 1.558 6490
0.403 3.110 1.552 6254
0.412 3.178 1.572 3999
0.402 3.103 1.527 3121
0.404 3.115 1.522 3683
0.414 3.190 1.545 4351
0.416 3.209 1.542 7644
0.418 3.227 1.539 10571
0.420 3.238 1.533 12116
0.420 3.242 1.523 12796
0.422 3.254 1.517 10559
0.427 3.294 1.523 6024
0.430 3.319 1.523 4540
0.431 3.323 1.513 4232
0.425 3.277 1.482 4748
0.439 3.382 1.515 4771
0.439 3.386 1.505 5297
0.440 3.390 1.495 4333
0.435 3.358 1.471 4008
0.445 3.434 1.490 4870
0.447 3.446 1.483 4858
0.456 3.515 1.499 5035
0.455 3.512 1.486 4417
0.465 3.589 1.504 3087
0.463 3.571 1.485 2140
0.476 3.670 1.511 2423
0.474 3.652 1.492 3789
0.473 3.649 1.479 5997
0.474 3.653 1.468 6460
0.474 3.657 1.458 5191
0.477 3.683 1.455 6008
0.478 3.686 1.444 6530
0.486 3.749 1.455 4292
0.487 3.753 1.444 5849
0.492 3.794 1.446 6081
0.494 3.813 1.440 7074
0.499 3.846 1.439 5368
0.514 3.961 1.466 3979
0.514 3.965 1.454 4776
0.524 4.044 1.468 4830
0.525 4.047 1.456 5368
0.524 4.044 1.442 7552
0.525 4.047 1.430 7021
0.529 4.081 1.428 4379
0.534 4.115 1.425 5804
0.536 4.134 1.418 4857
0.552 4.257 1.443 6145
0.553 4.269 1.433 5694
0.553 4.265 1.419 2992
0.568 4.381 1.440 2658
0.569 4.385 1.427 3359
0.569 4.389 1.415 3688
0.570 4.400 1.404 2761
0.587 4.524 1.426 2686
0.584 4.505 1.406 3324
0.613 4.728 1.455 3292
0.614 4.732 1.441 5061
0.615 4.743 1.430 6267
0.616 4.755 1.418 6008
0.622 4.796 1.414 6999
0.624 4.815 1.404 7141
0.625 4.819 1.390 7491
0.622 4.800 1.370 7588
0.620 4.780 1.350 5908
0.652 5.028 1.398 5404
0.653 5.039 1.386 5237
0.663 5.111 1.388 3314
0.665 5.130 1.377 3083
0.677 5.225 1.384 2576
0.684 5.275 1.379 4937
0.684 5.278 1.364 5215
0.693 5.343 1.363 4904
0.696 5.369 1.352 5593
0.697 5.373 1.337 3138
0.709 5.468 1.342 2821
0.708 5.464 1.324 2792
0.750 5.782 1.376 2308
0.750 5.786 1.359 4071
0.750 5.782 1.341 3710
0.751 5.793 1.325 2418
0.755 5.819 1.313 2148
0.754 5.815 1.295 2305
0.775 5.980 1.310 2712
0.779 6.006 1.297 1961
0.785 6.056 1.288 2539
0.795 6.129 1.283 2498
0.828 6.387 1.313 3133
0.829 6.390 1.294 3342
0.829 6.394 1.275 2872
0.855 6.598 1.292 3436
0.856 6.601 1.273 4493
0.856 6.605 1.254 4004
0.891 6.871 1.278 3507
0.894 6.898 1.262 2873
0.896 6.909 1.243 2635
0.912 7.036 1.242 2655
0.940 7.249 1.254 2633
0.942 7.267 1.236 2722
0.945 7.286 1.217 2019
1.001 7.724 1.259 2199
1.002 7.727 1.236 3116
1.002 7.730 1.214 2413
1.058 8.161 1.250 2541
1.024 7.900 1.190 2776
1.025 7.903 1.167 2520
1.162 8.965 1.280 1721
1.159 8.937 1.250 1574
1.220 9.408 1.280 1376
1.220 9.411 1.253 1886
1.220 9.407 1.224 2127
1.220 9.410 1.197 2351
1.219 9.405 1.168 2325
1.221 9.416 1.142 1575
1.224 9.442 1.117 963
1.225 9.445 1.089 819
1.224 9.440 1.061 605
1.224 9.442 1.033 453
1.225 9.445 1.005 364
1.226 9.455 0.978 297
1.226 9.458 0.951 310
1.227 9.460 0.923 298
1.227 9.462 0.895 251
0.343 2.645 0.210 280
0.343 2.645 0.202 342
0.345 2.661 0.195 356
0.347 2.677 0.188 346
0.348 2.685 0.180 326
0.347 2.677 0.172 295
0.302 2.332 0.114 263
0.303 2.340 0.107 350
0.303 2.339 0.101 437
0.302 2.332 0.094 487
0.302 2.331 0.087 514
0.302 2.331 0.081 484
0.302 2.331 0.074 395
0.302 2.331 0.067 305
0.261 2.015 0.031 331
0.261 2.015 0.025 465
0.262 2.022 0.019 681
0.262 2.022 0.013 853
0.262 2.021 0.007 1055
0.262 2.021 0.002 1245
0.263 2.028 -0.005 1186
0.262 2.020 -0.010 1126
0.262 2.020 -0.016 933
0.263 2.027 -0.022 747
0.263 2.027 -0.028 637
0.262 2.018 -0.033 531
0.262 2.018 -0.039 498
0.262 2.017 -0.045 464
0.261 2.017 -0.050 464
0.261 2.016 -0.056 398
0.261 2.016 -0.062 331
0.261 2.015 -0.068 266
0.283 2.137 1.666 3615
0.283 2.142 1.660 7231
0.284 2.146 1.654 7231
0.285 2.157 1.652 6832
0.287 2.168 1.651 6732
0.288 2.179 1.649 8048
0.289 2.183 1.643 9457
0.289 2.187 1.637 8965
0.289 2.185 1.626 8553
0.290 2.189 1.620 8553
0.301 2.278 1.671 6575
0.303 2.289 1.669 7911
0.304 2.300 1.667 10025
0.306 2.311 1.665 12311
0.305 2.309 1.654 10860
0.305 2.306 1.643 9679
0.306 2.311 1.636 9500
0.308 2.328 1.638 9795
0.309 2.333 1.631 10171
0.310 2.343 1.629 9624
0.311 2.348 1.622 9193
0.311 2.352 1.615 12141
0.311 2.350 1.604 15197
0.312 2.361 1.602 12951
0.315 2.378 1.604 11271
0.320 2.422 1.622 10466
0.322 2.433 1.619 9982
0.322 2.431 1.608 7227
0.328 2.482 1.630 5281
0.330 2.493 1.626 4813
0.335 2.531 1.640 4653
0.341 2.576 1.657 5752
0.339 2.567 1.641 7105
0.340 2.571 1.634 5732
0.343 2.596 1.638 4277
0.344 2.600 1.631 4495
0.349 2.638 1.643 5534
0.350 2.649 1.640 7881
0.351 2.654 1.632 10910
0.352 2.665 1.628 14106
0.352 2.662 1.617 14948
0.353 2.667 1.609 12598
0.354 2.678 1.605 9557
0.357 2.696 1.605 7394
0.363 2.741 1.620 7587
0.359 2.718 1.597 7551
0.359 2.715 1.585 6573
0.367 2.775 1.607 6225
0.368 2.779 1.599 5038
0.368 2.783 1.591 3852
0.380 2.871 1.627 3869
0.373 2.819 1.590 5085
0.373 2.824 1.582 6459
0.375 2.835 1.577 6166
0.376 2.846 1.572 7869
0.377 2.850 1.564 9639
0.378 2.854 1.556 8985
0.378 2.858 1.548 6229
0.393 2.968 1.592 5796
0.387 2.923 1.559 5987
0.387 2.927 1.551 10210
0.390 2.945 1.549 10001
0.392 2.963 1.547 8891
0.393 2.974 1.542 6835
0.396 2.993 1.540 4877
0.412 3.117 1.589 5912
0.413 3.122 1.580 5637
0.410 3.097 1.558 6749
0.410 3.101 1.549 6724
0.410 3.098 1.536 4479
0.410 3.102 1.527 3608
0.412 3.114 1.522 4355
0.419 3.168 1.535 5216
0.424 3.208 1.542 8344
0.427 3.226 1.539 10776
0.428 3.237 1.533 12323
0.429 3.241 1.523 13829
0.429 3.245 1.514 12238
0.435 3.293 1.523 6916
0.438 3.311 1.520 5721
0.433 3.272 1.492 5092
0.433 3.276 1.482 5022
0.449 3.396 1.521 5170
0.449 3.392 1.508 5890
0.449 3.396 1.498 4928
0.454 3.429 1.500 5266
0.454 3.433 1.490 7318
0.455 3.437 1.480 6471
0.466 3.521 1.502 4713
0.473 3.577 1.512 4489
0.474 3.581 1.501 3659
0.467 3.533 1.471 2792
0.468 3.537 1.461 3129
0.483 3.651 1.492 4142
0.482 3.648 1.479 6194
0.482 3.644 1.466 6736
0.482 3.648 1.455 5865
0.487 3.681 1.455 6135
0.487 3.685 1.444 6585
0.496 3.748 1.455 4683
0.496 3.752 1.444 6252
0.502 3.793 1.446 6207
0.503 3.804 1.437 6965
0.508 3.837 1.437 5220
0.524 3.960 1.466 4583
0.525 3.971 1.457 5304
0.536 4.050 1.470 3909
0.536 4.053 1.458 4942
0.535 4.042 1.442 7947
0.535 4.046 1.430 7525
0.539 4.072 1.425 4297
0.544 4.113 1.425 5113
0.547 4.132 1.418 4643
0.564 4.263 1.446 5666
0.563 4.260 1.431 5195
0.557 4.211 1.403 3314
0.579 4.380 1.440 2761
0.580 4.384 1.427 3718
0.580 4.387 1.415 2983
0.594 4.489 1.430 3575
0.594 4.493 1.417 4777
0.594 4.489 1.402 4438
0.625 4.727 1.455 3278
0.627 4.738 1.443 4503
0.627 4.742 1.430 5403
0.628 4.746 1.416 5461
0.634 4.795 1.414 7527
0.636 4.806 1.402 7373
0.636 4.810 1.388 7815
0.635 4.798 1.370 8021
0.631 4.771 1.349 5385
0.664 5.018 1.396 5049
0.666 5.037 1.386 5053
0.675 5.102 1.386 3503
0.678 5.128 1.377 3188
0.690 5.216 1.382 2460
0.697 5.273 1.379 4708
0.698 5.276 1.364 5001
0.706 5.341 1.363 4986
0.709 5.360 1.351 6080
0.709 5.363 1.335 3621
0.723 5.466 1.342 2781
0.722 5.462 1.324 2511
0.765 5.780 1.376 2184
0.765 5.784 1.359 3956
0.764 5.780 1.341 3974
0.766 5.791 1.325 2929
0.769 5.817 1.313 2915
0.769 5.813 1.295 2817
0.791 5.978 1.310 2440
0.779 5.889 1.274 2041
0.800 6.046 1.286 2197
0.810 6.127 1.283 2328
0.843 6.377 1.311 3194
0.844 6.380 1.293 3319
0.845 6.392 1.275 3081
0.871 6.588 1.291 3518
0.873 6.599 1.273 4390
0.873 6.602 1.254 4049
0.908 6.869 1.278 3584
0.911 6.888 1.261 3101
0.913 6.906 1.243 2729
0.929 7.026 1.241 2561
0.958 7.246 1.254 2924
0.960 7.257 1.234 3130
0.985 7.447 1.241 2108
1.021 7.722 1.259 2115
1.022 7.725 1.236 3083
1.023 7.736 1.215 2516
1.079 8.159 1.250 2582
1.045 7.897 1.190 2707
1.045 7.900 1.167 2419
1.184 8.954 1.279 1727
1.182 8.934 1.250 1690
1.246 9.421 1.282 1594
1.245 9.416 1.254 2191
1.244 9.404 1.224 2316
1.244 9.407 1.197 2407
1.245 9.410 1.169 2376
1.245 9.413 1.142 1646
1.248 9.439 1.117 955
1.249 9.442 1.089 739
1.249 9.444 1.061 539
1.237 9.353 1.025 439
1.238 9.364 0.998 470
1.239 9.366 0.971 407
0.352 2.659 0.226 255
0.351 2.652 0.218 349
0.350 2.644 0.210 410
0.350 2.644 0.202 466
0.353 2.668 0.195 449
0.354 2.676 0.188 471
0.354 2.676 0.180 481
0.353 2.668 0.172 405
0.309 2.339 0.134 366
0.309 2.339 0.128 494
0.309 2.339 0.121 578
0.308 2.331 0.114 670
0.308 2.331 0.107 626
0.308 2.331 0.101 518
0.307 2.323 0.094 382
0.307 2.323 0.088 250
0.268 2.029 0.007 338
0.269 2.036 0.001 485
0.269 2.036 -0.005 590
0.269 2.035 -0.011 689
0.269 2.035 -0.017 693
0.269 2.034 -0.023 696
0.268 2.026 -0.028 643
0.268 2.025 -0.034 610
0.268 2.025 -0.040 613
0.268 2.024 -0.045 617
0.268 2.024 -0.051 617
0.268 2.023 -0.057 533
0.268 2.023 -0.063 450
0.266 2.014 -0.068 325
0.287 2.130 1.662 3798
0.287 2.135 1.655 7597
0.288 2.139 1.649 7597
0.289 2.150 1.648 7240
0.291 2.161 1.646 7136
0.292 2.171 1.645 8303
0.294 2.182 1.643 9498
0.293 2.180 1.632 8918
0.294 2.184 1.626 8363
0.295 2.189 1.620 8363
0.307 2.277 1.671 7000
0.308 2.288 1.669 8446
0.309 2.299 1.667 10749
0.310 2.303 1.660 13270
0.311 2.308 1.654 11957
0.310 2.306 1.643 10969
0.311 2.310 1.636 10345
0.312 2.321 1.634 10027
0.314 2.332 1.631 10294
0.314 2.336 1.625 9503
0.316 2.347 1.622 8717
0.316 2.345 1.611 11868
0.316 2.349 1.604 15023
0.318 2.360 1.602 12919
0.320 2.377 1.604 11462
0.326 2.422 1.622 10403
0.327 2.426 1.615 10115
0.327 2.430 1.608 7453
0.333 2.475 1.625 5335
0.335 2.486 1.622 4839
0.340 2.523 1.636 4599
0.346 2.568 1.653 5578
0.345 2.566 1.641 6930
0.346 2.570 1.634 5512
0.339 2.520 1.594 4172
0.340 2.525 1.587 4593
0.355 2.637 1.643 5114
0.356 2.642 1.636 7623
0.357 2.653 1.632 11016
0.358 2.657 1.624 14415
0.358 2.662 1.617 15499
0.359 2.666 1.609 13282
0.360 2.677 1.605 10282
0.362 2.688 1.601 8188
0.365 2.713 1.605 7234
0.365 2.710 1.593 8550
0.365 2.714 1.585 7620
0.373 2.774 1.607 7001
0.374 2.778 1.599 5570
0.375 2.789 1.595 4159
0.377 2.800 1.591 4302
0.380 2.826 1.593 6057
0.381 2.830 1.585 7353
0.382 2.841 1.581 6532
0.384 2.852 1.576 8144
0.384 2.856 1.568 10235
0.385 2.860 1.560 9867
0.386 2.864 1.551 6943
0.400 2.974 1.596 4854
0.391 2.908 1.552 5406
0.394 2.926 1.551 8634
0.397 2.951 1.552 9124
0.399 2.962 1.547 8175
0.400 2.973 1.542 7032
0.403 2.992 1.540 5725
0.419 3.109 1.586 6803
0.419 3.114 1.577 6322
0.417 3.096 1.558 7051
0.416 3.093 1.545 7419
0.417 3.097 1.536 5415
0.417 3.101 1.527 4373
0.419 3.113 1.522 5203
0.423 3.145 1.525 5898
0.432 3.207 1.542 8699
0.434 3.225 1.539 10737
0.436 3.236 1.533 12257
0.436 3.240 1.523 14626
0.437 3.244 1.514 13923
0.442 3.284 1.520 7810
0.446 3.310 1.520 6575
0.440 3.271 1.492 5859
0.441 3.275 1.482 5101
0.460 3.416 1.530 5661
0.456 3.391 1.508 6334
0.457 3.395 1.498 5775
0.461 3.428 1.500 7170
0.462 3.432 1.490 9704
0.463 3.443 1.483 7692
0.464 3.447 1.473 4619
0.480 3.568 1.509 4643
0.482 3.579 1.501 3952
0.482 3.583 1.491 3355
0.477 3.543 1.464 3970
0.490 3.643 1.489 4233
0.491 3.647 1.479 5892
0.490 3.643 1.466 6877
0.490 3.639 1.452 6593
0.494 3.673 1.452 6024
0.497 3.691 1.447 6301
0.504 3.747 1.455 4970
0.505 3.751 1.444 6477
0.509 3.784 1.443 5848
0.512 3.803 1.437 6384
0.514 3.821 1.432 5017
0.533 3.959 1.466 5084
0.534 3.970 1.457 5708
0.537 3.989 1.450 3741
0.545 4.052 1.458 4314
0.544 4.041 1.442 8096
0.544 4.045 1.430 7623
0.547 4.064 1.423 4138
0.554 4.120 1.428 4495
0.556 4.131 1.418 4181
0.574 4.262 1.446 4978
0.571 4.243 1.426 4813
0.568 4.217 1.405 3541
0.588 4.371 1.438 3317
0.589 4.375 1.425 4381
0.590 4.386 1.415 3653
0.603 4.480 1.428 3969
0.604 4.491 1.417 4916
0.604 4.487 1.402 4423
0.605 4.499 1.391 3160
0.625 4.646 1.418 4316
0.627 4.657 1.407 5780
0.635 4.721 1.410 5805
0.644 4.786 1.412 7888
0.646 4.797 1.400 8047
0.646 4.801 1.386 8905
0.647 4.804 1.372 8533
0.641 4.762 1.347 4556
0.674 5.009 1.394 4503
0.678 5.036 1.386 4361
0.686 5.100 1.386 3351
0.690 5.127 1.377 3030
0.242 1.795 0.559 2614
0.709 5.271 1.379 4272
0.242 1.798 0.548 5798
0.242 1.799 0.543 6878
0.242 1.800 0.538 6437
0.242 1.801 0.533 5330
0.242 1.794 0.526 3652
0.242 1.796 0.521 2249
0.778 5.778 1.376 1963
0.778 5.782 1.359 3695
0.778 5.778 1.341 4099
0.779 5.789 1.325 3238
0.784 5.823 1.315 3394
0.782 5.811 1.295 3028
0.783 5.814 1.278 2245
0.792 5.887 1.274 2206
0.795 5.906 1.260 2145
0.859 6.379 1.331 2510
0.858 6.375 1.311 3223
0.859 6.379 1.293 3258
0.860 6.390 1.275 3295
0.886 6.586 1.291 3398
0.888 6.597 1.273 4088
0.888 6.600 1.254 3816
0.924 6.867 1.278 3438
0.927 6.885 1.261 3252
0.928 6.896 1.242 2825
0.945 7.024 1.241 2235
0.975 7.244 1.254 3072
0.976 7.255 1.234 3418
0.976 7.250 1.212 2276
1.039 7.719 1.259 1980
1.040 7.730 1.237 3101
1.042 7.741 1.216 2783
1.119 8.312 1.271 2518
1.062 7.887 1.189 2506
1.064 7.906 1.168 2161
1.202 8.928 1.276 1757
1.201 8.924 1.249 1797
1.268 9.418 1.282 1672
1.267 9.413 1.254 2294
1.266 9.409 1.225 2486
1.266 9.404 1.197 2569
1.266 9.407 1.169 2564
1.266 9.410 1.142 1814
1.270 9.436 1.117 996
1.270 9.439 1.089 836
1.271 9.442 1.061 729
1.271 9.444 1.034 601
1.271 9.447 1.006 492
1.260 9.363 0.971 342
0.357 2.651 0.225 397
0.357 2.651 0.218 486
0.357 2.651 0.210 501
0.359 2.667 0.203 543
0.360 2.675 0.195 625
0.360 2.675 0.188 668
0.359 2.668 0.180 677
0.360 2.675 0.172 520
0.360 2.676 0.164 273
0.315 2.338 0.107 296
0.315 2.338 0.101 456
0.315 2.338 0.094 552
0.315 2.338 0.087 594
0.315 2.338 0.080 574
0.315 2.337 0.074 463
0.315 2.337 0.067 352
0.315 2.337 0.060 258
0.275 2.043 -0.000 270
0.275 2.042 -0.018 256
0.275 2.041 -0.023 291
0.274 2.033 -0.029 320
0.273 2.025 -0.034 364
0.272 2.024 -0.040 376
0.272 2.024 -0.045 388
0.272 2.023 -0.051 388
0.272 2.023 -0.057 357
0.272 2.022 -0.063 325
0.272 2.022 -0.069 252
0.241 1.793 -0.065 305
0.290 2.123 1.657 3826
0.291 2.128 1.651 7652
0.292 2.132 1.645 7652
0.294 2.149 1.648 7368
0.295 2.160 1.646 7337
0.297 2.171 1.645 8360
0.297 2.175 1.638 9476
0.298 2.180 1.632 8790
0.298 2.177 1.621 8181
0.298 2.182 1.615 8181
0.311 2.277 1.671 7266
0.312 2.281 1.665 8746
0.314 2.298 1.667 11186
0.315 2.303 1.660 13899
0.315 2.307 1.654 12736
0.315 2.305 1.643 11977
0.316 2.309 1.636 10958
0.317 2.320 1.634 10212
0.318 2.325 1.627 10377
0.319 2.335 1.625 9331
0.320 2.340 1.618 8357
0.321 2.344 1.611 11416
0.321 2.348 1.604 14475
0.323 2.359 1.602 12586
0.325 2.377 1.604 11419
0.331 2.421 1.622 10099
0.332 2.425 1.615 10030
0.332 2.429 1.608 7457
0.337 2.467 1.621 5218
0.332 2.424 1.586 4813
0.341 2.496 1.619 4531
0.342 2.500 1.612 5499
0.351 2.565 1.641 6515
0.352 2.576 1.638 5119
0.344 2.513 1.590 4441
0.345 2.524 1.587 4712
0.360 2.630 1.639 4727
0.361 2.641 1.636 7389
0.363 2.652 1.632 10879
0.363 2.656 1.624 14527
0.364 2.661 1.617 15719
0.364 2.665 1.609 13761
0.366 2.676 1.605 10890
0.367 2.687 1.601 8888
0.370 2.705 1.601 7599
0.370 2.709 1.593 9229
0.371 2.714 1.585 8373
0.378 2.766 1.604 7849
0.380 2.777 1.599 6095
0.381 2.789 1.595 4490
0.383 2.800 1.591 4933
0.386 2.825 1.593 7002
0.387 2.829 1.585 8154
0.389 2.847 1.584 7061
0.390 2.851 1.576 8750
0.390 2.855 1.568 11203
0.391 2.859 1.560 11002
0.393 2.871 1.555 7963
0.394 2.882 1.550 5275
0.397 2.900 1.549 5125
0.400 2.925 1.551 6818
0.404 2.957 1.556 8146
0.406 2.969 1.551 7288
0.407 2.980 1.546 6838
0.409 2.991 1.540 5930
0.425 3.109 1.586 7545
0.426 3.113 1.577 6899
0.423 3.095 1.558 7191
0.423 3.092 1.545 7990
0.423 3.096 1.536 6195
0.425 3.108 1.531 5014
0.426 3.119 1.525 6070
0.429 3.137 1.522 6652
0.438 3.206 1.542 8993
0.441 3.224 1.539 10539
0.442 3.235 1.533 11810
0.443 3.239 1.523 15050
0.443 3.243 1.514 15380
0.448 3.276 1.517 8893
0.451 3.302 1.517 7187
0.447 3.270 1.492 6869
0.448 3.274 1.482 5423
0.467 3.415 1.530 6064
0.465 3.398 1.511 6495
0.464 3.394 1.498 6578
0.468 3.420 1.497 8712
0.469 3.431 1.490 10849
0.471 3.442 1.483 8036
0.471 3.446 1.473 4819
0.489 3.574 1.512 4357
0.489 3.578 1.501 4212
0.491 3.590 1.494 4373
0.490 3.586 1.480 5165
0.496 3.627 1.484 4344
0.497 3.638 1.476 5205
0.497 3.635 1.463 6882
0.498 3.638 1.452 7244
0.500 3.657 1.447 6274
0.504 3.683 1.444 6038
0.512 3.746 1.455 5110
0.513 3.750 1.444 6763
0.515 3.768 1.438 5923
0.519 3.794 1.435 5842
0.529 3.872 1.449 5002
0.541 3.958 1.466 5461
0.544 3.976 1.459 5853
0.544 3.980 1.448 3864
0.554 4.051 1.458 3544
0.552 4.040 1.442 7812
0.552 4.036 1.428 7107
0.555 4.062 1.423 3750
0.564 4.126 1.430 3927
0.566 4.137 1.421 3694
0.585 4.276 1.450 4082
0.578 4.227 1.422 4551
0.576 4.216 1.405 3859
0.597 4.370 1.438 3639
0.598 4.373 1.425 4588
0.599 4.377 1.412 3429
0.627 4.584 1.459 2941
0.604 4.415 1.396 3249
0.604 4.418 1.383 4844
0.605 4.422 1.370 3185
0.635 4.645 1.418 4611
0.636 4.648 1.405 5949
0.645 4.720 1.410 6113
0.653 4.777 1.410 8053
0.656 4.796 1.400 8566
0.656 4.799 1.386 9775
0.657 4.803 1.372 8605
0.650 4.753 1.345 4010
0.681 4.977 1.387 4281
0.688 5.034 1.386 3507
0.696 5.091 1.384 2893
0.702 5.133 1.378 2665
0.708 5.174 1.373 2524
0.246 1.796 0.553 4536
0.246 1.797 0.548 8860
0.246 1.798 0.543 12532
0.246 1.799 0.538 12892
0.246 1.801 0.533 11580
0.245 1.794 0.526 8347
0.245 1.795 0.521 5022
0.246 1.796 0.516 2907
0.790 5.780 1.359 3410
0.790 5.776 1.341 4059
0.791 5.787 1.325 3265
0.796 5.822 1.315 3567
0.794 5.810 1.295 3064
0.794 5.805 1.276 2223
0.806 5.893 1.276 2446
0.807 5.904 1.260 2467
0.872 6.378 1.331 2655
0.871 6.373 1.311 3092
0.871 6.369 1.291 3046
0.873 6.388 1.275 3459
0.900 6.584 1.291 3139
0.902 6.595 1.273 3592
0.902 6.598 1.254 3321
0.939 6.865 1.278 3073
0.941 6.883 1.261 3205
0.943 6.894 1.242 2801
0.945 6.913 1.224 2133
0.990 7.242 1.254 3114
0.991 7.245 1.233 3637
0.990 7.240 1.211 2531
1.017 7.438 1.218 1876
1.057 7.728 1.237 3137
1.058 7.739 1.216 3025
1.136 8.309 1.271 2517
1.115 8.157 1.226 2303
1.081 7.903 1.168 1781
1.219 8.918 1.275 1778
1.220 8.921 1.249 1824
1.287 9.415 1.282 1668
1.288 9.418 1.255 2203
1.286 9.406 1.225 2418
1.285 9.401 1.197 2449
1.286 9.404 1.169 2443
1.287 9.415 1.143 1744
1.290 9.433 1.117 1003
1.290 9.436 1.089 952
1.291 9.439 1.061 870
1.290 9.434 1.033 673
1.290 9.436 1.005 550
1.291 9.439 0.978 316
0.364 2.665 0.234 336
0.363 2.658 0.226 497
0.362 2.650 0.218 515
0.362 2.650 0.210 449
0.366 2.674 0.203 466
0.366 2.674 0.195 637
0.366 2.674 0.188 748
0.365 2.667 0.180 765
0.365 2.667 0.172 549
0.317 2.322 0.121 277
0.317 2.322 0.114 344
0.317 2.322 0.108 381
0.319 2.329 0.101 416
0.319 2.329 0.094 403
0.318 2.329 0.087 345
0.318 2.329 0.081 294
0.278 2.035 0.006 275
0.278 2.035 0.001 371
0.278 2.034 -0.005 376
0.277 2.026 -0.011 385
0.277 2.026 -0.016 300
0.244 1.785 -0.064 298
0.294 2.123 1.657 3892
0.295 2.127 1.651 7784
0.295 2.132 1.645 7784
0.297 2.142 1.643 7463
0.299 2.160 1.646 7353
0.300 2.164 1.640 8282
0.301 2.175 1.638 9320
0.301 2.173 1.628 8607
0.301 2.170 1.617 8027
0.301 2.175 1.611 8027
0.315 2.276 1.671 7367
0.316 2.280 1.665 8851
0.318 2.298 1.667 11356
0.319 2.302 1.660 14181
0.319 2.300 1.649 13180
0.319 2.304 1.643 12638
0.320 2.309 1.636 11332
0.322 2.320 1.634 10281
0.322 2.324 1.627 10407
0.323 2.328 1.620 9268
0.324 2.339 1.618 8165
0.325 2.343 1.611 10811
0.325 2.348 1.604 13456
0.328 2.365 1.606 11873
0.329 2.376 1.604 11021
0.335 2.420 1.622 9558
0.336 2.425 1.615 9702
0.337 2.429 1.608 7243
0.334 2.413 1.588 5127
0.335 2.417 1.581 4781
0.345 2.489 1.615 4717
0.346 2.500 1.612 5720
0.355 2.564 1.641 5956
0.345 2.488 1.586 4641
0.347 2.505 1.586 4471
0.349 2.516 1.583 4547
0.364 2.629 1.639 4438
0.365 2.634 1.632 7082
0.368 2.651 1.632 10484
0.368 2.656 1.624 14226
0.369 2.660 1.617 15488
0.369 2.664 1.609 13873
0.371 2.675 1.605 11251
0.371 2.680 1.597 9343
0.374 2.698 1.597 7795
0.374 2.702 1.589 9443
0.376 2.713 1.585 8654
0.383 2.766 1.604 8705
0.385 2.777 1.599 6560
0.386 2.788 1.595 4739
0.388 2.799 1.591 5493
0.391 2.824 1.593 7646
0.393 2.835 1.589 8599
0.395 2.846 1.584 7494
0.396 2.857 1.580 9433
0.396 2.855 1.568 12143
0.396 2.859 1.560 12071
0.398 2.870 1.555 9134
0.399 2.881 1.550 6251
0.401 2.892 1.545 4995
0.410 2.960 1.568 6547
0.411 2.964 1.559 8080
0.413 2.982 1.558 7316
0.414 2.986 1.549 7109
0.429 3.096 1.591 6288
0.430 3.101 1.582 7930
0.430 3.105 1.573 7113
0.429 3.095 1.558 7253
0.429 3.092 1.545 8454
0.429 3.096 1.536 6942
0.431 3.107 1.531 5850
0.432 3.118 1.525 6954
0.435 3.136 1.522 7356
0.444 3.205 1.542 9001
0.447 3.223 1.539 10152
0.449 3.242 1.536 11173
0.449 3.239 1.523 15185
0.449 3.243 1.514 16532
0.453 3.268 1.514 9977
0.456 3.287 1.510 7961
0.454 3.276 1.495 7450
0.454 3.273 1.482 5289
0.473 3.414 1.530 6443
0.471 3.397 1.511 6831
0.471 3.401 1.501 7295
0.473 3.412 1.494 9710
0.475 3.430 1.490 11112
0.477 3.442 1.483 7834
0.481 3.467 1.482 5009
0.484 3.493 1.480 4335
0.496 3.578 1.501 4661
0.497 3.589 1.494 5310
0.499 3.600 1.486 6294
0.500 3.604 1.476 4967
0.504 3.637 1.476 4571
0.504 3.634 1.463 6774
0.504 3.637 1.452 7681
0.507 3.656 1.447 6854
0.510 3.682 1.444 6132
0.518 3.737 1.452 5209
0.520 3.749 1.444 6839
