-1.868 6.146 1.659 2564
-1.870 6.150 1.641 3199
-1.876 6.169 1.626 2278
-1.946 6.402 1.662 2115
-1.948 6.406 1.643 2386
-1.931 6.352 1.609 1909
-2.036 6.696 1.668 1688
-2.064 6.789 1.668 1960
-2.054 6.756 1.639 1772
-2.170 7.138 1.702 2329
-2.174 7.150 1.682 3165
-2.186 7.191 1.669 3121
-2.291 7.537 1.719 2735
-2.356 7.750 1.739 1990
-2.366 7.784 1.722 1810
-2.370 7.796 1.700 1205
-2.441 8.031 1.722 1484
-2.440 8.028 1.696 1725
-2.444 8.039 1.673 1990
-2.486 8.178 1.674 1710
-2.483 8.167 1.647 1867
-2.661 8.753 1.728 1554
-2.662 8.758 1.701 1666
-2.655 8.732 1.670 1578
-2.656 8.736 1.643 1130
-2.712 8.920 1.647 1184
-2.720 8.946 1.624 854
-2.737 9.003 1.605 599
-2.736 9.000 1.577 571
-2.733 8.989 1.547 342
-0.348 1.143 0.100 386
-0.348 1.143 0.097 601
-0.348 1.143 0.094 1021
-0.347 1.143 0.090 1387
-0.347 1.143 0.087 1964
-0.347 1.143 0.084 2541
-0.347 1.142 0.080 3170
-0.350 1.150 0.077 3821
-0.347 1.142 0.074 4297
-0.347 1.142 0.070 4797
-0.347 1.142 0.067 4900
-0.347 1.142 0.064 5003
-0.349 1.149 0.060 4615
-0.349 1.149 0.057 4320
-0.349 1.148 0.053 3743
-0.351 1.156 0.049 3227
-0.351 1.155 0.046 2725
-0.351 1.155 0.042 2223
-0.351 1.155 0.039 1858
-0.351 1.155 0.036 1493
-0.351 1.154 0.032 1134
-0.351 1.154 0.029 776
-0.351 1.154 0.026 544
-0.348 1.146 0.023 296
-0.661 2.186 1.759 4831
-0.662 2.191 1.753 9663
-0.663 2.195 1.746 9663
-0.665 2.200 1.740 8523
-0.666 2.204 1.733 7384
-0.668 2.209 1.727 4877
-0.686 2.269 1.761 4816
-0.687 2.274 1.754 4816
-0.688 2.278 1.747 4005
-0.707 2.339 1.781 4852
-0.710 2.350 1.778 6497
-0.713 2.361 1.776 8493
-0.717 2.371 1.773 9446
-0.722 2.389 1.775 11387
-0.721 2.387 1.763 11767
-0.721 2.385 1.752 12087
-0.722 2.390 1.745 11995
-0.722 2.388 1.733 9829
-0.723 2.392 1.726 7648
-0.724 2.397 1.719 6153
-0.747 2.471 1.759 5288
-0.733 2.424 1.718 6313
-0.736 2.435 1.715 7992
-0.743 2.459 1.720 7127
-0.746 2.470 1.717 8110
-0.750 2.481 1.714 6178
-0.767 2.537 1.739 5048
-0.768 2.541 1.732 6526
-0.771 2.552 1.728 8051
-0.773 2.556 1.721 7186
-0.772 2.554 1.709 6338
-0.775 2.565 1.705 4665
-0.808 2.674 1.762 5768
-0.807 2.672 1.750 6085
-0.809 2.676 1.742 6434
-0.812 2.687 1.738 4968
-0.833 2.757 1.770 4583
-0.835 2.762 1.762 5219
-0.842 2.786 1.765 6070
-0.851 2.817 1.772 6978
-0.851 2.815 1.760 11119
-0.852 2.820 1.752 15497
-0.853 2.824 1.743 14081
-0.855 2.829 1.735 9930
-0.854 2.826 1.722 7260
-0.862 2.851 1.725 7722
-0.867 2.869 1.724 9169
-0.894 2.960 1.764 8674
-0.896 2.964 1.755 9413
-0.907 3.002 1.765 8243
-0.911 3.014 1.760 6787
-0.926 3.065 1.776 4662
-0.932 3.083 1.774 3503
-0.917 3.034 1.736 5251
-0.926 3.065 1.741 8270
-0.928 3.070 1.732 10267
-0.931 3.081 1.726 9797
-0.953 3.153 1.752 7581
-0.956 3.165 1.746 9260
-0.966 3.196 1.751 9428
-0.969 3.208 1.745 8529
-0.971 3.212 1.735 8239
-0.970 3.210 1.722 8794
-0.969 3.207 1.709 7106
-1.000 3.308 1.747 7191
-1.001 3.312 1.737 8413
-1.000 3.310 1.724 7619
-1.031 3.410 1.760 5670
-1.030 3.408 1.747 6333
-1.033 3.419 1.740 6526
-1.039 3.438 1.736 5909
-1.038 3.435 1.722 5101
-1.042 3.446 1.715 6259
-1.062 3.513 1.734 8274
-1.059 3.504 1.717 7780
-1.081 3.578 1.738 7764
-1.080 3.575 1.724 4775
-1.107 3.663 1.750 4420
-1.111 3.675 1.742 5194
-1.110 3.672 1.728 4147
-1.094 3.621 1.693 3918
-1.098 3.632 1.685 4108
-1.139 3.770 1.731 5973
-1.141 3.774 1.720 6935
-1.163 3.849 1.738 5934
-1.167 3.860 1.729 5607
-1.164 3.850 1.712 4246
-1.191 3.939 1.735 4075
-1.194 3.951 1.726 5691
-1.195 3.955 1.714 3983
-1.244 4.115 1.765 3033
-1.211 4.007 1.707 4719
-1.208 3.997 1.690 6727
-1.211 4.008 1.680 4961
-1.251 4.140 1.718 3663
-1.259 4.166 1.713 3782
-1.260 4.171 1.701 3304
-1.257 4.161 1.683 3937
-1.276 4.222 1.692 4613
-1.279 4.234 1.681 4235
-1.315 4.352 1.711 4495
-1.319 4.364 1.700 7781
-1.322 4.375 1.689 5598
-1.339 4.430 1.694 3791
-1.373 4.542 1.719 4443
-1.376 4.554 1.707 7052
-1.377 4.558 1.694 7339
-1.377 4.555 1.677 5231
-1.382 4.574 1.669 4143
-1.383 4.578 1.655 4775
-1.389 4.597 1.646 4725
-1.399 4.630 1.641 3961
-1.403 4.641 1.630 3389
-1.430 4.732 1.644 2861
-1.471 4.867 1.671 2924
-1.472 4.871 1.656 3312
-1.469 4.861 1.637 3337
-1.519 5.025 1.672 2690
-1.531 5.066 1.668 3278
-1.537 5.084 1.657 3633
-1.516 5.016 1.620 2783
-1.543 5.107 1.630 2086
-1.551 5.133 1.621 2788
-1.557 5.152 1.610 2425
-1.633 5.405 1.665 4245
-1.646 5.446 1.659 6980
-1.651 5.464 1.647 8961
-1.659 5.491 1.636 9523
-1.661 5.495 1.620 9948
-1.655 5.477 1.597 9511
-1.656 5.481 1.581 5755
-1.691 5.595 1.593 2773
-1.783 5.901 1.654 2604
-1.778 5.883 1.631 2332
-1.835 6.071 1.659 2728
-1.836 6.075 1.641 2343
-1.860 6.153 1.641 2836
-1.865 6.172 1.626 2123
-1.938 6.413 1.664 2087
-1.937 6.410 1.643 2257
-1.920 6.355 1.609 2070
-1.922 6.359 1.590 1866
-2.055 6.800 1.670 1982
-2.007 6.641 1.613 1646
-2.158 7.142 1.702 2120
-2.162 7.154 1.682 3191
-2.172 7.188 1.667 2968
-2.279 7.541 1.719 2555
-2.341 7.746 1.738 2339
-2.351 7.780 1.720 1939
-2.355 7.792 1.698 1337
-2.428 8.035 1.722 1259
-2.427 8.032 1.696 1724
-2.428 8.036 1.672 2159
-2.432 8.048 1.649 1763
-2.469 8.171 1.647 1858
-2.647 8.758 1.728 1741
-2.648 8.762 1.701 1838
-2.642 8.744 1.671 1506
-2.644 8.748 1.644 1140
-2.697 8.924 1.647 1274
-2.703 8.944 1.623 933
-2.720 9.000 1.604 648
-2.719 8.997 1.576 600
-2.720 9.001 1.548 360
-0.343 1.136 0.101 278
-0.346 1.144 0.097 415
-0.346 1.144 0.094 716
-0.346 1.144 0.090 985
-0.346 1.143 0.087 1410
-0.345 1.143 0.084 1834
-0.345 1.143 0.080 2300
-0.348 1.150 0.077 2799
-0.348 1.150 0.073 3171
-0.345 1.143 0.070 3554
-0.345 1.142 0.067 3630
-0.345 1.142 0.064 3706
-0.347 1.149 0.060 3374
-0.347 1.149 0.057 3106
-0.347 1.149 0.053 2608
-0.349 1.156 0.049 2167
-0.349 1.156 0.046 1807
-0.349 1.156 0.042 1446
-0.349 1.155 0.039 1199
-0.351 1.163 0.035 956
-0.349 1.155 0.032 725
-0.349 1.155 0.029 497
-0.349 1.154 0.026 341
-0.654 2.188 1.759 4622
-0.656 2.193 1.753 9245
-0.657 2.197 1.746 9245
-0.658 2.202 1.740 8355
-0.660 2.206 1.733 7464
-0.661 2.211 1.727 4999
-0.679 2.271 1.761 5033
-0.680 2.276 1.754 5033
-0.682 2.280 1.747 4172
-0.700 2.341 1.781 4259
-0.703 2.352 1.778 5871
-0.706 2.363 1.776 7902
-0.710 2.373 1.773 9235
-0.713 2.384 1.771 11310
-0.714 2.389 1.763 11723
-0.714 2.387 1.752 12167
-0.715 2.392 1.745 12179
-0.715 2.390 1.733 10245
-0.716 2.394 1.726 8279
-0.717 2.399 1.719 6766
-0.720 2.409 1.716 5300
-0.726 2.427 1.718 6620
-0.729 2.437 1.715 8370
-0.734 2.455 1.716 7284
-0.741 2.478 1.721 8153
-0.742 2.483 1.714 6080
-0.757 2.532 1.735 4375
-0.760 2.543 1.732 5546
-0.762 2.548 1.724 6867
-0.763 2.552 1.717 6349
-0.764 2.557 1.709 5832
-0.797 2.665 1.766 4585
-0.800 2.676 1.762 5993
-0.800 2.674 1.750 6166
-0.801 2.679 1.742 6358
-0.804 2.690 1.738 5017
-0.810 2.707 1.738 4578
-0.811 2.712 1.730 5232
-0.836 2.795 1.769 6140
-0.843 2.820 1.772 6987
-0.843 2.818 1.760 11106
-0.844 2.822 1.752 15381
-0.847 2.833 1.747 13910
-0.849 2.838 1.738 9865
-0.846 2.829 1.722 7449
-0.853 2.853 1.725 8152
-0.857 2.864 1.720 9716
-0.886 2.962 1.764 8733
-0.889 2.974 1.759 9571
-0.891 2.978 1.750 8416
-0.900 3.010 1.756 6360
-0.915 3.061 1.772 4129
-0.925 3.093 1.778 3261
-0.914 3.057 1.747 5614
-0.917 3.068 1.741 9596
-0.919 3.073 1.732 11524
-0.920 3.077 1.723 10590
-0.942 3.149 1.749 6344
-0.949 3.174 1.750 7914
-0.957 3.199 1.751 8687
-0.960 3.210 1.745 7953
-0.959 3.208 1.732 7806
-0.959 3.206 1.719 8748
-0.958 3.203 1.706 7716
-0.988 3.304 1.743 6645
-0.989 3.308 1.733 8167
-0.990 3.312 1.724 7758
-1.019 3.406 1.757 6030
-1.020 3.411 1.747 7111
-1.023 3.422 1.740 7428
-1.029 3.441 1.736 6595
-1.028 3.438 1.722 4881
-1.031 3.449 1.715 6176
-1.049 3.509 1.730 8513
-1.047 3.500 1.713 8212
-1.069 3.574 1.734 7906
-1.070 3.578 1.724 5282
-1.101 3.680 1.757 3945
-1.100 3.678 1.742 4734
-1.095 3.661 1.722 4060
-1.086 3.631 1.696 4426
-1.087 3.635 1.685 4500
-1.128 3.773 1.731 6444
-1.129 3.777 1.720 7595
-1.129 3.775 1.705 5856
-1.155 3.864 1.729 5401
-1.154 3.861 1.715 4140
-1.181 3.950 1.738 3076
-1.182 3.954 1.726 4439
-1.184 3.959 1.714 3204
-1.232 4.119 1.765 3195
-1.235 4.131 1.755 4313
-1.196 4.000 1.690 6332
-1.200 4.012 1.680 5062
-1.212 4.052 1.682 3731
-1.247 4.170 1.713 2860
-1.244 4.160 1.695 3230
-1.245 4.164 1.683 4548
-1.249 4.176 1.673 4953
-1.256 4.202 1.668 3575
-1.300 4.349 1.708 5133
-1.304 4.361 1.697 8305
-1.303 4.358 1.682 6107
-1.321 4.419 1.689 3427
-1.359 4.546 1.719 4163
-1.363 4.558 1.707 6573
-1.362 4.555 1.691 6604
-1.359 4.545 1.673 4871
-1.345 4.498 1.642 4408
-1.372 4.589 1.657 4140
-1.374 4.593 1.643 4233
-1.386 4.634 1.641 4026
-1.389 4.645 1.630 3843
-1.414 4.729 1.641 2755
-1.457 4.871 1.671 2963
-1.456 4.868 1.654 3024
-1.455 4.865 1.637 3242
-1.506 5.037 1.674 2760
-1.516 5.070 1.668 3469
-1.522 5.089 1.657 3880
-1.525 5.100 1.643 2979
-1.524 5.097 1.626 2427
-1.539 5.145 1.623 3106
-1.616 5.405 1.681 2903
-1.615 5.402 1.663 5349
-1.625 5.436 1.655 7593
-1.633 5.462 1.645 8216
-1.643 5.495 1.636 8928
-1.642 5.492 1.618 9613
-1.635 5.467 1.593 10064
-1.634 5.464 1.575 6556
-1.675 5.600 1.593 2679
-1.766 5.906 1.654 2738
-1.761 5.888 1.631 2454
-1.817 6.077 1.659 2617
-1.818 6.081 1.641 2482
-1.839 6.151 1.639 2489
-1.847 6.178 1.626 1981
-1.919 6.418 1.664 1925
-1.916 6.408 1.641 2089
-1.900 6.353 1.608 2217
-1.903 6.364 1.590 2031
-2.035 6.806 1.670 2014
-2.050 6.854 1.659 1666
-2.051 6.859 1.639 1889
-2.141 7.160 1.682 3064
-2.149 7.186 1.665 2771
-2.257 7.548 1.719 2279
-2.320 7.760 1.739 2613
-2.326 7.780 1.719 2051
-2.332 7.799 1.698 1445
-2.480 8.295 1.772 1317
-2.404 8.039 1.696 1585
-2.405 8.043 1.672 2183
-2.406 8.047 1.647 1804
-2.445 8.178 1.647 1791
-2.621 8.765 1.728 1902
-2.622 8.770 1.701 1980
-2.621 8.767 1.674 1469
-2.618 8.756 1.644 1140
-2.671 8.932 1.647 1354
-2.677 8.951 1.623 1026
-2.687 8.985 1.600 736
-2.690 8.997 1.574 633
-2.694 9.008 1.548 372
-0.342 1.145 0.094 367
-0.342 1.145 0.090 541
-0.342 1.144 0.087 803
-0.342 1.144 0.084 1065
-0.344 1.152 0.080 1338
-0.344 1.151 0.077 1633
-0.344 1.151 0.073 1880
-0.344 1.151 0.070 2126
-0.342 1.143 0.067 2179
-0.342 1.143 0.064 2244
-0.344 1.150 0.060 2041
-0.344 1.150 0.057 1862
-0.346 1.158 0.053 1534
-0.346 1.157 0.049 1244
-0.346 1.157 0.046 1047
-0.346 1.157 0.042 850
-0.348 1.164 0.038 724
-0.348 1.164 0.035 607
-0.348 1.163 0.032 465
-0.346 1.156 0.029 326
-0.650 2.190 1.759 4386
-0.652 2.194 1.753 8773
-0.653 2.199 1.746 8773
-0.654 2.203 1.740 8083
-0.656 2.208 1.733 7394
-0.657 2.212 1.727 5048
-0.675 2.272 1.761 5426
-0.676 2.277 1.754 5426
-0.678 2.281 1.747 4478
-0.673 2.267 1.727 4137
-0.701 2.359 1.783 5263
-0.702 2.364 1.776 7231
-0.705 2.375 1.773 8976
-0.709 2.386 1.771 11213
-0.710 2.390 1.763 11599
-0.709 2.388 1.752 12124
-0.711 2.393 1.745 12233
-0.710 2.391 1.733 10498
-0.711 2.396 1.726 8723
-0.713 2.400 1.719 7271
-0.710 2.392 1.703 5872
-0.719 2.422 1.713 6948
-0.722 2.432 1.710 8695
-0.729 2.456 1.716 7368
-0.736 2.480 1.721 8033
-0.738 2.484 1.714 5875
-0.743 2.501 1.714 3968
-0.754 2.538 1.728 4594
-0.757 2.549 1.724 5669
-0.758 2.554 1.717 5538
-0.762 2.564 1.713 5421
-0.790 2.660 1.762 4887
-0.795 2.678 1.762 6170
-0.797 2.682 1.754 6250
-0.798 2.687 1.746 6330
-0.801 2.698 1.742 5099
-0.805 2.709 1.738 4806
-0.806 2.713 1.730 5440
-0.831 2.797 1.769 6101
-0.838 2.821 1.772 6901
-0.837 2.819 1.760 10928
-0.839 2.824 1.752 15037
-0.842 2.835 1.747 13592
-0.843 2.839 1.738 9815
-0.841 2.830 1.722 7674
-0.848 2.855 1.725 8547
-0.851 2.866 1.720 10184
-0.880 2.964 1.764 8631
-0.884 2.975 1.759 9592
-0.885 2.980 1.750 8529
-0.886 2.984 1.741 6138
-0.900 3.029 1.754 3599
-0.885 2.980 1.716 3393
-0.910 3.065 1.750 6589
-0.912 3.070 1.741 10812
-0.913 3.074 1.732 12464
-0.914 3.079 1.723 11037
-0.918 3.090 1.717 5429
-0.945 3.183 1.753 6332
-0.951 3.201 1.751 7319
-0.954 3.212 1.745 6873
-0.951 3.203 1.728 7412
-0.951 3.201 1.715 8785
-0.952 3.205 1.706 8418
-0.982 3.305 1.743 6312
-0.983 3.310 1.733 8058
-0.984 3.314 1.724 7925
-1.012 3.408 1.757 6368
-1.014 3.413 1.747 7811
-1.019 3.431 1.743 8251
-1.022 3.443 1.736 7089
-1.022 3.440 1.722 4585
-1.025 3.451 1.715 6008
-1.039 3.497 1.724 8518
-1.038 3.495 1.710 8546
-1.062 3.576 1.734 7785
-1.063 3.580 1.724 5735
-1.100 3.703 1.766 3693
-1.093 3.680 1.742 4192
-1.084 3.649 1.716 4284
-1.079 3.633 1.696 4976
-1.080 3.637 1.685 4854
-1.121 3.775 1.731 6889
-1.122 3.779 1.720 8281
-1.122 3.777 1.705 6241
-1.148 3.866 1.729 4923
-1.147 3.863 1.715 4190
-1.151 3.874 1.706 2950
-1.177 3.964 1.729 3426
-1.149 3.869 1.677 2543
-1.224 4.121 1.765 3223
-1.227 4.133 1.755 4376
-1.189 4.003 1.690 5818
-1.192 4.014 1.680 5032
-1.204 4.054 1.682 4181
-1.210 4.072 1.675 2758
-1.234 4.155 1.693 3664
-1.235 4.160 1.680 5261
-1.239 4.171 1.670 5558
-1.242 4.182 1.660 3720
-1.292 4.351 1.708 5355
-1.296 4.363 1.697 8347
-1.295 4.360 1.682 6760
-1.311 4.415 1.686 3377
-1.315 4.426 1.676 3830
-1.354 4.560 1.707 5901
-1.353 4.557 1.691 5647
-1.338 4.504 1.658 4908
-1.339 4.508 1.644 4894
-1.364 4.592 1.657 3548
-1.363 4.589 1.641 3789
-1.379 4.644 1.644 3958
-1.380 4.648 1.630 4112
-1.405 4.732 1.641 2727
-1.448 4.874 1.671 2992
-1.444 4.864 1.652 2858
-1.446 4.868 1.637 3020
-1.497 5.039 1.674 2661
-1.504 5.066 1.665 3587
-1.510 5.084 1.654 4105
-1.513 5.096 1.641 3394
-1.513 5.093 1.624 2770
-1.529 5.148 1.623 3458
-1.604 5.401 1.679 3293
-1.605 5.405 1.663 6096
-1.613 5.431 1.653 8161
-1.619 5.450 1.641 8025
-1.633 5.499 1.636 8105
-1.632 5.495 1.618 9242
-1.625 5.470 1.593 10811
-1.621 5.459 1.573 7202
-1.664 5.603 1.593 2630
-1.755 5.909 1.654 2747
-1.726 5.810 1.610 2501
-1.782 5.999 1.639 2771
-1.807 6.084 1.641 2495
-1.826 6.147 1.637 2259
-1.836 6.181 1.626 1758
-1.907 6.422 1.664 1742
-1.893 6.374 1.632 1948
-1.888 6.356 1.608 2239
-1.891 6.368 1.590 2079
-2.022 6.809 1.670 2128
-2.039 6.866 1.661 1795
-2.040 6.870 1.640 2106
-2.128 7.164 1.682 2723
-2.078 6.997 1.624 2674
-2.079 7.001 1.603 2039
-2.306 7.765 1.739 2654
-2.312 7.784 1.719 2023
-2.318 7.803 1.698 1521
-2.350 7.912 1.695 1440
-2.389 8.043 1.696 1461
-2.390 8.047 1.672 2119
-2.391 8.052 1.647 1759
-2.430 8.183 1.647 1607
-2.602 8.763 1.727 1971
-2.606 8.775 1.701 2001
-2.605 8.771 1.674 1422
-2.689 9.053 1.695 1245
-2.654 8.937 1.647 1369
-2.660 8.956 1.623 1118
-2.666 8.975 1.598 848
-2.671 8.994 1.573 662
-2.677 9.013 1.548 369
-0.340 1.145 0.087 275
-0.342 1.152 0.083 373
-0.342 1.152 0.080 497
-0.342 1.152 0.077 621
-0.342 1.152 0.073 779
-0.342 1.152 0.070 938
-0.342 1.152 0.067 1030
-0.342 1.151 0.063 1123
-0.342 1.151 0.060 1073
-0.342 1.151 0.057 1022
-0.344 1.158 0.053 867
-0.344 1.158 0.049 723
-0.344 1.158 0.046 622
-0.344 1.157 0.042 522
-0.346 1.165 0.038 460
-0.346 1.164 0.035 402
-0.346 1.164 0.032 297
-0.644 2.192 1.759 4067
-0.645 2.196 1.753 8135
-0.646 2.201 1.746 8135
-0.648 2.205 1.740 7601
-0.649 2.210 1.733 7068
-0.667 2.270 1.768 5173
-0.668 2.274 1.761 5927
-0.669 2.279 1.754 5927
-0.671 2.283 1.747 4903
-0.666 2.269 1.727 4322
-0.694 2.361 1.783 4678
-0.697 2.372 1.780 6583
-0.698 2.377 1.773 8620
-0.701 2.388 1.771 10945
-0.703 2.392 1.763 11292
-0.702 2.391 1.752 11834
-0.703 2.395 1.745 12006
-0.703 2.393 1.733 10475
-0.704 2.398 1.726 8902
-0.704 2.396 1.715 7641
-0.703 2.394 1.703 6557
-0.712 2.424 1.713 7179
-0.715 2.435 1.710 8894
-0.720 2.452 1.712 7404
-0.729 2.482 1.721 7837
-0.732 2.493 1.718 5674
-0.735 2.504 1.714 3814
-0.744 2.534 1.724 3714
-0.749 2.551 1.724 4517
-0.753 2.562 1.721 4793
-0.754 2.567 1.713 5181
-0.782 2.662 1.762 5218
-0.785 2.674 1.758 6341
-0.789 2.685 1.754 6299
-0.790 2.689 1.746 6276
-0.793 2.700 1.742 5205
-0.796 2.711 1.738 4966
-0.798 2.716 1.730 5563
-0.822 2.799 1.769 5979
-0.829 2.824 1.772 6791
-0.829 2.822 1.760 10655
-0.830 2.826 1.752 14547
-0.833 2.837 1.747 13144
-0.835 2.842 1.738 9682
-0.832 2.833 1.722 7801
-0.839 2.857 1.725 8779
-0.843 2.869 1.720 10344
-0.844 2.873 1.712 8467
-0.875 2.978 1.759 9538
-0.876 2.983 1.750 8626
-0.875 2.980 1.737 6289
-0.877 2.985 1.729 4287
-0.880 2.996 1.723 4533
-0.901 3.068 1.750 7493
-0.902 3.072 1.741 11780
-0.904 3.077 1.732 13029
-0.905 3.081 1.723 11091
-0.908 3.093 1.717 5410
-0.938 3.192 1.757 5030
-0.943 3.211 1.754 6004
-0.942 3.208 1.741 5918
-0.938 3.192 1.721 7284
-0.941 3.203 1.715 8587
-0.942 3.208 1.706 8666
-0.972 3.308 1.743 5972
-0.971 3.306 1.730 7840
-0.972 3.310 1.720 7882
-1.002 3.411 1.757 6717
-1.005 3.423 1.750 8624
-1.009 3.434 1.743 9153
-1.012 3.446 1.736 7545
-1.011 3.443 1.722 4367
-1.015 3.454 1.715 5778
-1.024 3.487 1.718 8315
-1.027 3.498 1.710 8574
-1.051 3.579 1.734 7280
-1.053 3.584 1.724 6152
-1.056 3.595 1.716 4097
-1.082 3.683 1.742 3547
-1.071 3.646 1.713 4642
-1.070 3.643 1.699 5427
-1.069 3.640 1.685 5110
-1.112 3.785 1.734 7289
-1.111 3.783 1.720 8821
-1.108 3.773 1.702 6673
-1.134 3.862 1.726 4554
-1.138 3.874 1.718 4525
-1.139 3.878 1.706 3785
-1.138 3.875 1.692 2877
-1.137 3.872 1.677 2812
-1.212 4.125 1.765 3091
-1.217 4.144 1.758 4236
-1.216 4.141 1.743 5149
-1.184 4.032 1.686 4993
-1.194 4.065 1.685 4473
-1.197 4.076 1.675 2720
-1.222 4.159 1.693 4291
-1.223 4.163 1.680 6008
-1.226 4.175 1.670 6206
-1.230 4.186 1.660 4447
-1.279 4.355 1.708 5186
-1.280 4.360 1.695 8106
-1.280 4.357 1.679 7177
-1.298 4.419 1.686 3311
-1.301 4.430 1.676 3872
-1.341 4.564 1.707 5177
-1.340 4.561 1.691 4667
-1.324 4.508 1.658 4779
-1.325 4.512 1.644 5105
-1.326 4.516 1.631 3100
-1.345 4.578 1.636 3484
-1.365 4.648 1.644 3737
-1.366 4.652 1.630 3977
-1.393 4.743 1.644 2816
-1.433 4.878 1.671 2980
-1.430 4.868 1.652 2663
-1.431 4.872 1.637 2644
-1.484 5.051 1.676 2385
-1.489 5.070 1.665 3510
-1.495 5.089 1.654 4087
-1.498 5.100 1.641 3589
-1.497 5.097 1.624 3050
-1.513 5.153 1.623 3679
-1.588 5.406 1.679 3445
-1.589 5.410 1.663 6346
-1.595 5.429 1.651 8373
-1.600 5.448 1.639 7997
-1.616 5.503 1.636 7260
-1.616 5.500 1.618 8684
-1.606 5.468 1.591 10965
-1.605 5.464 1.573 7395
-1.645 5.601 1.591 2479
-1.737 5.915 1.654 2680
-1.708 5.816 1.610 3052
-1.761 5.997 1.637 2922
-1.791 6.097 1.643 2408
-1.801 6.131 1.632 2102
-1.865 6.349 1.665 1740
-1.829 6.228 1.616 1633
-1.870 6.365 1.629 1923
-1.869 6.362 1.608 2098
-1.872 6.374 1.590 2054
-2.000 6.808 1.668 2166
-1.966 6.694 1.621 1848
-2.022 6.883 1.642 2183
-2.106 7.170 1.682 2387
-2.057 7.003 1.624 2834
-2.058 7.008 1.603 1978
-2.283 7.771 1.739 2568
-2.286 7.783 1.717 1873
-2.322 7.907 1.718 1503
-2.328 7.926 1.697 1756
-2.334 7.946 1.676 1399
-2.366 8.055 1.672 1949
-2.472 8.418 1.715 1759
-2.474 8.422 1.690 1531
-2.576 8.770 1.727 1984
-2.580 8.782 1.701 1948
-2.660 9.056 1.722 1435
-2.661 9.061 1.695 1495
-2.663 9.065 1.667 1354
-2.633 8.964 1.623 1201
-2.639 8.983 1.598 924
-2.642 8.995 1.572 646
-2.648 9.014 1.547 326
-0.336 1.145 0.074 252
-0.336 1.145 0.070 376
-0.336 1.145 0.067 509
-0.336 1.145 0.064 643
-0.338 1.152 0.060 667
-0.338 1.152 0.057 700
-0.338 1.152 0.053 606
-0.340 1.159 0.049 520
-0.340 1.159 0.046 399
-0.340 1.158 0.042 277
-0.636 2.194 1.759 3659
-0.637 2.198 1.753 7319
-0.638 2.203 1.746 7319
-0.640 2.207 1.740 6946
-0.641 2.212 1.733 6573
-0.659 2.272 1.768 5615
-0.660 2.277 1.761 6526
-0.661 2.281 1.754 6526
-0.663 2.286 1.747 5481
-0.660 2.278 1.732 4688
-0.687 2.370 1.787 4106
-0.688 2.375 1.780 5994
-0.690 2.379 1.773 8219
-0.693 2.390 1.771 10577
-0.694 2.395 1.763 10859
-0.694 2.393 1.752 11329
-0.695 2.398 1.745 11510
-0.694 2.396 1.733 10212
-0.694 2.394 1.722 8946
-0.693 2.392 1.711 7981
-0.695 2.396 1.703 7226
-0.701 2.420 1.709 7440
-0.706 2.437 1.710 9044
-0.711 2.454 1.712 7441
-0.720 2.485 1.721 7505
-0.723 2.495 1.718 5383
-0.728 2.513 1.719 3694
-0.731 2.524 1.715 3177
-0.742 2.561 1.728 3629
-0.745 2.572 1.725 4343
-0.747 2.576 1.717 5137
-0.773 2.665 1.762 5540
-0.776 2.676 1.758 6500
-0.779 2.687 1.754 6308
-0.782 2.699 1.750 6194
-0.783 2.703 1.742 5292
-0.787 2.714 1.738 5099
-0.788 2.719 1.730 5650
-0.814 2.809 1.773 5741
-0.817 2.820 1.768 6578
-0.819 2.825 1.760 10226
-0.820 2.829 1.752 13874
-0.823 2.840 1.747 12537
-0.826 2.852 1.742 9511
-0.822 2.836 1.722 7856
-0.827 2.854 1.721 8911
-0.830 2.865 1.717 10352
-0.834 2.876 1.712 8382
-0.864 2.981 1.759 9447
-0.865 2.986 1.750 8743
-0.865 2.983 1.737 6733
-0.868 2.995 1.732 5428
-0.869 2.999 1.723 6144
-0.890 3.071 1.750 8287
-0.891 3.076 1.741 12497
-0.893 3.080 1.732 13181
-0.894 3.085 1.723 10660
-0.899 3.103 1.721 5298
-0.930 3.209 1.764 4295
-0.933 3.221 1.758 5314
-0.931 3.212 1.741 6084
-0.928 3.202 1.725 8104
-0.927 3.200 1.712 8893
-0.931 3.211 1.706 8670
-0.958 3.305 1.740 5613
-0.957 3.303 1.727 7590
-0.960 3.314 1.720 7681
-0.990 3.415 1.757 7016
-0.993 3.426 1.750 9271
-0.996 3.438 1.743 9898
-0.998 3.442 1.733 8018
-0.999 3.447 1.722 4333
-1.004 3.465 1.718 5508
-1.010 3.483 1.714 7981
-1.013 3.495 1.707 8494
-1.036 3.576 1.731 6740
-1.040 3.587 1.724 6662
-1.043 3.599 1.716 5069
-1.054 3.638 1.721 3769
-1.058 3.650 1.713 5062
-1.057 3.647 1.699 5775
-1.056 3.644 1.685 5179
-1.098 3.789 1.734 7588
-1.098 3.787 1.720 9051
-1.095 3.777 1.702 6865
-1.121 3.866 1.726 4230
-1.126 3.885 1.721 4923
-1.127 3.889 1.709 4628
-1.124 3.879 1.692 3454
-1.124 3.877 1.677 2955
-1.172 4.044 1.731 2938
-1.202 4.148 1.758 4034
-1.204 4.153 1.745 5182
-1.174 4.050 1.691 4861
-1.179 4.069 1.685 4383
-1.191 4.109 1.686 3032
-1.205 4.156 1.690 5303
-1.208 4.168 1.680 6787
-1.211 4.179 1.670 6771
-1.217 4.198 1.663 5289
-1.264 4.360 1.708 4756
-1.263 4.357 1.692 7527
-1.262 4.354 1.677 7423
-1.253 4.322 1.651 3526
-1.283 4.428 1.673 3844
-1.289 4.446 1.665 4791
-1.294 4.465 1.656 4076
-1.308 4.513 1.658 4421
-1.309 4.517 1.644 5061
-1.312 4.528 1.633 3600
-1.326 4.576 1.634 3588
-1.336 4.609 1.629 3924
-1.364 4.708 1.646 3883
-1.376 4.748 1.644 3168
-1.380 4.760 1.632 3420
-1.379 4.757 1.615 3063
-1.409 4.863 1.632 2165
-1.394 4.808 1.600 2341
-1.471 5.075 1.665 3201
-1.477 5.094 1.654 3850
-1.482 5.113 1.643 3550
-1.479 5.103 1.624 3212
-1.493 5.151 1.621 3671
-1.503 5.184 1.614 3461
-1.570 5.416 1.663 6050
-1.577 5.442 1.653 8212
-1.581 5.454 1.639 8080
-1.597 5.509 1.636 6313
-1.596 5.506 1.618 7796
-1.586 5.473 1.591 10578
-1.585 5.470 1.573 7130
-1.676 5.784 1.637 2441
-1.716 5.921 1.654 2503
-1.687 5.822 1.610 3541
-1.729 5.966 1.628 3278
-1.720 5.933 1.601 2291
-1.775 6.122 1.628 2249
-1.836 6.334 1.660 1902
-1.831 6.316 1.635 2088
-1.847 6.372 1.629 1991
-1.844 6.361 1.606 1915
-1.849 6.380 1.590 1988
-1.973 6.808 1.667 2156
-1.942 6.701 1.621 2023
-2.002 6.906 1.645 2248
-2.026 6.992 1.642 2123
-2.032 7.011 1.624 2744
-2.038 7.030 1.606 1881
-2.255 7.780 1.739 2276
-2.256 7.784 1.716 1574
-2.294 7.915 1.718 1652
-2.302 7.942 1.698 2116
-2.305 7.954 1.676 1663
-2.441 8.422 1.740 1891
-2.442 8.426 1.715 1992
-2.444 8.431 1.690 1664
-2.545 8.780 1.727 1939
-2.548 8.792 1.701 1864
-2.628 9.066 1.722 1653
-2.629 9.070 1.695 1701
-2.630 9.075 1.667 1430
-2.601 8.974 1.623 1256
-2.606 8.993 1.598 988
-2.608 8.997 1.571 639
-2.618 9.031 1.548 282
-0.330 1.139 0.074 283
-0.330 1.139 0.071 325
-0.330 1.139 0.068 393
-0.330 1.138 0.064 462
-0.330 1.138 0.061 475
-0.332 1.146 0.057 496
-0.332 1.145 0.054 439
-0.334 1.153 0.050 383
-0.332 1.145 0.047 285
-0.632 2.195 1.759 3221
-0.633 2.200 1.753 6442
-0.634 2.204 1.746 6442
-0.636 2.209 1.740 6200
-0.637 2.213 1.733 5959
-0.656 2.280 1.772 6031
-0.657 2.284 1.765 7172
-0.659 2.289 1.759 7172
-0.658 2.287 1.747 6161
-0.656 2.279 1.732 5304
-0.655 2.277 1.720 3671
-0.684 2.376 1.780 5407
-0.685 2.381 1.773 7758
-0.687 2.385 1.766 10109
-0.690 2.396 1.763 10298
-0.689 2.394 1.752 10649
-0.690 2.399 1.745 10764
-0.690 2.397 1.733 9718
-0.689 2.395 1.722 8802
-0.689 2.393 1.711 8229
-0.690 2.397 1.703 7738
-0.697 2.421 1.709 7623
-0.702 2.438 1.710 9145
-0.707 2.456 1.712 7515
-0.716 2.486 1.721 7168
-0.719 2.497 1.718 5123
-0.726 2.521 1.723 3762
-0.736 2.557 1.736 3090
-0.743 2.581 1.741 3660
-0.742 2.579 1.729 4505
-0.744 2.584 1.721 5355
-0.768 2.667 1.762 5795
-0.771 2.678 1.758 6628
-0.774 2.689 1.754 6267
-0.777 2.700 1.750 6133
-0.778 2.704 1.742 5314
-0.782 2.716 1.738 5156
-0.781 2.713 1.726 5735
-0.809 2.810 1.773 5429
-0.812 2.822 1.768 6303
-0.815 2.833 1.764 9663
-0.817 2.837 1.755 13056
-0.820 2.849 1.751 11798
-0.821 2.853 1.742 9332
-0.819 2.844 1.726 8032
-0.822 2.855 1.721 9000
-0.825 2.866 1.717 10143
-0.826 2.871 1.708 8127
-0.859 2.983 1.759 9343
-0.860 2.987 1.750 8875
-0.861 2.992 1.741 7341
-0.862 2.996 1.732 6736
-0.866 3.007 1.727 7691
-0.884 3.073 1.750 8856
-0.888 3.084 1.745 12891
-0.887 3.082 1.732 12928
-0.888 3.086 1.723 9851
-0.894 3.104 1.721 5168
-0.926 3.218 1.768 3890
-0.931 3.236 1.765 4926
-0.923 3.206 1.738 6372
-0.922 3.204 1.725 8890
-0.924 3.208 1.715 9340
-0.925 3.213 1.706 8486
-0.952 3.307 1.740 5305
-0.951 3.304 1.727 7312
-0.954 3.316 1.720 7497
-0.983 3.417 1.757 7115
-0.987 3.428 1.750 9427
-0.990 3.440 1.743 10150
-0.991 3.444 1.733 8260
-0.993 3.449 1.722 4395
-0.998 3.467 1.718 5359
-1.003 3.485 1.714 7719
-1.006 3.497 1.707 8468
-1.008 3.501 1.697 6320
-1.033 3.589 1.724 7134
-1.036 3.601 1.716 6067
-1.046 3.633 1.718 4345
-1.051 3.651 1.713 5412
-1.052 3.656 1.702 6035
-1.052 3.653 1.688 5235
-1.091 3.791 1.734 7639
-1.093 3.796 1.723 9066
-1.088 3.779 1.702 6927
-1.119 3.889 1.735 4126
-1.131 3.929 1.738 5499
-1.134 3.941 1.729 5668
-1.117 3.881 1.692 3739
-1.116 3.879 1.677 2757
-1.163 4.039 1.728 3114
-1.195 4.150 1.758 3701
-1.196 4.155 1.745 5178
-1.171 4.067 1.697 4701
-1.174 4.078 1.687 4275
-1.194 4.147 1.700 3985
-1.197 4.158 1.690 6579
-1.200 4.170 1.680 7569
-1.204 4.181 1.670 7201
-1.211 4.207 1.666 5912
-1.258 4.369 1.711 4142
-1.255 4.359 1.692 6749
-1.250 4.342 1.671 7558
-1.249 4.339 1.656 3752
-1.275 4.430 1.673 3953
-1.278 4.441 1.662 5012
-1.286 4.467 1.656 3971
-1.297 4.508 1.655 3999
-1.301 4.519 1.644 4802
-1.304 4.531 1.633 3889
-1.318 4.578 1.634 3672
-1.327 4.612 1.629 4403
-1.360 4.725 1.651 4316
-1.367 4.751 1.644 3669
-1.371 4.762 1.632 4016
-1.372 4.766 1.617 3639
-1.386 4.814 1.617 2169
-1.385 4.811 1.600 2287
-1.462 5.078 1.665 2591
-1.469 5.104 1.657 3399
-1.473 5.116 1.643 3350
-1.470 5.105 1.624 3191
-1.483 5.153 1.621 3466
-1.550 5.385 1.671 3280
-1.555 5.404 1.659 5396
-1.567 5.445 1.653 7718
-1.571 5.456 1.639 7995
-1.578 5.483 1.628 5384
-1.579 5.487 1.612 6995
-1.576 5.476 1.591 9693
-1.575 5.473 1.573 6516
-1.670 5.802 1.641 2326
-1.675 5.821 1.627 2448
-1.677 5.825 1.610 3909
-1.718 5.969 1.628 3752
-1.721 5.981 1.612 2466
-1.789 6.214 1.650 2361
-1.816 6.308 1.653 2293
-1.817 6.312 1.634 2772
-1.822 6.331 1.618 2115
-1.823 6.335 1.599 1876
-1.897 6.592 1.638 2225
-1.899 6.596 1.618 2131
-1.930 6.704 1.621 2105
-1.993 6.924 1.648 2316
-2.001 6.951 1.632 2312
-2.017 7.007 1.623 2538
-2.024 7.033 1.606 1704
-2.240 7.784 1.739 1909
-2.278 7.915 1.742 1561
-2.282 7.927 1.719 1655
-2.289 7.954 1.700 2340
-2.291 7.958 1.676 1813
-2.425 8.426 1.740 2025
-2.427 8.431 1.715 2099
-2.428 8.435 1.690 1620
-2.528 8.784 1.727 1773
-2.532 8.796 1.701 1670
-2.611 9.071 1.722 1771
-2.612 9.075 1.695 1801
-2.613 9.079 1.667 1393
-2.584 8.978 1.623 1268
-2.588 8.990 1.597 954
-2.591 9.002 1.571 565
-0.330 1.147 0.074 274
-0.328 1.139 0.071 306
-0.328 1.139 0.068 292
-0.326 1.131 0.065 279
-0.326 1.131 0.062 263
-0.330 1.145 0.047 256
-0.330 1.145 0.044 270
-0.332 1.152 0.040 281
-0.334 1.160 0.036 305
-0.334 1.159 0.032 291
-0.334 1.159 0.029 276
-0.626 2.197 1.759 2799
-0.627 2.201 1.753 5599
-0.628 2.206 1.746 5599
-0.630 2.210 1.740 5472
-0.631 2.215 1.733 5346
-0.650 2.281 1.772 6384
-0.649 2.280 1.761 7825
-0.651 2.284 1.754 7825
-0.652 2.289 1.747 6902
-0.652 2.287 1.736 6053
-0.655 2.298 1.734 4118
-0.679 2.384 1.785 5023
-0.679 2.383 1.773 7242
-0.680 2.387 1.766 9597
-0.681 2.392 1.759 9663
-0.683 2.396 1.752 9796
-0.684 2.401 1.745 9768
-0.682 2.392 1.729 9045
-0.681 2.391 1.718 8514
-0.682 2.395 1.711 8284
-0.684 2.399 1.703 8055
-0.690 2.423 1.709 7779
-0.695 2.440 1.710 9274
-0.700 2.458 1.712 7684
-0.707 2.481 1.717 6981
-0.712 2.499 1.718 5020
-0.722 2.536 1.731 4063
-0.735 2.579 1.748 4182
-0.738 2.590 1.745 4652
-0.737 2.588 1.733 5187
-0.739 2.592 1.725 5734
-0.758 2.662 1.758 6015
-0.762 2.673 1.754 6802
-0.767 2.691 1.754 6184
-0.770 2.702 1.750 6004
-0.771 2.707 1.742 5264
-0.772 2.711 1.734 5145
-0.774 2.716 1.726 5764
-0.777 2.727 1.722 5294
-0.804 2.824 1.768 5932
-0.808 2.835 1.764 9015
-0.809 2.840 1.755 12135
-0.812 2.851 1.751 10915
-0.813 2.855 1.742 9102
-0.813 2.853 1.730 8345
-0.814 2.858 1.721 8941
-0.817 2.869 1.717 9617
-0.818 2.873 1.708 7596
-0.850 2.985 1.759 9251
-0.850 2.983 1.746 9041
-0.853 2.994 1.741 7937
-0.856 3.005 1.736 7944
-0.857 3.010 1.727 8949
-0.876 3.075 1.750 9177
-0.879 3.087 1.745 12987
-0.879 3.084 1.732 12325
-0.880 3.089 1.723 8777
-0.887 3.114 1.724 5026
-0.888 3.118 1.715 4009
-0.925 3.245 1.768 3894
-0.912 3.202 1.734 6131
-0.913 3.207 1.725 8683
-0.915 3.211 1.715 9136
-0.916 3.215 1.706 8274
-0.933 3.275 1.723 5527
-0.938 3.293 1.720 7171
-0.943 3.311 1.717 7221
-0.974 3.419 1.757 6986
-0.977 3.431 1.750 9095
-0.981 3.442 1.743 9929
-0.982 3.447 1.733 8220
-0.983 3.451 1.722 4465
-1.000 3.511 1.738 5224
-0.994 3.488 1.714 7341
-0.997 3.499 1.707 8364
-0.998 3.504 1.697 6415
-1.023 3.592 1.724 7602
-1.027 3.603 1.716 6924
-1.036 3.636 1.718 5038
-1.041 3.654 1.713 5582
-1.042 3.659 1.702 6110
-1.042 3.656 1.688 5140
-1.081 3.794 1.734 7641
-1.082 3.799 1.723 8986
-1.077 3.782 1.702 7000
-1.117 3.921 1.747 4608
-1.122 3.939 1.741 6541
-1.124 3.944 1.729 6684
-1.107 3.884 1.692 3877
-1.106 3.882 1.677 2622
-1.152 4.042 1.728 3130
-1.153 4.047 1.716 3775
-1.185 4.158 1.745 4977
-1.188 4.170 1.736 4719
-1.163 4.081 1.687 3968
-1.184 4.157 1.702 5016
-1.186 4.162 1.690 7728
-1.187 4.166 1.677 8111
-1.194 4.192 1.673 7242
-1.204 4.225 1.671 6122
-1.246 4.373 1.711 3525
-1.233 4.327 1.679 5933
-1.236 4.338 1.669 7514
-1.239 4.350 1.658 3920
-1.263 4.433 1.673 4197
-1.264 4.438 1.660 5299
-1.274 4.471 1.656 3814
-1.283 4.504 1.653 3674
-1.291 4.530 1.647 4207
-1.292 4.534 1.633 3707
-1.312 4.604 1.641 3792
-1.315 4.615 1.629 4796
-1.347 4.728 1.651 4899
-1.354 4.754 1.644 4031
-1.358 4.766 1.632 4270
-1.359 4.770 1.617 3922
-1.402 4.920 1.648 2529
-1.374 4.822 1.602 2266
-1.404 4.929 1.619 2013
-1.455 5.108 1.657 2805
-1.461 5.127 1.646 2964
-1.456 5.109 1.624 3025
-1.457 5.113 1.608 3015
-1.533 5.382 1.669 3221
-1.537 5.393 1.655 4767
-1.552 5.449 1.653 6857
-1.556 5.461 1.639 7802
-1.548 5.435 1.614 5919
-1.560 5.476 1.608 6318
-1.561 5.481 1.591 8650
-1.560 5.477 1.573 5690
-1.652 5.799 1.639 2188
-1.659 5.825 1.627 2370
-1.661 5.829 1.610 3980
-1.704 5.981 1.630 3787
-1.705 5.986 1.612 2635
-1.772 6.219 1.650 2597
-1.798 6.313 1.653 2730
-1.800 6.317 1.634 3404
-1.801 6.321 1.615 2587
-1.800 6.318 1.594 2261
-1.879 6.597 1.638 2766
-1.881 6.601 1.618 2663
-1.909 6.702 1.620 2121
-1.976 6.937 1.650 2239
-1.982 6.956 1.632 2415
-1.998 7.012 1.623 2196
-1.976 6.935 1.584 1615
-2.066 7.252 1.628 1634
-2.257 7.921 1.742 1539
-2.254 7.911 1.715 1660
-2.268 7.960 1.700 2399
-2.269 7.964 1.676 1920
-2.402 8.433 1.740 2024
-2.404 8.437 1.715 2136
-2.403 8.434 1.688 1558
-2.504 8.791 1.727 1565
-2.508 8.803 1.701 1483
-2.586 9.078 1.722 1789
-2.587 9.082 1.695 1836
-2.589 9.086 1.667 1286
-2.560 8.985 1.623 1205
-2.563 8.997 1.597 896
-2.564 9.001 1.570 503
-0.329 1.156 0.073 280
-0.327 1.148 0.070 334
-0.327 1.148 0.067 329
-0.325 1.140 0.064 327
-0.327 1.147 0.060 257
-0.329 1.154 0.043 297
-0.331 1.161 0.039 318
-0.331 1.161 0.036 341
-0.331 1.160 0.032 300
-0.330 1.160 0.029 259
-0.621 2.198 1.759 2364
-0.622 2.203 1.753 4728
-0.623 2.207 1.746 4728
-0.646 2.286 1.795 4751
-0.649 2.297 1.793 5117
-0.645 2.283 1.772 6637
-0.644 2.281 1.761 8463
-0.646 2.286 1.754 8463
-0.647 2.290 1.747 7637
-0.646 2.289 1.736 6828
-0.651 2.306 1.738 4812
-0.674 2.386 1.785 4771
-0.673 2.384 1.773 6776
-0.673 2.382 1.762 9057
-0.676 2.393 1.759 8994
-0.677 2.398 1.752 8921
-0.677 2.396 1.741 8843
-0.676 2.394 1.729 8487
-0.676 2.392 1.718 8225
-0.677 2.396 1.711 8187
-0.676 2.394 1.699 8210
-0.685 2.425 1.709 7912
-0.690 2.442 1.710 9438
-0.695 2.459 1.712 7961
-0.700 2.476 1.713 7041
-0.706 2.500 1.718 5247
-0.726 2.570 1.752 5000
-0.729 2.581 1.748 5351
-0.730 2.585 1.741 5771
-0.731 2.590 1.733 5990
-0.733 2.594 1.725 6209
-0.738 2.612 1.726 6781
-0.741 2.623 1.722 7778
-0.761 2.693 1.754 6065
-0.764 2.704 1.750 5802
-0.767 2.715 1.746 5142
-0.766 2.713 1.734 5125
-0.766 2.711 1.722 5804
-0.769 2.722 1.718 5241
-0.798 2.826 1.768 5534
-0.801 2.837 1.764 8353
-0.803 2.841 1.755 11195
-0.806 2.853 1.751 10015
-0.807 2.857 1.742 8933
-0.808 2.862 1.734 8822
-0.810 2.866 1.725 8860
-0.811 2.870 1.717 8899
-0.842 2.982 1.768 7313
-0.844 2.987 1.759 9173
-0.843 2.985 1.746 9223
-0.846 2.996 1.741 8406
-0.849 3.007 1.736 8888
-0.849 3.005 1.723 9893
-0.867 3.070 1.747 9294
-0.872 3.088 1.745 12782
-0.874 3.093 1.736 11564
-0.875 3.097 1.726 7776
-0.880 3.116 1.724 4891
-0.881 3.120 1.715 4511
-0.929 3.289 1.789 3619
-0.903 3.197 1.731 6454
-0.904 3.202 1.721 8716
-0.908 3.213 1.715 8741
-0.909 3.217 1.706 7688
-0.928 3.284 1.726 5914
-0.931 3.295 1.720 7509
-0.936 3.313 1.717 7266
-0.966 3.422 1.757 6596
-0.970 3.433 1.750 8392
-0.973 3.444 1.743 9379
-0.974 3.449 1.733 8091
-0.975 3.453 1.722 4654
-0.992 3.514 1.738 5369
-0.988 3.497 1.718 6791
-0.991 3.509 1.710 7924
-0.990 3.506 1.697 6208
-1.015 3.594 1.724 7677
-1.018 3.606 1.716 7335
-1.028 3.638 1.718 5538
-1.033 3.657 1.713 5430
-1.034 3.661 1.702 5838
-1.033 3.658 1.688 4774
-1.074 3.804 1.737 7512
-1.074 3.801 1.723 8745
-1.069 3.784 1.702 6993
-1.110 3.930 1.750 5314
-1.113 3.942 1.741 7188
-1.115 3.946 1.729 7333
-1.116 3.951 1.717 4326
-1.097 3.884 1.677 2357
-1.141 4.038 1.725 3275
-1.144 4.049 1.716 4043
-1.175 4.161 1.745 4789
-1.179 4.172 1.736 4699
-1.180 4.177 1.723 3897
-1.175 4.160 1.702 5749
-1.176 4.164 1.690 8778
-1.177 4.169 1.677 8613
-1.185 4.194 1.673 7046
-1.198 4.242 1.676 6055
-1.203 4.260 1.669 3774
-1.221 4.322 1.677 5969
-1.224 4.334 1.666 7342
-1.229 4.353 1.658 4024
-1.253 4.436 1.673 4487
-1.254 4.440 1.660 5555
-1.266 4.481 1.659 3892
-1.273 4.507 1.653 3510
-1.336 4.729 1.712 3677
-1.335 4.726 1.696 3541
-1.301 4.607 1.641 3673
-1.304 4.618 1.629 4843
-1.338 4.739 1.653 5470
-1.342 4.750 1.641 4281
-1.347 4.769 1.632 4243
-1.346 4.766 1.615 3974
-1.391 4.923 1.648 3108
-1.392 4.928 1.634 2742
-1.391 4.924 1.617 2946
-1.390 4.921 1.600 2999
-1.449 5.130 1.646 2676
-1.446 5.120 1.626 2772
-1.443 5.109 1.606 2925
-1.519 5.378 1.667 3019
-1.518 5.375 1.648 4627
-1.544 5.467 1.657 6183
-1.546 5.472 1.641 7471
-1.536 5.439 1.614 5854
-1.540 5.450 1.600 6122
-1.551 5.491 1.593 7745
-1.550 5.488 1.575 5214
-1.553 5.499 1.560 2019
-1.648 5.836 1.629 2283
-1.648 5.833 1.610 3938
-1.645 5.822 1.589 3596
-1.694 5.997 1.613 2574
-1.754 6.208 1.646 2674
-1.784 6.317 1.653 3022
-1.785 6.321 1.634 3846
-1.784 6.318 1.613 3078
-1.786 6.322 1.594 2669
-1.865 6.601 1.638 3143
-1.866 6.605 1.618 3117
-1.863 6.594 1.595 2340
-1.961 6.941 1.650 2094
-1.966 6.961 1.632 2308
-1.971 6.980 1.615 2029
-1.960 6.939 1.584 1832
-2.050 7.257 1.628 1606
-2.235 7.911 1.739 1547
-2.234 7.908 1.713 1827
-2.250 7.965 1.700 2220
-2.253 7.977 1.677 1884
-2.384 8.438 1.740 1922
-2.387 8.450 1.716 2048
-2.409 8.530 1.705 1614
-2.413 8.542 1.680 1438
-2.410 8.531 1.652 1512
-2.566 9.084 1.722 1690
-2.567 9.088 1.695 1762
-2.441 8.641 1.591 1231
-2.540 8.991 1.623 1074
-2.543 9.003 1.597 748
-2.544 9.007 1.570 403
-0.324 1.149 0.070 299
-0.324 1.148 0.067 323
-0.324 1.148 0.064 347
-0.324 1.148 0.060 311
-0.326 1.155 0.057 278
-0.330 1.169 0.035 266
-0.633 2.261 1.806 2252
-0.634 2.266 1.799 4505
-0.639 2.283 1.802 4653
-0.640 2.288 1.795 4760
-0.645 2.305 1.797 4962
-0.639 2.285 1.772 6725
-0.639 2.283 1.761 8908
-0.640 2.287 1.754 8908
-0.641 2.292 1.747 8200
-0.642 2.296 1.741 7492
-0.647 2.314 1.743 5491
-0.670 2.394 1.789 4671
-0.664 2.373 1.764 6435
-0.665 2.378 1.757 8477
-0.668 2.389 1.755 8264
-0.669 2.393 1.748 8046
-0.669 2.391 1.736 8067
-0.668 2.389 1.725 7990
-0.670 2.394 1.718 7857
-0.671 2.398 1.711 7954
-0.670 2.396 1.699 8204
-0.681 2.433 1.713 8078
-0.685 2.450 1.715 9815
-0.688 2.461 1.712 8350
-0.693 2.478 1.713 7309
-0.700 2.502 1.718 5784
-0.719 2.571 1.752 6051
-0.721 2.576 1.744 6424
-0.724 2.587 1.741 6831
-0.725 2.591 1.733 6677
-0.728 2.602 1.729 6557
-0.731 2.613 1.726 7567
-0.734 2.624 1.722 8828
-0.735 2.629 1.714 7049
-0.757 2.706 1.750 5493
-0.760 2.717 1.746 4965
-0.758 2.708 1.730 5117
-0.759 2.713 1.722 5914
-0.762 2.724 1.718 5158
-0.791 2.828 1.768 5107
-0.794 2.839 1.764 7647
-0.795 2.843 1.755 10188
-0.799 2.855 1.751 9088
-0.802 2.866 1.746 8853
-0.801 2.864 1.734 9516
-0.802 2.868 1.725 8812
-0.804 2.873 1.717 8109
-0.835 2.985 1.768 7149
-0.836 2.989 1.759 9071
-0.836 2.987 1.746 9288
-0.839 2.998 1.741 8668
-0.842 3.009 1.736 9444
-0.841 3.007 1.723 10475
-0.859 3.073 1.747 9230
-0.865 3.091 1.745 12365
-0.866 3.095 1.736 10792
-0.867 3.100 1.726 7283
-0.870 3.111 1.721 5136
-0.871 3.115 1.711 5143
-0.875 3.127 1.706 4110
-0.895 3.200 1.731 6843
-0.896 3.204 1.721 8947
-0.899 3.215 1.715 8459
-0.901 3.220 1.706 6757
-0.921 3.293 1.730 6316
-0.922 3.298 1.720 7625
-0.928 3.316 1.717 7131
-0.958 3.424 1.757 5982
-0.961 3.435 1.750 7559
-0.964 3.447 1.743 8742
-0.965 3.451 1.733 7903
-0.967 3.456 1.722 4826
-0.985 3.523 1.741 5412
-0.983 3.514 1.724 6322
-0.982 3.511 1.710 7278
-1.021 3.648 1.760 6420
-1.006 3.597 1.724 7534
-1.009 3.608 1.716 7400
-1.018 3.641 1.718 5760
-1.024 3.659 1.713 5015
-1.027 3.671 1.705 5324
-1.062 3.795 1.745 4586
-1.063 3.799 1.734 7281
-1.062 3.797 1.720 8369
-1.059 3.787 1.702 6920
-1.100 3.933 1.750 5788
-1.103 3.945 1.741 7592
-1.105 3.949 1.729 7826
-1.106 3.954 1.717 4890
-1.135 4.058 1.746 2353
-1.130 4.041 1.725 3766
-1.134 4.052 1.716 4283
-1.165 4.164 1.745 4400
-1.168 4.175 1.736 4270
-1.169 4.180 1.723 3791
-1.164 4.163 1.702 6179
-1.166 4.167 1.690 9535
-1.169 4.179 1.680 8944
-1.172 4.190 1.670 6583
-1.189 4.252 1.679 5986
-1.195 4.271 1.671 4141
-1.208 4.318 1.674 5962
-1.213 4.337 1.666 6967
-1.218 4.356 1.658 4045
-1.240 4.432 1.671 4714
-1.241 4.436 1.657 5497
-1.256 4.491 1.661 4263
-1.260 4.503 1.650 3547
-1.322 4.725 1.710 3799
-1.323 4.729 1.696 3711
-1.294 4.624 1.646 3465
-1.293 4.621 1.629 4644
-1.326 4.742 1.653 5742
-1.330 4.754 1.641 4317
-1.335 4.772 1.632 3840
-1.334 4.769 1.615 3687
-1.376 4.919 1.646 3548
-1.375 4.916 1.629 3570
-1.376 4.921 1.614 3863
-1.378 4.925 1.600 3276
-1.436 5.134 1.646 2395
-1.435 5.131 1.628 2634
-1.426 5.098 1.602 2897
-1.503 5.374 1.665 2639
-1.503 5.371 1.646 4473
-1.535 5.486 1.661 6147
-1.534 5.483 1.643 7334
-1.523 5.443 1.614 5361
-1.528 5.462 1.602 5964
-1.539 5.503 1.595 8247
-1.540 5.507 1.579 5828
-1.546 5.526 1.566 2519
-1.634 5.840 1.629 2245
-1.631 5.830 1.608 3847
-1.630 5.826 1.589 3996
-1.679 6.001 1.613 2309
-1.736 6.205 1.644 2742
-1.766 6.314 1.651 3230
-1.767 6.318 1.632 4239
-1.768 6.322 1.613 3409
-1.770 6.326 1.594 2829
-1.848 6.606 1.638 3325
-1.849 6.610 1.618 3385
-1.846 6.599 1.595 2491
-1.943 6.946 1.650 1865
-1.948 6.965 1.632 2133
-1.952 6.977 1.613 1935
-1.949 6.966 1.589 1816
-2.031 7.262 1.628 1483
-2.213 7.910 1.737 1661
-2.214 7.914 1.713 2076
-2.215 7.918 1.689 1969
-2.214 7.915 1.664 1616
-2.364 8.452 1.742 1728
-2.389 8.539 1.732 1880
-2.388 8.536 1.705 1683
-2.393 8.555 1.682 1622
-2.390 8.544 1.653 1588
-2.543 9.090 1.722 1527
-2.544 9.094 1.695 1595
-2.419 8.647 1.591 1302
-2.418 8.644 1.564 938
-2.548 9.107 1.613 603
-2.521 9.013 1.570 281
-1.253 4.480 -0.046 274
-1.253 4.479 -0.059 301
-1.251 4.471 -0.072 255
-0.321 1.149 0.064 282
-0.321 1.149 0.060 266
-0.629 2.262 1.806 2314
-0.631 2.267 1.799 4629
-0.634 2.278 1.797 4735
-0.635 2.282 1.790 4626
-0.642 2.306 1.797 4691
-0.634 2.279 1.768 6684
-0.634 2.278 1.756 9205
-0.635 2.282 1.750 9205
-0.638 2.293 1.747 8616
-0.639 2.297 1.741 8074
-0.644 2.314 1.743 6080
-0.652 2.344 1.754 5335
-0.657 2.361 1.756 6553
-0.660 2.372 1.753 8051
-0.661 2.377 1.746 7742
-0.663 2.381 1.739 7658
-0.662 2.379 1.727 7845
-0.663 2.384 1.720 7646
-0.666 2.395 1.718 7534
-0.666 2.393 1.706 7763
-0.667 2.397 1.699 8117
-0.679 2.440 1.718 8480
-0.682 2.451 1.715 10418
-0.687 2.468 1.716 8917
-0.690 2.479 1.713 7749
-0.696 2.503 1.718 6584
-0.716 2.572 1.752 6877
-0.717 2.577 1.744 7347
-0.718 2.581 1.737 7816
-0.721 2.592 1.733 7192
-0.726 2.610 1.733 6839
-0.729 2.621 1.730 8191
-0.731 2.625 1.722 9676
-0.732 2.630 1.714 7865
-0.733 2.634 1.706 6054
-0.756 2.718 1.746 4785
-0.752 2.703 1.726 5317
-0.753 2.707 1.718 6252
-0.756 2.718 1.714 5228
-0.789 2.835 1.772 4703
-0.790 2.840 1.764 6954
-0.791 2.844 1.755 9205
-0.795 2.856 1.751 8288
-0.796 2.860 1.742 8918
-0.797 2.865 1.734 10296
-0.798 2.869 1.725 8849
-0.800 2.874 1.717 7403
-0.831 2.986 1.768 7004
-0.832 2.990 1.759 8909
-0.831 2.988 1.746 9167
-0.835 2.999 1.741 8676
-0.838 3.011 1.736 9591
-0.837 3.008 1.723 10678
-0.855 3.074 1.747 9035
-0.860 3.092 1.745 11847
-0.863 3.103 1.739 10151
-0.863 3.101 1.726 7289
-0.864 3.105 1.717 5886
-0.865 3.110 1.708 5804
-0.868 3.121 1.702 4832
-0.891 3.201 1.731 6932
-0.892 3.205 1.721 8928
-0.895 3.217 1.715 8085
-0.896 3.221 1.706 5850
-0.917 3.294 1.730 7093
-0.920 3.306 1.723 8023
-0.923 3.317 1.717 7384
-0.953 3.425 1.757 5221
-0.956 3.437 1.750 6590
-0.958 3.441 1.740 8065
-0.961 3.453 1.733 7685
-0.962 3.457 1.722 5031
-0.983 3.531 1.744 5306
-0.988 3.550 1.740 6395
-0.979 3.519 1.713 6327
-1.016 3.650 1.760 6295
-1.001 3.598 1.724 7088
-1.004 3.610 1.716 7056
-1.012 3.635 1.715 5748
-1.019 3.661 1.713 4519
-1.022 3.672 1.705 4812
-1.056 3.796 1.745 4671
-1.058 3.801 1.734 7016
-1.057 3.798 1.720 8082
-1.054 3.789 1.702 6879
-1.095 3.935 1.750 5837
-1.098 3.946 1.741 7275
-1.099 3.951 1.729 7646
-1.099 3.948 1.715 5271
-1.129 4.059 1.746 3025
-1.129 4.056 1.731 4307
-1.128 4.054 1.716 4405
-1.157 4.158 1.743 4129
-1.162 4.177 1.736 3675
-1.164 4.181 1.723 3430
-1.159 4.164 1.702 6278
-1.160 4.169 1.690 10013
-1.163 4.180 1.680 9258
-1.166 4.192 1.670 5966
-1.186 4.261 1.681 5761
-1.195 4.294 1.679 4462
-1.200 4.313 1.671 5986
-1.207 4.339 1.666 6394
-1.212 4.357 1.658 4005
-1.234 4.434 1.671 4730
-1.235 4.438 1.657 5246
-1.256 4.515 1.669 5202
-1.249 4.490 1.645 4281
-1.315 4.726 1.710 3637
-1.316 4.731 1.696 3693
-1.289 4.633 1.648 3234
-1.321 4.747 1.670 4180
-1.320 4.744 1.653 5562
-1.321 4.748 1.639 4061
-1.326 4.767 1.629 3257
-1.366 4.910 1.659 3468
-1.365 4.907 1.642 3916
-1.367 4.911 1.627 4229
-1.368 4.915 1.612 4399
-1.371 4.927 1.600 3389
-1.429 5.136 1.646 2280
-1.428 5.133 1.628 2576
-1.417 5.093 1.600 2847
-1.494 5.369 1.663 2412
-1.495 5.373 1.646 4098
-1.529 5.495 1.663 6144
-1.528 5.492 1.645 7000
-1.521 5.467 1.620 4781
-1.526 5.486 1.608 5742
-1.534 5.512 1.597 8982
-1.535 5.516 1.581 6645
-1.540 5.535 1.568 2898
-1.624 5.835 1.627 2179
-1.623 5.832 1.608 3724
-1.620 5.821 1.587 4470
-1.646 5.914 1.591 2410
-1.725 6.200 1.643 2812
-1.757 6.316 1.651 3216
-1.759 6.320 1.632 4315
-1.758 6.317 1.611 3537
-1.761 6.329 1.594 2940
-1.839 6.608 1.638 3204
-1.840 6.612 1.618 3387
-1.839 6.609 1.596 2566
-1.890 6.792 1.616 2053
-1.939 6.968 1.632 1771
-1.940 6.972 1.611 1810
-1.939 6.969 1.589 1794
-2.021 7.265 1.628 1320
-2.200 7.905 1.736 1748
-2.201 7.910 1.712 2314
-2.202 7.914 1.688 2388
-2.203 7.918 1.664 1970
-2.353 8.455 1.742 1517
-2.377 8.542 1.732 1780
-2.378 8.547 1.706 1665
-2.381 8.558 1.682 1690
-2.378 8.548 1.653 1549
-2.530 9.093 1.722 1325
-2.532 9.098 1.695 1394
-2.407 8.651 1.591 1340
-2.534 9.106 1.640 973
-2.535 9.111 1.613 633
-2.536 9.115 1.585 308
-2.538 9.123 1.530 255
-2.540 9.127 1.503 264
-1.247 4.483 -0.005 293
-1.247 4.482 -0.019 338
-1.247 4.482 -0.032 383
-1.247 4.481 -0.046 433
-1.247 4.481 -0.059 483
-1.245 4.473 -0.072 444
-1.244 4.472 -0.085 409
-1.244 4.471 -0.099 312
-0.622 2.264 1.806 2310
-0.623 2.269 1.799 4620
-0.626 2.280 1.797 4670
-0.627 2.285 1.790 4426
-0.633 2.308 1.797 4222
-0.626 2.281 1.768 6573
-0.626 2.280 1.756 9328
-0.627 2.284 1.750 9328
-0.630 2.295 1.747 8844
-0.633 2.306 1.745 8517
-0.638 2.323 1.747 6606
-0.644 2.346 1.754 6102
-0.647 2.357 1.751 6829
-0.650 2.368 1.749 7697
-0.651 2.373 1.742 7534
-0.653 2.377 1.735 7626
-0.652 2.375 1.723 7806
-0.655 2.386 1.720 7391
-0.658 2.397 1.718 7177
-0.657 2.395 1.706 7484
-0.678 2.470 1.746 8362
-0.677 2.468 1.735 9256
-0.675 2.460 1.719 11159
-0.678 2.471 1.716 9525
-0.681 2.482 1.713 8228
-0.688 2.505 1.718 7458
-0.709 2.581 1.756 7434
-0.708 2.579 1.744 7950
-0.707 2.577 1.732 8574
-0.710 2.588 1.729 7602
-0.717 2.612 1.733 6952
-0.720 2.624 1.730 8546
-0.721 2.628 1.722 10220
-0.723 2.632 1.714 8417
-0.724 2.637 1.706 6615
-0.727 2.648 1.702 4988
-0.741 2.699 1.722 5764
-0.742 2.703 1.714 6783
-0.745 2.714 1.710 5420
-0.752 2.738 1.714 4389
-0.780 2.843 1.764 6292
-0.782 2.847 1.755 8283
-0.783 2.852 1.747 7749
-0.786 2.863 1.742 9103
-0.787 2.867 1.734 10938
-0.788 2.872 1.725 8904
-0.790 2.876 1.717 6869
-0.820 2.989 1.768 6803
-0.822 2.993 1.759 8604
-0.821 2.991 1.746 8797
-0.824 3.002 1.741 8420
-0.825 3.007 1.732 9385
-0.825 3.004 1.720 10563
-0.845 3.077 1.747 8708
-0.851 3.102 1.748 11286
-0.853 3.106 1.739 9673
-0.852 3.104 1.726 7524
-0.851 3.101 1.714 6712
-0.853 3.106 1.704 6454
-0.856 3.117 1.699 5529
-0.878 3.197 1.727 6773
-0.881 3.208 1.721 8657
-0.886 3.227 1.719 7605
-0.904 3.293 1.740 5396
-0.907 3.304 1.733 7642
-0.908 3.309 1.723 8516
-0.911 3.320 1.717 7799
-0.914 3.332 1.710 5200
-0.937 3.412 1.737 5881
-0.945 3.445 1.740 7296
-0.949 3.456 1.733 7306
-0.948 3.454 1.719 5095
-0.972 3.542 1.747 5196
-0.977 3.560 1.743 6765
-0.978 3.565 1.733 6588
-1.001 3.646 1.757 5839
-0.991 3.609 1.727 6501
-0.992 3.613 1.716 6454
-0.999 3.639 1.715 5355
-1.029 3.749 1.750 4649
-1.030 3.753 1.739 4497
-1.039 3.786 1.739 4722
-1.044 3.805 1.734 6625
-1.042 3.795 1.717 7767
-1.041 3.792 1.702 6757
-1.081 3.938 1.750 5816
-1.082 3.943 1.738 7034
-1.083 3.947 1.726 7603
-1.083 3.945 1.712 5747
-1.113 4.056 1.743 3947
-1.115 4.060 1.731 5046
-1.114 4.058 1.716 4353
-1.139 4.148 1.737 4212
-1.146 4.174 1.733 3141
-1.149 4.185 1.723 3149
-1.144 4.168 1.702 6246
-1.145 4.173 1.690 10339
-1.149 4.184 1.680 9545
-1.150 4.189 1.668 5411
-1.171 4.265 1.681 5300
-1.182 4.305 1.682 4764
-1.185 4.317 1.671 5951
-1.192 4.343 1.666 5761
-1.199 4.369 1.661 4001
-1.216 4.431 1.668 4437
-1.237 4.508 1.680 4978
-1.238 4.512 1.666 5980
-1.234 4.494 1.645 4981
-1.299 4.731 1.710 3288
-1.300 4.735 1.696 3429
-1.273 4.638 1.648 2902
-1.304 4.751 1.670 3694
-1.303 4.748 1.653 5008
-1.305 4.753 1.639 3606
-1.334 4.859 1.657 3242
-1.341 4.885 1.649 3891
-1.346 4.904 1.639 4273
-1.349 4.916 1.627 4613
-1.350 4.920 1.612 4677
-1.354 4.931 1.600 3388
-1.411 5.141 1.646 2108
-1.412 5.145 1.630 2459
-1.397 5.091 1.598 2807
-1.425 5.190 1.610 2610
-1.476 5.379 1.646 3268
-1.510 5.501 1.663 5707
-1.513 5.512 1.649 6054
-1.508 5.494 1.626 4352
-1.513 5.513 1.614 6035
-1.516 5.525 1.599 9034
-1.518 5.529 1.583 7131
-1.523 5.548 1.570 3313
-1.603 5.841 1.627 2134
-1.600 5.830 1.606 3696
-1.599 5.827 1.587 4827
-1.629 5.935 1.595 3236
-1.702 6.199 1.641 2821
-1.735 6.322 1.651 2990
-1.736 6.326 1.632 4106
-1.736 6.323 1.611 3402
-1.741 6.342 1.596 2768
-1.818 6.622 1.640 3066
-1.817 6.619 1.618 3253
-1.816 6.615 1.596 2429
-1.866 6.799 1.616 2436
-1.964 7.154 1.671 1573
-1.912 6.964 1.608 1612
-1.917 6.983 1.590 1646
-2.010 7.324 1.639 1288
-2.172 7.913 1.736 1944
-2.173 7.917 1.712 2510
-2.174 7.922 1.688 2763
-2.176 7.926 1.664 2258
-2.325 8.471 1.743 1403
-2.347 8.550 1.732 1608
-2.181 7.946 1.594 1653
-2.182 7.950 1.570 1639
-2.435 8.872 1.710 1313
-2.441 8.891 1.685 1381
-2.446 8.911 1.661 1286
-2.447 8.915 1.634 1370
-2.448 8.919 1.608 1047
-2.503 9.119 1.613 696
-2.504 9.124 1.585 437
-2.505 9.128 1.558 314
-2.506 9.132 1.530 285
-2.508 9.135 1.503 267
-0.241 0.877 0.183 250
-1.234 4.495 0.021 260
-1.234 4.495 0.008 335
-1.232 4.487 -0.005 415
-1.231 4.487 -0.019 478
-1.231 4.486 -0.032 540
-1.231 4.486 -0.046 611
-1.231 4.485 -0.059 683
-1.229 4.477 -0.072 663
-1.229 4.476 -0.085 643
-1.228 4.476 -0.099 503
-1.228 4.475 -0.112 362
-1.228 4.474 -0.126 327
-1.228 4.473 -0.139 292
