0.266 1.333 0.064 754
0.268 1.341 0.060 524
0.270 1.348 0.055 303
0.268 1.340 0.052 268
0.413 2.044 1.615 8312
0.414 2.048 1.609 16624
0.415 2.053 1.603 16624
0.416 2.057 1.597 18800
0.418 2.067 1.596 21233
0.419 2.072 1.590 17165
0.420 2.076 1.584 13098
0.420 2.080 1.578 14031
0.421 2.084 1.572 14965
0.422 2.088 1.566 14965
0.424 2.098 1.564 13036
0.428 2.115 1.567 11826
0.430 2.126 1.565 7926
0.444 2.194 1.603 5002
0.452 2.237 1.623 7629
0.452 2.235 1.612 10731
0.453 2.239 1.606 10845
0.453 2.244 1.599 10959
0.456 2.254 1.597 10762
0.454 2.245 1.582 9243
0.453 2.243 1.571 8518
0.454 2.247 1.564 8981
0.455 2.251 1.558 9443
0.457 2.262 1.556 7815
0.461 2.279 1.557 6885
0.461 2.283 1.551 4556
0.489 2.419 1.627 2247
0.490 2.423 1.620 1928
0.475 2.348 1.564 1651
0.477 2.359 1.561 3222
0.480 2.376 1.562 5115
0.482 2.387 1.559 5794
0.485 2.398 1.556 5161
0.500 2.475 1.594 4864
0.509 2.519 1.610 5336
0.513 2.537 1.611 6393
0.511 2.528 1.596 5148
0.508 2.512 1.577 5162
0.528 2.610 1.624 6599
0.528 2.615 1.616 8418
0.529 2.619 1.609 8562
0.532 2.630 1.605 6428
0.538 2.661 1.613 5664
0.539 2.665 1.605 4936
0.541 2.676 1.601 4314
0.542 2.680 1.593 5393
0.543 2.685 1.585 5500
0.545 2.696 1.581 4556
0.544 2.693 1.570 4196
0.556 2.752 1.591 4348
0.561 2.777 1.594 5854
0.563 2.788 1.590 11117
0.563 2.785 1.578 14200
0.565 2.796 1.573 13231
0.569 2.814 1.572 10199
0.574 2.839 1.575 9069
0.575 2.843 1.567 7331
0.573 2.833 1.551 4520
0.572 2.830 1.539 3497
0.580 2.869 1.549 4804
0.578 2.859 1.533 6248
0.580 2.870 1.528 5514
0.601 2.972 1.568 6065
0.586 2.899 1.522 7030
0.594 2.938 1.530 9468
0.597 2.956 1.528 7678
0.607 3.002 1.540 7223
0.608 3.006 1.531 8750
0.607 3.003 1.519 7689
0.619 3.063 1.536 5138
0.620 3.067 1.527 5476
0.622 3.078 1.522 7850
0.626 3.096 1.519 10611
0.627 3.100 1.510 10984
0.629 3.111 1.504 11291
0.633 3.130 1.501 12810
0.635 3.141 1.495 13914
0.634 3.137 1.483 10155
0.652 3.227 1.511 4973
0.657 3.252 1.510 5247
0.664 3.285 1.513 6694
0.668 3.303 1.510 9067
0.670 3.314 1.503 10302
0.674 3.332 1.499 9813
0.674 3.336 1.489 8806
0.674 3.333 1.477 6439
0.673 3.330 1.464 4115
0.680 3.362 1.466 5342
0.680 3.366 1.456 5168
0.706 3.493 1.495 6295
0.708 3.504 1.487 6950
0.699 3.457 1.457 6809
0.698 3.453 1.444 5301
0.703 3.479 1.442 3645
0.714 3.534 1.451 5072
0.724 3.581 1.457 8741
0.729 3.607 1.455 14503
0.731 3.618 1.447 11312
0.739 3.658 1.450 6532
0.753 3.728 1.463 6925
0.753 3.724 1.449 6211
0.751 3.713 1.433 4692
0.776 3.842 1.466 4530
0.779 3.853 1.457 6695
0.778 3.849 1.443 6640
0.777 3.846 1.429 4650
0.779 3.857 1.421 4549
0.783 3.875 1.414 6141
0.784 3.879 1.403 5895
0.785 3.882 1.391 3530
0.824 4.078 1.442 4702
0.800 3.956 1.390 5343
0.829 4.100 1.423 4764
0.834 4.126 1.418 4052
0.842 4.167 1.417 4511
0.838 4.148 1.398 3127
0.862 4.263 1.420 3307
0.862 4.267 1.407 4848
0.869 4.301 1.404 5426
0.873 4.319 1.395 6680
0.874 4.323 1.383 5230
0.902 4.461 1.409 3506
0.898 4.442 1.389 4542
0.900 4.453 1.378 6128
0.925 4.576 1.398 5268
0.926 4.580 1.385 6015
0.932 4.613 1.380 4808
0.933 4.617 1.366 6347
0.932 4.613 1.350 6779
0.931 4.609 1.335 6556
0.931 4.605 1.319 6296
0.933 4.615 1.308 3904
0.965 4.777 1.334 3639
0.965 4.773 1.318 3360
1.007 4.980 1.354 4001
1.007 4.983 1.340 5440
1.011 5.002 1.329 3446
1.051 5.202 1.360 3516
1.057 5.228 1.350 3640
1.054 5.216 1.331 3878
1.075 5.318 1.339 4119
1.071 5.299 1.318 3642
1.099 5.438 1.332 4043
1.081 5.351 1.296 3101
1.084 5.362 1.282 3422
1.120 5.540 1.304 4665
1.105 5.467 1.271 3920
1.146 5.668 1.296 4250
1.146 5.671 1.279 3595
1.152 5.697 1.267 3136
1.155 5.716 1.253 2693
1.205 5.963 1.284 2350
1.212 5.997 1.272 3344
1.216 6.015 1.257 2976
1.216 6.018 1.239 2495
1.268 6.274 1.267 2508
1.275 6.307 1.254 2712
0.351 1.737 0.434 3061
0.351 1.738 0.429 4248
0.351 1.739 0.424 5152
0.350 1.732 0.418 5063
0.350 1.733 0.413 4471
0.352 1.741 0.409 3607
1.378 6.819 1.200 4297
1.419 7.022 1.211 5330
1.420 7.025 1.190 4624
1.420 7.028 1.169 2763
1.503 7.438 1.207 2239
1.501 7.425 1.183 2159
1.500 7.421 1.160 1824
1.556 7.701 1.176 2262
1.555 7.696 1.152 2638
1.584 7.837 1.147 2155
1.583 7.832 1.123 1563
1.714 8.482 1.180 1441
1.704 8.431 1.148 1927
1.706 8.442 1.124 2154
1.707 8.445 1.099 1967
1.707 8.447 1.074 1357
1.847 9.137 1.123 1088
1.864 9.224 1.105 980
1.867 9.235 1.079 1551
1.870 9.253 1.053 1576
1.872 9.263 1.026 1258
1.874 9.273 0.999 796
1.856 9.183 0.964 601
1.889 9.348 0.951 392
1.890 9.350 0.923 373
0.268 1.327 0.099 347
0.268 1.326 0.095 470
0.268 1.326 0.091 648
0.268 1.326 0.087 812
0.268 1.326 0.083 931
0.268 1.326 0.080 1050
0.269 1.333 0.076 988
0.269 1.333 0.072 944
0.269 1.333 0.068 733
0.269 1.333 0.064 523
0.269 1.333 0.060 365
0.418 2.043 1.615 8200
0.419 2.048 1.609 16400
0.420 2.052 1.603 16400
0.421 2.056 1.597 18401
0.423 2.066 1.596 20629
0.424 2.071 1.590 16571
0.424 2.075 1.584 12512
0.425 2.079 1.578 14375
0.426 2.083 1.572 16239
0.427 2.087 1.566 16239
0.429 2.097 1.564 14143
0.433 2.114 1.567 12697
0.435 2.125 1.565 8486
0.449 2.193 1.603 5414
0.456 2.230 1.619 7888
0.456 2.228 1.608 10951
0.458 2.238 1.606 10966
0.459 2.242 1.599 11040
0.460 2.247 1.593 10970
0.459 2.244 1.582 10006
0.459 2.242 1.571 9513
0.459 2.246 1.564 9851
0.460 2.250 1.558 10189
0.461 2.254 1.551 8171
0.465 2.271 1.553 6632
0.465 2.275 1.547 4466
0.466 2.279 1.540 2300
0.466 2.277 1.529 2097
0.476 2.327 1.551 1776
0.484 2.364 1.565 3339
0.487 2.382 1.566 5647
0.488 2.386 1.559 6413
0.490 2.396 1.556 5821
0.499 2.441 1.574 5159
0.514 2.512 1.606 5058
0.519 2.536 1.611 6022
0.515 2.520 1.592 5253
0.512 2.504 1.573 5568
0.532 2.602 1.620 5355
0.535 2.613 1.616 6790
0.535 2.617 1.609 7620
0.538 2.628 1.605 6475
0.544 2.660 1.613 6005
0.546 2.671 1.609 4852
0.549 2.682 1.605 3843
0.549 2.686 1.597 4494
0.550 2.690 1.589 4621
0.551 2.694 1.581 4097
0.551 2.692 1.570 3787
0.563 2.750 1.591 4343
0.566 2.768 1.591 5660
0.569 2.779 1.586 10725
0.569 2.784 1.578 13927
0.572 2.795 1.573 12782
0.575 2.812 1.572 9785
0.580 2.837 1.575 8943
0.581 2.841 1.567 7676
0.579 2.832 1.551 5236
0.579 2.829 1.539 3826
0.582 2.847 1.538 5155
0.585 2.858 1.533 6629
0.585 2.862 1.525 6389
0.589 2.879 1.523 6813
0.593 2.897 1.522 8155
0.601 2.936 1.530 10085
0.604 2.954 1.528 8713
0.612 2.994 1.536 8542
0.613 2.998 1.528 10099
0.613 2.994 1.516 8868
0.628 3.069 1.540 5801
0.627 3.066 1.527 5774
0.629 3.077 1.522 8093
0.633 3.095 1.519 11094
0.635 3.106 1.513 12018
0.635 3.103 1.501 12131
0.638 3.121 1.498 12647
0.641 3.132 1.492 13336
0.640 3.129 1.480 9741
0.639 3.125 1.468 4723
0.668 3.265 1.517 4931
0.672 3.283 1.513 6817
0.675 3.302 1.510 9006
0.676 3.305 1.500 10129
0.680 3.324 1.496 9445
0.682 3.335 1.489 8478
0.680 3.324 1.474 7073
0.676 3.306 1.455 5381
0.686 3.353 1.463 4874
0.709 3.466 1.496 5033
0.711 3.477 1.489 5661
0.706 3.452 1.467 5952
0.707 3.455 1.457 6058
0.708 3.459 1.447 4170
0.720 3.521 1.459 3859
0.723 3.532 1.451 5944
0.731 3.572 1.455 9359
0.736 3.598 1.452 14780
0.740 3.616 1.447 11579
0.745 3.642 1.444 6995
0.762 3.726 1.463 6480
0.758 3.708 1.444 5919
0.759 3.711 1.433 4635
0.768 3.752 1.435 5012
0.786 3.844 1.454 6785
0.787 3.847 1.443 6934
0.786 3.844 1.429 4334
0.787 3.847 1.418 3652
0.791 3.866 1.412 5146
0.793 3.877 1.403 5638
0.798 3.903 1.399 3635
0.834 4.076 1.442 4428
0.835 4.080 1.430 4502
0.838 4.098 1.423 4496
0.842 4.117 1.415 4005
0.852 4.165 1.417 4218
0.845 4.131 1.394 3190
0.870 4.254 1.418 4141
0.873 4.265 1.407 5277
0.878 4.291 1.401 4711
0.883 4.317 1.395 5118
0.885 4.328 1.385 4270
0.912 4.458 1.409 3011
0.908 4.440 1.389 4596
0.910 4.451 1.378 6274
0.914 4.469 1.369 5317
0.938 4.585 1.387 5297
0.946 4.626 1.384 4413
0.941 4.600 1.362 6513
0.943 4.611 1.350 6746
0.944 4.614 1.337 6136
0.943 4.610 1.321 6896
0.944 4.613 1.308 4581
0.977 4.775 1.334 4509
0.977 4.778 1.320 4010
1.018 4.977 1.354 4071
1.019 4.981 1.340 5438
1.024 5.007 1.330 3534
1.064 5.199 1.360 3791
1.066 5.210 1.347 3719
1.065 5.206 1.330 3561
1.087 5.315 1.339 4075
1.088 5.319 1.323 3521
1.112 5.436 1.332 3893
1.096 5.356 1.298 3408
1.127 5.511 1.315 3685
1.133 5.537 1.304 5007
1.133 5.540 1.287 4001
1.157 5.658 1.294 4153
1.160 5.669 1.279 3453
1.167 5.702 1.268 3549
1.169 5.713 1.253 3229
1.222 5.975 1.286 2615
1.226 5.994 1.272 3913
1.227 5.997 1.254 3200
1.281 6.260 1.284 2272
1.283 6.271 1.267 2762
0.353 1.728 0.438 3442
0.354 1.729 0.433 4205
0.354 1.729 0.428 4721
0.354 1.730 0.423 4714
0.354 1.731 0.418 4219
0.354 1.732 0.413 3444
1.394 6.813 1.220 2835
1.394 6.816 1.200 4326
1.436 7.018 1.211 5380
1.435 7.014 1.189 4712
1.437 7.024 1.169 2839
1.469 7.181 1.171 2279
1.471 7.191 1.151 2311
1.519 7.425 1.161 1645
1.575 7.697 1.176 2361
1.574 7.692 1.152 2777
1.604 7.841 1.148 1896
1.605 7.844 1.125 1384
1.738 8.494 1.182 1431
1.724 8.427 1.148 1516
1.726 8.438 1.124 1617
1.728 8.448 1.100 1493
1.868 9.129 1.150 1085
1.868 9.132 1.123 1199
1.886 9.220 1.105 1000
1.890 9.238 1.079 1578
1.894 9.256 1.054 1644
1.894 9.259 1.026 1311
1.877 9.176 0.991 866
1.879 9.186 0.964 689
1.911 9.343 0.951 384
1.912 9.346 0.923 417
1.912 9.348 0.895 287
0.271 1.326 0.099 321
0.271 1.326 0.095 423
0.271 1.326 0.091 556
0.271 1.325 0.087 675
0.271 1.325 0.083 744
0.271 1.325 0.080 812
0.271 1.325 0.076 741
0.273 1.333 0.072 672
0.273 1.332 0.068 504
0.273 1.332 0.064 337
0.423 2.042 1.615 8016
0.424 2.046 1.609 16032
0.425 2.051 1.603 16032
0.426 2.055 1.597 17825
0.428 2.065 1.596 19819
0.429 2.069 1.590 15886
0.431 2.080 1.588 11970
0.431 2.078 1.578 14559
0.431 2.082 1.572 17166
0.432 2.086 1.566 17166
0.434 2.096 1.564 14951
0.438 2.113 1.567 13334
0.440 2.124 1.565 8920
0.454 2.192 1.603 5832
0.459 2.216 1.610 8086
0.461 2.226 1.608 10995
0.462 2.231 1.601 10920
0.464 2.241 1.599 10879
0.465 2.245 1.593 10952
0.465 2.243 1.582 10579
0.464 2.241 1.571 10345
0.465 2.245 1.564 10603
0.466 2.249 1.558 10861
0.467 2.253 1.551 8619
0.469 2.263 1.549 6578
0.470 2.267 1.542 4498
0.472 2.278 1.540 2483
0.473 2.282 1.533 2303
0.482 2.326 1.551 2144
0.491 2.370 1.569 3688
0.493 2.380 1.566 6279
0.494 2.384 1.559 7147
0.496 2.395 1.556 6462
0.505 2.439 1.574 5328
0.499 2.410 1.546 5394
0.524 2.528 1.607 5754
0.519 2.505 1.584 5371
0.519 2.503 1.573 5803
0.521 2.513 1.569 5439
0.526 2.538 1.574 5606
0.542 2.616 1.609 6732
0.546 2.634 1.609 6573
0.551 2.658 1.613 6220
0.553 2.669 1.609 4821
0.555 2.680 1.605 3592
0.556 2.685 1.597 3875
0.557 2.689 1.589 4139
0.557 2.686 1.577 4145
0.570 2.752 1.603 3876
0.571 2.756 1.595 4581
0.573 2.767 1.591 5703
0.576 2.778 1.586 10142
0.577 2.782 1.578 13204
0.579 2.793 1.573 11924
0.583 2.811 1.572 9361
0.588 2.836 1.575 8737
0.587 2.833 1.563 7935
0.586 2.830 1.551 6143
0.587 2.834 1.543 4545
0.590 2.845 1.538 5810
0.590 2.849 1.530 6972
0.593 2.860 1.525 7280
0.596 2.878 1.523 8288
0.599 2.889 1.518 9306
0.610 2.942 1.534 10411
0.613 2.960 1.532 9431
0.620 2.992 1.536 9267
0.621 2.996 1.528 10800
0.619 2.986 1.512 9946
0.636 3.067 1.540 6082
0.642 3.100 1.544 5615
0.637 3.075 1.522 7892
0.641 3.093 1.519 11200
0.643 3.104 1.513 12601
0.643 3.101 1.501 12706
0.645 3.112 1.495 12617
0.647 3.123 1.489 12848
0.648 3.127 1.480 9498
0.647 3.124 1.468 5037
0.676 3.263 1.517 4790
0.680 3.282 1.513 6778
0.682 3.293 1.507 8864
0.683 3.297 1.497 9929
0.685 3.308 1.490 8985
0.686 3.311 1.480 8384
0.687 3.315 1.471 8667
0.685 3.305 1.455 7197
0.693 3.344 1.460 4479
0.716 3.457 1.493 4894
0.710 3.424 1.469 6237
0.712 3.435 1.462 6484
0.716 3.454 1.457 5320
0.716 3.457 1.447 3168
0.734 3.541 1.467 4153
0.733 3.537 1.454 6696
0.740 3.570 1.455 10413
0.745 3.596 1.452 14862
0.749 3.614 1.447 11441
0.753 3.633 1.442 7229
0.752 3.629 1.428 6386
0.766 3.698 1.441 5760
0.770 3.717 1.436 4775
0.777 3.750 1.435 6258
0.796 3.842 1.454 6321
0.797 3.845 1.443 6705
0.798 3.849 1.432 3966
0.818 3.948 1.453 3617
0.817 3.945 1.439 4424
0.803 3.875 1.403 5504
0.808 3.900 1.399 4051
0.846 4.081 1.445 3851
0.827 3.989 1.402 3517
0.850 4.104 1.425 3995
0.851 4.107 1.413 3799
0.855 4.126 1.406 3614
0.856 4.129 1.394 3023
0.880 4.244 1.415 4775
0.883 4.263 1.407 5700
0.886 4.274 1.397 4220
0.894 4.315 1.395 3530
0.900 4.341 1.389 3441
0.900 4.344 1.376 2773
0.920 4.437 1.389 4408
0.922 4.448 1.378 6040
0.924 4.459 1.367 5391
0.950 4.583 1.387 4726
0.940 4.534 1.359 4273
0.953 4.597 1.362 7257
0.953 4.601 1.348 7012
0.957 4.619 1.339 5433
0.955 4.607 1.321 6941
0.955 4.611 1.308 4531
0.989 4.772 1.334 4319
0.990 4.776 1.320 3620
1.031 4.975 1.354 3848
1.032 4.978 1.340 4956
1.051 5.072 1.347 3544
1.077 5.196 1.360 3730
1.078 5.200 1.345 3554
1.078 5.203 1.330 3081
1.101 5.313 1.339 3700
1.103 5.324 1.325 3315
1.124 5.425 1.331 3391
1.109 5.353 1.298 3584
1.112 5.364 1.284 3879
1.147 5.534 1.304 5010
1.148 5.537 1.287 4251
1.172 5.655 1.294 3873
1.174 5.666 1.279 3397
1.181 5.699 1.268 4106
1.185 5.718 1.255 3696
1.238 5.972 1.286 3016
1.241 5.991 1.272 4314
1.242 5.994 1.254 3262
1.293 6.241 1.281 2478
1.299 6.267 1.267 2976
0.356 1.719 0.437 3539
0.358 1.728 0.433 4063
0.358 1.729 0.428 4435
0.357 1.722 0.422 3983
0.357 1.722 0.417 2894
1.357 6.546 1.198 2920
1.411 6.809 1.220 2643
1.412 6.812 1.200 4055
1.454 7.015 1.211 5141
1.453 7.010 1.189 4554
1.455 7.021 1.169 2742
1.486 7.169 1.170 2493
1.490 7.188 1.151 2572
1.495 7.214 1.132 1842
1.594 7.693 1.176 2436
1.593 7.688 1.152 2834
1.624 7.837 1.148 1688
1.759 8.486 1.207 1374
1.759 8.489 1.182 1490
1.742 8.407 1.146 1211
1.746 8.426 1.123 1182
1.860 8.975 1.161 1164
1.916 9.248 1.164 1216
1.893 9.135 1.124 1223
1.892 9.130 1.096 985
1.913 9.233 1.079 1549
1.917 9.251 1.054 1670
1.918 9.254 1.026 1320
1.901 9.172 0.991 893
1.903 9.182 0.964 694
1.935 9.338 0.951 407
1.936 9.341 0.923 457
1.936 9.343 0.895 338
0.273 1.317 0.099 254
0.275 1.325 0.095 341
0.273 1.317 0.091 443
0.275 1.325 0.087 529
0.273 1.317 0.084 564
0.273 1.317 0.080 599
0.274 1.324 0.076 528
0.274 1.324 0.072 462
0.274 1.324 0.068 344
0.431 2.041 1.615 7817
0.432 2.045 1.609 15634
0.433 2.049 1.603 15634
0.433 2.053 1.597 17186
0.436 2.064 1.596 18914
0.437 2.068 1.590 15228
0.439 2.078 1.588 11689
0.438 2.076 1.578 14720
0.439 2.080 1.572 17898
0.440 2.084 1.566 17898
0.442 2.095 1.564 15598
0.444 2.105 1.562 13908
0.448 2.122 1.565 9350
0.462 2.191 1.603 6292
0.466 2.208 1.605 8316
0.468 2.218 1.603 11026
0.471 2.229 1.601 10824
0.471 2.233 1.595 10695
0.474 2.244 1.593 10893
0.473 2.241 1.582 11096
0.474 2.245 1.575 11212
0.474 2.243 1.564 11336
0.474 2.247 1.558 11559
0.475 2.251 1.551 9144
0.477 2.262 1.549 6749
0.478 2.266 1.542 4757
0.481 2.276 1.540 2817
0.490 2.320 1.558 2639
0.491 2.324 1.551 2576
0.500 2.368 1.569 4144
0.501 2.372 1.562 7009
0.503 2.383 1.559 8018
0.504 2.387 1.552 7204
0.505 2.391 1.545 5837
0.507 2.401 1.542 6080
0.508 2.405 1.535 6332
0.528 2.503 1.584 5708
0.528 2.501 1.573 6113
0.534 2.532 1.581 6039
0.537 2.542 1.577 7045
0.540 2.560 1.578 6355
0.556 2.632 1.609 6700
0.561 2.656 1.613 6386
0.562 2.661 1.605 4937
0.564 2.671 1.601 3612
0.566 2.682 1.597 3565
0.567 2.687 1.589 4062
0.567 2.684 1.577 4646
0.580 2.750 1.603 4274
0.581 2.754 1.595 5051
0.582 2.758 1.587 5918
0.585 2.769 1.582 9562
0.585 2.773 1.574 12338
0.589 2.791 1.573 10795
0.593 2.809 1.572 8904
0.598 2.834 1.575 8423
0.598 2.831 1.563 8221
0.597 2.828 1.551 7051
0.598 2.832 1.543 5491
0.602 2.850 1.542 6643
0.602 2.854 1.533 7406
0.605 2.865 1.528 8169
0.606 2.869 1.520 9700
0.609 2.887 1.518 10495
0.621 2.940 1.534 10518
0.624 2.958 1.532 9852
0.631 2.990 1.536 9691
0.630 2.987 1.524 11240
0.630 2.983 1.512 10669
0.647 3.065 1.540 6669
0.639 3.027 1.511 6372
0.647 3.066 1.518 8016
0.653 3.091 1.519 11121
0.655 3.102 1.513 12829
0.654 3.099 1.501 12903
0.656 3.110 1.495 12440
0.657 3.114 1.486 12522
0.658 3.117 1.477 9437
0.659 3.121 1.468 5393
0.690 3.268 1.520 4916
0.692 3.279 1.513 6728
0.695 3.290 1.507 8676
0.694 3.287 1.494 9574
0.696 3.298 1.487 9189
0.697 3.302 1.478 9581
0.698 3.305 1.468 10583
0.699 3.309 1.458 9296
0.698 3.306 1.445 4723
0.725 3.432 1.485 4929
0.722 3.422 1.469 6943
0.725 3.433 1.462 6845
0.728 3.451 1.457 4598
0.751 3.556 1.486 3806
0.748 3.545 1.470 4557
0.748 3.542 1.457 7007
0.753 3.567 1.455 10650
0.757 3.586 1.450 14507
0.762 3.611 1.447 11214
0.766 3.630 1.442 7679
0.765 3.626 1.428 6675
0.780 3.696 1.441 5389
0.787 3.729 1.441 5462
0.791 3.747 1.435 7149
0.789 3.736 1.419 5898
0.811 3.842 1.443 6183
0.815 3.861 1.437 3896
0.833 3.945 1.453 3979
0.832 3.942 1.439 5099
0.822 3.894 1.410 5697
0.823 3.897 1.399 4372
0.861 4.078 1.445 3132
0.841 3.986 1.402 2692
0.866 4.100 1.425 3186
0.863 4.089 1.409 3435
0.869 4.115 1.403 2980
0.891 4.223 1.423 3036
0.895 4.241 1.415 5278
0.898 4.252 1.405 5998
0.900 4.263 1.395 3882
0.916 4.341 1.404 2464
0.917 4.345 1.391 2628
0.899 4.259 1.353 2463
0.936 4.434 1.389 4065
0.937 4.437 1.376 5730
0.941 4.456 1.367 5620
0.954 4.519 1.370 4708
0.958 4.538 1.361 4562
0.970 4.594 1.362 7337
0.970 4.597 1.348 6908
0.971 4.600 1.335 4884
0.972 4.604 1.321 6688
0.973 4.607 1.308 4358
1.005 4.761 1.332 3905
1.030 4.877 1.346 4290
1.049 4.971 1.354 3283
1.050 4.974 1.340 4553
1.070 5.068 1.347 3501
1.096 5.192 1.360 3391
1.097 5.196 1.345 3287
1.098 5.199 1.330 2612
1.121 5.308 1.339 3073
1.125 5.327 1.326 3253
1.125 5.330 1.310 3615
1.129 5.349 1.298 3768
1.131 5.360 1.284 3964
1.167 5.530 1.304 4869
1.168 5.533 1.287 4442
1.190 5.635 1.291 3612
1.195 5.661 1.279 3364
1.202 5.695 1.268 4402
1.206 5.713 1.255 3972
1.260 5.967 1.286 3378
1.264 5.986 1.272 4572
1.263 5.982 1.253 3257
1.315 6.229 1.280 2697
0.362 1.717 0.441 3152
0.363 1.718 0.437 3755
0.363 1.719 0.432 4000
0.363 1.720 0.427 3691
0.363 1.720 0.422 2506
1.380 6.538 1.217 2502
1.382 6.548 1.199 2771
1.436 6.804 1.220 2441
1.437 6.807 1.200 3612
1.480 7.009 1.211 4718
1.479 7.005 1.189 4233
1.481 7.015 1.169 2563
1.512 7.164 1.170 2554
1.515 7.174 1.149 2744
1.522 7.208 1.132 2048
1.623 7.687 1.176 2427
1.622 7.682 1.152 2783
1.624 7.693 1.130 1629
1.790 8.480 1.207 1411
1.791 8.483 1.182 1501
1.795 8.501 1.158 1214
1.894 8.973 1.188 1108
1.893 8.968 1.161 1366
1.951 9.241 1.164 1319
1.927 9.128 1.124 1163
1.926 9.123 1.096 967
1.951 9.242 1.081 1512
1.951 9.244 1.054 1647
1.952 9.247 1.026 1273
1.936 9.172 0.992 884
1.937 9.175 0.964 696
1.970 9.331 0.951 522
1.970 9.333 0.923 591
1.971 9.336 0.895 432
0.278 1.316 0.095 291
0.278 1.316 0.091 358
0.278 1.316 0.088 415
0.278 1.316 0.084 421
0.278 1.316 0.080 426
0.278 1.316 0.076 366
0.279 1.323 0.072 312
0.434 2.040 1.615 7447
0.435 2.044 1.609 14894
0.436 2.048 1.603 14894
0.437 2.052 1.597 16222
0.439 2.063 1.596 17697
0.440 2.067 1.590 14378
0.442 2.078 1.588 11348
0.443 2.082 1.582 14484
0.443 2.079 1.572 17896
0.443 2.084 1.566 17896
0.446 2.094 1.564 15632
0.448 2.104 1.562 14009
0.452 2.121 1.565 9552
0.465 2.183 1.599 6678
0.470 2.207 1.605 8362
0.472 2.217 1.603 10844
0.474 2.228 1.601 10526
0.475 2.232 1.595 10361
0.476 2.236 1.588 10660
0.477 2.241 1.582 11393
0.478 2.245 1.575 11827
0.477 2.242 1.564 11884
0.478 2.246 1.558 12107
0.479 2.250 1.551 9619
0.480 2.254 1.545 7131
0.481 2.258 1.538 5161
0.494 2.322 1.569 3396
0.494 2.319 1.558 3029
0.494 2.323 1.551 2844
0.504 2.367 1.569 4501
0.505 2.371 1.562 7660
0.506 2.375 1.555 8834
0.508 2.386 1.552 7917
0.507 2.383 1.541 6515
0.509 2.394 1.538 6657
0.512 2.404 1.535 6847
0.535 2.516 1.592 5923
0.532 2.500 1.573 6210
0.540 2.537 1.585 6885
0.542 2.548 1.581 8421
0.545 2.559 1.578 7569
0.560 2.631 1.609 6747
0.564 2.649 1.609 6434
0.566 2.660 1.605 5074
0.568 2.671 1.601 3805
0.571 2.682 1.597 3501
0.572 2.686 1.589 4184
0.571 2.683 1.577 5165
0.586 2.755 1.607 4643
0.586 2.753 1.595 5563
0.587 2.757 1.587 6157
0.588 2.761 1.579 9002
0.590 2.772 1.574 11284
0.594 2.790 1.573 9495
0.598 2.808 1.572 8192
0.603 2.833 1.575 7855
0.601 2.823 1.560 8209
0.602 2.827 1.551 7530
0.605 2.845 1.550 6351
0.606 2.849 1.542 7276
0.607 2.853 1.533 7637
0.610 2.864 1.528 8717
0.612 2.875 1.523 10486
0.613 2.879 1.515 11170
0.625 2.939 1.534 10445
0.629 2.957 1.532 9896
0.635 2.982 1.533 9740
0.635 2.986 1.524 11258
0.635 2.982 1.512 10986
0.652 3.064 1.540 6997
0.644 3.026 1.511 6765
0.651 3.058 1.515 7644
0.658 3.090 1.519 10491
0.658 3.094 1.510 12488
0.659 3.098 1.501 12627
0.662 3.109 1.495 12125
0.662 3.113 1.486 12121
0.663 3.116 1.477 9421
0.664 3.120 1.468 5665
0.697 3.274 1.523 5084
0.698 3.278 1.513 6523
0.698 3.282 1.504 8295
0.699 3.286 1.494 9015
0.700 3.289 1.484 9291
0.702 3.300 1.478 10434
0.703 3.304 1.468 11959
0.706 3.315 1.461 10854
0.702 3.297 1.443 4926
0.724 3.402 1.473 5286
0.726 3.413 1.466 7257
0.730 3.431 1.462 6785
0.751 3.529 1.488 4669
0.755 3.548 1.483 4255
0.754 3.544 1.470 4916
0.754 3.541 1.457 7206
0.757 3.559 1.452 10341
0.763 3.585 1.450 13703
0.768 3.610 1.447 10723
0.772 3.628 1.442 7711
0.772 3.625 1.428 6483
0.788 3.702 1.444 5069
0.793 3.727 1.441 6024
0.797 3.746 1.435 7535
0.795 3.735 1.419 6017
0.819 3.848 1.446 5542
0.823 3.867 1.439 3907
0.839 3.944 1.453 4082
0.839 3.940 1.439 5396
0.828 3.892 1.410 5721
0.829 3.896 1.399 4310
0.869 4.084 1.447 2478
0.846 3.977 1.399 2059
0.849 3.988 1.390 2398
0.868 4.080 1.406 2997
0.888 4.173 1.422 2253
0.898 4.221 1.423 3205
0.901 4.232 1.413 5522
0.903 4.243 1.403 6010
0.904 4.247 1.390 3803
0.900 4.228 1.371 2455
0.923 4.336 1.389 1859
0.912 4.287 1.361 2301
0.920 4.320 1.357 3681
0.944 4.436 1.376 5231
0.946 4.447 1.365 5636
0.962 4.518 1.370 5445
0.965 4.536 1.361 5078
0.977 4.592 1.362 7076
0.976 4.588 1.346 6572
0.979 4.599 1.335 4494
0.981 4.610 1.323 5830
0.980 4.606 1.308 3827
1.034 4.857 1.357 3960
1.036 4.868 1.344 4427
1.058 4.969 1.354 2996
1.058 4.973 1.340 4410
1.059 4.976 1.325 3351
1.077 5.062 1.330 3365
0.236 1.111 0.387 3261
0.237 1.112 0.384 3244
0.237 1.112 0.381 2812
1.135 5.333 1.328 3349
1.134 5.329 1.310 3934
1.138 5.347 1.298 3806
1.140 5.358 1.284 3863
1.177 5.528 1.304 4641
1.177 5.531 1.287 4549
1.186 5.572 1.279 3466
1.208 5.674 1.282 3495
1.212 5.693 1.268 4837
1.216 5.711 1.255 4200
1.270 5.965 1.286 3563
1.272 5.976 1.270 4575
1.273 5.979 1.253 3120
0.365 1.716 0.446 2826
0.365 1.716 0.441 3451
1.338 6.286 1.253 3613
1.344 6.312 1.238 3428
1.370 6.438 1.240 2697
1.398 6.571 1.243 2573
1.393 6.543 1.219 2414
1.393 6.546 1.199 2634
1.396 6.557 1.181 2392
1.448 6.805 1.200 3125
1.491 7.007 1.211 4154
1.489 6.994 1.188 3796
1.483 6.967 1.162 2619
1.524 7.161 1.170 2567
1.526 7.172 1.149 2840
1.534 7.205 1.132 2132
1.635 7.684 1.176 2400
1.636 7.687 1.153 2703
1.637 7.690 1.130 1628
1.803 8.469 1.206 1433
1.805 8.480 1.182 1484
1.807 8.490 1.157 1197
1.909 8.970 1.188 1177
1.907 8.958 1.160 1474
1.966 9.238 1.164 1322
1.970 9.256 1.138 1101
1.951 9.166 1.101 964
1.968 9.246 1.082 1491
1.967 9.241 1.054 1576
1.967 9.244 1.026 1198
1.951 9.169 0.992 835
1.985 9.326 0.978 732
1.985 9.328 0.951 744
1.986 9.330 0.923 817
1.986 9.332 0.895 606
1.987 9.334 0.867 290
0.278 1.308 0.103 267
0.278 1.308 0.099 307
0.278 1.308 0.095 317
0.278 1.308 0.092 285
0.278 1.308 0.088 256
0.441 2.039 1.615 6966
0.441 2.043 1.609 13932
0.442 2.047 1.603 13932
0.443 2.051 1.597 15117
0.446 2.062 1.596 16403
0.448 2.072 1.594 13477
0.449 2.076 1.588 10965
0.450 2.080 1.582 14105
0.449 2.078 1.572 17538
0.450 2.082 1.566 17538
0.452 2.093 1.564 15380
0.456 2.109 1.567 13968
0.458 2.120 1.565 9723
0.470 2.175 1.594 7160
0.477 2.205 1.605 8295
0.479 2.216 1.603 10585
0.480 2.220 1.597 10249
0.482 2.231 1.595 10008
0.483 2.235 1.588 10467
0.484 2.239 1.582 11636
0.485 2.243 1.575 12345
0.484 2.241 1.564 12393
0.485 2.245 1.558 12655
0.486 2.249 1.551 10219
0.487 2.253 1.545 7783
0.486 2.250 1.534 5864
0.503 2.327 1.573 4112
0.502 2.324 1.562 3397
0.502 2.322 1.551 3065
0.511 2.365 1.569 4908
0.512 2.369 1.562 8310
0.513 2.373 1.555 9714
0.514 2.377 1.548 8703
0.512 2.368 1.533 7474
0.517 2.392 1.538 7176
0.518 2.396 1.531 7280
0.543 2.514 1.592 6152
0.544 2.518 1.584 6381
0.549 2.542 1.589 7792
0.550 2.547 1.581 9646
0.553 2.557 1.578 8735
0.567 2.622 1.605 6715
0.572 2.647 1.609 6423
0.574 2.658 1.605 5291
0.575 2.662 1.597 4230
0.578 2.673 1.593 3719
0.580 2.684 1.589 4390
0.579 2.681 1.577 5540
0.594 2.747 1.603 4930
0.594 2.751 1.595 5995
0.595 2.755 1.587 6345
0.596 2.759 1.579 8493
0.597 2.763 1.571 10290
0.603 2.788 1.573 8187
0.606 2.806 1.572 7318
0.612 2.831 1.575 7117
0.610 2.821 1.560 7820
0.610 2.825 1.551 7667
0.614 2.843 1.550 6956
0.615 2.847 1.542 7692
0.618 2.858 1.537 7863
0.618 2.862 1.528 9140
0.621 2.873 1.523 11032
0.622 2.877 1.515 11703
0.635 2.937 1.534 10297
0.638 2.955 1.532 9747
0.644 2.980 1.533 9377
0.643 2.977 1.521 10709
0.644 2.980 1.512 10749
0.654 3.027 1.523 7319
0.656 3.038 1.518 7596
0.657 3.042 1.509 7622
0.669 3.095 1.522 9570
0.668 3.092 1.510 11926
0.669 3.096 1.501 12309
0.671 3.107 1.495 11837
0.672 3.110 1.486 11695
0.673 3.114 1.477 9303
0.675 3.125 1.471 5939
0.707 3.272 1.523 5176
0.708 3.276 1.513 6177
0.707 3.272 1.500 7847
0.708 3.276 1.491 8499
0.710 3.287 1.484 9240
0.713 3.298 1.478 11012
0.715 3.309 1.471 12966
0.716 3.313 1.461 11946
0.712 3.295 1.443 5019
0.733 3.393 1.470 6158
0.734 3.396 1.460 7536
0.741 3.429 1.462 6485
0.761 3.520 1.485 5211
0.752 3.480 1.458 4595
0.765 3.542 1.470 5137
0.765 3.538 1.457 7612
0.769 3.557 1.452 10345
0.774 3.582 1.450 12758
0.780 3.608 1.447 10153
0.784 3.626 1.442 7575
0.784 3.630 1.431 6084
0.801 3.706 1.446 4989
0.807 3.732 1.443 6357
0.809 3.743 1.435 7530
0.805 3.725 1.416 5719
0.833 3.853 1.448 4864
0.837 3.871 1.442 3753
0.852 3.941 1.453 3887
0.851 3.938 1.439 5225
0.842 3.897 1.412 5485
0.841 3.893 1.399 4116
0.885 4.096 1.452 1998
0.841 3.893 1.373 2017
0.868 4.015 1.399 2358
0.881 4.078 1.406 2567
0.909 4.207 1.433 1888
0.912 4.218 1.423 3264
0.912 4.222 1.411 5386
0.915 4.233 1.401 5713
0.916 4.236 1.388 4073
0.915 4.233 1.373 3122
0.919 4.251 1.365 2122
0.966 4.470 1.415 2615
0.933 4.318 1.357 3858
0.958 4.433 1.376 5561
0.960 4.444 1.365 5954
0.976 4.515 1.370 6173
0.981 4.540 1.363 5116
0.992 4.589 1.362 5949
0.992 4.592 1.348 5650
0.993 4.596 1.335 3945
0.996 4.607 1.323 4596
1.029 4.760 1.348 3065
1.049 4.854 1.357 3991
1.050 4.857 1.343 4557
1.073 4.966 1.354 2692
1.074 4.969 1.340 3924
1.094 5.063 1.347 3382
0.238 1.102 0.389 4771
0.238 1.103 0.386 7585
0.238 1.103 0.382 7413
0.239 1.104 0.379 4075
1.153 5.337 1.330 3573
1.151 5.325 1.310 4286
1.155 5.343 1.298 3871
1.157 5.354 1.284 3830
1.192 5.517 1.302 4189
1.195 5.527 1.287 4374
1.203 5.569 1.279 3361
1.227 5.678 1.284 3692
1.231 5.697 1.270 5120
1.232 5.700 1.253 4283
1.288 5.961 1.286 3469
1.291 5.972 1.270 4233
1.291 5.975 1.253 2909
1.346 6.230 1.281 2705
1.350 6.248 1.266 3016
1.358 6.282 1.253 3593
1.363 6.308 1.238 3382
1.390 6.433 1.240 2774
1.419 6.566 1.243 2620
1.413 6.539 1.219 2232
1.414 6.542 1.199 2393
1.426 6.598 1.189 2534
1.470 6.800 1.200 2743
1.513 7.002 1.211 3554
1.506 6.967 1.184 3431
1.503 6.954 1.161 2639
1.547 7.157 1.170 2452
1.549 7.167 1.149 2827
1.558 7.208 1.134 2234
1.661 7.687 1.177 2337
1.660 7.682 1.153 2572
1.667 7.716 1.134 1646
1.827 8.456 1.205 1430
1.831 8.474 1.182 1431
1.834 8.485 1.157 1172
1.936 8.956 1.187 1319
1.934 8.952 1.160 1676
1.937 8.962 1.134 1428
2.001 9.257 1.139 1073
1.978 9.152 1.100 998
1.998 9.248 1.083 1523
1.997 9.242 1.054 1506
1.995 9.230 1.025 1113
2.013 9.317 1.006 1176
2.014 9.319 0.978 1156
2.014 9.322 0.951 1041
2.015 9.324 0.923 1096
2.015 9.326 0.895 796
2.016 9.328 0.867 378
0.442 2.032 1.610 6461
0.443 2.036 1.605 12922
0.444 2.040 1.599 12868
0.446 2.050 1.597 13918
0.449 2.061 1.596 15041
0.451 2.071 1.594 12559
0.452 2.076 1.588 10468
0.453 2.080 1.582 13475
0.452 2.077 1.572 16801
0.453 2.081 1.566 16801
0.455 2.092 1.564 14805
0.459 2.109 1.567 13759
0.463 2.126 1.570 9946
0.471 2.162 1.585 8018
0.478 2.198 1.601 8233
0.482 2.215 1.603 10305
0.483 2.219 1.597 9980
0.485 2.230 1.595 9679
0.486 2.234 1.588 10321
0.487 2.238 1.582 11941
0.488 2.242 1.575 12920
0.488 2.240 1.564 13039
0.488 2.244 1.558 13409
0.488 2.242 1.547 11168
0.489 2.246 1.541 8959
0.490 2.250 1.534 7027
0.492 2.260 1.532 5010
0.493 2.264 1.525 4085
0.505 2.321 1.551 3304
0.515 2.365 1.569 5400
0.516 2.369 1.562 9015
0.515 2.366 1.551 10631
0.516 2.370 1.544 9579
0.515 2.367 1.533 8371
0.519 2.385 1.534 7659
0.521 2.395 1.531 7561
0.548 2.520 1.596 6382
0.549 2.524 1.588 6854
0.553 2.542 1.589 8692
0.556 2.553 1.585 10854
0.556 2.557 1.578 9854
0.571 2.622 1.605 6581
0.576 2.646 1.609 6323
0.577 2.650 1.601 5545
0.579 2.661 1.597 4830
0.582 2.672 1.593 4054
0.584 2.683 1.589 4555
0.583 2.680 1.577 5736
0.598 2.746 1.603 5203
0.599 2.750 1.595 6394
0.599 2.754 1.587 6494
0.600 2.758 1.579 7934
0.601 2.762 1.571 9275
0.604 2.773 1.566 6954
0.610 2.805 1.572 6246
0.616 2.830 1.575 6178
0.612 2.813 1.556 7070
0.615 2.824 1.551 7388
0.619 2.842 1.550 7204
0.621 2.853 1.545 7930
0.622 2.857 1.537 8271
0.623 2.861 1.528 9453
0.625 2.872 1.523 11254
0.626 2.876 1.515 11926
0.640 2.943 1.537 10436
0.643 2.954 1.532 9749
0.648 2.979 1.533 8908
0.646 2.969 1.518 10055
0.647 2.972 1.509 10211
0.660 3.033 1.526 7777
0.661 3.037 1.518 8321
0.660 3.033 1.505 7860
0.673 3.094 1.522 8634
0.673 3.091 1.510 11194
0.674 3.095 1.501 11735
0.676 3.106 1.495 11212
0.677 3.109 1.486 10815
0.678 3.113 1.477 8788
0.682 3.131 1.474 6028
0.695 3.192 1.489 5635
0.699 3.210 1.486 5580
0.710 3.264 1.497 6968
0.711 3.268 1.488 7686
0.715 3.286 1.484 8793
0.718 3.297 1.478 11094
0.720 3.308 1.471 13339
0.722 3.319 1.464 12521
0.734 3.373 1.474 5455
0.738 3.392 1.470 7108
0.739 3.395 1.460 7908
0.744 3.421 1.459 6234
0.766 3.519 1.485 5370
0.749 3.443 1.444 5621
0.771 3.541 1.470 4984
0.770 3.537 1.457 7406
0.772 3.548 1.449 9953
0.778 3.574 1.447 11439
0.785 3.607 1.447 9236
0.789 3.625 1.442 7094
0.793 3.643 1.436 5501
0.808 3.713 1.449 4641
0.812 3.731 1.443 6054
0.814 3.742 1.435 6755
0.809 3.716 1.414 5169
0.838 3.852 1.448 4162
0.842 3.870 1.442 3468
0.826 3.793 1.403 4593
0.858 3.944 1.441 4617
0.848 3.896 1.412 5198
0.847 3.892 1.399 4030
0.874 4.014 1.425 2100
0.876 4.025 1.416 2298
0.877 4.028 1.404 2663
0.871 4.002 1.383 2558
0.875 4.021 1.376 2304
0.918 4.217 1.423 3282
0.919 4.221 1.411 5044
0.921 4.232 1.401 5191
0.920 4.228 1.386 4185
0.921 4.231 1.373 3656
0.928 4.265 1.370 2427
0.974 4.476 1.417 3084
0.959 4.406 1.383 4178
0.963 4.424 1.374 5837
0.967 4.442 1.365 5684
0.982 4.513 1.370 6589
0.988 4.539 1.363 5375
1.000 4.595 1.364 4515
1.001 4.598 1.350 4146
0.990 4.549 1.323 3313
1.002 4.605 1.323 3470
1.036 4.759 1.348 2768
1.056 4.852 1.357 4085
1.057 4.856 1.343 4751
1.059 4.867 1.330 3002
1.081 4.968 1.340 3167
1.102 5.061 1.347 3607
0.240 1.102 0.389 7555
0.238 1.095 0.384 11786
0.238 1.096 0.381 12874
0.240 1.104 0.379 9415
0.240 1.104 0.376 5628
0.242 1.113 0.375 4647
0.241 1.106 0.370 3999
1.167 5.360 1.286 3802
1.199 5.507 1.300 3537
1.201 5.518 1.286 3990
1.213 5.574 1.280 3111
1.235 5.676 1.284 3777
1.239 5.695 1.270 5322
1.240 5.698 1.253 4328
1.297 5.960 1.286 3210
1.299 5.970 1.270 3673
1.300 5.974 1.253 2617
1.296 5.954 1.231 2564
1.359 6.246 1.266 2789
1.363 6.265 1.250 3469
1.371 6.298 1.237 3235
1.400 6.431 1.240 2784
1.427 6.556 1.242 2525
1.423 6.537 1.219 1900
1.475 6.777 1.238 2084
1.434 6.589 1.187 2587
1.479 6.798 1.200 2644
1.478 6.793 1.179 3315
1.477 6.789 1.158 3373
1.511 6.945 1.160 2625
1.554 7.139 1.167 2190
1.561 7.172 1.151 2555
1.567 7.198 1.132 2035
1.672 7.684 1.177 2275
1.673 7.687 1.154 2395
1.679 7.713 1.134 1611
1.688 7.754 1.116 1474
1.844 8.471 1.182 1361
1.764 8.105 1.112 1314
1.950 8.961 1.188 1346
1.949 8.956 1.161 1726
1.950 8.959 1.134 1480
1.894 8.701 1.079 1040
2.015 9.257 1.112 1057
2.019 9.275 1.086 1714
2.019 9.278 1.058 1741
2.027 9.311 1.034 1839
2.027 9.314 1.006 2019
2.028 9.316 0.978 1818
2.028 9.319 0.951 1477
2.029 9.321 0.923 1517
2.029 9.323 0.895 1099
2.030 9.325 0.867 527
2.030 9.327 0.840 322
2.030 9.329 0.812 270
0.449 2.030 1.610 5948
0.450 2.034 1.605 11897
0.451 2.038 1.599 11866
0.453 2.049 1.597 12731
0.454 2.053 1.591 13796
0.458 2.070 1.594 11566
0.460 2.080 1.593 9867
0.460 2.078 1.582 12505
0.459 2.076 1.572 15583
0.460 2.080 1.566 15583
0.463 2.090 1.564 13822
0.466 2.107 1.567 13352
0.470 2.124 1.570 10299
0.477 2.154 1.581 9130
0.483 2.184 1.592 8368
0.490 2.214 1.603 10067
0.491 2.218 1.597 9778
0.489 2.209 1.582 9629
0.494 2.232 1.588 10273
0.495 2.237 1.582 12308
0.496 2.241 1.575 13508
0.495 2.238 1.564 13787
0.495 2.236 1.554 14375
0.496 2.240 1.547 12435
0.497 2.244 1.541 10496
0.497 2.248 1.534 8532
0.500 2.258 1.532 6433
0.501 2.262 1.525 5136
0.513 2.319 1.551 3540
0.521 2.356 1.565 5933
0.522 2.360 1.558 9735
0.523 2.364 1.551 11559
0.523 2.362 1.540 10425
0.524 2.366 1.533 9152
0.526 2.376 1.530 7997
0.530 2.394 1.531 7578
0.557 2.518 1.596 6547
0.560 2.529 1.592 7246
0.564 2.546 1.593 9433
0.564 2.551 1.585 11796
0.565 2.555 1.578 10827
0.568 2.566 1.574 6915
0.585 2.644 1.609 6156
0.586 2.648 1.601 5853
0.589 2.659 1.597 5571
0.591 2.670 1.593 4479
0.593 2.681 1.589 4602
0.593 2.678 1.577 5659
0.607 2.744 1.603 5400
0.608 2.748 1.595 6616
0.609 2.752 1.587 6515
0.608 2.749 1.575 7361
0.609 2.753 1.567 8393
0.610 2.757 1.559 6155
0.622 2.810 1.576 5043
0.626 2.828 1.575 5117
0.621 2.804 1.552 5967
0.625 2.822 1.551 6843
0.629 2.840 1.550 7431
0.631 2.851 1.545 8307
0.633 2.862 1.540 9084
0.634 2.866 1.532 9752
0.635 2.870 1.523 10986
0.636 2.874 1.515 11633
0.651 2.940 1.537 10821
0.653 2.951 1.532 9996
0.659 2.976 1.533 8364
0.655 2.959 1.514 9322
0.657 2.970 1.509 9236
0.672 3.037 1.530 7577
0.672 3.034 1.518 8262
0.671 3.031 1.505 7411
0.684 3.092 1.522 7793
0.684 3.088 1.510 10355
0.684 3.092 1.501 11001
0.687 3.103 1.495 10354
0.688 3.107 1.486 9597
0.689 3.111 1.477 7850
0.708 3.200 1.505 6778
0.708 3.197 1.492 6826
0.708 3.201 1.483 6269
0.712 3.219 1.479 7007
0.715 3.230 1.473 7615
0.725 3.277 1.481 7931
0.729 3.295 1.478 10549
0.733 3.313 1.474 13053
0.734 3.317 1.464 12686
0.746 3.371 1.474 6499
0.750 3.389 1.470 7897
0.751 3.393 1.460 8119
0.752 3.396 1.450 6172
0.778 3.516 1.485 5454
0.761 3.440 1.444 6588
0.767 3.466 1.442 5552
0.781 3.527 1.454 7328
0.783 3.538 1.446 9444
0.790 3.571 1.447 9919
0.798 3.604 1.447 8190
0.802 3.622 1.442 6467
0.807 3.648 1.439 5118
0.821 3.710 1.449 3941
0.825 3.728 1.443 4965
0.829 3.746 1.437 5573
0.820 3.706 1.411 4499
0.819 3.702 1.398 4294
0.838 3.787 1.414 3197
0.839 3.790 1.403 5389
0.843 3.809 1.397 5340
0.850 3.842 1.395 4681
0.861 3.889 1.399 3782
0.889 4.018 1.428 2690
0.890 4.022 1.416 2722
0.891 4.025 1.404 3116
0.888 4.014 1.388 3383
0.891 4.025 1.378 3901
0.933 4.214 1.423 3240
0.933 4.217 1.411 4495
0.934 4.221 1.398 4541
0.935 4.224 1.386 4086
0.936 4.228 1.373 3826
0.940 4.246 1.365 2594
0.982 4.436 1.406 3143
0.974 4.402 1.383 4270
0.978 4.421 1.374 5250
0.996 4.499 1.382 4948
0.998 4.510 1.370 6440
1.004 4.536 1.363 5575
1.016 4.591 1.364 3090
1.017 4.595 1.350 2891
1.006 4.546 1.323 3135
1.007 4.549 1.310 3279
1.054 4.762 1.350 2507
1.075 4.856 1.359 4100
1.074 4.852 1.343 4658
1.075 4.855 1.328 3183
0.242 1.092 0.393 2888
0.242 1.093 0.390 6200
0.240 1.086 0.385 9766
0.240 1.086 0.382 13418
0.241 1.087 0.379 15577
0.242 1.095 0.378 12896
0.243 1.096 0.374 8781
0.243 1.097 0.371 6069
0.243 1.097 0.368 4042
1.185 5.356 1.286 3672
1.216 5.495 1.299 2936
1.219 5.506 1.284 3604
1.234 5.578 1.282 2855
1.257 5.680 1.285 3901
1.259 5.690 1.270 5375
1.260 5.694 1.253 4274
1.316 5.947 1.285 2824
1.320 5.966 1.270 2889
1.350 6.098 1.277 2566
1.352 6.109 1.260 2592
1.321 5.968 1.216 2652
1.385 6.260 1.250 3292
1.391 6.286 1.235 3035
1.422 6.426 1.240 2829
1.421 6.422 1.220 2644
1.420 6.417 1.200 2112
1.499 6.771 1.238 2479
1.499 6.774 1.218 2730
1.502 6.785 1.199 2689
1.502 6.788 1.179 3226
1.501 6.783 1.158 3180
1.571 7.100 1.184 2653
1.575 7.118 1.165 2104
1.586 7.167 1.151 2326
1.589 7.177 1.130 1800
1.701 7.686 1.178 2149
1.702 7.689 1.155 2240
1.706 7.707 1.134 1607
1.715 7.748 1.116 1554
1.792 8.096 1.136 1617
1.792 8.099 1.112 1701
1.791 8.094 1.087 1443
1.981 8.950 1.161 1685
1.981 8.952 1.134 1457
1.919 8.671 1.077 1136
2.051 9.265 1.113 1127
2.051 9.268 1.086 1968
2.059 9.302 1.061 2258
2.059 9.304 1.034 2721
2.060 9.307 1.006 2884
2.060 9.309 0.978 2450
2.061 9.312 0.951 1834
2.061 9.314 0.923 1818
2.062 9.316 0.895 1342
2.062 9.318 0.867 666
2.063 9.320 0.840 381
2.063 9.322 0.812 297
0.425 1.920 -0.083 259
0.453 2.023 1.606 5555
0.454 2.027 1.600 11110
0.455 2.031 1.594 11002
0.458 2.041 1.593 11821
0.460 2.052 1.591 12756
0.464 2.069 1.594 10576
0.466 2.079 1.593 9140
0.466 2.077 1.582 11274
0.465 2.075 1.572 13981
0.466 2.079 1.566 13981
0.468 2.089 1.564 12547
0.474 2.112 1.571 13114
0.477 2.129 1.574 10878
0.483 2.152 1.581 10291
0.486 2.169 1.584 8944
0.496 2.212 1.603 9943
0.497 2.216 1.597 9709
0.495 2.208 1.582 9887
0.499 2.225 1.584 10387
0.501 2.235 1.582 12776
0.502 2.239 1.575 14153
0.501 2.237 1.564 14672
0.501 2.234 1.554 15558
0.502 2.238 1.547 13928
0.501 2.236 1.536 12309
0.504 2.246 1.534 10230
0.506 2.257 1.532 7964
0.507 2.261 1.525 6296
0.509 2.271 1.523 3928
0.528 2.355 1.565 6330
0.529 2.359 1.558 10185
0.530 2.363 1.551 12127
0.529 2.360 1.540 11065
0.530 2.364 1.533 9680
0.532 2.375 1.530 8237
0.535 2.385 1.528 7501
0.566 2.523 1.600 6675
0.568 2.534 1.596 7560
0.571 2.545 1.593 9935
0.571 2.549 1.585 12362
0.572 2.553 1.578 11507
0.575 2.564 1.574 7498
0.592 2.642 1.609 5912
0.593 2.647 1.601 6060
0.594 2.651 1.593 6207
0.592 2.641 1.578 4897
0.601 2.679 1.589 4506
0.602 2.683 1.581 5379
0.615 2.742 1.603 5506
0.616 2.746 1.595 6650
0.617 2.750 1.587 6426
0.616 2.748 1.575 6893
0.614 2.738 1.560 7742
0.615 2.742 1.552 5787
0.633 2.822 1.583 4203
0.635 2.833 1.578 4485
0.627 2.795 1.549 4968
0.634 2.827 1.555 6297
0.636 2.838 1.550 7574
0.639 2.849 1.545 8571
0.641 2.860 1.540 9799
0.642 2.864 1.532 9888
0.643 2.868 1.523 10453
0.644 2.872 1.515 11057
0.659 2.939 1.537 11346
0.661 2.950 1.532 10499
0.661 2.946 1.520 8230
0.663 2.957 1.514 8641
0.665 2.968 1.509 7962
0.681 3.036 1.530 7106
0.681 3.039 1.521 7831
0.679 3.029 1.505 6619
0.693 3.090 1.522 7391
0.692 3.087 1.510 9832
0.693 3.090 1.501 10330
0.695 3.101 1.495 9283
0.696 3.105 1.486 8051
0.697 3.109 1.477 6629
0.719 3.205 1.508 8055
0.718 3.202 1.495 8127
0.719 3.206 1.486 6647
0.721 3.217 1.479 6763
0.722 3.221 1.470 7622
0.726 3.239 1.466 7457
0.740 3.300 1.480 9517
0.742 3.311 1.474 12238
0.745 3.322 1.467 12310
0.755 3.369 1.474 7256
0.759 3.387 1.470 8409
0.760 3.391 1.460 8197
0.761 3.394 1.450 6351
0.767 3.420 1.449 5544
0.774 3.452 1.450 6758
0.778 3.471 1.445 6151
0.789 3.518 1.451 7471
0.791 3.529 1.444 9312
0.800 3.569 1.447 8813
0.806 3.594 1.444 7220
0.810 3.613 1.439 5628
0.821 3.660 1.444 4837
0.818 3.649 1.428 3511
0.840 3.748 1.451 3948
0.841 3.751 1.440 4322
0.830 3.704 1.411 3933
0.828 3.693 1.395 4320
0.848 3.784 1.414 3347
0.851 3.795 1.406 5684
0.853 3.806 1.397 5745
0.859 3.832 1.393 4505
0.865 3.857 1.389 3585
0.900 4.016 1.428 3109
0.901 4.019 1.416 2985
0.902 4.023 1.404 3529
0.901 4.019 1.390 4594
0.902 4.023 1.378 5411
0.904 4.034 1.368 3421
0.945 4.215 1.411 4075
0.946 4.218 1.398 4079
0.948 4.229 1.388 3854
0.947 4.225 1.373 3620
0.973 4.340 1.393 2891
0.974 4.344 1.381 4143
0.985 4.392 1.381 3968
0.992 4.425 1.376 4583
1.006 4.488 1.380 4939
1.012 4.514 1.373 6291
1.016 4.533 1.363 5836
1.017 4.536 1.350 3651
1.018 4.540 1.336 2958
1.020 4.551 1.325 3068
1.019 4.546 1.310 3010
1.067 4.760 1.350 2425
1.086 4.845 1.357 4228
1.087 4.849 1.343 4762
1.088 4.852 1.328 3140
0.243 1.084 0.391 3330
0.243 1.084 0.388 7569
0.242 1.078 0.383 9634
0.242 1.078 0.380 10691
0.244 1.086 0.379 13892
0.244 1.087 0.376 13490
0.244 1.088 0.373 9612
0.244 1.089 0.370 6486
0.244 1.089 0.367 3963
1.202 5.360 1.287 3675
1.201 5.356 1.270 2562
1.232 5.495 1.282 3112
1.253 5.590 1.285 2621
1.273 5.676 1.285 4034
1.275 5.687 1.270 5449
1.276 5.690 1.253 4110
1.332 5.944 1.285 2345
1.364 6.084 1.294 2572
1.366 6.094 1.277 2646
1.369 6.105 1.260 2570
1.369 6.108 1.242 2693
1.403 6.256 1.250 2972
1.407 6.275 1.234 2743
1.440 6.422 1.240 2684
1.439 6.418 1.220 2729
1.438 6.413 1.200 2420
1.517 6.767 1.238 2775
1.518 6.770 1.218 3065
1.522 6.789 1.200 2950
1.521 6.784 1.179 3274
1.520 6.779 1.158 3026
1.589 7.088 1.183 2597
1.595 7.114 1.165 2060
1.607 7.170 1.152 2085
1.673 7.464 1.171 1736
1.722 7.681 1.178 1977
1.723 7.684 1.155 2070
1.727 7.702 1.134 1572
1.870 8.342 1.192 1688
1.814 8.091 1.136 1874
1.815 8.094 1.112 2011
1.814 8.089 1.087 1687
2.005 8.944 1.161 1628
2.008 8.955 1.135 1428
1.943 8.666 1.077 1199
2.078 9.268 1.114 1267
2.077 9.263 1.086 2233
2.084 9.296 1.061 2906
2.085 9.299 1.034 3664
2.085 9.301 1.006 3812
2.086 9.304 0.978 3118
2.086 9.306 0.951 2154
2.087 9.308 0.923 2032
2.087 9.310 0.895 1537
2.088 9.312 0.867 814
2.088 9.314 0.840 460
2.089 9.316 0.812 335
2.089 9.318 0.784 287
0.262 1.169 0.023 250
0.262 1.168 0.020 254
0.428 1.911 -0.083 289
0.455 2.016 1.601 5338
0.456 2.020 1.595 10677
0.459 2.030 1.594 10479
0.460 2.034 1.588 11087
0.462 2.045 1.587 11904
0.467 2.068 1.594 9479
0.470 2.078 1.593 8132
0.469 2.076 1.582 9657
0.469 2.074 1.572 11867
0.469 2.078 1.566 11867
0.472 2.088 1.564 10883
0.478 2.118 1.576 13066
0.482 2.135 1.578 11625
0.486 2.152 1.581 11589
0.489 2.162 1.579 9894
0.500 2.211 1.603 9920
0.498 2.203 1.588 9843
0.497 2.200 1.577 10299
0.499 2.211 1.575 10795
0.505 2.234 1.582 13374
0.506 2.238 1.575 14922
0.505 2.236 1.564 15766
0.505 2.234 1.554 17028
0.506 2.238 1.547 15743
0.505 2.235 1.536 14512
0.507 2.246 1.534 12244
0.508 2.250 1.527 9764
0.511 2.260 1.525 7752
0.513 2.271 1.523 4859
0.530 2.347 1.561 6705
0.531 2.351 1.554 10569
0.532 2.355 1.547 12503
0.533 2.359 1.540 11542
0.534 2.363 1.533 10093
0.535 2.367 1.526 8322
0.539 2.385 1.528 7222
0.570 2.522 1.600 6611
0.574 2.540 1.600 7718
0.575 2.544 1.593 10093
0.576 2.548 1.585 12469
0.577 2.552 1.578 11860
0.579 2.563 1.574 7959
0.598 2.648 1.613 5636
0.599 2.652 1.605 6219
0.599 2.650 1.593 6827
0.597 2.640 1.578 5382
0.596 2.638 1.566 4476
0.608 2.689 1.585 4994
0.619 2.741 1.603 5591
0.620 2.745 1.595 6570
0.621 2.749 1.587 6188
0.619 2.740 1.571 6308
0.617 2.730 1.556 7099
0.618 2.734 1.548 5589
0.622 2.752 1.547 4402
0.623 2.756 1.539 4725
0.627 2.774 1.538 4509
0.640 2.833 1.558 5806
0.641 2.837 1.550 7501
0.643 2.848 1.545 8567
0.646 2.859 1.540 10160
0.647 2.863 1.532 9765
0.648 2.867 1.523 9597
0.649 2.871 1.515 10147
0.664 2.937 1.537 11532
0.665 2.941 1.528 10924
0.665 2.945 1.520 8551
0.666 2.949 1.511 8060
0.669 2.960 1.506 6596
0.687 3.041 1.533 6246
0.686 3.038 1.521 6990
0.684 3.028 1.505 5438
0.701 3.103 1.529 7227
0.697 3.085 1.510 9000
0.698 3.089 1.501 9354
0.700 3.100 1.495 8398
0.703 3.111 1.489 7043
0.702 3.108 1.477 6205
0.726 3.211 1.511 8855
0.723 3.201 1.495 8918
0.724 3.205 1.486 6716
0.727 3.216 1.479 6346
0.726 3.212 1.467 7473
0.727 3.216 1.457 7503
0.745 3.299 1.480 8136
0.749 3.317 1.477 10889
0.750 3.321 1.467 11563
0.761 3.367 1.474 7597
0.765 3.386 1.470 8550
0.766 3.389 1.460 8110
0.768 3.400 1.453 6424
0.772 3.419 1.449 5249
0.783 3.466 1.455 5954
0.785 3.477 1.448 5959
0.793 3.509 1.449 7382
0.795 3.520 1.441 9181
0.804 3.560 1.444 8530
0.812 3.593 1.444 6283
0.814 3.604 1.436 4551
0.828 3.666 1.447 4852
0.824 3.648 1.428 4041
0.825 3.651 1.417 4195
0.826 3.655 1.407 3936
0.828 3.666 1.398 4155
0.832 3.684 1.393 4544
0.853 3.776 1.412 3534
0.857 3.794 1.406 5720
0.860 3.805 1.397 5888
0.865 3.830 1.393 4264
0.899 3.981 1.430 3466
0.905 4.007 1.425 3530
0.906 4.010 1.414 3259
0.907 4.014 1.402 3905
0.908 4.018 1.390 5766
0.910 4.029 1.380 6627
0.913 4.039 1.371 4023
0.950 4.206 1.409 3719
0.953 4.217 1.398 3508
0.955 4.228 1.388 3272
0.946 4.187 1.362 3324
0.980 4.339 1.393 3227
0.983 4.350 1.383 4635
0.978 4.331 1.364 3759
0.999 4.424 1.376 4101
1.010 4.472 1.375 4546
1.020 4.513 1.373 5904
1.024 4.531 1.363 6647
1.026 4.542 1.352 4685
1.027 4.545 1.338 4175
1.028 4.549 1.325 3596
1.027 4.545 1.310 2708
1.085 4.803 1.362 2484
1.094 4.844 1.357 4243
1.095 4.847 1.343 4889
1.111 4.918 1.345 3298
0.243 1.076 0.389 3183
0.243 1.076 0.386 6688
0.243 1.077 0.383 7572
0.244 1.078 0.380 6904
0.244 1.079 0.377 10484
0.244 1.079 0.374 11467
0.242 1.072 0.369 8223
0.244 1.081 0.368 5550
1.212 5.363 1.305 3286
1.212 5.366 1.289 3594
1.211 5.362 1.271 2274
1.241 5.493 1.282 2536
1.264 5.595 1.286 2691
1.280 5.666 1.284 3981
1.283 5.677 1.268 5384
1.287 5.696 1.255 3790
0.382 1.693 0.458 3275
0.383 1.694 0.453 3817
0.383 1.695 0.449 4062
0.383 1.696 0.444 3870
0.383 1.697 0.439 3245
1.380 6.109 1.224 3142
1.381 6.112 1.206 3108
1.449 6.412 1.239 2479
1.448 6.408 1.219 2859
1.447 6.403 1.198 2701
1.528 6.765 1.238 2951
1.529 6.768 1.218 3432
1.535 6.794 1.201 3266
1.532 6.781 1.179 3091
1.533 6.784 1.159 2584
1.601 7.085 1.183 2469
1.605 7.104 1.164 1933
1.573 6.961 1.122 1985
1.686 7.461 1.171 1821
1.737 7.686 1.179 1822
1.737 7.689 1.156 1958
1.738 7.692 1.133 1551
1.884 8.338 1.192 1837
1.827 8.088 1.136 2081
1.828 8.091 1.112 2285
1.829 8.094 1.088 1936
2.022 8.948 1.162 1475
2.022 8.951 1.135 1318
2.040 9.031 1.117 1301
2.095 9.272 1.115 1513
2.094 9.267 1.087 2637
2.098 9.285 1.061 3703
2.100 9.295 1.034 4734
2.101 9.298 1.006 4763
2.101 9.300 0.978 3689
2.102 9.302 0.951 2334
2.102 9.305 0.923 2080
2.103 9.307 0.895 1631
2.103 9.309 0.867 930
2.104 9.311 0.840 530
2.104 9.313 0.812 382
2.104 9.315 0.784 358
0.264 1.170 0.040 272
0.266 1.177 0.036 305
0.266 1.177 0.032 310
0.264 1.169 0.030 317
0.264 1.169 0.026 311
0.264 1.168 0.023 310
0.264 1.168 0.020 316
0.266 1.175 0.016 289
0.265 1.175 0.012 262
0.264 1.166 0.006 273
0.460 2.008 1.596 5416
0.461 2.012 1.591 10832
0.463 2.023 1.589 10427
0.466 2.033 1.588 10806
0.467 2.037 1.582 11483
0.466 2.035 1.572 8531
0.476 2.077 1.593 6989
0.475 2.075 1.582 7906
0.475 2.072 1.572 9553
0.476 2.076 1.566 9553
0.482 2.106 1.577 9966
0.486 2.123 1.580 13176
0.489 2.133 1.578 12506
0.492 2.150 1.581 12842
0.493 2.154 1.575 10967
0.506 2.210 1.603 10057
0.503 2.195 1.584 10170
0.504 2.199 1.577 10937
0.506 2.209 1.575 11325
0.511 2.233 1.582 13984
0.512 2.237 1.575 15663
0.512 2.235 1.564 16846
0.511 2.232 1.554 18472
0.512 2.236 1.547 17505
0.512 2.234 1.536 16615
0.514 2.244 1.534 14189
0.515 2.248 1.527 11523
0.517 2.259 1.525 9242
0.518 2.263 1.518 5950
0.537 2.346 1.561 6959
0.538 2.350 1.554 10670
0.539 2.354 1.547 12587
0.540 2.358 1.540 11654
0.541 2.362 1.533 10183
0.542 2.366 1.526 8183
0.546 2.383 1.528 6723
0.579 2.527 1.604 6397
0.581 2.538 1.600 7643
0.584 2.549 1.597 9847
0.585 2.553 1.589 12124
0.584 2.550 1.578 11778
0.585 2.555 1.570 8210
0.606 2.646 1.613 5280
0.607 2.651 1.605 6218
0.606 2.648 1.593 7194
0.604 2.638 1.578 5681
0.604 2.636 1.566 4426
0.625 2.728 1.607 4873
0.627 2.739 1.603 5606
0.628 2.743 1.595 6343
0.629 2.748 1.587 5827
0.621 2.711 1.557 5874
0.623 2.721 1.553 6498
0.626 2.732 1.548 5422
0.630 2.750 1.547 4803
0.631 2.754 1.539 5120
0.633 2.765 1.535 4683
0.648 2.831 1.558 5636
0.649 2.835 1.550 7276
0.653 2.853 1.549 8566
0.654 2.857 1.540 10356
0.655 2.861 1.532 9543
0.654 2.858 1.520 8706
0.655 2.862 1.512 9158
0.672 2.936 1.537 11037
0.673 2.939 1.528 10931
0.672 2.936 1.516 8765
0.673 2.940 1.508 7465
0.676 2.951 1.502 5380
0.696 3.039 1.533 5536
0.697 3.043 1.524 6289
0.703 3.068 1.525 5024
0.710 3.101 1.529 7320
0.708 3.090 1.513 8101
0.707 3.087 1.501 8279
0.711 3.105 1.498 7894
0.712 3.109 1.489 6805
0.711 3.106 1.477 6150
0.735 3.209 1.511 9090
0.733 3.199 1.495 9005
0.733 3.203 1.486 6724
0.734 3.206 1.476 6227
0.734 3.203 1.464 7684
0.736 3.214 1.457 7832
0.757 3.304 1.483 6848
0.759 3.315 1.477 9475
0.760 3.318 1.467 10597
0.774 3.380 1.480 7659
0.775 3.383 1.470 8259
0.777 3.394 1.463 7602
0.778 3.398 1.453 6294
0.782 3.416 1.449 4728
0.795 3.471 1.458 5283
0.797 3.481 1.451 5772
0.801 3.500 1.446 7591
0.804 3.511 1.438 8987
0.815 3.558 1.444 8574
0.816 3.562 1.434 6164
0.825 3.602 1.436 4477
0.836 3.649 1.442 5199
0.835 3.645 1.428 4908
0.837 3.656 1.420 4705
0.836 3.653 1.407 4624
0.839 3.663 1.398 4787
0.841 3.674 1.390 4734
0.864 3.773 1.412 3706
0.870 3.799 1.408 5956
0.872 3.810 1.399 5916
0.877 3.828 1.393 4030
0.911 3.978 1.430 3727
