-1.062 2.776 1.786 6187
-1.073 2.806 1.793 5799
-1.077 2.817 1.788 6555
-1.079 2.822 1.780 6299
-1.081 2.826 1.771 6044
-1.082 2.831 1.762 4950
-1.114 2.913 1.799 4083
-1.121 2.931 1.798 4007
-1.110 2.903 1.770 6181
-1.112 2.907 1.761 8970
-1.116 2.918 1.756 8527
-1.125 2.942 1.758 6452
-1.147 2.999 1.778 5550
-1.131 2.957 1.743 4907
-1.138 2.975 1.741 4270
-1.144 2.993 1.739 3737
-1.159 3.030 1.748 6135
-1.163 3.041 1.742 8691
-1.164 3.045 1.733 9233
-1.169 3.056 1.727 8069
-1.208 3.160 1.770 7322
-1.208 3.158 1.757 7918
-1.209 3.162 1.747 8548
-1.231 3.220 1.765 8222
-1.246 3.258 1.772 8226
-1.258 3.289 1.775 10189
-1.262 3.300 1.769 12137
-1.264 3.305 1.758 11025
-1.268 3.316 1.752 11087
-1.272 3.327 1.745 9265
-1.271 3.324 1.731 5935
-1.306 3.416 1.763 6987
-1.305 3.414 1.749 7803
-1.307 3.418 1.739 7570
-1.309 3.423 1.728 6425
-1.310 3.427 1.718 5457
-1.317 3.445 1.714 4481
-1.397 3.653 1.797 3593
-1.393 3.644 1.779 3625
-1.390 3.635 1.762 4106
-1.389 3.632 1.748 4732
-1.391 3.637 1.736 4899
-1.416 3.703 1.752 5147
-1.451 3.796 1.780 5172
-1.451 3.794 1.765 4413
-1.497 3.915 1.804 6816
-1.496 3.912 1.789 12553
-1.492 3.903 1.771 12435
-1.489 3.894 1.753 9935
-1.491 3.898 1.741 7399
-1.524 3.985 1.763 5936
-1.523 3.983 1.748 5673
-1.519 3.973 1.730 5097
-1.621 4.241 1.824 3837
-1.621 4.238 1.808 5289
-1.620 4.236 1.792 5268
-1.621 4.240 1.779 4493
-1.626 4.252 1.769 4800
-1.635 4.277 1.763 5053
-1.658 4.337 1.772 3520
-1.665 4.356 1.763 5805
-1.667 4.360 1.750 5797
-1.674 4.378 1.742 3156
-1.719 4.495 1.769 2684
-1.720 4.499 1.755 3367
-1.725 4.510 1.744 3068
-1.769 4.627 1.770 3610
-1.774 4.639 1.758 4147
-1.765 4.615 1.734 3290
-1.823 4.767 1.771 3662
-1.822 4.764 1.754 4924
-1.848 4.832 1.760 4059
-1.841 4.815 1.738 4684
-1.840 4.813 1.721 4550
-1.842 4.817 1.706 3346
-1.849 4.835 1.696 3085
-1.859 4.861 1.688 3605
-1.901 4.971 1.707 2567
-1.908 4.990 1.696 3212
-1.934 5.058 1.700 3948
-1.938 5.069 1.687 2564
-1.981 5.180 1.704 2450
-1.982 5.184 1.688 1921
-2.006 5.246 1.689 2077
-2.043 5.342 1.700 2409
-2.083 5.447 1.712 3223
-2.079 5.436 1.691 2749
-2.157 5.641 1.731 3361
-2.159 5.645 1.714 3137
-2.234 5.843 1.750 3910
-2.233 5.840 1.730 4997
-2.235 5.844 1.712 5513
-2.239 5.856 1.696 4495
-2.243 5.867 1.680 2556
-2.360 6.173 1.740 2670
-2.367 6.192 1.725 3601
-2.375 6.210 1.709 4469
-2.379 6.222 1.692 3904
-2.378 6.219 1.671 2841
-2.459 6.432 1.703 2678
-2.461 6.436 1.683 1937
-2.537 6.635 1.709 2273
-2.539 6.639 1.689 1698
-2.681 7.012 1.754 1293
-2.716 7.103 1.752 1643
-2.718 7.108 1.730 1838
-2.814 7.358 1.762 1192
-2.782 7.276 1.720 1037
-2.745 7.178 1.676 1719
-2.749 7.190 1.655 1875
-2.976 7.782 1.756 1593
-3.185 8.331 1.844 1703
-3.076 8.045 1.759 1592
-3.197 8.362 1.796 1285
-3.191 8.344 1.766 1401
-3.365 8.800 1.827 1258
-3.367 8.805 1.800 1407
-3.368 8.809 1.773 959
-3.256 8.515 1.690 425
-1.238 3.237 -0.130 315
-1.238 3.237 -0.140 402
-1.237 3.236 -0.149 357
-1.367 3.574 -0.191 404
-1.363 3.566 -0.202 451
-1.363 3.565 -0.212 499
-1.363 3.564 -0.223 499
-1.362 3.563 -0.234 456
-1.618 4.231 -0.319 439
-1.617 4.230 -0.332 374
-1.614 4.221 -0.344 313
-0.838 2.206 1.791 2198
-0.840 2.210 1.784 4396
-0.841 2.215 1.778 4396
-0.845 2.225 1.775 6318
-0.847 2.230 1.769 8281
-0.851 2.240 1.766 7850
-0.857 2.257 1.769 8087
-0.859 2.261 1.762 8087
-0.870 2.290 1.773 8728
-0.872 2.294 1.766 9730
-0.873 2.299 1.759 7893
-0.877 2.309 1.756 6077
-0.900 2.369 1.788 5681
-0.904 2.380 1.785 5556
-0.906 2.384 1.778 5556
-0.905 2.383 1.767 8341
-0.905 2.381 1.755 11172
-0.906 2.385 1.748 10428
-0.913 2.402 1.749 10086
-0.917 2.413 1.746 6783
-0.952 2.505 1.798 8137
-0.958 2.522 1.798 8083
-0.965 2.539 1.799 8654
-0.969 2.550 1.796 7655
-0.973 2.561 1.792 6854
-0.975 2.565 1.784 6202
-0.957 2.519 1.743 5699
-0.980 2.580 1.772 5825
-0.982 2.585 1.764 6076
-0.986 2.596 1.761 5402
-0.990 2.606 1.757 4962
-1.026 2.700 1.805 3904
-1.013 2.666 1.773 3645
-1.049 2.760 1.820 4231
-1.048 2.758 1.808 5121
-1.052 2.769 1.803 5586
-1.059 2.787 1.803 6404
-1.053 2.772 1.782 5974
-1.067 2.809 1.793 6254
-1.071 2.820 1.788 7461
-1.073 2.824 1.780 6731
-1.075 2.829 1.771 6002
-1.076 2.833 1.762 4515
-1.086 2.857 1.765 3678
-1.090 2.868 1.760 4274
-1.094 2.879 1.755 5623
-1.103 2.903 1.757 7926
-1.107 2.914 1.752 7336
-1.116 2.938 1.754 6017
-1.143 3.008 1.782 5686
-1.125 2.960 1.743 5388
-1.131 2.977 1.741 4874
-1.135 2.988 1.736 4264
-1.147 3.019 1.741 5344
-1.156 3.043 1.742 7704
-1.160 3.054 1.737 8631
-1.162 3.059 1.727 8180
-1.204 3.169 1.773 6615
-1.203 3.167 1.760 7111
-1.220 3.212 1.771 8386
-1.224 3.223 1.765 7845
-1.239 3.260 1.772 8329
-1.251 3.292 1.775 10554
-1.255 3.303 1.769 12533
-1.259 3.314 1.762 11485
-1.261 3.318 1.752 12156
-1.262 3.323 1.741 10257
-1.262 3.320 1.728 6894
-1.297 3.412 1.760 7084
-1.298 3.417 1.749 8190
-1.297 3.414 1.736 7977
-1.302 3.426 1.728 6680
-1.303 3.430 1.718 5756
-1.310 3.448 1.714 4824
-1.312 3.452 1.703 3836
-1.383 3.640 1.776 3657
-1.382 3.638 1.762 4518
-1.381 3.635 1.748 5695
-1.385 3.647 1.739 6384
-1.403 3.692 1.746 5610
-1.443 3.799 1.780 4719
-1.440 3.790 1.762 4528
-1.486 3.911 1.801 7354
-1.488 3.915 1.789 12557
-1.484 3.906 1.771 12489
-1.481 3.897 1.753 10899
-1.482 3.901 1.741 8524
-1.484 3.906 1.729 5574
-1.512 3.979 1.745 5798
-1.542 4.060 1.764 4984
-1.549 4.078 1.757 3691
-1.612 4.242 1.808 4886
-1.608 4.232 1.789 5346
-1.570 4.133 1.735 4588
-1.574 4.144 1.725 4642
-1.626 4.281 1.763 5127
-1.647 4.334 1.769 3590
-1.656 4.359 1.763 6464
-1.658 4.364 1.750 6491
-1.665 4.382 1.742 3159
-1.701 4.477 1.761 2886
-1.708 4.496 1.753 3159
-1.712 4.507 1.741 2936
-1.706 4.490 1.720 3886
-1.713 4.509 1.711 4032
-1.757 4.626 1.736 3373
-1.810 4.764 1.768 3645
-1.809 4.761 1.751 5365
-1.805 4.751 1.732 4182
-1.831 4.819 1.738 4428
-1.830 4.817 1.721 4470
-1.834 4.828 1.709 3220
-1.839 4.839 1.696 2926
-1.848 4.865 1.688 3599
-1.890 4.975 1.707 2582
-1.900 5.001 1.698 3017
-1.923 5.062 1.700 3921
-1.928 5.073 1.687 2644
-1.970 5.184 1.704 2736
-1.971 5.189 1.688 2198
-1.997 5.257 1.691 2189
-2.067 5.439 1.727 2167
-2.068 5.444 1.710 3485
-2.070 5.448 1.693 3229
-2.145 5.645 1.731 3321
-2.147 5.650 1.714 3298
-2.219 5.840 1.748 3339
-2.223 5.852 1.732 3822
-2.225 5.856 1.714 4401
-2.227 5.860 1.696 4112
-2.234 5.879 1.681 2540
-2.235 5.883 1.663 2525
-2.354 6.197 1.725 3262
-2.361 6.215 1.709 4116
-2.366 6.227 1.692 3801
-2.365 6.224 1.671 2799
-2.446 6.437 1.703 2407
-2.447 6.441 1.683 1690
-2.523 6.641 1.709 2038
-2.525 6.645 1.689 1607
-2.584 6.801 1.703 1422
-2.701 7.109 1.752 1720
-2.705 7.121 1.731 1960
-2.798 7.364 1.762 1288
-2.725 7.173 1.697 1299
-2.730 7.184 1.676 2458
-2.734 7.196 1.655 2752
-2.736 7.200 1.633 2136
-3.165 8.330 1.842 1440
-3.054 8.037 1.756 1541
-3.180 8.369 1.796 1100
-3.170 8.344 1.765 1406
-3.346 8.807 1.827 1421
-3.348 8.812 1.800 1566
-3.350 8.816 1.773 1078
-3.351 8.821 1.745 487
-3.353 8.825 1.718 379
-3.355 8.829 1.690 358
-1.611 4.239 -0.267 330
-1.610 4.238 -0.280 417
-1.610 4.237 -0.293 432
-1.609 4.236 -0.306 447
-1.609 4.234 -0.319 447
-1.608 4.233 -0.332 394
-1.605 4.225 -0.344 343
-1.605 4.223 -0.357 290
-0.831 2.208 1.791 2650
-0.833 2.213 1.784 5300
-0.835 2.217 1.778 5300
-0.839 2.228 1.775 7192
-0.840 2.232 1.769 9098
-0.844 2.243 1.766 8609
-0.851 2.259 1.769 8968
-0.852 2.264 1.762 8968
-0.861 2.286 1.768 8903
-0.865 2.297 1.766 9602
-0.869 2.308 1.763 7687
-0.891 2.367 1.796 6006
-0.893 2.372 1.788 5317
-0.895 2.376 1.781 4629
-0.897 2.381 1.774 4629
-0.896 2.379 1.762 7237
-0.895 2.377 1.751 9863
-0.899 2.388 1.748 9222
-0.903 2.399 1.745 9067
-0.907 2.409 1.742 6037
-0.944 2.508 1.798 8134
-0.953 2.531 1.803 8382
-0.959 2.548 1.803 9316
-0.961 2.553 1.796 8464
-0.965 2.563 1.792 7789
-0.967 2.568 1.784 6755
-0.952 2.528 1.747 6172
-0.970 2.577 1.768 6149
-0.972 2.581 1.760 6578
-0.976 2.592 1.757 5452
-0.982 2.609 1.757 4729
-1.018 2.703 1.805 4157
-1.003 2.663 1.769 4163
-1.036 2.751 1.812 4639
-1.040 2.762 1.808 5607
-1.044 2.773 1.803 5562
-1.051 2.790 1.803 6061
-1.045 2.775 1.782 5769
-1.059 2.812 1.793 6853
-1.063 2.823 1.788 8453
-1.065 2.827 1.780 7286
-1.066 2.832 1.771 6120
-1.070 2.843 1.766 4169
-1.079 2.867 1.769 3760
-1.081 2.871 1.760 4907
-1.083 2.876 1.751 5772
-1.089 2.893 1.750 6918
-1.096 2.911 1.748 5809
-1.132 3.007 1.791 6568
-1.134 3.011 1.782 6380
-1.116 2.963 1.743 6100
-1.120 2.974 1.738 5683
-1.126 2.992 1.736 5209
-1.133 3.009 1.734 5398
-1.145 3.040 1.739 6581
-1.151 3.058 1.737 7890
-1.153 3.062 1.727 8286
-1.197 3.180 1.777 6755
-1.201 3.191 1.771 7247
-1.211 3.215 1.771 9409
-1.215 3.226 1.765 7921
-1.232 3.271 1.775 8569
-1.241 3.295 1.775 10798
-1.245 3.307 1.769 12599
-1.249 3.318 1.762 11585
-1.251 3.322 1.752 12886
-1.250 3.320 1.738 11480
-1.249 3.317 1.725 8447
-1.258 3.342 1.724 6537
-1.285 3.414 1.746 7691
-1.285 3.412 1.732 7154
-1.291 3.429 1.728 5324
-1.295 3.441 1.721 5070
-1.300 3.452 1.714 4602
-1.304 3.463 1.706 3801
-1.370 3.637 1.773 4047
-1.371 3.642 1.762 5372
-1.373 3.646 1.751 6961
-1.372 3.644 1.736 7929
-1.381 3.669 1.734 6611
-1.404 3.728 1.747 5569
-1.473 3.911 1.813 5281
-1.474 3.915 1.801 7916
-1.476 3.920 1.789 12161
-1.470 3.904 1.768 12442
-1.469 3.901 1.753 11625
-1.471 3.906 1.741 9416
-1.477 3.924 1.735 5936
-1.500 3.984 1.745 6222
-1.530 4.064 1.764 5742
-1.537 4.082 1.757 4192
-1.549 4.115 1.755 4322
-1.595 4.237 1.789 5532
-1.560 4.144 1.738 5868
-1.562 4.149 1.725 5332
-1.616 4.292 1.766 5226
-1.628 4.325 1.764 4186
-1.643 4.364 1.763 7323
-1.645 4.368 1.750 7455
-1.644 4.366 1.734 3696
-1.682 4.468 1.756 3641
-1.689 4.487 1.748 3245
-1.691 4.491 1.734 3269
-1.693 4.495 1.720 5035
-1.697 4.507 1.709 5221
-1.709 4.539 1.704 3794
-1.764 4.684 1.739 3915
-1.792 4.759 1.749 5724
-1.764 4.686 1.708 4218
-1.817 4.825 1.738 4315
-1.816 4.822 1.721 4783
-1.820 4.833 1.709 3360
-1.824 4.845 1.696 2653
-1.834 4.870 1.688 3403
-1.838 4.882 1.675 2794
-1.885 5.007 1.698 2746
-1.905 5.061 1.698 3628
-1.910 5.072 1.685 2622
-1.954 5.190 1.704 2955
-1.953 5.187 1.685 2423
-1.987 5.277 1.695 2241
-2.050 5.446 1.727 2367
-2.052 5.450 1.710 3761
-2.056 5.461 1.695 3970
-2.123 5.637 1.727 2952
-2.124 5.642 1.710 3051
-2.123 5.639 1.690 3226
-2.144 5.693 1.687 3305
-2.202 5.848 1.710 3237
-2.212 5.874 1.698 3099
-2.219 5.893 1.683 2311
-2.220 5.897 1.665 2334
-2.330 6.189 1.721 2813
-2.343 6.222 1.709 3417
-2.350 6.241 1.694 3331
-2.349 6.238 1.673 2376
-2.356 6.257 1.657 1823
-2.469 6.557 1.709 1563
-2.503 6.648 1.709 1615
-2.608 6.927 1.753 1517
-2.566 6.816 1.705 1916
-2.683 7.124 1.753 1690
-2.687 7.136 1.733 2013
-2.705 7.184 1.721 1370
-2.709 7.195 1.700 2034
-2.711 7.200 1.678 3714
-2.712 7.204 1.655 4215
-2.714 7.208 1.633 3511
-2.716 7.212 1.611 2394
-3.024 8.031 1.753 1629
-3.028 8.043 1.730 1250
-3.140 8.339 1.762 1471
-3.320 8.817 1.827 1445
-3.322 8.822 1.800 1564
-3.323 8.826 1.773 1141
-3.265 8.670 1.716 621
-3.327 8.835 1.718 433
-3.328 8.839 1.690 444
-1.598 4.244 -0.161 297
-1.595 4.236 -0.174 339
-1.595 4.235 -0.187 380
-1.597 4.242 -0.200 335
-1.221 3.244 -0.130 343
-1.221 3.243 -0.140 380
-1.221 3.242 -0.149 349
-1.220 3.241 -0.159 318
-1.220 3.240 -0.169 318
-1.345 3.572 -0.212 354
-1.344 3.571 -0.223 354
-1.597 4.240 -0.306 397
-1.596 4.239 -0.319 397
-1.596 4.238 -0.332 385
-1.592 4.229 -0.344 376
-1.595 4.235 -0.358 326
-1.594 4.234 -0.371 279
-0.827 2.210 1.791 2990
-0.829 2.214 1.784 5980
-0.833 2.225 1.782 6029
-0.834 2.229 1.775 7600
-0.836 2.234 1.769 9171
-0.840 2.244 1.766 8699
-0.846 2.261 1.769 9154
-0.848 2.265 1.762 9154
-0.856 2.288 1.768 8804
-0.860 2.299 1.766 9300
-0.864 2.309 1.763 7404
-0.884 2.363 1.791 6197
-0.886 2.368 1.784 5279
-0.874 2.335 1.751 4572
-0.890 2.377 1.770 4361
-0.889 2.375 1.758 6448
-0.888 2.373 1.746 8553
-0.892 2.384 1.743 7945
-0.898 2.400 1.745 7777
-0.902 2.411 1.742 5180
-0.939 2.509 1.798 7990
-0.948 2.533 1.803 8422
-0.954 2.550 1.803 9468
-0.956 2.554 1.796 8617
-0.960 2.565 1.792 7954
-0.962 2.570 1.784 6768
-0.947 2.530 1.747 6104
-0.965 2.579 1.768 6036
-0.967 2.583 1.760 6489
-0.971 2.594 1.757 5182
-1.011 2.700 1.813 4691
-1.012 2.705 1.805 4315
-0.997 2.665 1.769 4415
-1.030 2.753 1.812 4836
-1.032 2.757 1.804 5698
-1.036 2.768 1.799 5417
-1.047 2.798 1.806 5757
-1.049 2.803 1.798 5560
-1.053 2.814 1.793 6912
-1.057 2.825 1.788 8589
-1.059 2.829 1.780 7277
-1.061 2.834 1.771 5964
-1.065 2.845 1.766 3929
-1.074 2.869 1.769 3793
-1.075 2.873 1.760 5099
-1.077 2.878 1.751 5646
-1.081 2.889 1.746 6267
-1.125 3.005 1.800 5891
-1.129 3.016 1.794 7290
-1.130 3.020 1.785 6816
-1.110 2.965 1.743 6311
-1.114 2.976 1.738 5821
-1.121 2.994 1.736 5423
-1.127 3.012 1.734 5715
-1.173 3.135 1.788 6397
-1.175 3.140 1.779 7422
-1.147 3.064 1.727 7885
-1.193 3.189 1.780 7234
-1.200 3.206 1.778 7753
-1.204 3.218 1.771 9795
-1.206 3.222 1.761 8170
-1.225 3.273 1.775 8394
-1.234 3.298 1.775 10413
-1.239 3.309 1.769 11963
-1.243 3.320 1.762 10815
-1.244 3.325 1.752 12431
-1.243 3.322 1.738 11709
-1.243 3.320 1.725 9025
-1.249 3.338 1.721 6997
-1.274 3.403 1.740 7548
-1.275 3.407 1.729 6964
-1.287 3.439 1.732 4895
-1.289 3.443 1.721 5241
-1.293 3.454 1.714 5116
-1.294 3.459 1.703 4076
-1.362 3.640 1.773 4388
-1.364 3.645 1.762 5516
-1.363 3.642 1.748 7184
-1.365 3.647 1.736 8425
-1.395 3.726 1.758 7304
-1.399 3.738 1.750 6240
-1.462 3.907 1.810 5618
-1.464 3.911 1.798 7999
-1.468 3.923 1.789 11318
-1.462 3.907 1.768 11811
-1.461 3.904 1.753 11118
-1.466 3.915 1.744 9181
-1.480 3.954 1.746 7073
-1.492 3.986 1.745 6215
-1.522 4.067 1.764 5853
-1.529 4.085 1.757 4408
-1.541 4.118 1.755 4889
-1.548 4.136 1.748 5803
-1.552 4.147 1.738 6200
-1.554 4.152 1.725 5235
-1.610 4.302 1.769 5038
-1.622 4.335 1.766 4487
-1.635 4.367 1.763 7354
-1.636 4.372 1.750 7602
-1.633 4.362 1.731 4342
-1.674 4.472 1.756 3880
-1.681 4.490 1.748 3317
-1.682 4.494 1.734 3491
-1.684 4.499 1.720 5475
-1.688 4.510 1.709 5750
-1.698 4.536 1.702 3970
-1.752 4.681 1.737 3997
-1.785 4.770 1.751 5286
-1.782 4.760 1.732 4545
-1.757 4.694 1.693 3826
-1.809 4.833 1.723 4314
-1.813 4.844 1.711 2943
-1.817 4.855 1.698 2215
-1.824 4.874 1.688 3132
-1.828 4.885 1.675 2963
-1.878 5.017 1.700 2460
-1.896 5.064 1.698 3099
-1.897 5.069 1.682 2438
-1.944 5.194 1.704 2753
-1.943 5.191 1.685 2310
-1.977 5.281 1.695 2118
-2.034 5.435 1.723 2419
-2.044 5.461 1.712 3620
-2.046 5.465 1.695 4120
-2.112 5.642 1.727 2357
-2.113 5.646 1.710 2396
-2.163 5.779 1.728 3287
-2.130 5.690 1.685 3048
-2.188 5.845 1.708 3044
-2.184 5.835 1.686 2500
-2.207 5.897 1.683 2057
-2.209 5.901 1.665 2008
-2.318 6.194 1.721 2483
-2.333 6.234 1.711 2869
-2.338 6.246 1.694 2819
-2.345 6.264 1.678 1887
-2.454 6.558 1.729 1515
-2.456 6.562 1.709 1668
-2.542 6.790 1.742 1565
-2.546 6.802 1.723 1646
-2.553 6.821 1.705 2117
-2.555 6.825 1.684 1583
-2.678 7.156 1.736 2012
-2.691 7.189 1.721 1792
-2.695 7.201 1.700 2630
-2.697 7.205 1.678 4398
-2.698 7.209 1.655 4764
-2.700 7.213 1.633 3968
-2.701 7.217 1.611 2847
-2.706 7.229 1.590 1917
-3.040 8.122 1.744 1675
-3.123 8.345 1.762 1448
-3.303 8.824 1.827 1350
-3.304 8.828 1.800 1403
-3.306 8.833 1.773 1031
-3.250 8.684 1.717 614
-3.309 8.841 1.718 413
-3.311 8.846 1.690 425
-1.590 4.248 -0.148 279
-1.590 4.247 -0.161 342
-1.587 4.239 -0.174 415
-1.586 4.238 -0.187 494
-1.589 4.245 -0.200 485
-1.591 4.251 -0.214 481
-1.591 4.250 -0.227 481
-1.588 4.242 -0.240 423
-1.585 4.233 -0.252 376
-1.584 4.232 -0.265 335
-1.213 3.242 -0.179 347
-1.210 3.234 -0.188 362
-1.586 4.236 -0.305 277
-1.585 4.235 -0.318 277
-1.240 3.312 -0.227 290
-1.239 3.311 -0.238 309
-1.239 3.310 -0.248 309
-1.236 3.302 -0.257 313
-1.235 3.300 -0.267 320
-0.822 2.212 1.791 3418
-0.824 2.216 1.784 6837
-0.828 2.227 1.782 6925
-0.829 2.231 1.775 8132
-0.831 2.236 1.769 9340
-0.835 2.246 1.766 8871
-0.844 2.269 1.773 9427
-0.845 2.273 1.766 9427
-0.851 2.290 1.768 8931
-0.855 2.301 1.766 9313
-0.859 2.311 1.763 7367
-0.877 2.359 1.787 6549
-0.879 2.363 1.780 5565
-0.871 2.343 1.755 5069
-0.873 2.347 1.748 4883
-0.881 2.371 1.754 6098
-0.883 2.375 1.746 7549
-0.885 2.379 1.739 6785
-0.891 2.396 1.740 6493
-0.932 2.507 1.805 5163
-0.936 2.518 1.802 8090
-0.942 2.535 1.803 8675
-0.949 2.552 1.803 9783
-0.950 2.557 1.796 8842
-0.955 2.567 1.792 8078
-0.956 2.572 1.784 6745
-0.941 2.532 1.747 6224
-0.957 2.575 1.764 6006
-0.959 2.579 1.756 6560
-0.963 2.590 1.753 5133
-1.005 2.703 1.813 4811
-1.009 2.714 1.809 4538
-0.992 2.667 1.769 4776
-1.022 2.748 1.808 4985
-1.026 2.759 1.804 5673
-1.030 2.770 1.799 5255
-1.041 2.801 1.806 5617
-1.043 2.805 1.798 5479
-1.047 2.816 1.793 6923
-1.049 2.821 1.785 8613
-1.053 2.832 1.780 7195
-1.054 2.836 1.771 5799
-1.061 2.854 1.770 3896
-1.067 2.871 1.769 4036
-1.069 2.876 1.760 5341
-1.071 2.880 1.751 5550
-1.072 2.885 1.742 5759
-1.118 3.007 1.800 7041
-1.122 3.018 1.794 8167
-1.124 3.023 1.785 7463
-1.103 2.968 1.743 6508
-1.107 2.979 1.738 5787
-1.116 3.003 1.739 5510
-1.123 3.021 1.737 5995
-1.167 3.138 1.788 6927
-1.168 3.142 1.779 8036
-1.140 3.067 1.727 7489
-1.189 3.198 1.784 7872
-1.193 3.209 1.778 8328
-1.197 3.220 1.771 10088
-1.199 3.225 1.761 8607
-1.218 3.276 1.775 8175
-1.225 3.294 1.772 10044
-1.229 3.305 1.765 11241
-1.235 3.323 1.762 9755
-1.235 3.321 1.748 11779
-1.234 3.318 1.735 11963
-1.235 3.323 1.725 9469
-1.242 3.340 1.721 7295
-1.266 3.406 1.740 8144
-1.268 3.410 1.729 7549
-1.280 3.442 1.732 4754
-1.284 3.453 1.724 4386
-1.288 3.464 1.717 4065
-1.348 3.625 1.778 4058
-1.354 3.643 1.773 4663
-1.356 3.648 1.762 5459
-1.355 3.645 1.748 7181
-1.357 3.650 1.736 8612
-1.387 3.729 1.758 8306
-1.391 3.741 1.750 7129
-1.446 3.889 1.801 5876
-1.448 3.894 1.789 7995
-1.457 3.919 1.786 10378
-1.454 3.910 1.768 11168
-1.453 3.907 1.753 10465
-1.462 3.932 1.750 9189
-1.471 3.958 1.746 8376
-1.483 3.990 1.745 6195
-1.513 4.070 1.764 5821
-1.523 4.096 1.760 4541
-1.532 4.121 1.755 5216
-1.539 4.139 1.748 6301
-1.541 4.144 1.735 6346
-1.545 4.155 1.725 4896
-1.601 4.306 1.769 4920
-1.613 4.338 1.766 4825
-1.625 4.371 1.763 7306
-1.627 4.375 1.750 7688
-1.620 4.359 1.729 5131
-1.664 4.475 1.756 3900
-1.671 4.494 1.748 3366
-1.672 4.498 1.734 3680
-1.677 4.510 1.722 5746
-1.678 4.514 1.709 6092
-1.685 4.532 1.700 4033
-1.742 4.685 1.737 3791
-1.772 4.767 1.749 5675
-1.771 4.764 1.732 4568
-1.754 4.719 1.700 3861
-1.761 4.737 1.691 4329
-1.768 4.756 1.681 3237
-1.770 4.760 1.666 2198
-1.813 4.878 1.688 2708
-1.815 4.882 1.673 3032
-1.819 4.893 1.660 2611
-1.882 5.061 1.696 2549
-1.878 5.051 1.676 2322
-1.933 5.198 1.704 2566
-1.924 5.174 1.679 2160
-1.965 5.285 1.695 2029
-2.009 5.404 1.712 2481
-2.032 5.466 1.712 3393
-2.034 5.470 1.695 4096
-2.035 5.474 1.678 2304
-2.149 5.780 1.746 2788
-2.150 5.784 1.728 4232
-2.149 5.781 1.708 3693
-2.162 5.814 1.698 2852
-2.158 5.804 1.677 2602
-2.159 5.808 1.659 1848
-2.265 6.094 1.714 2052
-2.302 6.192 1.719 2199
-2.306 6.203 1.702 2443
-2.324 6.251 1.694 2288
-2.336 6.284 1.682 1694
-2.443 6.570 1.731 1475
-2.444 6.574 1.711 1734
-2.527 6.796 1.742 1738
-2.531 6.808 1.723 1869
-2.538 6.826 1.705 2440
-2.540 6.831 1.684 1735
-2.665 7.169 1.738 2235
-2.675 7.195 1.721 2180
-2.679 7.207 1.700 3062
-2.678 7.204 1.676 4854
-2.682 7.215 1.655 4967
-2.684 7.219 1.633 4192
-2.685 7.223 1.611 3258
-2.690 7.235 1.590 2269
-3.022 8.128 1.744 2011
-3.021 8.125 1.718 1490
-3.107 8.356 1.736 1236
-3.285 8.835 1.800 1130
-3.287 8.840 1.773 855
-3.228 8.683 1.716 633
-3.290 8.849 1.718 386
-3.291 8.853 1.690 385
-1.583 4.258 -0.162 306
-1.580 4.250 -0.174 374
-1.577 4.242 -0.187 455
-1.579 4.248 -0.200 474
-1.582 4.255 -0.214 492
-1.581 4.254 -0.227 492
-1.578 4.245 -0.240 456
-1.578 4.244 -0.253 423
-1.578 4.243 -0.266 413
-1.574 4.235 -0.278 404
-1.209 3.251 -0.190 404
-1.233 3.317 -0.207 568
-1.233 3.316 -0.217 735
-1.232 3.315 -0.227 776
-1.232 3.314 -0.238 817
-1.232 3.313 -0.248 817
-1.231 3.312 -0.258 805
-1.231 3.311 -0.268 793
-1.230 3.309 -0.278 396
-0.819 2.213 1.791 3758
-0.821 2.217 1.784 7516
-0.825 2.228 1.782 7587
-0.827 2.232 1.775 8500
-0.828 2.237 1.769 9414
-0.832 2.247 1.766 8911
-0.841 2.270 1.773 9487
-0.842 2.274 1.766 9487
-0.849 2.291 1.768 8913
-0.852 2.302 1.766 9268
-0.856 2.312 1.763 7361
-0.874 2.360 1.787 6843
-0.869 2.346 1.766 6051
-0.868 2.344 1.755 5669
-0.872 2.355 1.752 5583
-0.876 2.365 1.749 6183
-0.878 2.370 1.742 7004
-0.879 2.374 1.735 5908
-0.886 2.391 1.736 5226
-0.929 2.508 1.805 5290
-0.933 2.519 1.802 8213
-0.939 2.536 1.803 8814
-0.943 2.547 1.799 9843
-0.947 2.558 1.796 8853
-0.951 2.569 1.792 8017
-0.953 2.573 1.784 6603
-0.938 2.533 1.747 6174
-0.954 2.576 1.764 5856
-0.956 2.580 1.756 6413
-0.957 2.585 1.748 5060
-1.001 2.704 1.813 4939
-1.005 2.715 1.809 4728
-0.988 2.668 1.769 5075
-1.018 2.750 1.808 4851
-1.022 2.761 1.804 5297
-1.024 2.765 1.795 4959
-1.038 2.802 1.806 5391
-1.039 2.807 1.798 5325
-1.044 2.818 1.793 6748
-1.045 2.822 1.785 8346
-1.047 2.827 1.776 6892
-1.051 2.838 1.771 5474
-1.057 2.855 1.770 3896
-1.064 2.873 1.769 4361
-1.066 2.877 1.760 5579
-1.067 2.881 1.751 5478
-1.110 2.997 1.805 6418
-1.114 3.008 1.800 7870
-1.118 3.020 1.794 8738
-1.120 3.024 1.785 7877
-1.100 2.969 1.743 6770
-1.101 2.974 1.734 5657
-1.115 3.011 1.743 5363
-1.119 3.022 1.737 6122
-1.163 3.139 1.788 7076
-1.164 3.144 1.779 8313
-1.166 3.148 1.769 7850
-1.185 3.199 1.784 8209
-1.189 3.211 1.778 8458
-1.193 3.222 1.771 9963
-1.192 3.219 1.758 8928
-1.211 3.271 1.772 7720
-1.218 3.289 1.769 9468
-1.225 3.307 1.765 10236
-1.226 3.311 1.755 8545
-1.228 3.315 1.745 10974
-1.227 3.313 1.731 12045
-1.229 3.317 1.721 9786
-1.238 3.342 1.721 7292
-1.257 3.394 1.733 7545
-1.261 3.405 1.726 6849
-1.336 3.606 1.808 4407
-1.340 3.618 1.800 4324
-1.276 3.445 1.707 3746
-1.343 3.627 1.778 4210
-1.347 3.638 1.770 4727
-1.352 3.649 1.762 5370
-1.351 3.647 1.748 7054
-1.352 3.651 1.736 8370
-1.382 3.731 1.758 9200
-1.386 3.742 1.750 7945
-1.439 3.884 1.798 5795
-1.443 3.896 1.789 7749
-1.452 3.921 1.786 9043
-1.449 3.912 1.768 10138
-1.450 3.916 1.756 9511
-1.462 3.948 1.755 9669
-1.466 3.959 1.746 9424
-1.478 3.992 1.745 6139
-1.508 4.072 1.764 5579
-1.518 4.098 1.760 4517
-1.527 4.123 1.755 5199
-1.534 4.141 1.748 6519
-1.535 4.146 1.735 6400
-1.540 4.157 1.725 4506
-1.601 4.322 1.774 4749
-1.608 4.340 1.766 4940
-1.620 4.373 1.763 6910
-1.619 4.370 1.747 7408
-1.615 4.361 1.729 5835
-1.614 4.358 1.713 4301
-1.665 4.496 1.748 3325
-1.669 4.507 1.736 3806
-1.671 4.512 1.722 5821
-1.672 4.516 1.709 6152
-1.677 4.527 1.697 3908
-1.733 4.680 1.734 3510
-1.766 4.769 1.749 4449
-1.734 4.681 1.703 4143
-1.796 4.849 1.743 2734
-1.795 4.846 1.726 3642
-1.786 4.822 1.702 2358
-1.772 4.783 1.673 1666
-1.807 4.880 1.688 2512
-1.809 4.884 1.673 3146
-1.813 4.896 1.660 3023
-1.865 5.035 1.687 2390
-1.872 5.054 1.676 2372
-1.902 5.136 1.684 2698
-1.909 5.155 1.673 2125
-1.961 5.295 1.697 1943
-2.000 5.399 1.710 2549
-2.028 5.475 1.714 3173
-2.029 5.480 1.697 4000
-2.028 5.477 1.678 2245
-2.142 5.782 1.746 3020
-2.140 5.780 1.726 4995
-2.142 5.784 1.708 5020
-2.141 5.781 1.689 3563
-2.148 5.800 1.675 2972
-2.152 5.811 1.659 2043
-2.258 6.096 1.714 2087
-2.267 6.122 1.701 1838
-2.298 6.206 1.702 2043
-2.316 6.254 1.694 1851
-2.334 6.301 1.685 1815
-2.338 6.313 1.667 1723
-2.522 6.809 1.767 1728
-2.518 6.799 1.742 1859
-2.520 6.804 1.721 2018
-2.529 6.830 1.705 2590
-2.534 6.841 1.686 1771
-2.659 7.180 1.739 2371
-2.663 7.191 1.719 2365
-2.668 7.203 1.698 3168
-2.669 7.207 1.676 4989
-2.673 7.218 1.655 5101
-2.675 7.223 1.633 4384
-2.676 7.227 1.611 3487
-2.681 7.238 1.590 2473
-3.012 8.132 1.744 2238
-3.011 8.129 1.718 1601
-3.096 8.360 1.736 1153
-3.274 8.840 1.800 902
-3.275 8.844 1.773 762
-3.217 8.688 1.716 644
-3.279 8.853 1.718 414
-3.280 8.857 1.690 410
-1.572 4.244 -0.187 260
-1.204 3.251 -0.120 321
-1.206 3.258 -0.130 406
-1.206 3.257 -0.140 490
-1.206 3.256 -0.150 490
-1.206 3.255 -0.160 489
-1.203 3.247 -0.169 485
-1.572 4.244 -0.279 481
-1.574 4.250 -0.293 472
-1.574 4.249 -0.306 466
-1.573 4.248 -0.319 466
-1.228 3.316 -0.227 426
-1.228 3.315 -0.238 433
-1.227 3.314 -0.248 433
-1.227 3.313 -0.258 419
-1.227 3.312 -0.268 404
-0.812 2.215 1.791 4078
-0.814 2.220 1.784 8156
-0.818 2.230 1.782 8226
-0.819 2.235 1.775 8822
-0.821 2.239 1.769 9418
-0.825 2.250 1.766 8937
-0.833 2.273 1.773 9513
-0.835 2.277 1.766 9513
-0.841 2.294 1.768 8920
-0.845 2.304 1.766 9320
-0.849 2.315 1.763 7468
-0.864 2.357 1.782 7211
-0.864 2.355 1.771 6725
-0.863 2.353 1.759 6528
-0.865 2.358 1.752 6471
-0.868 2.368 1.749 6634
-0.870 2.373 1.742 6904
-0.872 2.377 1.735 5426
-0.876 2.388 1.732 4110
-0.921 2.511 1.805 5547
-0.925 2.522 1.802 8502
-0.931 2.539 1.803 9020
-0.935 2.550 1.799 9886
-0.939 2.561 1.796 8707
-0.943 2.572 1.792 7735
-0.942 2.570 1.780 6373
-0.930 2.536 1.747 6008
-0.943 2.572 1.760 5814
-0.947 2.583 1.756 6473
-0.949 2.588 1.748 5293
-0.993 2.707 1.813 5182
-0.997 2.718 1.809 4982
-0.980 2.671 1.769 5400
-0.981 2.676 1.761 5089
-0.983 2.680 1.752 4777
-1.015 2.769 1.795 4616
-1.031 2.812 1.810 5310
-1.030 2.810 1.798 5284
-1.032 2.814 1.789 6561
-1.036 2.825 1.785 7895
-1.038 2.830 1.776 6465
-1.032 2.815 1.756 5116
-1.048 2.858 1.770 3926
-1.055 2.876 1.769 4742
-1.056 2.880 1.760 5738
-1.058 2.885 1.751 5339
-1.100 3.001 1.805 7167
-1.105 3.012 1.800 8476
-1.109 3.023 1.794 9151
-1.110 3.028 1.785 8217
-1.088 2.966 1.740 7028
-1.092 2.977 1.734 5444
-1.105 3.015 1.743 5073
-1.110 3.026 1.737 5997
-1.153 3.143 1.788 6953
-1.154 3.147 1.779 8337
-1.153 3.145 1.766 8353
-1.175 3.203 1.784 8143
-1.179 3.214 1.778 8186
-1.183 3.226 1.771 9496
-1.182 3.223 1.758 9168
-1.174 3.201 1.734 7950
-1.205 3.286 1.765 9014
-1.211 3.304 1.762 9330
-1.213 3.308 1.752 7662
-1.215 3.313 1.742 10337
-1.214 3.310 1.728 12156
-1.215 3.315 1.718 9950
-1.227 3.346 1.721 6980
-1.246 3.398 1.733 7091
-1.248 3.402 1.723 6508
-1.324 3.611 1.808 4372
-1.326 3.615 1.797 4286
-1.262 3.442 1.704 3726
-1.331 3.631 1.778 3957
-1.368 3.731 1.810 5327
-1.367 3.729 1.796 6377
-1.339 3.651 1.748 6649
-1.368 3.731 1.770 8126
-1.370 3.735 1.758 10230
-1.374 3.747 1.750 8902
-1.381 3.765 1.744 5924
-1.428 3.893 1.786 7380
-1.434 3.912 1.780 7615
-1.439 3.923 1.771 8748
-1.440 3.928 1.759 8602
-1.452 3.960 1.758 10392
-1.454 3.964 1.746 10003
-1.463 3.989 1.742 5939
-1.495 4.077 1.764 4959
-1.502 4.096 1.757 4169
-1.514 4.128 1.755 4736
-1.520 4.146 1.748 6421
-1.522 4.151 1.735 6302
-1.524 4.155 1.723 3988
-1.589 4.334 1.777 4643
-1.594 4.346 1.766 4884
-1.605 4.378 1.763 6201
-1.604 4.376 1.747 6829
-1.598 4.359 1.726 6259
-1.600 4.363 1.713 4777
-1.651 4.501 1.748 3262
-1.655 4.513 1.736 3806
-1.656 4.517 1.722 5501
-1.658 4.521 1.709 5771
-1.660 4.526 1.695 3508
-1.718 4.685 1.734 2921
-1.717 4.683 1.717 4179
-1.750 4.772 1.732 5658
-1.749 4.769 1.715 5140
-1.750 4.774 1.700 4610
-1.752 4.778 1.685 4304
-1.746 4.761 1.664 3454
-1.747 4.765 1.649 2546
-1.838 5.011 1.711 3183
-1.797 4.901 1.660 3283
-1.843 5.027 1.683 2805
-1.853 5.053 1.674 2493
-1.886 5.142 1.684 2956
-1.890 5.154 1.670 2203
-1.949 5.316 1.701 1931
-1.974 5.384 1.704 2594
-2.010 5.482 1.714 3248
-2.012 5.486 1.697 3744
-2.013 5.490 1.681 2189
-2.120 5.782 1.744 2941
-2.122 5.786 1.726 5344
-2.123 5.791 1.708 6251
-2.125 5.795 1.691 4836
-2.127 5.799 1.673 3295
-2.133 5.818 1.659 1953
-2.236 6.096 1.712 1835
-2.187 5.963 1.658 1976
-2.294 6.257 1.713 1757
-2.352 6.413 1.732 1749
-2.313 6.309 1.685 2332
-2.318 6.320 1.667 2220
-2.500 6.817 1.767 1668
-2.496 6.807 1.742 1888
-2.500 6.819 1.723 2191
-2.507 6.838 1.705 2770
-2.509 6.842 1.684 1783
-2.636 7.188 1.739 2534
-2.640 7.200 1.719 2669
-2.644 7.211 1.698 3065
-2.646 7.216 1.676 4335
-2.647 7.220 1.654 4309
-2.652 7.231 1.633 3911
-2.653 7.235 1.611 3349
-2.657 7.246 1.590 2432
-2.983 8.135 1.743 2369
-2.982 8.132 1.716 1665
-3.069 8.370 1.736 879
-3.170 8.645 1.761 745
-3.172 8.650 1.734 813
-3.179 8.669 1.710 619
-3.250 8.863 1.718 460
-3.252 8.868 1.690 435
-3.253 8.872 1.663 251
-1.538 4.193 -0.118 256
-1.537 4.193 -0.131 272
-1.543 4.207 -0.145 275
-1.545 4.213 -0.158 290
-1.194 3.256 -0.100 257
-1.194 3.255 -0.110 273
-1.563 4.263 -0.201 342
-1.560 4.254 -0.214 476
-1.560 4.253 -0.227 476
-1.562 4.260 -0.240 560
-1.562 4.259 -0.253 645
-1.561 4.258 -0.267 668
-1.561 4.256 -0.280 692
-1.560 4.255 -0.293 599
-1.563 4.262 -0.307 513
-1.562 4.260 -0.320 513
-1.562 4.259 -0.333 412
-1.561 4.258 -0.346 310
-1.561 4.256 -0.359 264
-1.216 3.317 -0.258 264
-1.213 3.309 -0.267 301
-0.807 2.217 1.791 4172
-0.809 2.222 1.784 8345
-0.813 2.232 1.782 8414
-0.815 2.237 1.775 8750
-0.816 2.241 1.769 9086
-0.822 2.258 1.771 8602
-0.828 2.274 1.773 9086
-0.830 2.279 1.766 9086
-0.836 2.296 1.768 8642
-0.842 2.312 1.770 9201
-0.846 2.323 1.767 7531
-0.859 2.358 1.782 7300
-0.858 2.357 1.771 7131
-0.858 2.355 1.759 7066
-0.859 2.359 1.752 7013
-0.863 2.370 1.749 7025
-0.865 2.375 1.742 7105
-0.866 2.379 1.735 5225
-0.870 2.390 1.732 3336
-0.915 2.513 1.805 5681
-0.919 2.524 1.802 8593
-0.925 2.541 1.803 8971
-0.929 2.552 1.799 9610
-0.933 2.563 1.796 8267
-0.937 2.574 1.792 7189
-0.937 2.572 1.780 5967
-0.922 2.532 1.743 5601
-0.938 2.575 1.760 5615
-0.942 2.585 1.756 6392
-0.941 2.583 1.744 5413
-0.987 2.709 1.813 5345
-0.991 2.720 1.809 5125
-0.974 2.674 1.769 5514
-0.975 2.678 1.761 5173
-0.977 2.682 1.752 4832
-1.011 2.777 1.799 4223
-1.025 2.814 1.810 5212
-1.024 2.812 1.798 5156
-1.026 2.817 1.789 6201
-1.028 2.821 1.781 7279
-1.029 2.826 1.772 5995
-1.026 2.817 1.756 4920
-1.042 2.861 1.770 3960
-1.048 2.878 1.769 4927
-1.050 2.883 1.760 5680
-1.052 2.887 1.751 5093
-1.094 3.003 1.805 7422
-1.098 3.014 1.800 8655
-1.102 3.026 1.794 9276
-1.104 3.030 1.785 8367
-1.081 2.969 1.740 6844
-1.085 2.980 1.734 4924
-1.099 3.017 1.743 4685
-1.103 3.028 1.737 5711
-1.146 3.146 1.788 6574
-1.145 3.143 1.775 8065
-1.142 3.135 1.759 8744
-1.143 3.139 1.749 7751
-1.147 3.150 1.743 8545
-1.149 3.154 1.733 9741
-1.163 3.192 1.741 8896
-1.167 3.203 1.734 8272
-1.181 3.241 1.742 8864
-1.202 3.300 1.758 8783
-1.189 3.264 1.728 7620
-1.205 3.309 1.738 9895
-1.204 3.306 1.725 11999
-1.206 3.310 1.715 9769
-1.217 3.342 1.718 6384
-1.238 3.401 1.733 6498
-1.238 3.398 1.720 6261
-1.232 3.382 1.700 4345
-1.318 3.618 1.797 4129
-1.302 3.575 1.764 3579
-1.358 3.730 1.822 4225
-1.360 3.734 1.810 5788
-1.359 3.732 1.796 6871
-1.361 3.736 1.784 6902
-1.360 3.734 1.770 8790
-1.362 3.738 1.758 10641
-1.366 3.750 1.750 9371
-1.372 3.768 1.744 6383
-1.419 3.897 1.786 6809
-1.426 3.915 1.780 6549
-1.430 3.926 1.771 7438
-1.444 3.965 1.773 8223
-1.446 3.970 1.761 10214
-1.447 3.974 1.749 9474
-1.454 3.993 1.742 5417
-1.491 4.094 1.770 4369
-1.493 4.099 1.757 3811
-1.505 4.131 1.755 4099
-1.511 4.150 1.748 5812
-1.513 4.154 1.735 5727
-1.509 4.144 1.717 3648
-1.580 4.338 1.777 4283
-1.584 4.349 1.766 4504
-1.596 4.382 1.763 5344
-1.595 4.379 1.747 5861
-1.589 4.362 1.726 5950
-1.593 4.374 1.715 4651
-1.641 4.505 1.748 3228
-1.645 4.516 1.736 3586
-1.649 4.528 1.725 4886
-1.648 4.525 1.709 4952
-1.662 4.565 1.707 2920
-1.672 4.590 1.700 3458
-1.707 4.686 1.717 3960
-1.708 4.691 1.703 4180
-1.744 4.787 1.719 4044
-1.750 4.806 1.709 4521
-1.754 4.817 1.697 3236
-1.748 4.800 1.675 1501
-1.820 4.997 1.722 2607
-1.827 5.015 1.711 3523
-1.828 5.020 1.696 3431
-1.832 5.031 1.683 3123
-1.842 5.057 1.674 2688
-1.877 5.154 1.686 2989
-1.876 5.151 1.668 2224
-1.940 5.327 1.703 1908
-1.957 5.374 1.700 2831
-1.998 5.486 1.714 3269
-2.002 5.498 1.699 3310
-2.046 5.617 1.715 2247
-2.108 5.787 1.744 2736
-2.109 5.791 1.726 5035
-2.111 5.795 1.708 6486
-2.112 5.800 1.691 5403
-2.114 5.804 1.673 3324
-2.215 6.083 1.727 1711
-2.214 6.080 1.707 2032
-2.174 5.968 1.658 2309
-2.331 6.399 1.748 1905
-2.338 6.418 1.732 2134
-2.300 6.314 1.685 2727
-2.304 6.325 1.667 2556
-2.485 6.823 1.767 1508
-2.481 6.813 1.742 1809
-2.485 6.824 1.723 2274
-2.490 6.836 1.703 2852
-2.494 6.848 1.684 1721
-2.623 7.201 1.741 2507
-2.624 7.205 1.719 2681
-2.628 7.217 1.698 2730
-2.630 7.221 1.676 3445
-2.634 7.233 1.655 3323
-2.636 7.237 1.633 3135
-2.637 7.241 1.611 2818
-2.641 7.252 1.590 2088
-2.965 8.141 1.743 2160
-2.964 8.138 1.716 1531
-3.048 8.369 1.735 745
-3.207 8.806 1.790 852
-3.153 8.656 1.734 852
-3.144 8.632 1.702 753
-3.215 8.826 1.710 603
-3.211 8.816 1.680 587
-3.215 8.828 1.654 283
-1.529 4.198 -0.105 258
-1.529 4.197 -0.118 279
-1.528 4.196 -0.131 300
-1.533 4.210 -0.145 321
-1.536 4.217 -0.158 371
-1.546 4.246 -0.173 422
-1.551 4.260 -0.187 548
-1.554 4.266 -0.201 734
-1.553 4.265 -0.214 920
-1.553 4.264 -0.227 920
-1.553 4.263 -0.240 1005
-1.550 4.255 -0.253 1093
-1.552 4.261 -0.267 1048
-1.551 4.260 -0.280 1007
-1.551 4.259 -0.293 831
-1.551 4.258 -0.306 655
-1.550 4.256 -0.319 655
-1.552 4.262 -0.333 486
-1.552 4.261 -0.346 319
-1.551 4.260 -0.359 261
-1.206 3.311 -0.267 253
-0.803 2.219 1.791 4243
-0.804 2.223 1.784 8487
-0.808 2.234 1.782 8562
-0.810 2.238 1.775 8603
-0.811 2.243 1.769 8645
-0.817 2.260 1.771 8134
-0.823 2.276 1.773 8484
-0.825 2.281 1.766 8484
-0.831 2.298 1.768 8318
-0.837 2.314 1.770 9206
-0.841 2.325 1.767 7691
-0.852 2.354 1.778 7449
-0.853 2.359 1.771 7586
-0.855 2.363 1.764 7724
-0.856 2.368 1.756 7724
-0.860 2.378 1.754 7727
-0.862 2.383 1.746 8012
-0.863 2.387 1.739 5627
-0.870 2.404 1.740 3299
-0.910 2.515 1.805 5946
-0.916 2.532 1.806 8879
-0.918 2.537 1.798 9082
-0.922 2.548 1.795 9427
-0.925 2.559 1.791 7768
-0.932 2.576 1.792 6511
-0.931 2.574 1.780 5473
-0.917 2.534 1.743 5109
-0.934 2.583 1.764 5397
-0.936 2.587 1.756 6275
-0.935 2.585 1.744 5402
-0.983 2.718 1.817 5620
-0.982 2.716 1.805 5341
-0.970 2.682 1.773 5607
-0.969 2.680 1.761 5231
-0.971 2.685 1.752 4858
-0.966 2.670 1.732 3912
-1.019 2.816 1.810 5157
-1.018 2.814 1.798 5077
-1.020 2.819 1.789 5766
-1.021 2.824 1.781 6527
-1.021 2.821 1.768 5547
-1.020 2.819 1.756 4722
-1.033 2.857 1.766 4166
-1.042 2.881 1.769 5089
-1.046 2.892 1.764 5571
-1.083 2.995 1.811 5022
-1.087 3.006 1.805 7408
-1.091 3.017 1.800 8605
-1.095 3.028 1.794 9199
-1.099 3.039 1.789 8370
-1.075 2.971 1.740 6560
-1.079 2.982 1.734 4885
-1.092 3.019 1.743 4382
-1.094 3.024 1.734 5274
-1.098 3.035 1.728 6167
-1.136 3.139 1.772 7620
-1.135 3.137 1.759 9143
-1.136 3.141 1.749 8672
-1.140 3.153 1.743 9479
-1.142 3.157 1.733 10644
-1.148 3.175 1.731 9138
-1.157 3.199 1.731 8254
-1.176 3.251 1.745 8705
-1.182 3.269 1.742 9007
-1.184 3.273 1.732 8261
-1.195 3.304 1.735 9609
-1.197 3.309 1.725 11745
-1.198 3.313 1.715 9544
-1.210 3.345 1.718 5819
-1.226 3.390 1.727 5606
-1.225 3.387 1.713 6171
-1.227 3.392 1.703 4636
-1.305 3.607 1.791 4048
-1.242 3.434 1.698 4195
-1.350 3.733 1.822 4847
-1.352 3.737 1.810 6194
-1.351 3.735 1.796 7175
-1.353 3.739 1.784 7509
-1.352 3.737 1.770 9282
-1.353 3.741 1.758 10792
-1.357 3.753 1.750 9611
-1.362 3.764 1.741 6783
-1.408 3.893 1.783 6057
-1.370 3.787 1.724 6604
-1.424 3.936 1.774 5927
-1.438 3.975 1.776 7873
-1.437 3.973 1.761 9294
-1.439 3.977 1.749 8150
-1.445 3.996 1.742 4580
-1.462 4.042 1.747 3747
-1.481 4.095 1.754 3392
-1.495 4.134 1.755 3345
-1.505 4.160 1.751 4966
-1.499 4.143 1.730 5080
-1.495 4.134 1.712 3564
-1.573 4.348 1.780 3769
-1.579 4.367 1.772 3978
-1.589 4.392 1.766 4377
-1.585 4.383 1.747 4640
-1.577 4.359 1.723 5340
-1.581 4.370 1.713 4265
-1.631 4.508 1.748 3115
-1.599 4.421 1.701 3277
-1.642 4.538 1.727 4024
-1.641 4.536 1.711 3707
-1.668 4.611 1.722 2849
-1.664 4.601 1.703 3927
-1.694 4.683 1.715 3520
-1.729 4.780 1.732 4047
-1.733 4.791 1.719 3779
-1.768 4.888 1.735 4470
-1.770 4.892 1.720 3017
-1.720 4.754 1.659 2241
-1.809 5.001 1.722 2992
-1.816 5.019 1.711 3851
-1.820 5.031 1.698 3605
-1.821 5.035 1.683 3279
-1.828 5.053 1.671 2913
-1.866 5.158 1.686 2891
-1.862 5.148 1.666 2121
-1.900 5.252 1.680 2093
-1.943 5.371 1.698 2991
-1.986 5.491 1.714 3232
-1.990 5.502 1.699 2840
-2.033 5.621 1.715 2529
-1.991 5.503 1.664 2697
-2.094 5.789 1.724 4358
-2.098 5.800 1.708 5979
-2.102 5.812 1.693 5368
-2.101 5.809 1.673 3155
-2.191 6.058 1.720 2028
-2.201 6.084 1.707 2772
-2.202 6.089 1.688 3058
-2.317 6.404 1.748 2006
-2.321 6.416 1.730 2501
-2.286 6.319 1.685 2946
-2.290 6.330 1.667 2743
-2.336 6.458 1.678 1626
-2.332 6.448 1.654 1629
-2.470 6.830 1.723 2227
-2.475 6.841 1.703 2842
-2.479 6.853 1.684 1602
-2.607 7.207 1.741 2412
-2.606 7.204 1.717 2522
-2.610 7.216 1.697 2380
-2.614 7.227 1.676 2658
-2.618 7.239 1.655 2425
-2.620 7.243 1.633 2383
-2.785 7.700 1.703 2186
-2.948 8.150 1.769 1711
-2.947 8.148 1.743 1874
-2.946 8.145 1.716 1403
-3.189 8.816 1.819 845
-3.188 8.813 1.790 1057
-3.123 8.634 1.729 871
-3.122 8.631 1.701 965
-3.193 8.826 1.709 823
-3.194 8.830 1.681 759
-3.196 8.835 1.654 384
-1.520 4.201 -0.105 291
-1.522 4.208 -0.118 329
-1.522 4.207 -0.131 369
-1.527 4.221 -0.145 365
-1.537 4.250 -0.160 426
-1.540 4.257 -0.174 616
-1.542 4.263 -0.187 810
-1.544 4.270 -0.201 1013
-1.544 4.269 -0.214 1212
-1.544 4.268 -0.227 1212
-1.543 4.267 -0.240 1324
-1.540 4.258 -0.253 1444
-1.540 4.257 -0.266 1408
-1.539 4.256 -0.279 1372
-1.542 4.262 -0.293 1148
-1.541 4.261 -0.306 925
-1.541 4.260 -0.319 925
-1.538 4.251 -0.331 639
-1.205 3.332 -0.238 506
-1.205 3.331 -0.249 506
-1.204 3.330 -0.259 627
-1.204 3.329 -0.269 749
-1.204 3.328 -0.279 374
-0.796 2.221 1.791 4002
-0.797 2.226 1.784 8004
-0.801 2.236 1.782 8117
-0.803 2.241 1.775 7918
-0.804 2.245 1.769 7719
-0.813 2.268 1.775 7207
-0.819 2.285 1.778 7432
-0.820 2.289 1.771 7432
-0.826 2.306 1.773 7735
-0.830 2.317 1.770 9018
-0.836 2.334 1.772 7798
-0.844 2.357 1.778 7429
-0.846 2.361 1.771 7993
-0.848 2.366 1.764 8558
-0.849 2.370 1.756 8558
-0.855 2.387 1.758 9097
-0.857 2.392 1.751 9890
-0.858 2.396 1.743 7118
-0.864 2.413 1.745 4637
-0.904 2.524 1.810 6185
-0.908 2.535 1.806 8995
-0.910 2.540 1.798 8960
-0.911 2.544 1.791 8925
-0.918 2.561 1.791 6834
-0.924 2.579 1.792 5333
-0.925 2.583 1.784 4803
-0.909 2.537 1.743 4525
-0.929 2.592 1.768 5199
-0.930 2.597 1.760 6125
-0.971 2.710 1.821 5471
-0.975 2.721 1.817 5850
-0.974 2.719 1.805 5522
-0.964 2.692 1.777 5697
-0.964 2.690 1.765 5221
-0.963 2.688 1.752 4797
-1.004 2.802 1.811 3724
-1.008 2.813 1.806 5209
-1.007 2.811 1.794 5044
-1.009 2.816 1.785 5193
-1.010 2.820 1.777 5506
-1.012 2.825 1.768 5110
-1.014 2.829 1.760 4714
-1.022 2.853 1.762 5062
-1.028 2.871 1.761 5254
-1.037 2.895 1.764 5223
-1.039 2.899 1.755 4716
-1.078 3.009 1.805 6587
-1.080 3.014 1.796 7776
-1.086 3.031 1.794 8235
-1.090 3.043 1.789 7702
-1.066 2.974 1.740 6161
-1.072 2.992 1.738 5750
-1.073 2.996 1.729 6191
-1.080 3.014 1.727 6028
-1.086 3.032 1.725 6451
-1.123 3.136 1.768 6504
-1.125 3.140 1.759 8893
-1.127 3.145 1.749 9345
-1.131 3.156 1.743 10466
-1.132 3.160 1.733 11809
-1.136 3.172 1.727 9566
-1.143 3.189 1.724 7765
-1.176 3.281 1.758 8197
-1.177 3.286 1.748 8888
-1.176 3.283 1.735 8698
-1.185 3.308 1.735 9414
-1.187 3.312 1.725 10928
-1.188 3.317 1.715 9251
-1.202 3.355 1.721 5810
-1.211 3.380 1.720 5830
-1.215 3.391 1.713 6464
-1.221 3.409 1.709 5052
-1.228 3.427 1.705 4434
-1.232 3.438 1.698 4724
-1.233 3.442 1.687 5363
-1.340 3.741 1.810 5978
-1.340 3.739 1.796 6711
-1.341 3.744 1.784 7461
-1.340 3.741 1.770 9074
-1.342 3.746 1.758 10260
-1.346 3.757 1.750 9459
-1.350 3.768 1.741 7006
-1.354 3.780 1.733 5950
-1.358 3.791 1.724 6780
-1.360 3.795 1.713 5705
-1.426 3.980 1.776 5978
-1.427 3.984 1.764 6694
-1.427 3.982 1.749 5484
-1.431 3.993 1.740 3090
-1.472 4.109 1.772 2771
-1.474 4.114 1.760 3013
-1.468 4.097 1.739 2869
-1.494 4.171 1.754 3726
-1.481 4.134 1.725 4596
-1.480 4.131 1.709 3363
-1.559 4.353 1.780 2560
-1.206 3.367 1.392 2974
-1.208 3.371 1.382 3394
-1.549 4.324 1.724 3324
-1.558 4.349 1.718 4320
-1.567 4.375 1.713 3373
-1.619 4.520 1.750 2765
-1.586 4.426 1.701 3313
-1.587 4.430 1.687 3956
-1.639 4.576 1.723 2959
-1.654 4.616 1.722 3777
-1.653 4.613 1.705 4707
-1.662 4.639 1.698 3900
-1.709 4.771 1.727 4403
-1.716 4.789 1.717 4874
-1.722 4.808 1.707 3592
-1.755 4.898 1.720 2422
-1.710 4.774 1.664 3032
-1.796 5.013 1.724 3275
-1.803 5.032 1.713 3948
-1.807 5.043 1.700 3442
-1.808 5.048 1.685 3091
-1.818 5.073 1.676 3038
-1.817 5.070 1.658 2473
-1.846 5.153 1.666 2075
-1.886 5.265 1.682 2119
-1.924 5.370 1.695 3032
-1.969 5.497 1.714 2761
-1.960 5.472 1.689 2438
-2.016 5.628 1.715 2858
-1.974 5.509 1.664 3049
-2.073 5.788 1.722 2950
-2.085 5.821 1.712 4441
-2.087 5.825 1.695 4582
-2.078 5.801 1.669 2787
-2.080 5.805 1.651 2336
-2.182 6.091 1.707 3395
-2.184 6.095 1.688 3933
-2.183 6.092 1.667 2526
-2.296 6.409 1.726 2683
-2.269 6.333 1.687 2770
-2.270 6.337 1.667 2514
-2.316 6.465 1.678 1964
-2.315 6.462 1.656 2276
-2.450 6.837 1.723 1952
-2.454 6.849 1.703 2651
-2.455 6.853 1.682 1421
-2.585 7.215 1.741 2091
-2.584 7.212 1.717 2227
-2.585 7.216 1.695 1820
-2.655 7.410 1.713 1767
-2.659 7.422 1.692 1990
-2.763 7.712 1.729 1799
-2.764 7.716 1.705 1998
-2.926 8.167 1.771 1291
-2.925 8.164 1.744 1360
-2.918 8.146 1.715 1169
-3.162 8.825 1.819 1147
-3.163 8.830 1.792 1232
-3.089 8.622 1.725 1046
-3.093 8.633 1.700 1120
-3.166 8.836 1.709 999
-3.167 8.840 1.681 847
-3.169 8.844 1.654 444
-1.509 4.212 -0.118 274
-1.514 4.226 -0.132 338
-1.530 4.270 -0.148 353
-1.532 4.277 -0.162 448
-1.527 4.261 -0.174 642
-1.529 4.268 -0.187 847
-1.531 4.274 -0.201 1017
-1.531 4.273 -0.214 1197
-1.531 4.272 -0.227 1197
-1.528 4.264 -0.240 1284
-1.527 4.263 -0.253 1393
-1.527 4.262 -0.266 1384
-1.524 4.253 -0.278 1379
-1.526 4.259 -0.292 1225
-1.526 4.258 -0.305 1075
-1.525 4.257 -0.318 1075
-1.525 4.256 -0.331 846
-1.195 3.336 -0.238 660
-1.195 3.335 -0.249 660
-1.194 3.333 -0.259 772
-1.191 3.325 -0.268 891
-1.191 3.324 -0.278 445
-0.809 2.216 1.791 3596
-0.811 2.221 1.784 7192
-0.814 2.232 1.782 7328
-0.816 2.236 1.775 7051
-0.820 2.247 1.773 6814
-0.826 2.263 1.775 6293
-0.832 2.280 1.778 6452
-0.834 2.285 1.771 6452
-0.842 2.307 1.777 7127
-0.846 2.318 1.774 8687
-0.850 2.329 1.772 7619
-0.858 2.352 1.778 7099
-0.860 2.356 1.771 7909
-0.864 2.367 1.768 8731
-0.865 2.371 1.761 8731
-0.869 2.382 1.758 9670
-0.871 2.386 1.751 10787
-0.872 2.391 1.743 7990
-0.879 2.408 1.745 5454
-0.919 2.519 1.810 6048
-0.923 2.530 1.806 8625
-0.925 2.534 1.798 8445
-0.926 2.539 1.791 8265
-0.930 2.550 1.787 6000
-0.939 2.573 1.792 4401
-0.941 2.578 1.784 4273
-0.947 2.595 1.784 4209
-0.946 2.593 1.772 4961
-0.948 2.597 1.764 5752
-0.989 2.711 1.825 5323
-0.991 2.715 1.817 5729
-0.990 2.713 1.805 5395
-0.982 2.692 1.781 5504
-0.982 2.690 1.768 4949
-0.981 2.688 1.756 4516
-1.020 2.796 1.811 3672
-1.020 2.794 1.799 5272
-1.021 2.799 1.790 4984
-1.025 2.810 1.785 4735
-1.027 2.814 1.777 4787
-1.031 2.825 1.772 4791
-1.037 2.843 1.771 5138
-1.039 2.847 1.762 5800
-1.072 2.937 1.803 5613
-1.073 2.941 1.794 5948
-1.077 2.952 1.789 5321
-1.096 3.003 1.805 5644
-1.097 3.007 1.796 6779
-1.104 3.025 1.794 7049
-1.108 3.036 1.789 6699
-1.083 2.968 1.740 5843
-1.089 2.985 1.738 6617
-1.089 2.983 1.725 8070
-1.095 3.001 1.723 7368
-1.102 3.018 1.721 6748
-1.108 3.036 1.719 5572
-1.141 3.127 1.755 8039
-1.145 3.138 1.749 9025
-1.149 3.149 1.743 10530
-1.151 3.154 1.733 12044
-1.155 3.165 1.727 9448
-1.159 3.176 1.721 7193
-1.197 3.281 1.762 7479
-1.199 3.285 1.752 8357
-1.201 3.290 1.742 8795
-1.202 3.294 1.732 8906
-1.204 3.299 1.722 9946
-1.208 3.310 1.715 8903
-1.224 3.355 1.724 6508
-1.231 3.373 1.720 6570
-1.232 3.377 1.710 6462
-1.244 3.408 1.712 5249
-1.250 3.426 1.708 5104
-1.252 3.431 1.698 5269
-1.256 3.442 1.690 6047
-1.258 3.446 1.680 6744
-1.259 3.450 1.669 6673
-1.363 3.736 1.784 6536
-1.362 3.733 1.770 8044
-1.364 3.738 1.758 9103
-1.368 3.749 1.750 8742
-1.370 3.753 1.739 6825
-1.376 3.772 1.733 5468
-1.380 3.783 1.724 6385
-1.382 3.787 1.713 5697
-1.452 3.978 1.779 4189
-1.453 3.983 1.767 4679
-1.450 3.973 1.749 3683
-1.449 3.971 1.734 2407
-1.494 4.093 1.770 2467
-1.498 4.105 1.760 3168
-1.489 4.081 1.736 3431
-1.494 4.093 1.726 3810
-1.503 4.118 1.722 4231
-1.540 4.220 1.747 3012
-1.225 3.357 1.402 2427
-1.226 3.360 1.392 3519
-1.227 3.364 1.382 3859
-1.575 4.315 1.724 3689
-1.581 4.333 1.716 4109
-1.591 4.359 1.710 2834
-1.644 4.504 1.748 2402
-1.609 4.409 1.698 3098
-1.611 4.414 1.685 3909
-1.669 4.573 1.726 3196
-1.681 4.606 1.722 4145
-1.682 4.610 1.707 4794
-1.689 4.629 1.698 3804
-1.742 4.775 1.732 3533
-1.747 4.786 1.719 4079
-1.751 4.798 1.707 2989
-1.742 4.773 1.683 2109
-1.741 4.771 1.666 1936
-1.826 5.003 1.724 3125
-1.832 5.021 1.713 3794
-1.844 5.054 1.707 3200
-1.812 4.965 1.663 3373
-1.847 5.063 1.676 2953
-1.846 5.060 1.658 2290
-1.877 5.142 1.666 1892
-1.915 5.247 1.680 2006
-1.958 5.366 1.698 2934
-1.960 5.370 1.681 2440
-1.993 5.460 1.689 2454
-2.052 5.623 1.717 2799
-2.054 5.627 1.700 3264
-2.058 5.639 1.684 2491
-2.120 5.808 1.712 3944
-2.124 5.820 1.696 4106
-2.107 5.774 1.665 2442
-2.114 5.792 1.651 2647
-2.218 6.078 1.707 3260
-2.220 6.082 1.688 3889
-2.205 6.043 1.658 2935
-2.331 6.388 1.725 2647
-2.335 6.399 1.707 2676
-2.308 6.324 1.667 2018
-2.354 6.451 1.678 1907
-2.351 6.441 1.654 2410
-2.349 6.438 1.633 1768
-2.494 6.834 1.703 2343
-2.496 6.839 1.682 1320
-2.625 7.192 1.739 1799
-2.624 7.189 1.716 1963
-2.620 7.179 1.690 1455
-2.699 7.395 1.713 1913
-2.703 7.406 1.692 2253
-2.816 7.717 1.733 1657
-2.812 7.707 1.706 1758
-2.817 7.718 1.684 1221
-2.989 8.190 1.753 1210
-3.049 8.356 1.759 1085
-3.214 8.807 1.819 1170
-3.215 8.811 1.792 1167
-3.140 8.603 1.725 1226
-3.141 8.607 1.698 1275
-3.143 8.612 1.672 1023
-3.222 8.829 1.683 810
-3.221 8.826 1.654 501
-3.220 8.822 1.626 279
-1.529 4.189 -0.105 251
-1.531 4.196 -0.118 256
-1.536 4.210 -0.132 267
-1.552 4.254 -0.148 325
-1.555 4.260 -0.161 426
-1.552 4.252 -0.174 570
-1.554 4.259 -0.187 707
-1.556 4.265 -0.201 810
-1.556 4.264 -0.214 922
-1.556 4.263 -0.227 922
-1.555 4.262 -0.240 967
-1.555 4.261 -0.253 1012
-1.555 4.260 -0.267 1071
-1.554 4.259 -0.280 1129
-1.554 4.258 -0.293 1065
-1.553 4.257 -0.306 1001
-1.553 4.255 -0.319 1001
-1.552 4.254 -0.332 861
-1.549 4.245 -0.344 729
-1.549 4.244 -0.357 587
-1.214 3.326 -0.259 588
-1.213 3.325 -0.269 698
-1.213 3.324 -0.279 349
-0.805 2.218 1.791 3312
-0.806 2.223 1.784 6624
-0.810 2.233 1.782 6761
-0.814 2.244 1.780 6425
-0.818 2.254 1.778 6124
-0.824 2.271 1.780 5531
-0.830 2.288 1.782 5727
-0.831 2.292 1.775 5727
-0.840 2.315 1.781 6753
-0.841 2.320 1.774 8423
-0.845 2.330 1.772 7452
-0.851 2.347 1.774 6837
-0.855 2.358 1.771 7791
-0.859 2.369 1.768 8821
-0.861 2.373 1.761 8821
-0.865 2.384 1.758 10038
-0.866 2.388 1.751 11408
-0.868 2.393 1.743 8607
-0.874 2.409 1.745 6023
-0.914 2.521 1.810 5966
-0.918 2.531 1.806 8345
-0.918 2.530 1.794 8065
-0.919 2.534 1.787 7786
-0.923 2.545 1.783 5422
-0.936 2.581 1.796 3719
-0.938 2.586 1.788 3950
-0.942 2.597 1.784 4222
-0.941 2.595 1.772 4791
-0.943 2.599 1.764 5400
-0.984 2.712 1.825 5240
-0.986 2.717 1.817 5664
-0.985 2.715 1.805 5312
-0.980 2.701 1.785 5328
-0.979 2.699 1.772 4735
-0.978 2.697 1.760 4268
-1.015 2.798 1.811 3670
-1.014 2.796 1.799 5418
-1.013 2.794 1.786 5018
-1.020 2.812 1.785 4335
-1.021 2.816 1.777 4148
-1.028 2.834 1.776 4544
-1.034 2.851 1.775 5731
-1.033 2.849 1.762 6281
-1.066 2.939 1.803 6091
-1.068 2.943 1.794 6369
-1.072 2.954 1.789 5747
-1.061 2.926 1.761 5230
-1.092 3.009 1.796 5924
-1.091 3.007 1.783 6095
-1.078 2.972 1.752 6159
-1.080 2.977 1.743 6243
-1.081 2.981 1.734 8053
-1.083 2.985 1.725 9842
-1.087 2.996 1.720 8727
-1.096 3.021 1.721 7287
-1.100 3.032 1.715 5885
-1.137 3.136 1.759 7094
-1.139 3.140 1.749 8475
-1.143 3.152 1.743 10363
-1.147 3.163 1.737 11983
-1.149 3.167 1.727 9111
-1.189 3.279 1.772 6835
-1.191 3.283 1.762 6873
-1.193 3.288 1.752 7874
-1.194 3.292 1.742 8837
-1.198 3.303 1.735 8391
-1.200 3.308 1.725 9039
-1.204 3.319 1.718 8712
-1.218 3.357 1.724 7426
-1.222 3.368 1.717 7295
-1.226 3.379 1.710 6533
-1.240 3.418 1.716 5558
-1.246 3.436 1.712 5874
-1.248 3.440 1.701 5831
-1.249 3.444 1.690 6696
-1.251 3.448 1.680 7531
-1.252 3.453 1.669 7305
-1.249 3.443 1.653 5984
-1.355 3.736 1.770 6788
-1.357 3.740 1.758 7809
-1.361 3.752 1.750 7927
-1.360 3.749 1.736 6566
-1.369 3.774 1.733 4931
-1.373 3.785 1.724 5913
-1.375 3.790 1.713 5528
-1.376 3.794 1.701 3815
-1.448 3.993 1.770 3485
-1.440 3.969 1.746 2701
-1.439 3.967 1.731 2249
-1.486 4.096 1.770 2402
-1.487 4.101 1.757 3472
-1.481 4.084 1.736 4068
