-3.883 6.786 1.656 1316
-4.618 8.072 1.917 957
-3.767 6.585 1.565 934
-2.127 3.717 0.926 1030
-2.128 3.719 0.914 1384
-2.133 3.728 0.903 1620
-2.138 3.737 0.892 2038
-1.984 3.468 0.825 2350
-2.144 3.747 0.869 2247
-2.141 3.742 0.855 2787
-3.515 6.144 1.299 2017
-3.513 6.140 1.278 2839
-3.514 6.143 1.257 3407
-3.516 6.146 1.237 3342
-3.518 6.149 1.216 2911
-3.519 6.151 1.195 2495
-3.525 6.161 1.176 1946
-3.526 6.163 1.156 1252
-3.528 6.166 1.135 773
-3.533 6.175 1.115 621
-3.530 6.171 1.094 465
-3.790 6.625 0.163 287
-3.794 6.632 0.141 394
-3.794 6.632 0.119 440
-3.790 6.625 0.096 493
-3.790 6.625 0.074 548
-3.794 6.632 0.052 528
-3.794 6.631 0.030 515
-3.794 6.631 0.008 486
-3.794 6.631 -0.014 457
-2.889 5.050 0.006 430
-2.889 5.050 -0.011 487
-2.881 5.036 -0.028 394
-2.857 4.994 -0.043 521
-2.853 4.987 -0.059 466
-2.853 4.986 -0.076 416
-2.848 4.979 -0.092 335
-2.825 4.937 -0.107 325
-2.793 4.881 -0.120 370
-2.788 4.874 -0.136 513
-2.780 4.859 -0.151 498
-2.776 4.852 -0.167 509
-2.775 4.851 -0.183 490
-2.779 4.857 -0.200 476
-2.774 4.849 -0.216 488
-2.774 4.848 -0.232 504
-2.738 4.786 -0.243 402
-2.730 4.771 -0.258 537
-2.709 4.736 -0.271 500
-2.705 4.728 -0.286 546
-2.712 4.740 -0.303 536
-2.715 4.746 -0.319 571
-2.715 4.745 -0.335 571
-2.710 4.737 -0.350 448
-2.690 4.701 -0.362 449
-2.685 4.693 -0.377 384
-2.673 4.671 -0.390 372
-3.900 6.817 -0.659 334
-3.895 6.808 -0.681 352
-3.894 6.806 -0.704 365
-3.892 6.803 -0.726 378
-3.891 6.801 -0.749 378
-1.169 2.050 1.791 1102
-1.213 2.127 1.844 4548
-1.215 2.131 1.837 9097
-1.221 2.141 1.835 8260
-1.227 2.151 1.832 7559
-1.232 2.161 1.830 5686
-1.267 2.221 1.868 5059
-1.273 2.232 1.865 6437
-1.275 2.236 1.857 5523
-1.258 2.206 1.823 5152
-1.287 2.256 1.851 5515
-1.292 2.266 1.848 6585
-1.295 2.270 1.841 6747
-1.304 2.286 1.842 7240
-1.306 2.290 1.835 7240
-1.345 2.358 1.875 7285
-1.347 2.362 1.867 7818
-1.347 2.361 1.855 8466
-1.349 2.365 1.847 9182
-1.352 2.370 1.839 8121
-1.354 2.374 1.832 7060
-1.360 2.384 1.828 5941
-1.366 2.394 1.824 4866
-1.368 2.398 1.816 3648
-1.427 2.502 1.879 3089
-1.369 2.401 1.796 2801
-1.369 2.399 1.784 3243
-1.374 2.409 1.781 3076
-1.467 2.573 1.883 3040
-1.470 2.577 1.874 4641
-1.469 2.576 1.862 6265
-1.472 2.580 1.853 6996
-1.474 2.584 1.845 7728
-1.476 2.589 1.836 6525
-1.476 2.587 1.824 5377
-1.481 2.597 1.819 6228
-1.484 2.602 1.810 7134
-1.490 2.612 1.806 7676
-1.492 2.616 1.797 6908
-1.494 2.620 1.788 5542
-1.541 2.703 1.830 5264
-1.540 2.701 1.817 6016
-1.574 2.759 1.842 5341
-1.580 2.770 1.837 7720
-1.582 2.774 1.828 8636
-1.588 2.784 1.822 9734
-1.594 2.795 1.817 10344
-1.603 2.811 1.815 10674
-1.616 2.834 1.816 9572
-1.622 2.844 1.811 7840
-1.645 2.885 1.823 7188
-1.655 2.901 1.821 7717
-1.654 2.899 1.808 10105
-1.656 2.904 1.798 14899
-1.662 2.914 1.792 17346
-1.664 2.918 1.782 18778
-1.674 2.935 1.780 18448
-1.680 2.945 1.773 17105
-1.682 2.949 1.764 13627
-1.691 2.966 1.761 9829
-1.708 2.995 1.765 12546
-1.710 2.999 1.755 14316
-1.716 3.009 1.748 11542
-1.761 3.088 1.779 12607
-1.763 3.092 1.768 13058
-1.766 3.096 1.758 10866
-1.779 3.119 1.758 8038
-1.774 3.110 1.741 7050
-1.773 3.108 1.727 6839
-1.775 3.112 1.717 5665
-1.806 3.167 1.732 5553
-1.808 3.171 1.722 5394
-1.954 3.427 1.838 4641
-1.953 3.425 1.824 5569
-1.956 3.429 1.812 4772
-1.994 3.496 1.832 4780
-2.000 3.507 1.824 5440
-1.999 3.505 1.809 7126
-1.998 3.503 1.794 13668
-2.000 3.507 1.783 18340
-2.003 3.511 1.771 18537
-2.012 3.528 1.765 17579
-2.018 3.538 1.757 13669
-2.024 3.549 1.748 7688
-2.030 3.559 1.739 4232
-2.032 3.563 1.727 5529
-2.031 3.561 1.712 5429
-2.030 3.559 1.698 4560
-2.032 3.563 1.686 5835
-2.041 3.579 1.680 6158
-2.051 3.596 1.673 4832
-2.057 3.606 1.664 3137
-2.273 3.984 1.811 2996
-2.363 4.144 1.863 3534
-2.373 4.161 1.855 5826
-2.376 4.165 1.841 5320
-2.360 4.137 1.814 3156
-2.447 4.291 1.861 2816
-2.479 4.347 1.867 2644
-2.504 4.390 1.868 3352
-2.458 4.310 1.820 3618
-2.468 4.327 1.811 5230
-2.474 4.338 1.799 4449
-2.518 4.414 1.812 3152
-2.572 4.510 1.832 3080
-2.560 4.488 1.808 5214
-2.569 4.505 1.798 5229
-2.591 4.542 1.795 4622
-2.597 4.553 1.782 2686
-2.678 4.695 1.817 2705
-2.680 4.699 1.801 2709
-2.694 4.723 1.792 3373
-2.692 4.720 1.774 3348
-2.781 4.876 1.811 3220
-2.783 4.880 1.795 2975
-2.831 4.964 1.805 3184
-2.841 4.981 1.793 4476
-2.855 5.005 1.783 3990
-2.936 5.148 1.812 2452
-2.946 5.166 1.799 2245
-2.967 5.203 1.793 1670
-3.057 5.359 1.824 2698
-3.063 5.370 1.808 1938
-3.088 5.414 1.802 1565
-3.083 5.405 1.780 2565
-3.241 5.682 1.845 3171
-3.243 5.686 1.826 3218
-3.231 5.664 1.799 3156
-3.237 5.675 1.782 2945
-3.250 5.699 1.769 2497
-3.417 5.990 1.832 2434
-3.423 6.001 1.814 2683
-3.421 5.999 1.792 1656
-3.466 6.076 1.792 2376
-3.460 6.067 1.768 2405
-3.944 6.915 1.973 1919
-3.954 6.933 1.954 2225
-3.957 6.938 1.931 2246
-3.998 7.010 1.925 1641
-3.993 7.001 1.898 1647
-3.972 6.965 1.864 1343
-3.983 6.983 1.844 1150
-3.851 6.751 1.764 1444
-3.857 6.762 1.743 1126
-4.505 7.898 1.987 1482
-3.869 6.784 1.701 1908
-3.871 6.788 1.678 1585
-3.874 6.792 1.656 1160
-3.745 6.566 1.582 1200
-3.758 6.590 1.565 1051
-2.122 3.720 0.926 2095
-2.123 3.722 0.914 3946
-2.128 3.731 0.903 4549
-2.129 3.733 0.891 4103
-2.130 3.735 0.878 2889
-2.131 3.736 0.866 2664
-2.136 3.745 0.855 2440
-2.141 3.754 0.844 1542
-3.505 6.145 1.278 2656
-3.506 6.148 1.257 4326
-3.508 6.150 1.237 5253
-3.509 6.153 1.216 5112
-3.511 6.156 1.195 4129
-3.513 6.159 1.175 2529
-3.518 6.168 1.156 1168
-3.519 6.171 1.135 645
-3.521 6.173 1.114 677
-3.518 6.169 1.093 655
-3.520 6.171 1.072 479
-3.517 6.167 1.051 273
-3.483 6.107 1.021 279
-3.088 5.415 0.411 250
-3.081 5.402 0.392 260
-3.030 5.313 0.371 290
-3.031 5.313 0.353 426
-3.047 5.341 0.336 544
-3.051 5.349 0.319 537
-3.047 5.342 0.301 408
-3.020 5.295 0.281 342
-3.000 5.261 0.263 374
-3.020 5.295 0.246 389
-3.020 5.295 0.229 448
-2.966 5.199 0.210 402
-2.970 5.206 0.192 439
-2.977 5.220 0.175 370
-2.981 5.227 0.158 344
-3.782 6.630 0.141 374
-3.785 6.637 0.119 435
-3.781 6.630 0.096 479
-3.781 6.630 0.074 526
-3.785 6.637 0.052 544
-3.785 6.636 0.030 568
-3.785 6.636 0.008 562
-2.883 5.054 0.022 700
-2.883 5.054 0.006 769
-2.882 5.054 -0.011 838
-2.878 5.046 -0.028 651
-2.847 4.991 -0.043 853
-2.846 4.990 -0.059 745
-2.846 4.990 -0.076 637
-2.799 4.907 -0.089 560
-2.814 4.934 -0.106 543
-2.786 4.885 -0.120 604
-2.778 4.871 -0.136 817
-2.774 4.863 -0.151 795
-2.769 4.855 -0.167 802
-2.773 4.862 -0.184 766
-2.772 4.861 -0.200 739
-2.772 4.860 -0.216 730
-2.767 4.852 -0.232 737
-2.728 4.782 -0.242 636
-2.723 4.775 -0.258 836
-2.703 4.739 -0.271 799
-2.699 4.731 -0.286 878
-2.706 4.744 -0.303 871
-2.709 4.750 -0.319 924
-2.708 4.749 -0.335 924
-2.704 4.740 -0.350 705
-2.683 4.705 -0.362 689
-2.671 4.683 -0.376 581
-2.662 4.668 -0.390 562
-2.658 4.660 -0.404 471
-3.886 6.813 -0.681 401
-2.656 4.657 -0.435 391
-2.655 4.656 -0.451 468
-2.654 4.654 -0.466 546
-2.654 4.653 -0.482 273
-1.157 2.041 1.782 1260
-1.211 2.135 1.849 4504
-1.213 2.140 1.842 9008
-1.219 2.150 1.839 8384
-1.221 2.154 1.832 7823
-1.227 2.164 1.830 6153
-1.242 2.191 1.841 4946
-1.264 2.229 1.860 5756
-1.250 2.205 1.831 5133
-1.249 2.204 1.819 5016
-1.281 2.259 1.851 5589
-1.283 2.264 1.844 7075
-1.289 2.274 1.841 7274
-1.298 2.289 1.842 7778
-1.300 2.294 1.835 7778
-1.339 2.362 1.875 8083
-1.341 2.366 1.867 8571
-1.344 2.370 1.859 8619
-1.346 2.375 1.851 8578
-1.345 2.373 1.839 7376
-1.348 2.377 1.832 6194
-1.354 2.388 1.828 5395
-1.356 2.392 1.820 4723
-1.362 2.402 1.816 3671
-1.421 2.506 1.879 3183
-1.423 2.510 1.871 2803
-1.366 2.409 1.789 2928
-1.368 2.413 1.781 2919
-1.374 2.423 1.777 2936
-1.460 2.575 1.870 4323
-1.462 2.579 1.862 5929
-1.465 2.584 1.853 6462
-1.464 2.582 1.841 7001
-1.466 2.587 1.832 5906
-1.469 2.591 1.824 4810
-1.475 2.601 1.819 5426
-1.477 2.605 1.810 6071
-1.483 2.616 1.806 6334
-1.485 2.620 1.797 5511
-1.488 2.624 1.788 4341
-1.531 2.700 1.826 4195
-1.533 2.705 1.817 4774
-1.567 2.763 1.842 4939
-1.573 2.774 1.837 7423
-1.572 2.772 1.824 8338
-1.577 2.782 1.818 9267
-1.587 2.799 1.817 10050
-1.596 2.815 1.815 10039
-1.609 2.838 1.816 8574
-1.618 2.854 1.814 7103
-1.638 2.889 1.823 8017
-1.647 2.906 1.821 9849
-1.646 2.904 1.808 11986
-1.649 2.908 1.798 16318
-1.655 2.918 1.792 18411
-1.657 2.923 1.782 19496
-1.666 2.939 1.780 18372
-1.672 2.949 1.773 16934
-1.674 2.954 1.764 13550
-1.694 2.989 1.771 10122
-1.700 2.999 1.765 13089
-1.703 3.003 1.755 15013
-1.708 3.013 1.748 12330
-1.757 3.099 1.782 14084
-1.756 3.096 1.768 14494
-1.761 3.107 1.762 12339
-1.767 3.117 1.755 9273
-1.766 3.115 1.741 8001
-1.765 3.113 1.727 7126
-1.774 3.129 1.724 5822
-1.798 3.171 1.732 5395
-1.800 3.175 1.722 4901
-1.946 3.432 1.838 4936
-1.944 3.430 1.824 6162
-1.947 3.434 1.812 5245
-1.985 3.501 1.832 4693
-1.991 3.512 1.824 4884
-1.990 3.510 1.809 5995
-1.989 3.508 1.794 11691
-1.991 3.512 1.783 15854
-1.994 3.516 1.771 16472
-1.999 3.527 1.762 15665
-2.009 3.544 1.757 12118
-2.019 3.561 1.751 7270
-2.025 3.571 1.742 4010
-2.023 3.569 1.727 4534
-2.022 3.566 1.712 4658
-2.020 3.564 1.698 3998
-2.026 3.574 1.689 4730
-2.036 3.591 1.683 4400
-2.287 4.033 1.860 3648
-2.285 4.031 1.844 3909
-2.284 4.029 1.828 3689
-2.305 4.066 1.828 3331
-2.362 4.167 1.855 5006
-2.361 4.165 1.838 4929
-2.345 4.137 1.811 3558
-2.348 4.141 1.798 2162
-2.464 4.347 1.865 2771
-2.445 4.312 1.835 3674
-2.451 4.323 1.823 4028
-2.457 4.334 1.811 4706
-2.463 4.344 1.799 4264
-2.502 4.414 1.810 2737
-2.564 4.523 1.835 3239
-2.548 4.494 1.808 5129
-2.558 4.512 1.798 4984
-2.579 4.549 1.795 4993
-2.585 4.559 1.782 3073
-2.666 4.702 1.817 2981
-2.668 4.706 1.801 2750
-2.682 4.730 1.792 3203
-2.680 4.727 1.774 3329
-2.694 4.751 1.765 2696
-2.700 4.762 1.752 2854
-2.818 4.971 1.805 3235
-2.824 4.982 1.791 4225
-2.834 4.999 1.779 3535
-2.912 5.136 1.806 2505
-2.955 5.213 1.812 2060
-3.037 5.356 1.839 1864
-3.043 5.367 1.824 2775
-3.045 5.372 1.806 1886
-3.025 5.336 1.776 1710
-3.043 5.367 1.766 2402
-3.222 5.684 1.843 3235
-3.225 5.688 1.824 3307
-3.212 5.666 1.797 3682
-3.218 5.677 1.780 3515
-3.232 5.701 1.767 3110
-3.227 5.691 1.744 2665
-3.407 6.010 1.814 3076
-3.406 6.007 1.792 1773
-3.446 6.079 1.790 2408
-3.445 6.076 1.768 2547
-3.926 6.926 1.973 1824
-3.933 6.937 1.952 2057
-3.943 6.955 1.932 2021
-3.988 7.033 1.928 1919
-3.990 7.038 1.905 1969
-4.000 7.056 1.884 1427
-4.007 7.067 1.863 1188
-3.833 6.761 1.764 2043
-3.836 6.765 1.741 1713
-3.834 6.763 1.717 1397
-3.668 6.470 1.626 1622
-3.674 6.480 1.606 2115
-3.680 6.491 1.586 2249
-3.682 6.494 1.564 2141
-3.684 6.498 1.543 1698
-2.116 3.732 0.928 1153
-2.113 3.727 0.914 2704
-2.114 3.729 0.902 3388
-2.119 3.738 0.891 2371
-2.120 3.740 0.878 1614
-2.114 3.728 0.863 1780
-1.965 3.465 0.800 1747
-3.491 6.158 1.299 2146
-3.489 6.154 1.278 2612
-3.490 6.157 1.257 2803
-3.492 6.159 1.237 3988
-3.494 6.162 1.216 5462
-3.491 6.158 1.194 5411
-3.493 6.161 1.174 3789
-3.494 6.163 1.153 1914
-3.488 6.152 1.131 868
-3.462 6.107 1.102 630
-3.499 6.171 1.092 495
-3.500 6.173 1.071 385
-3.439 6.066 1.034 379
-3.437 6.062 1.013 405
-3.438 6.064 0.993 305
-3.466 6.114 0.979 261
-3.266 5.761 0.756 264
-3.263 5.755 0.736 264
-3.190 5.626 0.609 403
-3.183 5.614 0.590 443
-3.168 5.587 0.569 538
-3.168 5.588 0.550 495
-3.169 5.589 0.532 488
-3.088 5.446 0.503 489
-3.092 5.454 0.485 465
-3.116 5.496 0.470 355
-3.116 5.497 0.452 329
-3.074 5.422 0.429 455
-3.074 5.423 0.411 525
-3.067 5.409 0.392 553
-3.056 5.389 0.374 591
-3.013 5.314 0.353 761
-3.033 5.349 0.336 944
-3.033 5.350 0.318 943
-3.033 5.350 0.301 736
-3.002 5.295 0.281 651
-2.991 5.275 0.263 687
-3.007 5.303 0.246 693
-3.007 5.303 0.229 790
-2.983 5.262 0.210 696
-2.976 5.249 0.193 808
-2.976 5.249 0.175 740
-2.976 5.249 0.158 679
-2.972 5.242 0.140 630
-2.921 5.152 0.123 526
-2.921 5.152 0.106 459
-2.866 5.056 0.090 437
-2.858 5.042 0.073 590
-2.858 5.042 0.056 681
-2.862 5.048 0.040 896
-2.866 5.055 0.023 1144
-2.870 5.061 0.006 1206
-2.869 5.061 -0.011 1274
-2.834 4.999 -0.026 1002
-2.834 4.998 -0.043 1294
-2.833 4.998 -0.059 1106
-2.786 4.915 -0.072 935
-2.786 4.914 -0.089 828
-2.801 4.941 -0.106 820
-2.774 4.892 -0.120 868
-2.765 4.878 -0.136 1158
-2.765 4.877 -0.152 1124
-2.761 4.869 -0.168 1110
-2.760 4.869 -0.184 1097
-2.764 4.875 -0.200 1092
-2.759 4.867 -0.216 1027
-2.755 4.859 -0.232 993
-2.715 4.789 -0.242 928
-2.711 4.782 -0.258 1206
-2.691 4.746 -0.271 1175
-2.686 4.738 -0.286 1268
-2.694 4.751 -0.303 1246
-2.697 4.757 -0.319 1292
-2.696 4.756 -0.335 1292
-2.692 4.747 -0.350 976
-2.667 4.705 -0.361 985
-2.655 4.683 -0.375 874
-2.650 4.675 -0.390 855
-2.646 4.667 -0.404 717
-2.645 4.665 -0.420 584
-2.644 4.664 -0.435 584
-2.639 4.656 -0.450 686
-2.639 4.654 -0.465 788
-1.975 3.483 -0.323 492
-1.152 2.044 1.782 1501
-1.208 2.144 1.853 4379
-1.211 2.148 1.846 8759
-1.213 2.153 1.839 8301
-1.216 2.157 1.832 7843
-1.221 2.167 1.830 6348
-1.233 2.188 1.836 4977
-1.242 2.204 1.838 5037
-1.241 2.203 1.826 4808
-1.244 2.207 1.819 4587
-1.275 2.263 1.851 5542
-1.278 2.267 1.844 7272
-1.283 2.277 1.841 7551
-1.292 2.293 1.842 8105
-1.330 2.361 1.883 8214
-1.333 2.365 1.875 8608
-1.335 2.369 1.867 9077
-1.338 2.374 1.859 8668
-1.340 2.378 1.851 8184
-1.339 2.377 1.839 6737
-1.342 2.381 1.832 5470
-1.347 2.391 1.828 4918
-1.353 2.401 1.824 4554
-1.359 2.411 1.821 3620
-1.375 2.439 1.829 3525
-1.413 2.508 1.867 3049
-1.406 2.495 1.846 3147
-1.365 2.422 1.785 2982
-1.367 2.427 1.777 3111
-1.453 2.579 1.870 3973
-1.452 2.577 1.858 5521
-1.455 2.582 1.849 5983
-1.457 2.586 1.841 6445
-1.460 2.590 1.832 5405
-1.462 2.595 1.824 4364
-1.468 2.605 1.819 4619
-1.470 2.609 1.810 4905
-1.473 2.613 1.802 4921
-1.475 2.618 1.793 4133
-1.478 2.622 1.785 3327
-1.524 2.704 1.826 3315
-1.526 2.709 1.817 3576
-1.560 2.767 1.842 4518
-1.565 2.778 1.837 6963
-1.564 2.776 1.824 7805
-1.570 2.786 1.818 8565
-1.580 2.803 1.817 9476
-1.585 2.813 1.811 9313
-1.602 2.842 1.816 7559
-1.625 2.883 1.829 6677
-1.634 2.899 1.827 8781
-1.640 2.910 1.821 11078
-1.639 2.908 1.808 13026
-1.641 2.912 1.798 16963
-1.647 2.923 1.792 18752
-1.649 2.927 1.782 19553
-1.659 2.943 1.780 17805
-1.668 2.960 1.777 16607
-1.670 2.964 1.767 13329
-1.687 2.993 1.771 10391
-1.693 3.003 1.765 13206
-1.695 3.007 1.755 15253
-1.701 3.018 1.748 12791
-1.749 3.103 1.782 15086
-1.748 3.101 1.768 16091
-1.753 3.111 1.762 14243
-1.756 3.115 1.751 11232
-1.758 3.120 1.741 9563
-1.757 3.117 1.727 8270
-1.763 3.128 1.720 6814
-1.772 3.144 1.716 5308
-1.892 3.357 1.811 5116
-1.898 3.367 1.803 5212
-1.932 3.428 1.821 6183
-1.938 3.439 1.812 5213
-1.976 3.507 1.832 4460
-1.979 3.511 1.821 4327
-1.977 3.509 1.806 4987
-1.976 3.507 1.791 9894
-1.979 3.511 1.780 13590
-1.984 3.521 1.771 14233
-1.990 3.532 1.762 13386
-2.000 3.549 1.757 10110
-2.009 3.566 1.751 6714
-2.015 3.576 1.742 3706
-2.010 3.567 1.724 3741
-2.009 3.565 1.710 4533
-2.015 3.575 1.701 3797
-2.017 3.579 1.689 4190
-2.277 4.041 1.876 4264
-2.276 4.039 1.860 4044
-2.275 4.037 1.844 4424
-2.278 4.041 1.830 4430
-2.291 4.065 1.825 4330
-2.348 4.167 1.852 4330
-2.347 4.164 1.836 4672
-2.335 4.143 1.811 3757
-2.341 4.154 1.800 2441
-2.449 4.347 1.862 3447
-2.441 4.331 1.840 4760
-2.443 4.336 1.826 4302
-2.449 4.346 1.814 4072
-2.452 4.351 1.799 3851
-2.491 4.420 1.810 2451
-2.545 4.516 1.830 3501
-2.536 4.501 1.808 4901
-2.546 4.518 1.798 4735
-2.567 4.555 1.795 5046
-2.569 4.560 1.780 3342
-2.653 4.708 1.817 3050
-2.656 4.713 1.801 2807
-2.662 4.723 1.788 3047
-2.672 4.741 1.777 3305
-2.685 4.765 1.768 3134
-2.688 4.769 1.752 3320
-2.809 4.985 1.808 2987
-2.812 4.989 1.791 3703
-2.814 4.993 1.774 3204
-2.898 5.143 1.806 2469
-2.942 5.220 1.812 1902
-3.023 5.364 1.839 1817
-3.029 5.375 1.824 2543
-3.032 5.379 1.806 1759
-3.011 5.344 1.776 2109
-3.025 5.368 1.764 2635
-3.204 5.685 1.841 3122
-3.210 5.696 1.824 3140
-3.194 5.667 1.795 3981
-3.204 5.685 1.780 3771
-3.217 5.709 1.767 3451
-3.212 5.700 1.744 2954
-3.396 6.025 1.816 3358
-3.398 6.030 1.795 2036
-3.529 6.262 1.838 2312
-3.429 6.085 1.768 2423
-3.428 6.082 1.746 1559
-3.915 6.947 1.952 1749
-3.546 6.292 1.758 1832
-3.966 7.037 1.926 2140
-3.972 7.048 1.905 2057
-3.986 7.073 1.886 1353
-3.802 6.747 1.782 1362
-3.816 6.771 1.764 2165
-3.822 6.782 1.743 2097
-3.817 6.773 1.717 1652
-3.655 6.486 1.628 2636
-3.657 6.490 1.606 3445
-3.663 6.500 1.586 3589
-3.665 6.504 1.564 3381
-3.667 6.507 1.543 2745
-3.669 6.511 1.521 1953
-2.107 3.740 0.916 1515
-2.109 3.742 0.903 2050
-2.110 3.744 0.891 2512
-2.115 3.752 0.880 1967
-3.464 6.147 1.338 1983
-3.627 6.436 1.372 2215
-3.629 6.439 1.351 2889
-3.469 6.156 1.276 4308
-3.471 6.159 1.256 6131
-3.476 6.168 1.237 5919
-3.478 6.171 1.216 3607
-3.441 6.106 1.184 2187
-3.477 6.170 1.174 2292
-3.475 6.166 1.152 2839
-3.480 6.175 1.133 2270
-3.481 6.177 1.112 1431
-3.436 6.098 1.079 1043
-3.426 6.080 1.056 809
-3.420 6.068 1.033 718
-3.417 6.064 1.012 681
-3.422 6.073 0.993 593
-3.420 6.068 0.972 426
-3.328 5.906 0.929 358
-3.329 5.908 0.910 328
-3.330 5.910 0.890 346
-3.331 5.912 0.870 389
-3.332 5.913 0.851 379
-3.275 5.812 0.819 305
-3.280 5.821 0.800 341
-3.277 5.816 0.780 368
-3.251 5.769 0.756 481
-3.252 5.771 0.737 501
-3.237 5.745 0.715 374
-3.227 5.726 0.694 288
-3.150 5.589 0.662 381
-3.151 5.591 0.643 528
-3.159 5.606 0.626 534
-3.175 5.635 0.609 876
-3.168 5.622 0.590 897
-3.153 5.596 0.569 1014
-3.154 5.597 0.550 903
-3.151 5.591 0.531 871
-3.074 5.454 0.503 860
-3.078 5.462 0.485 804
-3.078 5.463 0.467 573
-3.071 5.450 0.448 542
-3.064 5.437 0.430 750
-3.060 5.430 0.411 877
-3.053 5.417 0.392 894
-3.042 5.397 0.374 893
-2.999 5.322 0.353 1045
-3.015 5.350 0.336 1313
-3.019 5.358 0.318 1387
-3.019 5.358 0.301 1106
-2.981 5.289 0.281 997
-2.977 5.283 0.263 1073
-2.989 5.304 0.246 1016
-2.993 5.311 0.229 1140
-2.966 5.263 0.210 1068
-2.962 5.256 0.193 1252
-2.962 5.256 0.175 1145
-2.962 5.256 0.158 1053
-2.958 5.249 0.140 979
-2.908 5.160 0.123 680
-2.908 5.160 0.106 551
-2.846 5.049 0.090 614
-2.842 5.042 0.073 853
-2.841 5.042 0.057 961
-2.845 5.049 0.040 1272
-2.853 5.062 0.023 1622
-2.857 5.069 0.006 1616
-2.856 5.068 -0.011 1637
-2.813 4.992 -0.025 1366
-2.817 4.999 -0.042 1632
-2.817 4.998 -0.059 1371
-2.774 4.922 -0.072 1213
-2.773 4.921 -0.089 1074
-2.789 4.948 -0.106 1068
-2.761 4.899 -0.120 1100
-2.753 4.885 -0.136 1451
-2.752 4.884 -0.152 1406
-2.748 4.877 -0.168 1370
-2.752 4.883 -0.184 1349
-2.751 4.882 -0.200 1336
-2.747 4.874 -0.216 1204
-2.742 4.866 -0.232 1114
-2.703 4.796 -0.242 1155
-2.699 4.789 -0.258 1476
-2.679 4.753 -0.271 1463
-2.678 4.752 -0.286 1557
-2.681 4.758 -0.303 1499
-2.685 4.764 -0.319 1508
-2.684 4.762 -0.335 1508
-2.683 4.761 -0.351 1166
-2.651 4.705 -0.361 1201
-2.643 4.690 -0.375 1093
-2.635 4.675 -0.389 1061
-2.634 4.674 -0.404 899
-2.633 4.672 -0.420 737
-2.632 4.671 -0.435 737
-2.631 4.669 -0.451 863
-2.627 4.661 -0.465 1000
-1.969 3.495 -0.324 595
-1.969 3.494 -0.336 297
-1.150 2.053 1.786 1854
-1.203 2.147 1.853 4284
-1.205 2.152 1.846 8568
-1.207 2.156 1.839 8238
-1.210 2.160 1.832 7909
-1.212 2.165 1.825 6633
-1.218 2.174 1.823 5368
-1.220 2.179 1.815 5368
-1.235 2.206 1.826 4347
-1.241 2.216 1.823 3977
-1.269 2.266 1.851 5778
-1.275 2.276 1.848 7630
-1.277 2.280 1.841 8047
-1.283 2.290 1.838 8711
-1.324 2.364 1.883 8832
-1.326 2.368 1.875 9258
-1.329 2.373 1.867 9726
-1.331 2.377 1.859 8855
-1.337 2.387 1.856 7943
-1.336 2.386 1.844 6301
-1.299 2.320 1.785 4953
-1.341 2.395 1.828 4494
-1.347 2.405 1.824 4361
-1.362 2.433 1.833 3646
-1.368 2.443 1.829 4079
-1.397 2.494 1.854 3541
-1.396 2.493 1.842 3981
-1.359 2.426 1.785 3421
-1.361 2.430 1.777 3645
-1.443 2.577 1.866 3675
-1.442 2.575 1.854 5226
-1.448 2.586 1.849 5674
-1.450 2.590 1.841 6125
-1.453 2.594 1.832 5125
-1.455 2.599 1.824 4124
-1.458 2.603 1.815 3902
-1.460 2.607 1.806 3680
-1.466 2.617 1.802 3352
-1.472 2.628 1.797 2787
-1.508 2.692 1.827 3075
-1.507 2.690 1.814 2758
-1.499 2.676 1.794 2789
-1.552 2.772 1.842 4243
-1.555 2.776 1.833 6500
-1.554 2.774 1.820 7274
-1.559 2.785 1.815 7646
-1.572 2.807 1.817 8501
-1.578 2.817 1.811 8233
-1.594 2.846 1.816 6154
-1.620 2.893 1.833 6205
-1.626 2.904 1.827 9322
-1.632 2.914 1.821 11777
-1.631 2.912 1.808 13588
-1.633 2.917 1.798 17322
-1.636 2.921 1.788 18988
-1.642 2.931 1.782 19334
-1.654 2.954 1.783 16562
-1.667 2.977 1.784 16178
-1.673 2.987 1.778 13316
-1.682 3.004 1.775 10770
-1.688 3.014 1.768 13467
-1.687 3.012 1.755 15595
-1.693 3.022 1.748 13488
-1.740 3.108 1.782 15979
-1.739 3.106 1.768 17481
-1.745 3.116 1.762 15716
-1.747 3.120 1.751 12590
-1.750 3.124 1.741 10291
-1.752 3.128 1.731 8774
-1.758 3.139 1.724 7363
-1.760 3.143 1.713 5654
-1.883 3.362 1.811 5192
-1.885 3.366 1.800 5902
-1.894 3.383 1.795 6031
-1.932 3.450 1.816 5019
-1.942 3.467 1.810 4238
-1.941 3.465 1.796 4744
-1.939 3.463 1.781 5800
-1.967 3.512 1.791 8074
-1.969 3.516 1.780 10952
-1.972 3.520 1.768 11499
-1.981 3.537 1.762 10513
-1.987 3.548 1.754 7632
-2.004 3.577 1.754 5792
-2.009 3.588 1.745 3274
-2.001 3.573 1.724 2447
-2.000 3.570 1.710 3006
-2.251 4.019 1.894 3923
-2.261 4.036 1.887 4346
-2.267 4.047 1.876 4602
-2.266 4.045 1.860 4216
-2.264 4.043 1.844 4563
-2.270 4.054 1.833 5042
-2.284 4.078 1.828 5404
-2.286 4.082 1.814 4882
-2.332 4.164 1.833 4143
-2.324 4.149 1.811 3892
-2.443 4.362 1.882 3017
-2.434 4.347 1.860 4528
-2.433 4.344 1.843 5927
-2.435 4.349 1.828 4650
-2.453 4.379 1.824 3679
-2.448 4.370 1.804 3694
-2.527 4.512 1.842 3080
-2.533 4.523 1.830 4078
-2.506 4.475 1.795 4806
-2.549 4.551 1.807 4559
-2.555 4.562 1.795 4960
-2.561 4.573 1.782 3562
-2.641 4.715 1.817 3131
-2.643 4.720 1.801 2946
-2.649 4.731 1.788 3051
-2.659 4.748 1.777 3249
-2.676 4.779 1.770 3770
-2.675 4.776 1.752 3782
-2.681 4.787 1.738 2688
-2.795 4.990 1.789 2913
-2.801 5.001 1.774 2805
-2.885 5.151 1.806 2520
-2.928 5.228 1.812 1645
-2.998 5.352 1.833 1731
-3.011 5.377 1.822 2185
-2.950 5.267 1.768 1724
-2.997 5.352 1.776 2680
-3.011 5.376 1.764 2956
-3.170 5.661 1.831 3041
-3.154 5.631 1.802 3740
-3.156 5.636 1.783 4195
-3.185 5.687 1.778 3794
-3.202 5.718 1.767 3237
-3.193 5.702 1.742 3003
-3.380 6.034 1.816 3647
-3.378 6.032 1.794 2465
-3.516 6.278 1.840 2289
-3.413 6.094 1.768 2089
-3.415 6.098 1.748 1411
-3.531 6.304 1.781 1574
-3.533 6.308 1.760 1699
-3.951 7.054 1.928 2218
-3.953 7.059 1.905 1940
-3.910 6.982 1.861 1170
-3.773 6.737 1.777 1641
-3.783 6.754 1.757 2091
-3.808 6.799 1.745 2167
-3.636 6.492 1.649 2079
-3.638 6.495 1.628 3645
-3.640 6.499 1.606 4259
-3.646 6.510 1.586 4385
-3.648 6.513 1.564 4235
-3.654 6.524 1.544 3194
-3.656 6.527 1.522 2334
-3.658 6.531 1.501 1848
-3.602 6.432 1.458 2747
-3.604 6.436 1.437 3031
-2.093 3.737 0.876 2892
-2.094 3.739 0.863 2658
-3.606 6.438 1.371 3055
-3.611 6.448 1.351 3874
-3.613 6.451 1.330 2945
-3.454 6.168 1.256 5513
-3.456 6.171 1.235 7872
-3.457 6.174 1.215 7987
-3.455 6.169 1.193 6885
-3.461 6.179 1.174 4831
-3.466 6.188 1.154 3122
-3.467 6.191 1.134 2521
-3.465 6.187 1.112 2204
-3.416 6.100 1.078 1883
-3.410 6.089 1.056 1649
-3.404 6.077 1.033 1364
-3.401 6.073 1.012 1166
-3.402 6.075 0.992 1063
-3.403 6.077 0.972 892
-3.316 5.921 0.930 779
-3.310 5.910 0.909 759
-3.311 5.912 0.889 741
-3.316 5.920 0.870 759
-3.317 5.922 0.851 821
-3.310 5.910 0.830 719
-3.261 5.823 0.800 669
-3.239 5.783 0.776 705
-3.236 5.778 0.756 1007
-3.237 5.779 0.737 1056
-3.226 5.760 0.715 801
-3.165 5.652 0.686 608
-3.139 5.605 0.662 794
-3.136 5.599 0.643 1068
-3.148 5.621 0.626 1139
-3.160 5.643 0.609 1742
-3.157 5.637 0.590 1699
-3.142 5.611 0.569 1755
-3.139 5.605 0.550 1551
-3.136 5.599 0.531 1505
-3.059 5.462 0.503 1427
-3.060 5.463 0.485 1313
-3.106 5.547 0.472 962
-3.061 5.465 0.449 973
-3.057 5.459 0.430 1302
-3.046 5.439 0.411 1408
-3.039 5.425 0.392 1370
-3.027 5.405 0.374 1277
-3.004 5.365 0.354 1289
-3.005 5.365 0.336 1865
-3.005 5.366 0.318 2148
-3.005 5.366 0.301 1731
-2.967 5.297 0.281 1521
-2.963 5.291 0.263 1653
-2.963 5.291 0.246 1432
-2.979 5.319 0.229 1516
-2.952 5.271 0.210 1566
-2.948 5.264 0.193 1810
-2.948 5.264 0.175 1632
-2.948 5.264 0.158 1510
-2.944 5.257 0.140 1416
-2.944 5.257 0.123 995
-2.848 5.085 0.107 655
-2.828 5.050 0.090 770
-2.828 5.050 0.073 1149
-2.828 5.050 0.057 1304
-2.832 5.056 0.040 1778
-2.835 5.063 0.023 2271
-2.843 5.076 0.006 2091
-2.843 5.076 -0.011 1995
-2.800 5.000 -0.025 1834
-2.800 4.999 -0.042 2011
-2.803 5.006 -0.059 1670
-2.761 4.929 -0.072 1446
-2.760 4.929 -0.089 1289
-2.772 4.949 -0.106 1293
-2.748 4.907 -0.120 1318
-2.740 4.892 -0.136 1748
-2.739 4.892 -0.152 1734
-2.739 4.891 -0.168 1721
-2.739 4.890 -0.184 1693
-2.738 4.889 -0.200 1664
-2.734 4.881 -0.216 1381
-2.729 4.874 -0.232 1159
-2.686 4.797 -0.242 1357
-2.670 4.768 -0.255 1720
-2.666 4.760 -0.271 1858
-2.665 4.759 -0.286 2023
-2.669 4.765 -0.303 1909
-2.672 4.771 -0.319 1846
-2.671 4.770 -0.335 1846
-2.670 4.768 -0.351 1458
-2.693 4.808 -0.371 1553
-2.627 4.690 -0.374 1315
-2.622 4.682 -0.389 1246
-2.621 4.681 -0.404 1104
-2.621 4.679 -0.420 962
-2.620 4.678 -0.435 962
-2.619 4.676 -0.451 1124
-2.614 4.668 -0.465 1305
-1.956 3.493 -0.323 812
-1.956 3.492 -0.335 406
-1.147 2.055 1.786 2047
-1.203 2.154 1.858 4095
-1.205 2.159 1.851 8191
-1.205 2.157 1.839 7854
-1.207 2.162 1.832 7659
-1.209 2.166 1.825 6597
-1.212 2.170 1.818 5534
-1.214 2.175 1.811 5534
-1.216 2.179 1.804 4027
-1.260 2.258 1.854 4160
-1.266 2.268 1.851 5871
-1.272 2.278 1.848 7664
-1.274 2.282 1.841 8215
-1.280 2.292 1.838 9001
-1.282 2.296 1.830 9001
-1.323 2.370 1.875 9423
-1.326 2.375 1.867 9876
-1.328 2.379 1.859 8713
-1.334 2.389 1.856 7646
-1.333 2.388 1.844 5847
-1.293 2.316 1.781 5294
-1.295 2.320 1.773 4772
-1.298 2.325 1.766 4251
-1.362 2.440 1.837 3793
-1.365 2.445 1.829 4423
-1.390 2.490 1.850 3940
-1.393 2.495 1.842 4464
-1.355 2.428 1.785 3855
-1.361 2.438 1.781 4134
-1.440 2.579 1.866 3513
-1.439 2.577 1.854 5104
-1.441 2.581 1.845 5553
-1.444 2.586 1.837 6003
-1.446 2.590 1.828 5047
-1.475 2.642 1.851 4133
-1.451 2.599 1.811 3540
-1.450 2.597 1.799 3039
-1.489 2.667 1.833 2553
-1.495 2.678 1.828 3014
-1.501 2.688 1.823 3543
-1.496 2.680 1.807 2910
-1.495 2.678 1.794 2410
-1.549 2.774 1.842 4060
-1.551 2.778 1.833 6106
-1.547 2.770 1.816 6748
-1.552 2.780 1.811 6902
-1.568 2.809 1.817 7605
-1.574 2.820 1.811 7277
-1.580 2.830 1.805 5134
-1.617 2.895 1.833 5783
-1.626 2.912 1.830 9224
-1.628 2.916 1.821 11559
-1.627 2.914 1.808 13327
-1.630 2.919 1.798 16960
-1.632 2.923 1.788 18581
-1.638 2.933 1.782 18664
-1.650 2.956 1.783 15474
-1.667 2.985 1.787 16168
-1.669 2.989 1.778 13413
-1.678 3.006 1.775 10884
-1.684 3.016 1.768 13478
-1.686 3.020 1.758 15387
-1.689 3.025 1.748 13729
-1.736 3.110 1.782 15349
-1.735 3.108 1.768 17132
-1.741 3.118 1.762 15589
-1.743 3.122 1.751 12794
-1.746 3.127 1.741 10410
-1.748 3.131 1.731 8900
-1.750 3.135 1.720 7634
-1.752 3.139 1.710 5417
-1.878 3.364 1.811 4942
-1.881 3.368 1.800 6307
-1.886 3.379 1.792 6372
-1.889 3.383 1.781 4722
-1.937 3.470 1.810 4120
-1.936 3.468 1.796 5062
-1.935 3.466 1.781 6343
-1.962 3.515 1.791 6571
-1.964 3.519 1.780 8644
-1.967 3.523 1.768 9140
-1.973 3.533 1.759 8213
-1.982 3.550 1.754 5582
-1.999 3.580 1.754 4634
-2.005 3.591 1.745 2705
-1.985 3.556 1.716 2215
-1.991 3.567 1.707 3247
-2.245 4.022 1.894 3988
-2.255 4.039 1.887 4564
-2.258 4.044 1.873 4756
-2.260 4.048 1.860 4087
-2.263 4.053 1.847 4213
-2.269 4.063 1.836 5076
-2.278 4.081 1.828 5815
-2.281 4.085 1.814 5096
-2.316 4.148 1.825 3757
-2.318 4.152 1.811 3679
-2.437 4.365 1.882 4099
-2.432 4.356 1.862 5603
-2.427 4.348 1.843 6565
-2.441 4.372 1.836 4742
-2.447 4.382 1.824 4179
-2.471 4.426 1.825 4500
-2.525 4.522 1.845 3606
-2.527 4.526 1.830 4546
-2.496 4.472 1.793 5054
-2.499 4.476 1.778 4368
-2.549 4.566 1.795 4622
-2.555 4.576 1.782 3514
-2.624 4.699 1.809 3098
-2.637 4.723 1.801 2943
-2.643 4.734 1.788 2955
-2.656 4.758 1.779 3232
-2.670 4.782 1.770 4222
-2.672 4.786 1.754 3901
-2.678 4.797 1.740 2758
-2.788 4.994 1.789 2239
-2.872 5.144 1.820 2658
-2.874 5.148 1.803 2632
-2.843 5.092 1.767 1607
-2.942 5.270 1.805 1894
-2.941 5.267 1.786 2365
-2.947 5.278 1.770 2230
-2.994 5.362 1.778 2892
-3.000 5.373 1.762 3089
-3.215 5.758 1.859 3101
-3.150 5.642 1.804 3968
-3.149 5.640 1.783 4582
-3.173 5.684 1.776 3793
-3.172 5.682 1.755 3111
-3.227 5.780 1.763 3353
-3.372 6.039 1.816 3767
-3.370 6.036 1.794 2776
-3.511 6.289 1.841 2097
-3.405 6.099 1.768 1727
-3.606 6.460 1.843 1284
-3.526 6.316 1.782 1297
-3.935 7.048 1.950 1679
-3.937 7.053 1.926 2233
-3.944 7.064 1.905 1824
-3.897 6.981 1.859 1320
-3.764 6.742 1.777 1912
-3.762 6.739 1.753 2611
-3.780 6.770 1.737 1882
-3.627 6.496 1.649 2194
-3.629 6.500 1.628 3333
-3.635 6.511 1.607 3471
-3.637 6.515 1.586 3777
-3.643 6.525 1.566 3839
-3.645 6.529 1.544 2887
-3.651 6.539 1.524 2418
-3.592 6.434 1.479 2628
-3.594 6.437 1.458 4568
-3.592 6.434 1.435 5321
-3.594 6.437 1.414 3562
-3.436 6.154 1.336 2437
-3.437 6.157 1.316 3400
-3.439 6.160 1.295 4454
-3.441 6.163 1.275 3748
-3.446 6.173 1.256 4183
-3.444 6.169 1.234 6067
-3.445 6.171 1.214 6470
-3.447 6.174 1.193 6006
-3.448 6.177 1.173 4672
-3.450 6.179 1.152 3121
-3.451 6.182 1.132 2102
-3.384 6.061 1.092 1839
-3.385 6.064 1.071 2194
-3.394 6.080 1.053 2316
-3.396 6.082 1.033 1950
-3.393 6.077 1.012 1433
-3.398 6.086 0.993 1211
-3.395 6.082 0.972 1197
-3.308 5.926 0.930 1330
-3.306 5.921 0.910 1276
-3.303 5.916 0.889 1234
-3.308 5.925 0.870 1188
-3.305 5.920 0.850 1287
-3.260 5.839 0.821 1204
-3.253 5.827 0.800 976
-3.231 5.787 0.776 1124
-3.228 5.782 0.756 1538
-3.229 5.784 0.737 1600
-3.222 5.771 0.716 1161
-3.154 5.649 0.685 971
-3.135 5.616 0.663 1247
-3.132 5.610 0.644 1640
-3.144 5.632 0.627 1809
-3.153 5.647 0.609 2596
-3.150 5.641 0.590 2480
-3.139 5.622 0.570 2329
-3.135 5.616 0.551 2023
-3.132 5.610 0.532 1958
-3.056 5.473 0.504 1857
-3.102 5.557 0.491 1852
-3.095 5.544 0.472 1443
-3.073 5.503 0.451 1463
-3.054 5.470 0.431 1878
-3.042 5.450 0.411 1805
-3.031 5.430 0.392 1687
-3.020 5.409 0.374 1557
-3.001 5.375 0.354 1523
-2.998 5.369 0.336 2334
-2.998 5.370 0.318 2798
-2.998 5.370 0.301 2240
-2.960 5.301 0.281 1992
-2.956 5.295 0.263 2163
-2.952 5.288 0.245 1807
-2.976 5.330 0.229 1657
-2.941 5.268 0.210 1963
-2.941 5.268 0.193 2193
-2.941 5.268 0.175 1937
-2.937 5.261 0.158 1781
-2.937 5.261 0.140 1653
-2.937 5.261 0.123 1171
-2.841 5.088 0.107 684
-2.821 5.054 0.090 840
-2.821 5.054 0.073 1328
-2.821 5.053 0.057 1532
-2.821 5.053 0.040 2128
-2.825 5.060 0.023 2741
-2.832 5.073 0.006 2357
-2.836 5.080 -0.011 2073
-2.793 5.003 -0.025 2043
-2.789 4.996 -0.042 2086
-2.793 5.002 -0.059 1741
-2.754 4.933 -0.072 1506
-2.761 4.946 -0.089 1367
-2.765 4.952 -0.106 1435
-2.738 4.903 -0.120 1420
-2.733 4.896 -0.136 1886
-2.733 4.895 -0.152 1875
-2.733 4.894 -0.168 1865
-2.732 4.894 -0.184 1817
-2.732 4.893 -0.200 1769
-2.727 4.885 -0.216 1387
-2.692 4.822 -0.227 1133
-2.676 4.793 -0.241 1427
-2.660 4.765 -0.255 1902
-2.660 4.764 -0.271 2105
-2.659 4.763 -0.286 2311
-2.662 4.769 -0.303 2127
-2.665 4.774 -0.319 1989
-2.665 4.773 -0.335 1989
-2.687 4.813 -0.355 1643
-2.686 4.812 -0.371 1831
-2.620 4.694 -0.374 1591
-2.616 4.685 -0.389 1508
-2.615 4.684 -0.404 1339
-2.614 4.683 -0.420 1169
-2.614 4.681 -0.435 1169
-2.609 4.673 -0.450 1314
-2.608 4.671 -0.465 1486
-1.956 3.503 -0.324 986
-1.955 3.501 -0.336 493
-1.145 2.063 1.791 2204
-1.147 2.067 1.784 4408
-1.200 2.162 1.851 7772
-1.202 2.166 1.844 7458
-1.201 2.165 1.832 7355
-1.204 2.169 1.825 6461
-1.206 2.174 1.818 5566
-1.209 2.178 1.811 5566
-1.208 2.176 1.799 4014
-1.255 2.261 1.854 4494
-1.260 2.271 1.851 5941
-1.266 2.281 1.848 7562
-1.268 2.285 1.841 8249
-1.274 2.295 1.838 9160
-1.276 2.300 1.830 9160
-1.317 2.374 1.875 9419
-1.320 2.378 1.867 9860
-1.322 2.382 1.859 8505
-1.328 2.393 1.856 7343
-1.330 2.397 1.848 5477
-1.287 2.320 1.781 5708
-1.289 2.324 1.773 5200
-1.292 2.328 1.766 4691
-1.356 2.444 1.837 3870
-1.359 2.448 1.829 4645
-1.384 2.494 1.850 4251
-1.386 2.498 1.842 4824
-1.352 2.437 1.789 4313
-1.355 2.441 1.781 4572
-1.360 2.452 1.777 3753
-1.432 2.581 1.854 5070
-1.435 2.585 1.845 5620
-1.437 2.590 1.837 6171
-1.439 2.594 1.828 5213
-1.472 2.652 1.855 4301
-1.478 2.663 1.850 3587
-1.483 2.673 1.846 2954
-1.482 2.671 1.833 2856
-1.485 2.676 1.824 3447
-1.490 2.686 1.819 4139
-1.489 2.684 1.807 3351
-1.492 2.688 1.798 2577
-1.541 2.778 1.842 3919
-1.544 2.782 1.833 5762
-1.539 2.774 1.816 6394
-1.542 2.778 1.807 6314
-1.561 2.813 1.817 6658
-1.567 2.824 1.811 6376
-1.569 2.828 1.802 4597
-1.612 2.906 1.836 5375
-1.618 2.916 1.830 8845
-1.621 2.921 1.821 10860
-1.620 2.919 1.808 12610
-1.622 2.923 1.798 16118
-1.624 2.927 1.788 17687
-1.630 2.938 1.782 17426
-1.646 2.967 1.787 13702
-1.659 2.989 1.787 15455
-1.665 3.000 1.781 13065
-1.674 3.016 1.778 11098
-1.676 3.021 1.768 13881
-1.679 3.025 1.758 16024
-1.681 3.029 1.748 14420
-1.725 3.108 1.779 15020
-1.727 3.112 1.768 17483
-1.733 3.123 1.762 16490
-1.735 3.127 1.751 14218
-1.738 3.131 1.741 10929
-1.740 3.135 1.731 8599
-1.742 3.139 1.720 7066
-1.744 3.143 1.710 5457
-1.866 3.363 1.808 4820
-1.872 3.373 1.800 6577
-1.878 3.384 1.792 6599
-1.880 3.388 1.781 4731
-1.928 3.475 1.810 4046
-1.927 3.473 1.796 5279
-1.922 3.464 1.778 6659
-1.925 3.468 1.767 5947
-1.959 3.530 1.783 6906
-1.958 3.528 1.768 7210
-1.960 3.532 1.756 6585
-1.966 3.543 1.748 4601
-1.993 3.592 1.757 3757
-1.999 3.602 1.748 2227
-1.905 3.432 1.658 1409
-2.222 4.004 1.899 2552
-2.235 4.028 1.894 3939
-2.245 4.045 1.887 4673
-2.247 4.050 1.873 4891
-2.250 4.054 1.860 3817
-2.252 4.058 1.847 3521
-2.258 4.069 1.836 4699
-2.268 4.087 1.828 5822
-2.270 4.091 1.814 4959
-2.301 4.147 1.822 3271
-2.307 4.158 1.811 3178
-2.426 4.371 1.882 4956
-2.421 4.363 1.862 6312
-2.416 4.354 1.843 6907
-2.429 4.378 1.836 5236
-2.435 4.389 1.824 5122
-2.456 4.426 1.822 5837
-2.462 4.437 1.810 4577
-2.515 4.533 1.830 5010
-2.485 4.478 1.793 5047
-2.484 4.476 1.776 4171
-2.537 4.572 1.795 4254
-2.543 4.583 1.782 3357
-2.608 4.699 1.807 3220
-2.621 4.723 1.799 2886
-2.631 4.741 1.788 2662
-2.652 4.778 1.783 3223
-2.658 4.789 1.770 4445
-2.660 4.793 1.754 3801
-2.666 4.804 1.740 2689
-2.675 4.821 1.729 1724
-2.855 5.145 1.818 2606
-2.861 5.155 1.803 2757
-2.830 5.100 1.767 1920
-2.932 5.284 1.808 2294
-2.931 5.281 1.788 2812
-2.933 5.286 1.770 2788
-2.980 5.370 1.778 2832
-2.986 5.381 1.762 3079
-3.200 5.767 1.859 3073
-3.136 5.650 1.804 4110
-3.138 5.655 1.785 4747
-3.151 5.679 1.772 3947
-3.154 5.683 1.754 3278
-3.212 5.788 1.763 3597
-3.360 6.054 1.817 3794
-3.355 6.045 1.794 2900
-3.432 6.184 1.810 2424
-3.438 6.195 1.792 1511
-3.463 6.240 1.782 1326
-3.600 6.487 1.825 1141
-3.917 7.058 1.950 1641
-3.919 7.063 1.926 2183
-3.926 7.074 1.905 1865
-3.876 6.984 1.858 1377
-3.743 6.744 1.775 2183
-3.741 6.742 1.751 2922
-3.743 6.746 1.729 2288
-3.614 6.513 1.651 1839
-3.612 6.510 1.628 2187
-3.626 6.534 1.611 2648
-3.628 6.537 1.589 3427
-3.626 6.534 1.566 2839
-3.621 6.524 1.541 2121
-3.626 6.535 1.521 2347
-3.636 6.552 1.502 2063
-3.577 6.446 1.458 3348
-3.575 6.443 1.435 4849
-3.577 6.446 1.414 3545
-3.420 6.163 1.336 3002
-3.422 6.166 1.316 4042
-3.423 6.169 1.295 4756
-3.421 6.165 1.274 4090
-3.400 6.127 1.246 3728
-3.428 6.177 1.234 4654
-3.430 6.180 1.214 5125
-3.431 6.183 1.193 5184
-3.398 6.124 1.162 5204
-3.404 6.133 1.143 4588
-3.397 6.122 1.121 2779
-3.387 6.104 1.097 2011
-3.381 6.093 1.075 2244
-3.375 6.081 1.052 2555
-3.376 6.084 1.032 2159
-3.381 6.093 1.013 1689
-3.382 6.095 0.993 1358
-3.296 5.939 0.951 1822
-3.297 5.941 0.931 2105
-3.294 5.936 0.911 1897
-3.284 5.918 0.888 1819
-3.281 5.913 0.868 1737
-3.259 5.873 0.843 1897
-3.245 5.847 0.821 1907
-3.246 5.849 0.801 1361
-3.212 5.789 0.775 1621
-3.213 5.790 0.756 2188
-3.214 5.792 0.737 2252
-3.211 5.787 0.717 1621
-3.139 5.657 0.685 1366
-3.125 5.631 0.664 1678
-3.118 5.618 0.644 2131
-3.130 5.640 0.627 2427
-3.134 5.648 0.609 3385
-3.135 5.650 0.590 3161
-3.128 5.637 0.570 2706
-3.125 5.631 0.551 2356
-3.122 5.625 0.532 2330
-3.080 5.550 0.508 2442
-3.084 5.558 0.490 2372
-3.081 5.552 0.472 1831
-3.039 5.477 0.449 2029
-3.040 5.477 0.431 2564
-3.032 5.464 0.412 2265
-3.021 5.444 0.393 1887
-3.006 5.417 0.374 1637
-2.995 5.397 0.355 1922
-2.988 5.384 0.336 2967
-2.988 5.384 0.319 3568
-2.984 5.378 0.301 2749
-2.946 5.309 0.281 2374
-2.939 5.295 0.263 2592
-2.935 5.289 0.245 2090
-2.931 5.282 0.228 1739
-2.927 5.275 0.210 2179
-2.928 5.276 0.193 2335
-2.928 5.276 0.175 2033
-2.924 5.269 0.158 1872
-2.920 5.262 0.140 1742
-2.924 5.269 0.123 1247
-2.832 5.103 0.107 701
-2.805 5.054 0.090 839
-2.808 5.061 0.073 1391
-2.808 5.061 0.057 1655
-2.808 5.060 0.040 2372
-2.808 5.060 0.023 3089
-2.812 5.067 0.006 2484
-2.781 5.011 -0.009 2230
-2.777 5.004 -0.025 2089
-2.776 5.003 -0.042 1964
-2.776 5.003 -0.058 1718
-2.784 5.016 -0.075 1511
-2.756 4.967 -0.090 1478
-2.756 4.966 -0.106 1578
-2.721 4.904 -0.119 1474
-2.717 4.896 -0.135 1976
-2.720 4.902 -0.152 1981
-2.720 4.901 -0.168 2002
-2.719 4.901 -0.184 1901
-2.715 4.893 -0.200 1804
-2.715 4.892 -0.216 1314
-2.661 4.794 -0.225 1047
-2.645 4.766 -0.238 1434
-2.644 4.765 -0.254 1967
-2.647 4.771 -0.271 2266
-2.647 4.770 -0.286 2548
-2.650 4.775 -0.303 2315
-2.653 4.781 -0.319 2098
-2.653 4.780 -0.335 2098
-2.671 4.813 -0.354 1817
-2.670 4.812 -0.370 2030
-2.605 4.693 -0.373 1760
-2.604 4.692 -0.389 1648
-2.603 4.691 -0.404 1416
-2.602 4.689 -0.420 1185
-2.601 4.688 -0.435 1185
-2.597 4.680 -0.450 1290
-2.596 4.678 -0.465 1428
-1.946 3.508 -0.324 1145
-1.946 3.506 -0.336 572
-1.140 2.066 1.791 2308
-1.142 2.070 1.784 4617
-1.197 2.171 1.855 7468
-1.197 2.169 1.844 7112
-1.193 2.162 1.828 7075
-1.195 2.167 1.821 6349
-1.197 2.171 1.814 5622
-1.200 2.175 1.806 5622
-1.246 2.260 1.862 4270
-1.249 2.264 1.854 5037
-1.254 2.274 1.851 6017
-1.260 2.284 1.848 7350
-1.262 2.289 1.841 8202
-1.268 2.299 1.838 9267
-1.270 2.303 1.830 9267
-1.311 2.377 1.875 9240
-1.314 2.381 1.867 9650
-1.316 2.386 1.859 8173
-1.322 2.396 1.856 6971
-1.324 2.400 1.848 5101
-1.281 2.323 1.781 6057
-1.283 2.327 1.773 5619
-1.286 2.331 1.766 5182
-1.291 2.341 1.762 3719
-1.352 2.452 1.829 4564
-1.381 2.503 1.854 4405
-1.380 2.502 1.842 4996
-1.346 2.441 1.789 4811
-1.349 2.445 1.781 4994
-1.354 2.455 1.777 4219
-1.422 2.579 1.849 5263
-1.428 2.589 1.845 5887
-1.430 2.593 1.837 6551
-1.433 2.598 1.828 5538
-1.432 2.596 1.816 4539
-1.467 2.660 1.846 4013
-1.473 2.671 1.842 3522
-1.472 2.669 1.829 3360
-1.474 2.673 1.820 3922
-1.480 2.684 1.815 4664
-1.483 2.688 1.807 3750
-1.488 2.698 1.802 2885
-1.534 2.782 1.842 3770
-1.537 2.786 1.833 5336
-1.529 2.772 1.813 6023
-1.531 2.776 1.803 5711
-1.554 2.817 1.817 5568
-1.560 2.828 1.811 5383
-1.562 2.832 1.802 4095
-1.605 2.910 1.836 5075
-1.611 2.920 1.830 8038
-1.613 2.925 1.821 9579
-1.612 2.923 1.808 11299
-1.614 2.927 1.798 14706
-1.617 2.931 1.788 16278
-1.619 2.936 1.779 15964
-1.645 2.983 1.794 11948
-1.655 3.000 1.791 14532
-1.657 3.004 1.781 12427
-1.666 3.021 1.778 11095
-1.668 3.025 1.768 14132
-1.671 3.029 1.758 16492
-1.673 3.033 1.748 15414
-1.720 3.119 1.782 13394
-1.719 3.117 1.768 15967
-1.725 3.127 1.762 15549
-1.731 3.138 1.755 13928
-1.729 3.136 1.741 10436
-1.732 3.140 1.731 8335
-1.734 3.144 1.720 6920
-1.733 3.141 1.707 5233
-1.854 3.361 1.805 4895
-1.863 3.378 1.800 6772
-1.869 3.389 1.792 6767
-1.875 3.399 1.784 4644
-1.919 3.480 1.810 3857
-1.918 3.478 1.796 5247
-1.913 3.469 1.778 6721
-1.912 3.467 1.764 6096
-1.953 3.542 1.786 6010
-1.945 3.527 1.765 5532
-1.947 3.531 1.753 5537
-1.950 3.535 1.742 4729
-1.948 3.532 1.727 3774
-1.869 3.388 1.649 2476
-1.878 3.405 1.643 1936
-2.208 4.003 1.896 2413
-2.228 4.040 1.897 3760
-2.231 4.044 1.884 4676
-2.233 4.049 1.871 5063
-2.221 4.027 1.846 4061
-2.227 4.038 1.836 2786
-2.248 4.075 1.836 3898
-2.257 4.092 1.828 5314
-2.260 4.097 1.814 4429
-2.291 4.153 1.822 2620
-2.336 4.236 1.841 3527
-2.414 4.377 1.882 5645
-2.410 4.369 1.862 6735
-2.408 4.367 1.845 6730
-2.418 4.384 1.836 5329
-2.424 4.395 1.824 6038
-2.441 4.426 1.820 7343
-2.451 4.443 1.810 5780
-2.500 4.533 1.828 5331
-2.470 4.478 1.790 5136
-2.472 4.482 1.776 4111
-2.522 4.572 1.792 3740
-2.528 4.583 1.780 2890
-2.592 4.699 1.805 3203
-2.598 4.710 1.792 2750
-2.615 4.741 1.785 2164
-2.639 4.785 1.783 3092
-2.645 4.796 1.770 4359
-2.651 4.807 1.756 3502
-2.657 4.817 1.743 2467
-2.711 4.915 1.758 2252
-2.838 5.145 1.816 2605
-2.844 5.156 1.801 2775
-2.920 5.294 1.827 2282
-2.919 5.291 1.808 2762
-2.917 5.289 1.788 3194
-2.923 5.300 1.773 3385
-2.929 5.311 1.757 2764
-2.976 5.395 1.764 2801
-3.185 5.775 1.859 2775
-3.121 5.658 1.804 4142
-3.123 5.663 1.785 4656
-3.133 5.680 1.770 4188
-3.132 5.678 1.750 3571
-3.197 5.796 1.763 3418
-3.348 6.070 1.819 3777
-3.343 6.060 1.795 2816
-3.416 6.193 1.810 2727
-3.418 6.197 1.790 1606
-3.450 6.255 1.784 1544
-3.609 6.543 1.837 1091
-3.899 7.068 1.950 1512
-3.901 7.073 1.926 1839
-3.907 7.084 1.905 1439
-3.738 6.777 1.804 1764
-3.725 6.754 1.775 2427
-3.716 6.738 1.748 3171
-3.719 6.742 1.725 2852
-3.728 6.760 1.706 2124
-3.742 6.784 1.688 2198
-3.748 6.795 1.668 2376
-3.615 6.554 1.590 2940
-3.621 6.564 1.570 2546
-3.645 6.609 1.557 2225
-2.019 3.661 0.908 2784
-2.021 3.663 0.896 3819
-2.022 3.665 0.884 3311
-2.026 3.674 0.873 2848
-3.376 6.121 1.347 2259
-3.381 6.131 1.328 3524
-3.391 6.147 1.311 3479
-3.381 6.130 1.286 4552
-3.386 6.139 1.267 4216
-3.388 6.142 1.247 4213
-3.412 6.186 1.234 5543
-3.414 6.189 1.214 5456
-3.415 6.192 1.193 3988
-3.413 6.188 1.171 3846
-3.392 6.149 1.144 4406
-3.389 6.145 1.123 3177
-3.379 6.127 1.099 3026
-3.381 6.129 1.079 3975
-3.374 6.118 1.057 3709
-3.357 6.086 1.031 3931
-3.362 6.095 1.012 3647
-3.363 6.097 0.992 3227
-3.281 5.948 0.951 2960
-3.282 5.950 0.931 3102
-3.279 5.945 0.911 2552
-3.269 5.926 0.888 2257
-3.262 5.914 0.867 2262
-3.244 5.882 0.843 2913
-3.241 5.876 0.823 2670
-3.238 5.871 0.803 1895
-3.197 5.797 0.775 2105
-3.198 5.799 0.756 2784
-3.199 5.800 0.737 2853
-3.200 5.802 0.717 2071
-3.125 5.665 0.685 1800
-3.122 5.659 0.665 2108
-3.107 5.633 0.644 2467
-3.115 5.648 0.627 2925
-3.120 5.656 0.609 3965
-3.121 5.658 0.590 3583
-3.117 5.652 0.571 2764
-3.114 5.646 0.552 2448
-3.054 5.536 0.525 2920
-3.066 5.558 0.508 2866
-3.066 5.559 0.490 2589
-3.017 5.470 0.466 2140
-3.021 5.478 0.448 2650
-3.025 5.485 0.431 3177
-3.018 5.472 0.412 2623
-3.003 5.445 0.392 1929
-2.981 5.404 0.373 1734
-2.981 5.405 0.355 2485
-2.978 5.398 0.337 3672
-2.974 5.392 0.319 4113
-2.970 5.385 0.301 3018
-2.932 5.316 0.281 2636
-2.929 5.310 0.263 2867
-2.921 5.296 0.245 2213
-2.914 5.283 0.228 1777
-2.914 5.283 0.210 2139
-2.910 5.276 0.193 2165
-2.914 5.283 0.175 1804
-2.906 5.269 0.158 1670
-2.868 5.200 0.140 1619
-2.868 5.200 0.123 1161
-2.784 5.047 0.107 667
-2.788 5.054 0.090 880
-2.792 5.061 0.073 1396
-2.791 5.061 0.057 1663
-2.791 5.061 0.040 2439
-2.791 5.060 0.023 3214
-2.783 5.046 0.007 2661
-2.772 5.025 -0.009 2361
-2.764 5.011 -0.025 1988
-2.756 4.997 -0.041 1749
-2.756 4.996 -0.058 1670
-2.752 4.989 -0.074 1594
-2.747 4.981 -0.090 1605
-2.747 4.980 -0.107 1640
-2.697 4.890 -0.118 1527
-2.704 4.903 -0.135 1938
-2.704 4.902 -0.151 1939
-2.707 4.908 -0.168 1994
-2.707 4.908 -0.184 1856
-2.703 4.900 -0.200 1750
-2.698 4.892 -0.216 1237
-2.641 4.787 -0.224 986
-2.632 4.773 -0.238 1470
-2.632 4.772 -0.254 1989
-2.635 4.777 -0.271 2393
-2.638 4.783 -0.287 2862
-2.641 4.789 -0.303 2543
-2.641 4.788 -0.319 2233
-2.640 4.787 -0.335 2233
-2.659 4.820 -0.354 1950
-2.658 4.819 -0.370 2144
-2.653 4.811 -0.385 1791
-2.592 4.699 -0.389 1608
-2.591 4.697 -0.404 1458
-2.590 4.696 -0.420 1308
-2.589 4.695 -0.435 1308
-2.585 4.686 -0.450 1370
-2.580 4.678 -0.464 1482
-1.937 3.513 -0.324 1139
-1.937 3.511 -0.336 569
-1.134 2.069 1.791 2281
-1.136 2.073 1.784 4563
-1.191 2.174 1.855 6962
-1.191 2.172 1.844 6582
-1.187 2.165 1.828 6628
-1.189 2.170 1.821 6009
-1.188 2.168 1.809 5411
-1.191 2.173 1.802 5411
-1.240 2.263 1.862 4685
-1.240 2.262 1.850 5516
-1.248 2.277 1.851 5921
-1.254 2.288 1.848 6899
-1.259 2.298 1.845 7914
-1.262 2.302 1.838 9091
-1.264 2.306 1.830 9091
-1.305 2.381 1.875 8643
-1.307 2.385 1.867 8992
-1.310 2.389 1.859 7530
-1.315 2.400 1.856 6370
-1.273 2.322 1.788 4958
-1.275 2.326 1.781 6309
-1.277 2.330 1.773 5942
-1.280 2.335 1.766 5574
-1.285 2.345 1.762 4055
-1.346 2.455 1.829 4494
-1.335 2.436 1.805 4489
-1.373 2.505 1.842 4973
-1.340 2.444 1.789 5131
-1.342 2.449 1.781 5299
-1.348 2.459 1.777 4646
-1.415 2.582 1.849 5437
-1.421 2.593 1.845 6136
-1.423 2.597 1.837 6885
-1.426 2.601 1.828 5767
-1.425 2.600 1.816 4692
-1.460 2.664 1.846 4375
-1.459 2.663 1.834 4186
-1.462 2.667 1.825 3932
-1.464 2.671 1.816 4251
-1.470 2.682 1.812 4926
-1.479 2.698 1.810 4079
-1.484 2.708 1.805 3353
-1.510 2.755 1.823 3922
-1.516 2.766 1.818 5172
-1.518 2.770 1.809 5798
-1.521 2.774 1.800 5405
-1.546 2.821 1.817 4597
-1.552 2.832 1.811 4484
-1.581 2.885 1.831 3904
-1.597 2.914 1.836 4662
-1.603 2.925 1.830 6734
-1.605 2.929 1.821 7606
-1.604 2.927 1.808 9471
-1.607 2.931 1.798 13203
-1.609 2.936 1.788 15069
-1.611 2.940 1.779 14592
-1.617 2.950 1.773 9967
-1.650 3.011 1.794 12771
-1.652 3.015 1.785 11592
-1.662 3.031 1.782 11214
-1.660 3.029 1.768 14411
-1.663 3.034 1.758 16943
-1.665 3.038 1.748 15919
-1.667 3.042 1.738 12965
-1.711 3.121 1.768 14529
-1.717 3.132 1.762 14036
-1.722 3.142 1.755 13261
-1.725 3.146 1.744 10082
-1.727 3.151 1.734 7956
-1.722 3.142 1.717 6634
-1.724 3.146 1.707 5430
-1.841 3.360 1.802 4876
-1.851 3.377 1.797 6710
-1.860 3.394 1.792 6737
-1.859 3.391 1.778 4506
-1.910 3.485 1.810 3486
-1.912 3.489 1.799 4840
-1.901 3.468 1.775 6390
-1.903 3.472 1.764 5946
-1.948 3.553 1.789 5754
-1.946 3.551 1.774 4629
-1.934 3.529 1.750 4995
-1.940 3.540 1.742 5264
-1.939 3.538 1.727 4404
-1.853 3.380 1.643 3277
-1.858 3.391 1.635 2447
-1.885 3.440 1.643 2418
-2.218 4.046 1.897 3395
-2.220 4.050 1.884 4426
-2.215 4.042 1.865 5097
-2.207 4.027 1.843 4792
-1.981 3.615 1.653 3108
-2.230 4.068 1.830 2977
-2.246 4.098 1.828 4474
-2.249 4.103 1.814 3587
-2.330 4.251 1.860 2960
-2.325 4.242 1.841 4076
-2.399 4.377 1.879 5657
-2.398 4.375 1.862 6469
-2.397 4.373 1.845 6177
-2.406 4.390 1.836 5253
-2.412 4.401 1.824 6584
-2.429 4.432 1.820 8336
-2.439 4.449 1.810 6465
-2.488 4.539 1.828 5225
-2.454 4.478 1.788 5139
-2.460 4.489 1.776 3927
-2.510 4.579 1.792 3262
-2.516 4.590 1.780 2372
-2.576 4.700 1.802 3152
-2.585 4.717 1.792 2581
-2.602 4.748 1.785 1801
-2.626 4.792 1.783 2706
-2.632 4.803 1.770 3996
-2.638 4.814 1.756 3092
-2.688 4.904 1.770 2591
-2.698 4.922 1.758 2682
-2.824 5.153 1.816 2627
-2.827 5.157 1.799 2666
-2.906 5.302 1.827 2541
-2.908 5.306 1.810 2831
-2.907 5.303 1.790 3136
-2.909 5.308 1.773 3593
-2.915 5.319 1.757 3033
-2.961 5.403 1.764 2507
-3.093 5.642 1.817 2809
-3.106 5.667 1.804 4145
-3.112 5.678 1.787 4377
-3.118 5.689 1.770 4205
-3.109 5.673 1.746 4054
-3.100 5.656 1.721 3223
-3.332 6.079 1.819 3700
-3.334 6.083 1.799 2795
-3.396 6.195 1.808 2927
-3.402 6.206 1.790 1660
-3.434 6.264 1.784 1653
-3.588 6.546 1.835 1157
-3.598 6.564 1.817 1709
-3.882 7.083 1.926 1466
-3.699 6.749 1.818 1544
-3.724 6.794 1.806 1892
-3.704 6.757 1.773 2175
-3.695 6.741 1.746 3060
-3.697 6.745 1.724 3128
-3.707 6.763 1.705 2302
-3.716 6.780 1.685 2351
-3.618 6.600 1.621 1968
-3.605 6.577 1.593 2566
-3.614 6.594 1.575 2791
-3.549 6.475 1.526 2535
-3.592 6.554 1.521 2467
-3.598 6.564 1.501 2010
-2.012 3.671 0.884 2270
-2.017 3.679 0.873 3334
-2.018 3.681 0.861 2882
-3.361 6.133 1.327 2735
-3.359 6.129 1.305 5106
-3.361 6.132 1.285 7851
-3.359 6.128 1.264 8753
-3.357 6.124 1.242 9747
-3.358 6.127 1.222 7245
-3.393 6.191 1.212 5841
-3.391 6.187 1.191 5480
-3.396 6.197 1.171 4235
-3.398 6.199 1.151 3288
-3.388 6.181 1.127 2950
-3.378 6.163 1.104 3084
-3.357 6.124 1.077 3518
-3.343 6.099 1.052 4908
-3.340 6.094 1.031 5698
-3.342 6.097 1.011 5123
-3.347 6.106 0.992 4601
-3.265 5.956 0.951 3868
-3.266 5.958 0.931 3796
-3.263 5.954 0.911 2937
-3.257 5.942 0.889 2315
-3.239 5.909 0.865 2488
-3.228 5.890 0.843 3544
-3.226 5.885 0.823 3187
-3.227 5.887 0.804 2496
-3.178 5.799 0.774 2458
-3.179 5.800 0.755 3126
-3.184 5.809 0.737 3019
-3.188 5.817 0.718 2113
-3.110 5.673 0.685 2002
-3.106 5.668 0.665 2283
-3.096 5.648 0.645 2429
-3.100 5.657 0.627 2999
