3.163 7.124 -0.604 1384
3.162 7.122 -0.626 1141
3.158 7.112 -0.648 971
3.071 6.916 -0.648 1101
3.070 6.914 -0.670 1101
3.069 6.912 -0.692 550
0.504 1.136 0.001 252
0.841 1.881 1.596 5799
0.843 1.884 1.591 11598
0.847 1.894 1.589 10837
0.849 1.898 1.583 8924
0.853 1.908 1.582 7737
0.857 1.918 1.581 8571
0.862 1.927 1.579 9939
0.863 1.931 1.573 9836
0.865 1.935 1.567 9732
0.867 1.939 1.561 9732
0.866 1.937 1.551 8104
0.865 1.934 1.540 6586
0.880 1.968 1.556 5221
0.884 1.978 1.555 4901
0.886 1.982 1.548 3427
0.882 1.973 1.533 2268
0.884 1.977 1.527 3014
0.886 1.981 1.521 3761
0.920 2.057 1.567 5252
0.921 2.061 1.560 6974
0.923 2.065 1.554 7515
0.922 2.062 1.543 8984
0.924 2.066 1.537 9744
0.928 2.076 1.534 8722
0.935 2.092 1.536 8260
0.937 2.096 1.530 6871
0.939 2.099 1.523 5986
0.940 2.103 1.517 7724
0.945 2.113 1.514 10407
0.949 2.123 1.512 12358
0.953 2.132 1.509 13538
0.955 2.136 1.503 14417
0.957 2.140 1.496 11833
0.978 2.187 1.517 10858
0.957 2.141 1.479 10927
0.956 2.138 1.468 12754
0.957 2.141 1.461 11734
0.959 2.145 1.454 10714
0.961 2.149 1.448 7988
1.044 2.334 1.554 5541
1.051 2.351 1.554 5553
1.061 2.373 1.559 5259
1.026 2.295 1.501 4662
1.070 2.394 1.551 6518
1.072 2.397 1.544 8611
1.076 2.408 1.540 10765
1.081 2.418 1.536 11009
1.085 2.428 1.533 9366
1.087 2.431 1.525 8999
1.086 2.429 1.514 8241
1.088 2.432 1.506 7756
1.101 2.462 1.513 8452
1.105 2.472 1.509 10172
1.110 2.482 1.505 10410
1.117 2.498 1.504 8495
1.124 2.515 1.504 6275
1.129 2.525 1.499 4804
1.139 2.548 1.502 5205
1.138 2.545 1.490 8305
1.140 2.549 1.482 10029
1.144 2.559 1.478 12389
1.149 2.569 1.473 13481
1.153 2.579 1.469 12080
1.158 2.589 1.464 11640
1.165 2.605 1.463 10030
1.205 2.694 1.498 7202
1.209 2.704 1.493 7088
1.217 2.721 1.491 6377
1.212 2.711 1.476 8577
1.214 2.715 1.467 14378
1.221 2.732 1.465 13296
1.223 2.735 1.457 10243
1.227 2.745 1.451 6956
1.256 2.808 1.472 6533
1.263 2.825 1.469 8606
1.265 2.829 1.460 11135
1.263 2.825 1.448 11512
1.277 2.856 1.452 10739
1.281 2.866 1.446 10937
1.286 2.876 1.440 9004
1.290 2.886 1.434 9307
1.295 2.896 1.428 9663
1.308 2.926 1.431 9093
1.316 2.943 1.428 7727
1.347 3.013 1.448 5688
1.334 2.983 1.424 6056
1.338 2.994 1.417 6482
1.370 3.064 1.437 7534
1.378 3.081 1.433 8760
1.382 3.091 1.426 7159
1.381 3.088 1.413 6914
1.376 3.078 1.398 7677
1.378 3.081 1.388 7213
1.446 3.233 1.440 5598
1.450 3.244 1.432 5704
1.458 3.261 1.427 5953
1.459 3.264 1.417 6370
1.461 3.268 1.407 7321
1.475 3.298 1.407 7521
1.485 3.322 1.405 7970
1.487 3.325 1.394 6634
1.497 3.349 1.392 6755
1.511 3.380 1.391 7158
1.519 3.397 1.386 5180
1.560 3.489 1.408 7692
1.565 3.499 1.399 12121
1.569 3.510 1.391 9113
1.583 3.540 1.390 5409
1.597 3.571 1.388 4213
1.654 3.698 1.420 4796
1.655 3.702 1.409 6652
1.663 3.719 1.402 4722
1.652 3.695 1.381 3815
1.669 3.732 1.381 4222
1.680 3.757 1.376 4541
1.718 3.843 1.391 5002
1.689 3.777 1.356 5406
1.687 3.773 1.342 4955
1.723 3.853 1.355 5623
1.727 3.863 1.345 4953
1.753 3.922 1.350 3069
1.786 3.994 1.359 3504
1.787 3.998 1.347 3071
1.851 4.140 1.376 3688
1.874 4.192 1.378 4081
1.879 4.203 1.366 5230
1.874 4.192 1.349 6312
1.876 4.195 1.336 6187
1.880 4.205 1.324 6243
1.888 4.222 1.315 7483
1.892 4.232 1.304 8593
1.897 4.243 1.292 5640
1.945 4.351 1.307 6392
1.953 4.368 1.297 7879
1.958 4.378 1.285 6662
1.949 4.360 1.266 5702
1.954 4.370 1.254 4993
1.990 4.450 1.260 4623
1.963 4.390 1.230 3367
2.040 4.562 1.258 4746
2.101 4.699 1.276 5420
2.102 4.702 1.262 5986
2.110 4.719 1.250 4540
2.111 4.722 1.235 4164
2.173 4.859 1.251 5203
2.174 4.862 1.236 6305
2.175 4.865 1.220 9512
2.177 4.868 1.205 9456
2.178 4.871 1.190 7555
2.182 4.881 1.176 7857
2.187 4.891 1.162 6242
2.188 4.893 1.146 3556
2.284 5.109 1.174 2221
2.362 5.282 1.192 2643
2.366 5.292 1.177 2743
0.516 1.154 0.354 2904
0.516 1.154 0.351 4759
0.516 1.155 0.347 5380
0.517 1.155 0.344 4396
2.509 5.612 1.149 4091
0.517 1.156 0.337 3769
0.517 1.157 0.333 4573
0.514 1.150 0.328 4513
0.515 1.151 0.325 3363
2.704 6.047 1.129 2775
2.702 6.042 1.109 3178
2.696 6.030 1.088 2525
2.854 6.384 1.123 2535
2.791 6.243 1.081 2473
2.850 6.374 1.080 2086
3.015 6.742 1.113 2043
3.009 6.730 1.090 2105
3.010 6.733 1.068 2591
3.024 6.764 1.051 2667
3.029 6.774 1.030 2087
3.136 7.013 1.039 2391
3.130 7.001 1.015 2967
3.131 7.003 0.993 2408
3.229 7.221 0.997 2291
3.291 7.360 0.990 2231
3.288 7.355 0.965 1807
3.650 8.162 1.030 1539
3.644 8.150 1.003 2175
3.626 8.109 0.973 2731
3.624 8.104 0.946 2930
3.625 8.107 0.920 2738
3.719 8.317 0.914 2537
3.720 8.319 0.888 3021
3.721 8.321 0.861 2689
3.680 8.230 0.827 2312
3.680 8.231 0.801 1869
3.678 8.226 0.774 1680
3.679 8.228 0.748 1478
1.254 2.806 0.336 1163
1.252 2.799 0.326 1460
1.252 2.800 0.318 1828
1.255 2.807 0.309 1960
1.252 2.800 0.300 1909
1.252 2.801 0.291 1730
1.252 2.801 0.282 1443
3.806 8.513 0.552 1436
3.803 8.506 0.524 1802
3.804 8.507 0.497 1684
3.804 8.508 0.470 1568
3.798 8.495 0.443 1640
3.795 8.488 0.415 1479
3.789 8.475 0.388 1114
3.809 8.519 0.362 1082
3.809 8.519 0.335 1066
3.716 8.310 0.304 1069
3.713 8.303 0.277 1210
3.764 8.419 0.253 1241
3.764 8.419 0.226 1201
3.765 8.420 0.199 894
3.681 8.232 0.171 649
3.603 8.058 0.145 531
1.054 2.356 0.134 673
1.054 2.356 0.126 867
1.053 2.356 0.119 1062
1.050 2.349 0.112 1263
1.050 2.349 0.104 1270
1.047 2.341 0.097 1071
1.047 2.341 0.090 910
1.047 2.341 0.083 686
3.492 7.810 -0.078 686
3.489 7.802 -0.103 776
3.388 7.578 -0.120 709
3.378 7.555 -0.143 849
3.375 7.547 -0.167 979
3.371 7.539 -0.191 1137
3.371 7.538 -0.215 1071
3.370 7.537 -0.239 1005
3.373 7.544 -0.263 1096
3.372 7.542 -0.287 1189
0.942 2.107 0.016 1018
3.300 7.381 -0.325 1011
0.942 2.107 0.003 939
0.942 2.106 -0.004 833
0.938 2.099 -0.010 732
3.285 7.347 -0.416 688
3.281 7.338 -0.439 747
3.261 7.294 -0.459 838
3.260 7.292 -0.482 1134
3.256 7.283 -0.505 1151
3.191 7.137 -0.514 1564
3.187 7.128 -0.536 1590
3.183 7.119 -0.558 1640
3.182 7.117 -0.581 1640
3.181 7.115 -0.604 1391
3.180 7.113 -0.626 1142
3.180 7.111 -0.649 993
3.089 6.908 -0.648 1077
3.088 6.906 -0.670 1077
3.087 6.904 -0.692 538
0.308 0.690 0.058 256
0.844 1.879 1.596 6314
0.845 1.883 1.591 12629
0.850 1.893 1.589 11835
0.851 1.897 1.583 9780
0.853 1.901 1.578 8387
0.860 1.916 1.581 8933
0.865 1.926 1.579 10050
0.866 1.930 1.573 10066
0.865 1.928 1.563 10136
0.867 1.932 1.557 10136
0.866 1.929 1.546 8155
0.868 1.933 1.540 6420
0.872 1.943 1.539 4536
0.887 1.976 1.555 3979
0.886 1.974 1.544 2766
0.872 1.942 1.512 2097
0.917 2.042 1.575 2835
0.918 2.046 1.569 4058
0.923 2.056 1.567 5417
0.924 2.059 1.560 6792
0.926 2.063 1.554 7425
0.925 2.061 1.543 8831
0.927 2.065 1.537 9516
0.931 2.074 1.534 8694
0.936 2.084 1.532 8261
0.937 2.088 1.526 6612
0.939 2.092 1.519 5313
0.943 2.102 1.517 6756
0.948 2.111 1.514 9049
0.952 2.121 1.512 10630
0.957 2.131 1.509 11527
0.958 2.135 1.503 12249
0.960 2.138 1.496 10342
0.981 2.185 1.517 10339
0.957 2.133 1.475 10421
0.959 2.137 1.468 12413
0.961 2.140 1.461 11427
0.962 2.144 1.454 10440
0.964 2.147 1.448 7840
1.047 2.333 1.554 5518
1.052 2.343 1.551 5335
1.065 2.372 1.559 4756
1.030 2.294 1.501 5000
1.074 2.392 1.551 5634
1.075 2.396 1.544 7340
1.080 2.406 1.540 9494
1.084 2.416 1.536 10043
1.089 2.426 1.533 8738
1.091 2.430 1.525 8290
1.089 2.427 1.514 7873
1.091 2.431 1.506 7753
1.107 2.466 1.517 8816
1.109 2.470 1.509 11224
1.113 2.480 1.505 11608
1.121 2.497 1.504 9247
1.128 2.513 1.504 6192
1.133 2.523 1.499 4590
1.143 2.546 1.502 5424
1.142 2.543 1.490 9043
1.143 2.547 1.482 11117
1.148 2.557 1.478 13651
1.152 2.567 1.473 14878
1.157 2.577 1.469 13319
1.158 2.581 1.461 11892
1.166 2.597 1.459 9078
1.206 2.686 1.495 6086
1.210 2.696 1.490 5877
1.223 2.726 1.494 5922
1.219 2.716 1.479 9654
1.218 2.713 1.467 15999
1.222 2.723 1.462 14134
1.227 2.733 1.457 10367
1.228 2.737 1.448 6758
1.260 2.806 1.472 6030
1.267 2.823 1.469 8299
1.269 2.827 1.460 10929
1.267 2.824 1.448 11020
1.281 2.854 1.452 10457
1.285 2.864 1.446 10343
1.290 2.874 1.440 8316
1.295 2.884 1.434 9041
1.299 2.894 1.428 9607
1.313 2.924 1.431 9878
1.320 2.941 1.428 8677
1.319 2.938 1.415 6378
1.335 2.975 1.421 6259
1.343 2.992 1.417 6518
1.375 3.062 1.437 7384
1.382 3.079 1.433 8455
1.387 3.089 1.426 7450
1.385 3.086 1.413 7834
1.384 3.083 1.401 7686
1.382 3.079 1.388 6349
1.450 3.231 1.440 5470
1.455 3.242 1.432 5423
1.463 3.259 1.427 5492
1.473 3.282 1.425 6213
1.466 3.265 1.407 6899
1.476 3.289 1.405 6451
1.490 3.320 1.405 6516
1.492 3.323 1.394 6105
1.502 3.347 1.392 6862
1.516 3.378 1.391 7528
1.524 3.395 1.386 5568
1.565 3.487 1.408 7597
1.570 3.497 1.399 12112
1.577 3.514 1.393 9530
1.585 3.531 1.387 5396
1.602 3.569 1.388 4004
1.659 3.696 1.420 5121
1.660 3.699 1.409 7357
1.665 3.710 1.399 5469
1.657 3.692 1.381 3745
1.677 3.737 1.383 4154
1.685 3.754 1.376 4550
1.724 3.840 1.391 5984
1.716 3.823 1.372 5630
1.717 3.826 1.360 4864
1.728 3.850 1.355 6090
1.730 3.853 1.343 5424
1.759 3.919 1.350 2943
1.792 3.992 1.359 3541
1.793 3.995 1.347 3443
1.854 4.131 1.374 4015
1.881 4.190 1.378 3963
1.885 4.200 1.366 5456
1.880 4.189 1.349 6920
1.882 4.192 1.336 7158
1.883 4.195 1.322 6680
1.894 4.220 1.315 7307
1.899 4.230 1.304 8389
1.903 4.240 1.292 5674
1.952 4.348 1.307 7487
1.956 4.358 1.296 8299
1.961 4.368 1.284 7372
1.956 4.357 1.266 7577
1.960 4.367 1.254 7151
1.962 4.370 1.240 5153
1.966 4.380 1.228 4343
2.050 4.566 1.260 4503
2.048 4.562 1.244 5403
2.109 4.699 1.262 5554
2.114 4.709 1.248 4443
2.175 4.846 1.265 4527
2.180 4.856 1.251 5638
2.181 4.859 1.236 6691
2.182 4.862 1.220 10648
2.184 4.865 1.205 10923
2.185 4.868 1.190 9089
2.189 4.878 1.176 9619
2.194 4.887 1.162 7645
2.195 4.890 1.146 4153
2.289 5.099 1.173 2345
2.293 5.108 1.158 2440
2.371 5.282 1.176 2358
0.514 1.146 0.353 3423
0.515 1.146 0.349 3941
0.515 1.147 0.346 3140
2.507 5.584 1.163 3864
2.514 5.601 1.148 3872
2.525 5.625 1.134 3571
0.516 1.149 0.332 3951
0.516 1.150 0.328 3938
0.516 1.150 0.325 3313
2.709 6.036 1.128 2625
2.710 6.038 1.109 3340
2.782 6.198 1.115 2973
2.793 6.222 1.098 3085
2.800 6.239 1.081 2564
2.859 6.370 1.080 2058
2.860 6.373 1.060 1911
3.016 6.719 1.089 1969
3.017 6.721 1.067 2567
3.034 6.760 1.051 2776
3.132 6.977 1.058 2156
3.146 7.008 1.039 2598
3.144 7.003 1.016 3093
3.141 6.999 0.993 2480
3.239 7.216 0.997 2068
3.305 7.362 0.990 1945
3.299 7.350 0.965 1479
3.661 8.157 1.030 1338
3.650 8.131 1.001 1964
3.621 8.068 0.969 2877
3.635 8.099 0.946 2959
3.636 8.101 0.920 2744
3.731 8.312 0.914 2045
3.732 8.314 0.888 2561
3.687 8.215 0.852 2606
3.692 8.224 0.827 2673
3.692 8.226 0.801 2227
3.690 8.221 0.774 1936
3.691 8.222 0.748 1662
3.691 8.224 0.722 1120
1.256 2.797 0.326 1332
1.256 2.798 0.318 1778
1.259 2.805 0.309 1969
1.256 2.799 0.300 1999
1.256 2.799 0.291 1925
1.257 2.799 0.282 1643
1.257 2.800 0.274 1452
3.819 8.508 0.525 1339
3.819 8.509 0.498 1337
3.820 8.510 0.471 1311
3.817 8.504 0.443 1313
3.821 8.512 0.416 1148
3.827 8.527 0.390 898
3.776 8.412 0.360 910
3.825 8.521 0.335 813
1.054 2.347 0.185 1024
1.054 2.347 0.178 1118
1.057 2.355 0.171 1185
1.057 2.355 0.163 1261
1.057 2.355 0.156 1302
1.057 2.355 0.149 1394
1.057 2.355 0.141 1447
1.057 2.355 0.134 1506
1.057 2.355 0.126 1564
1.057 2.355 0.119 1536
1.054 2.347 0.112 1469
1.054 2.347 0.104 1390
1.054 2.347 0.097 1146
1.054 2.347 0.090 903
3.507 7.813 -0.054 664
3.503 7.805 -0.078 698
3.500 7.797 -0.103 766
3.396 7.566 -0.120 688
3.389 7.550 -0.143 837
3.386 7.542 -0.167 943
3.382 7.534 -0.191 1086
3.381 7.533 -0.215 1018
3.381 7.532 -0.239 950
3.384 7.539 -0.263 1021
3.383 7.538 -0.287 1097
3.386 7.544 -0.311 904
3.311 7.377 -0.325 948
3.307 7.368 -0.348 801
3.307 7.367 -0.371 655
3.306 7.365 -0.395 652
3.296 7.342 -0.416 644
3.295 7.341 -0.440 703
3.272 7.289 -0.459 795
3.271 7.287 -0.482 1090
3.267 7.278 -0.505 1112
3.202 7.133 -0.514 1471
3.198 7.124 -0.536 1499
3.197 7.122 -0.559 1560
3.196 7.120 -0.582 1560
3.192 7.111 -0.604 1322
3.191 7.109 -0.626 1085
3.190 7.107 -0.649 951
3.102 6.911 -0.649 1023
3.101 6.908 -0.671 1023
3.100 6.906 -0.693 511
0.306 0.682 0.059 254
0.850 1.876 1.596 6751
0.852 1.880 1.591 13503
0.856 1.890 1.589 12629
0.858 1.894 1.583 10469
0.860 1.898 1.578 9039
0.864 1.907 1.576 9327
0.871 1.923 1.579 10055
0.870 1.921 1.569 10298
0.872 1.925 1.563 10579
0.874 1.929 1.557 10579
0.873 1.926 1.546 8353
0.872 1.924 1.536 6422
0.876 1.934 1.534 4573
0.891 1.967 1.550 3535
0.890 1.965 1.540 2554
0.919 2.029 1.577 2358
0.924 2.039 1.575 3403
0.925 2.043 1.569 4518
0.930 2.053 1.567 5457
0.934 2.062 1.565 6557
0.933 2.060 1.554 7205
0.932 2.058 1.543 8637
0.937 2.068 1.541 9308
0.938 2.071 1.534 8691
0.943 2.081 1.532 8346
0.944 2.085 1.526 6446
0.946 2.089 1.519 4712
0.950 2.098 1.517 5674
0.955 2.108 1.514 7495
0.959 2.118 1.512 8684
0.961 2.122 1.505 9335
0.963 2.125 1.499 9859
0.964 2.129 1.492 8854
0.991 2.188 1.521 9703
0.965 2.130 1.475 9783
0.966 2.133 1.468 11694
0.968 2.137 1.461 10723
0.969 2.140 1.454 9752
0.971 2.144 1.448 7359
1.055 2.329 1.554 5473
1.057 2.333 1.547 5130
1.033 2.280 1.505 4742
1.037 2.290 1.501 5345
1.042 2.300 1.498 4879
1.086 2.399 1.548 6004
1.088 2.402 1.540 8070
1.093 2.412 1.536 8965
1.097 2.422 1.533 8041
1.099 2.426 1.525 7493
1.098 2.423 1.514 7378
1.099 2.427 1.506 7624
1.115 2.463 1.517 9233
1.117 2.466 1.509 12198
1.119 2.470 1.501 12726
1.126 2.486 1.501 9949
1.134 2.503 1.500 6104
1.135 2.507 1.492 4351
1.152 2.542 1.502 5569
1.150 2.540 1.490 9430
1.149 2.537 1.479 11673
1.156 2.553 1.478 14518
1.161 2.563 1.473 16059
1.166 2.573 1.469 14358
1.167 2.577 1.461 12117
1.172 2.587 1.456 8155
1.179 2.603 1.454 5104
1.201 2.653 1.470 4934
1.227 2.708 1.488 5932
1.228 2.712 1.479 11432
1.227 2.709 1.467 17253
1.232 2.719 1.462 14616
1.236 2.729 1.457 10332
1.238 2.733 1.448 6893
1.257 2.776 1.459 7547
1.274 2.812 1.466 8214
1.278 2.822 1.460 10195
1.277 2.819 1.448 9998
1.291 2.849 1.452 9859
1.295 2.859 1.446 9528
1.300 2.870 1.440 7343
1.304 2.880 1.434 8394
1.306 2.883 1.425 9155
1.326 2.927 1.434 10396
1.330 2.937 1.428 9389
1.329 2.933 1.415 6995
1.333 2.943 1.409 6670
1.350 2.980 1.414 6524
1.382 3.051 1.434 6808
1.393 3.074 1.433 7639
1.397 3.085 1.426 7483
1.396 3.081 1.413 8468
1.394 3.078 1.401 7592
1.396 3.081 1.391 5393
1.461 3.226 1.440 5415
1.460 3.223 1.427 5209
1.474 3.254 1.427 5108
1.484 3.277 1.425 6033
1.477 3.260 1.407 6091
1.488 3.284 1.405 4898
1.501 3.315 1.405 4700
1.503 3.318 1.394 5448
1.514 3.342 1.392 6908
1.528 3.372 1.391 7481
1.538 3.396 1.388 6009
1.580 3.488 1.410 7103
1.582 3.492 1.399 11411
1.592 3.516 1.396 9730
1.597 3.526 1.387 5583
1.617 3.570 1.391 4069
1.675 3.697 1.423 5245
1.673 3.694 1.409 7890
1.678 3.704 1.399 6193
1.679 3.707 1.388 3862
1.693 3.738 1.385 3897
1.698 3.748 1.376 4324
1.737 3.834 1.391 6786
1.732 3.824 1.375 6821
1.734 3.827 1.362 5602
1.741 3.844 1.355 6353
1.743 3.848 1.343 5662
1.776 3.920 1.352 2845
1.805 3.986 1.359 3021
1.807 3.989 1.347 3567
1.868 4.124 1.374 4077
1.898 4.190 1.380 3428
1.899 4.193 1.366 5100
1.895 4.183 1.349 6663
1.896 4.186 1.336 7273
1.901 4.196 1.324 6132
1.908 4.213 1.315 6607
1.913 4.223 1.304 7851
1.968 4.345 1.323 5865
1.966 4.341 1.307 8524
1.971 4.351 1.296 9186
1.976 4.362 1.284 9114
1.974 4.358 1.268 9974
1.975 4.361 1.254 9531
1.976 4.363 1.240 7041
1.978 4.366 1.226 5588
2.068 4.566 1.262 4440
2.066 4.562 1.245 5290
2.125 4.692 1.262 4898
2.130 4.702 1.248 4150
2.195 4.846 1.267 5014
2.196 4.849 1.251 5947
2.194 4.845 1.234 6856
2.199 4.855 1.220 11234
2.200 4.857 1.205 11888
2.201 4.860 1.190 10126
2.209 4.877 1.177 10707
2.214 4.887 1.163 8544
2.215 4.890 1.148 4512
2.303 5.084 1.171 2488
2.326 5.136 1.165 2638
2.385 5.267 1.174 1984
0.525 1.158 0.356 2834
0.522 1.152 0.351 5502
0.522 1.152 0.347 7403
0.522 1.153 0.344 6725
0.519 1.146 0.339 4240
2.544 5.617 1.134 3430
2.549 5.627 1.117 2958
0.526 1.162 0.331 2330
0.523 1.155 0.326 2141
2.730 6.026 1.128 2465
2.731 6.029 1.109 3435
2.806 6.196 1.116 3587
2.811 6.205 1.097 3705
2.818 6.222 1.080 2510
2.781 6.139 1.047 2002
2.882 6.363 1.060 1761
2.980 6.580 1.070 1891
3.040 6.711 1.067 2478
3.057 6.749 1.051 2831
3.165 6.988 1.061 2174
3.170 6.998 1.039 2730
3.171 7.000 1.017 3153
3.168 6.995 0.994 2456
3.260 7.198 0.996 1914
3.248 7.172 0.970 1722
3.428 7.568 0.991 1409
3.627 8.008 1.015 1214
3.635 8.025 0.992 2232
3.642 8.041 0.967 3078
3.663 8.087 0.946 2835
3.667 8.096 0.921 2567
3.714 8.199 0.905 2100
3.714 8.201 0.879 2418
3.715 8.203 0.852 2650
3.719 8.212 0.827 2887
3.720 8.213 0.801 2444
3.718 8.208 0.774 2048
3.719 8.210 0.748 1752
3.719 8.211 0.722 1166
1.265 2.793 0.326 1179
1.265 2.793 0.318 1635
1.269 2.801 0.309 1871
1.266 2.794 0.300 2016
1.269 2.802 0.292 2110
1.269 2.802 0.283 1844
1.266 2.796 0.274 1615
1.266 2.796 0.265 1323
3.852 8.503 0.498 1155
3.849 8.497 0.471 1097
3.849 8.498 0.444 1118
3.856 8.513 0.417 1103
3.856 8.514 0.390 1025
3.808 8.406 0.360 1046
3.857 8.515 0.335 904
1.061 2.344 0.185 1013
1.062 2.344 0.178 1158
1.065 2.351 0.171 1207
1.065 2.351 0.163 1267
1.065 2.351 0.156 1239
1.065 2.351 0.149 1161
1.065 2.351 0.141 1106
1.065 2.351 0.134 1083
1.065 2.351 0.126 1061
1.062 2.344 0.119 1029
1.062 2.344 0.112 845
1.065 2.351 0.104 686
3.544 7.823 -0.005 580
3.540 7.816 -0.029 591
3.533 7.801 -0.054 653
3.530 7.793 -0.078 673
3.526 7.785 -0.103 717
3.422 7.554 -0.120 635
3.415 7.539 -0.143 803
3.411 7.531 -0.167 884
3.407 7.523 -0.191 1005
3.407 7.522 -0.215 918
3.407 7.521 -0.239 832
3.409 7.527 -0.263 882
3.409 7.526 -0.287 938
3.412 7.532 -0.311 776
3.336 7.365 -0.325 885
3.332 7.357 -0.348 736
3.332 7.355 -0.371 598
3.331 7.354 -0.395 595
3.321 7.331 -0.416 582
3.317 7.322 -0.439 642
3.296 7.278 -0.459 755
3.296 7.276 -0.482 1048
3.292 7.267 -0.505 1080
3.226 7.122 -0.514 1347
3.222 7.113 -0.536 1369
3.218 7.104 -0.558 1431
3.217 7.102 -0.581 1431
3.219 7.107 -0.604 1216
3.218 7.105 -0.627 1004
3.214 7.096 -0.649 889
3.125 6.900 -0.649 926
3.124 6.898 -0.671 926
3.123 6.896 -0.693 463
0.852 1.875 1.596 7051
0.854 1.879 1.591 14102
0.858 1.889 1.589 13109
0.860 1.893 1.583 10915
0.862 1.897 1.578 9533
0.866 1.906 1.576 9686
0.871 1.916 1.575 10164
0.873 1.920 1.569 10652
0.874 1.924 1.563 11140
0.876 1.927 1.557 11140
0.875 1.925 1.546 8644
0.874 1.923 1.536 6462
0.878 1.933 1.534 4706
0.894 1.966 1.550 3563
0.890 1.958 1.535 2695
0.922 2.028 1.577 3129
0.926 2.038 1.575 3996
0.928 2.042 1.569 4992
0.932 2.051 1.567 5517
0.937 2.061 1.565 6345
0.936 2.059 1.554 7025
0.937 2.063 1.547 8549
0.936 2.060 1.537 9178
0.941 2.070 1.534 8641
0.945 2.080 1.532 8332
0.947 2.084 1.526 6237
0.960 2.112 1.536 4113
0.961 2.116 1.529 4702
0.960 2.113 1.518 5984
0.965 2.123 1.516 6602
0.964 2.120 1.505 7041
0.965 2.124 1.499 7464
0.967 2.128 1.492 7232
0.994 2.187 1.521 8860
0.967 2.129 1.475 8852
0.969 2.132 1.468 10615
0.971 2.136 1.461 9678
0.972 2.139 1.454 8742
0.974 2.143 1.448 6589
1.058 2.328 1.554 5359
1.060 2.332 1.547 4919
1.030 2.266 1.497 4832
1.040 2.289 1.501 5699
1.045 2.299 1.498 5009
1.089 2.397 1.548 4710
1.091 2.401 1.540 6632
1.096 2.411 1.536 7927
1.100 2.421 1.533 7398
1.099 2.418 1.521 6722
1.101 2.422 1.514 6779
1.102 2.426 1.506 7340
1.119 2.461 1.517 9427
1.120 2.465 1.509 12796
1.122 2.469 1.501 13440
1.129 2.485 1.501 10362
1.137 2.501 1.500 6132
1.138 2.505 1.492 4306
1.158 2.547 1.505 5728
1.153 2.538 1.490 9404
1.152 2.535 1.479 11672
1.160 2.552 1.478 14925
1.164 2.562 1.473 16944
1.169 2.572 1.469 15165
1.170 2.575 1.461 12338
1.175 2.585 1.456 7494
1.182 2.602 1.454 4715
1.205 2.651 1.470 5953
1.227 2.700 1.484 6256
1.232 2.710 1.479 12779
1.230 2.707 1.467 17714
1.235 2.718 1.462 14493
1.237 2.721 1.454 10194
1.256 2.764 1.464 7560
1.261 2.774 1.459 9621
1.265 2.784 1.453 8409
1.279 2.814 1.457 8945
1.281 2.818 1.448 8408
1.294 2.848 1.452 8785
1.296 2.851 1.443 8541
1.306 2.875 1.443 6313
1.308 2.878 1.434 7554
1.313 2.888 1.428 8534
1.329 2.925 1.434 10519
1.334 2.935 1.428 9696
1.332 2.932 1.415 7408
1.337 2.942 1.409 6972
1.354 2.979 1.414 6734
1.373 3.022 1.422 6166
1.384 3.046 1.421 6974
1.401 3.083 1.426 7228
1.400 3.079 1.413 8766
1.398 3.076 1.401 7374
1.406 3.093 1.397 4816
1.472 3.238 1.445 5413
1.439 3.167 1.405 5562
1.450 3.191 1.403 5207
1.492 3.282 1.428 5688
1.490 3.279 1.415 5043
1.529 3.364 1.436 4552
1.506 3.313 1.405 3509
1.507 3.316 1.394 5140
1.518 3.340 1.392 6714
1.532 3.370 1.391 7126
1.546 3.401 1.391 6665
1.584 3.486 1.410 6218
1.589 3.497 1.402 10122
1.597 3.514 1.396 9423
1.601 3.524 1.387 5660
1.625 3.575 1.393 4335
1.679 3.695 1.423 5119
1.678 3.692 1.409 8002
1.682 3.702 1.399 6442
1.684 3.705 1.388 4061
1.698 3.736 1.385 3907
1.740 3.829 1.403 4620
1.738 3.825 1.389 7115
1.737 3.822 1.375 7753
1.738 3.825 1.362 6316
1.749 3.849 1.357 6344
1.748 3.845 1.343 5503
1.793 3.946 1.361 2799
1.810 3.983 1.359 2435
1.821 4.008 1.353 3613
1.876 4.129 1.376 3875
1.849 4.070 1.344 2971
1.908 4.198 1.368 4256
1.903 4.187 1.351 5889
1.904 4.190 1.338 6580
1.912 4.208 1.328 5042
1.914 4.211 1.315 5372
1.921 4.228 1.306 6440
1.977 4.350 1.325 6616
1.972 4.339 1.307 9064
1.976 4.349 1.296 10283
1.981 4.359 1.284 11652
1.979 4.355 1.268 12598
1.981 4.358 1.254 11600
1.982 4.361 1.240 8707
1.983 4.364 1.226 6754
2.077 4.571 1.263 4905
2.075 4.567 1.247 4840
2.134 4.696 1.263 4301
2.132 4.692 1.247 3767
2.198 4.836 1.265 5158
2.202 4.846 1.251 5998
2.200 4.842 1.234 6830
2.205 4.852 1.220 11186
2.209 4.862 1.207 12138
2.208 4.857 1.190 10389
2.215 4.874 1.177 10944
2.220 4.884 1.163 8963
2.221 4.887 1.148 4756
2.348 5.166 1.189 3160
2.336 5.140 1.167 3214
2.331 5.129 1.148 2335
2.397 5.273 1.159 2561
0.523 1.151 0.351 3902
0.523 1.152 0.347 4471
2.529 5.566 1.161 4314
2.531 5.568 1.144 3255
0.521 1.146 0.335 3540
2.556 5.623 1.117 3043
2.557 5.626 1.099 1953
2.704 5.949 1.135 1708
2.737 6.023 1.128 2292
2.735 6.018 1.108 3430
2.814 6.192 1.116 4065
2.819 6.202 1.097 4109
2.823 6.211 1.079 2410
2.792 6.143 1.048 1850
2.890 6.359 1.060 1522
2.989 6.576 1.070 2016
2.993 6.586 1.050 2482
3.066 6.745 1.051 2769
3.177 6.991 1.062 2062
3.182 7.001 1.040 2692
3.183 7.003 1.018 3075
3.184 7.005 0.996 2381
3.208 7.058 0.979 1804
3.212 7.067 0.958 1506
3.438 7.564 0.991 1343
3.641 8.011 1.016 1256
3.645 8.020 0.992 2421
3.649 8.030 0.967 3205
3.650 8.032 0.941 2734
3.677 8.091 0.921 2220
3.727 8.201 0.905 2176
3.725 8.196 0.879 2311
3.729 8.205 0.853 2559
3.730 8.207 0.827 2951
3.731 8.209 0.801 2543
3.728 8.203 0.774 2025
3.729 8.205 0.748 1697
3.733 8.214 0.722 1112
3.884 8.546 0.719 723
1.269 2.792 0.318 1164
1.272 2.800 0.309 1462
1.272 2.800 0.300 1661
1.273 2.800 0.292 1880
1.273 2.801 0.283 1749
1.270 2.794 0.274 1608
1.270 2.794 0.265 1394
3.862 8.498 0.498 1070
3.863 8.499 0.471 1054
3.863 8.500 0.444 1095
3.867 8.508 0.417 1110
3.815 8.394 0.386 1031
3.815 8.394 0.360 1046
3.868 8.510 0.335 832
1.064 2.342 0.185 877
1.064 2.342 0.178 1005
1.065 2.342 0.171 1034
1.065 2.342 0.163 1059
1.065 2.343 0.156 1029
1.065 2.343 0.148 930
1.065 2.343 0.141 857
1.065 2.343 0.134 752
1.068 2.350 0.126 659
1.068 2.350 0.119 582
3.554 7.820 0.045 582
3.554 7.819 0.020 595
3.553 7.819 -0.005 479
3.547 7.804 -0.029 516
3.543 7.796 -0.054 587
3.540 7.789 -0.078 586
3.536 7.781 -0.103 598
3.431 7.550 -0.120 562
3.424 7.535 -0.143 716
3.421 7.527 -0.167 771
3.417 7.519 -0.191 866
3.417 7.518 -0.215 777
3.416 7.517 -0.239 688
3.419 7.523 -0.263 721
3.422 7.529 -0.287 760
3.343 7.355 -0.301 665
3.345 7.361 -0.325 789
3.345 7.360 -0.348 671
3.344 7.358 -0.372 552
3.344 7.357 -0.395 551
3.336 7.341 -0.418 502
3.329 7.325 -0.440 549
3.306 7.273 -0.459 693
3.305 7.272 -0.482 953
3.301 7.263 -0.505 986
3.235 7.118 -0.514 1174
3.231 7.109 -0.536 1210
3.230 7.107 -0.559 1282
3.229 7.105 -0.582 1282
3.228 7.103 -0.604 1091
3.227 7.101 -0.627 899
3.223 7.092 -0.649 794
3.134 6.896 -0.649 803
3.133 6.894 -0.671 803
3.132 6.892 -0.693 401
0.858 1.873 1.596 7226
0.860 1.877 1.591 14453
0.864 1.886 1.589 13285
0.866 1.890 1.583 11127
0.868 1.894 1.578 9883
0.872 1.904 1.576 9947
0.877 1.913 1.575 10215
0.878 1.917 1.569 10937
0.880 1.921 1.563 11659
0.882 1.925 1.557 11659
0.881 1.923 1.546 8959
0.880 1.920 1.536 6544
0.884 1.930 1.534 4850
0.900 1.964 1.550 3809
0.923 2.015 1.579 3047
0.928 2.025 1.577 3916
0.929 2.029 1.571 4607
0.934 2.039 1.569 5443
0.938 2.049 1.567 5562
0.946 2.064 1.569 6011
0.942 2.056 1.554 6802
0.941 2.054 1.543 8421
0.943 2.058 1.537 9040
0.947 2.067 1.534 8452
0.952 2.077 1.532 8161
0.953 2.081 1.526 5995
0.966 2.109 1.536 4048
0.971 2.119 1.533 4388
0.972 2.122 1.527 4883
0.971 2.120 1.516 4771
0.970 2.117 1.505 4858
0.972 2.121 1.499 5177
0.970 2.119 1.488 5696
1.001 2.184 1.521 7834
0.974 2.126 1.475 7786
0.975 2.129 1.468 9329
0.977 2.133 1.461 8417
0.976 2.130 1.451 7508
0.980 2.140 1.448 5643
1.065 2.325 1.554 5225
1.029 2.247 1.496 4756
1.037 2.263 1.497 4995
1.047 2.286 1.501 6061
1.054 2.302 1.502 5314
1.065 2.324 1.506 5061
1.101 2.404 1.544 5393
1.103 2.408 1.536 7005
1.108 2.418 1.533 6824
1.106 2.415 1.521 6079
1.108 2.419 1.514 6138
1.110 2.422 1.506 6899
1.129 2.464 1.520 9471
1.131 2.468 1.513 12963
1.129 2.465 1.501 13647
1.134 2.475 1.497 10514
1.141 2.492 1.496 6426
1.158 2.527 1.506 4676
1.168 2.550 1.509 6007
1.164 2.541 1.494 8995
1.160 2.532 1.479 10998
1.170 2.555 1.481 14967
1.172 2.558 1.473 17364
1.176 2.568 1.469 15490
1.178 2.572 1.461 12408
1.183 2.582 1.456 7081
1.214 2.650 1.481 5656
1.213 2.647 1.470 7046
1.220 2.664 1.468 7426
1.237 2.700 1.476 13655
1.239 2.704 1.467 17331
1.243 2.714 1.462 13721
1.245 2.717 1.454 9820
1.264 2.760 1.464 7974
1.272 2.777 1.462 11253
1.274 2.780 1.453 9557
1.287 2.810 1.457 7534
1.286 2.807 1.445 6687
1.306 2.850 1.455 7424
1.304 2.847 1.443 7290
1.318 2.877 1.446 5608
1.320 2.881 1.437 6784
1.321 2.884 1.428 7726
1.341 2.927 1.437 10228
1.343 2.931 1.428 9462
1.341 2.928 1.415 7563
1.349 2.944 1.412 7239
1.363 2.975 1.414 6829
1.383 3.018 1.422 5950
1.390 3.035 1.419 6594
1.407 3.072 1.423 6649
1.409 3.075 1.413 8440
1.407 3.072 1.401 6785
1.421 3.102 1.402 4551
1.438 3.139 1.406 5626
1.449 3.163 1.405 7586
1.460 3.186 1.403 6325
1.502 3.278 1.428 5353
1.503 3.281 1.418 4604
1.539 3.359 1.436 4642
1.522 3.322 1.410 3759
1.517 3.312 1.394 5375
1.528 3.335 1.392 6269
1.545 3.373 1.394 6552
1.559 3.403 1.393 7157
1.598 3.488 1.413 5010
1.600 3.492 1.402 8326
1.610 3.516 1.398 8476
1.615 3.526 1.390 5573
1.635 3.570 1.393 4666
1.690 3.690 1.423 4755
1.689 3.687 1.409 7578
1.693 3.697 1.399 6125
1.695 3.700 1.388 4024
1.709 3.731 1.385 3893
1.752 3.824 1.403 4584
1.750 3.820 1.389 7005
1.748 3.817 1.375 8214
1.750 3.820 1.362 6620
1.761 3.844 1.357 6234
1.762 3.847 1.345 5426
1.805 3.940 1.361 3016
1.810 3.950 1.351 1996
1.833 4.002 1.353 3780
1.895 4.137 1.380 3621
1.858 4.057 1.342 3043
1.866 4.074 1.333 3354
1.916 4.182 1.351 5230
1.923 4.199 1.342 5671
1.938 4.230 1.336 4810
1.926 4.205 1.315 4484
1.953 4.264 1.317 5343
1.990 4.344 1.325 6802
1.988 4.340 1.309 9038
1.990 4.343 1.296 11037
1.994 4.353 1.284 13645
1.992 4.349 1.268 14472
1.994 4.352 1.254 12918
1.995 4.355 1.240 9709
1.996 4.358 1.226 7245
2.091 4.564 1.263 5479
2.092 4.567 1.249 4379
2.148 4.690 1.263 3827
2.201 4.805 1.275 3565
2.212 4.829 1.265 4646
2.217 4.839 1.251 5625
2.212 4.828 1.233 6729
2.220 4.845 1.220 10501
2.224 4.855 1.207 11502
2.222 4.851 1.190 9574
2.230 4.868 1.177 10038
2.234 4.878 1.163 8612
2.236 4.880 1.148 4665
2.360 5.152 1.187 3530
2.348 5.126 1.165 3567
2.346 5.122 1.148 2820
2.399 5.238 1.153 2468
2.566 5.602 1.206 3239
2.568 5.605 1.188 4762
2.553 5.572 1.164 4457
2.544 5.554 1.142 3087
2.575 5.620 1.136 3079
2.576 5.623 1.118 3127
2.577 5.625 1.100 2069
2.702 5.898 1.128 1910
2.759 6.022 1.129 2139
2.753 6.010 1.108 3312
2.833 6.184 1.116 4296
2.837 6.193 1.097 4262
2.838 6.196 1.078 2337
2.810 6.134 1.048 1658
1.180 2.576 0.509 1887
3.008 6.567 1.070 2042
3.009 6.570 1.049 2451
3.089 6.743 1.052 2666
3.201 6.989 1.063 1859
3.203 6.991 1.040 2521
3.204 6.993 1.018 2857
3.205 6.996 0.996 2248
3.229 7.048 0.979 1923
3.233 7.057 0.958 1678
3.460 7.554 0.991 1210
3.422 7.470 0.958 1535
3.669 8.009 0.992 2474
3.670 8.012 0.966 3265
3.671 8.014 0.940 2807
3.705 8.087 0.922 1914
3.755 8.197 0.906 2153
3.753 8.192 0.879 2102
3.754 8.194 0.853 2383
3.758 8.203 0.828 2920
3.759 8.205 0.801 2559
3.756 8.199 0.775 1955
3.757 8.201 0.748 1603
3.761 8.210 0.723 1033
3.906 8.527 0.718 731
1.277 2.788 0.318 576
1.277 2.788 0.309 739
1.278 2.789 0.300 1003
1.281 2.797 0.292 1470
1.281 2.797 0.283 1606
1.281 2.797 0.274 1566
1.282 2.798 0.265 1344
3.888 8.487 0.498 954
3.888 8.488 0.471 1056
3.889 8.489 0.444 1080
3.892 8.497 0.417 1086
3.893 8.497 0.390 1012
3.893 8.498 0.363 896
3.893 8.498 0.335 785
3.893 8.499 0.308 675
1.223 2.670 0.183 800
1.227 2.677 0.175 867
1.072 2.339 0.163 956
1.072 2.339 0.156 1018
1.072 2.339 0.148 1043
1.072 2.339 0.141 1010
1.072 2.339 0.134 943
1.075 2.347 0.126 879
1.072 2.339 0.119 812
1.072 2.339 0.112 686
1.072 2.339 0.104 625
1.068 2.332 0.097 565
1.065 2.325 0.090 506
3.567 7.786 -0.054 489
3.563 7.778 -0.078 478
3.560 7.770 -0.103 471
3.454 7.539 -0.120 463
3.450 7.531 -0.144 599
3.443 7.516 -0.167 637
3.439 7.508 -0.191 711
3.439 7.507 -0.215 636
3.439 7.506 -0.239 562
3.441 7.513 -0.263 569
3.444 7.519 -0.287 584
3.365 7.345 -0.301 561
3.364 7.344 -0.324 632
3.364 7.343 -0.348 515
0.306 0.668 0.096 474
0.306 0.668 0.094 585
0.306 0.668 0.092 653
0.306 0.668 0.090 690
0.306 0.668 0.088 740
3.327 7.262 -0.482 838
3.323 7.253 -0.505 863
3.259 7.115 -0.515 959
3.252 7.099 -0.536 980
3.251 7.097 -0.559 1041
3.250 7.095 -0.582 1041
3.249 7.093 -0.604 888
3.248 7.091 -0.627 736
3.241 7.075 -0.648 668
3.155 6.887 -0.649 737
3.154 6.884 -0.671 737
3.153 6.882 -0.693 368
0.311 0.680 0.059 263
0.864 1.870 1.596 7327
0.866 1.874 1.591 14655
0.870 1.884 1.589 13281
0.872 1.888 1.583 11188
0.874 1.891 1.578 10126
0.878 1.901 1.576 10114
0.882 1.911 1.575 10164
0.884 1.915 1.569 11116
0.886 1.918 1.563 12067
0.888 1.922 1.557 12067
0.889 1.926 1.551 9276
0.888 1.924 1.540 6675
0.896 1.939 1.543 5125
0.906 1.961 1.550 4130
0.929 2.012 1.579 3673
0.931 2.016 1.573 4674
0.936 2.026 1.571 5169
0.940 2.036 1.569 5812
0.942 2.040 1.562 5541
0.952 2.061 1.569 5609
0.948 2.053 1.554 6472
0.947 2.051 1.543 8204
0.949 2.055 1.537 8836
0.953 2.064 1.534 8199
0.958 2.074 1.532 7990
0.960 2.078 1.526 5885
0.987 2.137 1.557 4304
0.977 2.116 1.533 4275
0.985 2.132 1.535 4221
0.981 2.123 1.520 3350
0.979 2.121 1.509 3097
0.978 2.118 1.499 3333
1.003 2.171 1.524 4780
1.007 2.181 1.521 6644
0.980 2.123 1.475 6548
0.982 2.126 1.468 7818
0.984 2.130 1.461 6950
0.982 2.127 1.451 6090
0.987 2.137 1.448 4515
1.072 2.322 1.554 5118
1.033 2.238 1.492 5141
1.044 2.260 1.497 5132
1.057 2.289 1.505 6442
1.067 2.311 1.509 5864
1.072 2.321 1.506 5727
1.074 2.325 1.499 5148
1.110 2.404 1.536 6320
1.112 2.408 1.529 6492
1.114 2.412 1.521 5631
1.115 2.415 1.514 5621
1.117 2.419 1.506 6474
1.137 2.461 1.520 9208
1.138 2.464 1.513 12547
1.137 2.462 1.501 13205
1.142 2.472 1.497 10355
1.152 2.494 1.500 6901
1.166 2.524 1.506 5319
1.179 2.553 1.512 6446
1.184 2.563 1.508 9008
1.197 2.593 1.514 10280
1.181 2.557 1.485 14747
1.183 2.561 1.477 17251
1.184 2.565 1.469 15166
1.186 2.568 1.461 12149
1.206 2.611 1.473 7898
1.219 2.640 1.478 7889
1.218 2.637 1.466 8135
1.232 2.667 1.471 8623
1.245 2.696 1.476 14036
1.247 2.700 1.467 15958
1.249 2.703 1.459 12207
1.253 2.713 1.454 8992
1.273 2.756 1.464 8080
1.281 2.773 1.462 12163
1.285 2.783 1.456 10270
1.293 2.800 1.454 6356
1.328 2.876 1.480 5015
1.315 2.846 1.455 5846
1.319 2.856 1.449 5878
1.333 2.886 1.452 5537
1.332 2.883 1.440 6342
1.330 2.880 1.428 6834
1.353 2.930 1.440 9511
1.355 2.933 1.431 8791
1.353 2.930 1.418 7469
1.358 2.940 1.412 7351
1.372 2.970 1.414 6734
1.389 3.007 1.419 5857
1.397 3.024 1.416 6649
1.417 3.067 1.423 6098
1.421 3.078 1.416 7640
1.420 3.074 1.404 5987
1.431 3.098 1.402 4507
1.448 3.135 1.406 6320
1.459 3.158 1.405 9541
1.470 3.182 1.403 7633
1.512 3.273 1.428 5243
1.513 3.276 1.418 4739
1.549 3.354 1.436 4833
1.529 3.310 1.407 4675
1.527 3.307 1.394 5867
1.541 3.337 1.394 5673
1.565 3.388 1.402 6298
1.573 3.405 1.396 7210
1.574 3.408 1.385 4711
1.610 3.487 1.402 6254
1.621 3.511 1.398 7197
1.626 3.521 1.390 5371
1.647 3.565 1.393 4691
1.699 3.678 1.420 4233
1.703 3.688 1.411 6740
1.705 3.691 1.399 5446
1.706 3.695 1.388 3777
1.721 3.726 1.385 3786
1.722 3.729 1.373 4409
1.762 3.815 1.389 6373
1.760 3.811 1.375 8091
1.762 3.814 1.362 6574
1.776 3.845 1.359 5952
1.803 3.904 1.365 5361
1.817 3.935 1.361 3619
1.828 3.958 1.355 3148
1.843 3.989 1.351 4233
1.908 4.131 1.380 3461
1.868 4.044 1.340 2930
1.876 4.061 1.331 3291
1.932 4.183 1.353 5005
1.946 4.214 1.348 5400
1.951 4.224 1.336 5080
1.936 4.192 1.313 4200
1.970 4.265 1.319 5409
2.000 4.331 1.323 6344
2.002 4.334 1.309 8292
2.003 4.337 1.296 10909
2.004 4.340 1.282 14338
2.006 4.343 1.268 14900
2.007 4.346 1.254 12807
2.009 4.349 1.240 9469
2.010 4.352 1.226 6922
2.105 4.558 1.263 5907
2.110 4.568 1.251 4187
2.163 4.683 1.263 3553
2.213 4.791 1.274 3526
2.224 4.815 1.263 3604
2.229 4.825 1.250 4751
2.227 4.821 1.233 6481
2.235 4.838 1.220 9354
2.239 4.848 1.207 10125
2.237 4.844 1.190 7891
2.245 4.861 1.177 8082
2.249 4.871 1.163 7415
2.254 4.880 1.149 4165
2.376 5.144 1.187 3546
2.364 5.119 1.165 3722
2.362 5.114 1.148 3195
2.406 5.209 1.149 2607
2.584 5.594 1.206 3564
2.585 5.597 1.188 5848
2.583 5.593 1.169 5334
2.584 5.595 1.151 3193
2.595 5.619 1.137 3044
2.596 5.622 1.119 3140
2.712 5.873 1.144 2605
2.714 5.876 1.126 2682
2.712 5.871 1.106 2247
2.772 6.002 1.108 3079
2.852 6.175 1.116 4119
2.856 6.185 1.097 3934
1.184 2.563 0.524 2179
1.184 2.564 0.516 1923
3.031 6.562 1.092 1554
3.029 6.558 1.070 2072
3.030 6.560 1.049 2368
3.110 6.734 1.052 2580
3.121 6.758 1.033 1661
3.224 6.981 1.040 2200
3.229 6.991 1.019 2524
3.230 6.993 0.997 2031
3.251 7.038 0.979 1985
3.440 7.448 1.005 1877
3.444 7.457 0.982 2195
3.445 7.459 0.958 2541
3.446 7.461 0.934 2739
3.692 7.993 0.965 3155
3.693 7.995 0.940 2800
3.694 7.997 0.914 1949
3.784 8.193 0.907 2019
3.672 7.951 0.858 2261
3.676 7.960 0.834 2225
3.783 8.191 0.828 2693
3.784 8.193 0.801 2468
3.785 8.195 0.775 1862
3.786 8.196 0.749 1516
3.790 8.205 0.723 1019
1.027 2.224 0.288 726
1.027 2.224 0.281 674
1.024 2.218 0.274 539
1.286 2.785 0.300 455
1.290 2.793 0.292 791
1.290 2.793 0.283 1028
1.290 2.793 0.274 1110
1.290 2.794 0.265 1036
3.914 8.475 0.498 951
3.915 8.476 0.471 1063
3.912 8.469 0.444 1102
3.915 8.477 0.417 1022
3.919 8.485 0.390 863
3.919 8.486 0.363 748
3.919 8.486 0.335 672
3.920 8.487 0.308 596
1.079 2.336 0.178 608
1.079 2.336 0.171 769
1.082 2.343 0.163 940
1.082 2.343 0.156 1035
1.079 2.336 0.148 1130
1.079 2.336 0.141 1125
1.079 2.336 0.134 1015
1.079 2.336 0.126 905
1.079 2.336 0.119 772
1.082 2.343 0.112 583
1.085 2.350 0.104 532
1.082 2.343 0.097 533
1.079 2.336 0.090 554
1.079 2.335 0.082 520
1.075 2.328 0.075 486
1.075 2.328 0.068 401
3.477 7.529 -0.120 346
3.473 7.521 -0.144 450
3.466 7.506 -0.167 460
3.463 7.498 -0.191 499
3.462 7.497 -0.215 449
3.462 7.496 -0.239 400
3.465 7.502 -0.263 387
3.385 7.328 -0.277 389
3.387 7.334 -0.301 446
3.390 7.340 -0.325 511
0.308 0.667 0.098 523
0.305 0.660 0.097 633
0.308 0.667 0.094 833
0.308 0.667 0.092 986
0.308 0.667 0.090 1097
0.308 0.667 0.088 1219
0.308 0.667 0.086 1229
0.308 0.667 0.084 1283
0.311 0.674 0.082 1180
0.311 0.673 0.080 963
3.273 7.087 -0.559 828
3.272 7.085 -0.582 828
3.271 7.083 -0.604 717
3.270 7.081 -0.627 606
3.263 7.065 -0.648 559
3.176 6.877 -0.649 672
3.175 6.875 -0.671 672
3.174 6.873 -0.693 336
0.869 1.868 1.596 7402
0.871 1.872 1.591 14804
0.873 1.875 1.585 13214
0.877 1.885 1.583 11218
0.879 1.889 1.578 10392
0.883 1.899 1.576 10286
0.885 1.902 1.570 10200
0.890 1.912 1.569 11276
0.891 1.916 1.563 12452
0.893 1.920 1.557 12452
0.895 1.923 1.551 9606
0.894 1.921 1.540 6900
0.901 1.937 1.543 5466
0.911 1.958 1.550 4478
0.935 2.010 1.579 4194
0.937 2.014 1.573 5330
0.942 2.023 1.571 5599
0.946 2.033 1.569 6040
0.948 2.037 1.562 5506
0.955 2.053 1.565 5068
0.951 2.044 1.550 6095
0.953 2.048 1.543 7908
0.955 2.052 1.537 8597
0.959 2.062 1.534 7957
0.964 2.071 1.532 7896
0.966 2.075 1.526 5958
0.993 2.134 1.557 4649
0.992 2.131 1.546 4405
0.991 2.129 1.535 3903
0.992 2.133 1.528 2644
0.991 2.130 1.517 2265
1.004 2.158 1.527 2935
1.006 2.162 1.520 4143
1.011 2.172 1.517 5400
0.992 2.132 1.483 5323
0.991 2.130 1.472 6231
0.990 2.127 1.461 5422
1.029 2.211 1.506 5824
1.036 2.227 1.507 5178
1.041 2.237 1.503 5054
1.040 2.235 1.492 5373
1.068 2.295 1.520 5737
1.069 2.298 1.513 6779
1.074 2.308 1.509 6407
1.079 2.318 1.506 6264
1.080 2.322 1.499 5610
1.117 2.401 1.536 5889
1.119 2.405 1.529 6375
1.121 2.408 1.521 5423
1.137 2.444 1.532 5353
1.127 2.422 1.510 6226
1.146 2.464 1.524 8640
1.145 2.461 1.513 11547
1.144 2.458 1.501 12242
1.149 2.468 1.497 10006
1.159 2.491 1.500 7769
1.173 2.520 1.506 6209
1.192 2.563 1.519 7085
1.197 2.573 1.515 10344
1.205 2.589 1.514 12610
1.191 2.561 1.488 14602
1.190 2.558 1.477 16599
1.192 2.561 1.469 14304
1.196 2.571 1.464 11608
1.222 2.627 1.483 10450
1.227 2.637 1.478 10018
1.222 2.627 1.463 9372
1.242 2.670 1.475 9584
1.253 2.693 1.476 13948
1.255 2.696 1.467 13959
1.256 2.700 1.459 10240
1.261 2.710 1.454 7843
1.281 2.753 1.464 7759
1.289 2.769 1.462 12370
1.293 2.779 1.456 10623
1.298 2.789 1.451 5618
1.333 2.865 1.476 3836
1.335 2.869 1.467 4448
1.337 2.872 1.458 5330
1.347 2.896 1.458 6444
1.371 2.946 1.470 6370
1.375 2.956 1.464 7134
1.365 2.933 1.443 8501
1.363 2.930 1.431 7824
1.362 2.926 1.418 7200
1.366 2.936 1.412 7263
1.383 2.973 1.417 6625
1.435 3.083 1.454 6640
1.405 3.020 1.416 7152
1.413 3.037 1.412 6353
1.430 3.074 1.416 6457
1.450 3.117 1.423 5292
1.452 3.121 1.414 4565
1.460 3.137 1.409 7266
1.468 3.154 1.405 11159
1.472 3.164 1.397 8647
1.521 3.269 1.428 5564
1.519 3.265 1.415 5233
1.559 3.350 1.436 5251
1.535 3.299 1.405 5348
1.534 3.296 1.392 6135
1.560 3.353 1.402 5229
1.584 3.404 1.409 6408
1.582 3.401 1.396 6718
1.584 3.404 1.385 4258
1.617 3.475 1.399 4320
1.635 3.513 1.401 5840
1.642 3.530 1.394 5453
1.657 3.560 1.393 5130
1.709 3.673 1.420 3703
1.714 3.683 1.411 5682
1.719 3.693 1.402 4580
1.720 3.697 1.390 3392
1.731 3.721 1.385 3563
1.730 3.717 1.371 4201
1.773 3.810 1.389 5253
1.771 3.806 1.375 7402
1.773 3.809 1.362 6091
1.790 3.847 1.361 5115
1.814 3.898 1.365 5399
1.828 3.929 1.361 4001
1.840 3.953 1.355 4324
1.851 3.977 1.349 5010
1.859 3.994 1.340 3544
1.873 4.025 1.336 2991
1.884 4.049 1.329 3075
1.947 4.184 1.355 4888
1.935 4.159 1.334 6324
1.943 4.176 1.324 5551
1.948 4.186 1.313 4352
1.982 4.259 1.319 5622
1.987 4.269 1.308 5564
2.011 4.321 1.307 6895
2.012 4.324 1.294 9827
2.017 4.334 1.282 13793
2.018 4.337 1.268 14310
2.020 4.340 1.254 12019
2.021 4.343 1.240 8391
2.110 4.535 1.274 5985
2.118 4.552 1.263 6106
2.126 4.569 1.252 4256
2.176 4.677 1.263 3368
2.223 4.778 1.272 3325
2.225 4.781 1.257 2924
2.239 4.812 1.248 3797
2.240 4.815 1.233 6214
2.248 4.832 1.220 8251
2.253 4.842 1.207 8410
2.254 4.845 1.191 5818
2.259 4.854 1.177 5599
2.267 4.871 1.165 5940
2.389 5.135 1.204 3900
2.354 5.060 1.171 3447
2.379 5.112 1.165 3711
2.383 5.122 1.150 3388
2.411 5.181 1.145 2883
2.600 5.587 1.206 3801
2.601 5.590 1.188 6691
2.599 5.585 1.169 6255
2.603 5.595 1.153 3895
2.611 5.612 1.137 3158
2.612 5.614 1.119 3094
2.729 5.865 1.144 3555
2.730 5.868 1.126 3625
2.728 5.863 1.106 3059
2.729 5.866 1.087 3160
2.869 6.167 1.116 3544
1.191 2.559 0.532 4701
1.191 2.560 0.524 5893
1.192 2.561 0.516 6600
1.192 2.562 0.508 6681
1.193 2.563 0.499 6085
1.193 2.564 0.491 4995
1.194 2.565 0.483 3759
1.194 2.566 0.475 3090
1.194 2.567 0.467 2481
3.249 6.981 1.019 2164
3.256 6.998 0.998 1830
3.271 7.029 0.979 1933
3.461 7.438 1.005 2852
3.465 7.447 0.982 3524
3.466 7.449 0.958 3860
3.467 7.452 0.934 4000
3.468 7.454 0.910 3590
3.466 7.448 0.886 3180
3.467 7.450 0.862 2725
3.468 7.452 0.838 1909
3.695 7.941 0.858 2452
3.699 7.950 0.834 2400
3.810 8.188 0.828 2402
3.811 8.189 0.802 2301
3.811 8.191 0.776 1724
3.759 8.078 0.741 1482
1.033 2.221 0.295 1105
1.034 2.221 0.288 1137
1.034 2.221 0.281 1085
1.034 2.222 0.274 918
1.034 2.222 0.267 711
1.301 2.796 0.292 623
1.301 2.796 0.283 757
1.301 2.797 0.274 800
1.298 2.790 0.265 753
3.938 8.464 0.498 591
3.939 8.464 0.471 664
3.939 8.465 0.444 695
3.939 8.466 0.417 706
3.943 8.474 0.390 639
1.232 2.648 0.208 596
1.232 2.648 0.200 621
1.232 2.648 0.192 658
1.232 2.648 0.183 862
1.236 2.656 0.175 1035
1.232 2.649 0.166 857
1.086 2.333 0.156 872
1.086 2.333 0.148 970
1.086 2.333 0.141 975
1.086 2.333 0.134 920
1.086 2.333 0.126 865
1.086 2.333 0.119 760
1.085 2.333 0.112 503
1.089 2.340 0.104 358
1.089 2.340 0.097 331
1.085 2.332 0.090 310
1.085 2.332 0.082 359
1.085 2.332 0.075 408
1.085 2.332 0.068 390
1.082 2.325 0.061 376
1.082 2.324 0.053 315
3.488 7.496 -0.167 301
3.481 7.480 -0.190 329
0.310 0.667 0.110 347
0.310 0.667 0.108 371
0.307 0.660 0.107 403
0.307 0.660 0.105 436
0.307 0.660 0.103 459
0.307 0.660 0.101 521
0.310 0.667 0.098 659
0.310 0.666 0.096 830
0.310 0.666 0.094 1120
0.310 0.666 0.092 1346
0.313 0.673 0.090 1551
0.310 0.666 0.088 1754
0.310 0.666 0.086 1835
0.310 0.666 0.084 2001
0.313 0.673 0.082 1911
0.313 0.673 0.080 1602
0.313 0.672 0.078 1332
0.313 0.672 0.076 1086
0.313 0.672 0.074 839
0.309 0.665 0.072 640
0.309 0.665 0.070 480
3.196 6.868 -0.649 551
3.195 6.866 -0.671 551
3.194 6.863 -0.693 275
0.873 1.866 1.596 7445
0.875 1.870 1.591 14890
0.877 1.873 1.585 13141
0.881 1.883 1.583 11252
0.886 1.893 1.582 10719
0.888 1.897 1.576 10490
0.887 1.894 1.566 10276
0.891 1.904 1.564 11466
0.896 1.914 1.563 12789
0.897 1.918 1.557 12789
0.899 1.921 1.551 9921
0.898 1.919 1.540 7163
0.905 1.935 1.543 5813
0.913 1.950 1.546 4773
0.937 2.002 1.575 4485
0.941 2.011 1.573 5719
0.946 2.021 1.571 5857
0.951 2.031 1.569 6208
0.952 2.035 1.562 5436
0.957 2.045 1.560 4706
0.956 2.042 1.550 5749
0.955 2.040 1.539 7590
0.959 2.050 1.537 8321
0.964 2.059 1.534 7702
0.968 2.069 1.532 7795
0.973 2.079 1.530 6051
0.995 2.125 1.552 4925
0.985 2.105 1.529 4544
0.992 2.121 1.531 3958
0.994 2.124 1.524 2769
0.999 2.134 1.521 2388
1.006 2.150 1.523 3134
1.011 2.160 1.520 3784
1.013 2.163 1.513 4454
1.006 2.149 1.495 4573
1.004 2.146 1.484 4983
1.032 2.205 1.513 5967
1.034 2.209 1.506 7060
1.041 2.225 1.507 6015
1.049 2.241 1.507 5630
1.048 2.238 1.496 5689
1.076 2.298 1.524 6597
1.075 2.296 1.513 7280
1.079 2.306 1.509 6915
1.084 2.316 1.506 6724
1.085 2.319 1.499 5980
1.120 2.392 1.533 5696
1.124 2.402 1.529 6369
1.129 2.412 1.525 5397
1.143 2.441 1.532 5418
1.132 2.420 1.510 6078
1.152 2.461 1.524 7864
1.151 2.459 1.513 10162
1.149 2.456 1.501 10926
1.157 2.472 1.501 9667
1.168 2.495 1.504 8794
1.178 2.518 1.506 7223
1.198 2.560 1.519 7766
1.206 2.576 1.518 11839
1.208 2.580 1.510 14882
1.203 2.571 1.495 15175
1.196 2.555 1.477 15507
1.194 2.552 1.465 13140
1.211 2.588 1.474 11513
1.228 2.624 1.483 12575
1.233 2.634 1.478 11767
1.228 2.624 1.463 10537
1.248 2.667 1.475 10260
1.259 2.690 1.476 13532
1.261 2.694 1.467 11552
1.262 2.697 1.459 7815
1.270 2.714 1.457 6436
1.287 2.750 1.464 7265
1.295 2.766 1.462 12156
1.299 2.777 1.456 10619
1.301 2.780 1.448 5152
1.293 2.764 1.429 3060
1.341 2.866 1.467 3325
1.349 2.883 1.464 5551
1.354 2.893 1.458 7584
1.374 2.936 1.467 7101
1.382 2.953 1.464 7492
1.390 2.970 1.461 7397
1.395 2.980 1.454 7574
1.406 3.003 1.454 6972
1.404 3.000 1.441 7217
1.431 3.057 1.455 6855
1.438 3.073 1.451 7698
1.412 3.017 1.416 7770
1.420 3.033 1.412 6870
1.437 3.070 1.416 5117
1.461 3.121 1.426 6576
1.462 3.124 1.416 5431
1.467 3.134 1.409 7975
1.475 3.151 1.405 12308
1.476 3.154 1.395 9441
1.525 3.259 1.425 6240
1.524 3.255 1.412 6096
1.566 3.346 1.436 5633
1.542 3.296 1.405 5401
1.541 3.292 1.392 6133
1.571 3.357 1.404 5182
1.592 3.401 1.409 6243
1.593 3.404 1.398 5804
1.592 3.400 1.385 3567
1.612 3.445 1.389 3711
1.646 3.516 1.403 5144
1.653 3.533 1.397 5621
1.665 3.557 1.393 5383
1.666 3.560 1.382 3796
1.719 3.673 1.409 4861
1.727 3.690 1.402 4030
1.735 3.707 1.395 3238
1.740 3.717 1.385 3380
1.741 3.720 1.373 3991
1.739 3.716 1.359 4170
1.779 3.802 1.375 6148
1.781 3.805 1.362 4879
1.818 3.884 1.375 4273
1.829 3.908 1.369 5415
1.840 3.932 1.363 4496
1.852 3.956 1.357 5458
1.860 3.973 1.349 5656
1.880 4.018 1.349 3847
1.882 4.021 1.336 3256
1.925 4.114 1.350 4008
1.959 4.187 1.357 4472
1.938 4.141 1.330 8480
1.940 4.144 1.316 7349
1.957 4.182 1.313 4728
1.991 4.255 1.319 5616
1.996 4.265 1.308 5540
2.020 4.317 1.307 5308
2.022 4.320 1.294 8133
2.026 4.330 1.282 11859
2.028 4.333 1.268 12423
2.029 4.336 1.254 10119
2.031 4.339 1.240 6499
2.117 4.523 1.272 6443
2.128 4.547 1.263 6033
2.136 4.564 1.252 4494
2.141 4.574 1.239 3253
2.188 4.675 1.248 3093
2.186 4.671 1.232 2802
2.256 4.821 1.251 3322
2.251 4.810 1.233 5999
2.259 4.827 1.220 7231
2.270 4.851 1.210 6912
2.281 4.875 1.199 4423
2.279 4.870 1.182 4038
2.281 4.873 1.166 4607
2.397 5.122 1.202 3881
2.366 5.055 1.171 3288
2.393 5.114 1.167 3659
2.414 5.159 1.159 3872
2.422 5.176 1.145 3082
2.612 5.581 1.206 3776
2.613 5.584 1.188 7045
2.615 5.586 1.171 6756
2.616 5.589 1.153 4481
2.730 5.832 1.178 3192
2.734 5.842 1.161 3401
2.742 5.859 1.144 4386
2.740 5.855 1.125 4451
2.741 5.857 1.106 3726
2.743 5.860 1.087 3767
2.793 5.969 1.085 3173
1.196 2.556 0.532 3758
1.197 2.557 0.524 4514
1.197 2.558 0.516 5075
1.201 2.567 0.509 5412
1.202 2.568 0.500 5324
1.199 2.561 0.491 4924
1.203 2.569 0.484 4220
1.203 2.570 0.476 3690
1.200 2.564 0.467 3132
1.204 2.572 0.460 2140
3.279 7.005 1.000 1679
3.473 7.421 1.028 2385
3.477 7.430 1.005 3876
3.482 7.439 0.982 4834
3.483 7.442 0.958 5219
3.484 7.444 0.934 5349
3.482 7.439 0.909 4807
3.486 7.448 0.886 4077
3.483 7.443 0.862 3462
3.484 7.445 0.838 2633
3.713 7.932 0.858 2785
3.717 7.941 0.834 2591
3.831 8.186 0.829 2193
3.832 8.188 0.802 2072
3.776 8.068 0.767 1798
3.777 8.070 0.741 1614
1.038 2.218 0.295 1733
1.038 2.219 0.288 1792
1.039 2.219 0.281 1695
1.039 2.220 0.274 1421
1.039 2.220 0.267 1102
1.036 2.213 0.260 888
1.307 2.794 0.283 637
1.308 2.794 0.274 574
1.304 2.787 0.265 480
3.957 8.455 0.498 358
3.957 8.456 0.471 399
1.248 2.666 0.234 451
1.248 2.666 0.226 555
1.248 2.667 0.217 593
1.245 2.660 0.209 731
1.245 2.660 0.200 826
1.245 2.660 0.192 947
1.245 2.660 0.183 1048
1.245 2.660 0.175 1028
1.245 2.660 0.167 808
1.248 2.667 0.158 588
1.091 2.331 0.148 577
1.091 2.331 0.141 609
1.091 2.331 0.134 581
1.094 2.338 0.126 556
1.091 2.330 0.119 501
1.091 2.330 0.112 370
1.094 2.337 0.104 296
1.090 2.330 0.075 287
1.087 2.322 0.068 298
1.087 2.322 0.061 313
1.087 2.322 0.053 260
0.312 0.667 0.114 275
0.312 0.667 0.112 365
0.309 0.659 0.110 426
0.309 0.659 0.109 445
0.308 0.659 0.107 456
0.308 0.659 0.105 495
0.308 0.659 0.103 534
0.308 0.659 0.101 626
0.312 0.666 0.098 827
0.312 0.666 0.096 1079
0.312 0.666 0.094 1496
0.315 0.673 0.092 1829
0.315 0.673 0.090 2130
0.315 0.672 0.088 2410
0.311 0.665 0.086 2510
0.315 0.672 0.084 2724
0.315 0.672 0.082 2598
0.314 0.672 0.080 2181
0.314 0.672 0.078 1830
0.314 0.672 0.076 1508
0.314 0.671 0.074 1173
0.311 0.664 0.072 900
0.311 0.664 0.070 679
0.314 0.671 0.068 440
3.210 6.858 -0.671 372
0.307 0.656 0.062 304
0.878 1.863 1.596 7480
0.880 1.867 1.591 14960
0.882 1.871 1.585 13132
0.887 1.881 1.583 11390
0.891 1.890 1.582 11151
0.890 1.888 1.572 10804
0.892 1.892 1.566 10505
0.897 1.902 1.564 11696
0.901 1.911 1.563 13076
0.903 1.915 1.557 13076
0.902 1.913 1.546 10208
0.904 1.917 1.540 7392
0.911 1.932 1.543 6052
0.915 1.942 1.541 4949
0.942 1.999 1.575 4656
0.947 2.009 1.573 5949
0.952 2.019 1.571 6000
0.956 2.028 1.569 6303
0.958 2.032 1.562 5377
0.963 2.042 1.560 4482
0.962 2.040 1.550 5411
0.960 2.037 1.539 7223
0.965 2.047 1.537 7877
0.970 2.057 1.534 7373
0.977 2.073 1.536 7716
0.979 2.076 1.530 6186
1.001 2.123 1.552 5286
0.988 2.096 1.525 5148
0.996 2.112 1.527 4618
0.997 2.115 1.520 3739
1.002 2.125 1.517 3307
1.012 2.147 1.523 3796
1.014 2.151 1.516 3825
1.016 2.154 1.509 3855
1.023 2.170 1.510 4355
1.034 2.193 1.516 5624
1.038 2.202 1.513 6916
1.040 2.206 1.506 8239
1.048 2.222 1.507 6833
1.055 2.238 1.507 6300
1.057 2.242 1.500 6155
1.082 2.295 1.524 7528
