1.339 6.251 1.224 3663
1.351 6.307 1.215 3451
1.353 6.318 1.197 3341
1.367 6.382 1.189 2640
1.370 6.393 1.171 3106
1.467 6.847 1.224 2147
1.464 6.835 1.202 2435
1.458 6.807 1.177 3298
1.459 6.810 1.157 3643
1.502 7.012 1.166 3359
1.500 7.000 1.143 2951
1.471 6.864 1.102 2492
1.612 7.527 1.173 2174
1.613 7.530 1.151 2178
1.596 7.448 1.118 1827
1.766 8.242 1.198 1607
1.682 7.853 1.124 1825
1.800 8.402 1.168 1793
1.820 8.497 1.154 1791
1.823 8.507 1.130 1878
1.821 8.502 1.104 1432
1.908 8.905 1.123 1489
1.910 8.916 1.097 1554
1.911 8.918 1.071 1176
1.929 9.006 1.053 881
1.965 9.170 1.042 980
1.983 9.258 1.023 1474
1.984 9.260 0.996 1565
1.988 9.278 0.970 1290
1.988 9.280 0.942 892
1.972 9.205 0.908 615
1.971 9.200 0.880 301
0.448 2.047 1.602 9326
0.449 2.051 1.596 18653
0.450 2.056 1.590 18653
0.451 2.060 1.584 17986
0.453 2.070 1.583 17504
0.454 2.074 1.577 14134
0.455 2.078 1.570 10764
0.457 2.089 1.569 12073
0.458 2.093 1.563 13431
0.459 2.097 1.557 13431
0.461 2.107 1.555 11279
0.465 2.124 1.558 10224
0.486 2.218 1.613 11904
0.488 2.229 1.611 13964
0.488 2.227 1.600 16223
0.487 2.224 1.589 19126
0.488 2.229 1.583 21539
0.490 2.239 1.580 24156
0.491 2.243 1.574 22742
0.492 2.247 1.567 20344
0.492 2.245 1.557 19366
0.492 2.249 1.550 15590
0.492 2.246 1.539 12144
0.494 2.257 1.537 10382
0.495 2.261 1.530 8951
0.496 2.265 1.524 7033
0.497 2.269 1.517 5116
0.498 2.273 1.510 3840
0.523 2.389 1.573 4664
0.523 2.387 1.562 6019
0.522 2.384 1.551 7450
0.523 2.388 1.544 7504
0.524 2.392 1.537 5932
0.526 2.403 1.534 4319
0.562 2.568 1.622 3462
0.563 2.572 1.614 3956
0.561 2.563 1.599 5470
0.561 2.560 1.588 7226
0.561 2.564 1.580 8797
0.562 2.568 1.573 10368
0.565 2.579 1.569 9177
0.574 2.624 1.584 7601
0.583 2.662 1.596 8547
0.585 2.673 1.592 7494
0.589 2.691 1.591 6922
0.590 2.695 1.583 5526
0.604 2.760 1.609 4428
0.607 2.771 1.604 4450
0.608 2.776 1.596 3627
0.591 2.697 1.544 3084
0.593 2.708 1.540 3327
0.610 2.788 1.572 6922
0.611 2.792 1.564 10242
0.615 2.810 1.563 11159
0.621 2.835 1.565 12245
0.622 2.839 1.557 11271
0.622 2.843 1.548 8999
0.620 2.833 1.533 4645
0.638 2.913 1.563 4663
0.640 2.924 1.558 6920
0.643 2.935 1.553 9165
0.648 2.960 1.554 10172
0.651 2.971 1.549 10797
0.651 2.975 1.540 9632
0.651 2.972 1.528 10435
0.649 2.962 1.513 9842
0.648 2.959 1.501 7272
0.650 2.970 1.495 6345
0.656 2.995 1.496 5701
0.677 3.091 1.530 6525
0.674 3.080 1.514 9030
0.674 3.077 1.502 9824
0.675 3.081 1.493 9028
0.680 3.106 1.493 8871
0.679 3.103 1.481 9688
0.680 3.107 1.472 8593
0.683 3.118 1.466 8361
0.687 3.136 1.463 6101
0.719 3.282 1.514 4919
0.718 3.279 1.502 7350
0.719 3.283 1.492 9390
0.723 3.301 1.488 12156
0.724 3.305 1.479 12589
0.732 3.345 1.484 9610
0.736 3.363 1.480 8095
0.737 3.367 1.470 6423
0.727 3.320 1.440 6173
0.731 3.338 1.436 6763
0.749 3.421 1.457 6731
0.750 3.425 1.447 9741
0.754 3.443 1.442 7050
0.766 3.498 1.452 6008
0.778 3.552 1.460 6466
0.780 3.563 1.453 8748
0.783 3.574 1.445 7169
0.785 3.585 1.437 9455
0.789 3.603 1.432 12994
0.791 3.614 1.424 10516
0.794 3.625 1.416 8374
0.798 3.644 1.410 7855
0.807 3.684 1.412 7875
0.817 3.731 1.417 5851
0.821 3.750 1.411 5080
0.839 3.834 1.427 5947
0.842 3.845 1.418 7146
0.843 3.849 1.407 7868
0.843 3.852 1.396 7921
0.847 3.870 1.389 6178
0.855 3.904 1.387 6065
0.860 3.929 1.383 4574
0.879 4.014 1.397 3697
0.901 4.114 1.416 3339
0.901 4.117 1.403 4041
0.899 4.106 1.387 3575
0.901 4.117 1.377 3982
0.923 4.217 1.394 4065
0.929 4.243 1.388 5815
0.931 4.254 1.378 6681
0.937 4.280 1.372 4792
0.943 4.305 1.365 5165
0.939 4.287 1.346 3506
0.977 4.461 1.382 4122
0.978 4.465 1.369 5538
0.978 4.468 1.356 6280
1.005 4.592 1.375 4944
1.006 4.595 1.362 7483
1.008 4.606 1.350 5922
1.013 4.624 1.340 5535
1.015 4.635 1.329 6296
1.014 4.631 1.313 6513
1.011 4.619 1.295 6113
1.047 4.781 1.321 4510
1.046 4.776 1.305 5900
1.063 4.855 1.309 4905
1.085 4.956 1.319 3649
1.088 4.967 1.306 4952
1.088 4.970 1.291 3447
1.109 5.064 1.297 3426
1.156 5.279 1.331 2971
1.160 5.297 1.318 4384
1.161 5.301 1.303 4007
1.170 5.342 1.295 4167
1.172 5.352 1.281 3224
1.173 5.356 1.265 2810
1.173 5.359 1.249 3849
1.214 5.544 1.271 3857
1.213 5.540 1.253 3845
1.247 5.695 1.267 4421
1.248 5.698 1.250 4290
1.250 5.708 1.235 4404
1.252 5.719 1.219 3284
1.310 5.981 1.251 3688
1.310 5.984 1.233 4427
1.309 5.980 1.214 3407
1.340 6.120 1.221 3254
1.369 6.252 1.225 3510
1.380 6.301 1.215 3739
1.382 6.312 1.197 3623
1.421 6.490 1.208 2692
1.398 6.386 1.171 2882
1.498 6.840 1.224 2313
1.497 6.836 1.203 2511
1.489 6.800 1.177 3063
1.490 6.803 1.157 3320
1.534 7.005 1.166 3058
1.529 6.985 1.142 2863
1.503 6.865 1.104 2478
1.646 7.520 1.173 2195
1.649 7.530 1.152 2252
1.644 7.510 1.127 1577
1.803 8.234 1.198 1770
1.805 8.245 1.174 1899
1.839 8.401 1.169 1736
1.857 8.481 1.153 1600
1.859 8.491 1.129 1622
1.858 8.486 1.103 1466
1.950 8.904 1.124 1586
1.950 8.907 1.097 1687
1.951 8.910 1.071 1283
1.972 9.005 1.054 975
2.006 9.161 1.042 1135
2.023 9.241 1.022 1434
2.026 9.251 0.996 1524
2.029 9.269 0.970 1227
2.028 9.263 0.941 861
2.015 9.204 0.909 641
2.014 9.198 0.881 315
0.454 2.046 1.602 8895
0.455 2.050 1.596 17791
0.456 2.054 1.590 17791
0.456 2.058 1.584 17032
0.459 2.069 1.583 16397
0.460 2.073 1.577 13695
0.462 2.083 1.575 11151
0.463 2.088 1.569 12749
0.464 2.092 1.563 14348
0.465 2.096 1.557 14348
0.467 2.106 1.555 12252
0.471 2.123 1.558 11260
0.492 2.217 1.613 10755
0.494 2.228 1.611 12792
0.492 2.219 1.596 15304
0.493 2.223 1.589 18338
0.494 2.227 1.583 20053
0.496 2.238 1.580 21902
0.497 2.242 1.574 20808
0.498 2.246 1.567 18955
0.498 2.244 1.557 18313
0.498 2.248 1.550 15367
0.498 2.245 1.539 12834
0.499 2.249 1.533 10572
0.501 2.260 1.530 8517
0.502 2.264 1.524 6524
0.503 2.267 1.517 4531
0.504 2.271 1.510 3560
0.530 2.388 1.573 4648
0.529 2.385 1.562 6017
0.528 2.383 1.551 7764
0.529 2.387 1.544 8150
0.530 2.391 1.537 6521
0.531 2.395 1.530 4737
0.556 2.506 1.586 3627
0.560 2.523 1.587 3803
0.566 2.554 1.595 5520
0.567 2.559 1.588 7500
0.568 2.563 1.580 9504
0.569 2.567 1.573 11508
0.572 2.578 1.569 10393
0.582 2.622 1.584 8014
0.590 2.660 1.596 9528
0.592 2.671 1.592 8542
0.595 2.682 1.587 8018
0.599 2.700 1.587 5822
0.612 2.759 1.609 3913
0.616 2.777 1.608 3778
0.617 2.781 1.600 3737
0.616 2.778 1.588 3641
0.617 2.782 1.580 3510
0.618 2.786 1.572 6230
0.619 2.790 1.564 9080
0.624 2.815 1.566 10016
0.627 2.826 1.561 10797
0.629 2.837 1.557 9670
0.630 2.841 1.548 8040
0.632 2.852 1.543 4786
0.644 2.905 1.559 5046
0.647 2.916 1.554 6605
0.651 2.934 1.553 8186
0.656 2.959 1.554 9205
0.659 2.970 1.549 10048
0.659 2.974 1.540 8780
0.660 2.978 1.531 9353
0.657 2.960 1.513 9024
0.650 2.929 1.487 7067
0.658 2.968 1.495 6358
0.664 2.993 1.496 6055
0.671 3.025 1.500 5386
0.678 3.057 1.504 7345
0.680 3.068 1.499 9247
0.684 3.086 1.496 10138
0.688 3.104 1.493 11195
0.689 3.108 1.484 11472
0.690 3.112 1.475 8448
0.689 3.109 1.463 6835
0.690 3.113 1.454 5196
0.727 3.280 1.514 4757
0.728 3.284 1.505 7514
0.729 3.288 1.495 9146
0.730 3.292 1.485 11675
0.731 3.296 1.476 11878
0.743 3.350 1.487 8595
0.747 3.368 1.482 7835
0.749 3.379 1.475 6690
0.733 3.304 1.434 6096
0.738 3.329 1.433 6038
0.757 3.412 1.454 7571
0.758 3.416 1.444 10239
0.763 3.441 1.442 7091
0.775 3.496 1.452 6098
0.786 3.543 1.458 6756
0.790 3.561 1.453 8845
0.791 3.565 1.442 7080
0.795 3.583 1.437 9070
0.799 3.601 1.432 12278
0.801 3.612 1.424 10811
0.804 3.623 1.416 9643
0.806 3.634 1.408 8345
0.815 3.674 1.410 7616
0.829 3.736 1.419 6885
0.833 3.755 1.413 5706
0.848 3.824 1.425 4821
0.852 3.843 1.418 6724
0.853 3.846 1.407 7811
0.854 3.850 1.396 7846
0.856 3.861 1.387 5706
0.867 3.909 1.390 5861
0.871 3.927 1.383 4073
0.890 4.012 1.397 2748
0.915 4.126 1.420 2877
0.914 4.122 1.406 3490
0.912 4.111 1.389 3153
0.912 4.115 1.377 3620
0.935 4.214 1.394 3870
0.939 4.233 1.386 5845
0.943 4.251 1.378 6167
0.949 4.277 1.372 4187
0.954 4.303 1.365 4970
0.983 4.433 1.389 3569
0.989 4.459 1.382 4307
0.990 4.462 1.369 4917
0.990 4.466 1.356 5645
1.018 4.589 1.375 5848
1.018 4.592 1.362 8274
1.019 4.596 1.348 6291
1.022 4.607 1.336 4829
1.024 4.618 1.325 5207
1.023 4.613 1.309 6584
1.024 4.617 1.295 7262
1.060 4.778 1.321 5295
1.059 4.774 1.305 5085
1.076 4.852 1.309 5031
1.098 4.953 1.319 3596
1.099 4.956 1.304 4625
1.122 5.058 1.312 3797
1.124 5.069 1.299 4076
1.126 5.079 1.286 3447
1.172 5.286 1.317 3739
1.180 5.320 1.308 3983
1.186 5.346 1.297 4716
1.186 5.349 1.281 3436
1.187 5.353 1.265 2586
1.188 5.356 1.249 3490
1.188 5.359 1.234 3405
1.261 5.688 1.284 3649
1.262 5.691 1.267 4553
1.263 5.694 1.250 4677
1.264 5.698 1.233 4628
1.322 5.959 1.266 3372
1.324 5.970 1.249 3627
1.325 5.973 1.232 4513
1.325 5.976 1.214 3437
1.356 6.116 1.221 3639
1.377 6.211 1.219 3307
1.397 6.297 1.215 3791
1.399 6.308 1.197 3634
1.440 6.494 1.209 2870
1.415 6.383 1.171 2379
1.516 6.836 1.224 2337
1.515 6.832 1.203 2464
1.463 6.598 1.146 2883
1.508 6.799 1.157 2930
1.509 6.802 1.136 2644
1.545 6.966 1.139 2768
1.523 6.869 1.105 2447
1.667 7.515 1.173 2022
1.701 7.671 1.172 2115
1.605 7.237 1.091 1590
1.825 8.229 1.198 1707
1.827 8.240 1.174 1888
1.862 8.396 1.169 1637
1.873 8.445 1.149 1327
1.880 8.479 1.128 1409
1.968 8.873 1.147 1485
1.974 8.899 1.124 1585
1.974 8.902 1.097 1693
1.975 8.905 1.071 1300
1.996 8.999 1.054 1145
2.032 9.164 1.043 1213
2.046 9.228 1.022 1415
2.049 9.238 0.995 1407
2.049 9.240 0.967 1074
2.046 9.227 0.939 822
2.040 9.199 0.909 605
2.066 9.316 0.891 350
2.053 9.257 0.858 252
0.458 2.045 1.602 8425
0.459 2.049 1.596 16850
0.460 2.053 1.590 16850
0.460 2.058 1.584 15989
0.463 2.068 1.583 15210
0.465 2.078 1.581 13126
0.466 2.083 1.575 11436
0.467 2.087 1.569 13198
0.468 2.091 1.563 14959
0.469 2.095 1.557 14959
0.471 2.105 1.555 12980
0.475 2.122 1.558 12126
0.496 2.216 1.613 9625
0.497 2.220 1.606 11741
0.496 2.218 1.596 14140
0.497 2.222 1.589 16772
0.498 2.226 1.583 18031
0.501 2.237 1.580 19414
0.501 2.241 1.574 18855
0.501 2.239 1.563 17926
0.502 2.243 1.557 17579
0.503 2.247 1.550 14785
0.502 2.244 1.539 12393
0.503 2.248 1.533 9597
0.505 2.259 1.530 7005
0.506 2.263 1.524 5395
0.509 2.273 1.521 3819
0.533 2.383 1.580 3297
0.536 2.394 1.577 4543
0.534 2.384 1.562 5966
0.533 2.382 1.551 8228
0.534 2.386 1.544 9008
0.535 2.390 1.537 7271
0.534 2.387 1.526 5266
0.562 2.511 1.590 3783
0.564 2.522 1.587 3959
0.571 2.553 1.595 5593
0.572 2.557 1.588 7631
0.575 2.568 1.584 9985
0.576 2.572 1.576 12362
0.577 2.576 1.569 11393
0.593 2.648 1.600 8325
0.595 2.659 1.596 10300
0.598 2.670 1.592 9453
0.600 2.681 1.587 8965
0.602 2.692 1.583 6205
0.590 2.635 1.542 4251
0.590 2.639 1.534 3728
0.619 2.766 1.593 4252
0.620 2.770 1.584 5018
0.622 2.781 1.580 4462
0.623 2.785 1.572 5860
0.626 2.796 1.567 7743
0.630 2.814 1.566 8647
0.632 2.825 1.561 9111
0.633 2.829 1.553 7766
0.635 2.840 1.548 6743
0.641 2.865 1.550 5189
0.647 2.889 1.552 5522
0.652 2.914 1.554 6315
0.655 2.925 1.549 7115
0.662 2.957 1.554 7709
0.664 2.968 1.549 8735
0.665 2.972 1.540 7573
0.666 2.976 1.531 8238
0.662 2.959 1.513 8075
0.654 2.921 1.484 7099
0.662 2.960 1.492 6400
0.670 2.992 1.496 6386
0.672 3.003 1.491 5667
0.681 3.042 1.498 7089
0.683 3.053 1.492 8412
0.689 3.078 1.493 8514
0.694 3.103 1.493 9665
0.695 3.107 1.484 10180
0.696 3.111 1.475 8319
0.695 3.107 1.463 7655
0.698 3.118 1.457 6700
0.700 3.129 1.450 5241
0.735 3.283 1.505 7207
0.737 3.294 1.498 8715
0.736 3.291 1.485 11115
0.736 3.287 1.473 11234
0.738 3.298 1.466 7635
0.753 3.367 1.482 7487
0.757 3.385 1.478 6885
0.737 3.295 1.431 5942
0.758 3.385 1.456 5718
0.762 3.403 1.451 8416
0.764 3.414 1.444 10532
0.770 3.440 1.442 7119
0.782 3.494 1.452 6003
0.792 3.541 1.458 7116
0.795 3.552 1.450 8928
0.797 3.563 1.442 6779
0.801 3.582 1.437 8230
0.806 3.600 1.432 11147
0.808 3.611 1.424 10632
0.809 3.614 1.413 10323
0.813 3.633 1.408 8353
0.820 3.665 1.407 6921
0.836 3.735 1.419 7406
0.840 3.753 1.413 6230
0.836 3.735 1.395 4856
0.860 3.841 1.418 6281
0.860 3.845 1.407 7625
0.861 3.848 1.396 7733
0.862 3.852 1.384 5503
0.874 3.907 1.390 5538
0.875 3.910 1.378 3553
0.920 4.113 1.430 2089
0.925 4.132 1.423 2751
0.922 4.120 1.406 2804
0.913 4.080 1.380 2794
0.917 4.098 1.372 3175
0.943 4.213 1.394 3842
0.947 4.231 1.386 5895
0.949 4.242 1.375 5678
0.957 4.275 1.372 3376
0.962 4.301 1.365 4237
0.990 4.424 1.387 3678
0.996 4.449 1.380 4059
0.998 4.460 1.369 3856
1.001 4.471 1.358 4618
1.026 4.587 1.375 6036
1.027 4.590 1.362 8163
1.026 4.586 1.346 6370
1.059 4.732 1.370 6490
1.060 4.735 1.356 6534
1.030 4.604 1.307 6565
1.031 4.607 1.294 7526
1.067 4.768 1.319 5425
1.086 4.854 1.326 4185
1.087 4.857 1.311 5340
1.106 4.943 1.317 3461
1.109 4.954 1.304 3995
1.130 5.048 1.311 3940
1.135 5.074 1.301 4408
1.136 5.077 1.286 3751
1.135 5.073 1.269 3337
1.192 5.325 1.309 3905
1.196 5.344 1.297 4893
1.197 5.347 1.281 3409
1.197 5.350 1.265 2428
1.200 5.361 1.251 3363
1.200 5.364 1.235 3398
1.272 5.686 1.284 3719
1.275 5.696 1.269 4655
1.274 5.692 1.250 4988
1.274 5.695 1.233 4695
1.333 5.956 1.266 3200
1.334 5.960 1.248 3224
1.336 5.970 1.232 4223
1.335 5.966 1.213 3347
1.368 6.113 1.221 3851
1.365 6.101 1.200 3386
1.410 6.302 1.216 3686
1.411 6.305 1.197 3325
1.453 6.491 1.209 2979
1.452 6.487 1.189 2009
1.529 6.833 1.224 2232
1.472 6.577 1.163 2452
1.472 6.580 1.144 3002
1.521 6.796 1.157 2609
1.547 6.914 1.153 2738
1.556 6.955 1.138 2698
1.584 7.080 1.135 2547
1.551 6.930 1.093 1666
1.716 7.668 1.172 1939
1.617 7.226 1.090 1828
1.618 7.229 1.069 1648
1.843 8.236 1.174 1863
1.878 8.393 1.169 1506
1.783 7.966 1.092 1259
1.982 8.859 1.173 1362
1.985 8.869 1.147 1421
1.989 8.888 1.123 1430
1.993 8.906 1.098 1538
1.994 8.908 1.072 1208
2.015 9.003 1.054 1286
2.055 9.183 1.045 1386
2.059 9.201 1.019 1573
2.063 9.218 0.993 1384
2.082 9.306 0.974 1048
2.083 9.308 0.946 932
2.083 9.310 0.918 807
2.084 9.312 0.891 527
2.072 9.260 0.859 364
0.465 2.043 1.602 7805
0.466 2.048 1.596 15610
0.467 2.052 1.590 15610
0.468 2.056 1.584 14729
0.470 2.066 1.583 13890
0.473 2.077 1.581 12524
0.475 2.087 1.579 11609
0.475 2.085 1.569 13299
0.475 2.089 1.563 15109
0.476 2.093 1.557 15109
0.479 2.103 1.555 13314
0.483 2.120 1.558 12688
0.484 2.124 1.552 10063
0.505 2.218 1.606 10338
0.504 2.216 1.596 12324
0.505 2.220 1.589 14372
0.506 2.224 1.583 15194
0.509 2.235 1.580 16085
0.508 2.233 1.570 15776
0.509 2.237 1.563 15390
0.510 2.241 1.557 15244
0.511 2.245 1.550 12808
0.510 2.242 1.539 10644
0.511 2.246 1.533 8047
0.514 2.257 1.530 5567
0.515 2.261 1.524 4140
0.517 2.271 1.521 2798
0.543 2.387 1.584 3112
0.544 2.392 1.577 4407
0.542 2.382 1.562 5875
0.540 2.373 1.547 8893
0.541 2.377 1.540 10019
0.542 2.381 1.533 8146
0.543 2.385 1.526 5862
0.544 2.389 1.519 4010
0.574 2.520 1.587 4091
0.582 2.558 1.599 5675
0.583 2.562 1.592 7681
0.584 2.566 1.584 10303
0.585 2.570 1.576 12924
0.586 2.574 1.569 12143
0.588 2.585 1.565 8657
0.605 2.657 1.596 10663
0.607 2.668 1.592 10046
0.608 2.672 1.584 9626
0.611 2.683 1.580 6782
0.599 2.632 1.542 4918
0.602 2.643 1.538 4341
0.627 2.757 1.589 5276
0.628 2.761 1.581 6282
0.631 2.772 1.576 5377
0.624 2.742 1.550 5638
0.626 2.752 1.546 6469
0.640 2.812 1.566 7112
0.642 2.822 1.561 7127
0.643 2.827 1.553 5628
0.647 2.844 1.552 5079
0.653 2.869 1.554 5117
0.656 2.880 1.549 5485
0.660 2.898 1.547 5878
0.662 2.909 1.542 6243
0.657 2.885 1.520 6765
0.662 2.910 1.522 7425
0.657 2.886 1.500 6678
0.678 2.981 1.535 7275
0.681 2.992 1.529 7800
0.664 2.918 1.484 7077
0.675 2.964 1.495 6530
0.679 2.982 1.493 6642
0.683 3.000 1.491 5825
0.690 3.032 1.495 6981
0.694 3.050 1.492 8419
0.702 3.083 1.496 10060
0.706 3.101 1.493 11840
0.708 3.111 1.487 10845
0.709 3.115 1.478 7240
0.710 3.119 1.469 5443
0.709 3.116 1.457 5426
0.730 3.205 1.484 5444
0.732 3.216 1.478 6659
0.749 3.291 1.498 8074
0.747 3.281 1.482 10322
0.746 3.277 1.470 10633
0.745 3.274 1.457 7688
0.751 3.299 1.456 6797
0.770 3.382 1.478 6768
0.749 3.292 1.431 5736
0.772 3.390 1.458 6459
0.774 3.401 1.451 8845
0.777 3.411 1.444 10393
0.781 3.430 1.440 7149
0.783 3.441 1.432 5882
0.805 3.538 1.458 7332
0.808 3.549 1.450 8692
0.810 3.560 1.442 6273
0.815 3.579 1.437 7056
0.817 3.590 1.429 9666
0.821 3.608 1.424 9857
0.822 3.611 1.413 10146
0.824 3.622 1.405 7628
0.832 3.655 1.405 5868
0.851 3.739 1.422 7307
0.854 3.750 1.413 6514
0.851 3.739 1.397 5634
0.875 3.845 1.421 5789
0.874 3.841 1.407 7141
0.875 3.845 1.396 7400
0.874 3.841 1.382 5475
0.887 3.896 1.387 5391
0.886 3.893 1.374 3391
0.937 4.117 1.432 2117
0.940 4.128 1.423 2626
0.919 4.036 1.380 2400
0.921 4.047 1.371 3217
0.930 4.087 1.370 3137
0.960 4.217 1.396 3841
0.961 4.220 1.384 5651
0.963 4.231 1.373 5039
0.979 4.301 1.380 3046
0.980 4.305 1.368 3766
1.006 4.420 1.387 3578
1.010 4.438 1.378 3452
0.987 4.338 1.336 2669
1.029 4.520 1.372 3842
1.041 4.576 1.373 5465
1.042 4.579 1.360 7120
1.075 4.724 1.384 6877
1.076 4.728 1.370 7720
1.077 4.732 1.356 7833
1.076 4.727 1.340 7400
1.048 4.603 1.294 7234
1.084 4.764 1.319 5447
1.106 4.858 1.328 4774
1.105 4.853 1.311 5618
1.123 4.932 1.315 3403
1.134 4.980 1.311 3802
1.136 4.991 1.298 3915
1.154 5.070 1.301 4443
1.155 5.073 1.286 3889
1.154 5.069 1.269 3140
1.213 5.328 1.311 3717
1.215 5.339 1.297 4639
1.216 5.343 1.281 3038
1.237 5.437 1.285 2429
1.221 5.364 1.253 3446
1.220 5.360 1.235 3482
1.293 5.681 1.284 3513
1.296 5.692 1.269 4581
1.295 5.687 1.250 4939
1.295 5.690 1.233 4344
1.296 5.693 1.216 2869
1.354 5.947 1.247 2689
1.356 5.958 1.230 3547
1.393 6.121 1.242 3250
1.390 6.108 1.221 3898
1.386 6.089 1.199 3850
1.433 6.297 1.216 3408
1.479 6.498 1.231 3288
1.478 6.494 1.210 2985
1.494 6.565 1.202 2294
1.499 6.584 1.185 2687
1.496 6.571 1.163 2772
1.496 6.574 1.144 3016
1.546 6.791 1.157 2423
1.572 6.908 1.153 2777
1.573 6.911 1.133 2686
1.562 6.860 1.105 2609
1.634 7.177 1.128 1706
1.746 7.669 1.173 1624
1.645 7.228 1.091 1799
1.810 7.951 1.163 1622
1.730 7.601 1.095 2109
1.733 7.612 1.073 1891
1.733 7.614 1.050 1373
2.015 8.851 1.173 1389
2.017 8.862 1.147 1369
2.021 8.880 1.123 1334
2.024 8.891 1.097 1364
2.050 9.009 1.083 1226
2.049 9.004 1.055 1346
2.090 9.183 1.046 1624
2.092 9.193 1.019 1755
2.095 9.203 0.993 1379
2.116 9.298 0.974 1310
2.117 9.300 0.946 1216
2.117 9.302 0.918 1083
2.118 9.305 0.891 733
2.108 9.261 0.859 512
2.115 9.293 0.834 427
2.118 9.303 0.807 379
2.120 9.313 0.780 252
0.471 2.042 1.602 7129
0.472 2.046 1.596 14259
0.473 2.050 1.590 14259
0.474 2.055 1.584 13419
0.476 2.065 1.583 12608
0.479 2.075 1.581 11794
0.481 2.086 1.579 11536
0.481 2.084 1.569 12957
0.481 2.088 1.563 14686
0.482 2.092 1.557 14686
0.485 2.102 1.555 13245
0.489 2.119 1.558 13067
0.490 2.123 1.552 10445
0.510 2.211 1.602 8291
0.511 2.215 1.596 9753
0.512 2.219 1.589 11214
0.513 2.223 1.583 11293
0.515 2.234 1.580 11568
0.515 2.231 1.570 11764
0.516 2.235 1.563 12196
0.516 2.239 1.557 12236
0.516 2.237 1.546 10596
0.517 2.241 1.539 9153
0.536 2.323 1.583 7249
0.538 2.334 1.580 5660
0.539 2.338 1.573 4080
0.542 2.349 1.571 2541
0.550 2.386 1.584 2963
0.553 2.397 1.581 4258
0.546 2.368 1.554 5771
0.545 2.365 1.543 9558
0.548 2.376 1.540 10853
0.549 2.380 1.533 8848
0.548 2.377 1.522 6278
0.551 2.387 1.519 4367
0.582 2.525 1.591 4378
0.590 2.556 1.599 5715
0.591 2.560 1.592 7548
0.591 2.564 1.584 10295
0.592 2.569 1.576 13043
0.593 2.573 1.569 12566
0.594 2.577 1.561 9123
0.612 2.655 1.596 10599
0.613 2.659 1.588 10361
0.616 2.670 1.584 10205
0.611 2.647 1.561 7622
0.608 2.638 1.546 5703
0.631 2.737 1.590 5767
0.634 2.748 1.585 6600
0.636 2.759 1.581 7468
0.639 2.770 1.576 6028
0.629 2.726 1.543 6057
0.631 2.737 1.539 6471
0.648 2.810 1.566 5440
0.652 2.828 1.565 5227
0.655 2.838 1.560 3862
0.659 2.856 1.559 3969
0.663 2.874 1.557 4607
0.665 2.885 1.552 4783
0.665 2.882 1.541 5618
0.664 2.879 1.529 7164
0.665 2.883 1.520 7321
0.671 2.908 1.522 7245
0.665 2.884 1.500 6530
0.687 2.979 1.535 6725
0.688 2.983 1.526 8175
0.690 2.994 1.520 7662
0.690 2.991 1.508 6848
0.687 2.980 1.493 6656
0.698 3.027 1.504 5692
0.699 3.030 1.495 6729
0.701 3.041 1.489 7604
0.712 3.088 1.499 9494
0.715 3.098 1.493 12425
0.717 3.109 1.487 11515
0.718 3.113 1.478 7775
0.721 3.124 1.472 5863
0.720 3.121 1.460 5102
0.740 3.210 1.487 6237
0.741 3.214 1.478 7518
0.759 3.289 1.498 7335
0.756 3.279 1.482 9629
0.754 3.268 1.467 10464
0.753 3.265 1.454 8084
0.760 3.297 1.456 7198
0.758 3.286 1.441 7343
0.759 3.290 1.431 5949
0.780 3.380 1.456 7102
0.784 3.398 1.451 8566
0.786 3.409 1.444 9762
0.791 3.427 1.440 6960
0.791 3.431 1.429 5761
0.816 3.536 1.458 6939
0.818 3.547 1.450 7966
0.821 3.558 1.442 5696
0.828 3.591 1.442 6538
0.827 3.587 1.429 8796
0.828 3.591 1.419 9186
0.832 3.609 1.413 9155
0.835 3.620 1.405 6460
0.859 3.726 1.430 5679
0.862 3.737 1.422 6223
0.864 3.748 1.413 6134
0.864 3.744 1.400 6021
0.863 3.740 1.386 5442
0.887 3.846 1.410 6509
0.883 3.828 1.391 6974
0.896 3.883 1.396 5504
0.898 3.894 1.387 5245
0.892 3.868 1.366 3810
0.929 4.026 1.404 2892
0.952 4.125 1.423 2476
0.932 4.041 1.383 2670
0.936 4.059 1.375 4234
0.939 4.070 1.366 3687
0.972 4.214 1.396 3777
0.973 4.217 1.384 5354
0.974 4.221 1.371 4516
0.993 4.306 1.382 2590
1.016 4.406 1.398 2952
1.017 4.410 1.385 3408
0.999 4.331 1.348 3666
0.998 4.327 1.334 3005
1.040 4.509 1.370 3299
1.043 4.520 1.359 5109
1.049 4.546 1.351 6086
1.089 4.721 1.384 7086
1.090 4.725 1.370 8172
1.091 4.728 1.356 8015
1.088 4.717 1.338 8064
1.089 4.720 1.324 7730
1.096 4.754 1.317 5816
1.118 4.847 1.326 5216
1.119 4.850 1.311 5843
1.139 4.936 1.317 3456
1.150 4.985 1.313 3698
1.150 4.988 1.298 3927
1.169 5.066 1.301 4234
1.168 5.062 1.284 3857
1.213 5.261 1.313 2808
1.232 5.340 1.314 3394
1.231 5.336 1.297 3915
1.251 5.422 1.299 3176
1.250 5.418 1.281 2587
1.236 5.361 1.253 3660
1.237 5.364 1.237 3555
1.309 5.677 1.284 3162
1.314 5.695 1.270 4333
1.313 5.691 1.252 4816
1.313 5.694 1.235 4079
1.312 5.690 1.216 2630
1.369 5.936 1.245 1929
1.414 6.128 1.263 2437
1.412 6.124 1.243 3365
1.408 6.104 1.221 3670
1.402 6.077 1.197 4212
1.406 6.095 1.182 3645
1.498 6.494 1.231 3534
1.472 6.383 1.193 3109
1.512 6.553 1.201 2563
1.516 6.572 1.184 3113
1.515 6.567 1.163 2955
1.514 6.562 1.143 2924
1.565 6.786 1.157 2465
1.592 6.904 1.153 2709
1.593 6.907 1.133 2603
1.581 6.856 1.105 2600
1.656 7.180 1.129 2118
1.660 7.198 1.110 1370
1.666 7.223 1.091 1466
1.750 7.586 1.116 1698
1.752 7.596 1.095 2242
1.754 7.607 1.073 2147
1.755 7.609 1.050 1616
1.867 8.095 1.085 1430
1.866 8.090 1.060 1556
1.866 8.092 1.036 1296
2.049 8.885 1.097 1281
2.076 9.003 1.083 1286
2.141 9.282 1.084 1571
2.118 9.184 1.047 1900
2.119 9.187 1.019 1936
2.143 9.289 1.001 1663
2.143 9.292 0.974 1689
2.144 9.294 0.946 1596
2.144 9.296 0.918 1435
2.145 9.299 0.891 1036
2.136 9.262 0.860 793
2.142 9.287 0.834 751
2.144 9.297 0.807 700
2.146 9.306 0.780 484
2.147 9.308 0.752 305
0.476 2.041 1.602 6387
0.477 2.045 1.596 12775
0.478 2.049 1.590 12775
0.479 2.053 1.584 12072
0.481 2.064 1.583 11394
0.485 2.081 1.586 10870
0.486 2.085 1.579 10908
0.486 2.082 1.569 12011
0.487 2.086 1.563 13539
0.488 2.090 1.557 13539
0.490 2.101 1.555 12545
0.494 2.118 1.558 12926
0.495 2.122 1.552 10463
0.497 2.132 1.550 8035
0.515 2.207 1.591 7240
0.517 2.218 1.589 7973
0.518 2.222 1.583 7482
0.522 2.239 1.585 7298
0.520 2.230 1.570 7920
0.520 2.227 1.559 9110
0.521 2.231 1.552 9203
0.521 2.235 1.546 8000
0.541 2.318 1.590 8871
0.542 2.322 1.583 7474
0.544 2.333 1.580 6105
0.545 2.337 1.573 4390
0.546 2.341 1.566 2676
0.558 2.391 1.588 2824
0.559 2.395 1.581 4000
0.549 2.353 1.546 6040
0.551 2.364 1.543 9930
0.552 2.368 1.536 11144
0.555 2.378 1.533 9092
0.554 2.375 1.522 6397
0.558 2.393 1.523 4501
0.589 2.524 1.591 4550
0.596 2.555 1.599 5525
0.597 2.559 1.592 7077
0.598 2.563 1.584 9788
0.599 2.567 1.576 12499
0.600 2.571 1.569 12381
0.601 2.575 1.561 9377
0.621 2.660 1.599 9926
0.620 2.658 1.588 10100
0.621 2.662 1.580 10291
0.617 2.646 1.561 8316
0.617 2.643 1.549 6191
0.638 2.736 1.590 6661
0.641 2.746 1.585 7306
0.642 2.751 1.577 8006
0.630 2.700 1.540 6366
0.632 2.711 1.536 6043
0.636 2.728 1.535 5889
0.639 2.739 1.530 4402
0.661 2.833 1.569 4187
0.668 2.864 1.574 3907
0.669 2.869 1.566 4164
0.670 2.873 1.557 4090
0.673 2.884 1.552 3801
0.672 2.881 1.541 5268
0.670 2.871 1.525 8069
0.671 2.875 1.517 7792
0.678 2.906 1.522 6851
0.672 2.882 1.500 6387
0.675 2.893 1.495 6717
0.694 2.974 1.523 8580
0.696 2.985 1.517 8261
0.697 2.989 1.508 7234
0.693 2.972 1.490 6259
0.707 3.032 1.507 5724
0.708 3.036 1.498 6501
0.709 3.040 1.489 6974
0.720 3.086 1.499 8428
0.722 3.097 1.493 11486
0.723 3.101 1.484 11213
0.726 3.111 1.478 8672
0.728 3.122 1.472 7570
0.728 3.119 1.460 6944
0.750 3.215 1.490 6305
0.749 3.212 1.478 7831
0.750 3.216 1.468 7056
0.764 3.277 1.482 8937
0.762 3.266 1.467 10188
0.763 3.270 1.457 8099
0.767 3.288 1.453 7251
0.768 3.292 1.444 8124
0.769 3.295 1.434 6890
0.788 3.378 1.456 7223
0.792 3.396 1.451 7670
0.797 3.414 1.447 8691
0.799 3.425 1.440 6448
0.798 3.422 1.427 5093
0.826 3.541 1.460 6229
0.829 3.552 1.453 7012
0.830 3.556 1.442 5173
0.837 3.589 1.442 6486
0.836 3.585 1.429 8609
0.837 3.589 1.419 8700
0.840 3.600 1.411 7739
0.868 3.720 1.441 6509
0.869 3.723 1.430 5866
0.876 3.756 1.429 5268
0.874 3.745 1.413 5399
0.873 3.742 1.400 6179
0.874 3.745 1.389 5723
0.897 3.844 1.410 5836
0.891 3.818 1.388 6619
0.893 3.829 1.380 5311
0.906 3.884 1.385 5013
0.902 3.866 1.366 4211
0.937 4.016 1.402 3542
0.931 3.990 1.381 2513
0.944 4.046 1.385 3190
0.946 4.057 1.375 5252
0.949 4.067 1.366 4537
0.963 4.130 1.371 4047
0.973 4.171 1.370 5405
0.975 4.181 1.360 4489
1.004 4.304 1.382 2290
1.027 4.403 1.398 2594
1.023 4.385 1.378 3025
1.012 4.336 1.351 3522
1.009 4.325 1.334 2735
1.032 4.425 1.347 3380
1.052 4.510 1.357 4590
1.058 4.536 1.349 5263
1.101 4.719 1.384 6416
1.102 4.722 1.370 7624
1.102 4.726 1.356 7172
1.100 4.714 1.338 7827
1.099 4.710 1.322 7786
1.107 4.743 1.316 6119
1.128 4.837 1.324 5543
1.129 4.840 1.309 6041
1.151 4.933 1.317 3654
1.183 5.072 1.334 3617
1.163 4.985 1.298 3776
1.178 5.048 1.297 3885
1.178 5.052 1.282 3765
1.204 5.160 1.291 2853
1.201 5.149 1.273 3524
1.246 5.340 1.299 3086
1.262 5.411 1.297 3112
1.261 5.407 1.280 2713
1.252 5.365 1.254 3770
1.251 5.361 1.237 3465
1.306 5.598 1.269 2734
1.328 5.692 1.270 3927
1.329 5.695 1.253 4529
1.328 5.691 1.235 3869
1.327 5.686 1.216 2495
1.417 6.076 1.272 1719
1.427 6.117 1.261 2402
1.428 6.121 1.243 3218
1.414 6.063 1.214 3369
1.415 6.066 1.196 4458
1.419 6.084 1.181 3990
1.516 6.498 1.232 3521
1.486 6.371 1.191 3214
1.530 6.557 1.202 2684
1.532 6.568 1.184 3342
1.531 6.563 1.163 3048
1.530 6.558 1.143 2785
1.582 6.782 1.157 2541
1.610 6.900 1.153 2494
1.608 6.895 1.132 2381
1.671 7.165 1.149 2677
1.672 7.168 1.128 2360
1.673 7.171 1.106 1428
1.880 8.060 1.203 1328
1.769 7.581 1.116 1783
1.771 7.592 1.095 2284
1.773 7.602 1.073 2207
1.776 7.612 1.051 1683
1.887 8.090 1.085 1712
1.886 8.085 1.060 1782
1.887 8.087 1.036 1439
2.095 8.979 1.108 1251
2.099 8.997 1.083 1447
2.162 9.269 1.084 2071
2.159 9.256 1.054 2320
2.142 9.182 1.019 2083
2.166 9.284 1.001 2030
2.166 9.286 0.974 2018
2.167 9.289 0.946 1909
2.167 9.291 0.918 1715
2.164 9.278 0.889 1354
2.165 9.280 0.862 1148
2.165 9.282 0.834 1112
2.167 9.291 0.807 1020
2.168 9.293 0.779 685
2.168 9.295 0.751 443
2.169 9.297 0.724 283
0.479 2.040 1.602 5650
0.480 2.044 1.596 11300
0.481 2.049 1.590 11300
0.482 2.053 1.584 10874
0.483 2.057 1.578 10449
0.488 2.080 1.586 10018
0.489 2.084 1.579 10048
0.490 2.088 1.573 10873
0.490 2.086 1.563 12156
0.491 2.090 1.557 12156
0.493 2.100 1.555 11627
0.497 2.117 1.558 12675
0.498 2.121 1.552 10420
0.500 2.131 1.550 8351
0.500 2.129 1.539 5327
0.519 2.210 1.585 4918
0.518 2.208 1.574 4086
0.527 2.244 1.589 3430
0.519 2.210 1.557 4651
0.520 2.214 1.550 6119
0.541 2.302 1.599 6130
0.543 2.313 1.596 7486
0.544 2.317 1.590 8930
0.545 2.321 1.583 7809
0.546 2.325 1.576 6689
0.548 2.336 1.573 4825
0.531 2.261 1.517 3703
0.530 2.258 1.506 3518
0.564 2.401 1.585 3801
0.551 2.346 1.542 6572
0.553 2.356 1.539 10218
0.556 2.367 1.536 11386
0.557 2.371 1.529 9275
0.558 2.375 1.522 6513
0.563 2.399 1.527 4677
0.592 2.523 1.591 4749
0.600 2.554 1.599 5220
0.601 2.558 1.592 6417
0.602 2.562 1.584 9036
0.603 2.566 1.576 11655
0.602 2.564 1.565 11952
0.604 2.574 1.561 9542
0.624 2.660 1.599 8961
0.624 2.657 1.588 9458
0.622 2.647 1.572 10239
0.621 2.645 1.561 8526
0.620 2.642 1.549 6272
0.642 2.735 1.590 7295
0.645 2.746 1.585 7711
0.646 2.750 1.577 8164
0.634 2.699 1.540 6855
0.636 2.710 1.536 6360
0.640 2.727 1.535 5709
0.641 2.731 1.527 4192
0.668 2.846 1.576 4272
0.669 2.850 1.567 5058
0.670 2.854 1.559 5180
0.673 2.865 1.554 3944
0.677 2.883 1.552 2980
0.674 2.873 1.537 4947
0.674 2.870 1.525 8658
0.673 2.867 1.513 8050
0.684 2.912 1.525 6306
0.673 2.867 1.493 6204
0.677 2.885 1.491 6547
0.698 2.973 1.523 8963
0.701 2.984 1.517 8789
0.700 2.981 1.505 7505
0.717 3.055 1.529 5803
0.718 3.059 1.520 7048
0.717 3.056 1.508 6980
0.720 3.067 1.502 6542
0.724 3.085 1.499 8179
0.727 3.096 1.493 11175
0.728 3.099 1.484 11208
0.729 3.103 1.475 8801
0.731 3.114 1.469 7521
0.734 3.125 1.463 6582
0.755 3.214 1.490 5572
0.754 3.211 1.478 7165
0.753 3.208 1.465 7267
0.767 3.268 1.479 8230
0.767 3.265 1.467 9536
0.767 3.269 1.457 7839
0.770 3.280 1.450 7325
0.773 3.291 1.444 8871
0.775 3.301 1.437 8348
0.791 3.370 1.453 6855
0.797 3.395 1.451 6439
0.801 3.413 1.447 7394
0.802 3.417 1.437 5892
0.801 3.413 1.424 4053
0.831 3.540 1.460 5161
0.834 3.551 1.453 5711
0.840 3.576 1.450 4819
0.842 3.587 1.442 6614
0.841 3.584 1.429 8591
0.842 3.588 1.419 7857
0.841 3.584 1.405 6247
0.873 3.719 1.441 7247
0.872 3.715 1.428 6678
0.861 3.668 1.399 5867
0.865 3.686 1.393 5447
0.878 3.740 1.400 6001
0.881 3.751 1.391 6058
0.892 3.799 1.395 5838
0.894 3.810 1.386 6206
0.899 3.828 1.380 4867
0.910 3.876 1.383 4761
0.906 3.857 1.364 4406
0.941 4.008 1.400 4055
0.938 3.996 1.383 3040
0.951 4.052 1.387 3850
0.954 4.063 1.378 5978
0.955 4.066 1.366 5240
0.969 4.129 1.371 5117
0.975 4.154 1.366 6124
0.980 4.173 1.358 4653
0.984 4.191 1.350 2351
0.983 4.187 1.335 2288
1.027 4.376 1.376 2941
1.023 4.357 1.357 3879
1.015 4.323 1.334 3014
1.039 4.423 1.347 3282
1.055 4.494 1.353 3676
1.065 4.535 1.349 4431
1.074 4.575 1.346 5493
1.075 4.579 1.332 7412
1.074 4.575 1.317 7208
1.106 4.713 1.338 7241
1.106 4.708 1.322 7267
1.113 4.742 1.316 5877
1.123 4.783 1.311 5682
1.136 4.838 1.309 6219
1.158 4.932 1.317 3760
1.168 4.973 1.311 3621
1.170 4.983 1.298 3749
1.183 5.039 1.296 3507
1.184 5.043 1.281 3643
1.211 5.159 1.291 3518
1.210 5.154 1.274 4060
1.269 5.406 1.313 3048
1.270 5.410 1.297 3027
1.267 5.398 1.278 2770
1.259 5.363 1.254 3663
1.260 5.366 1.238 3184
1.314 5.596 1.269 2569
1.336 5.690 1.270 3523
1.337 5.693 1.253 4537
1.338 5.697 1.236 4062
1.363 5.806 1.240 2573
1.364 5.809 1.222 2349
1.413 6.017 1.243 2386
1.417 6.035 1.228 3053
1.418 6.038 1.210 3969
1.422 6.056 1.195 4713
1.426 6.074 1.179 4142
1.489 6.344 1.206 4037
1.495 6.369 1.191 3074
1.539 6.555 1.202 2843
1.542 6.566 1.184 3432
1.540 6.561 1.163 2980
1.536 6.541 1.140 2582
1.594 6.788 1.158 2802
1.619 6.897 1.153 2174
1.681 7.160 1.170 2428
1.682 7.163 1.149 2781
1.682 7.165 1.128 2395
1.674 7.130 1.101 1572
1.892 8.058 1.203 1369
1.781 7.587 1.117 1751
1.782 7.589 1.095 2274
1.784 7.600 1.073 2227
1.785 7.602 1.050 1772
1.899 8.087 1.085 1942
1.898 8.082 1.060 1928
1.988 8.468 1.078 1510
1.991 8.478 1.054 1518
2.177 9.270 1.112 1765
2.174 9.258 1.083 2837
2.174 9.260 1.055 3045
2.178 9.278 1.029 2340
2.179 9.281 1.001 2316
2.180 9.283 0.974 2302
2.180 9.286 0.946 2155
2.181 9.288 0.918 1937
2.178 9.275 0.889 1698
2.178 9.277 0.862 1527
2.179 9.279 0.834 1505
2.181 9.288 0.807 1353
2.181 9.290 0.779 844
2.182 9.292 0.751 518
2.182 9.294 0.724 349
0.485 2.039 1.602 4923
0.486 2.043 1.596 9847
0.487 2.047 1.590 9847
0.487 2.045 1.579 9860
0.486 2.043 1.569 9712
0.495 2.078 1.586 9003
0.497 2.089 1.584 8864
0.495 2.080 1.569 9430
0.496 2.084 1.563 10471
0.497 2.088 1.557 10471
0.501 2.105 1.559 10583
0.504 2.115 1.558 12209
0.506 2.126 1.556 10260
0.510 2.143 1.558 8692
0.516 2.166 1.565 5689
0.520 2.183 1.567 3785
0.521 2.187 1.561 3877
0.520 2.185 1.550 3972
0.523 2.195 1.548 4541
0.525 2.206 1.546 5205
0.548 2.301 1.599 5637
0.549 2.305 1.592 7114
0.551 2.315 1.590 8625
0.552 2.320 1.583 7773
0.553 2.324 1.576 6922
0.554 2.328 1.569 4982
0.538 2.259 1.517 5354
0.537 2.257 1.506 4821
0.554 2.327 1.540 4068
0.558 2.344 1.542 6765
0.560 2.354 1.539 10031
0.563 2.365 1.536 10938
0.564 2.369 1.529 8855
0.579 2.433 1.558 6177
0.572 2.404 1.531 4764
0.600 2.521 1.591 4800
0.606 2.545 1.595 4861
0.608 2.556 1.592 5584
0.609 2.560 1.584 8103
0.610 2.564 1.576 10622
0.610 2.562 1.565 11364
0.611 2.566 1.558 9533
0.633 2.658 1.599 7690
0.632 2.655 1.588 8468
0.630 2.646 1.572 9789
0.629 2.643 1.561 8190
0.628 2.640 1.549 5837
0.652 2.739 1.593 7352
0.653 2.744 1.585 7559
0.654 2.748 1.577 7766
0.642 2.697 1.540 6845
0.645 2.708 1.536 6290
0.647 2.719 1.531 5335
0.650 2.729 1.527 3765
0.675 2.837 1.572 4628
0.675 2.834 1.560 6181
0.677 2.845 1.555 6381
0.676 2.842 1.543 4655
0.684 2.874 1.549 2938
0.678 2.850 1.527 5144
0.681 2.861 1.522 8979
0.680 2.858 1.510 8063
0.681 2.861 1.502 5776
0.680 2.858 1.490 6188
0.685 2.876 1.488 6310
0.707 2.971 1.523 9145
0.708 2.975 1.514 9218
0.709 2.979 1.505 7570
0.727 3.053 1.529 6830
0.728 3.057 1.520 9257
0.729 3.061 1.511 9034
0.731 3.072 1.505 7177
0.735 3.090 1.502 7309
0.736 3.093 1.493 10232
0.737 3.097 1.484 11143
0.738 3.101 1.475 9279
0.741 3.112 1.469 7729
0.743 3.123 1.463 6630
0.768 3.226 1.496 4723
0.762 3.201 1.474 6423
0.763 3.205 1.465 8008
0.777 3.266 1.479 7839
0.777 3.263 1.467 9128
0.778 3.266 1.457 7521
0.780 3.277 1.450 7019
0.783 3.288 1.444 8905
0.785 3.299 1.437 9231
0.803 3.375 1.456 6101
0.808 3.393 1.451 5280
0.812 3.411 1.447 6075
0.815 3.422 1.440 5303
0.817 3.433 1.432 3490
0.827 3.472 1.436 4834
0.826 3.469 1.423 5290
0.828 3.480 1.415 4534
0.853 3.585 1.442 6600
0.854 3.589 1.432 8419
0.853 3.585 1.419 6866
0.851 3.574 1.403 5148
0.885 3.716 1.441 7530
0.884 3.712 1.428 7270
0.874 3.672 1.401 6440
0.877 3.683 1.393 5895
0.890 3.738 1.400 5835
0.894 3.756 1.394 6710
0.898 3.774 1.387 6367
0.906 3.807 1.386 5780
0.912 3.832 1.382 4359
0.917 3.851 1.375 4664
0.919 3.862 1.366 4440
0.952 3.997 1.397 4324
0.956 4.016 1.390 3379
0.964 4.049 1.387 4484
0.966 4.060 1.378 6300
0.967 4.063 1.366 5593
0.982 4.126 1.371 5850
0.986 4.144 1.364 6740
0.991 4.162 1.356 4516
0.995 4.180 1.348 2500
0.994 4.176 1.333 2790
1.018 4.276 1.348 3120
1.036 4.354 1.357 4322
1.030 4.328 1.336 3722
1.029 4.324 1.321 4195
1.032 4.334 1.310 3748
1.084 4.554 1.355 4276
1.088 4.572 1.346 6322
1.089 4.575 1.332 7744
1.090 4.579 1.319 8229
1.121 4.709 1.338 6416
1.120 4.705 1.322 6186
1.126 4.731 1.314 5573
1.136 4.772 1.309 5769
1.147 4.820 1.306 6050
1.173 4.928 1.317 3643
1.183 4.969 1.311 3922
1.185 4.980 1.298 3994
1.197 5.028 1.294 3309
1.198 5.031 1.279 3504
1.227 5.155 1.291 4065
1.226 5.151 1.274 4435
1.284 5.395 1.312 3023
1.285 5.398 1.296 2927
1.284 5.394 1.278 2691
1.276 5.359 1.254 3305
1.276 5.363 1.238 2727
1.322 5.554 1.261 2427
1.353 5.686 1.270 3073
1.354 5.689 1.253 4426
1.355 5.692 1.236 4298
1.381 5.802 1.240 3030
1.382 5.805 1.222 2913
1.429 6.005 1.242 3015
1.434 6.023 1.227 3465
1.436 6.034 1.210 4455
1.439 6.044 1.193 4889
1.445 6.070 1.179 4086
1.507 6.331 1.205 4547
1.508 6.334 1.186 3018
1.559 6.550 1.202 2809
1.562 6.561 1.184 3276
1.557 6.541 1.161 2796
1.549 6.506 1.136 2688
1.615 6.783 1.158 2971
1.613 6.778 1.136 2259
1.703 7.155 1.170 2546
1.704 7.157 1.149 2752
1.704 7.160 1.128 2319
1.694 7.117 1.100 1820
1.795 7.540 1.135 1479
1.890 7.940 1.164 1727
1.805 7.584 1.095 1978
1.808 7.594 1.073 1886
1.808 7.597 1.050 1519
1.922 8.074 1.084 2025
1.922 8.076 1.060 1947
2.131 8.952 1.133 1550
2.130 8.947 1.106 1746
2.201 9.248 1.110 2194
2.202 9.251 1.083 3551
2.201 9.246 1.054 3747
2.207 9.272 1.029 2671
2.208 9.274 1.001 2521
2.208 9.276 0.974 2546
2.209 9.279 0.946 2337
2.209 9.281 0.918 2086
2.204 9.260 0.889 2012
2.205 9.262 0.861 1853
2.207 9.272 0.834 1826
2.209 9.282 0.807 1588
2.210 9.283 0.779 912
2.210 9.285 0.751 511
2.211 9.287 0.724 366
0.498 2.036 1.602 3951
0.499 2.040 1.596 7902
0.498 2.038 1.585 8065
0.498 2.036 1.575 9251
0.497 2.033 1.564 10053
0.498 2.037 1.558 8271
0.499 2.041 1.552 6490
0.508 2.077 1.569 6338
0.509 2.081 1.563 6801
0.510 2.085 1.557 6801
0.516 2.108 1.564 8891
0.518 2.119 1.562 11730
0.521 2.129 1.560 10638
0.525 2.146 1.563 10331
0.527 2.156 1.561 7682
0.538 2.199 1.580 6249
0.539 2.203 1.574 8000
0.540 2.207 1.568 9751
0.541 2.211 1.561 8915
0.542 2.215 1.555 8139
0.543 2.219 1.548 8130
0.563 2.301 1.592 6722
0.562 2.299 1.581 8637
0.565 2.310 1.579 8024
0.567 2.320 1.576 7476
0.549 2.246 1.520 7386
0.552 2.256 1.517 7806
0.553 2.260 1.510 6854
0.554 2.264 1.504 4497
0.572 2.340 1.542 6527
0.573 2.344 1.535 9205
0.576 2.355 1.532 9690
0.577 2.359 1.525 7719
0.596 2.436 1.562 7598
0.597 2.440 1.555 6159
0.611 2.497 1.579 5125
0.617 2.522 1.583 4075
0.621 2.539 1.584 3666
0.624 2.550 1.580 5877
0.625 2.554 1.573 8235
0.624 2.551 1.561 9738
0.625 2.555 1.554 9257
0.629 2.573 1.554 7338
0.637 2.604 1.561 6052
0.644 2.635 1.569 7684
0.645 2.639 1.561 6241
0.668 2.731 1.601 4685
0.669 2.735 1.593 6536
0.670 2.739 1.585 6400
0.673 2.750 1.581 6308
0.659 2.693 1.540 5603
0.659 2.697 1.532 5334
0.662 2.708 1.528 4172
0.683 2.794 1.563 3397
0.689 2.819 1.565 5264
0.692 2.830 1.560 6901
0.693 2.834 1.552 7671
0.694 2.838 1.543 6524
0.695 2.842 1.535 4608
0.696 2.846 1.527 6194
0.695 2.843 1.515 8847
0.696 2.846 1.507 7338
0.697 2.850 1.498 4901
0.700 2.861 1.493 5696
0.724 2.963 1.531 8008
0.727 2.973 1.526 10144
0.728 2.977 1.517 10089
0.731 2.988 1.512 7158
0.745 3.048 1.529 9064
0.746 3.052 1.520 12557
0.749 3.063 1.514 12360
0.750 3.067 1.505 8742
0.753 3.078 1.499 6142
0.754 3.082 1.490 7968
0.756 3.093 1.484 10528
0.759 3.104 1.478 10255
0.756 3.093 1.463 8575
0.759 3.104 1.457 7009
0.769 3.143 1.463 4802
0.780 3.190 1.471 7243
0.783 3.200 1.465 11413
0.787 3.218 1.462 10221
0.797 3.258 1.467 8914
0.798 3.262 1.457 6719
0.798 3.265 1.448 6117
0.803 3.283 1.444 8037
0.806 3.294 1.437 9459
0.806 3.298 1.427 6458
0.830 3.395 1.454 3819
0.833 3.406 1.447 3376
0.841 3.438 1.448 4560
0.842 3.442 1.438 7696
0.843 3.446 1.428 8575
0.847 3.464 1.423 6379
0.844 3.453 1.407 4688
0.874 3.572 1.440 5888
0.876 3.583 1.432 7108
0.877 3.587 1.421 6126
0.887 3.627 1.424 5171
0.907 3.710 1.441 6759
0.906 3.707 1.428 6268
0.897 3.667 1.401 6658
0.926 3.787 1.431 7497
0.929 3.798 1.422 7207
0.921 3.765 1.399 8524
0.922 3.769 1.387 8981
0.922 3.772 1.376 5774
0.929 3.798 1.372 3588
0.942 3.852 1.378 3872
0.973 3.981 1.407 4472
0.976 3.991 1.397 4520
0.986 4.032 1.397 4075
0.989 4.043 1.387 5001
0.988 4.039 1.373 6042
0.990 4.050 1.363 5584
1.009 4.127 1.374 6181
1.012 4.138 1.364 6884
1.013 4.141 1.351 4025
1.014 4.145 1.339 2676
1.018 4.163 1.331 3829
1.044 4.270 1.348 3884
1.058 4.325 1.351 5002
1.055 4.314 1.334 5351
1.056 4.317 1.321 5653
1.057 4.321 1.308 4581
1.114 4.554 1.357 4540
1.116 4.565 1.346 7702
1.117 4.569 1.332 7711
1.118 4.572 1.319 10250
1.119 4.575 1.305 8666
1.176 4.810 1.351 3752
1.159 4.739 1.317 3907
1.167 4.772 1.311 4443
1.173 4.798 1.302 5026
1.169 4.779 1.282 2976
1.215 4.969 1.313 3738
1.214 4.965 1.296 4281
1.217 4.976 1.283 3693
1.254 5.129 1.303 3806
1.257 5.140 1.289 4991
1.258 5.143 1.274 5004
1.258 5.146 1.259 3198
1.320 5.398 1.297 3107
1.317 5.386 1.278 2617
1.364 5.577 1.302 2761
1.350 5.520 1.273 3010
1.351 5.524 1.256 2823
1.387 5.670 1.269 2517
1.387 5.673 1.252 4146
1.390 5.684 1.236 4604
1.418 5.801 1.241 3446
1.458 5.962 1.254 4248
1.459 5.966 1.236 4730
1.469 6.007 1.225 4214
1.473 6.025 1.210 4949
1.476 6.035 1.193 5053
1.543 6.311 1.223 3883
1.542 6.307 1.203 4498
1.541 6.302 1.182 3331
1.546 6.320 1.166 2756
1.550 6.338 1.150 3177
1.590 6.501 1.156 2602
1.587 6.488 1.134 2766
1.654 6.765 1.157 3270
1.653 6.760 1.135 2680
1.747 7.144 1.170 2594
1.662 6.796 1.099 3023
1.733 7.089 1.119 2143
1.738 7.107 1.100 2089
1.725 7.056 1.072 1927
1.793 7.333 1.087 1864
1.941 7.939 1.141 1618
1.884 7.705 1.088 1403
1.971 8.059 1.108 1498
1.971 8.062 1.084 2125
1.972 8.064 1.060 1881
2.066 8.449 1.078 1633
2.258 9.232 1.138 2111
2.256 9.227 1.110 2977
2.257 9.230 1.082 4807
2.258 9.232 1.054 5073
2.260 9.243 1.028 3251
2.264 9.260 1.001 2877
2.265 9.263 0.974 3239
2.266 9.265 0.946 2716
2.262 9.252 0.917 2224
2.261 9.247 0.889 2409
2.263 9.256 0.862 2330
2.264 9.258 0.834 2315
2.266 9.268 0.807 1873
2.267 9.270 0.779 865
2.265 9.264 0.751 337
2.269 9.281 0.724 273
0.499 2.022 1.593 3666
0.500 2.026 1.587 7333
0.501 2.030 1.581 7747
0.500 2.028 1.570 9382
0.501 2.032 1.564 10551
0.502 2.036 1.558 8489
0.503 2.040 1.552 6426
0.507 2.057 1.555 4940
0.516 2.093 1.572 5266
0.517 2.097 1.566 5266
0.521 2.114 1.568 8069
0.522 2.118 1.562 11140
0.527 2.134 1.565 10571
0.529 2.145 1.563 10768
0.532 2.155 1.561 8364
0.544 2.204 1.585 7119
0.543 2.202 1.574 9214
0.544 2.206 1.568 11315
0.545 2.210 1.561 10401
0.546 2.214 1.555 9604
0.549 2.225 1.552 9734
0.550 2.229 1.546 7707
0.567 2.298 1.581 8568
0.569 2.308 1.579 7862
0.570 2.313 1.572 7388
0.555 2.251 1.524 7315
0.556 2.255 1.517 7594
0.557 2.259 1.510 6678
0.589 2.388 1.581 4958
0.590 2.392 1.574 6254
0.578 2.343 1.535 8436
0.581 2.354 1.532 8641
0.600 2.431 1.569 8251
0.601 2.435 1.562 8192
0.602 2.439 1.555 6834
0.606 2.456 1.555 5742
0.607 2.460 1.548 4177
0.624 2.531 1.580 2868
0.627 2.542 1.576 4709
0.630 2.553 1.573 6852
0.629 2.550 1.561 8472
0.630 2.554 1.554 8662
0.634 2.571 1.554 7256
0.640 2.596 1.558 6019
0.648 2.627 1.565 6366
0.649 2.631 1.557 5017
0.673 2.730 1.601 3955
0.676 2.741 1.597 5510
0.677 2.745 1.589 5384
0.680 2.756 1.584 5280
0.679 2.753 1.573 4801
0.665 2.696 1.532 4472
0.683 2.768 1.560 4009
0.689 2.793 1.563 3738
0.695 2.817 1.565 4885
0.696 2.821 1.557 5969
0.699 2.832 1.552 6918
0.700 2.836 1.543 6247
0.701 2.840 1.535 4609
0.700 2.837 1.523 5932
0.699 2.834 1.511 8005
0.702 2.845 1.507 6329
0.715 2.898 1.522 4271
0.719 2.915 1.520 6220
0.729 2.954 1.528 9675
0.733 2.972 1.526 10488
0.736 2.983 1.520 9597
0.742 3.008 1.521 7070
0.752 3.047 1.529 9325
0.753 3.051 1.520 12470
0.753 3.055 1.511 12217
0.756 3.065 1.505 8522
0.757 3.069 1.496 5031
0.758 3.073 1.487 5557
0.764 3.098 1.487 8422
0.765 3.102 1.478 8896
0.763 3.092 1.463 7352
0.772 3.131 1.469 6323
0.784 3.177 1.478 6735
0.786 3.188 1.471 8781
0.789 3.199 1.465 12750
0.794 3.217 1.462 11665
0.803 3.256 1.467 8916
0.806 3.267 1.460 6649
0.805 3.264 1.448 5830
0.813 3.296 1.449 7423
0.814 3.300 1.440 8665
0.813 3.296 1.427 6245
0.835 3.386 1.451 3391
0.838 3.397 1.444 2439
0.849 3.444 1.451 5092
0.849 3.440 1.438 9150
0.850 3.444 1.428 10195
0.852 3.455 1.420 6743
0.851 3.451 1.407 4675
0.881 3.571 1.440 5065
0.882 3.574 1.429 5987
0.884 3.585 1.421 5739
0.896 3.632 1.426 6073
0.915 3.709 1.441 6043
0.916 3.712 1.430 5186
0.929 3.767 1.437 6490
0.935 3.792 1.434 8217
0.936 3.796 1.422 7929
0.932 3.778 1.404 8893
0.929 3.767 1.387 9568
0.930 3.770 1.376 5823
0.934 3.788 1.370 3593
0.950 3.850 1.378 3645
0.981 3.979 1.407 4447
0.984 3.989 1.397 4347
0.996 4.037 1.399 4089
0.995 4.033 1.385 4574
0.994 4.029 1.371 5500
0.995 4.033 1.359 5089
1.019 4.132 1.376 5537
1.022 4.143 1.366 6589
1.021 4.139 1.351 4197
1.020 4.135 1.337 3127
1.026 4.161 1.331 4173
1.036 4.201 1.329 4213
1.081 4.382 1.367 5097
1.064 4.312 1.334 5407
1.064 4.315 1.321 5547
1.065 4.318 1.308 4237
1.127 4.567 1.362 4014
1.126 4.563 1.346 7200
1.125 4.559 1.330 7427
1.127 4.570 1.319 10459
1.128 4.573 1.305 9252
1.133 4.591 1.295 3676
1.168 4.736 1.317 3350
1.178 4.777 1.313 3488
1.179 4.780 1.298 3827
1.176 4.769 1.281 2573
1.225 4.967 1.313 3094
1.224 4.962 1.296 3693
1.225 4.966 1.282 3354
1.263 5.119 1.301 3836
1.265 5.130 1.288 4987
1.268 5.140 1.274 4818
1.269 5.144 1.259 3058
1.333 5.403 1.299 3160
1.330 5.391 1.280 2667
1.375 5.575 1.302 2927
1.380 5.593 1.288 2849
1.360 5.513 1.255 2630
1.394 5.652 1.266 2332
1.399 5.671 1.252 3698
1.401 5.681 1.236 4283
1.432 5.805 1.243 3292
1.470 5.960 1.254 4524
1.471 5.963 1.236 5049
1.481 6.004 1.225 4182
1.485 6.022 1.210 4636
1.488 6.032 1.193 4635
1.552 6.293 1.220 3529
1.555 6.304 1.203 3797
1.554 6.299 1.182 3207
1.556 6.310 1.165 2970
1.563 6.335 1.150 3245
1.563 6.338 1.131 2491
1.667 6.759 1.177 2752
1.668 6.762 1.157 3381
1.667 6.757 1.135 2746
1.673 6.783 1.118 2540
1.676 6.793 1.099 3125
1.757 7.123 1.125 2195
1.754 7.111 1.101 2106
1.809 7.335 1.109 2111
1.806 7.322 1.086 2113
1.957 7.935 1.141 1598
1.898 7.694 1.087 1525
1.898 7.696 1.064 1618
1.988 8.058 1.084 1969
1.988 8.060 1.060 1688
2.274 9.217 1.165 1569
2.276 9.227 1.138 2114
2.275 9.222 1.110 3011
2.276 9.225 1.082 4895
2.276 9.228 1.054 5250
2.279 9.238 1.028 3341
2.283 9.256 1.001 2820
2.282 9.251 0.973 3263
2.282 9.253 0.945 2682
2.279 9.240 0.916 2187
2.280 9.242 0.889 2306
2.282 9.252 0.862 2267
2.283 9.254 0.834 2248
2.285 9.263 0.807 1754
2.285 9.265 0.779 723
0.505 2.014 1.588 3941
0.506 2.018 1.582 7883
0.507 2.022 1.576 8365
0.508 2.026 1.570 10377
0.509 2.030 1.564 11907
0.511 2.034 1.558 9338
0.512 2.038 1.552 6770
0.516 2.055 1.555 4532
0.526 2.097 1.576 4603
0.527 2.101 1.570 4603
0.530 2.111 1.568 7777
0.532 2.122 1.567 11160
0.535 2.132 1.565 11043
0.538 2.143 1.563 11572
0.540 2.153 1.561 9288
0.553 2.202 1.585 7593
0.552 2.200 1.574 9967
0.553 2.204 1.568 12399
0.554 2.208 1.561 11535
0.555 2.212 1.555 10855
0.558 2.222 1.552 11183
0.559 2.226 1.546 8690
0.574 2.289 1.577 8998
0.577 2.300 1.574 8185
0.580 2.310 1.572 7725
0.564 2.249 1.524 6491
0.565 2.253 1.517 6487
0.566 2.257 1.510 5745
0.599 2.386 1.581 6125
0.600 2.390 1.574 7525
0.602 2.400 1.571 8982
0.605 2.411 1.568 8783
0.609 2.428 1.569 9107
0.610 2.432 1.562 8821
0.611 2.436 1.555 7658
0.616 2.454 1.555 6657
0.617 2.458 1.548 4842
0.616 2.455 1.537 3030
0.636 2.533 1.572 3776
0.640 2.550 1.573 5612
0.638 2.541 1.557 7337
0.639 2.545 1.550 8223
0.648 2.582 1.561 7582
0.651 2.593 1.558 6403
0.655 2.611 1.557 5734
0.658 2.621 1.553 4309
0.684 2.727 1.601 3312
0.687 2.738 1.597 4525
0.690 2.749 1.593 4336
0.691 2.753 1.584 4251
0.690 2.750 1.573 4443
0.691 2.754 1.565 4525
0.694 2.765 1.560 4377
0.700 2.790 1.563 3850
0.706 2.814 1.565 4073
0.709 2.825 1.560 4412
0.712 2.836 1.555 5461
0.711 2.833 1.543 5209
0.702 2.796 1.514 4376
0.704 2.807 1.510 5856
0.711 2.831 1.511 6859
0.713 2.842 1.507 5383
0.726 2.895 1.522 4482
0.734 2.926 1.527 8247
0.737 2.937 1.521 12432
0.745 2.969 1.526 10951
0.748 2.980 1.520 9000
0.754 3.005 1.521 7296
0.764 3.044 1.529 9133
0.765 3.048 1.520 11737
0.766 3.052 1.511 11606
0.767 3.055 1.502 8309
0.764 3.045 1.486 5274
0.769 3.063 1.484 5055
0.778 3.102 1.490 7934
0.779 3.106 1.481 8387
0.775 3.089 1.463 6898
0.794 3.163 1.484 6863
0.797 3.174 1.478 9320
0.799 3.185 1.471 10769
0.802 3.196 1.465 14239
0.805 3.207 1.459 13220
0.815 3.246 1.464 9682
0.817 3.257 1.457 7451
0.825 3.289 1.459 6716
0.828 3.300 1.452 7577
0.829 3.304 1.443 8024
0.826 3.293 1.427 5852
0.842 3.354 1.440 3708
0.868 3.458 1.469 2895
0.867 3.455 1.456 6427
0.862 3.437 1.438 10327
0.863 3.441 1.428 11471
0.864 3.444 1.417 7221
0.865 3.448 1.407 4856
0.897 3.574 1.442 4856
0.896 3.571 1.429 5965
0.899 3.581 1.421 6245
0.911 3.629 1.426 6331
0.913 3.639 1.418 6300
0.914 3.643 1.407 5876
0.944 3.763 1.437 6832
0.949 3.781 1.431 8490
0.953 3.799 1.425 8109
0.951 3.788 1.409 9019
0.946 3.770 1.390 9718
0.958 3.818 1.393 5866
0.964 3.843 1.389 4316
0.967 3.854 1.380 4310
0.997 3.975 1.407 4313
1.000 3.985 1.397 4218
1.010 4.026 1.397 3615
1.011 4.029 1.385 4057
1.008 4.018 1.369 5388
1.009 4.022 1.357 4824
1.038 4.135 1.378 4719
1.039 4.139 1.366 6258
1.040 4.142 1.354 4775
1.039 4.138 1.339 3892
1.043 4.157 1.331 4769
1.051 4.190 1.327 5015
1.102 4.393 1.372 5894
1.105 4.404 1.361 5524
1.080 4.303 1.319 5136
1.131 4.507 1.361 4126
1.145 4.562 1.362 3939
1.142 4.551 1.344 6316
1.141 4.547 1.328 7282
1.146 4.565 1.319 10387
1.148 4.576 1.307 9863
1.151 4.587 1.295 4971
1.150 4.582 1.280 3438
1.151 4.586 1.266 2868
1.191 4.746 1.291 3031
1.192 4.749 1.277 2594
1.243 4.954 1.311 2783
