-0.875 2.545 1.733 11264
-0.881 2.562 1.733 12963
-0.885 2.573 1.730 9777
-0.893 2.596 1.734 7493
-0.892 2.594 1.722 6207
-0.914 2.657 1.750 5264
-0.944 2.745 1.794 4924
-0.950 2.763 1.794 5001
-0.954 2.774 1.789 4761
-0.958 2.785 1.785 5287
-0.964 2.803 1.784 6122
-0.981 2.853 1.803 5119
-0.985 2.864 1.798 5697
-0.987 2.868 1.789 5059
-0.990 2.880 1.784 4450
-0.992 2.884 1.775 4487
-0.994 2.889 1.767 4875
-0.995 2.893 1.758 5262
-1.019 2.964 1.787 5072
-1.016 2.955 1.770 4591
-1.013 2.946 1.754 3896
-1.019 2.964 1.752 4633
-1.026 2.982 1.750 7413
-1.027 2.986 1.741 9092
-1.029 2.990 1.732 7063
-1.055 3.068 1.763 4967
-1.064 3.093 1.764 4062
-1.075 3.124 1.769 4548
-1.081 3.142 1.767 5695
-1.082 3.146 1.757 5313
-1.095 3.184 1.765 5443
-1.097 3.189 1.755 6816
-1.098 3.193 1.745 6970
-1.105 3.211 1.743 7216
-1.148 3.337 1.794 6281
-1.147 3.335 1.781 5587
-1.149 3.340 1.770 6581
-1.146 3.330 1.754 6435
-1.177 3.423 1.787 6829
-1.177 3.421 1.773 8387
-1.178 3.426 1.763 8061
-1.180 3.430 1.752 5857
-1.177 3.421 1.735 4415
-1.197 3.480 1.751 4412
-1.201 3.491 1.743 5615
-1.202 3.496 1.733 6202
-1.204 3.500 1.722 5202
-1.222 3.552 1.733 4082
-1.278 3.715 1.794 6559
-1.282 3.727 1.786 7508
-1.286 3.738 1.777 7033
-1.287 3.743 1.766 6749
-1.291 3.754 1.758 7501
-1.295 3.765 1.749 7591
-1.316 3.825 1.761 5714
-1.327 3.857 1.762 9368
-1.331 3.869 1.753 10836
-1.335 3.880 1.744 8690
-1.334 3.878 1.729 6970
-1.338 3.889 1.720 5968
-1.339 3.893 1.708 4133
-1.379 4.010 1.742 3368
-1.383 4.021 1.732 3396
-1.416 4.116 1.756 3465
-1.415 4.114 1.741 4570
-1.407 4.090 1.718 6537
-1.408 4.095 1.705 6858
-1.417 4.120 1.701 3923
-1.426 4.145 1.696 3421
-1.425 4.143 1.681 4431
-1.460 4.246 1.705 4885
-1.469 4.271 1.700 4971
-1.507 4.382 1.726 4486
-1.506 4.379 1.710 4575
-1.510 4.390 1.699 3479
-1.568 4.558 1.744 2753
-1.564 4.548 1.725 3658
-1.559 4.531 1.704 5003
-1.570 4.564 1.700 5294
-1.576 4.582 1.691 5272
-1.578 4.587 1.677 3670
-1.574 4.577 1.658 3482
-1.620 4.709 1.686 3082
-1.616 4.699 1.667 3124
-1.657 4.818 1.690 3939
-1.654 4.808 1.671 4044
-1.672 4.862 1.672 3392
-1.684 4.895 1.666 5080
-1.685 4.899 1.651 3613
-1.756 5.105 1.699 1930
-1.782 5.181 1.705 2247
-1.788 5.200 1.693 3499
-1.790 5.204 1.677 2695
-1.769 5.143 1.642 2088
-1.875 5.450 1.715 2824
-1.837 5.339 1.665 3556
-1.838 5.343 1.649 2689
-1.884 5.478 1.669 3650
-1.920 5.583 1.681 4371
-1.924 5.595 1.666 4795
-1.933 5.621 1.654 4952
-1.940 5.639 1.641 4271
-1.941 5.643 1.624 2304
-2.058 5.982 1.694 2803
-2.069 6.015 1.683 2595
-2.070 6.019 1.665 2526
-2.064 6.002 1.641 1813
-2.151 6.254 1.684 1588
-2.092 6.083 1.622 1801
-2.106 6.123 1.612 2463
-2.216 6.441 1.669 1977
-2.217 6.446 1.649 2072
-2.219 6.450 1.629 1750
-2.265 6.586 1.640 1394
-2.264 6.582 1.618 1750
-2.442 7.099 1.712 2616
-2.443 7.103 1.690 3035
-2.447 7.115 1.670 1820
-2.610 7.589 1.749 1522
-2.612 7.593 1.725 1922
-2.616 7.605 1.704 2070
-2.622 7.624 1.683 2073
-2.740 7.966 1.728 2531
-2.742 7.971 1.703 2111
-2.776 8.071 1.698 1544
-2.927 8.510 1.756 1825
-2.934 8.529 1.732 1884
-2.912 8.467 1.694 1569
-3.069 8.921 1.750 1084
-3.070 8.926 1.722 948
-3.072 8.930 1.695 1071
-3.073 8.934 1.667 797
-3.075 8.938 1.640 335
-0.757 2.223 1.806 3318
-0.767 2.252 1.818 7441
-0.771 2.262 1.816 9822
-0.770 2.261 1.804 9061
-0.772 2.265 1.797 8399
-0.773 2.270 1.791 9055
-0.775 2.275 1.784 9711
-0.776 2.279 1.777 9711
-0.778 2.284 1.770 9639
-0.777 2.282 1.759 9679
-0.781 2.293 1.756 7502
-0.785 2.303 1.754 5534
-0.797 2.339 1.769 4975
-0.802 2.356 1.771 6144
-0.804 2.360 1.763 6124
-0.806 2.365 1.756 6941
-0.807 2.369 1.749 7801
-0.809 2.374 1.742 7123
-0.812 2.384 1.739 6576
-0.816 2.395 1.736 6293
-0.828 2.431 1.750 7270
-0.834 2.448 1.752 7166
-0.838 2.459 1.748 7304
-0.843 2.476 1.749 5159
-0.860 2.525 1.771 6339
-0.859 2.523 1.760 6993
-0.861 2.527 1.752 7662
-0.860 2.526 1.740 9505
-0.862 2.530 1.732 11388
-0.868 2.547 1.733 11913
-0.871 2.558 1.729 13281
-0.877 2.575 1.730 9618
-0.885 2.599 1.734 6846
-0.882 2.590 1.718 5809
-0.884 2.595 1.710 4830
-0.936 2.748 1.794 4360
-0.942 2.766 1.794 4476
-0.944 2.770 1.785 4460
-0.947 2.781 1.781 5309
-0.951 2.792 1.776 6236
-0.973 2.856 1.803 5332
-0.977 2.867 1.798 5769
-0.978 2.871 1.789 5198
-0.984 2.889 1.788 5065
-0.988 2.900 1.783 5661
-0.987 2.898 1.771 5787
-0.987 2.896 1.758 5986
-1.008 2.960 1.783 4881
-1.008 2.958 1.770 4112
-1.005 2.949 1.754 3368
-1.013 2.973 1.756 4432
-1.017 2.985 1.750 7694
-1.020 2.996 1.745 9505
-1.022 3.000 1.736 7450
-1.030 3.025 1.738 4209
-1.059 3.109 1.771 4008
-1.068 3.134 1.773 5317
-1.069 3.138 1.763 6820
-1.073 3.150 1.757 6266
-1.086 3.188 1.765 5933
-1.087 3.192 1.755 7892
-1.089 3.197 1.745 8478
-1.095 3.214 1.743 8620
-1.101 3.232 1.740 6764
-1.137 3.338 1.781 5518
-1.139 3.343 1.770 7061
-1.140 3.347 1.760 7502
-1.165 3.420 1.783 6833
-1.167 3.424 1.773 8445
-1.168 3.429 1.763 7742
-1.172 3.440 1.755 5637
-1.166 3.424 1.735 4705
-1.189 3.490 1.754 4567
-1.190 3.495 1.743 5815
-1.192 3.499 1.733 6370
-1.196 3.510 1.725 5402
-1.254 3.680 1.789 4138
-1.264 3.712 1.791 6377
-1.271 3.730 1.786 7223
-1.275 3.742 1.777 6732
-1.276 3.746 1.766 6749
-1.280 3.758 1.758 8041
-1.284 3.769 1.749 8319
-1.288 3.781 1.741 5281
-1.318 3.868 1.765 8835
-1.322 3.880 1.756 10830
-1.321 3.877 1.741 9336
-1.322 3.882 1.729 7551
-1.324 3.886 1.717 6478
-1.328 3.897 1.708 4476
-1.367 4.014 1.742 3510
-1.371 4.025 1.732 3820
-1.404 4.121 1.756 3208
-1.400 4.111 1.738 4729
-1.395 4.094 1.718 6976
-1.396 4.099 1.705 7119
-1.405 4.124 1.701 4055
-1.414 4.150 1.696 3418
-1.413 4.147 1.681 4627
-1.448 4.250 1.705 5674
-1.454 4.269 1.697 5599
-1.496 4.393 1.728 4558
-1.496 4.390 1.713 4421
-1.499 4.402 1.702 3436
-1.557 4.570 1.746 2384
-1.548 4.546 1.722 3608
-1.547 4.543 1.706 4942
-1.559 4.576 1.702 5498
-1.563 4.587 1.691 5345
-1.564 4.591 1.677 3757
-1.561 4.581 1.658 3621
-1.603 4.707 1.684 2742
-1.600 4.697 1.665 3402
-1.645 4.830 1.693 4032
-1.644 4.827 1.676 3936
-1.658 4.867 1.672 3409
-1.667 4.893 1.664 4607
-1.671 4.904 1.651 3419
-1.704 5.002 1.665 1998
-1.713 5.028 1.657 2414
-1.773 5.205 1.693 3512
-1.774 5.209 1.677 2792
-1.778 5.221 1.664 2219
-1.859 5.456 1.715 3062
-1.821 5.345 1.665 3330
-1.824 5.356 1.651 2527
-1.902 5.585 1.698 3946
-1.904 5.589 1.681 4737
-1.908 5.600 1.666 5408
-1.912 5.612 1.650 5382
-1.920 5.638 1.639 3884
-1.924 5.649 1.624 2110
-2.037 5.981 1.692 2843
-2.051 6.021 1.683 2601
-2.055 6.033 1.667 2280
-2.069 6.073 1.658 1705
-2.132 6.260 1.684 1864
-2.074 6.089 1.622 2190
-2.088 6.130 1.612 2495
-2.196 6.448 1.669 2145
-2.198 6.452 1.649 2265
-2.199 6.456 1.629 2011
-2.246 6.592 1.640 1588
-2.247 6.596 1.620 1799
-2.421 7.106 1.712 2698
-2.422 7.111 1.690 3119
-2.426 7.122 1.670 1846
-2.588 7.597 1.749 1573
-2.589 7.601 1.725 1907
-2.593 7.613 1.704 1927
-2.602 7.639 1.685 2051
-2.716 7.975 1.728 2445
-2.718 7.979 1.703 2103
-2.752 8.079 1.698 1342
-2.902 8.518 1.756 1704
-2.908 8.538 1.732 1821
-2.887 8.476 1.694 1706
-2.906 8.532 1.677 1319
-2.905 8.528 1.650 1295
-2.904 8.525 1.622 1159
-3.046 8.943 1.667 836
-3.048 8.948 1.640 338
-0.753 2.224 1.806 3460
-0.761 2.247 1.813 7639
-0.766 2.264 1.816 10007
-0.766 2.262 1.804 9157
-0.767 2.267 1.797 8369
-0.769 2.271 1.791 8809
-0.771 2.276 1.784 9250
-0.772 2.281 1.777 9250
-0.774 2.285 1.770 9386
-0.773 2.283 1.759 9599
-0.777 2.294 1.756 7658
-0.782 2.311 1.758 6087
-0.794 2.346 1.773 5694
-0.798 2.357 1.771 6799
-0.800 2.362 1.763 6789
-0.801 2.366 1.756 7364
-0.803 2.371 1.749 8001
-0.804 2.375 1.742 6930
-0.808 2.386 1.739 5928
-0.814 2.403 1.741 5878
-0.826 2.439 1.755 7378
-0.829 2.450 1.752 7294
-0.831 2.454 1.744 7370
-0.839 2.478 1.749 5030
-0.855 2.526 1.771 6293
-0.855 2.525 1.760 6829
-0.854 2.523 1.748 7536
-0.856 2.527 1.740 9896
-0.857 2.532 1.732 12257
-0.861 2.542 1.729 12443
-0.867 2.560 1.729 13304
-0.870 2.570 1.726 9348
-0.920 2.717 1.807 6301
-0.878 2.592 1.718 5394
-0.877 2.590 1.706 4736
-0.905 2.672 1.746 3966
-0.935 2.761 1.790 3718
-0.936 2.766 1.781 4152
-0.940 2.777 1.777 5402
-0.944 2.788 1.772 6555
-0.945 2.792 1.764 5408
-0.971 2.869 1.798 5836
-0.973 2.873 1.789 5571
-0.981 2.897 1.792 6047
-0.985 2.909 1.787 7201
-0.984 2.907 1.774 7025
-0.983 2.904 1.762 7046
-0.985 2.909 1.753 5160
-1.002 2.960 1.770 3568
-0.992 2.931 1.743 3030
-1.007 2.975 1.756 4129
-1.011 2.986 1.750 7750
-1.015 2.998 1.745 9725
-1.016 3.002 1.736 7776
-1.025 3.026 1.738 4494
-1.056 3.118 1.775 4331
-1.062 3.136 1.773 6278
-1.063 3.140 1.763 8225
-1.065 3.145 1.753 7431
-1.080 3.190 1.765 6135
-1.081 3.194 1.755 8554
-1.083 3.199 1.745 9627
-1.089 3.217 1.743 9885
-1.095 3.234 1.740 7847
-1.103 3.259 1.740 5480
-1.133 3.345 1.770 7439
-1.136 3.356 1.764 8801
-1.156 3.415 1.780 6809
-1.160 3.427 1.773 8437
-1.164 3.438 1.766 7368
-1.168 3.449 1.759 5555
-1.162 3.433 1.738 5009
-1.182 3.492 1.754 4600
-1.186 3.504 1.746 5698
-1.185 3.501 1.733 6182
-1.189 3.513 1.725 5283
-1.244 3.675 1.786 4344
-1.255 3.708 1.788 6024
-1.264 3.733 1.786 6734
-1.268 3.744 1.777 6282
-1.269 3.749 1.766 6591
-1.273 3.760 1.758 8445
-1.277 3.772 1.749 9016
-1.278 3.776 1.738 5977
-1.313 3.878 1.768 8130
-1.314 3.882 1.756 10420
-1.314 3.880 1.741 9589
-1.315 3.884 1.729 7960
-1.317 3.889 1.717 7153
-1.318 3.893 1.706 5070
-1.346 3.974 1.725 3603
-1.364 4.028 1.732 4138
-1.363 4.025 1.717 3526
-1.393 4.114 1.738 4996
-1.387 4.097 1.718 7082
-1.389 4.101 1.705 6922
-1.397 4.127 1.701 4007
-1.401 4.138 1.691 3432
-1.405 4.149 1.681 4838
-1.440 4.253 1.705 6654
-1.448 4.278 1.700 6421
-1.452 4.290 1.690 5122
-1.487 4.393 1.713 4187
-1.491 4.405 1.702 3409
-1.524 4.501 1.721 2248
-1.540 4.548 1.722 3355
-1.539 4.546 1.706 4683
-1.550 4.578 1.702 5344
-1.554 4.590 1.691 5045
-1.558 4.601 1.679 3692
-1.554 4.591 1.660 3583
-1.592 4.703 1.682 2568
-1.591 4.700 1.665 3798
-1.641 4.847 1.697 4284
-1.640 4.844 1.680 4139
-1.649 4.870 1.672 3466
-1.658 4.896 1.664 4081
-1.661 4.907 1.651 3326
-1.697 5.012 1.668 2630
-1.706 5.038 1.659 2665
-1.763 5.208 1.693 3240
-1.767 5.220 1.680 2668
-1.769 5.224 1.664 2466
-1.848 5.459 1.715 3112
-1.847 5.457 1.696 3191
-1.770 5.229 1.614 2967
-1.892 5.588 1.698 4064
-1.893 5.593 1.681 4717
-1.897 5.604 1.666 5562
-1.899 5.608 1.648 5531
-1.905 5.627 1.635 3450
-1.860 5.493 1.581 2047
-2.024 5.977 1.690 2634
-2.042 6.032 1.685 2561
-2.044 6.037 1.667 2031
-2.055 6.070 1.656 1813
-2.059 6.081 1.639 2651
-2.063 6.093 1.622 2586
-2.074 6.126 1.611 2437
-2.184 6.452 1.669 2233
-2.186 6.456 1.649 2412
-2.187 6.460 1.629 2339
-2.231 6.589 1.638 1829
-2.235 6.601 1.620 1845
-2.407 7.111 1.712 2691
-2.406 7.108 1.689 3072
-2.413 7.127 1.670 1829
-2.529 7.469 1.720 1560
-2.573 7.598 1.724 1785
-2.579 7.618 1.704 1611
-2.590 7.651 1.686 1889
-2.702 7.980 1.728 2238
-2.703 7.984 1.703 1973
-2.740 8.092 1.699 1201
-2.886 8.524 1.756 1449
-2.867 8.469 1.719 1672
-2.871 8.481 1.694 1622
-2.890 8.537 1.677 1403
-2.889 8.534 1.650 1628
-2.891 8.538 1.624 1345
-3.030 8.949 1.667 800
-2.918 8.620 1.584 364
-0.747 2.226 1.806 3538
-0.755 2.249 1.813 7632
-0.761 2.266 1.816 9862
-0.760 2.264 1.804 9005
-0.762 2.269 1.797 8161
-0.763 2.273 1.791 8441
-0.763 2.272 1.779 8752
-0.764 2.276 1.772 8752
-0.768 2.287 1.770 9088
-0.769 2.292 1.763 9454
-0.773 2.302 1.761 7693
-0.779 2.319 1.763 6668
-0.789 2.348 1.773 6467
-0.792 2.359 1.771 7483
-0.794 2.364 1.763 7471
-0.797 2.374 1.761 7820
-0.797 2.373 1.749 8199
-0.798 2.377 1.742 6708
-0.804 2.394 1.744 5309
-0.810 2.411 1.745 5587
-0.820 2.441 1.755 7439
-0.823 2.452 1.752 7338
-0.825 2.456 1.744 7346
-0.833 2.480 1.749 4862
-0.851 2.535 1.776 6154
-0.848 2.527 1.760 6511
-0.846 2.518 1.744 7357
-0.847 2.523 1.736 10167
-0.851 2.534 1.732 12987
-0.854 2.545 1.729 12860
-0.858 2.555 1.725 13254
-0.862 2.566 1.722 8955
-0.913 2.719 1.807 5905
-0.869 2.588 1.714 5018
-0.899 2.676 1.758 4729
-0.898 2.674 1.746 4140
-0.891 2.653 1.722 3517
-0.927 2.761 1.777 3953
-0.933 2.779 1.777 5457
-0.935 2.783 1.768 6736
-0.938 2.794 1.764 6063
-0.964 2.871 1.798 5926
-0.966 2.876 1.789 6051
-0.974 2.900 1.792 6913
-0.977 2.911 1.787 8465
-0.979 2.916 1.778 8168
-0.976 2.907 1.762 7961
-0.978 2.911 1.753 5720
-0.968 2.883 1.726 3314
-0.983 2.927 1.739 2972
-1.002 2.985 1.760 3779
-1.006 2.996 1.754 7580
-1.007 3.000 1.745 9650
-1.011 3.011 1.740 7949
-1.017 3.029 1.738 4807
-1.050 3.127 1.778 4886
-1.054 3.138 1.773 7330
-1.055 3.143 1.763 9671
-1.057 3.147 1.753 8714
-1.061 3.159 1.747 6555
-1.076 3.204 1.759 8615
-1.075 3.201 1.745 10119
-1.081 3.219 1.743 10601
-1.089 3.244 1.743 8690
-1.095 3.262 1.740 6594
-1.124 3.348 1.770 7675
-1.128 3.359 1.764 9942
-1.132 3.371 1.757 7352
-1.149 3.423 1.770 8519
-1.153 3.434 1.763 7012
-1.159 3.452 1.759 5393
-1.154 3.436 1.738 5086
-1.174 3.495 1.754 4599
-1.177 3.507 1.746 5594
-1.179 3.511 1.736 5984
-1.180 3.516 1.725 5148
-1.235 3.679 1.786 4460
-1.244 3.704 1.785 5675
-1.254 3.736 1.786 6223
-1.258 3.747 1.777 5849
-1.260 3.752 1.766 6327
-1.264 3.763 1.758 8537
-1.267 3.775 1.749 9461
-1.269 3.779 1.738 6759
-1.303 3.881 1.768 7431
-1.305 3.886 1.756 9615
-1.304 3.883 1.741 9432
-1.305 3.887 1.729 8282
-1.307 3.892 1.717 7912
-1.308 3.896 1.706 5656
-1.336 3.978 1.725 3843
-1.353 4.031 1.732 4380
-1.350 4.021 1.715 4391
-1.382 4.117 1.738 5244
-1.377 4.100 1.718 6915
-1.381 4.112 1.708 6443
-1.387 4.130 1.701 3812
-1.395 4.156 1.696 3386
-1.425 4.245 1.715 5426
-1.429 4.256 1.705 7547
-1.438 4.282 1.700 7202
-1.444 4.300 1.692 5767
-1.476 4.397 1.713 3951
-1.480 4.408 1.702 3472
-1.510 4.498 1.719 3012
-1.517 4.517 1.710 3033
-1.530 4.557 1.709 4255
-1.536 4.575 1.700 4929
-1.542 4.594 1.691 4573
-1.549 4.612 1.681 3570
-1.545 4.602 1.663 3467
-1.576 4.692 1.677 2600
-1.579 4.704 1.665 4081
-1.629 4.851 1.697 4724
-1.630 4.856 1.682 4620
-1.634 4.867 1.670 3542
-1.645 4.900 1.664 3583
-1.649 4.912 1.651 3321
-1.689 5.031 1.672 3161
-1.695 5.050 1.661 2755
-1.750 5.213 1.693 2716
-1.754 5.224 1.680 2218
-1.760 5.243 1.668 2465
-1.835 5.464 1.715 2978
-1.834 5.461 1.696 3617
-1.760 5.241 1.616 3242
-1.880 5.600 1.700 3857
-1.848 5.503 1.654 4378
-1.883 5.609 1.666 5413
-1.885 5.613 1.648 5282
-1.888 5.624 1.633 2981
-1.843 5.490 1.579 2663
-1.947 5.800 1.643 2667
-2.030 6.045 1.687 2453
-2.031 6.049 1.669 2107
-2.040 6.075 1.656 2215
-2.044 6.087 1.639 3637
-2.048 6.098 1.622 2994
-2.059 6.131 1.611 2317
-2.168 6.458 1.669 2224
-2.170 6.462 1.649 2386
-2.171 6.466 1.629 2500
-2.214 6.595 1.638 2026
-2.218 6.606 1.620 1778
-2.387 7.110 1.711 2518
-2.389 7.114 1.689 2913
-2.395 7.133 1.670 1868
-2.512 7.483 1.722 1839
-2.511 7.480 1.698 1743
-2.565 7.639 1.707 1339
-2.574 7.665 1.688 1802
-2.682 7.986 1.728 1987
-2.683 7.991 1.703 1792
-2.722 8.106 1.700 1141
-2.721 8.103 1.674 1433
-2.846 8.476 1.719 1582
-2.850 8.488 1.694 1689
-2.864 8.529 1.675 1507
-2.868 8.541 1.650 1825
-2.867 8.538 1.622 1512
-3.007 8.957 1.667 805
-2.899 8.635 1.585 433
-0.743 2.227 1.806 3583
-0.751 2.250 1.813 7472
-0.755 2.261 1.811 9525
-0.756 2.266 1.804 8646
-0.758 2.270 1.797 7766
-0.759 2.275 1.791 7895
-0.759 2.273 1.779 8158
-0.760 2.278 1.772 8158
-0.764 2.288 1.770 8537
-0.765 2.293 1.763 9052
-0.769 2.304 1.761 7596
-0.779 2.333 1.771 7330
-0.784 2.350 1.773 7276
-0.788 2.361 1.771 8265
-0.789 2.365 1.763 8241
-0.793 2.376 1.761 8352
-0.795 2.380 1.754 8488
-0.796 2.385 1.746 6549
-0.802 2.402 1.748 4888
-0.805 2.413 1.745 5446
-0.815 2.442 1.755 7491
-0.819 2.453 1.752 7378
-0.820 2.458 1.744 7313
-0.826 2.475 1.745 4833
-0.849 2.543 1.780 6157
-0.846 2.535 1.764 6316
-0.841 2.520 1.744 7357
-0.843 2.524 1.736 10432
-0.846 2.535 1.732 13534
-0.848 2.540 1.725 13058
-0.853 2.557 1.725 12976
-0.857 2.568 1.722 8565
-0.906 2.714 1.803 5505
-0.864 2.589 1.714 4620
-0.894 2.678 1.758 5120
-0.891 2.669 1.742 4575
-0.886 2.654 1.722 3647
-0.920 2.756 1.773 3797
-0.926 2.774 1.773 5600
-0.930 2.785 1.768 7105
-0.931 2.790 1.760 7107
-0.935 2.801 1.755 7172
-0.934 2.799 1.743 7139
-0.969 2.902 1.792 7619
-0.972 2.913 1.787 9506
-0.974 2.917 1.778 9176
-0.973 2.915 1.765 8715
-0.972 2.913 1.753 6157
-0.963 2.884 1.726 3847
-0.969 2.902 1.724 3594
-1.003 3.006 1.771 3667
-1.001 2.997 1.754 7208
-1.002 3.002 1.745 9363
-1.006 3.013 1.740 7953
-1.012 3.031 1.738 5036
-1.044 3.129 1.778 4990
-1.048 3.140 1.773 7789
-1.050 3.145 1.763 10338
-1.049 3.143 1.750 9394
-1.053 3.154 1.744 6575
-1.070 3.205 1.759 8009
-1.071 3.210 1.749 9879
-1.075 3.221 1.743 10574
-1.083 3.246 1.743 9122
-1.092 3.271 1.743 7572
-1.098 3.289 1.740 8321
-1.120 3.354 1.760 10608
-1.126 3.373 1.757 8383
-1.141 3.418 1.766 8880
-1.145 3.429 1.759 6920
-1.153 3.454 1.759 5184
-1.150 3.445 1.742 5006
-1.167 3.498 1.754 4495
-1.174 3.516 1.750 5348
-1.173 3.513 1.736 5597
-1.174 3.518 1.725 4800
-1.229 3.681 1.786 4441
-1.237 3.706 1.785 5323
-1.248 3.738 1.786 5671
-1.252 3.750 1.777 5376
-1.253 3.754 1.766 5879
-1.257 3.766 1.758 8253
-1.261 3.777 1.749 9566
-1.262 3.781 1.738 7285
-1.296 3.883 1.768 6746
-1.298 3.888 1.756 8853
-1.295 3.878 1.738 9222
-1.298 3.890 1.729 8532
-1.302 3.901 1.720 8591
-1.301 3.898 1.706 6095
-1.328 3.980 1.725 3963
-1.342 4.019 1.727 4490
-1.343 4.024 1.715 5300
-1.347 4.035 1.705 5423
-1.372 4.110 1.720 6567
-1.373 4.114 1.708 5836
-1.387 4.154 1.709 3527
-1.388 4.158 1.696 3399
-1.418 4.247 1.715 6071
-1.422 4.259 1.705 8243
-1.430 4.284 1.700 7795
-1.436 4.303 1.692 6059
-1.466 4.392 1.710 3928
-1.468 4.397 1.697 3819
-1.502 4.501 1.719 3738
-1.506 4.512 1.707 3445
-1.510 4.524 1.696 4409
-1.523 4.564 1.695 4480
-1.537 4.604 1.693 3921
-1.540 4.615 1.681 3300
-1.540 4.612 1.665 3212
-1.565 4.688 1.675 2720
-1.571 4.707 1.665 4243
-1.620 4.854 1.697 5135
-1.622 4.859 1.682 5015
-1.626 4.870 1.670 3605
-1.639 4.910 1.666 3235
-1.640 4.914 1.651 3323
-1.680 5.034 1.672 3389
-1.689 5.060 1.663 2598
-1.700 5.093 1.656 2596
-1.750 5.242 1.684 1700
-1.751 5.246 1.668 2642
-1.823 5.460 1.713 2844
-1.824 5.464 1.696 4080
-1.825 5.469 1.680 3913
-1.827 5.473 1.663 3995
-1.843 5.521 1.658 4243
-1.873 5.612 1.666 4951
-1.875 5.616 1.648 4756
-1.871 5.606 1.627 2702
-1.834 5.493 1.579 3190
-1.937 5.804 1.643 2750
-2.021 6.056 1.689 2394
-2.020 6.053 1.669 2333
-2.029 6.079 1.656 2778
-2.033 6.090 1.639 4433
-2.034 6.094 1.620 3246
-2.158 6.464 1.690 2212
-2.157 6.461 1.669 2209
-2.158 6.466 1.649 2198
-2.160 6.470 1.629 2460
-2.200 6.591 1.636 2085
-2.393 7.168 1.746 1609
-2.375 7.114 1.711 2206
-2.376 7.118 1.689 2600
-2.382 7.137 1.670 1912
-2.497 7.480 1.720 2081
-2.501 7.492 1.699 1827
-2.428 7.275 1.631 1369
-2.560 7.670 1.688 1646
-2.667 7.991 1.728 1759
-2.669 7.996 1.703 1591
-2.710 8.118 1.702 1196
-2.709 8.115 1.676 1470
-2.831 8.481 1.719 1401
-2.837 8.501 1.695 1445
-2.851 8.542 1.676 1714
-2.853 8.546 1.650 2363
-2.854 8.550 1.624 2047
-2.858 8.562 1.599 1074
-2.877 8.618 1.581 550
-2.870 8.599 1.551 309
-0.737 2.230 1.806 3599
-0.742 2.246 1.808 7207
-0.748 2.263 1.811 8998
-0.749 2.268 1.804 8082
-0.751 2.272 1.797 7166
-0.750 2.271 1.786 7251
-0.752 2.275 1.779 7506
-0.753 2.280 1.772 7506
-0.757 2.291 1.770 7936
-0.758 2.295 1.763 8595
-0.766 2.318 1.770 7602
-0.772 2.335 1.771 8031
-0.777 2.352 1.773 7971
-0.781 2.363 1.771 8954
-0.782 2.368 1.763 8935
-0.786 2.378 1.761 8864
-0.787 2.383 1.754 8807
-0.787 2.381 1.742 6481
-0.794 2.404 1.748 4659
-0.800 2.421 1.749 5351
-0.810 2.451 1.759 7528
-0.811 2.456 1.752 7379
-0.813 2.460 1.744 7231
-0.810 2.452 1.728 5102
-0.841 2.545 1.780 6188
-0.836 2.531 1.760 6200
-0.833 2.523 1.744 7421
-0.835 2.527 1.736 10563
-0.838 2.538 1.732 13748
-0.840 2.542 1.725 13031
-0.843 2.553 1.721 12521
-0.847 2.564 1.718 8087
-0.898 2.717 1.803 5124
-0.888 2.689 1.774 4693
-0.884 2.674 1.754 5537
-0.881 2.666 1.738 5074
-0.878 2.657 1.722 3763
-0.909 2.753 1.769 3811
-0.920 2.783 1.777 5889
-0.921 2.788 1.768 7598
-0.923 2.792 1.760 8222
-0.926 2.803 1.755 8852
-0.926 2.801 1.743 8846
-0.960 2.905 1.792 8140
-0.963 2.916 1.787 10268
-0.965 2.920 1.778 9884
-0.964 2.918 1.765 9217
-0.966 2.923 1.757 6476
-0.954 2.887 1.726 4367
-0.960 2.905 1.724 4221
-0.968 2.929 1.726 3811
-0.991 3.001 1.754 6720
-0.993 3.005 1.745 8940
-0.996 3.016 1.740 7818
-1.002 3.034 1.738 5114
-1.035 3.132 1.778 4777
-1.039 3.144 1.773 7766
-1.038 3.141 1.759 10448
-1.037 3.139 1.746 9603
-1.041 3.150 1.740 6498
-1.060 3.209 1.759 6807
-1.062 3.213 1.749 8806
-1.068 3.231 1.746 9853
-1.076 3.256 1.746 9223
-1.084 3.281 1.747 8599
-1.088 3.292 1.740 9102
-1.109 3.358 1.760 10763
-1.115 3.376 1.757 8856
-1.130 3.421 1.766 9178
-1.132 3.426 1.756 7064
-1.140 3.451 1.755 5098
-1.142 3.455 1.745 4841
-1.157 3.501 1.754 4414
-1.163 3.519 1.750 5142
-1.164 3.524 1.739 5183
-1.163 3.521 1.725 4431
-1.217 3.684 1.786 4364
-1.223 3.703 1.781 4960
-1.239 3.749 1.789 5019
-1.240 3.753 1.777 4807
-1.244 3.765 1.769 5307
-1.245 3.769 1.758 7670
-1.249 3.781 1.749 9318
-1.253 3.792 1.741 7472
-1.282 3.880 1.765 6210
-1.283 3.885 1.753 8269
-1.283 3.882 1.738 8942
-1.286 3.894 1.729 8753
-1.290 3.905 1.720 9237
-1.289 3.902 1.706 6456
-1.316 3.984 1.725 3968
-1.327 4.016 1.724 4720
-1.328 4.021 1.712 6107
-1.332 4.032 1.702 5991
-1.362 4.121 1.723 6265
-1.361 4.119 1.708 5420
-1.390 4.208 1.728 3872
-1.401 4.240 1.726 3318
-1.405 4.252 1.715 6517
-1.409 4.263 1.705 8561
-1.417 4.289 1.700 7929
-1.423 4.307 1.692 5791
-1.450 4.390 1.707 4080
-1.454 4.401 1.697 4451
-1.486 4.498 1.716 4289
-1.490 4.510 1.705 3941
-1.494 4.521 1.694 4808
-1.493 4.518 1.677 4318
-1.525 4.615 1.695 3006
-1.533 4.641 1.689 2848
-1.528 4.624 1.667 2758
-1.550 4.693 1.675 2662
-1.557 4.711 1.665 4177
-1.605 4.859 1.697 5377
-1.607 4.864 1.682 5065
-1.606 4.861 1.665 3369
-1.624 4.915 1.666 2846
-1.625 4.920 1.651 3252
-1.665 5.039 1.672 3245
-1.673 5.065 1.663 2195
-1.684 5.098 1.656 2334
-1.679 5.081 1.634 1582
-1.733 5.244 1.666 2832
-1.734 5.248 1.650 3157
-1.807 5.470 1.696 4293
-1.811 5.482 1.682 4772
-1.810 5.479 1.663 4394
-1.826 5.526 1.658 4330
-1.854 5.611 1.664 4216
-1.857 5.622 1.648 3840
-1.811 5.480 1.592 3157
-1.817 5.499 1.579 3445
-1.922 5.817 1.645 2879
-2.008 6.076 1.693 2559
-2.004 6.066 1.671 2687
-2.010 6.085 1.656 3341
-2.014 6.096 1.639 5058
-2.016 6.101 1.620 3498
-2.140 6.478 1.692 2309
-2.137 6.468 1.669 2097
-2.136 6.465 1.647 1925
-2.140 6.476 1.629 2292
-2.180 6.598 1.636 2001
-2.371 7.175 1.746 1651
-2.353 7.121 1.711 1834
-2.354 7.125 1.689 2216
-2.360 7.144 1.670 1919
-2.476 7.495 1.722 2228
-2.478 7.499 1.699 1791
-2.406 7.282 1.631 1325
-2.537 7.677 1.688 1429
-2.643 7.999 1.728 1593
-2.644 8.004 1.703 1386
-2.687 8.134 1.703 1309
-2.684 8.123 1.676 1488
-2.705 8.187 1.662 1349
-2.816 8.524 1.698 1434
-2.823 8.543 1.675 1708
-2.826 8.555 1.650 1900
-2.828 8.559 1.624 1377
-2.854 8.637 1.610 1015
-2.852 8.634 1.583 673
-2.849 8.623 1.554 386
-0.713 2.177 1.764 3634
-0.715 2.181 1.757 7269
-0.742 2.265 1.811 8236
-0.744 2.270 1.804 7321
-0.747 2.280 1.802 6429
-0.745 2.273 1.786 6524
-0.746 2.277 1.779 6773
-0.748 2.282 1.772 6773
-0.751 2.293 1.770 7230
-0.755 2.303 1.768 8147
-0.762 2.326 1.774 7674
-0.766 2.337 1.771 8576
-0.771 2.354 1.773 8544
-0.777 2.371 1.775 9573
-0.776 2.370 1.763 9569
-0.780 2.380 1.761 9362
-0.779 2.378 1.749 9151
-0.781 2.383 1.742 6532
-0.788 2.406 1.748 4429
-0.804 2.455 1.771 5376
-0.804 2.453 1.759 7531
-0.805 2.458 1.752 7292
-0.807 2.462 1.744 7053
-0.804 2.454 1.728 5463
-0.835 2.548 1.780 6021
-0.828 2.527 1.755 6114
-0.827 2.525 1.744 7528
-0.829 2.529 1.736 10671
-0.832 2.540 1.732 13874
-0.834 2.544 1.725 12914
-0.837 2.555 1.721 12012
-0.836 2.553 1.709 7731
-0.882 2.693 1.787 4749
-0.880 2.685 1.770 5074
-0.870 2.657 1.742 6066
-0.872 2.661 1.734 5564
-0.873 2.666 1.726 3927
-0.905 2.762 1.773 4064
-0.913 2.786 1.777 6215
-0.916 2.797 1.772 8077
-0.918 2.801 1.764 9191
-0.917 2.799 1.752 10379
-0.918 2.804 1.743 10235
-0.952 2.907 1.792 8360
-0.956 2.918 1.787 10504
-0.960 2.929 1.782 10126
-0.959 2.927 1.769 9387
-0.958 2.925 1.757 6674
-0.947 2.890 1.726 4707
-0.952 2.907 1.724 4742
-0.960 2.932 1.726 4316
-0.984 3.003 1.754 6216
-0.985 3.007 1.745 8403
-0.987 3.012 1.736 7638
-0.988 3.016 1.727 5125
-1.027 3.135 1.778 4572
-1.028 3.139 1.769 7798
-1.030 3.144 1.759 10746
-1.029 3.142 1.746 10420
-1.031 3.146 1.737 7298
-1.052 3.211 1.759 5273
-1.054 3.216 1.749 7228
-1.059 3.234 1.746 8791
-1.070 3.265 1.750 9293
-1.076 3.284 1.747 9579
-1.079 3.295 1.740 9830
-1.101 3.361 1.760 10467
-1.109 3.386 1.760 8875
-1.122 3.424 1.766 9294
-1.123 3.429 1.756 7219
-1.131 3.454 1.755 5090
-1.133 3.458 1.745 4710
-1.148 3.504 1.754 4505
-1.154 3.522 1.750 5177
-1.153 3.520 1.736 4993
-1.155 3.524 1.725 4233
-1.208 3.687 1.786 4212
-1.214 3.706 1.781 4564
-1.229 3.752 1.789 4300
-1.233 3.763 1.780 4168
-1.234 3.768 1.769 4599
-1.236 3.773 1.758 6787
-1.240 3.784 1.749 8678
-1.243 3.795 1.741 7346
-1.256 3.835 1.744 5955
-1.274 3.888 1.753 7677
-1.273 3.886 1.738 8391
-1.279 3.904 1.732 8813
-1.280 3.908 1.720 9757
-1.282 3.913 1.708 6704
-1.288 3.931 1.702 3987
-1.315 4.013 1.721 4988
-1.316 4.017 1.709 6716
-1.322 4.036 1.702 6301
-1.354 4.132 1.726 6235
-1.353 4.129 1.711 5364
-1.377 4.204 1.725 4129
-1.388 4.237 1.723 3494
-1.394 4.255 1.715 6715
-1.398 4.267 1.705 8503
-1.406 4.292 1.700 7582
-1.412 4.311 1.692 5013
-1.439 4.393 1.707 4441
-1.443 4.405 1.697 5126
-1.475 4.502 1.716 4621
-1.479 4.513 1.705 4580
-1.480 4.518 1.691 5373
-1.479 4.515 1.675 4671
-1.520 4.641 1.703 2481
-1.524 4.652 1.691 2623
-1.495 4.563 1.646 2852
-1.539 4.697 1.675 2542
-1.545 4.715 1.665 4054
-1.593 4.863 1.697 5241
-1.595 4.868 1.682 4729
-1.584 4.836 1.656 3214
-1.609 4.912 1.664 2436
-1.613 4.924 1.651 3089
-1.617 4.935 1.639 2671
-1.618 4.939 1.624 2010
-1.672 5.102 1.656 1999
-1.668 5.092 1.637 1781
-1.719 5.248 1.666 3046
-1.721 5.253 1.650 3758
-1.791 5.467 1.694 4137
-1.797 5.486 1.682 5228
-1.799 5.490 1.665 4714
-1.814 5.538 1.660 4444
-1.811 5.528 1.640 4339
-1.781 5.437 1.597 3626
-1.799 5.492 1.594 3997
-1.803 5.504 1.579 3446
-1.921 5.865 1.656 3169
-1.995 6.089 1.695 2742
-1.991 6.078 1.672 2914
-1.997 6.097 1.658 3714
-1.999 6.102 1.639 5408
-2.000 6.106 1.620 3546
-2.124 6.484 1.692 2275
-2.123 6.481 1.671 1936
-2.151 6.566 1.670 1660
-2.123 6.482 1.629 1968
-2.163 6.603 1.636 1735
-2.353 7.181 1.746 1546
-2.332 7.120 1.709 1436
-2.334 7.124 1.687 1767
-2.461 7.511 1.748 1964
-2.455 7.494 1.720 2330
-2.459 7.505 1.699 1712
-2.509 7.657 1.707 1407
-2.515 7.676 1.686 1344
-2.623 8.006 1.728 1499
-2.665 8.136 1.728 1247
-2.664 8.133 1.702 1434
-2.663 8.130 1.676 1658
-2.684 8.193 1.662 1445
-2.800 8.546 1.701 1329
-2.803 8.558 1.676 1838
-2.805 8.562 1.650 2392
-2.806 8.566 1.624 2091
-2.808 8.570 1.598 1146
-2.836 8.656 1.585 625
-2.822 8.615 1.551 365
-2.816 8.597 1.521 256
-0.271 0.827 0.262 264
-0.268 0.819 0.259 260
-0.409 1.248 -0.007 256
-0.708 2.172 1.759 4009
-0.709 2.176 1.753 8019
-0.711 2.181 1.746 8019
-0.710 2.179 1.735 6462
-0.744 2.282 1.802 5570
-0.741 2.274 1.786 5743
-0.741 2.272 1.775 6158
-0.742 2.277 1.768 6158
-0.748 2.294 1.770 6442
-0.753 2.311 1.772 7607
-0.759 2.328 1.774 7765
-0.762 2.338 1.771 8960
-0.768 2.355 1.773 8994
-0.773 2.372 1.775 10143
-0.773 2.371 1.763 10165
-0.774 2.375 1.756 9888
-0.776 2.380 1.749 9574
-0.777 2.384 1.742 6719
-0.785 2.407 1.748 4219
-0.801 2.456 1.771 5329
-0.800 2.454 1.759 7425
-0.801 2.459 1.752 7094
-0.801 2.457 1.740 6775
-0.798 2.449 1.724 5808
-0.831 2.549 1.780 5831
-0.824 2.528 1.755 6176
-0.823 2.526 1.744 7620
-0.825 2.530 1.736 10635
-0.828 2.541 1.732 13717
-0.830 2.546 1.725 12518
-0.831 2.550 1.717 11320
-0.833 2.554 1.709 7361
-0.876 2.688 1.783 4978
-0.876 2.686 1.770 5275
-0.866 2.658 1.742 6702
-0.868 2.663 1.734 5895
-0.869 2.667 1.726 4026
-0.901 2.763 1.773 4297
-0.908 2.787 1.777 6219
-0.912 2.798 1.772 8188
-0.914 2.803 1.764 10120
-0.913 2.801 1.752 12149
-0.914 2.805 1.743 11876
-0.918 2.816 1.738 8720
-0.952 2.920 1.787 10278
-0.955 2.931 1.782 10030
-0.955 2.929 1.769 9342
-0.956 2.933 1.760 6915
-0.947 2.904 1.733 5189
-0.950 2.916 1.728 5370
-0.958 2.940 1.730 4888
-0.979 3.004 1.754 5858
-0.979 3.002 1.741 7759
-0.980 3.007 1.732 7411
-0.981 3.011 1.723 5370
-1.024 3.143 1.782 4345
-1.024 3.141 1.769 7899
-1.023 3.139 1.756 11368
-1.025 3.143 1.746 11632
-1.026 3.148 1.737 8624
-1.032 3.166 1.734 4747
-1.049 3.217 1.749 5564
-1.057 3.242 1.749 7553
-1.067 3.274 1.753 9392
-1.071 3.285 1.747 10238
-1.074 3.296 1.740 10348
-1.094 3.355 1.757 9799
-1.106 3.394 1.763 8566
-1.114 3.419 1.763 9131
-1.118 3.430 1.756 7129
-1.124 3.449 1.752 5216
-1.128 3.460 1.745 4731
-1.143 3.506 1.754 4674
-1.146 3.517 1.746 5302
-1.148 3.521 1.736 4918
-1.152 3.533 1.728 4176
-1.173 3.599 1.746 5203
-1.179 3.618 1.741 5585
-1.185 3.636 1.736 3961
-1.198 3.675 1.741 4067
-1.202 3.686 1.732 4382
-1.233 3.781 1.761 5796
-1.234 3.786 1.749 7681
-1.238 3.797 1.741 6958
-1.248 3.830 1.741 6247
-1.268 3.890 1.753 7222
-1.267 3.887 1.738 7859
-1.273 3.906 1.732 8665
-1.275 3.910 1.720 9880
-1.276 3.915 1.708 6782
-1.282 3.933 1.702 4270
-1.306 4.008 1.718 5283
-1.310 4.019 1.709 7184
-1.314 4.031 1.700 6405
-1.350 4.141 1.729 6211
-1.346 4.131 1.711 5689
-1.369 4.199 1.722 4261
-1.379 4.232 1.720 3538
-1.385 4.250 1.713 6655
-1.389 4.262 1.703 8007
-1.400 4.294 1.700 6601
-1.406 4.313 1.692 3774
-1.430 4.388 1.705 4927
-1.434 4.400 1.694 5661
-1.468 4.504 1.716 4821
-1.472 4.516 1.705 5312
-1.473 4.520 1.691 6192
-1.472 4.517 1.675 5168
-1.474 4.521 1.661 2754
-1.480 4.540 1.652 3028
-1.486 4.558 1.643 3514
-1.529 4.692 1.672 2308
-1.535 4.710 1.663 3877
-1.586 4.866 1.697 4692
-1.585 4.863 1.680 4090
-1.575 4.831 1.654 3649
-1.576 4.835 1.639 2202
-1.606 4.926 1.651 2817
-1.607 4.930 1.636 2555
-1.611 4.942 1.624 2056
-1.629 4.996 1.624 2098
-1.661 5.095 1.637 2065
-1.709 5.244 1.664 3088
-1.713 5.255 1.650 4147
-1.719 5.274 1.638 4622
-1.787 5.481 1.680 5536
-1.790 5.493 1.665 4698
-1.787 5.483 1.644 4913
-1.796 5.509 1.634 4825
-1.797 5.513 1.617 4448
-1.793 5.502 1.596 4846
-1.797 5.514 1.581 3027
-1.910 5.861 1.654 3310
-1.986 6.092 1.695 2862
-1.989 6.103 1.678 3069
-1.991 6.108 1.659 3793
-1.990 6.104 1.639 5310
-1.993 6.116 1.622 3397
-2.119 6.502 1.696 2198
-2.116 6.491 1.672 1782
-2.076 6.370 1.623 1743
-2.078 6.375 1.604 1999
-2.180 6.688 1.655 1444
-2.260 6.935 1.689 1412
-2.264 6.946 1.670 1487
-2.270 6.965 1.652 1541
-2.332 7.154 1.670 2030
-2.441 7.490 1.719 2465
-2.445 7.502 1.698 1632
-2.495 7.654 1.705 1495
-2.532 7.769 1.704 1328
-2.608 8.002 1.726 1520
-2.651 8.133 1.727 1352
-2.650 8.130 1.700 1494
-2.651 8.134 1.676 1808
-2.725 8.360 1.692 1456
-2.792 8.565 1.704 1556
-2.788 8.554 1.675 1562
-2.792 8.566 1.650 1390
-2.822 8.659 1.639 1268
-2.817 8.641 1.609 1009
-2.813 8.630 1.580 748
-2.812 8.627 1.553 518
-2.801 8.594 1.520 267
-0.407 1.249 -0.007 271
-0.702 2.174 1.759 4295
-0.703 2.178 1.753 8590
-0.704 2.183 1.746 8590
-0.704 2.181 1.735 7070
-0.705 2.185 1.729 5715
-0.733 2.270 1.781 5072
-0.734 2.274 1.775 5639
-0.736 2.279 1.768 5639
-0.743 2.302 1.774 5739
-0.748 2.319 1.776 7041
-0.752 2.330 1.774 7724
-0.755 2.341 1.771 9170
-0.761 2.358 1.773 9324
-0.766 2.375 1.775 10664
-0.766 2.373 1.763 10725
-0.767 2.377 1.756 10474
-0.769 2.382 1.749 10059
-0.768 2.380 1.738 7145
-0.768 2.378 1.726 4249
-0.794 2.459 1.771 5194
-0.795 2.463 1.763 7238
-0.794 2.461 1.752 6810
-0.794 2.459 1.740 6434
-0.791 2.451 1.724 6116
-0.792 2.455 1.717 6000
-0.815 2.524 1.751 6209
-0.816 2.528 1.744 7566
-0.817 2.533 1.736 10367
-0.821 2.544 1.732 13217
-0.822 2.548 1.725 11844
-0.824 2.552 1.717 10471
-0.823 2.550 1.705 6886
-0.868 2.691 1.783 5024
-0.859 2.663 1.754 5611
-0.857 2.654 1.738 7116
-0.860 2.665 1.734 6036
-0.889 2.754 1.778 4309
-0.888 2.752 1.765 4508
-0.900 2.790 1.777 6072
-0.904 2.801 1.772 8147
-0.905 2.805 1.764 11090
-0.905 2.803 1.752 14108
-0.908 2.814 1.747 13785
-0.910 2.819 1.738 9842
-0.945 2.929 1.791 9576
-0.947 2.934 1.782 9478
-0.946 2.931 1.769 8861
-0.948 2.936 1.760 7081
-0.940 2.914 1.737 5654
-0.942 2.918 1.728 5858
-0.952 2.949 1.734 5445
-0.968 3.001 1.750 5883
-0.970 3.005 1.741 7165
-0.971 3.009 1.732 7232
-0.971 3.007 1.720 5676
-0.989 3.065 1.739 4679
-1.013 3.137 1.765 7783
-1.014 3.142 1.756 11757
-1.015 3.146 1.746 12600
-1.017 3.151 1.737 9791
-1.025 3.175 1.738 5721
-1.039 3.220 1.749 4245
-1.052 3.259 1.756 6528
-1.060 3.284 1.757 9434
-1.061 3.288 1.747 10482
-1.065 3.300 1.740 10492
-1.084 3.359 1.757 8943
-1.099 3.404 1.767 7959
-1.105 3.422 1.763 8656
-1.108 3.434 1.756 6771
-1.114 3.452 1.752 5410
-1.118 3.463 1.745 5005
-1.130 3.502 1.751 5003
-1.134 3.513 1.743 5642
-1.138 3.525 1.736 5012
-1.150 3.564 1.741 4695
-1.163 3.603 1.746 6099
-1.169 3.621 1.741 6649
-1.175 3.639 1.736 4688
-1.187 3.679 1.741 4461
-1.189 3.683 1.729 4772
-1.222 3.785 1.761 4766
-1.223 3.789 1.749 6507
-1.229 3.808 1.744 6476
-1.237 3.833 1.741 6445
-1.257 3.894 1.753 6669
-1.258 3.898 1.741 7035
-1.262 3.909 1.732 8182
-1.263 3.914 1.720 9665
-1.267 3.925 1.711 6595
-1.271 3.937 1.702 4314
-1.290 3.997 1.713 5628
-1.296 4.016 1.706 7460
-1.300 4.027 1.697 6219
-1.335 4.138 1.726 6115
-1.335 4.135 1.711 6063
-1.350 4.182 1.714 4340
-1.365 4.229 1.718 3482
-1.373 4.254 1.713 6332
-1.377 4.266 1.703 7178
-1.385 4.291 1.697 5263
-1.412 4.374 1.713 3563
-1.415 4.385 1.702 5314
-1.421 4.404 1.694 5858
-1.455 4.508 1.716 4788
-1.459 4.520 1.705 5917
-1.460 4.524 1.691 6911
-1.459 4.521 1.675 5559
-1.463 4.533 1.664 3384
-1.467 4.544 1.652 3978
-1.473 4.563 1.643 4107
-1.479 4.581 1.634 2364
-1.519 4.708 1.660 3755
-1.528 4.733 1.653 4255
-1.562 4.839 1.671 3443
-1.561 4.836 1.654 4046
-1.564 4.847 1.642 2725
-1.582 4.902 1.642 2512
-1.593 4.935 1.636 2220
-1.657 5.134 1.681 2415
-1.616 5.008 1.626 2309
-1.648 5.107 1.639 2291
-1.694 5.249 1.664 2909
-1.698 5.260 1.650 4110
-1.701 5.272 1.636 4784
-1.769 5.479 1.678 5788
-1.775 5.498 1.665 4488
-1.769 5.480 1.642 5640
-1.770 5.485 1.626 6188
-1.774 5.496 1.611 5890
-1.775 5.500 1.594 5805
-1.890 5.855 1.670 2773
-1.891 5.859 1.652 3160
-1.968 6.097 1.695 2747
-1.972 6.109 1.678 3034
-1.973 6.113 1.659 3638
-1.972 6.110 1.639 4887
-1.976 6.122 1.622 3106
-2.103 6.515 1.697 2035
-2.054 6.365 1.641 2074
-2.056 6.369 1.621 2093
-2.057 6.373 1.602 2164
-2.158 6.686 1.653 1742
-2.169 6.720 1.639 1566
-2.244 6.953 1.670 1493
-2.250 6.972 1.652 1515
-2.311 7.160 1.670 2289
-2.420 7.497 1.719 2628
-2.424 7.509 1.698 1615
-2.473 7.661 1.705 1497
-2.507 7.769 1.703 1348
-2.583 8.003 1.725 1605
-2.627 8.140 1.727 1441
-2.626 8.137 1.700 1669
-2.628 8.141 1.676 2058
-2.770 8.583 1.732 1693
-2.769 8.580 1.705 1524
-2.766 8.570 1.676 1597
-2.767 8.574 1.650 1841
-2.769 8.578 1.624 1591
-2.856 8.850 1.643 928
-2.860 8.862 1.618 626
-2.873 8.903 1.597 415
-2.887 8.944 1.576 354
-0.406 1.258 -0.008 257
-0.698 2.175 1.759 4551
-0.699 2.179 1.753 9102
-0.701 2.184 1.746 9102
-0.702 2.188 1.740 7606
-0.702 2.187 1.729 6268
-0.703 2.191 1.722 4594
-0.728 2.270 1.770 5256
-0.730 2.274 1.763 5256
-0.739 2.303 1.774 5069
-0.744 2.320 1.776 6521
-0.750 2.337 1.778 7614
-0.753 2.348 1.776 9276
-0.757 2.359 1.773 9603
-0.762 2.376 1.775 11214
-0.762 2.374 1.763 11324
-0.763 2.379 1.756 11156
-0.765 2.383 1.749 10669
-0.764 2.381 1.738 7789
-0.763 2.379 1.726 4936
-0.789 2.460 1.771 4968
-0.791 2.464 1.763 6961
-0.790 2.463 1.752 6492
-0.777 2.422 1.715 6169
-0.787 2.452 1.724 6451
-0.788 2.457 1.717 6907
-0.810 2.525 1.751 6180
-0.812 2.530 1.744 7417
-0.813 2.534 1.736 10001
-0.814 2.539 1.728 12585
-0.818 2.549 1.725 11078
-0.819 2.554 1.717 9572
-0.819 2.552 1.705 6397
-0.864 2.692 1.783 4866
-0.853 2.658 1.750 5879
-0.852 2.656 1.738 7298
-0.856 2.667 1.734 5985
-0.884 2.756 1.778 4559
-0.884 2.754 1.765 4794
-0.893 2.785 1.773 5694
-0.899 2.802 1.772 7710
-0.900 2.807 1.764 11498
-0.900 2.805 1.752 15435
-0.903 2.816 1.747 15285
-0.905 2.820 1.738 11090
-0.940 2.931 1.791 8552
-0.942 2.935 1.782 8558
-0.943 2.940 1.773 8103
-0.945 2.944 1.764 7275
-0.935 2.916 1.737 6254
-0.937 2.920 1.728 6362
-0.947 2.951 1.734 6037
-0.963 3.002 1.750 5892
-0.965 3.007 1.741 6406
-0.964 3.004 1.729 7015
-0.965 3.009 1.720 6093
-0.984 3.067 1.739 5516
-1.003 3.125 1.758 7538
-1.006 3.137 1.752 11663
-1.010 3.148 1.746 12921
-1.013 3.159 1.740 10435
-1.019 3.177 1.738 6597
-1.010 3.148 1.711 4646
-1.050 3.274 1.763 5989
-1.054 3.286 1.757 9258
-1.055 3.290 1.747 10464
-1.059 3.301 1.740 10461
-1.076 3.354 1.754 8101
-1.093 3.406 1.767 7186
-1.099 3.424 1.763 7835
-1.102 3.436 1.756 6179
-1.110 3.461 1.755 5580
-1.109 3.458 1.742 5551
-1.122 3.497 1.747 5456
-1.126 3.509 1.740 6316
-1.129 3.520 1.733 5461
-1.144 3.566 1.741 5623
-1.156 3.605 1.746 6676
-1.160 3.616 1.738 7172
-1.168 3.641 1.736 5063
-1.179 3.674 1.737 4707
-1.182 3.685 1.729 5015
-1.181 3.683 1.715 4385
-1.216 3.792 1.749 5283
-1.225 3.817 1.747 6177
-1.230 3.835 1.741 6672
-1.250 3.896 1.753 6251
-1.251 3.900 1.741 6196
-1.255 3.912 1.732 7386
-1.259 3.923 1.723 9070
-1.260 3.928 1.711 6277
-1.282 3.995 1.725 4462
-1.281 3.993 1.710 5930
-1.287 4.011 1.703 7526
-1.293 4.030 1.697 5684
-1.326 4.133 1.723 5948
-1.327 4.137 1.711 6215
-1.335 4.163 1.706 4369
-1.351 4.210 1.710 3396
-1.366 4.257 1.713 5703
-1.369 4.268 1.703 6038
-1.373 4.280 1.692 3951
-1.399 4.362 1.708 4191
-1.408 4.388 1.702 5541
-1.414 4.407 1.694 5694
-1.447 4.511 1.716 4788
-1.451 4.522 1.705 6582
-1.452 4.527 1.691 7586
-1.451 4.524 1.675 5893
-1.455 4.535 1.664 4041
-1.459 4.547 1.652 4691
-1.465 4.565 1.643 4398
-1.471 4.584 1.634 2531
-1.509 4.703 1.658 3671
-1.519 4.736 1.653 4173
-1.546 4.820 1.664 3365
-1.554 4.846 1.656 4278
-1.556 4.850 1.642 3188
-1.571 4.897 1.640 2189
-1.642 5.118 1.692 2349
-1.648 5.137 1.681 2751
-1.605 5.004 1.624 2422
-1.639 5.109 1.639 2460
-1.647 5.135 1.630 2468
-1.686 5.256 1.648 3550
-1.692 5.275 1.636 4249
-1.756 5.475 1.676 5961
-1.756 5.472 1.657 4709
-1.757 5.476 1.640 6646
-1.761 5.488 1.626 7625
-1.762 5.492 1.609 7454
-1.765 5.503 1.594 6533
-1.879 5.858 1.670 2665
-1.878 5.855 1.650 2866
-1.955 6.094 1.693 2438
-1.907 5.944 1.635 3307
-1.962 6.117 1.659 3288
-1.961 6.114 1.639 4306
-1.965 6.125 1.622 2644
-2.094 6.526 1.699 1902
-2.043 6.369 1.641 2226
-2.044 6.373 1.621 2280
-2.046 6.377 1.602 2066
-2.146 6.690 1.653 1926
-2.157 6.724 1.639 1621
-2.279 7.104 1.702 1775
-2.292 7.145 1.689 1734
-2.298 7.164 1.670 2647
-2.406 7.501 1.719 2818
-2.410 7.513 1.698 1705
-2.461 7.673 1.707 1448
-2.494 7.773 1.703 1366
-2.566 8.000 1.723 1727
-2.568 8.004 1.699 1488
-2.612 8.142 1.700 1700
-2.613 8.146 1.676 2173
-2.610 8.136 1.648 1802
-2.754 8.585 1.705 1830
-2.753 8.582 1.677 1455
-2.786 8.683 1.668 1576
-2.787 8.687 1.642 1316
-2.848 8.877 1.647 1011
-2.854 8.896 1.623 726
-2.860 8.915 1.598 512
-2.871 8.949 1.576 472
-0.692 2.177 1.759 4682
-0.693 2.181 1.753 9365
-0.695 2.186 1.746 9365
-0.696 2.190 1.740 7946
-0.695 2.189 1.729 6629
-0.697 2.193 1.722 4781
-0.722 2.272 1.770 4969
-0.723 2.276 1.763 4969
-0.734 2.312 1.779 4476
-0.738 2.322 1.776 5896
-0.743 2.339 1.778 7304
-0.747 2.350 1.776 9097
-0.750 2.361 1.773 9610
-0.756 2.378 1.775 11481
-0.755 2.376 1.763 11656
-0.756 2.381 1.756 11633
-0.756 2.379 1.745 11190
-0.755 2.377 1.733 8430
-0.757 2.382 1.726 5737
-0.780 2.456 1.766 4599
-0.784 2.467 1.763 6470
-0.783 2.465 1.752 6056
-0.768 2.418 1.710 6493
-0.780 2.455 1.724 6710
-0.781 2.459 1.717 7676
-0.785 2.470 1.714 6509
-0.802 2.525 1.739 7072
-0.806 2.536 1.736 9386
-0.807 2.541 1.728 11758
-0.809 2.545 1.721 10242
-0.810 2.550 1.713 8726
-0.811 2.554 1.705 5883
-0.846 2.662 1.762 4780
-0.845 2.660 1.750 5916
-0.845 2.658 1.738 7154
-0.848 2.669 1.734 5712
-0.874 2.752 1.774 4621
-0.876 2.756 1.765 5026
-0.879 2.768 1.761 5583
-0.891 2.805 1.772 7125
-0.891 2.803 1.760 11424
-0.892 2.807 1.752 15889
-0.895 2.818 1.747 15818
-0.897 2.823 1.738 11793
-0.900 2.834 1.734 7731
-0.933 2.938 1.782 7402
-0.935 2.942 1.773 7244
-0.936 2.947 1.764 7397
-0.938 2.951 1.755 6931
-0.952 2.996 1.769 6841
-0.941 2.960 1.737 6463
-0.946 2.978 1.736 5789
-0.954 3.003 1.738 5532
-0.955 3.007 1.729 6670
-0.957 3.012 1.720 6425
-0.973 3.063 1.736 6843
-0.992 3.121 1.755 7204
-0.998 3.139 1.752 10978
-1.001 3.151 1.746 12473
-1.005 3.162 1.740 10571
-1.010 3.180 1.738 7166
-1.001 3.150 1.711 5251
-1.013 3.189 1.719 6510
-1.045 3.289 1.757 8810
-1.046 3.293 1.747 10133
-1.050 3.304 1.740 10253
-1.051 3.309 1.730 7699
-1.083 3.409 1.767 6251
-1.087 3.420 1.760 6701
-1.093 3.439 1.756 5543
-1.098 3.457 1.752 5722
-1.100 3.461 1.742 5971
-1.112 3.500 1.747 5894
-1.114 3.505 1.737 7104
-1.117 3.516 1.729 6159
-1.136 3.576 1.744 6475
-1.146 3.608 1.746 6633
-1.150 3.619 1.738 6941
-1.158 3.645 1.736 5075
-1.168 3.677 1.737 4740
-1.170 3.681 1.726 5024
-1.171 3.686 1.715 4743
-1.206 3.795 1.749 4257
-1.214 3.820 1.747 5922
-1.220 3.839 1.741 6789
-1.239 3.899 1.753 5595
-1.240 3.904 1.741 5168
-1.244 3.915 1.732 6280
-1.248 3.927 1.723 7983
-1.251 3.938 1.714 5436
-1.271 3.999 1.725 4353
-1.270 3.996 1.710 5908
-1.273 4.008 1.701 7315
-1.279 4.026 1.694 4921
-1.312 4.129 1.720 5679
-1.316 4.141 1.711 6093
-1.322 4.159 1.703 4223
-1.336 4.206 1.707 3258
-1.354 4.260 1.713 4938
-1.357 4.272 1.703 4940
-1.329 4.184 1.656 3734
-1.385 4.359 1.705 5242
-1.391 4.378 1.697 5648
-1.401 4.410 1.694 5226
-1.435 4.515 1.716 4686
-1.440 4.534 1.707 6980
-1.440 4.531 1.691 7923
-1.439 4.528 1.675 6088
-1.445 4.547 1.666 4531
-1.446 4.551 1.652 5157
-1.452 4.569 1.643 4555
-1.458 4.588 1.634 2804
-1.491 4.693 1.653 3625
-1.506 4.740 1.653 4002
-1.533 4.824 1.664 3365
-1.541 4.850 1.656 4320
-1.542 4.854 1.642 3397
-1.613 5.075 1.694 1985
-1.621 5.101 1.685 2344
-1.636 5.149 1.683 2791
-1.591 5.008 1.624 2440
-1.625 5.114 1.639 2499
-1.629 5.125 1.625 2746
-1.671 5.260 1.648 2587
-1.728 5.439 1.682 3925
-1.739 5.473 1.674 5928
-1.733 5.455 1.651 6037
-1.739 5.474 1.638 7769
-1.743 5.485 1.624 8539
-1.746 5.497 1.609 8187
-1.748 5.501 1.592 6557
-1.782 5.607 1.603 2525
-1.862 5.860 1.650 2458
-1.877 5.909 1.644 2301
-1.890 5.949 1.635 3317
-1.943 6.115 1.658 2798
-1.944 6.119 1.639 3667
-1.950 6.138 1.624 2288
-2.015 6.341 1.653 1860
-2.025 6.374 1.641 2430
-2.024 6.371 1.620 2349
-2.026 6.375 1.600 1747
-2.128 6.696 1.653 1915
-2.138 6.730 1.639 1531
-2.259 7.111 1.702 2130
-2.270 7.144 1.687 2229
-2.278 7.171 1.670 2951
-2.385 7.508 1.719 2910
-2.389 7.520 1.698 1809
-2.468 7.768 1.725 1472
-2.470 7.773 1.701 1403
-2.542 7.999 1.722 1702
-2.545 8.011 1.699 1615
-2.587 8.142 1.699 1526
-2.591 8.153 1.676 2083
-2.587 8.143 1.648 1910
-2.730 8.593 1.705 1403
-2.765 8.701 1.697 1273
-2.761 8.691 1.668 1543
-2.763 8.695 1.642 1222
-2.828 8.900 1.650 1149
-2.832 8.912 1.624 855
-2.835 8.923 1.598 624
-2.846 8.957 1.576 567
-2.847 8.961 1.548 291
-0.679 2.181 1.759 4805
-0.680 2.185 1.753 9610
-0.682 2.190 1.746 9610
-0.683 2.194 1.740 8307
-0.682 2.193 1.729 7033
-0.684 2.197 1.722 4955
-0.706 2.270 1.765 4876
-0.708 2.274 1.759 4876
-0.711 2.285 1.756 4208
-0.726 2.333 1.781 5309
-0.730 2.344 1.778 6915
-0.733 2.355 1.776 8832
-0.738 2.372 1.778 9629
-0.742 2.382 1.775 11759
-0.741 2.381 1.763 12010
-0.742 2.385 1.756 12152
-0.742 2.383 1.745 11838
-0.741 2.382 1.733 9289
-0.743 2.386 1.726 6752
-0.746 2.397 1.723 5238
-0.767 2.465 1.759 5840
-0.767 2.463 1.747 5627
-0.754 2.423 1.710 6932
-0.765 2.459 1.724 7021
-0.767 2.464 1.717 8443
-0.770 2.474 1.714 7036
-0.788 2.530 1.739 6648
-0.791 2.541 1.736 8637
-0.792 2.545 1.728 10798
-0.794 2.550 1.721 9344
-0.795 2.554 1.713 7889
-0.796 2.559 1.705 5383
-0.828 2.661 1.758 4963
-0.830 2.665 1.750 5853
-0.829 2.663 1.738 6813
-0.832 2.674 1.734 5316
-0.856 2.750 1.770 4598
-0.860 2.762 1.765 5246
-0.863 2.773 1.761 5750
-0.875 2.810 1.772 6588
-0.872 2.801 1.756 11140
-0.873 2.806 1.748 15833
-0.877 2.817 1.743 15633
-0.880 2.828 1.738 11935
-0.884 2.839 1.734 8063
-0.887 2.850 1.729 7548
-0.891 2.861 1.724 7259
-0.921 2.959 1.768 7587
-0.920 2.957 1.755 7900
-0.934 3.002 1.769 7405
-0.925 2.973 1.741 6762
-0.927 2.977 1.732 5493
-0.928 2.981 1.723 4536
-0.938 3.013 1.729 6131
-0.943 3.031 1.727 6936
-0.955 3.069 1.736 8651
-0.959 3.080 1.730 8259
-0.979 3.145 1.752 9977
-0.983 3.157 1.746 11654
-0.990 3.181 1.747 10497
-0.994 3.193 1.741 7516
-0.991 3.183 1.725 5751
-0.994 3.195 1.719 7047
-1.025 3.295 1.757 8248
-1.027 3.299 1.747 9579
-1.030 3.310 1.740 9950
-1.032 3.315 1.730 7766
-1.018 3.271 1.697 5620
-1.064 3.420 1.756 5551
-1.068 3.431 1.749 5153
-1.078 3.463 1.752 5832
-1.077 3.461 1.738 6009
-1.068 3.431 1.712 6314
-1.093 3.511 1.737 7890
-1.094 3.516 1.726 6995
-1.113 3.576 1.741 7190
-1.123 3.608 1.743 6079
-1.131 3.633 1.741 6125
-1.139 3.658 1.739 4884
-1.144 3.677 1.734 4662
-1.148 3.688 1.726 4830
-1.149 3.693 1.715 4913
-1.164 3.739 1.722 4842
-1.191 3.827 1.747 5609
-1.197 3.846 1.741 6581
-1.192 3.829 1.721 5673
-1.191 3.827 1.706 5035
-1.221 3.922 1.732 5000
-1.224 3.934 1.723 6661
-1.228 3.945 1.714 4667
-1.247 4.006 1.725 3973
-1.244 3.996 1.707 5559
-1.245 4.001 1.695 6984
-1.280 4.111 1.725 4553
-1.288 4.137 1.720 5179
-1.291 4.149 1.711 5546
-1.295 4.160 1.701 3968
-1.292 4.150 1.683 3600
-1.309 4.204 1.689 4609
-1.308 4.201 1.674 4577
-1.340 4.306 1.697 3894
-1.357 4.360 1.703 6746
-1.361 4.371 1.692 5804
-1.375 4.419 1.694 4532
-1.410 4.530 1.719 4518
-1.414 4.542 1.707 7160
-1.413 4.539 1.691 7894
-1.412 4.536 1.675 6154
-1.418 4.555 1.666 4939
-1.421 4.566 1.655 5262
-1.425 4.578 1.643 4436
-1.433 4.604 1.637 3152
-1.459 4.687 1.649 3523
-1.476 4.742 1.651 3865
-1.507 4.840 1.666 3294
-1.515 4.866 1.659 4183
-1.514 4.863 1.642 3366
-1.583 5.085 1.694 1959
-1.586 5.096 1.681 2299
-1.581 5.079 1.659 2754
-1.587 5.098 1.648 2596
-1.592 5.116 1.637 2503
-1.596 5.128 1.623 2963
-1.602 5.146 1.612 2342
-1.696 5.449 1.682 4161
-1.700 5.461 1.667 6127
-1.701 5.465 1.651 7571
-1.707 5.484 1.638 8618
-1.708 5.488 1.622 8941
-1.712 5.500 1.607 8270
-1.715 5.511 1.592 6027
-1.746 5.610 1.601 2497
-1.834 5.893 1.656 2211
-1.840 5.912 1.642 2547
-1.855 5.960 1.635 3228
-1.854 5.957 1.615 2678
-1.908 6.130 1.639 3003
-1.912 6.142 1.622 2039
-1.984 6.374 1.658 1893
-1.988 6.386 1.641 2602
-1.987 6.383 1.620 2362
-2.085 6.697 1.672 1538
-2.090 6.716 1.655 1763
-2.053 6.595 1.606 1509
-2.217 7.124 1.702 2290
-2.226 7.150 1.686 2655
-2.236 7.184 1.670 3133
-2.341 7.522 1.719 2983
-2.345 7.534 1.698 1893
-2.420 7.775 1.723 1613
-2.422 7.780 1.700 1499
-2.495 8.014 1.722 1547
-2.494 8.011 1.696 1674
-2.495 8.015 1.672 1800
-2.543 8.168 1.676 2043
-2.539 8.158 1.648 2085
-2.677 8.601 1.704 1597
-2.679 8.606 1.677 1516
-2.712 8.714 1.670 1462
-2.714 8.719 1.643 1194
-2.775 8.917 1.650 1308
-2.779 8.928 1.624 973
-2.783 8.940 1.598 714
-2.793 8.974 1.576 625
-2.794 8.978 1.548 340
-0.675 2.182 1.759 4723
-0.676 2.187 1.753 9446
-0.678 2.191 1.746 9446
-0.679 2.196 1.740 8319
-0.680 2.200 1.733 7192
-0.680 2.198 1.722 4979
-0.702 2.271 1.765 4902
-0.704 2.275 1.759 4902
-0.705 2.280 1.752 4188
-0.722 2.334 1.781 4718
-0.725 2.345 1.778 6386
-0.729 2.356 1.776 8372
-0.734 2.373 1.778 9478
-0.737 2.384 1.775 11754
-0.737 2.382 1.763 12075
-0.736 2.380 1.752 12382
-0.738 2.385 1.745 12200
-0.737 2.383 1.733 9917
-0.738 2.387 1.726 7603
-0.740 2.392 1.719 5939
-0.761 2.460 1.755 5040
-0.748 2.420 1.718 5826
-0.750 2.424 1.710 7218
-0.761 2.460 1.724 7291
-0.764 2.471 1.721 8924
-0.766 2.476 1.714 7351
-0.781 2.525 1.735 6179
-0.784 2.536 1.732 7821
-0.788 2.547 1.728 9708
-0.789 2.551 1.721 8410
-0.790 2.556 1.713 7111
-0.820 2.651 1.762 4934
-0.823 2.662 1.758 5105
-0.825 2.667 1.750 5702
-0.824 2.665 1.738 6324
-0.827 2.676 1.734 4873
-0.851 2.752 1.770 4467
-0.855 2.763 1.765 5277
-0.860 2.781 1.765 5856
-0.861 2.785 1.757 6454
-0.867 2.803 1.756 10999
-0.868 2.808 1.748 15693
-0.872 2.819 1.743 15347
-0.875 2.830 1.738 11831
-0.876 2.834 1.730 8126
-0.882 2.852 1.729 8184
-0.883 2.856 1.720 8430
-0.914 2.954 1.764 7758
-0.915 2.959 1.755 8524
-0.927 2.997 1.765 7725
-0.928 3.001 1.756 6845
-0.921 2.979 1.732 4927
-0.923 2.983 1.723 3971
-0.934 3.021 1.732 5606
-0.946 3.059 1.741 8238
-0.950 3.071 1.736 10129
-0.951 3.075 1.726 9279
-0.971 3.140 1.749 8948
-0.977 3.158 1.746 10630
-0.984 3.183 1.747 10240
