1.274 6.438 1.000 1080
1.276 6.448 0.982 1089
1.324 6.689 0.994 992
1.308 6.607 0.964 907
1.308 6.609 0.944 1221
1.309 6.611 0.925 1008
1.390 7.023 0.953 983
1.391 7.025 0.932 1167
1.328 6.711 0.876 1191
1.330 6.720 0.857 1200
1.395 7.047 0.872 1525
1.397 7.057 0.852 1319
1.397 7.059 0.831 864
1.840 9.295 1.024 954
1.398 7.062 0.789 970
1.398 7.064 0.768 1086
1.399 7.066 0.747 805
1.298 6.557 0.684 613
1.298 6.558 0.664 665
1.299 6.560 0.645 696
1.299 6.561 0.626 682
1.298 6.555 0.606 584
1.295 6.541 0.585 600
1.293 6.534 0.565 652
1.294 6.536 0.546 598
1.289 6.513 0.525 470
1.290 6.514 0.506 489
1.290 6.515 0.487 479
1.288 6.509 0.467 462
1.287 6.502 0.448 485
1.286 6.495 0.428 461
1.286 6.496 0.409 312
1.283 6.482 0.370 254
1.283 6.482 0.351 428
1.282 6.475 0.332 535
1.282 6.476 0.313 471
1.280 6.468 0.293 300
1.278 6.454 0.236 329
1.278 6.454 0.217 342
1.275 6.439 0.197 279
0.411 2.055 1.602 9494
0.412 2.059 1.596 18989
0.413 2.063 1.590 18989
0.414 2.067 1.584 18516
0.416 2.078 1.583 18408
0.417 2.082 1.577 13949
0.418 2.086 1.570 9490
0.419 2.090 1.564 9172
0.421 2.101 1.563 8954
0.421 2.105 1.557 8954
0.425 2.122 1.559 7399
0.444 2.216 1.615 7299
0.448 2.240 1.622 7815
0.451 2.250 1.620 9364
0.451 2.255 1.613 11183
0.451 2.252 1.602 13192
0.451 2.250 1.591 16236
0.451 2.254 1.585 19446
0.452 2.258 1.578 18269
0.453 2.262 1.572 15768
0.453 2.260 1.561 14692
0.455 2.271 1.558 10845
0.465 2.321 1.581 10163
0.464 2.318 1.570 8282
0.462 2.309 1.555 7224
0.463 2.313 1.548 5097
0.469 2.344 1.558 3424
0.470 2.348 1.551 3413
0.470 2.345 1.540 3418
0.474 2.369 1.546 4361
0.477 2.380 1.543 4670
0.481 2.404 1.548 4700
0.486 2.428 1.553 5638
0.487 2.432 1.546 5765
0.495 2.470 1.559 5933
0.497 2.481 1.555 6932
0.499 2.491 1.552 6695
0.501 2.502 1.549 6590
0.503 2.513 1.545 6014
0.528 2.639 1.607 6721
0.528 2.636 1.596 6129
0.530 2.647 1.592 4761
0.538 2.686 1.603 4574
0.539 2.690 1.595 4526
0.539 2.694 1.587 4477
0.538 2.684 1.572 5273
0.540 2.695 1.568 6677
0.543 2.713 1.567 8043
0.547 2.731 1.567 6790
0.556 2.776 1.581 6706
0.558 2.787 1.576 7382
0.562 2.805 1.575 10062
0.563 2.809 1.567 11555
0.565 2.820 1.563 12586
0.568 2.838 1.561 13503
0.571 2.849 1.557 12908
0.573 2.860 1.552 9477
0.576 2.878 1.550 6410
0.577 2.882 1.542 6340
0.582 2.907 1.544 7071
0.584 2.918 1.539 7243
0.596 2.978 1.558 6537
0.599 2.989 1.552 7980
0.601 3.001 1.547 7825
0.604 3.019 1.545 10574
0.605 3.023 1.536 11985
0.607 3.034 1.530 10619
0.607 3.031 1.518 10317
0.606 3.027 1.506 10050
0.610 3.046 1.504 7519
0.613 3.064 1.501 5569
0.321 1.604 0.835 8390
0.320 1.599 0.827 12438
0.321 1.601 0.822 14709
0.321 1.603 0.818 14415
0.321 1.605 0.813 10843
0.322 1.607 0.809 5084
0.322 1.609 0.804 2239
0.674 3.366 1.545 4459
0.675 3.370 1.535 4864
0.674 3.367 1.522 3578
0.668 3.335 1.497 4981
0.669 3.339 1.487 7670
0.672 3.357 1.484 7664
0.673 3.361 1.474 5681
0.674 3.365 1.464 4678
0.675 3.369 1.454 5262
0.675 3.372 1.444 5199
0.287 1.433 0.676 4806
0.688 3.438 1.447 3915
0.286 1.429 0.665 3737
0.286 1.430 0.661 4668
0.290 1.446 0.663 3591
0.290 1.448 0.659 2133
0.727 3.631 1.461 2641
0.732 3.657 1.458 4479
0.729 3.639 1.440 5403
0.731 3.650 1.432 4736
0.746 3.727 1.447 6528
0.750 3.745 1.441 7015
0.748 3.734 1.425 5950
0.748 3.738 1.414 6365
0.751 3.749 1.406 6048
0.772 3.856 1.430 6321
0.773 3.859 1.418 7201
0.774 3.863 1.407 7957
0.779 3.889 1.403 9189
0.781 3.900 1.394 9274
0.782 3.903 1.383 6351
0.816 4.077 1.426 4503
0.814 4.066 1.409 4709
0.791 3.951 1.360 3361
0.813 4.059 1.380 2851
0.819 4.092 1.378 2771
0.829 4.140 1.379 3338
0.857 4.278 1.407 2771
0.860 4.296 1.399 3201
0.867 4.329 1.395 3775
0.865 4.318 1.378 5801
0.865 4.322 1.365 7743
0.865 4.318 1.351 5379
0.339 1.694 0.600 4640
0.542 2.707 0.876 5904
0.338 1.689 0.588 5464
0.339 1.691 0.583 6289
0.337 1.684 0.576 5054
0.338 1.686 0.571 6206
0.338 1.687 0.566 7541
0.338 1.688 0.562 5174
0.340 1.697 0.559 5287
0.339 1.691 0.552 7920
0.340 1.699 0.549 8630
0.340 1.700 0.544 6315
0.424 2.117 0.640 7053
0.424 2.118 0.634 7356
0.423 2.112 0.626 5537
0.426 2.129 0.623 3957
1.021 5.098 1.301 3140
1.055 5.268 1.324 2490
1.031 5.150 1.281 2715
1.032 5.154 1.266 3509
0.581 2.902 0.759 2564
0.583 2.912 0.753 2428
0.583 2.913 0.744 2030
0.584 2.915 0.736 2126
1.114 5.565 1.271 2272
1.116 5.576 1.256 2549
1.163 5.807 1.285 3218
1.164 5.811 1.268 2786
1.161 5.799 1.248 2230
1.205 6.015 1.272 2088
1.207 6.026 1.255 2451
1.209 6.037 1.239 1922
0.372 1.859 0.465 1919
0.374 1.868 0.461 2222
0.376 1.876 0.457 3670
0.376 1.877 0.452 5651
0.376 1.878 0.446 6496
0.376 1.879 0.441 5532
0.376 1.880 0.435 3132
0.377 1.881 0.430 2217
0.375 1.874 0.423 2339
1.370 6.841 1.179 2258
1.364 6.814 1.154 1785
1.365 6.816 1.134 2002
1.372 6.850 1.118 2280
1.375 6.868 1.100 1814
1.379 6.886 1.082 996
1.289 6.435 1.000 1056
1.408 7.030 1.060 1248
1.337 6.678 0.993 1122
1.341 6.696 0.975 973
1.323 6.606 0.944 1053
1.377 6.878 0.957 892
1.406 7.019 0.953 1103
1.406 7.022 0.932 1291
1.343 6.708 0.876 1294
1.345 6.717 0.857 1299
1.410 7.044 0.872 1508
1.411 7.046 0.851 1285
1.411 7.048 0.830 876
1.860 9.291 1.024 1039
1.412 7.052 0.788 981
1.412 7.053 0.767 1050
1.414 7.063 0.747 779
1.312 6.554 0.684 596
1.313 6.556 0.664 635
1.313 6.557 0.645 675
1.315 6.566 0.626 668
1.312 6.552 0.606 557
1.309 6.538 0.585 553
1.308 6.531 0.565 597
1.307 6.525 0.546 544
1.305 6.518 0.526 409
1.304 6.512 0.506 402
1.304 6.513 0.487 405
1.303 6.506 0.467 389
1.301 6.499 0.448 397
1.300 6.492 0.428 392
1.299 6.485 0.409 282
1.297 6.479 0.351 336
1.298 6.480 0.332 431
1.296 6.473 0.313 399
1.295 6.466 0.293 268
1.292 6.451 0.217 264
0.417 2.054 1.602 10209
0.418 2.058 1.596 20419
0.418 2.062 1.590 20419
0.419 2.066 1.584 19617
0.421 2.077 1.583 19151
0.422 2.081 1.577 14439
0.423 2.085 1.570 9727
0.424 2.089 1.564 9665
0.426 2.100 1.563 9696
0.427 2.104 1.557 9696
0.429 2.114 1.555 7987
0.434 2.138 1.562 7831
0.453 2.232 1.617 8253
0.455 2.243 1.615 9445
0.455 2.240 1.604 12066
0.455 2.245 1.598 14859
0.455 2.242 1.587 18208
0.456 2.246 1.580 21566
0.457 2.251 1.574 20141
0.457 2.255 1.567 17603
0.458 2.259 1.561 16490
0.459 2.263 1.554 12274
0.472 2.326 1.585 8909
0.462 2.277 1.545 7409
0.464 2.288 1.543 6877
0.466 2.299 1.540 4726
0.475 2.342 1.558 2813
0.477 2.353 1.555 3136
0.480 2.364 1.553 3562
0.480 2.368 1.546 4748
0.483 2.379 1.543 5085
0.487 2.403 1.548 5257
0.491 2.420 1.549 6129
0.495 2.438 1.550 6129
0.497 2.448 1.547 5534
0.502 2.473 1.551 5980
0.505 2.490 1.552 6013
0.507 2.501 1.549 6393
0.510 2.512 1.545 5972
0.520 2.563 1.565 5924
0.533 2.628 1.592 5991
0.537 2.646 1.592 5926
0.542 2.671 1.596 5925
0.544 2.682 1.592 4861
0.549 2.706 1.595 4116
0.544 2.683 1.572 4661
0.548 2.701 1.572 5886
0.552 2.719 1.571 7324
0.555 2.736 1.571 6179
0.560 2.761 1.574 5362
0.567 2.793 1.580 6193
0.569 2.804 1.575 9784
0.570 2.808 1.567 11832
0.572 2.819 1.563 12818
0.577 2.844 1.565 13655
0.579 2.855 1.560 13040
0.580 2.859 1.552 9676
0.589 2.905 1.564 5775
0.590 2.909 1.556 4731
0.591 2.913 1.547 6236
0.592 2.917 1.539 6911
0.604 2.977 1.558 6599
0.608 2.995 1.556 7788
0.608 2.999 1.547 7688
0.612 3.017 1.545 9771
0.614 3.028 1.539 10330
0.615 3.032 1.530 8782
0.613 3.022 1.515 9100
0.612 3.019 1.503 9865
0.618 3.044 1.504 6263
0.323 1.594 0.836 7260
0.324 1.596 0.832 10650
0.324 1.598 0.827 11677
0.326 1.607 0.826 11565
0.328 1.616 0.824 10866
0.328 1.618 0.819 8554
0.329 1.620 0.815 7087
0.328 1.615 0.807 6464
0.328 1.617 0.802 5142
0.682 3.361 1.532 4917
0.684 3.373 1.525 3148
0.676 3.333 1.497 3630
0.680 3.352 1.493 6621
0.682 3.363 1.487 7349
0.683 3.367 1.477 5653
0.682 3.363 1.464 4722
0.683 3.367 1.454 5974
0.682 3.363 1.441 6610
0.682 3.360 1.429 5414
0.697 3.436 1.447 5409
0.698 3.440 1.437 4237
0.292 1.437 0.664 4883
0.293 1.446 0.663 3645
0.699 3.444 1.404 2458
0.736 3.630 1.461 2212
0.742 3.655 1.458 4251
0.736 3.630 1.437 5910
0.740 3.648 1.432 5386
0.754 3.718 1.444 6772
0.757 3.729 1.436 6924
0.757 3.732 1.425 5902
0.759 3.743 1.417 6487
0.760 3.747 1.406 6323
0.782 3.854 1.430 7395
0.783 3.857 1.418 8149
0.783 3.861 1.407 8115
0.787 3.879 1.401 8445
0.789 3.890 1.392 8034
0.792 3.901 1.383 5740
0.827 4.075 1.426 4300
0.828 4.079 1.414 4640
0.803 3.956 1.362 3511
0.824 4.064 1.383 2781
0.830 4.090 1.378 2734
0.847 4.175 1.390 3622
0.846 4.171 1.376 2964
0.870 4.286 1.397 2585
0.873 4.305 1.389 3753
0.874 4.308 1.376 6262
0.875 4.312 1.363 7912
0.876 4.315 1.351 5013
0.545 2.688 0.879 4448
0.547 2.698 0.874 5333
0.346 1.704 0.592 6889
0.344 1.697 0.585 5311
0.343 1.691 0.578 9341
0.343 1.692 0.573 10567
0.344 1.694 0.568 9726
0.344 1.695 0.564 10594
0.346 1.704 0.561 12270
0.346 1.705 0.556 10226
0.430 2.120 0.654 6171
0.431 2.122 0.648 8857
0.431 2.123 0.642 9195
0.433 2.132 0.637 7365
0.433 2.134 0.631 6396
0.433 2.135 0.625 5339
0.437 2.152 0.622 2913
1.070 5.273 1.325 2508
1.046 5.155 1.283 2815
1.045 5.151 1.266 3757
0.592 2.916 0.763 2644
0.592 2.918 0.754 2738
0.592 2.919 0.746 2107
0.591 2.913 0.736 2005
1.128 5.562 1.271 2531
1.128 5.558 1.253 2559
1.178 5.804 1.285 3170
1.178 5.808 1.268 2394
1.176 5.796 1.248 1949
1.186 5.845 1.240 1525
1.222 6.023 1.255 1998
1.224 6.034 1.239 1565
1.166 5.747 1.169 1593
0.382 1.882 0.464 2617
0.380 1.875 0.457 6157
0.381 1.876 0.452 7598
0.381 1.877 0.446 6683
0.379 1.870 0.440 5216
0.381 1.879 0.435 3229
0.380 1.872 0.429 2620
0.382 1.881 0.425 2827
1.387 6.838 1.179 2816
1.382 6.810 1.154 2209
1.382 6.813 1.134 2355
1.389 6.847 1.118 2398
1.393 6.865 1.100 1940
1.428 7.037 1.103 1191
1.423 7.016 1.079 1426
1.426 7.027 1.060 1776
1.425 7.021 1.038 1632
1.423 7.016 1.016 1082
1.393 6.865 0.976 1095
1.395 6.875 0.957 1136
1.423 7.016 0.953 1252
1.422 7.010 0.931 1417
1.360 6.704 0.876 1296
1.362 6.714 0.857 1263
1.427 7.032 0.871 1396
1.427 7.034 0.850 1239
1.428 7.036 0.829 917
1.884 9.286 1.024 1214
1.886 9.297 0.997 1054
1.430 7.050 0.767 1009
1.431 7.052 0.747 746
1.331 6.558 0.684 531
1.329 6.552 0.664 562
1.331 6.561 0.646 608
1.332 6.563 0.626 614
1.330 6.557 0.606 510
1.327 6.542 0.586 496
1.326 6.536 0.566 511
1.325 6.529 0.546 440
1.322 6.515 0.526 335
1.320 6.508 0.506 341
1.321 6.509 0.487 335
1.319 6.503 0.467 298
1.318 6.496 0.448 281
1.316 6.489 0.428 279
1.314 6.477 0.332 318
1.313 6.469 0.313 309
0.421 2.053 1.602 10282
0.422 2.057 1.596 20565
0.423 2.061 1.590 20565
0.424 2.065 1.584 19569
0.426 2.076 1.583 18863
0.427 2.080 1.577 14230
0.425 2.071 1.561 9664
0.429 2.088 1.564 9905
0.431 2.099 1.563 10353
0.432 2.103 1.557 10353
0.435 2.120 1.559 8587
0.439 2.137 1.562 8348
0.457 2.225 1.613 8432
0.459 2.235 1.611 9436
0.458 2.233 1.600 12739
0.459 2.237 1.593 16213
0.460 2.241 1.587 19354
0.461 2.245 1.580 22495
0.462 2.250 1.574 21122
0.463 2.254 1.567 18649
0.463 2.258 1.561 17548
0.463 2.255 1.550 13473
0.462 2.253 1.539 9769
0.465 2.263 1.537 8083
0.467 2.274 1.534 6913
0.468 2.278 1.528 4816
0.467 2.275 1.517 2841
0.484 2.359 1.560 2932
0.486 2.369 1.557 3857
0.487 2.373 1.550 4967
0.488 2.377 1.543 5277
0.493 2.402 1.548 5645
0.497 2.419 1.549 6397
0.500 2.436 1.550 6229
0.502 2.447 1.547 5335
0.507 2.471 1.551 5340
0.509 2.482 1.548 5589
0.513 2.500 1.549 6197
0.528 2.571 1.580 6194
0.527 2.569 1.569 6875
0.536 2.613 1.584 6367
0.543 2.645 1.592 6880
0.547 2.662 1.592 7121
0.549 2.673 1.588 5297
0.555 2.705 1.595 3949
0.550 2.682 1.572 4122
0.567 2.761 1.605 4992
0.559 2.724 1.575 6105
0.560 2.728 1.567 5181
0.555 2.705 1.544 4322
0.573 2.792 1.580 4980
0.575 2.803 1.575 9073
0.576 2.807 1.567 11504
0.578 2.818 1.563 12506
0.583 2.842 1.565 13300
0.586 2.853 1.560 12623
0.587 2.858 1.552 9468
0.596 2.903 1.564 5113
0.600 2.921 1.563 4149
0.599 2.918 1.551 5699
0.600 2.922 1.542 6787
0.611 2.975 1.558 6687
0.614 2.994 1.556 7612
0.615 2.998 1.547 7564
0.619 3.016 1.545 9126
0.621 3.027 1.539 9005
0.625 3.045 1.537 7363
0.621 3.028 1.518 8191
0.618 3.010 1.500 10092
0.616 3.000 1.484 6320
0.631 3.075 1.508 3950
0.632 3.079 1.499 4531
0.627 3.054 1.477 5050
0.628 3.058 1.468 5567
0.329 1.601 0.818 5590
0.329 1.603 0.813 7186
0.331 1.612 0.812 8251
0.331 1.614 0.807 9669
0.332 1.616 0.802 10385
0.332 1.618 0.798 9119
0.333 1.620 0.793 6315
0.333 1.622 0.788 3374
0.691 3.364 1.499 5998
0.691 3.368 1.489 7086
0.692 3.372 1.480 5686
0.692 3.369 1.467 4722
0.691 3.365 1.454 5698
0.689 3.355 1.438 7003
0.691 3.366 1.431 5944
0.704 3.427 1.444 7268
0.706 3.438 1.437 5370
0.296 1.443 0.667 4600
0.706 3.438 1.414 3411
0.708 3.449 1.406 2970
0.736 3.584 1.445 2117
0.750 3.654 1.458 4003
0.745 3.628 1.437 6205
0.748 3.646 1.432 5626
0.763 3.716 1.444 6147
0.765 3.727 1.436 6307
0.766 3.731 1.425 5745
0.768 3.742 1.417 6591
0.770 3.753 1.408 6390
0.791 3.852 1.430 7733
0.791 3.856 1.418 8396
0.792 3.859 1.407 7997
0.794 3.870 1.398 7648
0.798 3.889 1.392 6789
0.800 3.900 1.383 5320
0.836 4.073 1.426 3908
0.838 4.084 1.416 4473
0.844 4.110 1.411 3798
0.844 4.114 1.399 2957
0.839 4.088 1.378 2924
0.858 4.180 1.393 4030
0.857 4.177 1.378 3199
0.873 4.255 1.388 3075
0.880 4.288 1.384 4007
0.884 4.306 1.376 6217
0.885 4.310 1.363 7825
0.885 4.313 1.351 5150
0.552 2.687 0.879 4013
0.554 2.697 0.874 4592
0.348 1.695 0.590 4819
0.350 1.704 0.587 3470
0.349 1.698 0.580 2554
0.347 1.692 0.573 3172
0.347 1.693 0.568 3735
0.349 1.702 0.565 4680
0.348 1.695 0.559 7373
0.348 1.696 0.554 7908
0.348 1.698 0.549 5891
0.435 2.121 0.648 5026
0.436 2.122 0.642 8949
0.437 2.131 0.637 8502
0.439 2.140 0.633 4070
1.053 5.128 1.325 3387
0.441 2.151 0.622 2662
0.443 2.160 0.618 2739
1.059 5.160 1.284 2969
1.057 5.149 1.266 3923
1.081 5.265 1.275 2767
1.124 5.474 1.304 1696
1.123 5.469 1.286 1460
1.147 5.587 1.294 1874
1.141 5.559 1.271 2390
1.192 5.806 1.304 2376
1.192 5.809 1.287 3101
1.193 5.813 1.270 2152
1.189 5.793 1.248 1857
1.199 5.842 1.240 1868
1.176 5.731 1.201 2280
1.180 5.749 1.187 2386
0.388 1.888 0.471 3338
0.386 1.881 0.464 3554
0.385 1.875 0.457 4849
0.387 1.883 0.453 7645
0.387 1.884 0.448 10570
0.387 1.885 0.442 12341
0.387 1.886 0.437 10699
0.387 1.887 0.431 6391
1.402 6.832 1.199 2857
1.401 6.827 1.178 3171
1.399 6.815 1.155 2516
1.398 6.810 1.134 2529
1.405 6.843 1.118 2450
1.410 6.869 1.101 1972
1.444 7.033 1.103 1482
1.440 7.013 1.079 1678
1.440 7.016 1.059 2094
1.441 7.018 1.038 1991
1.441 7.021 1.017 1309
1.408 6.862 0.976 1327
1.409 6.864 0.956 1282
1.439 7.013 0.953 1385
1.438 7.007 0.931 1514
1.375 6.701 0.876 1197
1.376 6.703 0.857 1168
1.443 7.029 0.871 1229
1.443 7.031 0.850 1209
1.442 7.025 0.828 1036
1.907 9.290 1.025 1384
1.907 9.292 0.997 1229
1.909 9.302 0.970 954
1.910 9.305 0.943 711
1.346 6.555 0.684 443
1.346 6.557 0.665 455
1.346 6.558 0.646 509
1.347 6.560 0.626 524
1.345 6.553 0.606 425
1.342 6.539 0.586 401
1.341 6.533 0.566 404
1.340 6.526 0.546 340
0.426 2.052 1.602 10319
0.427 2.056 1.596 20639
0.428 2.060 1.590 20639
0.429 2.064 1.584 19399
0.431 2.075 1.583 18410
0.432 2.079 1.577 14068
0.430 2.070 1.561 9735
0.435 2.094 1.569 10423
0.436 2.098 1.563 11201
0.437 2.102 1.557 11201
0.440 2.119 1.559 9521
0.444 2.136 1.562 9202
0.461 2.217 1.609 8507
0.463 2.228 1.606 9464
0.464 2.232 1.600 13384
0.465 2.236 1.593 17303
0.465 2.240 1.587 20260
0.466 2.244 1.580 23217
0.467 2.248 1.574 21983
0.468 2.253 1.567 19720
0.467 2.250 1.557 18862
0.468 2.254 1.550 14921
0.468 2.252 1.539 11272
0.470 2.262 1.537 8888
0.472 2.273 1.534 6930
0.473 2.277 1.528 4882
0.472 2.274 1.517 2955
0.498 2.397 1.584 3116
0.493 2.375 1.561 4258
0.493 2.372 1.550 5191
0.495 2.383 1.547 5640
0.497 2.394 1.544 6139
0.501 2.411 1.545 6553
0.504 2.429 1.546 6164
0.508 2.446 1.547 5111
0.513 2.470 1.551 5038
0.515 2.481 1.548 5469
0.518 2.492 1.545 6200
0.534 2.570 1.580 7168
0.535 2.574 1.573 8190
0.540 2.599 1.577 7354
0.549 2.643 1.592 7835
0.553 2.661 1.592 8355
0.555 2.672 1.588 6190
0.559 2.690 1.587 4407
0.557 2.680 1.572 3952
0.573 2.760 1.605 4898
0.576 2.771 1.601 5316
0.576 2.775 1.593 4024
0.562 2.703 1.544 3747
0.581 2.797 1.584 4019
0.582 2.801 1.575 8251
0.583 2.805 1.567 11056
0.585 2.816 1.563 12131
0.590 2.841 1.565 12738
0.591 2.845 1.557 11895
0.592 2.849 1.548 8945
0.603 2.902 1.564 4328
0.611 2.941 1.573 4134
0.607 2.924 1.554 5392
0.607 2.921 1.542 6755
0.618 2.974 1.558 6747
0.600 2.887 1.505 7711
0.622 2.996 1.547 7518
0.625 3.007 1.541 8927
0.627 3.018 1.536 7988
0.612 2.945 1.491 7210
0.618 2.977 1.495 8026
0.624 3.002 1.496 11059
0.623 2.999 1.484 7692
0.332 1.600 0.839 5312
0.635 3.056 1.489 5306
0.634 3.053 1.477 7328
0.635 3.056 1.468 7181
0.334 1.608 0.821 6564
0.333 1.602 0.813 5465
0.333 1.604 0.809 4721
0.337 1.621 0.810 3924
0.697 3.354 1.542 4512
0.337 1.624 0.801 4292
0.338 1.626 0.796 4261
0.702 3.380 1.518 3230
0.699 3.363 1.499 5510
0.699 3.367 1.489 6831
0.700 3.371 1.480 5968
0.701 3.374 1.470 4984
0.699 3.364 1.454 5089
0.697 3.353 1.438 7104
0.705 3.393 1.443 7077
0.712 3.426 1.444 9473
0.712 3.429 1.434 6719
0.713 3.433 1.424 4138
0.715 3.444 1.417 4374
0.716 3.448 1.406 3510
0.744 3.582 1.445 2626
0.753 3.623 1.448 3969
0.753 3.626 1.437 6341
0.757 3.645 1.432 5862
0.770 3.707 1.442 5314
0.772 3.718 1.434 5470
0.773 3.722 1.423 5664
0.778 3.747 1.419 6589
0.779 3.751 1.408 5909
0.800 3.850 1.430 7407
0.801 3.854 1.418 8387
0.801 3.857 1.407 8011
0.804 3.868 1.398 7437
0.806 3.879 1.389 6213
0.811 3.905 1.385 5283
0.818 3.938 1.383 3723
0.850 4.090 1.418 3928
0.855 4.116 1.413 3823
0.856 4.119 1.401 3280
0.849 4.086 1.378 3038
0.868 4.178 1.393 4304
0.869 4.182 1.380 3344
0.885 4.260 1.390 4023
0.887 4.271 1.380 4429
0.893 4.297 1.374 5806
0.895 4.308 1.363 7476
0.896 4.311 1.351 5580
0.356 1.714 0.606 3902
0.561 2.703 0.876 4141
0.560 2.697 0.866 4547
0.352 1.696 0.585 6299
0.354 1.705 0.582 7433
0.354 1.706 0.577 9589
0.353 1.700 0.570 13212
0.352 1.693 0.564 11703
0.352 1.694 0.559 11787
0.352 1.696 0.554 9909
0.439 2.111 0.652 5128
0.357 1.721 0.550 4045
0.358 1.722 0.545 4766
0.447 2.153 0.643 3539
0.448 2.154 0.637 5640
0.446 2.148 0.629 4259
1.076 5.181 1.322 3117
1.077 5.185 1.306 2921
1.075 5.173 1.288 3327
1.071 5.154 1.267 4116
1.093 5.263 1.275 3117
0.606 2.915 0.754 1830
0.607 2.924 0.747 2442
0.606 2.918 0.737 2958
0.605 2.912 0.727 3302
0.607 2.922 0.720 3027
1.206 5.806 1.287 2705
1.161 5.589 1.226 2392
1.209 5.821 1.254 1805
1.189 5.725 1.218 2476
1.191 5.735 1.202 3071
1.194 5.746 1.187 3280
1.193 5.741 1.169 3604
0.392 1.888 0.465 5598
0.392 1.889 0.460 8508
0.393 1.890 0.454 10028
0.393 1.891 0.449 9703
0.391 1.884 0.442 8536
0.393 1.892 0.438 5968
0.395 1.901 0.434 3507
1.419 6.828 1.199 3013
1.418 6.824 1.178 3357
1.417 6.819 1.157 2694
1.414 6.806 1.134 2615
1.423 6.848 1.119 2548
1.426 6.866 1.101 2076
1.462 7.037 1.104 1798
1.458 7.017 1.080 1883
1.457 7.012 1.059 2393
1.457 7.015 1.038 2337
1.459 7.025 1.018 1535
1.425 6.858 0.976 1523
1.460 7.030 0.977 1585
1.458 7.017 0.954 1572
1.457 7.011 0.932 1623
1.455 7.006 0.911 1208
1.919 9.236 1.130 1054
1.458 7.018 0.870 1023
1.458 7.020 0.849 1191
1.459 7.022 0.828 1163
1.929 9.285 1.025 1558
1.931 9.295 0.998 1382
1.932 9.298 0.970 1053
1.932 9.300 0.943 772
1.940 9.341 0.918 515
1.361 6.554 0.665 337
1.362 6.555 0.646 387
1.362 6.557 0.626 403
1.361 6.550 0.606 327
1.358 6.536 0.586 301
1.358 6.537 0.566 291
0.431 2.051 1.602 10025
0.431 2.055 1.596 20051
0.432 2.059 1.590 20051
0.433 2.063 1.584 18634
0.435 2.074 1.583 17442
0.436 2.078 1.577 13592
0.438 2.089 1.575 9810
0.439 2.093 1.569 10800
0.440 2.097 1.563 11791
0.441 2.101 1.557 11791
0.445 2.118 1.559 10302
0.447 2.128 1.558 10027
0.465 2.216 1.609 8160
0.467 2.227 1.606 9142
0.468 2.231 1.600 13304
0.469 2.235 1.593 17466
0.469 2.233 1.583 20252
0.470 2.237 1.576 23055
0.472 2.247 1.574 21978
0.471 2.245 1.563 20178
0.472 2.249 1.557 19561
0.473 2.253 1.550 15777
0.472 2.251 1.539 12192
0.475 2.261 1.537 9236
0.477 2.272 1.534 6580
0.478 2.276 1.528 4638
0.476 2.266 1.513 2798
0.502 2.390 1.580 3364
0.501 2.387 1.569 4532
0.499 2.378 1.554 5348
0.500 2.382 1.547 6061
0.502 2.393 1.544 6727
0.506 2.410 1.545 6741
0.510 2.427 1.546 6085
0.513 2.445 1.547 5004
0.518 2.469 1.551 5036
0.521 2.480 1.548 5541
0.540 2.572 1.592 6668
0.541 2.576 1.584 7927
0.540 2.573 1.573 9214
0.544 2.591 1.573 8411
0.555 2.642 1.592 8571
0.558 2.660 1.592 9353
0.561 2.671 1.588 7076
0.563 2.682 1.584 5195
0.562 2.679 1.572 3960
0.581 2.765 1.609 4648
0.581 2.770 1.601 4862
0.584 2.781 1.596 3842
0.567 2.702 1.544 3490
0.587 2.796 1.584 3607
0.588 2.800 1.575 7412
0.589 2.804 1.567 10368
0.591 2.815 1.563 11493
0.595 2.833 1.561 11856
0.597 2.844 1.557 10762
0.598 2.848 1.548 8205
0.593 2.824 1.526 4479
0.614 2.926 1.566 4252
0.614 2.923 1.554 5403
0.614 2.927 1.546 6523
0.624 2.973 1.558 6499
0.607 2.893 1.508 7932
0.608 2.897 1.500 7631
0.628 2.992 1.535 8841
0.622 2.961 1.509 8591
0.618 2.943 1.491 7898
0.625 2.975 1.495 8638
0.630 3.000 1.496 11960
0.631 3.004 1.488 9084
0.336 1.599 0.839 6805
0.336 1.601 0.835 7937
0.641 3.051 1.477 8324
0.641 3.055 1.468 7340
0.340 1.621 0.827 5943
0.338 1.609 0.816 5634
0.338 1.611 0.812 7504
0.339 1.613 0.807 7895
0.340 1.622 0.805 5722
0.342 1.631 0.804 3977
0.341 1.626 0.796 3658
0.340 1.620 0.788 3031
0.706 3.361 1.499 5111
0.707 3.365 1.489 6723
0.707 3.369 1.480 6406
0.710 3.380 1.473 5732
0.709 3.377 1.460 4994
0.705 3.359 1.441 6680
0.715 3.406 1.448 8296
0.719 3.424 1.444 10718
0.720 3.428 1.434 7435
0.723 3.446 1.429 4917
0.723 3.442 1.417 5286
0.749 3.570 1.453 3879
0.750 3.574 1.442 3128
0.760 3.621 1.448 3791
0.761 3.625 1.437 5899
0.763 3.636 1.429 5648
0.767 3.654 1.424 4441
0.779 3.709 1.431 4442
0.781 3.720 1.423 5524
0.786 3.746 1.419 7062
0.789 3.757 1.411 5751
0.806 3.841 1.427 6997
0.809 3.852 1.418 8218
0.809 3.856 1.407 8025
0.810 3.859 1.396 7363
0.814 3.878 1.389 5807
0.820 3.903 1.385 5856
0.825 3.929 1.381 3991
0.858 4.088 1.418 3355
0.864 4.114 1.413 3398
0.866 4.125 1.403 2926
0.857 4.084 1.378 2549
0.877 4.177 1.393 4268
0.892 4.247 1.401 3544
0.894 4.258 1.390 4631
0.896 4.269 1.380 4506
0.903 4.302 1.376 5137
0.904 4.306 1.363 7131
0.905 4.309 1.351 5836
0.907 4.320 1.340 3575
0.357 1.700 0.597 3961
0.357 1.701 0.592 7483
0.356 1.695 0.585 9637
0.356 1.696 0.580 8214
0.358 1.705 0.577 8581
0.358 1.706 0.572 9746
0.358 1.707 0.567 7275
0.359 1.709 0.562 6656
0.359 1.710 0.558 4835
0.446 2.125 0.656 4381
0.446 2.127 0.650 5790
0.448 2.135 0.645 7150
0.450 2.144 0.641 6751
0.454 2.161 0.638 5566
0.456 2.170 0.634 4142
1.087 5.179 1.322 3776
1.088 5.183 1.306 3495
1.086 5.171 1.288 3693
1.083 5.159 1.269 4085
1.104 5.261 1.275 3316
0.610 2.906 0.753 2318
0.612 2.915 0.746 2087
1.175 5.597 1.297 2041
1.177 5.607 1.282 2048
1.183 5.633 1.270 2620
1.183 5.637 1.253 2635
1.174 5.594 1.228 2745
1.223 5.826 1.255 1804
1.201 5.722 1.218 3174
1.204 5.733 1.202 3448
1.204 5.736 1.185 3706
1.205 5.739 1.169 4384
1.204 5.734 1.150 3117
1.206 5.745 1.135 2023
1.415 6.741 1.288 2208
1.414 6.736 1.267 1988
0.400 1.906 0.446 2865
0.400 1.907 0.440 3272
1.439 6.853 1.224 3313
1.433 6.825 1.199 2930
1.430 6.813 1.177 3363
1.431 6.816 1.157 2719
1.430 6.811 1.135 2550
1.437 6.845 1.119 2460
1.442 6.870 1.102 2180
1.478 7.042 1.105 1935
1.473 7.014 1.080 1929
1.472 7.009 1.059 2488
1.472 7.012 1.038 2451
1.474 7.022 1.018 1644
1.439 6.855 0.976 1592
1.475 7.027 0.977 1844
1.474 7.021 0.955 1694
1.471 7.008 0.932 1673
1.472 7.011 0.912 1196
1.938 9.232 1.130 1176
1.939 9.235 1.103 1117
1.475 7.025 0.850 1195
1.950 9.286 1.053 1294
1.950 9.289 1.025 1695
1.951 9.291 0.998 1489
1.951 9.294 0.970 1117
1.957 9.319 0.945 805
1.960 9.337 0.918 645
1.961 9.339 0.891 431
1.961 9.341 0.863 316
1.376 6.554 0.626 315
0.192 0.914 0.183 250
0.435 2.050 1.602 9610
0.436 2.054 1.596 19221
0.437 2.058 1.590 19221
0.438 2.062 1.584 17726
0.440 2.073 1.583 16383
0.441 2.077 1.577 13045
0.443 2.087 1.575 10006
0.444 2.092 1.569 11187
0.445 2.096 1.563 12369
0.446 2.100 1.557 12369
0.450 2.117 1.559 11087
0.452 2.127 1.558 10943
0.453 2.131 1.552 8735
0.471 2.219 1.602 8540
0.472 2.223 1.596 12771
0.475 2.234 1.593 17100
0.474 2.232 1.583 19830
0.475 2.236 1.576 22657
0.476 2.240 1.570 21861
0.477 2.244 1.563 20631
0.478 2.248 1.557 20197
0.478 2.252 1.550 16489
0.478 2.249 1.539 12897
0.480 2.260 1.537 9305
0.482 2.271 1.534 5945
0.483 2.275 1.528 4111
0.508 2.391 1.591 2421
0.507 2.388 1.580 3564
0.507 2.386 1.569 4766
0.505 2.377 1.554 5581
0.506 2.381 1.547 6782
0.507 2.385 1.540 7608
0.510 2.402 1.541 7137
0.514 2.420 1.542 6134
0.519 2.444 1.547 4916
0.524 2.468 1.551 5019
0.527 2.479 1.548 5578
0.546 2.570 1.592 7364
0.547 2.574 1.584 8917
0.548 2.578 1.576 10471
0.550 2.589 1.573 9658
0.561 2.641 1.592 9298
0.565 2.659 1.592 10410
0.567 2.670 1.588 8177
0.569 2.681 1.584 6324
0.569 2.678 1.572 4416
0.587 2.764 1.609 4219
0.589 2.775 1.604 4377
0.592 2.786 1.600 4068
0.593 2.790 1.592 3598
0.594 2.794 1.584 3600
0.594 2.799 1.575 6474
0.595 2.803 1.567 9346
0.599 2.821 1.566 10513
0.601 2.831 1.561 10719
0.604 2.842 1.557 9335
0.603 2.840 1.545 7312
0.598 2.816 1.523 4631
0.620 2.917 1.563 4866
0.619 2.914 1.551 5802
0.621 2.925 1.546 6638
0.619 2.915 1.530 6729
0.614 2.891 1.508 8225
0.615 2.895 1.500 8042
0.635 2.990 1.535 8999
0.629 2.959 1.509 8667
0.626 2.949 1.494 8404
0.632 2.974 1.495 8840
0.637 2.999 1.496 12239
0.638 3.003 1.488 9960
0.637 3.000 1.476 6610
0.647 3.046 1.486 6501
0.648 3.050 1.477 8125
0.652 3.068 1.474 6680
0.656 3.086 1.472 5416
0.343 1.615 0.819 6100
0.344 1.617 0.815 6695
0.344 1.619 0.810 5794
0.710 3.344 1.539 3789
0.708 3.334 1.523 3124
0.344 1.618 0.793 3000
0.346 1.627 0.791 2623
0.714 3.360 1.499 5025
0.716 3.371 1.492 7056
0.718 3.382 1.485 7442
0.719 3.386 1.475 7206
0.720 3.389 1.466 5635
0.719 3.386 1.453 6932
0.725 3.411 1.451 9764
0.727 3.422 1.444 11619
0.726 3.419 1.431 7997
0.732 3.444 1.429 6227
0.732 3.448 1.419 6754
0.758 3.568 1.453 4744
0.309 1.453 0.657 3795
0.767 3.612 1.445 3499
0.770 3.623 1.437 5286
0.772 3.634 1.429 5638
0.773 3.638 1.418 5304
0.775 3.648 1.410 4330
0.793 3.733 1.428 5213
0.797 3.751 1.422 7258
0.799 3.762 1.413 5765
0.814 3.832 1.425 6156
0.818 3.850 1.418 7887
0.819 3.854 1.407 8153
0.818 3.850 1.393 7412
0.822 3.868 1.387 5644
0.829 3.901 1.385 6429
0.833 3.920 1.378 4261
0.860 4.049 1.407 2926
0.875 4.119 1.416 3003
0.877 4.130 1.406 2542
0.861 4.052 1.369 2166
0.887 4.175 1.393 3957
0.900 4.237 1.398 3880
0.904 4.256 1.390 5111
0.905 4.259 1.378 4317
0.913 4.300 1.376 4305
0.914 4.304 1.363 6850
0.915 4.307 1.351 5924
0.579 2.728 0.892 4337
0.578 2.723 0.882 3869
0.576 2.710 0.870 3632
0.365 1.717 0.591 3770
0.363 1.710 0.584 6549
0.364 1.712 0.579 8271
0.364 1.713 0.574 7951
0.363 1.707 0.567 6635
0.363 1.708 0.562 5757
0.363 1.709 0.558 5520
0.365 1.718 0.554 4207
0.461 2.171 0.661 3704
0.461 2.172 0.655 2331
0.462 2.174 0.648 2463
0.462 2.175 0.642 3336
1.099 5.173 1.337 3373
1.100 5.177 1.322 4266
1.100 5.180 1.306 3858
1.098 5.168 1.288 3890
1.095 5.156 1.269 4111
1.119 5.265 1.277 3537
1.122 5.284 1.265 2255
0.617 2.906 0.744 1820
0.619 2.916 0.737 4086
0.621 2.925 0.730 6779
0.622 2.926 0.722 7763
0.624 2.936 0.715 7082
0.624 2.937 0.706 3992
1.213 5.709 1.233 2496
1.213 5.712 1.216 4097
1.216 5.722 1.201 3896
1.218 5.733 1.185 4028
1.217 5.728 1.167 5075
1.217 5.731 1.150 3784
1.220 5.742 1.135 2413
0.403 1.896 0.456 2697
0.403 1.897 0.450 3876
0.403 1.897 0.445 4808
0.403 1.898 0.439 5255
0.403 1.899 0.434 4708
1.454 6.845 1.203 2836
1.445 6.802 1.175 3288
1.447 6.812 1.157 2593
1.471 6.923 1.152 2404
1.478 6.956 1.136 2466
1.460 6.875 1.104 2421
1.497 7.046 1.107 2052
1.489 7.011 1.080 1896
1.488 7.006 1.059 2462
1.489 7.008 1.038 2434
1.493 7.026 1.019 1754
1.493 7.029 0.998 1795
1.492 7.023 0.977 2034
1.491 7.018 0.955 1781
1.490 7.013 0.933 1691
1.490 7.015 0.912 1184
1.962 9.235 1.131 1234
1.961 9.230 1.103 1187
1.960 9.225 1.075 1271
1.972 9.282 1.053 1427
1.972 9.284 1.025 1783
1.973 9.287 0.998 1607
1.973 9.289 0.970 1222
1.982 9.330 0.946 998
1.982 9.332 0.918 865
1.983 9.334 0.891 552
1.983 9.336 0.863 372
0.440 2.049 1.602 9013
0.441 2.053 1.596 18027
0.442 2.057 1.590 18027
0.443 2.061 1.584 16561
0.445 2.072 1.583 15163
0.448 2.082 1.581 12299
0.450 2.093 1.579 9990
0.451 2.097 1.573 11202
0.450 2.095 1.563 12451
0.451 2.099 1.557 12451
0.455 2.116 1.559 11414
0.457 2.126 1.558 11464
0.458 2.130 1.552 9174
0.475 2.212 1.598 7472
0.478 2.222 1.596 11565
0.480 2.233 1.593 15880
0.479 2.230 1.583 18580
0.480 2.235 1.576 21483
0.481 2.239 1.570 21040
0.482 2.243 1.563 20348
0.483 2.247 1.557 20098
0.484 2.251 1.550 16481
0.483 2.248 1.539 12930
0.485 2.259 1.537 8909
0.488 2.269 1.534 5116
0.489 2.273 1.528 3475
0.514 2.390 1.591 2528
0.513 2.387 1.580 3623
0.514 2.391 1.573 4733
0.511 2.376 1.554 5708
0.510 2.373 1.543 7472
0.512 2.384 1.540 8475
0.515 2.394 1.537 7599
0.518 2.412 1.538 6257
0.525 2.442 1.547 4691
0.530 2.467 1.551 4843
0.551 2.565 1.599 5617
0.552 2.569 1.592 7832
0.553 2.573 1.584 9517
0.554 2.577 1.576 11202
0.556 2.588 1.573 10418
0.567 2.640 1.592 9637
0.571 2.657 1.592 11049
0.573 2.668 1.588 9029
0.576 2.679 1.584 7319
0.569 2.649 1.557 5454
0.594 2.763 1.609 3788
0.598 2.781 1.608 3995
0.598 2.785 1.600 4271
0.598 2.782 1.588 4506
0.600 2.793 1.584 3866
0.601 2.797 1.575 5876
0.602 2.801 1.567 8422
0.606 2.819 1.566 9547
0.608 2.830 1.561 9370
0.611 2.841 1.557 7660
0.610 2.838 1.545 6108
0.603 2.807 1.519 4524
0.625 2.909 1.559 5379
0.626 2.913 1.551 6217
0.627 2.917 1.542 6819
0.628 2.921 1.534 7112
0.623 2.897 1.512 8145
0.622 2.894 1.500 8085
0.642 2.989 1.535 8562
0.636 2.958 1.509 7947
0.633 2.947 1.494 8390
0.639 2.972 1.495 8552
0.644 2.997 1.496 11966
0.645 3.001 1.488 10365
0.345 1.604 0.843 10212
0.345 1.606 0.838 10339
0.346 1.608 0.833 8747
0.346 1.610 0.829 7462
0.345 1.605 0.821 5715
0.345 1.607 0.816 4262
0.347 1.616 0.815 3845
0.667 3.103 1.447 3598
0.350 1.627 0.809 3773
0.349 1.622 0.801 4218
0.347 1.617 0.793 3097
0.722 3.361 1.512 2421
0.723 3.365 1.502 4944
0.726 3.376 1.495 7259
0.726 3.380 1.485 8129
0.729 3.391 1.478 8285
0.730 3.395 1.468 6626
0.729 3.391 1.456 8027
0.733 3.410 1.451 11073
0.734 3.413 1.441 12122
0.734 3.417 1.431 8339
0.740 3.443 1.429 7298
0.741 3.446 1.419 7786
0.766 3.566 1.453 5307
0.314 1.460 0.660 4276
0.314 1.461 0.656 3821
0.778 3.621 1.437 4563
0.779 3.625 1.426 5527
0.781 3.636 1.418 6006
0.784 3.647 1.410 4601
0.803 3.738 1.430 5219
0.806 3.749 1.422 7241
0.810 3.767 1.416 5997
0.820 3.815 1.420 5532
0.827 3.848 1.418 7336
0.828 3.852 1.407 7957
0.827 3.848 1.393 7549
0.829 3.859 1.384 5712
0.838 3.899 1.385 6374
0.840 3.910 1.376 4092
0.865 4.025 1.400 3229
0.864 4.021 1.385 2871
0.865 4.024 1.374 2456
0.870 4.050 1.369 2379
0.889 4.135 1.381 3580
0.910 4.235 1.398 3864
0.913 4.246 1.388 4913
0.913 4.250 1.375 3797
0.925 4.306 1.378 3551
0.926 4.309 1.365 6052
0.925 4.305 1.351 5552
0.588 2.734 0.894 4906
0.586 2.729 0.884 3832
0.367 1.707 0.594 3908
0.367 1.708 0.589 5334
0.363 1.687 0.578 6294
0.364 1.696 0.575 12314
0.365 1.697 0.570 15359
0.365 1.698 0.565 13845
0.365 1.699 0.561 12567
0.367 1.708 0.558 10031
0.367 1.709 0.553 7598
0.368 1.711 0.548 5250
0.465 2.163 0.653 3579
0.467 2.172 0.648 4418
0.470 2.189 0.646 8181
0.471 2.190 0.639 11053
0.471 2.192 0.633 7415
1.113 5.177 1.306 3627
1.110 5.166 1.288 3574
1.108 5.154 1.269 3765
1.131 5.263 1.277 3658
0.627 2.918 0.756 4331
0.628 2.920 0.747 6507
0.628 2.922 0.739 6052
0.627 2.916 0.729 3478
1.208 5.620 1.269 2947
1.208 5.623 1.252 3457
1.206 5.611 1.232 3161
1.228 5.713 1.235 3129
1.227 5.709 1.216 4711
1.229 5.719 1.201 4143
1.230 5.722 1.184 3956
1.230 5.725 1.167 5092
1.231 5.728 1.150 3845
0.409 1.901 0.463 2638
0.409 1.902 0.457 5852
0.409 1.903 0.451 8889
0.409 1.904 0.446 11176
0.409 1.905 0.440 11587
0.408 1.898 0.434 10033
0.408 1.899 0.428 6947
0.408 1.900 0.423 3756
1.485 6.909 1.171 2370
1.487 6.919 1.152 2554
1.493 6.945 1.135 2679
1.477 6.871 1.104 2587
1.518 7.066 1.110 2021
1.507 7.015 1.082 1770
1.505 7.002 1.059 2342
1.505 7.005 1.038 2298
1.511 7.030 1.020 1814
1.510 7.025 0.998 1962
1.510 7.027 0.977 2151
1.509 7.022 0.956 1820
1.506 7.009 0.933 1686
1.917 8.919 1.125 1222
1.921 8.938 1.100 1310
1.983 9.225 1.103 1170
1.981 9.220 1.075 1400
1.987 9.246 1.050 1566
1.996 9.287 1.026 1833
1.996 9.290 0.998 1743
1.995 9.284 0.970 1378
2.004 9.325 0.946 1251
2.005 9.327 0.918 1149
2.005 9.330 0.891 694
2.005 9.332 0.863 420
2.006 9.334 0.835 346
0.445 2.048 1.602 8540
0.446 2.052 1.596 17080
0.447 2.056 1.590 17080
0.448 2.060 1.584 15527
0.450 2.071 1.583 13993
0.453 2.081 1.581 11731
0.455 2.092 1.579 10201
0.456 2.096 1.573 11326
0.455 2.093 1.563 12470
0.456 2.098 1.557 12470
0.460 2.114 1.559 11756
0.462 2.125 1.558 12100
0.463 2.129 1.552 9746
0.462 2.126 1.541 7432
0.484 2.227 1.600 9685
0.485 2.232 1.593 13922
0.485 2.229 1.583 16746
0.486 2.233 1.576 19941
0.487 2.237 1.570 19958
0.487 2.242 1.563 19936
0.488 2.246 1.557 19897
0.489 2.250 1.550 16297
0.489 2.247 1.539 12750
0.491 2.258 1.537 8324
0.509 2.341 1.580 4675
0.513 2.358 1.582 3320
0.518 2.382 1.587 2608
0.519 2.386 1.580 3618
0.520 2.390 1.573 4629
0.516 2.374 1.554 5939
0.516 2.372 1.543 8571
0.518 2.382 1.540 9650
0.519 2.386 1.533 8319
0.523 2.404 1.534 6506
0.525 2.414 1.531 4666
0.535 2.459 1.548 4461
0.557 2.563 1.599 6271
0.558 2.568 1.592 8454
0.559 2.572 1.584 10210
0.562 2.583 1.580 12015
0.563 2.587 1.573 11292
0.575 2.645 1.596 9911
0.578 2.656 1.592 11708
0.579 2.660 1.584 10097
0.581 2.671 1.580 8646
0.577 2.655 1.561 7068
0.577 2.652 1.549 4939
0.601 2.765 1.601 4108
0.602 2.770 1.593 4921
0.603 2.774 1.584 5735
0.606 2.785 1.580 4598
0.608 2.796 1.575 5366
0.609 2.800 1.567 7079
0.613 2.818 1.566 8066
0.615 2.829 1.561 7545
0.618 2.840 1.557 5716
0.611 2.809 1.531 4495
0.609 2.799 1.516 4235
0.632 2.907 1.559 5614
0.633 2.911 1.551 6621
0.634 2.915 1.542 7470
0.635 2.919 1.534 8057
0.636 2.923 1.525 8802
0.631 2.899 1.503 8377
0.650 2.987 1.535 8171
0.643 2.956 1.509 6500
0.639 2.939 1.491 7707
0.646 2.971 1.495 7863
0.650 2.989 1.493 11685
0.652 3.000 1.488 10619
0.653 3.004 1.479 7956
0.662 3.043 1.486 8428
0.664 3.054 1.480 9035
0.350 1.610 0.829 8334
0.350 1.612 0.824 9156
0.351 1.614 0.819 9691
0.353 1.623 0.818 8589
0.353 1.624 0.813 6442
0.354 1.626 0.809 4289
0.724 3.330 1.523 3784
0.728 3.348 1.519 3809
0.729 3.352 1.509 2907
0.731 3.363 1.502 5052
0.734 3.374 1.495 7517
0.736 3.385 1.488 8803
0.737 3.389 1.478 9425
0.739 3.400 1.471 8131
0.737 3.390 1.456 9363
0.741 3.408 1.451 11764
0.744 3.419 1.444 12150
0.744 3.423 1.434 8495
0.748 3.441 1.429 8146
0.751 3.452 1.422 8491
0.775 3.564 1.453 5614
0.317 1.459 0.660 4429
0.318 1.460 0.656 3865
0.785 3.612 1.434 3786
0.786 3.616 1.424 5461
0.789 3.626 1.416 6617
0.791 3.637 1.408 4587
0.814 3.743 1.433 5277
0.817 3.754 1.424 6847
0.819 3.765 1.416 6495
0.820 3.769 1.405 6006
0.836 3.846 1.418 6726
0.837 3.850 1.407 7662
0.836 3.846 1.393 7614
0.837 3.850 1.382 5962
0.848 3.897 1.385 6395
0.848 3.901 1.374 4049
0.876 4.030 1.402 3707
0.874 4.019 1.385 2975
0.876 4.030 1.376 2437
0.882 4.055 1.371 2856
0.904 4.155 1.388 3205
0.921 4.233 1.398 3869
0.921 4.237 1.386 4720
0.917 4.218 1.367 3642
0.936 4.303 1.378 3245
0.937 4.307 1.365 5211
0.937 4.310 1.353 5067
0.594 2.733 0.894 4788
0.595 2.735 0.886 5869
0.595 2.737 0.878 5812
0.370 1.700 0.587 5727
0.368 1.694 0.580 5864
0.370 1.702 0.577 7888
0.372 1.711 0.574 11166
0.372 1.712 0.569 11766
0.371 1.706 0.562 8960
0.371 1.707 0.558 9191
0.372 1.708 0.553 10315
0.373 1.717 0.550 7234
0.474 2.177 0.656 6449
0.475 2.186 0.652 5525
0.477 2.195 0.647 4684
0.479 2.204 0.643 3228
0.481 2.213 0.638 4121
0.482 2.215 0.632 6196
0.480 2.209 0.623 5300
1.143 5.257 1.293 3725
1.144 5.260 1.277 3527
0.634 2.917 0.756 2824
0.635 2.918 0.747 2797
0.635 2.920 0.739 3906
0.637 2.929 0.732 6264
0.637 2.931 0.723 7182
0.638 2.933 0.715 6147
0.640 2.942 0.707 3722
1.242 5.710 1.235 3702
1.241 5.706 1.216 4729
1.242 5.709 1.200 4151
1.244 5.719 1.184 3487
1.244 5.722 1.167 4237
1.245 5.725 1.150 3267
1.299 5.972 1.176 1945
0.415 1.909 0.458 2558
0.415 1.910 0.453 3858
0.414 1.903 0.446 5916
0.414 1.904 0.440 8191
0.414 1.905 0.435 9460
0.414 1.906 0.429 7726
0.413 1.899 0.423 4596
0.413 1.900 0.417 2520
1.504 6.915 1.152 2645
1.511 6.949 1.136 2905
1.514 6.959 1.117 2952
1.569 7.215 1.131 2077
1.571 7.226 1.111 1893
1.522 6.998 1.059 2058
1.524 7.009 1.039 2078
1.530 7.034 1.021 2009
1.529 7.029 0.999 2121
1.527 7.024 0.977 2139
1.526 7.018 0.956 1763
1.525 7.013 0.934 1609
1.939 8.915 1.125 1432
1.943 8.933 1.100 1520
1.958 9.005 1.080 1282
2.004 9.215 1.075 1527
2.006 9.226 1.048 1811
2.022 9.298 1.028 1989
2.023 9.300 1.000 2040
2.020 9.287 0.971 1703
2.027 9.320 0.946 1757
2.027 9.322 0.918 1701
2.028 9.325 0.891 993
2.028 9.327 0.863 571
2.029 9.329 0.835 586
2.029 9.331 0.807 489
0.200 0.920 0.199 297
0.200 0.920 0.196 300
0.202 0.928 0.194 287
0.200 0.920 0.191 258
0.450 2.047 1.602 7693
0.451 2.051 1.596 15387
0.452 2.055 1.590 15387
0.452 2.059 1.584 13911
0.455 2.070 1.583 12493
0.457 2.080 1.581 10815
0.459 2.091 1.579 9870
0.460 2.095 1.573 10809
0.460 2.093 1.563 11764
0.461 2.097 1.557 11764
0.464 2.113 1.559 11481
0.467 2.124 1.558 12196
0.467 2.128 1.552 9894
0.468 2.132 1.545 7592
0.489 2.226 1.600 7336
0.490 2.231 1.593 11203
0.490 2.228 1.583 14166
0.490 2.232 1.576 17644
0.491 2.236 1.570 18066
0.492 2.240 1.563 18620
0.493 2.245 1.557 18753
0.494 2.249 1.550 15265
0.493 2.246 1.539 11864
0.496 2.257 1.537 7766
0.514 2.340 1.580 5427
0.516 2.350 1.577 3948
0.497 2.262 1.513 3307
0.524 2.385 1.580 3630
0.526 2.396 1.577 4451
0.520 2.367 1.550 6191
0.521 2.371 1.543 9321
0.522 2.375 1.536 10343
0.524 2.385 1.533 8795
0.526 2.396 1.530 6680
0.529 2.406 1.527 4837
0.561 2.551 1.603 4732
0.561 2.556 1.595 6641
0.564 2.566 1.592 8663
0.565 2.571 1.584 10376
0.567 2.581 1.580 12259
0.568 2.585 1.573 11599
0.581 2.644 1.596 9620
0.583 2.655 1.592 11704
0.584 2.659 1.584 10663
0.587 2.670 1.580 9654
0.583 2.653 1.561 8361
0.584 2.657 1.553 6014
0.594 2.702 1.567 5129
0.607 2.761 1.589 5669
0.608 2.765 1.581 6553
0.595 2.708 1.540 5334
0.614 2.794 1.575 4865
0.615 2.798 1.567 5807
0.619 2.816 1.566 6560
0.623 2.834 1.565 5915
0.625 2.845 1.560 4282
0.615 2.801 1.527 3861
0.615 2.798 1.516 3962
0.638 2.906 1.559 5195
0.638 2.903 1.547 6648
0.639 2.907 1.539 8180
0.641 2.918 1.534 8747
0.643 2.929 1.529 9401
0.646 2.940 1.523 9336
0.656 2.986 1.535 8193
0.641 2.920 1.493 5473
0.645 2.937 1.491 6648
0.652 2.969 1.495 6751
0.656 2.987 1.493 10866
0.659 2.998 1.488 10397
0.661 3.009 1.482 8336
0.668 3.041 1.486 8922
0.672 3.059 1.483 8790
0.675 3.070 1.477 7243
0.357 1.625 0.830 10365
0.356 1.620 0.823 13872
0.356 1.622 0.818 15124
0.357 1.624 0.813 13218
0.357 1.626 0.809 9188
0.358 1.628 0.804 4912
0.735 3.347 1.519 4184
0.731 3.329 1.500 3622
0.737 3.355 1.499 4804
0.741 3.373 1.495 6321
0.743 3.384 1.488 7774
0.744 3.388 1.478 9084
0.747 3.399 1.471 8845
0.744 3.388 1.456 10362
0.747 3.399 1.448 12080
0.751 3.417 1.444 11772
0.752 3.421 1.434 8186
0.756 3.439 1.429 7845
0.758 3.450 1.422 8230
0.762 3.468 1.417 5960
0.777 3.537 1.431 4390
0.322 1.467 0.658 3488
0.792 3.603 1.432 3234
0.792 3.607 1.421 5313
0.796 3.625 1.416 6489
0.821 3.738 1.444 5192
0.824 3.749 1.435 5452
0.826 3.760 1.427 6223
0.828 3.771 1.418 6577
0.828 3.767 1.405 6715
0.846 3.852 1.421 6229
0.847 3.855 1.410 7230
0.843 3.837 1.391 7171
0.845 3.848 1.382 5999
0.856 3.896 1.385 5929
0.857 3.899 1.374 3704
0.887 4.036 1.404 4261
0.883 4.017 1.385 2869
0.890 4.050 1.383 2421
0.892 4.061 1.373 3229
0.912 4.153 1.388 2857
0.930 4.231 1.398 3555
0.929 4.227 1.384 4317
0.926 4.216 1.367 3869
0.947 4.309 1.380 3023
0.947 4.312 1.368 4282
0.950 4.323 1.357 4591
0.951 4.327 1.344 4746
0.601 2.733 0.886 4604
0.603 2.743 0.880 3516
0.968 4.404 1.324 2389
0.375 1.708 0.584 5924
0.379 1.724 0.583 10821
0.377 1.718 0.576 8404
0.374 1.704 0.567 5685
0.375 1.705 0.562 9769
0.377 1.714 0.559 11593
0.378 1.723 0.556 8310
0.380 1.731 0.553 7252
0.382 1.740 0.550 8219
0.383 1.741 0.545 6661
0.381 1.735 0.538 3167
0.486 2.211 0.644 3622
0.489 2.227 0.642 3786
0.491 2.236 0.637 2804
1.134 5.160 1.288 2573
1.154 5.254 1.293 3491
1.155 5.258 1.277 3188
0.640 2.915 0.756 2851
0.641 2.917 0.747 3677
0.641 2.919 0.739 3935
0.642 2.920 0.730 5384
0.644 2.930 0.723 6699
0.644 2.931 0.715 6020
1.255 5.712 1.253 3910
1.256 5.715 1.236 3370
1.253 5.703 1.216 3860
1.254 5.706 1.200 3700
1.256 5.717 1.184 2716
0.414 1.882 0.471 2871
0.415 1.891 0.467 5424
0.416 1.892 0.461 10334
0.416 1.893 0.456 14199
0.416 1.894 0.450 14945
0.416 1.895 0.445 15892
0.416 1.895 0.439 17830
0.417 1.896 0.434 18256
0.417 1.897 0.428 13631
0.417 1.898 0.423 7371
0.419 1.906 0.418 4127
1.519 6.912 1.152 2606
1.526 6.946 1.136 2984
1.528 6.956 1.117 3162
1.583 7.204 1.130 2290
1.587 7.222 1.111 1908
1.535 6.987 1.058 1790
1.541 7.013 1.040 1884
1.545 7.031 1.021 2019
1.544 7.026 0.999 2021
1.542 7.020 0.977 1896
1.541 7.015 0.956 1600
1.540 7.010 0.934 1497
1.959 8.918 1.125 1477
1.960 8.921 1.099 1583
1.977 9.001 1.080 1415
2.024 9.211 1.075 1548
2.024 9.214 1.048 1956
2.045 9.309 1.029 2322
2.042 9.296 1.000 2449
2.039 9.283 0.971 2137
2.047 9.316 0.946 2297
2.047 9.318 0.918 2255
2.048 9.320 0.891 1320
2.048 9.322 0.863 804
2.049 9.324 0.835 898
2.049 9.326 0.807 798
2.048 9.321 0.779 429
0.202 0.919 0.196 421
0.202 0.920 0.194 373
0.202 0.920 0.191 286
0.455 2.046 1.602 6969
0.456 2.050 1.596 13939
0.457 2.054 1.590 13939
0.458 2.058 1.584 12538
0.460 2.069 1.583 11211
0.464 2.085 1.586 9997
0.466 2.096 1.584 9457
0.466 2.094 1.573 10056
0.465 2.091 1.563 10863
0.466 2.095 1.557 10863
0.470 2.112 1.559 10962
0.472 2.123 1.558 12082
0.473 2.127 1.552 9929
0.475 2.137 1.550 7785
0.476 2.141 1.543 5982
0.497 2.236 1.598 8473
0.495 2.227 1.583 11486
0.495 2.225 1.572 15545
0.496 2.229 1.565 16199
0.496 2.233 1.559 17079
0.497 2.237 1.552 17305
0.498 2.241 1.546 13995
0.499 2.245 1.539 10685
0.500 2.249 1.533 8069
0.518 2.332 1.576 6153
0.502 2.257 1.520 5446
0.503 2.261 1.513 5384
0.504 2.264 1.506 4581
0.532 2.394 1.577 4424
0.526 2.365 1.550 6721
0.527 2.369 1.543 10022
0.528 2.373 1.536 10998
0.530 2.384 1.533 9121
0.531 2.388 1.526 6742
0.535 2.405 1.527 5133
0.564 2.536 1.595 5461
0.568 2.554 1.595 6948
0.570 2.565 1.592 8650
0.571 2.569 1.584 10239
0.574 2.580 1.580 12114
0.575 2.584 1.573 11586
0.589 2.649 1.600 8963
0.591 2.660 1.596 11253
0.591 2.657 1.584 10897
0.592 2.661 1.576 10546
0.590 2.652 1.561 9398
0.591 2.656 1.553 6891
0.601 2.701 1.567 5901
0.612 2.753 1.585 6334
0.615 2.764 1.581 7055
0.602 2.706 1.540 6086
0.603 2.710 1.532 4852
0.611 2.749 1.542 4529
0.624 2.808 1.563 4836
0.631 2.839 1.569 4778
0.638 2.871 1.574 4659
0.638 2.868 1.562 4344
0.640 2.879 1.557 3968
0.647 2.911 1.563 4403
0.644 2.894 1.544 6278
0.644 2.898 1.535 8654
0.648 2.916 1.534 8919
0.651 2.927 1.529 9360
0.655 2.945 1.527 9685
0.664 2.984 1.535 8009
0.647 2.911 1.489 5823
0.650 2.922 1.484 5905
0.669 3.010 1.515 6734
0.665 2.993 1.496 9647
0.666 2.997 1.488 9200
0.675 3.036 1.495 8750
0.677 3.047 1.489 8928
0.680 3.058 1.483 8320
0.684 3.076 1.481 6921
0.686 3.087 1.475 5540
0.687 3.090 1.466 3905
0.357 1.607 0.812 5235
0.358 1.609 0.807 5987
0.361 1.625 0.809 7271
0.363 1.634 0.807 7852
0.364 1.636 0.802 5902
0.738 3.320 1.497 4321
0.742 3.338 1.493 4389
0.743 3.342 1.484 4349
0.750 3.375 1.485 5665
0.753 3.386 1.478 8096
0.755 3.397 1.471 9429
0.755 3.393 1.458 10397
0.755 3.397 1.448 10542
0.759 3.415 1.444 10010
0.762 3.426 1.437 7285
0.764 3.437 1.429 6663
0.767 3.448 1.422 7184
0.772 3.474 1.420 6537
0.778 3.499 1.418 4739
0.779 3.503 1.408 3918
0.799 3.594 1.429 3524
0.802 3.605 1.421 5600
0.804 3.615 1.413 6075
0.831 3.736 1.444 6207
0.833 3.747 1.435 5757
0.837 3.765 1.429 5727
0.838 3.769 1.418 5832
0.837 3.765 1.405 6378
0.858 3.857 1.423 5882
0.857 3.853 1.410 6641
0.851 3.827 1.388 7200
0.855 3.846 1.382 6074
0.866 3.893 1.385 5355
0.896 4.030 1.416 3812
0.897 4.033 1.404 4444
0.894 4.022 1.388 2718
0.905 4.070 1.390 2716
0.904 4.066 1.375 3722
0.902 4.055 1.359 3306
0.939 4.221 1.396 3307
0.935 4.203 1.377 4029
0.934 4.199 1.362 3931
0.958 4.306 1.380 3035
0.957 4.302 1.365 3450
0.961 4.321 1.357 3916
0.963 4.332 1.346 4224
0.611 2.747 0.890 3557
0.384 1.727 0.600 3338
0.383 1.721 0.593 4339
0.611 2.746 0.864 4846
0.385 1.731 0.585 4763
0.382 1.717 0.576 7356
0.382 1.718 0.571 10036
0.382 1.719 0.566 11945
0.386 1.736 0.565 11309
0.386 1.737 0.560 10726
0.386 1.738 0.555 10733
0.385 1.732 0.548 7314
0.489 2.199 0.656 4828
0.489 2.201 0.649 4179
0.488 2.195 0.641 4860
0.488 2.196 0.635 4573
0.495 2.228 0.635 3550
0.499 2.244 0.632 3076
1.169 5.259 1.294 3013
1.168 5.255 1.277 2623
1.206 5.424 1.297 2129
1.172 5.269 1.248 2182
1.203 5.408 1.260 1897
1.247 5.608 1.285 2051
1.249 5.619 1.270 2687
1.270 5.713 1.272 3516
1.271 5.716 1.255 3538
0.654 2.941 0.699 4060
0.654 2.942 0.690 3187
1.270 5.711 1.201 2915
1.270 5.714 1.184 1985
1.325 5.960 1.211 2110
1.324 5.955 1.192 2142
0.420 1.891 0.461 2731
0.421 1.892 0.456 4054
0.421 1.893 0.450 4202
0.421 1.894 0.445 3125
0.423 1.902 0.440 2522
0.425 1.911 0.436 2819
0.425 1.911 0.431 3813
0.424 1.905 0.424 4884
0.424 1.905 0.418 4334
0.424 1.906 0.413 3351
0.426 1.915 0.408 2820
1.546 6.952 1.117 2921
1.601 7.200 1.130 2395
1.603 7.211 1.110 1803
1.553 6.983 1.058 1648
1.559 7.009 1.040 1745
1.563 7.027 1.021 1922
1.561 7.022 0.999 1828
1.560 7.016 0.977 1586
1.798 8.086 1.082 1749
1.862 8.373 1.090 1728
1.996 8.975 1.132 1353
1.983 8.916 1.099 1376
2.002 9.003 1.081 1475
2.047 9.206 1.075 1517
2.048 9.209 1.048 2050
2.069 9.303 1.029 2825
2.068 9.298 1.001 2992
2.063 9.278 0.971 2736
2.069 9.303 0.945 2969
2.071 9.313 0.918 2861
2.071 9.315 0.891 1689
2.072 9.317 0.863 1121
2.072 9.319 0.835 1305
2.073 9.321 0.807 1211
2.071 9.315 0.779 658
0.204 0.919 0.196 583
0.204 0.919 0.194 512
0.204 0.919 0.191 380
0.204 0.919 0.189 288
0.459 2.045 1.602 6102
0.460 2.049 1.596 12205
0.461 2.053 1.590 12205
0.462 2.057 1.584 11139
0.464 2.068 1.583 10116
0.468 2.085 1.586 9058
0.470 2.095 1.584 8605
0.470 2.093 1.573 8944
0.469 2.090 1.563 9680
0.470 2.094 1.557 9680
0.474 2.111 1.559 10101
0.476 2.122 1.558 11613
0.478 2.132 1.556 9722
0.479 2.136 1.550 7916
0.482 2.147 1.548 5983
0.502 2.235 1.598 6100
0.498 2.220 1.578 9303
0.499 2.224 1.572 13555
0.500 2.228 1.565 14235
0.501 2.232 1.559 15206
0.502 2.236 1.552 15497
0.503 2.240 1.546 12400
0.504 2.244 1.539 9303
0.504 2.248 1.533 8671
0.505 2.252 1.526 8040
0.506 2.256 1.520 7986
0.507 2.260 1.513 7870
0.508 2.264 1.506 6715
0.539 2.400 1.581 4526
0.529 2.358 1.546 7321
0.531 2.368 1.543 10391
0.532 2.372 1.536 11176
0.533 2.376 1.529 9003
0.534 2.380 1.522 6352
0.541 2.411 1.531 5065
0.569 2.535 1.595 6063
0.573 2.553 1.595 6982
0.574 2.557 1.588 8276
0.576 2.568 1.584 9723
0.579 2.579 1.580 11526
0.580 2.583 1.573 11210
0.596 2.655 1.603 7984
0.597 2.659 1.596 10488
0.596 2.656 1.584 10696
0.597 2.660 1.576 11045
0.595 2.651 1.561 9918
0.596 2.655 1.553 7293
0.617 2.748 1.593 6405
0.618 2.752 1.585 6757
0.620 2.763 1.581 7156
0.607 2.705 1.540 6679
0.609 2.716 1.536 5508
0.615 2.741 1.539 4689
0.619 2.758 1.538 3370
0.640 2.852 1.576 5027
0.641 2.856 1.567 5895
0.642 2.860 1.559 6093
0.643 2.864 1.550 4970
0.647 2.882 1.549 3836
0.648 2.886 1.541 5831
0.649 2.890 1.532 8373
0.646 2.880 1.517 8440
0.657 2.926 1.529 8485
0.662 2.951 1.530 9126
0.666 2.969 1.528 7868
0.653 2.910 1.489 5924
0.655 2.921 1.484 5371
0.675 3.009 1.515 7282
0.674 3.006 1.503 8925
0.682 3.038 1.507 8414
0.683 3.042 1.498 9081
0.361 1.610 0.841 9720
0.362 1.612 0.837 9600
0.362 1.614 0.832 8979
0.363 1.616 0.827 8706
0.365 1.625 0.826 7599
0.365 1.627 0.821 5526
0.364 1.622 0.813 5292
0.364 1.624 0.809 8063
0.366 1.633 0.807 9075
0.367 1.635 0.802 6402
0.743 3.312 1.494 4780
0.746 3.323 1.487 4458
0.746 3.326 1.478 3880
0.747 3.330 1.468 3780
0.759 3.384 1.478 6730
0.762 3.395 1.471 9615
0.761 3.392 1.458 9907
0.762 3.396 1.448 8724
0.766 3.414 1.444 8326
0.769 3.425 1.437 6461
0.769 3.428 1.427 4742
0.775 3.454 1.425 4975
0.781 3.479 1.423 6263
0.783 3.490 1.415 5039
0.784 3.494 1.405 4345
0.808 3.599 1.432 3932
