-0.735 5.877 1.576 1928
-0.737 5.889 1.561 2191
-0.737 5.893 1.544 3196
-0.737 5.889 1.525 3383
-0.758 6.054 1.545 2323
-0.755 6.035 1.522 2446
-0.753 6.016 1.499 2686
-0.776 6.204 1.523 2638
-0.779 6.223 1.508 2744
-0.797 6.365 1.520 2780
-0.797 6.369 1.502 2728
-0.816 6.519 1.514 2245
-0.837 6.692 1.531 2095
-0.838 6.696 1.511 2366
-0.857 6.847 1.521 2404
-0.857 6.851 1.502 2437
-0.895 7.155 1.541 1978
-0.913 7.298 1.547 2282
-0.913 7.294 1.524 2715
-0.943 7.538 1.548 2405
-0.947 7.565 1.530 2592
-0.950 7.592 1.512 2356
-1.005 8.029 1.568 1969
-1.004 8.026 1.543 2015
-0.998 7.975 1.510 2608
-0.998 7.972 1.485 2149
-1.030 8.231 1.505 1568
-1.071 8.561 1.534 1982
-1.072 8.565 1.509 1722
-1.071 8.561 1.483 1376
-1.104 8.821 1.497 1301
-1.136 9.081 1.510 1303
-1.136 9.077 1.483 1535
-1.134 9.066 1.454 1439
-1.134 9.062 1.426 1159
-1.162 9.283 1.430 869
-1.161 9.279 1.402 657
-1.172 9.368 1.386 463
-1.175 9.388 1.361 289
-0.588 4.698 0.609 329
-0.588 4.699 0.595 516
-0.588 4.701 0.581 686
-0.587 4.694 0.567 882
-0.588 4.695 0.553 1276
-0.588 4.697 0.540 1621
-0.588 4.698 0.526 1667
-0.588 4.699 0.512 1604
-0.588 4.700 0.499 1600
-0.588 4.701 0.485 1514
-0.588 4.702 0.471 1334
-0.589 4.711 0.458 1242
-0.589 4.704 0.444 1065
-0.584 4.665 0.428 951
-0.581 4.643 0.413 1056
-0.580 4.636 0.399 1089
-0.580 4.636 0.385 797
-0.571 4.566 0.368 515
-0.571 4.559 0.355 605
-0.572 4.568 0.342 545
-0.570 4.552 0.328 652
-0.569 4.545 0.314 892
-0.569 4.546 0.301 1215
-0.569 4.546 0.288 1711
-0.568 4.539 0.274 1909
-0.568 4.539 0.261 1766
-0.568 4.539 0.248 1623
-0.568 4.540 0.235 1318
-0.567 4.532 0.221 858
-0.567 4.532 0.208 663
-0.567 4.532 0.195 548
-0.566 4.525 0.182 436
-0.566 4.525 0.169 368
-0.566 4.525 0.156 302
-0.567 4.533 0.142 311
-0.567 4.533 0.129 290
-0.567 4.533 0.116 268
-0.567 4.532 0.063 332
-0.567 4.532 0.050 422
-0.567 4.532 0.037 533
-0.566 4.523 0.024 648
-0.566 4.523 0.011 639
-0.566 4.523 -0.002 630
-0.566 4.522 -0.015 506
-0.567 4.530 -0.029 401
-0.564 4.506 -0.041 361
-0.562 4.489 -0.053 404
-0.562 4.489 -0.067 431
-0.562 4.488 -0.080 458
-0.563 4.495 -0.093 434
-0.563 4.503 -0.107 414
-0.562 4.494 -0.119 420
-0.562 4.493 -0.132 430
-0.561 4.485 -0.145 359
-0.561 4.484 -0.158 293
-0.269 2.191 1.704 3972
-0.270 2.195 1.697 7945
-0.270 2.200 1.691 7945
-0.273 2.224 1.698 7337
-0.275 2.241 1.701 7896
-0.277 2.258 1.704 6257
-0.282 2.295 1.720 6335
-0.282 2.300 1.713 6335
-0.281 2.291 1.698 6604
-0.282 2.296 1.691 7199
-0.283 2.307 1.689 6962
-0.285 2.318 1.687 7185
-0.286 2.329 1.685 6812
-0.290 2.359 1.696 7654
-0.288 2.344 1.676 7704
-0.288 2.342 1.665 8627
-0.288 2.346 1.658 7748
-0.289 2.351 1.651 6442
-0.300 2.441 1.700 7040
-0.300 2.445 1.693 6984
-0.300 2.443 1.682 6939
-0.301 2.454 1.679 5327
-0.300 2.445 1.664 3764
-0.304 2.476 1.674 4361
-0.315 2.568 1.721 5369
-0.317 2.579 1.718 5271
-0.317 2.583 1.710 5259
-0.318 2.588 1.703 5559
-0.313 2.552 1.671 6227
-0.315 2.563 1.667 6903
-0.315 2.568 1.660 7603
-0.326 2.653 1.701 8035
-0.326 2.658 1.694 8887
-0.325 2.649 1.678 10455
-0.325 2.646 1.666 11889
-0.326 2.657 1.663 10922
-0.326 2.655 1.651 7512
-0.334 2.721 1.679 5072
-0.335 2.732 1.675 4068
-0.336 2.736 1.667 3162
-0.347 2.823 1.706 4181
-0.347 2.828 1.698 5702
-0.348 2.832 1.689 6065
-0.347 2.823 1.674 5406
-0.346 2.820 1.662 4494
-0.347 2.825 1.653 5474
-0.347 2.829 1.645 5833
-0.350 2.847 1.645 4839
-0.362 2.949 1.688 6099
-0.362 2.946 1.676 8524
-0.363 2.958 1.671 10760
-0.365 2.969 1.666 12422
-0.364 2.967 1.654 11498
-0.366 2.978 1.649 10980
-0.368 2.996 1.648 9515
-0.368 3.001 1.639 8415
-0.369 3.005 1.631 5646
-0.381 3.101 1.668 5758
-0.393 3.204 1.708 7082
-0.394 3.208 1.699 11326
-0.394 3.206 1.686 15047
-0.393 3.203 1.673 14502
-0.394 3.208 1.664 10955
-0.393 3.205 1.651 8109
-0.394 3.209 1.642 7356
-0.410 3.342 1.693 7254
-0.399 3.254 1.640 7832
-0.401 3.265 1.634 10997
-0.401 3.269 1.624 8690
-0.412 3.359 1.654 6593
-0.412 3.357 1.641 5076
-0.426 3.469 1.680 5121
-0.426 3.473 1.670 7038
-0.438 3.571 1.702 7878
-0.442 3.604 1.704 7241
-0.439 3.573 1.678 8297
-0.442 3.599 1.677 8612
-0.442 3.603 1.666 6400
-0.452 3.680 1.687 6335
-0.453 3.692 1.679 7090
-0.454 3.696 1.668 6859
-0.453 3.686 1.652 7026
-0.452 3.683 1.638 5750
-0.449 3.658 1.615 4050
-0.463 3.772 1.649 3494
-0.486 3.959 1.712 2540
-0.486 3.956 1.697 4708
-0.485 3.953 1.683 6348
-0.485 3.950 1.669 5201
-0.487 3.969 1.663 3684
-0.490 3.988 1.657 4046
-0.491 4.000 1.648 4982
-0.494 4.027 1.645 3432
-0.501 4.082 1.653 5271
-0.502 4.087 1.641 7376
-0.502 4.091 1.629 8283
-0.504 4.103 1.620 6124
-0.514 4.188 1.637 4281
-0.517 4.208 1.630 6068
-0.521 4.242 1.629 4769
-0.526 4.283 1.629 3622
-0.529 4.309 1.625 3627
-0.532 4.336 1.620 5068
-0.533 4.340 1.607 7034
-0.534 4.352 1.597 5971
-0.537 4.371 1.590 4329
-0.545 4.442 1.599 5858
-0.543 4.424 1.579 6966
-0.559 4.556 1.608 4875
-0.561 4.567 1.597 3931
-0.566 4.609 1.595 3491
-0.568 4.628 1.587 3387
-0.567 4.617 1.569 3313
-0.565 4.599 1.548 3126
-0.563 4.588 1.530 3547
-0.565 4.599 1.519 3118
-0.586 4.777 1.558 2704
-0.588 4.788 1.546 3333
-0.589 4.800 1.534 2703
-0.594 4.842 1.531 1541
-0.607 4.944 1.546 2335
-0.607 4.948 1.531 2037
-0.631 5.141 1.570 1769
-0.577 4.698 1.431 2780
-0.562 4.581 1.384 2398
-0.563 4.584 1.370 3103
-0.563 4.588 1.357 3510
-0.564 4.591 1.344 3480
-0.651 5.302 1.516 3047
-0.574 4.674 1.337 2336
-0.566 4.609 1.306 2228
-0.675 5.497 1.516 1934
-0.572 4.662 1.290 1732
-0.572 4.657 1.275 1967
-0.723 5.890 1.561 1777
-0.724 5.894 1.544 3033
-0.723 5.891 1.525 3406
-0.742 6.048 1.543 2432
-0.740 6.029 1.520 2864
-0.739 6.018 1.499 3105
-0.762 6.206 1.523 2754
-0.762 6.210 1.505 2847
-0.783 6.375 1.522 3189
-0.783 6.379 1.504 2891
-0.802 6.529 1.516 1924
-0.822 6.694 1.531 2178
-0.823 6.706 1.513 2474
-0.841 6.849 1.521 2493
-0.841 6.853 1.502 2725
-0.842 6.856 1.481 1647
-0.832 6.775 1.445 2145
-0.897 7.304 1.526 2513
-0.926 7.540 1.548 2424
-0.930 7.575 1.532 2905
-0.932 7.594 1.512 2874
-0.935 7.614 1.493 1907
-0.987 8.036 1.544 1617
-0.978 7.970 1.509 2495
-0.978 7.966 1.484 2289
-1.016 8.272 1.511 1668
-1.051 8.563 1.534 2015
-1.052 8.567 1.509 1909
-1.053 8.579 1.485 1592
-1.083 8.824 1.497 1510
-1.114 9.076 1.509 1293
-1.114 9.072 1.482 1482
-1.112 9.061 1.453 1391
-1.113 9.064 1.426 1128
-1.140 9.286 1.430 1064
-1.139 9.282 1.402 749
-1.151 9.379 1.387 530
-1.153 9.390 1.361 359
-0.578 4.706 0.623 349
-0.577 4.699 0.609 488
-0.577 4.701 0.595 686
-0.577 4.702 0.581 849
-0.577 4.703 0.568 1059
-0.578 4.705 0.554 1530
-0.577 4.698 0.540 1965
-0.577 4.699 0.526 2019
-0.577 4.700 0.512 1923
-0.577 4.701 0.499 1863
-0.577 4.702 0.485 1681
-0.577 4.703 0.471 1465
-0.578 4.712 0.458 1382
-0.578 4.705 0.444 1213
-0.573 4.667 0.428 1093
-0.569 4.636 0.412 1178
-0.569 4.637 0.399 1194
-0.569 4.638 0.385 851
-0.561 4.568 0.368 538
-0.561 4.568 0.355 624
-0.561 4.569 0.342 579
-0.559 4.554 0.328 623
-0.558 4.546 0.314 796
-0.558 4.547 0.301 1094
-0.558 4.547 0.288 1579
-0.557 4.540 0.274 1770
-0.557 4.540 0.261 1653
-0.557 4.541 0.248 1536
-0.557 4.541 0.235 1252
-0.557 4.533 0.221 791
-0.557 4.534 0.208 589
-0.557 4.534 0.195 483
-0.557 4.534 0.182 378
-0.556 4.526 0.169 304
-0.557 4.533 0.063 268
-0.557 4.533 0.050 354
-0.556 4.533 0.037 430
-0.555 4.525 0.024 511
-0.555 4.524 0.011 485
-0.555 4.524 -0.002 460
-0.556 4.531 -0.016 358
-0.556 4.531 -0.029 270
-0.551 4.491 -0.053 263
-0.552 4.498 -0.067 303
-0.552 4.497 -0.080 347
-0.552 4.497 -0.093 330
-0.553 4.504 -0.107 317
-0.552 4.495 -0.119 314
-0.551 4.487 -0.132 320
-0.551 4.486 -0.145 280
-0.266 2.191 1.704 4006
-0.266 2.196 1.697 8013
-0.267 2.200 1.691 8013
-0.270 2.224 1.698 7475
-0.272 2.241 1.701 8129
-0.274 2.259 1.704 6236
-0.278 2.295 1.720 5742
-0.279 2.300 1.713 5742
-0.278 2.292 1.698 6539
-0.278 2.296 1.691 7527
-0.280 2.307 1.689 7808
-0.281 2.318 1.687 8486
-0.282 2.329 1.685 7579
-0.286 2.360 1.696 8170
-0.285 2.351 1.680 7980
-0.284 2.342 1.665 8793
-0.285 2.347 1.658 7954
-0.285 2.351 1.651 6738
-0.295 2.435 1.696 7125
-0.296 2.439 1.689 6747
-0.296 2.444 1.682 6369
-0.297 2.448 1.675 4770
-0.297 2.453 1.668 3172
-0.310 2.557 1.724 3941
-0.311 2.561 1.717 5375
-0.312 2.573 1.714 5023
-0.313 2.584 1.710 4749
-0.314 2.588 1.703 5025
-0.310 2.559 1.675 6279
-0.311 2.564 1.667 7387
-0.312 2.575 1.664 8500
-0.322 2.654 1.701 7577
-0.323 2.665 1.698 8352
-0.321 2.649 1.678 10150
-0.321 2.647 1.666 11304
-0.322 2.658 1.663 10078
-0.322 2.655 1.651 7192
-0.330 2.721 1.679 5040
-0.330 2.726 1.671 4225
-0.332 2.737 1.667 3486
-0.330 2.721 1.648 4012
-0.343 2.828 1.698 5094
-0.343 2.826 1.686 5427
-0.341 2.816 1.670 4980
-0.342 2.821 1.662 4202
-0.343 2.825 1.653 4993
-0.343 2.830 1.645 5248
-0.345 2.848 1.645 4326
-0.358 2.949 1.688 5669
-0.357 2.947 1.676 7896
-0.359 2.958 1.671 9988
-0.360 2.970 1.666 11613
-0.360 2.967 1.654 10632
-0.362 2.986 1.653 10792
-0.362 2.990 1.644 10072
-0.364 3.001 1.639 9050
-0.364 2.999 1.627 6369
-0.375 3.094 1.664 6346
-0.388 3.197 1.704 6634
-0.388 3.202 1.695 10999
-0.389 3.206 1.686 14468
-0.388 3.204 1.673 13751
-0.389 3.208 1.664 10364
-0.389 3.206 1.651 8211
-0.389 3.210 1.642 7690
-0.401 3.307 1.676 6020
-0.395 3.261 1.643 8267
-0.396 3.266 1.634 11040
-0.396 3.270 1.624 8528
-0.409 3.374 1.661 6796
-0.410 3.379 1.651 5475
-0.420 3.462 1.677 4934
-0.420 3.466 1.667 7191
-0.432 3.564 1.698 7090
-0.427 3.518 1.666 6590
-0.432 3.566 1.675 7403
-0.433 3.571 1.664 7232
-0.434 3.582 1.657 5363
-0.446 3.681 1.687 5697
-0.448 3.692 1.679 6972
-0.448 3.697 1.668 6899
-0.447 3.687 1.652 6631
-0.447 3.684 1.638 5337
-0.459 3.783 1.666 4116
-0.457 3.773 1.649 3641
-0.471 3.886 1.682 2997
-0.480 3.957 1.697 4940
-0.479 3.954 1.683 6536
-0.480 3.958 1.671 5289
-0.480 3.963 1.660 3487
-0.483 3.982 1.654 3869
-0.485 4.001 1.648 5062
-0.487 4.020 1.642 3533
-0.495 4.083 1.653 4534
-0.496 4.088 1.641 6312
-0.496 4.092 1.629 7081
-0.498 4.104 1.620 5316
-0.508 4.189 1.637 4672
-0.511 4.216 1.633 6233
-0.513 4.235 1.626 5249
-0.519 4.284 1.629 3938
-0.522 4.303 1.622 3567
-0.526 4.337 1.620 4668
-0.526 4.341 1.607 6895
-0.525 4.330 1.590 5769
-0.536 4.424 1.607 3987
-0.532 4.391 1.582 5226
-0.536 4.418 1.577 6794
-0.552 4.556 1.608 4915
-0.554 4.568 1.597 3769
-0.559 4.610 1.595 3381
-0.561 4.629 1.587 3313
-0.561 4.626 1.571 3074
-0.558 4.600 1.548 2708
-0.556 4.589 1.530 3251
-0.558 4.600 1.519 2862
-0.579 4.777 1.558 2795
-0.581 4.789 1.546 3424
-0.582 4.801 1.534 2928
-0.587 4.842 1.531 1850
-0.600 4.952 1.548 2235
-0.600 4.949 1.531 1937
-0.623 5.142 1.570 1531
-0.570 4.699 1.431 2372
-0.555 4.582 1.384 2677
-0.556 4.585 1.370 3597
-0.556 4.589 1.357 3793
-0.557 4.592 1.344 3398
-0.642 5.295 1.514 3208
-0.640 5.277 1.493 2677
-0.559 4.610 1.306 2184
-0.559 4.614 1.292 1694
-0.566 4.670 1.292 1590
-0.565 4.658 1.275 1842
-0.567 4.677 1.265 1729
-0.715 5.896 1.544 2964
-0.714 5.892 1.525 3455
-0.713 5.881 1.504 2566
-0.730 6.022 1.519 3164
-0.730 6.019 1.499 3381
-0.749 6.176 1.516 2801
-0.752 6.203 1.503 3073
-0.774 6.384 1.524 3395
-0.774 6.388 1.505 2823
-0.776 6.399 1.488 2044
-0.813 6.703 1.532 1996
-0.814 6.715 1.514 2328
-0.830 6.850 1.521 2355
-0.831 6.854 1.502 2749
-0.831 6.858 1.481 1681
-0.822 6.777 1.445 2258
-0.887 7.313 1.527 2407
-0.914 7.541 1.548 2338
-0.919 7.584 1.533 3084
-0.922 7.603 1.514 3194
-0.923 7.615 1.493 2217
-0.923 7.611 1.469 1388
-0.966 7.971 1.509 2310
-0.966 7.968 1.484 2342
-1.002 8.266 1.510 1624
-1.038 8.565 1.534 1981
-1.039 8.569 1.509 1973
-1.040 8.581 1.485 1681
-1.070 8.825 1.497 1620
-1.123 9.264 1.538 1516
-1.125 9.276 1.512 1523
-1.099 9.062 1.453 1345
-1.126 9.284 1.457 1338
-1.125 9.280 1.429 1278
-1.126 9.284 1.402 847
-1.137 9.381 1.387 596
-1.139 9.392 1.361 410
-0.580 4.788 0.744 276
-0.578 4.766 0.728 354
-0.580 4.783 0.716 365
-0.580 4.785 0.702 254
-0.572 4.718 0.666 260
-0.572 4.719 0.652 303
-0.571 4.713 0.638 376
-0.572 4.715 0.624 495
-0.571 4.708 0.609 623
-0.570 4.702 0.595 837
-0.570 4.703 0.581 1001
-0.569 4.696 0.567 1219
-0.570 4.705 0.554 1770
-0.570 4.699 0.540 2301
-0.570 4.700 0.526 2360
-0.570 4.701 0.512 2213
-0.570 4.702 0.499 2064
-0.570 4.703 0.485 1787
-0.570 4.704 0.471 1561
-0.571 4.713 0.458 1482
-0.571 4.706 0.444 1316
-0.566 4.668 0.428 1162
-0.562 4.637 0.412 1246
-0.561 4.630 0.398 1274
-0.562 4.638 0.385 904
-0.555 4.576 0.369 540
-0.554 4.569 0.355 632
-0.554 4.570 0.342 596
-0.553 4.562 0.328 588
-0.551 4.547 0.314 684
-0.551 4.548 0.301 928
-0.551 4.548 0.288 1359
-0.551 4.549 0.275 1546
-0.552 4.549 0.261 1455
-0.552 4.549 0.248 1363
-0.551 4.542 0.235 1104
-0.550 4.534 0.221 689
-0.550 4.534 0.208 510
-0.550 4.535 0.195 416
-0.550 4.535 0.182 323
-0.550 4.535 0.169 255
-0.551 4.542 0.050 250
-0.550 4.534 0.037 300
-0.550 4.533 0.024 355
-0.549 4.525 0.011 325
-0.549 4.525 -0.002 301
-0.545 4.498 -0.080 274
-0.545 4.498 -0.093 254
-0.261 2.192 1.704 3953
-0.261 2.196 1.697 7907
-0.262 2.201 1.691 7907
-0.264 2.218 1.694 7543
-0.267 2.242 1.701 8354
-0.269 2.259 1.704 6312
-0.271 2.277 1.706 5360
-0.272 2.281 1.700 5360
-0.272 2.286 1.693 6616
-0.273 2.297 1.691 7880
-0.275 2.308 1.689 8680
-0.275 2.312 1.683 9825
-0.277 2.330 1.685 8433
-0.281 2.360 1.696 8659
-0.280 2.352 1.680 8239
-0.279 2.343 1.665 8765
-0.279 2.347 1.658 8005
-0.280 2.352 1.651 7021
-0.289 2.429 1.692 7227
-0.290 2.433 1.685 6669
-0.290 2.438 1.678 6111
-0.291 2.442 1.671 4391
-0.302 2.540 1.723 3027
-0.304 2.551 1.720 4172
-0.305 2.562 1.717 5428
-0.305 2.567 1.709 4917
-0.307 2.578 1.706 4487
-0.306 2.569 1.690 4862
-0.305 2.560 1.675 6248
-0.305 2.564 1.667 7679
-0.307 2.576 1.664 9303
-0.308 2.587 1.661 8158
-0.317 2.666 1.698 7688
-0.315 2.643 1.674 9645
-0.315 2.647 1.666 10397
-0.316 2.659 1.663 9028
-0.316 2.656 1.651 6744
-0.323 2.715 1.675 5076
-0.324 2.720 1.667 4467
-0.323 2.710 1.651 3928
-0.324 2.722 1.648 4651
-0.336 2.822 1.694 4537
-0.336 2.826 1.686 4866
-0.334 2.810 1.666 4638
-0.335 2.815 1.658 3956
-0.336 2.826 1.653 4478
-0.337 2.830 1.645 4595
-0.339 2.849 1.645 3781
-0.350 2.943 1.685 5137
-0.351 2.948 1.676 7084
-0.352 2.959 1.671 8930
-0.354 2.970 1.666 10421
-0.353 2.968 1.654 9470
-0.355 2.986 1.653 10240
-0.356 2.991 1.644 10262
-0.357 3.002 1.639 9336
-0.357 2.999 1.627 6825
-0.368 3.095 1.664 6915
-0.380 3.191 1.701 6045
-0.380 3.196 1.692 10229
-0.381 3.200 1.682 13419
-0.381 3.205 1.673 12425
-0.382 3.209 1.664 9559
-0.382 3.206 1.651 8406
-0.382 3.211 1.642 8066
-0.386 3.244 1.646 6393
-0.388 3.262 1.643 8395
-0.389 3.266 1.634 10622
-0.389 3.271 1.624 8013
-0.403 3.382 1.664 7344
-0.403 3.387 1.654 6835
-0.404 3.398 1.648 5233
-0.412 3.460 1.664 7631
-0.423 3.551 1.692 6486
-0.420 3.527 1.669 6390
-0.421 3.538 1.662 7138
-0.423 3.550 1.655 7158
-0.425 3.569 1.651 5315
-0.425 3.573 1.640 5117
-0.439 3.686 1.676 6576
-0.440 3.698 1.668 6771
-0.440 3.695 1.655 6269
-0.450 3.779 1.677 4978
-0.450 3.784 1.666 4502
-0.449 3.774 1.649 3822
-0.464 3.895 1.685 3996
-0.471 3.958 1.697 4845
-0.472 3.962 1.686 6258
-0.471 3.959 1.671 4827
-0.471 3.956 1.657 3214
-0.474 3.983 1.654 3721
-0.476 4.002 1.648 4921
-0.479 4.021 1.642 3501
-0.487 4.092 1.655 3692
-0.487 4.089 1.641 5065
-0.486 4.086 1.626 5690
-0.489 4.105 1.620 4305
-0.499 4.190 1.637 4995
-0.502 4.217 1.633 6211
-0.504 4.236 1.626 5666
-0.506 4.248 1.616 4127
-0.510 4.282 1.614 3660
-0.515 4.331 1.617 4200
-0.516 4.335 1.605 6433
-0.524 4.406 1.615 5413
-0.528 4.433 1.610 3574
-0.523 4.392 1.582 4577
-0.524 4.404 1.572 6576
-0.542 4.550 1.605 4783
-0.544 4.569 1.597 3546
-0.549 4.611 1.595 3201
-0.551 4.630 1.587 3310
-0.551 4.627 1.571 3059
-0.548 4.601 1.548 2597
-0.546 4.590 1.530 2865
-0.547 4.594 1.517 2593
-0.569 4.779 1.558 2680
-0.569 4.783 1.544 3246
-0.572 4.802 1.534 2935
-0.577 4.844 1.531 2180
-0.590 4.961 1.550 2017
-0.590 4.958 1.533 1706
-0.600 5.045 1.542 1714
-0.612 5.140 1.553 1889
-0.546 4.590 1.386 3004
-0.546 4.586 1.370 3874
-0.546 4.590 1.357 3667
-0.547 4.593 1.344 2875
-0.630 5.297 1.514 3581
-0.628 5.278 1.493 3031
-0.549 4.611 1.306 2201
-0.549 4.615 1.292 1564
-0.663 5.572 1.517 1458
-0.555 4.660 1.275 1631
-0.557 4.678 1.265 1775
-0.701 5.889 1.542 2962
-0.701 5.894 1.525 3490
-0.701 5.890 1.506 2874
-0.717 6.024 1.519 3203
-0.717 6.020 1.499 3378
-0.734 6.170 1.514 2774
-0.738 6.197 1.502 3244
-0.760 6.385 1.524 3265
-0.760 6.389 1.505 2663
-0.763 6.409 1.490 2353
-0.764 6.420 1.473 2052
-0.774 6.501 1.470 2198
-0.816 6.859 1.523 2075
-0.815 6.848 1.500 2509
-0.812 6.821 1.474 1613
-0.870 7.311 1.548 2275
-0.871 7.315 1.527 2527
-0.898 7.543 1.548 2100
-0.903 7.586 1.533 3073
-0.905 7.605 1.514 3350
-0.907 7.617 1.493 2470
-0.907 7.621 1.471 1490
-0.949 7.974 1.509 2077
-0.948 7.962 1.483 2267
-0.947 7.958 1.458 1566
-1.020 8.567 1.534 1942
-0.991 8.323 1.469 2015
-0.992 8.334 1.446 1744
-1.051 8.828 1.497 1614
-1.103 9.267 1.538 1692
-1.104 9.279 1.512 1714
-1.102 9.259 1.481 1430
-1.105 9.286 1.457 1550
-1.105 9.282 1.429 1470
-1.104 9.278 1.401 929
-1.117 9.383 1.387 620
-1.108 9.309 1.350 528
-0.570 4.789 0.744 422
-0.567 4.767 0.728 543
-0.569 4.785 0.716 561
-0.571 4.794 0.703 395
-0.563 4.727 0.667 330
-0.562 4.721 0.652 376
-0.561 4.714 0.638 467
-0.561 4.716 0.624 629
-0.561 4.709 0.609 778
-0.560 4.703 0.595 970
-0.560 4.704 0.581 1096
-0.559 4.698 0.567 1301
-0.560 4.707 0.554 1911
-0.559 4.700 0.540 2503
-0.560 4.701 0.526 2530
-0.560 4.702 0.512 2335
-0.560 4.703 0.499 2131
-0.560 4.704 0.485 1789
-0.560 4.705 0.471 1526
-0.561 4.714 0.458 1430
-0.560 4.707 0.444 1290
-0.556 4.669 0.428 1142
-0.552 4.638 0.412 1214
-0.551 4.631 0.398 1245
-0.552 4.640 0.385 880
-0.544 4.570 0.368 521
-0.544 4.570 0.355 597
-0.544 4.571 0.342 576
-0.544 4.572 0.329 557
-0.542 4.556 0.315 596
-0.542 4.557 0.301 780
-0.541 4.549 0.288 1121
-0.542 4.550 0.275 1280
-0.542 4.550 0.261 1216
-0.542 4.551 0.248 1153
-0.541 4.543 0.235 925
-0.540 4.535 0.221 566
-0.540 4.536 0.208 411
-0.540 4.536 0.195 343
-0.540 4.536 0.182 274
-0.256 2.192 1.704 3847
-0.256 2.197 1.697 7694
-0.257 2.201 1.691 7694
-0.259 2.219 1.694 7535
-0.262 2.242 1.701 8527
-0.263 2.253 1.699 6435
-0.265 2.271 1.702 5322
-0.266 2.275 1.695 5322
-0.267 2.286 1.693 6764
-0.267 2.291 1.687 8252
-0.269 2.302 1.685 9550
-0.270 2.313 1.683 11184
-0.271 2.324 1.680 9438
-0.275 2.354 1.691 9127
-0.274 2.346 1.676 8553
-0.274 2.344 1.665 8686
-0.274 2.348 1.658 8034
-0.275 2.352 1.651 7325
-0.284 2.429 1.692 7442
-0.283 2.427 1.680 6778
-0.283 2.425 1.669 6315
-0.285 2.443 1.671 4267
-0.297 2.540 1.723 3551
-0.298 2.551 1.720 4407
-0.299 2.563 1.717 5380
-0.300 2.567 1.709 4843
-0.300 2.572 1.702 4306
-0.299 2.563 1.686 4902
-0.299 2.561 1.675 6111
-0.300 2.572 1.672 7885
-0.302 2.583 1.668 9784
-0.302 2.587 1.661 8858
-0.303 2.599 1.657 8102
-0.309 2.644 1.674 8946
-0.310 2.655 1.670 9355
-0.310 2.659 1.663 7916
-0.311 2.664 1.655 6313
-0.316 2.709 1.671 5251
-0.317 2.713 1.663 4858
-0.316 2.711 1.651 4474
-0.318 2.722 1.648 5293
-0.319 2.733 1.644 5001
-0.329 2.820 1.682 4321
-0.326 2.790 1.654 4527
-0.326 2.795 1.646 3900
-0.329 2.820 1.650 3955
-0.330 2.831 1.645 3883
-0.346 2.960 1.704 3337
-0.344 2.944 1.685 4586
-0.344 2.948 1.676 6160
-0.346 2.960 1.671 7667
-0.347 2.971 1.666 8967
-0.355 3.039 1.691 8273
-0.349 2.987 1.653 9525
-0.349 2.991 1.644 10322
-0.350 2.996 1.636 9609
-0.351 3.007 1.631 7219
-0.361 3.096 1.664 7308
-0.359 3.072 1.641 6364
-0.372 3.189 1.688 9256
-0.374 3.201 1.682 11866
-0.374 3.205 1.673 10646
-0.374 3.203 1.660 8758
-0.374 3.200 1.648 8694
-0.375 3.212 1.642 8447
-0.379 3.244 1.646 6597
-0.380 3.256 1.640 8132
-0.381 3.267 1.634 9714
-0.382 3.272 1.624 7155
-0.395 3.383 1.664 8174
-0.396 3.395 1.658 8364
-0.397 3.399 1.648 6891
-0.403 3.454 1.660 8061
-0.412 3.530 1.682 6296
-0.413 3.535 1.672 5979
-0.413 3.539 1.662 6979
-0.414 3.551 1.655 7490
-0.416 3.562 1.648 5735
-0.417 3.574 1.640 5337
-0.430 3.687 1.676 5905
-0.432 3.699 1.668 6474
-0.431 3.696 1.655 5989
-0.441 3.780 1.677 5296
-0.443 3.792 1.669 4833
-0.441 3.775 1.649 3979
-0.455 3.896 1.685 4856
-0.457 3.915 1.680 4700
-0.463 3.971 1.689 5655
-0.463 3.968 1.674 4201
-0.462 3.958 1.657 3134
-0.463 3.969 1.648 3704
-0.467 4.003 1.648 4591
-0.469 4.022 1.642 3369
-0.481 4.122 1.666 2937
-0.477 4.082 1.638 3744
-0.476 4.079 1.623 4186
-0.487 4.172 1.644 4182
-0.489 4.191 1.637 5184
-0.492 4.218 1.633 5976
-0.494 4.230 1.623 5861
-0.496 4.249 1.616 4375
-0.499 4.275 1.612 4463
-0.500 4.280 1.599 4415
-0.505 4.329 1.602 5881
-0.514 4.407 1.615 5104
-0.518 4.434 1.610 3160
-0.513 4.393 1.582 3589
-0.514 4.405 1.572 5688
-0.531 4.551 1.605 4483
-0.520 4.458 1.561 3905
-0.521 4.462 1.548 3244
-0.540 4.624 1.584 3434
-0.538 4.613 1.566 3306
-0.538 4.610 1.551 2842
-0.538 4.606 1.535 2743
-0.536 4.595 1.517 2377
-0.557 4.772 1.556 2437
-0.558 4.784 1.544 2925
-0.561 4.803 1.534 2787
-0.564 4.830 1.527 2438
-0.566 4.849 1.517 2006
-0.588 5.035 1.555 1449
-0.589 5.046 1.542 1876
-0.536 4.588 1.399 1904
-0.536 4.592 1.386 3259
-0.536 4.595 1.373 3880
-0.612 5.245 1.533 3402
-0.616 5.279 1.525 2637
-0.618 5.291 1.512 3776
-0.615 5.272 1.491 3191
-0.538 4.613 1.306 2205
-0.625 5.356 1.479 1762
-0.569 4.879 1.344 1407
-0.570 4.882 1.329 1649
-0.547 4.687 1.267 1922
-0.688 5.891 1.542 2841
-0.687 5.887 1.523 3353
-0.688 5.891 1.506 3157
-0.703 6.026 1.519 2985
-0.704 6.030 1.501 3134
-0.720 6.172 1.514 2634
-0.723 6.191 1.500 3296
-0.746 6.395 1.526 3002
-0.746 6.391 1.505 2464
-0.748 6.410 1.490 2561
-0.760 6.507 1.491 2213
-0.759 6.503 1.470 2439
-0.787 6.746 1.500 1751
-0.800 6.857 1.502 2114
-0.796 6.815 1.472 1533
-0.854 7.313 1.548 2278
-0.855 7.325 1.529 2664
-0.857 7.344 1.510 2055
-0.887 7.596 1.534 2881
-0.888 7.607 1.514 3262
-0.889 7.619 1.493 2537
-0.890 7.623 1.471 1525
-0.930 7.968 1.507 1796
-0.930 7.964 1.483 2119
-0.929 7.960 1.458 1554
-0.970 8.313 1.492 1823
-0.972 8.325 1.469 2396
-0.973 8.336 1.446 2284
-0.564 4.835 0.879 1692
-1.082 9.269 1.538 1828
-1.082 9.273 1.511 1867
-1.081 9.262 1.481 1642
-1.084 9.289 1.457 1724
-1.084 9.285 1.429 1634
-1.083 9.281 1.401 1034
-1.086 9.300 1.376 729
-1.087 9.311 1.350 826
-0.556 4.767 0.741 595
-0.557 4.769 0.728 782
-0.559 4.786 0.716 776
-0.560 4.795 0.703 522
-0.558 4.781 0.687 333
-0.553 4.736 0.668 412
-0.551 4.722 0.652 457
-0.550 4.716 0.638 544
-0.551 4.717 0.624 720
-0.550 4.711 0.609 870
-0.549 4.704 0.595 1036
-0.549 4.705 0.581 1120
-0.548 4.699 0.567 1292
-0.550 4.708 0.554 1907
-0.550 4.709 0.540 2529
-0.549 4.702 0.526 2575
-0.549 4.703 0.512 2395
-0.549 4.705 0.499 2169
-0.549 4.706 0.485 1772
-0.549 4.707 0.471 1462
-0.550 4.715 0.458 1352
-0.550 4.708 0.444 1230
-0.545 4.670 0.428 1061
-0.542 4.639 0.412 1126
-0.541 4.632 0.398 1172
-0.541 4.633 0.385 838
-0.534 4.579 0.369 479
-0.534 4.572 0.355 541
-0.534 4.572 0.342 540
-0.534 4.573 0.329 519
-0.533 4.565 0.315 508
-0.532 4.558 0.301 620
-0.531 4.551 0.288 860
-0.531 4.551 0.275 988
-0.531 4.551 0.261 942
-0.531 4.552 0.248 896
-0.531 4.552 0.235 710
-0.530 4.544 0.222 434
-0.530 4.537 0.208 320
-0.082 0.700 0.148 269
-0.252 2.193 1.704 3711
-0.253 2.197 1.697 7423
-0.253 2.202 1.691 7423
-0.255 2.219 1.694 7446
-0.258 2.243 1.701 8592
-0.259 2.254 1.699 6531
-0.261 2.271 1.702 5340
-0.262 2.276 1.695 5340
-0.263 2.287 1.693 6906
-0.264 2.291 1.687 8610
-0.265 2.302 1.685 10339
-0.266 2.313 1.683 12352
-0.268 2.324 1.680 10382
-0.271 2.355 1.691 9574
-0.270 2.346 1.676 8893
-0.270 2.344 1.665 8607
-0.270 2.348 1.658 8085
-0.271 2.353 1.651 7654
-0.272 2.364 1.649 7747
-0.279 2.421 1.676 7081
-0.278 2.419 1.665 6836
-0.281 2.443 1.671 4262
-0.292 2.541 1.723 4083
-0.294 2.552 1.720 4563
-0.294 2.556 1.713 5238
-0.296 2.568 1.709 4667
-0.296 2.572 1.702 4119
-0.295 2.563 1.686 4901
-0.296 2.568 1.679 5992
-0.296 2.572 1.672 7931
-0.297 2.583 1.668 10021
-0.299 2.595 1.665 9235
-0.299 2.599 1.657 8617
-0.304 2.644 1.674 8089
-0.306 2.655 1.670 8236
-0.307 2.667 1.667 6854
-0.308 2.678 1.663 5990
-0.311 2.703 1.667 5572
-0.312 2.707 1.659 5275
-0.313 2.718 1.655 4981
-0.313 2.723 1.648 5868
-0.315 2.734 1.644 5449
-0.320 2.780 1.659 4347
-0.321 2.791 1.654 4570
-0.322 2.795 1.646 3930
-0.325 2.820 1.650 3451
-0.326 2.832 1.645 3186
-0.341 2.961 1.704 3151
-0.339 2.945 1.685 3988
-0.340 2.949 1.676 5185
-0.341 2.960 1.671 6477
-0.342 2.972 1.666 7723
-0.350 3.039 1.691 7782
-0.344 2.988 1.653 8787
-0.344 2.992 1.644 9972
-0.345 2.996 1.636 9453
-0.346 3.008 1.631 7279
-0.356 3.089 1.661 7492
-0.354 3.073 1.641 6854
-0.366 3.183 1.685 8489
-0.368 3.195 1.679 10309
-0.368 3.199 1.670 8861
-0.369 3.203 1.660 7998
-0.368 3.201 1.648 8911
-0.369 3.205 1.639 8716
-0.370 3.217 1.633 6916
-0.375 3.256 1.640 7582
-0.375 3.261 1.631 8559
-0.390 3.387 1.677 6219
-0.390 3.384 1.664 8930
-0.391 3.396 1.658 9700
-0.391 3.400 1.648 8337
-0.398 3.455 1.660 8788
-0.407 3.531 1.682 6132
-0.409 3.550 1.679 5796
-0.408 3.547 1.665 6686
-0.409 3.551 1.655 7629
-0.411 3.570 1.651 6226
-0.412 3.575 1.640 5663
-0.412 3.579 1.630 5280
-0.426 3.699 1.668 5894
-0.425 3.689 1.652 5558
-0.435 3.781 1.677 5236
-0.437 3.793 1.669 4979
-0.435 3.775 1.649 4167
-0.449 3.897 1.685 5381
-0.448 3.894 1.671 5423
-0.457 3.971 1.689 4891
-0.458 3.976 1.677 3862
-0.456 3.958 1.657 3389
-0.457 3.970 1.648 4027
-0.461 4.004 1.648 4264
-0.463 4.023 1.642 3295
-0.464 4.035 1.633 2499
-0.468 4.061 1.630 3009
-0.467 4.058 1.615 3108
-0.480 4.166 1.641 4402
-0.482 4.185 1.635 5127
-0.486 4.219 1.633 5501
-0.487 4.230 1.623 5701
-0.489 4.250 1.616 4426
-0.492 4.276 1.612 5017
-0.493 4.280 1.599 5273
-0.498 4.322 1.600 5440
-0.507 4.408 1.615 4609
-0.510 4.427 1.607 3124
-0.506 4.394 1.582 3367
-0.507 4.406 1.572 4796
-0.524 4.552 1.605 4029
-0.514 4.466 1.563 4646
-0.514 4.463 1.548 3720
-0.532 4.617 1.582 3590
-0.531 4.614 1.566 3558
-0.532 4.618 1.553 3317
-0.532 4.622 1.539 3092
-0.529 4.596 1.517 2299
-0.548 4.758 1.551 2177
-0.550 4.777 1.542 2532
-0.552 4.797 1.532 2601
-0.556 4.831 1.527 2611
-0.557 4.842 1.515 2262
-0.527 4.581 1.426 1798
-0.528 4.585 1.413 1854
-0.528 4.589 1.399 2270
-0.529 4.592 1.386 3435
-0.529 4.596 1.373 3799
-0.604 5.246 1.533 3484
-0.605 5.257 1.519 2767
-0.607 5.276 1.508 3814
-0.607 5.273 1.491 3263
-0.617 5.360 1.497 2134
-0.617 5.357 1.479 2234
-0.562 4.880 1.344 1596
-0.562 4.883 1.329 1661
-0.540 4.688 1.267 2043
-0.678 5.892 1.542 2694
-0.678 5.889 1.523 3074
-0.678 5.892 1.506 3210
-0.679 5.896 1.488 2953
-0.700 6.077 1.511 2894
-0.709 6.157 1.511 2520
-0.713 6.192 1.500 3111
-0.736 6.396 1.526 2591
-0.737 6.400 1.507 2362
-0.738 6.412 1.490 2789
-0.749 6.508 1.491 2399
-0.749 6.504 1.470 2517
-0.776 6.739 1.498 1615
-0.772 6.704 1.471 1714
-0.785 6.816 1.472 1437
-0.843 7.322 1.550 2206
-0.843 7.326 1.529 2741
-0.847 7.353 1.512 2227
-0.875 7.597 1.534 2492
-0.876 7.609 1.514 2949
-0.877 7.621 1.493 2409
-0.878 7.624 1.471 1495
-0.559 4.853 0.969 1750
-0.917 7.966 1.483 1816
-0.916 7.954 1.457 1435
-0.958 8.323 1.493 1975
-0.959 8.326 1.469 2731
-0.960 8.338 1.446 2829
-0.960 8.342 1.422 1913
-0.557 4.838 0.865 1917
-1.067 9.267 1.509 2011
-1.066 9.263 1.481 1865
-1.070 9.290 1.457 1866
-1.069 9.286 1.429 1717
-1.069 9.282 1.401 1101
-1.071 9.302 1.376 938
-1.072 9.313 1.350 1118
-0.552 4.791 0.744 784
-0.549 4.769 0.728 1020
-0.551 4.787 0.716 1002
-0.552 4.796 0.703 676
-0.551 4.790 0.688 450
-0.545 4.737 0.668 465
-0.546 4.738 0.654 507
-0.543 4.716 0.638 604
-0.543 4.718 0.624 779
-0.542 4.711 0.609 900
-0.542 4.705 0.595 1007
-0.542 4.706 0.581 1057
-0.541 4.700 0.567 1205
-0.542 4.709 0.554 1825
-0.542 4.710 0.540 2491
-0.541 4.703 0.526 2538
-0.542 4.704 0.512 2348
-0.542 4.705 0.499 2055
-0.542 4.706 0.485 1573
-0.542 4.707 0.471 1279
-0.543 4.716 0.458 1196
-0.542 4.709 0.444 1101
-0.539 4.679 0.428 924
-0.534 4.640 0.412 983
-0.533 4.633 0.398 1037
-0.533 4.634 0.385 752
-0.528 4.587 0.369 408
-0.527 4.580 0.355 433
-0.527 4.581 0.342 457
-0.527 4.574 0.329 456
-0.526 4.566 0.315 444
-0.525 4.559 0.301 488
-0.524 4.551 0.288 629
-0.524 4.552 0.275 723
-0.524 4.552 0.261 688
-0.524 4.553 0.248 653
-0.524 4.553 0.235 512
-0.080 0.692 0.151 304
-0.081 0.700 0.149 321
-0.081 0.700 0.148 316
-0.080 0.692 0.146 267
-0.248 2.193 1.704 3469
-0.249 2.198 1.697 6938
-0.249 2.202 1.691 6938
-0.251 2.220 1.694 7178
-0.253 2.237 1.697 8457
-0.254 2.248 1.695 6493
-0.257 2.272 1.702 5289
-0.258 2.276 1.695 5289
-0.258 2.281 1.689 7040
-0.259 2.292 1.687 8884
-0.261 2.303 1.685 10981
-0.261 2.307 1.678 13371
-0.262 2.318 1.676 11234
-0.266 2.349 1.687 10161
-0.265 2.340 1.671 9233
-0.265 2.345 1.665 8440
-0.266 2.349 1.658 8059
-0.267 2.360 1.655 7905
-0.268 2.364 1.649 8178
-0.272 2.402 1.663 7679
-0.273 2.413 1.661 7535
-0.272 2.404 1.645 4815
-0.287 2.535 1.719 4699
-0.288 2.546 1.716 4714
-0.289 2.557 1.713 5025
-0.290 2.562 1.705 4440
-0.291 2.573 1.702 3872
-0.290 2.564 1.686 4855
-0.291 2.568 1.679 5991
-0.292 2.580 1.676 7828
-0.292 2.584 1.668 9873
-0.294 2.595 1.665 9242
-0.294 2.600 1.657 8683
-0.299 2.645 1.674 7102
-0.300 2.656 1.670 7116
-0.302 2.667 1.667 6055
-0.304 2.685 1.667 5925
-0.306 2.703 1.667 5915
-0.306 2.708 1.659 5650
-0.309 2.733 1.663 5441
-0.308 2.723 1.648 6306
-0.309 2.735 1.644 5767
-0.315 2.780 1.659 4401
-0.316 2.792 1.654 4549
-0.316 2.789 1.643 3930
-0.317 2.800 1.638 3112
-0.333 2.943 1.705 3198
-0.334 2.955 1.701 3016
-0.337 2.980 1.703 3527
-0.333 2.943 1.672 4327
-0.336 2.968 1.675 5397
-0.336 2.973 1.666 6803
-0.345 3.047 1.694 7295
-0.338 2.988 1.653 8124
-0.339 3.000 1.648 9295
-0.340 3.004 1.639 9045
-0.350 3.093 1.673 7603
-0.350 3.090 1.661 7458
-0.348 3.073 1.641 7123
-0.359 3.170 1.678 8250
-0.361 3.188 1.675 8842
-0.362 3.200 1.670 7152
-0.363 3.204 1.660 7152
-0.362 3.201 1.648 8742
-0.363 3.206 1.639 8620
-0.364 3.217 1.633 7047
-0.368 3.250 1.637 6849
-0.369 3.262 1.631 7197
-0.383 3.387 1.677 6558
-0.383 3.385 1.664 9472
-0.384 3.396 1.658 10653
-0.386 3.408 1.651 9550
-0.391 3.455 1.660 9826
-0.400 3.532 1.682 6008
-0.403 3.558 1.682 5829
-0.401 3.548 1.665 6397
-0.402 3.552 1.655 7586
-0.404 3.571 1.651 6578
-0.405 3.583 1.644 5974
-0.406 3.587 1.633 5516
-0.419 3.708 1.672 5062
-0.418 3.690 1.652 4782
-0.428 3.782 1.677 4917
-0.429 3.794 1.669 4991
-0.427 3.776 1.649 4363
-0.441 3.897 1.685 5610
-0.441 3.902 1.674 6157
-0.441 3.899 1.660 4267
-0.451 3.984 1.680 3780
-0.450 3.974 1.663 3903
-0.450 3.978 1.651 4343
-0.453 4.005 1.648 3873
-0.456 4.031 1.645 3295
-0.457 4.043 1.636 2849
-0.459 4.055 1.627 2900
-0.470 4.155 1.651 2442
-0.471 4.167 1.641 4576
-0.474 4.186 1.635 4915
-0.477 4.220 1.633 4811
-0.478 4.224 1.621 5146
-0.481 4.251 1.616 4332
-0.483 4.270 1.609 5346
-0.484 4.281 1.599 5719
-0.487 4.308 1.595 5253
-0.489 4.320 1.585 4340
-0.488 4.316 1.570 3456
-0.498 4.403 1.584 2981
-0.500 4.422 1.577 3299
-0.502 4.441 1.569 3879
-0.505 4.467 1.563 4973
-0.505 4.464 1.548 3664
-0.523 4.618 1.582 3843
-0.522 4.615 1.566 3727
-0.523 4.627 1.555 3728
-0.524 4.631 1.542 3523
-0.532 4.702 1.549 2379
-0.533 4.714 1.537 2340
-0.539 4.763 1.537 2166
-0.542 4.790 1.530 2347
-0.546 4.824 1.525 2643
-0.547 4.836 1.513 2400
-0.518 4.582 1.426 2053
-0.519 4.586 1.413 2213
-0.520 4.597 1.401 2680
-0.520 4.593 1.386 3588
-0.520 4.597 1.373 3587
-0.593 5.239 1.530 3455
-0.594 5.251 1.517 2713
-0.596 5.270 1.506 3528
-0.596 5.266 1.489 3153
-0.606 5.354 1.495 2340
-0.606 5.358 1.479 2412
-0.551 4.873 1.342 1775
-0.553 4.884 1.329 1554
-0.530 4.681 1.265 2110
-0.668 5.901 1.544 2525
-0.666 5.890 1.523 2742
-0.669 5.917 1.511 3179
-0.671 5.928 1.496 3142
-0.689 6.086 1.513 2845
-0.696 6.151 1.509 2353
-0.700 6.186 1.498 2796
-0.724 6.397 1.526 2126
-0.724 6.401 1.507 2235
-0.726 6.413 1.490 2789
-0.736 6.509 1.491 2388
-0.736 6.505 1.470 2289
-0.762 6.733 1.496 1472
-0.759 6.706 1.471 1557
-0.813 7.188 1.545 1485
-0.814 7.192 1.524 2161
-0.830 7.336 1.530 2755
-0.832 7.355 1.512 2431
-0.812 7.173 1.456 2167
-0.862 7.618 1.515 2459
-0.862 7.622 1.493 2087
-0.940 8.308 1.590 1701
-0.549 4.854 0.969 1833
-0.549 4.849 0.953 1756
-0.941 8.320 1.518 1717
-0.942 8.324 1.493 2077
-0.942 8.328 1.469 2909
-0.944 8.340 1.446 3143
-0.944 8.344 1.422 2076
-0.548 4.839 0.865 1928
-1.049 9.269 1.509 2167
-1.048 9.265 1.481 2074
-1.050 9.285 1.456 2013
-1.051 9.289 1.429 1739
-1.050 9.284 1.401 1127
-1.054 9.311 1.377 1139
-1.054 9.315 1.350 1346
-1.053 9.311 1.322 911
-0.540 4.771 0.728 1144
-0.542 4.788 0.716 1137
-0.543 4.797 0.703 760
-0.541 4.783 0.687 515
-0.538 4.754 0.670 534
-0.536 4.739 0.654 577
-0.535 4.725 0.639 644
-0.534 4.719 0.624 803
-0.533 4.712 0.609 902
-0.532 4.706 0.595 972
-0.533 4.707 0.581 980
-0.532 4.701 0.567 1088
-0.533 4.710 0.554 1651
-0.533 4.711 0.540 2283
-0.532 4.704 0.526 2311
-0.532 4.705 0.512 2120
-0.532 4.706 0.499 1835
-0.533 4.707 0.485 1369
-0.533 4.708 0.471 1081
-0.534 4.717 0.458 988
-0.533 4.710 0.444 917
-0.529 4.680 0.428 760
-0.525 4.641 0.412 865
-0.524 4.634 0.398 937
-0.524 4.635 0.385 695
-0.520 4.596 0.370 371
-0.518 4.581 0.355 367
-0.518 4.582 0.342 382
-0.518 4.575 0.329 378
-0.517 4.567 0.315 363
-0.517 4.568 0.302 360
-0.516 4.560 0.288 417
-0.515 4.553 0.275 470
-0.515 4.553 0.261 445
-0.515 4.554 0.248 420
-0.078 0.692 0.153 418
-0.079 0.700 0.151 408
-0.079 0.700 0.149 422
-0.079 0.700 0.148 392
-0.078 0.692 0.146 322
-0.078 0.692 0.144 254
-0.245 2.194 1.704 3149
-0.245 2.198 1.697 6299
-0.246 2.203 1.691 6299
-0.248 2.220 1.694 6764
-0.250 2.237 1.697 8113
-0.251 2.248 1.695 6321
-0.254 2.272 1.702 5069
-0.254 2.277 1.695 5069
-0.255 2.281 1.689 7071
-0.255 2.286 1.682 9073
-0.256 2.297 1.680 11405
-0.258 2.308 1.678 14116
-0.259 2.319 1.676 11903
-0.261 2.343 1.682 10738
-0.261 2.341 1.671 9427
-0.262 2.345 1.665 8152
-0.262 2.349 1.658 7903
-0.263 2.360 1.655 8010
-0.264 2.365 1.649 8413
-0.268 2.402 1.663 8083
-0.269 2.413 1.661 7932
-0.268 2.404 1.645 5131
-0.282 2.528 1.715 5383
-0.284 2.546 1.716 4854
-0.285 2.557 1.713 4802
-0.286 2.562 1.705 4220
-0.286 2.567 1.698 3638
-0.286 2.564 1.686 4819
-0.287 2.569 1.679 6060
-0.288 2.580 1.676 7643
-0.289 2.591 1.672 9371
-0.290 2.596 1.665 8837
-0.290 2.600 1.657 8302
-0.295 2.645 1.674 6161
-0.297 2.663 1.674 6307
-0.299 2.674 1.671 5726
-0.301 2.693 1.671 6183
-0.301 2.697 1.663 6211
-0.302 2.708 1.659 5924
-0.305 2.733 1.663 5894
-0.305 2.731 1.651 6574
-0.305 2.735 1.644 5923
-0.307 2.753 1.643 4433
-0.311 2.785 1.651 4410
-0.311 2.789 1.643 3860
-0.312 2.794 1.635 2946
-0.329 2.944 1.705 3346
-0.330 2.955 1.701 2881
-0.333 2.980 1.703 3210
-0.329 2.943 1.672 3562
-0.331 2.969 1.675 4744
-0.332 2.973 1.666 6432
-0.340 3.047 1.694 6875
-0.342 3.066 1.693 7869
-0.343 3.077 1.687 8469
-0.335 3.005 1.639 8201
-0.345 3.093 1.673 7684
-0.345 3.091 1.661 7203
-0.343 3.074 1.641 7211
-0.353 3.163 1.674 8213
-0.352 3.153 1.658 8960
-0.352 3.158 1.649 7831
-0.357 3.198 1.657 6358
-0.357 3.202 1.648 8097
-0.358 3.206 1.639 8054
-0.359 3.218 1.633 6786
-0.362 3.244 1.633 5972
-0.363 3.255 1.627 5861
-0.378 3.388 1.677 6746
-0.378 3.385 1.664 9752
-0.379 3.397 1.658 11168
-0.380 3.408 1.651 10336
-0.386 3.456 1.660 10508
-0.387 3.468 1.654 6439
-0.397 3.558 1.682 5785
-0.396 3.548 1.665 6181
-0.397 3.553 1.655 7352
-0.399 3.572 1.651 6610
-0.400 3.583 1.644 6081
-0.400 3.588 1.633 5562
-0.416 3.723 1.678 4295
-0.412 3.691 1.652 3931
-0.422 3.783 1.677 4373
-0.423 3.794 1.669 4943
-0.422 3.784 1.652 4650
-0.435 3.898 1.685 5584
-0.436 3.903 1.674 6756
-0.435 3.900 1.660 5058
-0.446 3.999 1.686 3754
-0.444 3.982 1.666 4318
-0.444 3.979 1.651 4495
-0.446 3.998 1.645 3424
-0.450 4.032 1.645 3292
-0.451 4.043 1.636 3302
-0.453 4.055 1.627 2943
-0.462 4.141 1.645 2510
-0.463 4.153 1.636 4682
-0.459 4.112 1.608 5402
-0.458 4.102 1.591 4590
-0.472 4.232 1.623 4293
-0.475 4.259 1.619 3989
-0.477 4.270 1.609 5330
-0.477 4.275 1.597 5915
-0.480 4.301 1.592 5315
-0.482 4.320 1.585 4741
-0.482 4.317 1.570 4376
-0.481 4.314 1.555 3584
-0.483 4.325 1.545 2695
-0.497 4.457 1.573 3901
-0.499 4.468 1.563 5358
-0.499 4.472 1.550 3798
-0.516 4.619 1.582 3942
-0.515 4.616 1.566 3719
-0.516 4.627 1.555 3989
-0.517 4.631 1.542 3921
-0.520 4.658 1.535 2603
-0.526 4.715 1.537 2612
-0.530 4.749 1.533 2126
-0.535 4.791 1.530 2093
-0.539 4.825 1.525 2563
-0.540 4.837 1.513 2351
-0.512 4.583 1.426 2064
-0.512 4.587 1.413 2356
-0.512 4.591 1.399 2870
-0.514 4.602 1.388 3481
-0.586 5.251 1.550 3295
-0.584 5.232 1.528 3416
-0.586 5.252 1.517 2627
-0.588 5.271 1.506 3243
-0.588 5.267 1.489 2991
-0.598 5.355 1.495 2208
-0.598 5.359 1.479 2158
-0.544 4.874 1.342 1783
-0.544 4.877 1.328 1366
-0.523 4.682 1.265 2144
-0.659 5.902 1.544 2348
-0.658 5.891 1.523 2400
-0.662 5.933 1.515 3341
-0.664 5.945 1.499 3629
-0.680 6.094 1.515 2802
-0.670 5.999 1.475 2684
-0.691 6.187 1.498 2444
-0.688 6.168 1.475 1908
-0.715 6.402 1.507 2036
-0.716 6.414 1.490 2577
-0.728 6.518 1.492 2330
-0.726 6.507 1.470 1964
-0.751 6.726 1.495 1502
-0.749 6.707 1.471 1387
-0.802 7.182 1.544 1592
-0.804 7.201 1.526 2187
-0.819 7.337 1.530 2783
-0.822 7.364 1.513 2601
-0.801 7.175 1.456 2346
-0.850 7.620 1.515 1912
-0.850 7.616 1.491 1584
-0.927 8.310 1.590 1872
-0.928 8.314 1.566 1865
-0.928 8.318 1.542 1964
-0.929 8.322 1.518 2109
-0.929 8.326 1.493 2181
-0.931 8.337 1.470 3022
-0.931 8.341 1.446 3394
-0.932 8.353 1.423 2228
-1.034 9.267 1.536 1823
-1.035 9.271 1.509 2289
-1.035 9.275 1.482 2300
-1.037 9.294 1.457 2200
-1.036 9.282 1.428 1754
-1.036 9.286 1.401 1113
-1.040 9.321 1.378 1326
-1.040 9.317 1.350 1528
-1.039 9.312 1.322 1021
-0.533 4.771 0.728 1267
-0.534 4.789 0.716 1235
-0.536 4.798 0.703 836
-0.535 4.792 0.688 577
-0.532 4.762 0.670 558
-0.530 4.748 0.655 583
-0.528 4.726 0.639 642
-0.527 4.720 0.624 790
-0.526 4.713 0.609 867
-0.525 4.707 0.595 888
-0.526 4.716 0.582 841
-0.526 4.709 0.568 911
-0.526 4.711 0.554 1422
-0.526 4.712 0.540 1976
-0.526 4.713 0.527 1971
-0.525 4.706 0.512 1808
-0.525 4.707 0.499 1556
-0.526 4.708 0.485 1115
-0.526 4.709 0.471 827
-0.527 4.718 0.458 738
-0.526 4.711 0.444 701
-0.523 4.688 0.429 568
-0.518 4.642 0.412 664
-0.517 4.635 0.398 749
-0.517 4.636 0.385 579
-0.515 4.613 0.370 317
-0.511 4.582 0.355 287
-0.511 4.583 0.342 305
-0.511 4.575 0.329 299
-0.511 4.576 0.315 274
-0.078 0.700 0.161 282
-0.077 0.692 0.159 381
-0.077 0.692 0.157 435
-0.077 0.692 0.155 491
-0.077 0.692 0.153 523
-0.078 0.700 0.151 520
-0.078 0.700 0.149 531
-0.078 0.700 0.148 477
-0.077 0.693 0.146 381
-0.077 0.693 0.144 295
-0.240 2.194 1.704 2793
-0.241 2.199 1.697 5587
-0.241 2.203 1.691 5587
-0.243 2.221 1.694 6235
-0.245 2.238 1.697 7564
-0.246 2.249 1.695 6006
-0.249 2.273 1.702 4727
-0.249 2.277 1.695 4727
-0.250 2.282 1.689 6969
-0.250 2.286 1.682 9211
-0.251 2.297 1.680 11659
-0.253 2.308 1.678 14489
-0.254 2.319 1.676 12292
-0.256 2.337 1.678 11198
-0.256 2.341 1.671 9526
-0.257 2.346 1.665 7854
-0.257 2.350 1.658 7736
-0.258 2.361 1.655 7976
-0.260 2.372 1.653 8373
-0.263 2.403 1.663 8072
-0.264 2.407 1.656 7895
-0.263 2.405 1.645 5184
-0.276 2.522 1.710 6001
-0.279 2.547 1.716 4926
-0.280 2.558 1.713 4584
-0.281 2.563 1.705 4032
-0.280 2.560 1.694 3493
-0.281 2.565 1.686 4834
-0.281 2.569 1.679 6175
-0.283 2.581 1.676 7273
-0.284 2.592 1.672 8601
-0.284 2.596 1.665 8071
-0.285 2.601 1.657 7541
-0.286 2.612 1.654 5356
-0.292 2.664 1.674 5894
-0.294 2.682 1.675 5939
-0.295 2.693 1.671 6516
-0.295 2.698 1.663 6431
-0.297 2.709 1.659 6065
-0.299 2.734 1.663 6229
-0.299 2.731 1.651 6719
-0.300 2.736 1.644 5957
-0.301 2.754 1.643 4448
-0.305 2.786 1.651 4193
-0.305 2.783 1.639 3711
-0.304 2.781 1.627 2868
-0.322 2.937 1.702 3477
-0.322 2.942 1.693 2762
-0.326 2.981 1.703 2954
-0.325 2.972 1.687 3183
-0.325 2.969 1.675 4519
-0.326 2.974 1.666 6474
-0.325 2.971 1.654 7159
-0.336 3.067 1.693 7997
-0.337 3.078 1.687 8874
-0.334 3.047 1.661 8012
-0.338 3.087 1.670 7535
-0.338 3.091 1.661 6911
-0.337 3.075 1.641 7211
-0.346 3.164 1.674 8198
-0.345 3.147 1.655 10301
-0.344 3.144 1.642 9587
-0.344 3.142 1.630 6651
-0.351 3.210 1.651 7220
-0.351 3.207 1.639 7265
-0.352 3.219 1.633 6356
-0.354 3.230 1.627 5274
-0.356 3.249 1.624 4731
-0.371 3.389 1.677 6618
-0.371 3.386 1.664 9626
-0.372 3.398 1.658 11104
-0.374 3.416 1.654 10653
-0.378 3.457 1.660 10795
-0.380 3.468 1.654 6709
-0.390 3.559 1.682 5628
-0.389 3.549 1.665 6001
-0.389 3.554 1.655 7047
-0.391 3.573 1.651 6395
-0.392 3.584 1.644 5959
-0.393 3.589 1.633 5397
-0.409 3.738 1.684 3735
-0.410 3.743 1.673 3365
-0.414 3.783 1.677 3730
-0.415 3.795 1.669 4869
-0.414 3.785 1.652 4899
-0.427 3.899 1.685 5346
-0.427 3.903 1.674 7104
-0.427 3.901 1.660 5739
-0.428 3.905 1.648 3985
-0.436 3.983 1.666 4518
-0.436 3.980 1.651 4476
-0.437 3.992 1.643 3050
-0.441 4.033 1.645 3198
-0.442 4.037 1.633 3832
-0.445 4.064 1.630 3123
-0.449 4.105 1.632 2768
-0.454 4.146 1.633 4755
-0.450 4.113 1.608 6536
-0.449 4.103 1.591 5542
-0.463 4.233 1.623 3368
-0.466 4.260 1.619 3419
-0.467 4.264 1.607 5024
-0.468 4.276 1.597 5787
-0.471 4.302 1.592 5364
-0.472 4.314 1.582 5096
-0.472 4.311 1.567 5288
-0.472 4.315 1.555 4536
-0.474 4.334 1.547 3244
-0.489 4.465 1.576 4227
-0.489 4.469 1.563 5642
-0.490 4.473 1.550 3712
-0.507 4.628 1.584 4068
-0.505 4.617 1.566 3818
-0.506 4.621 1.553 4142
-0.507 4.633 1.542 4033
-0.510 4.659 1.535 2995
-0.515 4.708 1.535 2837
-0.519 4.743 1.530 2354
-0.525 4.792 1.530 1954
-0.528 4.826 1.525 2499
-0.530 4.838 1.513 2168
-0.502 4.584 1.426 1849
-0.502 4.588 1.413 2243
-0.503 4.592 1.399 2781
-0.504 4.603 1.388 3194
-0.575 5.252 1.550 3099
-0.573 5.234 1.528 3172
-0.574 5.245 1.515 2428
-0.576 5.264 1.504 2883
-0.576 5.261 1.487 2797
-0.576 5.265 1.471 2028
-0.586 5.352 1.477 1690
-0.533 4.867 1.340 1705
-0.533 4.871 1.326 1210
-0.514 4.691 1.267 2130
-0.646 5.903 1.544 2133
-0.646 5.900 1.525 2163
-0.651 5.942 1.516 3394
-0.651 5.946 1.499 3853
-0.656 5.996 1.492 3474
-0.657 6.000 1.475 2993
-0.677 6.188 1.498 2048
-0.675 6.161 1.473 1934
-0.702 6.412 1.509 1931
-0.702 6.416 1.490 2298
-0.714 6.520 1.492 2199
-0.713 6.516 1.472 1904
-0.723 6.604 1.470 1792
-0.723 6.601 1.449 1611
-0.757 6.913 1.491 1791
-0.757 6.917 1.470 2311
-0.805 7.354 1.533 2802
-0.806 7.366 1.513 2647
-0.786 7.184 1.457 2183
-0.826 7.544 1.501 1983
-0.826 7.548 1.479 2026
-0.910 8.311 1.590 1865
-0.910 8.316 1.566 1976
-0.911 8.320 1.542 2312
-0.911 8.324 1.518 2481
-0.913 8.335 1.495 2316
-0.913 8.339 1.470 3037
-0.913 8.343 1.446 3435
-0.915 8.355 1.423 2254
-1.015 9.269 1.536 1783
-1.015 9.273 1.509 2363
-1.016 9.285 1.483 2464
-1.018 9.296 1.457 2372
-1.017 9.292 1.429 1749
-1.024 9.351 1.409 1141
-1.021 9.323 1.378 1442
-1.020 9.319 1.350 1582
-1.020 9.314 1.322 1033
-0.522 4.772 0.728 1262
-0.524 4.790 0.716 1243
-0.525 4.799 0.703 837
-0.525 4.793 0.688 570
-0.522 4.771 0.671 558
-0.521 4.757 0.656 567
-0.518 4.727 0.639 582
-0.517 4.721 0.624 705
-0.516 4.714 0.609 769
-0.515 4.708 0.595 761
-0.516 4.717 0.582 709
-0.516 4.710 0.568 732
-0.516 4.712 0.554 1131
-0.516 4.713 0.540 1616
-0.516 4.714 0.527 1625
-0.516 4.715 0.513 1475
-0.515 4.708 0.499 1222
-0.516 4.709 0.485 800
-0.516 4.710 0.471 580
-0.517 4.719 0.458 533
-0.516 4.712 0.444 509
-0.512 4.674 0.428 395
-0.508 4.643 0.412 453
-0.508 4.636 0.398 516
-0.507 4.629 0.385 422
-0.077 0.700 0.161 359
-0.077 0.700 0.159 504
-0.076 0.693 0.157 585
-0.076 0.693 0.155 651
-0.077 0.700 0.153 684
-0.077 0.701 0.151 664
-0.077 0.701 0.149 639
-0.077 0.701 0.148 547
-0.076 0.693 0.146 437
-0.076 0.693 0.144 353
-0.076 0.693 0.142 261
-0.237 2.195 1.704 2437
-0.237 2.199 1.697 4874
-0.238 2.204 1.691 4874
-0.240 2.221 1.694 5622
-0.242 2.238 1.697 6809
-0.242 2.243 1.690 5536
-0.243 2.254 1.688 4316
-0.244 2.258 1.682 4472
-0.245 2.269 1.680 6779
-0.246 2.280 1.678 9267
-0.248 2.298 1.680 11676
-0.249 2.308 1.678 14527
-0.250 2.319 1.676 12416
-0.252 2.337 1.678 11482
-0.253 2.341 1.671 9503
-0.253 2.339 1.660 7526
-0.254 2.350 1.658 7529
-0.255 2.361 1.655 7814
-0.258 2.385 1.662 8109
-0.259 2.403 1.663 7799
-0.260 2.408 1.656 7587
-0.271 2.512 1.713 5579
-0.272 2.523 1.710 6518
-0.274 2.541 1.712 5039
-0.276 2.559 1.713 4463
-0.277 2.563 1.705 4003
-0.273 2.527 1.673 3752
-0.277 2.565 1.686 4980
-0.277 2.570 1.679 6334
-0.279 2.581 1.676 6793
-0.280 2.592 1.672 7624
-0.280 2.597 1.665 7091
-0.281 2.601 1.657 6559
-0.283 2.619 1.658 4807
-0.288 2.664 1.674 5956
-0.290 2.682 1.675 6422
-0.291 2.694 1.671 6803
-0.291 2.698 1.663 6536
-0.292 2.709 1.659 6068
-0.296 2.741 1.667 6458
-0.296 2.739 1.655 6729
-0.295 2.736 1.644 5889
-0.297 2.754 1.643 4448
-0.299 2.772 1.643 4036
-0.300 2.777 1.635 3635
-0.299 2.767 1.619 3048
-0.317 2.938 1.702 3564
-0.317 2.935 1.689 2724
-0.311 2.877 1.648 3148
-0.310 2.875 1.636 3351
-0.321 2.977 1.679 4678
-0.321 2.974 1.666 6763
-0.321 2.972 1.654 7547
-0.331 3.067 1.693 7895
-0.332 3.079 1.687 8939
-0.330 3.055 1.664 8066
-0.333 3.087 1.670 7223
-0.334 3.092 1.661 6817
-0.332 3.075 1.641 7205
-0.337 3.122 1.653 8557
-0.339 3.140 1.651 12043
-0.339 3.145 1.642 11475
-0.339 3.142 1.630 7760
-0.347 3.210 1.651 6280
-0.346 3.208 1.639 6295
-0.348 3.219 1.633 5688
-0.348 3.223 1.623 4666
-0.368 3.406 1.697 4080
-0.364 3.375 1.671 6292
-0.366 3.387 1.664 9086
-0.367 3.398 1.658 10500
-0.370 3.431 1.661 10633
-0.373 3.457 1.660 10848
-0.374 3.469 1.654 6698
-0.384 3.553 1.679 5365
-0.383 3.550 1.665 5819
-0.384 3.554 1.655 6797
-0.386 3.573 1.651 6026
-0.387 3.585 1.644 5659
-0.388 3.596 1.636 5204
-0.404 3.739 1.684 3402
-0.404 3.743 1.673 2950
-0.409 3.791 1.680 3218
-0.410 3.796 1.669 4712
-0.409 3.793 1.655 5060
-0.421 3.900 1.685 5035
-0.421 3.904 1.674 7238
-0.420 3.894 1.657 6327
-0.421 3.898 1.646 4654
-0.431 3.991 1.669 4431
-0.430 3.980 1.651 4298
-0.427 3.955 1.629 3040
-0.435 4.033 1.645 3011
-0.436 4.038 1.633 4308
-0.434 4.020 1.613 3633
-0.443 4.105 1.632 3178
-0.446 4.132 1.628 4862
-0.444 4.114 1.608 7456
-0.443 4.103 1.591 6523
-0.443 4.100 1.576 3329
-0.460 4.260 1.619 2841
-0.460 4.265 1.607 4548
-0.461 4.269 1.594 5468
-0.464 4.296 1.590 5214
-0.466 4.315 1.582 5203
-0.465 4.304 1.565 5986
-0.466 4.315 1.555 5190
-0.469 4.342 1.549 3476
-0.482 4.466 1.576 4461
-0.483 4.470 1.563 5608
-0.483 4.474 1.550 3460
-0.500 4.636 1.587 4063
-0.499 4.625 1.569 3894
-0.499 4.622 1.553 4334
-0.500 4.633 1.542 3960
-0.503 4.660 1.535 3425
-0.508 4.709 1.535 3147
-0.512 4.743 1.530 2654
-0.517 4.793 1.530 1835
-0.521 4.827 1.525 2322
-0.531 4.922 1.537 2317
-0.533 4.934 1.525 2310
-0.495 4.589 1.413 1978
-0.497 4.600 1.401 2497
-0.497 4.604 1.388 2800
-0.567 5.253 1.550 2730
-0.565 5.234 1.528 2822
-0.566 5.246 1.515 2168
-0.568 5.265 1.504 2412
-0.568 5.262 1.487 2582
-0.568 5.266 1.471 2059
-0.510 4.727 1.319 1318
-0.526 4.868 1.340 1595
-0.526 4.872 1.326 1152
-0.506 4.692 1.267 2068
-0.637 5.904 1.544 1915
-0.647 5.993 1.546 2611
-0.642 5.951 1.518 3290
-0.643 5.955 1.501 3754
-0.647 5.997 1.492 3977
-0.648 6.001 1.475 3145
-0.647 5.997 1.456 1808
-0.665 6.162 1.473 1910
-0.679 6.289 1.482 2027
-0.694 6.424 1.491 2092
-0.703 6.513 1.491 2024
-0.724 6.710 1.511 2132
-0.713 6.606 1.470 2117
-0.714 6.609 1.451 1968
-0.746 6.914 1.491 2035
-0.747 6.918 1.470 2646
-0.783 7.255 1.514 2758
-0.795 7.367 1.513 2550
-0.797 7.379 1.493 2158
-0.815 7.545 1.501 2437
-0.815 7.549 1.479 2495
-0.814 7.537 1.454 2075
-0.827 7.658 1.452 2056
-0.898 8.321 1.542 2414
-0.900 8.333 1.519 2636
-0.900 8.337 1.495 2382
-0.900 8.341 1.470 3010
-0.901 8.345 1.446 3344
-0.903 8.364 1.424 2183
-1.001 9.270 1.536 1721
-1.002 9.282 1.511 2364
-1.003 9.294 1.485 2591
-1.004 9.298 1.457 2498
-1.003 9.294 1.429 1749
-1.010 9.352 1.409 1229
-1.007 9.332 1.379 1469
-1.006 9.320 1.350 1534
-1.006 9.316 1.322 988
-0.515 4.773 0.728 1214
-0.517 4.791 0.716 1187
-0.518 4.800 0.703 817
-0.518 4.794 0.688 560
-0.516 4.780 0.672 521
-0.514 4.766 0.657 506
-0.511 4.736 0.639 486
-0.510 4.722 0.624 601
-0.509 4.715 0.609 659
-0.509 4.716 0.596 619
-0.509 4.718 0.582 546
-0.509 4.719 0.568 536
-0.510 4.720 0.555 854
-0.509 4.714 0.540 1240
-0.509 4.715 0.527 1227
-0.509 4.716 0.513 1088
-0.509 4.717 0.499 891
-0.508 4.710 0.485 572
-0.508 4.703 0.471 402
-0.509 4.712 0.458 357
-0.509 4.713 0.444 337
-0.500 4.636 0.412 317
-0.500 4.629 0.398 378
-0.500 4.630 0.385 317
-0.076 0.700 0.163 262
-0.076 0.700 0.161 397
