1.517 1.940 1.480 10617
1.524 1.949 1.477 11839
1.527 1.952 1.470 9467
1.537 1.966 1.470 7350
1.544 1.974 1.467 6202
1.589 2.032 1.497 6584
1.592 2.035 1.490 7278
1.594 2.039 1.483 7136
1.601 2.047 1.479 6399
1.603 2.050 1.471 6510
1.606 2.053 1.464 7539
1.608 2.056 1.457 8458
1.611 2.059 1.449 8717
1.609 2.057 1.438 6621
1.602 2.049 1.423 4459
1.670 2.135 1.469 4484
1.677 2.144 1.465 7448
1.683 2.152 1.461 8732
1.686 2.155 1.453 7404
1.693 2.164 1.449 7862
1.699 2.173 1.444 10130
1.697 2.170 1.433 10203
1.722 2.201 1.442 9914
1.737 2.221 1.444 12243
1.748 2.235 1.443 13397
1.755 2.244 1.438 14530
1.753 2.241 1.426 11837
1.760 2.250 1.422 9423
1.798 2.298 1.440 7988
1.795 2.296 1.428 6988
1.802 2.304 1.423 6968
1.813 2.319 1.421 5295
1.847 2.362 1.435 6203
1.863 2.382 1.436 5578
1.869 2.390 1.430 4356
1.845 2.359 1.403 5208
1.847 2.362 1.394 5289
1.867 2.388 1.398 6324
1.879 2.402 1.395 8821
1.885 2.411 1.390 10557
1.892 2.419 1.384 8617
1.935 2.474 1.402 7667
1.951 2.494 1.402 9809
1.949 2.491 1.390 9303
1.946 2.489 1.378 5208
2.012 2.573 1.410 7325
2.019 2.581 1.403 6543
2.026 2.590 1.397 6120
2.023 2.587 1.384 7311
2.016 2.578 1.369 8154
2.019 2.581 1.360 5973
2.062 2.636 1.375 3305
2.073 2.651 1.371 3802
2.075 2.654 1.362 8028
2.073 2.651 1.349 9373
2.126 2.718 1.369 6030
2.146 2.744 1.370 5213
2.148 2.747 1.360 4635
2.128 2.720 1.337 5910
2.134 2.729 1.330 7501
2.141 2.738 1.322 7448
2.143 2.740 1.312 6752
2.210 2.826 1.338 5929
2.212 2.828 1.328 6941
2.210 2.825 1.315 6436
2.281 2.917 1.342 6030
2.283 2.920 1.331 8861
2.281 2.916 1.318 7437
2.306 2.949 1.319 4859
2.313 2.957 1.311 5574
2.310 2.954 1.298 3819
2.373 3.034 1.317 4515
2.361 3.019 1.299 4780
2.373 3.034 1.293 4978
2.393 3.060 1.291 7393
2.419 3.093 1.291 7843
2.426 3.101 1.282 8923
2.428 3.104 1.271 11335
2.434 3.112 1.262 8818
2.432 3.109 1.248 7567
2.434 3.112 1.237 7503
2.436 3.114 1.225 4529
2.574 3.291 1.275 5216
2.581 3.300 1.265 5989
2.587 3.308 1.255 5312
2.594 3.317 1.245 5140
2.671 3.416 1.265 5978
2.688 3.436 1.258 10883
2.690 3.439 1.246 13981
2.692 3.442 1.233 12509
2.689 3.438 1.219 7898
2.757 3.525 1.233 4658
2.712 3.467 1.201 5071
2.751 3.518 1.203 4258
2.810 3.593 1.212 4821
2.826 3.614 1.205 5500
2.843 3.635 1.197 6787
2.859 3.655 1.189 12141
2.865 3.664 1.177 14101
2.867 3.666 1.164 9162
2.869 3.668 1.150 6436
2.871 3.671 1.137 8048
2.873 3.673 1.123 7409
2.889 3.694 1.115 6040
2.886 3.690 1.100 7045
2.887 3.692 1.086 7259
3.123 3.994 1.149 5401
3.120 3.990 1.133 4117
3.184 4.072 1.138 4533
3.191 4.080 1.125 7054
3.207 4.101 1.114 7208
3.223 4.121 1.103 9295
3.220 4.117 1.087 10944
3.222 4.120 1.072 10077
3.228 4.128 1.058 7387
3.235 4.136 1.044 7336
3.236 4.138 1.029 7869
3.233 4.134 1.013 5812
3.538 4.524 1.079 4480
3.540 4.526 1.062 4254
3.609 4.614 1.063 3931
3.620 4.628 1.048 5245
3.728 4.766 1.058 4806
3.724 4.762 1.039 6279
3.726 4.764 1.022 8909
3.728 4.766 1.004 9720
3.734 4.774 0.988 8831
3.731 4.770 0.969 8461
3.887 4.970 0.985 9718
3.888 4.972 0.967 10533
3.890 4.973 0.949 9731
3.891 4.975 0.931 7683
3.893 4.977 0.912 5369
4.243 5.425 0.962 3875
4.249 5.433 0.943 3460
4.483 5.732 0.967 2820
4.480 5.728 0.945 3334
4.486 5.736 0.924 3947
4.487 5.737 0.903 4917
4.484 5.733 0.881 4944
4.485 5.735 0.860 3874
4.778 6.109 0.885 3364
4.774 6.104 0.862 3507
4.780 6.112 0.840 3514
4.811 6.151 0.822 3912
4.812 6.152 0.799 5472
4.808 6.148 0.776 4848
4.804 6.143 0.752 3426
4.801 6.138 0.729 3287
4.806 6.146 0.707 2439
5.226 6.682 0.732 1962
5.670 7.249 0.756 1969
5.676 7.257 0.730 2288
5.672 7.252 0.703 2303
5.678 7.260 0.677 2306
5.679 7.261 0.650 1581
5.587 7.144 0.615 1153
5.534 7.076 0.584 1003
5.545 7.090 0.559 819
5.672 7.253 0.542 917
5.668 7.247 0.515 849
5.669 7.248 0.488 507
1.248 1.586 1.547 6964
1.251 1.590 1.541 13929
1.253 1.593 1.535 13879
1.252 1.591 1.525 13936
1.254 1.594 1.519 13936
1.297 1.648 1.558 14400
1.295 1.646 1.548 20008
1.306 1.660 1.551 17998
1.317 1.673 1.554 17054
1.319 1.677 1.548 17054
1.322 1.680 1.542 11953
1.345 1.709 1.558 7189
1.331 1.692 1.534 7294
1.337 1.700 1.532 7764
1.340 1.703 1.526 6527
1.359 1.727 1.537 5343
1.349 1.715 1.518 6250
1.352 1.718 1.512 7325
1.371 1.742 1.523 6470
1.390 1.766 1.533 7407
1.388 1.764 1.523 7815
1.378 1.751 1.504 9012
1.385 1.760 1.502 8009
1.391 1.768 1.499 6817
1.435 1.824 1.534 8061
1.442 1.833 1.532 7783
1.445 1.836 1.525 7519
1.443 1.834 1.515 6700
1.441 1.832 1.504 5240
1.427 1.813 1.481 5035
1.459 1.854 1.503 5528
1.470 1.868 1.504 6489
1.485 1.887 1.509 6534
1.491 1.896 1.506 6705
1.502 1.909 1.507 5619
1.509 1.918 1.504 4780
1.507 1.916 1.493 6035
1.505 1.913 1.482 7471
1.512 1.922 1.479 8116
1.523 1.936 1.480 10722
1.530 1.944 1.477 12460
1.536 1.953 1.474 10281
1.547 1.967 1.474 8892
1.550 1.970 1.467 7745
1.595 2.028 1.497 6440
1.598 2.031 1.490 7329
1.605 2.039 1.486 7506
1.611 2.048 1.483 7042
1.614 2.051 1.475 6892
1.612 2.049 1.464 7811
1.610 2.046 1.453 8852
1.612 2.049 1.446 9282
1.615 2.052 1.438 6953
1.617 2.055 1.431 4194
1.681 2.136 1.473 3837
1.687 2.144 1.469 6813
1.694 2.153 1.464 7866
1.692 2.151 1.453 6822
1.690 2.148 1.442 8694
1.697 2.157 1.437 11479
1.704 2.165 1.433 11812
1.710 2.174 1.428 10189
1.739 2.210 1.441 11298
1.759 2.236 1.446 13092
1.762 2.239 1.438 14323
1.759 2.236 1.426 10836
1.802 2.290 1.448 9370
1.804 2.293 1.440 7714
1.807 2.296 1.431 6195
1.813 2.305 1.426 6563
1.829 2.325 1.427 5981
1.854 2.356 1.435 7597
1.865 2.370 1.433 6808
1.876 2.385 1.430 4559
1.852 2.354 1.403 4009
1.863 2.368 1.400 4440
1.874 2.382 1.398 7189
1.886 2.397 1.395 9994
1.892 2.405 1.390 11834
1.899 2.414 1.384 9623
1.942 2.468 1.402 8571
1.958 2.489 1.402 9237
1.960 2.492 1.393 7334
2.013 2.558 1.416 4516
2.019 2.567 1.410 6403
2.031 2.581 1.406 5312
1.988 2.526 1.368 5169
2.008 2.552 1.370 7032
2.019 2.567 1.366 8131
2.026 2.575 1.360 6426
2.037 2.590 1.356 3662
2.081 2.645 1.371 3689
2.083 2.648 1.362 7973
2.081 2.645 1.349 8410
2.129 2.706 1.367 6440
2.136 2.715 1.359 5296
2.129 2.706 1.344 4609
2.131 2.708 1.334 4769
2.138 2.717 1.327 5595
2.154 2.737 1.325 6827
2.156 2.740 1.315 7413
2.218 2.819 1.338 5529
2.220 2.822 1.328 6567
2.223 2.825 1.317 6435
2.225 2.827 1.307 5857
2.292 2.913 1.331 8276
2.289 2.910 1.318 6451
2.338 2.972 1.331 4246
2.322 2.951 1.311 5046
2.324 2.953 1.300 4819
2.387 3.033 1.320 5527
2.375 3.018 1.302 5304
2.381 3.027 1.293 4945
2.407 3.059 1.293 7376
2.428 3.086 1.291 7820
2.435 3.094 1.282 7034
2.441 3.103 1.273 8564
2.448 3.111 1.264 7588
2.450 3.114 1.252 6412
2.438 3.099 1.234 6196
2.548 3.239 1.272 4753
2.583 3.283 1.275 5483
2.590 3.292 1.265 6608
2.597 3.301 1.255 5530
2.608 3.315 1.247 5084
2.681 3.408 1.265 5391
2.693 3.423 1.256 8621
2.700 3.431 1.246 10440
2.702 3.434 1.233 9724
2.694 3.424 1.217 6641
2.763 3.511 1.231 4706
2.769 3.520 1.220 5493
2.766 3.516 1.205 5622
2.849 3.621 1.223 6188
2.847 3.618 1.208 6721
2.858 3.632 1.198 6675
2.869 3.647 1.189 10495
2.876 3.655 1.177 10871
2.878 3.658 1.164 6290
2.880 3.660 1.150 5418
2.882 3.662 1.137 7511
2.883 3.665 1.123 6627
2.904 3.691 1.116 5314
2.887 3.669 1.096 6300
2.893 3.677 1.084 6439
3.135 3.984 1.149 5507
3.132 3.981 1.133 3970
3.196 4.062 1.138 3727
3.203 4.071 1.125 5023
3.224 4.097 1.116 6575
3.235 4.112 1.103 11209
3.232 4.108 1.087 14099
3.234 4.110 1.072 12328
3.240 4.118 1.058 8830
3.247 4.127 1.044 8580
3.248 4.129 1.029 9315
3.245 4.125 1.013 6762
3.469 4.409 1.057 4971
3.548 4.509 1.061 4114
3.627 4.610 1.064 3341
3.633 4.618 1.048 4691
3.737 4.749 1.057 5586
3.738 4.751 1.039 7119
3.745 4.759 1.023 9146
3.741 4.755 1.004 9802
3.748 4.763 0.988 9379
3.900 4.956 1.004 10743
3.901 4.958 0.985 12922
3.903 4.960 0.967 13856
3.904 4.962 0.949 12939
3.906 4.964 0.931 10491
3.907 4.966 0.912 7552
3.913 4.974 0.895 5080
4.260 5.414 0.942 4307
4.261 5.416 0.922 3669
4.263 5.418 0.902 3314
4.264 5.419 0.882 3241
4.504 5.724 0.903 3760
4.500 5.720 0.881 3831
4.502 5.722 0.860 3314
4.513 5.736 0.841 2774
4.787 6.084 0.861 2945
4.866 6.185 0.850 3181
4.843 6.155 0.824 3431
4.830 6.138 0.799 4714
4.831 6.140 0.776 4455
4.832 6.141 0.754 3170
4.818 6.124 0.729 2739
4.829 6.138 0.708 2056
5.572 7.082 0.770 2066
5.686 7.227 0.756 2023
5.692 7.234 0.730 2280
5.693 7.236 0.703 2201
5.699 7.243 0.677 1987
5.700 7.244 0.650 1271
5.549 7.053 0.610 1144
5.560 7.066 0.585 1139
5.570 7.080 0.560 999
5.693 7.236 0.542 880
5.689 7.231 0.515 778
5.690 7.231 0.488 419
1.253 1.583 1.547 6732
1.255 1.586 1.541 13465
1.254 1.584 1.530 13884
1.256 1.587 1.525 14339
1.259 1.591 1.519 14339
1.277 1.614 1.531 15000
1.300 1.643 1.548 20886
1.311 1.656 1.551 18370
1.321 1.670 1.554 17234
1.324 1.673 1.548 17234
1.326 1.676 1.542 11986
1.349 1.705 1.558 7590
1.340 1.693 1.538 6925
1.342 1.696 1.532 6766
1.345 1.699 1.526 6274
1.347 1.702 1.520 5783
1.350 1.706 1.514 7110
1.352 1.709 1.507 8437
1.355 1.712 1.501 7118
1.395 1.762 1.533 6229
1.380 1.744 1.510 7094
1.383 1.747 1.504 8233
1.390 1.756 1.502 6984
1.442 1.822 1.545 6216
1.445 1.825 1.539 8100
1.447 1.829 1.532 7655
1.450 1.832 1.525 7210
1.448 1.830 1.515 6638
1.446 1.828 1.504 5466
1.432 1.809 1.481 5053
1.489 1.882 1.527 5441
1.492 1.885 1.520 6792
1.498 1.894 1.517 7159
1.501 1.897 1.510 7565
1.499 1.894 1.499 6501
1.497 1.892 1.488 5771
1.504 1.901 1.486 6639
1.511 1.909 1.482 7796
1.518 1.918 1.479 7987
1.529 1.931 1.480 10841
1.535 1.940 1.477 13265
1.542 1.948 1.474 11293
1.557 1.968 1.478 10624
1.555 1.965 1.467 9234
1.558 1.969 1.460 6296
1.604 2.026 1.490 7327
1.610 2.035 1.486 8008
1.617 2.043 1.483 7748
1.620 2.046 1.475 7388
1.613 2.039 1.460 8181
1.611 2.036 1.449 9392
1.618 2.045 1.446 9775
1.620 2.048 1.438 7360
1.627 2.056 1.434 4556
1.691 2.137 1.476 4006
1.698 2.145 1.472 6299
1.700 2.148 1.464 6999
1.694 2.140 1.449 6435
1.692 2.138 1.438 9727
1.698 2.146 1.434 12756
1.705 2.155 1.429 13043
1.716 2.169 1.428 11070
1.745 2.206 1.441 10584
1.766 2.231 1.446 12763
1.772 2.240 1.441 14126
1.806 2.282 1.456 10471
1.808 2.285 1.448 9128
1.811 2.288 1.440 7261
1.813 2.291 1.431 5824
1.820 2.300 1.426 6939
1.840 2.325 1.431 6967
1.860 2.351 1.435 8612
1.867 2.360 1.429 7754
1.883 2.380 1.430 4677
1.849 2.337 1.396 3248
1.879 2.374 1.407 4292
1.886 2.383 1.401 8255
1.892 2.391 1.395 11356
1.899 2.400 1.390 12985
1.906 2.408 1.384 10561
1.949 2.463 1.402 9555
1.965 2.483 1.402 8919
1.981 2.503 1.402 6622
1.992 2.518 1.398 5039
2.027 2.561 1.410 5431
1.983 2.506 1.371 4709
1.999 2.526 1.371 4861
2.015 2.546 1.370 7020
2.027 2.561 1.366 7848
2.033 2.569 1.360 6629
2.054 2.595 1.362 4154
2.084 2.633 1.369 4174
2.091 2.642 1.362 8071
2.088 2.639 1.349 7760
2.137 2.700 1.367 6536
2.143 2.709 1.359 5341
2.136 2.700 1.344 4620
2.213 2.796 1.376 4140
2.220 2.805 1.369 4506
2.166 2.737 1.327 6577
2.164 2.734 1.315 7655
2.222 2.807 1.335 6142
2.228 2.816 1.328 7131
2.230 2.818 1.317 6290
2.293 2.898 1.339 5786
2.305 2.912 1.333 7104
2.316 2.927 1.328 5548
2.346 2.965 1.331 3822
2.330 2.944 1.311 4586
2.337 2.953 1.302 5679
2.395 3.027 1.320 5968
2.383 3.011 1.302 5432
2.390 3.020 1.293 4765
2.425 3.064 1.298 7356
2.441 3.085 1.293 7485
2.448 3.093 1.284 5125
2.455 3.102 1.275 5958
2.457 3.104 1.264 6250
2.459 3.107 1.252 5153
2.555 3.229 1.284 5076
2.562 3.238 1.274 5327
2.597 3.282 1.277 5180
2.599 3.285 1.265 5963
2.601 3.287 1.253 4944
2.622 3.314 1.249 4783
2.686 3.394 1.263 5057
2.693 3.403 1.252 7238
2.705 3.418 1.244 8098
2.707 3.420 1.231 7918
2.761 3.489 1.240 6043
2.763 3.491 1.227 4636
2.779 3.512 1.220 5918
2.776 3.508 1.205 7210
2.860 3.613 1.223 7179
2.861 3.616 1.210 7954
2.868 3.624 1.198 8590
2.880 3.639 1.189 9609
2.886 3.647 1.177 8164
2.869 3.625 1.157 5155
2.890 3.652 1.150 5059
2.892 3.654 1.137 6274
2.894 3.657 1.123 5782
2.895 3.659 1.110 5297
2.892 3.655 1.095 6253
2.894 3.657 1.081 5814
3.146 3.976 1.149 5201
3.143 3.972 1.133 3647
3.208 4.053 1.138 3185
3.219 4.068 1.126 3555
3.240 4.094 1.117 5887
3.247 4.103 1.103 12068
3.244 4.099 1.087 16236
3.245 4.101 1.072 13831
3.252 4.109 1.058 9866
3.258 4.117 1.044 9226
3.260 4.119 1.029 9875
3.257 4.115 1.013 7355
3.481 4.399 1.057 6261
3.488 4.407 1.042 4272
3.742 4.728 1.090 3145
3.748 4.736 1.074 4567
3.750 4.739 1.057 5689
3.752 4.741 1.039 7059
3.758 4.749 1.023 8644
3.755 4.745 1.004 9326
3.912 4.943 1.022 9679
3.914 4.945 1.004 12774
3.915 4.947 0.985 15172
3.917 4.949 0.967 16084
3.918 4.951 0.949 15085
3.920 4.953 0.931 12407
3.921 4.955 0.912 9077
3.927 4.963 0.895 6210
3.924 4.958 0.876 4922
4.277 5.404 0.922 4303
4.278 5.406 0.902 3919
4.235 5.352 0.875 4425
4.237 5.354 0.855 4040
4.404 5.565 0.863 3057
4.405 5.567 0.842 2920
4.402 5.562 0.821 2509
4.882 6.169 0.873 2372
4.884 6.171 0.850 3384
4.880 6.166 0.826 3678
4.871 6.156 0.802 3989
4.873 6.157 0.780 4055
4.884 6.171 0.758 3539
4.890 6.179 0.736 2903
4.881 6.167 0.712 2213
5.592 7.067 0.770 2778
5.589 7.062 0.743 2473
5.590 7.063 0.717 2225
5.713 7.219 0.703 2040
5.719 7.227 0.677 1700
5.602 7.079 0.639 1132
5.569 7.037 0.610 1184
5.589 7.063 0.586 1207
5.590 7.064 0.560 1146
5.591 7.065 0.533 944
5.597 7.072 0.508 719
5.602 7.079 0.482 387
1.253 1.574 1.542 6429
1.256 1.577 1.536 12859
1.258 1.581 1.530 13733
1.261 1.584 1.525 14608
1.263 1.587 1.519 14608
1.282 1.610 1.531 15756
1.305 1.639 1.548 21696
1.316 1.652 1.551 18587
1.326 1.666 1.554 17133
1.329 1.669 1.548 17133
1.335 1.677 1.546 12007
1.350 1.696 1.553 8063
1.345 1.689 1.538 6670
1.343 1.687 1.528 5920
1.346 1.690 1.522 6316
1.352 1.699 1.520 6774
1.355 1.702 1.514 8274
1.357 1.705 1.507 9774
1.360 1.708 1.501 8491
1.358 1.706 1.491 7256
1.373 1.725 1.497 6886
1.384 1.738 1.499 7283
1.390 1.747 1.497 5780
1.447 1.818 1.545 6456
1.450 1.821 1.539 8286
1.452 1.824 1.532 7612
1.455 1.828 1.525 6938
1.458 1.831 1.519 6598
1.452 1.823 1.504 5625
1.454 1.826 1.497 4944
1.499 1.883 1.531 5974
1.501 1.886 1.524 7395
1.504 1.889 1.517 7948
1.511 1.898 1.514 8505
1.505 1.890 1.499 7868
1.503 1.888 1.488 7788
1.505 1.891 1.482 8038
1.512 1.899 1.479 8414
1.519 1.908 1.476 8121
1.534 1.927 1.480 11160
1.541 1.936 1.477 14424
1.548 1.944 1.474 12571
1.563 1.963 1.478 12489
1.565 1.966 1.471 10845
1.568 1.969 1.464 7073
1.605 2.016 1.486 7565
1.616 2.030 1.486 8620
1.623 2.039 1.483 8506
1.621 2.036 1.471 8058
1.610 2.023 1.453 8967
1.617 2.031 1.449 10175
1.624 2.040 1.446 10293
1.631 2.048 1.442 7862
1.633 2.051 1.434 5268
1.697 2.132 1.476 4604
1.704 2.140 1.472 6082
1.706 2.143 1.464 6142
1.691 2.124 1.442 6792
1.693 2.127 1.435 11000
1.700 2.136 1.430 13604
1.711 2.150 1.429 13780
1.723 2.164 1.428 11833
1.752 2.200 1.441 9710
1.776 2.231 1.449 12265
1.783 2.240 1.445 13872
1.808 2.271 1.453 10388
1.815 2.280 1.448 8341
1.817 2.283 1.440 6511
1.824 2.291 1.434 6034
1.831 2.300 1.429 8143
1.847 2.320 1.431 8014
1.863 2.340 1.432 9229
1.874 2.354 1.429 8239
1.876 2.357 1.421 4838
1.852 2.326 1.393 3385
1.890 2.374 1.410 4786
1.892 2.377 1.401 9782
1.899 2.386 1.395 12836
1.902 2.389 1.387 14265
1.908 2.397 1.381 11611
1.956 2.457 1.402 10527
1.977 2.483 1.405 9018
1.993 2.503 1.405 8138
1.995 2.506 1.396 6913
1.988 2.497 1.380 7326
1.991 2.500 1.371 5697
2.007 2.520 1.371 5204
2.023 2.541 1.370 6908
2.029 2.549 1.364 7313
2.050 2.575 1.365 6753
2.071 2.601 1.367 4705
2.091 2.627 1.369 4777
2.094 2.630 1.359 8295
2.105 2.644 1.355 7365
2.144 2.694 1.367 6233
2.151 2.702 1.359 5007
2.144 2.693 1.344 4167
2.221 2.790 1.376 4113
2.228 2.798 1.369 4584
2.179 2.737 1.330 6280
2.181 2.739 1.320 7218
2.230 2.801 1.335 7407
2.237 2.809 1.328 8249
2.243 2.818 1.320 5812
2.302 2.891 1.339 5385
2.318 2.912 1.336 5894
2.329 2.926 1.330 5454
2.332 2.929 1.319 3512
2.338 2.937 1.311 4321
2.345 2.946 1.302 6118
2.352 2.954 1.294 6253
2.364 2.969 1.288 5316
2.403 3.019 1.295 4623
2.434 3.057 1.298 7245
2.450 3.078 1.293 6720
2.466 3.098 1.289 4045
2.468 3.101 1.277 4249
2.466 3.097 1.264 4949
2.548 3.201 1.289 4746
2.565 3.222 1.284 4679
2.572 3.230 1.274 5392
2.626 3.298 1.285 4743
2.614 3.283 1.267 4656
2.611 3.280 1.253 4079
2.637 3.312 1.251 4709
2.677 3.363 1.255 6393
2.679 3.365 1.242 9081
2.700 3.392 1.238 8486
2.769 3.478 1.253 9592
2.771 3.481 1.240 8593
2.763 3.471 1.223 5958
2.775 3.486 1.214 6575
2.787 3.500 1.205 8468
2.865 3.599 1.221 7900
2.872 3.607 1.210 9252
2.874 3.610 1.197 11084
2.885 3.624 1.187 8968
2.887 3.627 1.174 7088
2.880 3.617 1.157 6854
2.896 3.637 1.148 5613
2.888 3.628 1.132 5269
2.899 3.642 1.122 5019
2.882 3.620 1.102 6387
2.889 3.628 1.090 7369
2.900 3.643 1.080 5919
3.158 3.966 1.149 4604
3.155 3.963 1.133 3369
3.224 4.050 1.140 2756
3.236 4.064 1.128 2425
3.252 4.085 1.117 5069
3.254 4.087 1.102 12117
3.251 4.083 1.085 17119
3.257 4.092 1.072 14397
3.264 4.100 1.058 10495
3.270 4.108 1.044 9182
3.272 4.110 1.029 9496
3.269 4.106 1.013 7611
3.499 4.395 1.058 7954
3.501 4.397 1.042 5086
3.751 4.711 1.089 2814
3.757 4.719 1.073 4065
3.759 4.722 1.055 5161
3.765 4.730 1.039 6254
3.772 4.738 1.023 7599
3.769 4.734 1.004 8325
3.926 4.932 1.022 10495
3.928 4.934 1.004 13950
3.930 4.936 0.985 16427
3.931 4.938 0.967 17285
3.933 4.940 0.949 16286
3.934 4.942 0.931 13493
3.935 4.943 0.912 9908
3.942 4.951 0.895 6851
3.938 4.947 0.876 5491
4.292 5.391 0.922 4559
4.250 5.338 0.895 4313
4.251 5.340 0.875 5628
4.252 5.341 0.855 4961
4.425 5.558 0.864 3091
4.422 5.554 0.842 2892
4.423 5.555 0.822 2463
4.895 6.149 0.872 2465
4.902 6.157 0.850 3454
4.898 6.152 0.826 3833
4.899 6.154 0.804 4295
4.900 6.155 0.781 4640
4.901 6.157 0.758 4183
4.908 6.164 0.736 3521
4.904 6.159 0.712 2739
5.613 7.050 0.770 3424
5.609 7.046 0.743 2891
5.615 7.053 0.717 2389
5.611 7.048 0.691 2063
5.617 7.056 0.665 1548
5.618 7.057 0.639 1199
5.589 7.021 0.610 1253
5.610 7.047 0.586 1289
5.611 7.048 0.560 1291
5.612 7.049 0.533 1107
5.612 7.049 0.507 861
5.623 7.063 0.482 463
5.623 7.063 0.455 281
1.258 1.571 1.542 5942
1.260 1.574 1.536 11884
1.263 1.577 1.530 13132
1.269 1.585 1.529 14445
1.272 1.588 1.524 14445
1.287 1.607 1.531 15993
1.310 1.635 1.548 21796
1.320 1.649 1.551 18236
1.331 1.662 1.554 16467
1.334 1.665 1.548 16467
1.340 1.674 1.546 11667
1.355 1.692 1.553 8206
1.350 1.685 1.538 6385
1.348 1.683 1.528 5313
1.351 1.686 1.522 6478
1.357 1.695 1.520 7681
1.360 1.698 1.514 9212
1.362 1.701 1.507 10742
1.361 1.699 1.497 9515
1.363 1.702 1.491 8293
1.370 1.710 1.489 7368
1.380 1.724 1.491 6791
1.387 1.732 1.489 4884
1.457 1.819 1.549 6542
1.459 1.822 1.543 8414
1.462 1.825 1.536 7573
1.465 1.829 1.529 6732
1.463 1.827 1.519 6586
1.461 1.824 1.508 5807
1.498 1.870 1.534 5147
1.504 1.878 1.531 6531
1.507 1.882 1.524 7726
1.514 1.890 1.521 8446
1.516 1.893 1.514 9152
1.510 1.886 1.499 8944
1.508 1.883 1.488 9423
1.511 1.886 1.482 9224
1.513 1.890 1.475 9026
1.520 1.898 1.472 8347
1.544 1.928 1.484 11430
1.547 1.931 1.477 15356
1.553 1.939 1.474 13569
1.569 1.959 1.478 13765
1.571 1.962 1.471 11962
1.574 1.965 1.464 7682
1.607 2.006 1.483 7941
1.618 2.020 1.483 9103
1.625 2.028 1.479 9144
1.627 2.032 1.471 8602
1.616 2.018 1.453 9591
1.619 2.021 1.446 10700
1.625 2.030 1.442 10542
1.637 2.044 1.442 8126
1.643 2.052 1.438 5886
1.703 2.127 1.476 5199
1.710 2.135 1.472 6052
1.717 2.144 1.468 5602
1.697 2.119 1.442 7144
1.700 2.122 1.435 11595
1.706 2.131 1.430 13675
1.718 2.145 1.429 13694
1.729 2.159 1.428 11969
1.749 2.184 1.434 8766
1.783 2.226 1.449 11368
1.794 2.240 1.448 13291
1.815 2.266 1.453 9963
1.822 2.274 1.448 7431
1.824 2.277 1.440 6208
1.835 2.292 1.438 6854
1.838 2.295 1.429 9397
1.849 2.309 1.427 8731
1.870 2.334 1.432 9270
1.876 2.343 1.426 8109
1.879 2.346 1.418 4914
1.858 2.320 1.393 3673
1.893 2.363 1.407 5510
1.904 2.377 1.404 10878
1.906 2.380 1.395 13717
1.909 2.383 1.387 15016
1.915 2.392 1.381 12248
1.963 2.452 1.402 11162
1.984 2.477 1.405 9295
2.000 2.497 1.405 9487
1.993 2.489 1.390 8851
1.996 2.492 1.380 9048
2.002 2.500 1.374 6574
2.018 2.520 1.374 5710
2.030 2.535 1.370 6878
2.037 2.543 1.364 6836
2.058 2.569 1.365 6789
2.078 2.595 1.367 5372
2.099 2.621 1.369 5254
2.101 2.624 1.359 8339
2.118 2.644 1.357 6977
2.152 2.687 1.367 5608
2.159 2.696 1.359 4340
2.161 2.699 1.349 3538
2.234 2.789 1.379 3441
2.231 2.786 1.366 4031
2.191 2.736 1.333 5880
2.193 2.739 1.323 6286
2.238 2.794 1.335 8147
2.245 2.803 1.328 8760
2.252 2.811 1.320 4942
2.305 2.879 1.337 5274
2.326 2.905 1.336 5034
2.338 2.919 1.330 5058
2.326 2.904 1.312 3818
2.342 2.925 1.308 4334
2.354 2.939 1.302 6019
2.361 2.948 1.294 6198
2.368 2.956 1.285 5259
2.417 3.018 1.298 4425
2.443 3.050 1.298 6614
2.459 3.070 1.293 5515
2.485 3.103 1.293 4023
2.492 3.111 1.284 3876
2.470 3.084 1.262 4158
2.548 3.182 1.285 4106
2.569 3.208 1.282 3973
2.576 3.217 1.272 5073
2.583 3.225 1.262 4621
2.647 3.305 1.277 4080
2.683 3.350 1.280 4799
2.666 3.328 1.259 5958
2.682 3.349 1.253 8981
2.684 3.351 1.240 11763
2.700 3.372 1.234 11045
2.779 3.470 1.253 10797
2.781 3.473 1.240 10506
2.769 3.457 1.221 7677
2.790 3.484 1.216 8023
2.797 3.492 1.205 9673
2.876 3.591 1.221 8848
2.878 3.593 1.208 10486
2.884 3.602 1.197 12467
2.891 3.610 1.185 8766
2.893 3.612 1.172 8047
2.895 3.615 1.158 8787
2.902 3.623 1.147 5830
2.894 3.613 1.130 4158
2.891 3.609 1.115 4287
2.892 3.612 1.102 7132
2.894 3.614 1.088 8387
2.906 3.628 1.078 6058
3.174 3.963 1.151 3956
3.166 3.953 1.133 3153
3.168 3.956 1.118 2407
3.165 3.952 1.102 2425
3.269 4.082 1.118 4600
3.261 4.072 1.100 11429
3.263 4.074 1.085 16688
3.264 4.076 1.070 13970
3.276 4.090 1.058 10405
3.277 4.092 1.043 8558
3.284 4.100 1.029 8400
3.515 4.389 1.076 8842
3.512 4.385 1.058 9154
3.518 4.393 1.043 5820
3.525 4.401 1.028 2525
3.766 4.702 1.072 3403
3.768 4.704 1.054 4413
3.774 4.713 1.038 5265
3.786 4.727 1.023 6289
3.939 4.918 1.040 7045
3.941 4.920 1.022 10209
3.942 4.922 1.004 13705
3.944 4.924 0.985 16075
3.945 4.926 0.967 16847
3.947 4.928 0.949 16004
3.948 4.930 0.931 13318
3.950 4.932 0.912 9781
3.956 4.940 0.895 6789
3.953 4.935 0.876 5449
4.308 5.379 0.922 4436
4.265 5.325 0.895 4839
4.266 5.327 0.875 6480
4.268 5.329 0.855 5564
4.269 5.330 0.835 3054
4.492 5.609 0.851 2712
4.498 5.616 0.831 2586
4.499 5.618 0.810 2559
4.915 6.136 0.849 3344
4.916 6.138 0.826 3745
4.922 6.146 0.804 4510
4.918 6.141 0.781 4967
4.919 6.142 0.758 4475
4.925 6.150 0.736 3833
4.922 6.145 0.712 3025
5.629 7.028 0.769 3790
5.630 7.029 0.743 3110
5.636 7.037 0.717 2454
5.637 7.038 0.691 2129
5.638 7.039 0.665 1621
5.639 7.040 0.639 1206
5.610 7.005 0.610 1263
5.630 7.030 0.586 1305
5.631 7.031 0.560 1353
5.632 7.032 0.533 1189
5.633 7.033 0.507 939
5.643 7.046 0.482 491
5.644 7.047 0.455 284
1.262 1.567 1.542 5331
1.265 1.570 1.536 10662
1.272 1.578 1.535 12386
1.274 1.581 1.529 14282
1.277 1.585 1.524 14282
1.295 1.608 1.536 16119
1.310 1.626 1.543 21788
1.325 1.645 1.551 17735
1.336 1.658 1.554 15619
1.339 1.661 1.548 15619
1.345 1.670 1.546 11237
1.360 1.688 1.553 8270
1.354 1.681 1.538 6182
1.349 1.674 1.523 4955
1.355 1.682 1.522 6789
1.362 1.691 1.520 8681
1.360 1.689 1.509 10204
1.363 1.692 1.503 11750
1.365 1.695 1.497 10507
1.368 1.698 1.491 9264
1.375 1.706 1.489 7925
1.377 1.709 1.483 6673
1.460 1.812 1.556 4878
1.462 1.815 1.549 6766
1.465 1.818 1.543 8654
1.467 1.821 1.536 7700
1.470 1.824 1.529 6746
1.472 1.828 1.523 6824
1.488 1.847 1.528 6490
1.503 1.866 1.534 6052
1.514 1.879 1.535 7167
1.517 1.883 1.528 7974
1.519 1.886 1.521 8915
1.517 1.883 1.510 9837
1.516 1.881 1.499 10058
1.514 1.879 1.488 11029
1.516 1.882 1.482 10382
1.519 1.885 1.475 9735
1.526 1.893 1.472 8718
1.550 1.923 1.484 11829
1.552 1.926 1.477 16319
1.563 1.940 1.477 14571
1.579 1.960 1.482 14979
1.577 1.957 1.471 12811
1.579 1.960 1.464 8098
1.612 2.001 1.483 8556
1.624 2.015 1.483 9817
1.630 2.024 1.479 9987
1.633 2.027 1.471 9262
1.622 2.013 1.453 10039
1.625 2.016 1.446 10955
1.631 2.025 1.442 10547
1.643 2.039 1.442 8176
1.649 2.047 1.438 6431
1.710 2.122 1.476 5666
1.716 2.130 1.472 6198
1.723 2.139 1.468 5448
1.703 2.114 1.442 7325
1.706 2.117 1.435 11444
1.713 2.126 1.430 12762
1.724 2.140 1.429 12644
1.735 2.154 1.428 11325
1.751 2.173 1.431 7883
1.794 2.227 1.453 10261
1.801 2.235 1.448 12600
1.817 2.255 1.450 9510
1.824 2.264 1.445 6784
1.831 2.272 1.440 6315
1.837 2.281 1.434 8047
1.844 2.289 1.429 10831
1.856 2.303 1.427 9636
1.872 2.323 1.428 9127
1.883 2.337 1.426 7642
1.890 2.346 1.421 4729
1.870 2.321 1.396 3836
1.899 2.358 1.407 6294
1.911 2.372 1.404 11784
1.913 2.375 1.395 14349
1.915 2.377 1.387 15520
1.922 2.386 1.381 12566
1.975 2.452 1.405 11708
1.991 2.472 1.405 9732
2.007 2.492 1.405 10649
2.001 2.483 1.390 10726
2.003 2.486 1.380 10601
2.010 2.494 1.374 7453
2.040 2.532 1.382 6385
2.042 2.534 1.373 6946
2.049 2.543 1.366 6439
2.079 2.580 1.374 7017
2.081 2.583 1.364 6231
2.097 2.603 1.363 5998
2.109 2.618 1.359 8378
2.125 2.638 1.357 6462
2.146 2.664 1.359 4972
2.167 2.690 1.359 3594
2.174 2.698 1.352 3123
2.176 2.701 1.342 3304
2.197 2.727 1.343 4194
2.199 2.730 1.333 5542
2.206 2.738 1.325 5118
2.246 2.788 1.335 8312
2.253 2.796 1.328 8586
2.260 2.805 1.320 4135
2.314 2.872 1.337 4752
2.340 2.904 1.338 4049
2.346 2.912 1.330 4298
2.334 2.897 1.312 3658
2.346 2.912 1.306 4098
2.362 2.932 1.302 5448
2.369 2.941 1.294 5610
2.376 2.949 1.285 5126
2.430 3.017 1.300 4363
2.447 3.037 1.296 5674
2.473 3.069 1.296 4116
2.499 3.101 1.295 4560
2.501 3.104 1.284 4403
2.479 3.077 1.262 3728
2.510 3.115 1.263 4064
2.536 3.147 1.262 4059
2.557 3.174 1.259 4922
2.592 3.218 1.262 4884
2.662 3.304 1.279 4785
2.692 3.342 1.280 6622
2.680 3.327 1.261 8167
2.687 3.335 1.251 11584
2.694 3.344 1.240 14316
2.701 3.352 1.230 13925
2.698 3.348 1.216 11635
2.791 3.465 1.240 11396
2.779 3.449 1.221 8950
2.800 3.475 1.216 9157
2.812 3.490 1.207 10439
2.881 3.576 1.220 11230
2.888 3.585 1.208 12210
2.890 3.587 1.195 13013
2.897 3.595 1.183 8613
2.904 3.604 1.172 9207
2.910 3.612 1.160 11159
2.912 3.615 1.147 6235
2.899 3.599 1.128 3268
2.896 3.595 1.113 3918
2.898 3.597 1.100 7723
2.905 3.605 1.088 8970
2.916 3.620 1.078 5887
2.971 3.688 1.082 4298
3.183 3.950 1.134 3020
2.985 3.704 1.058 2753
3.177 3.943 1.102 2659
3.261 4.048 1.113 4657
3.273 4.062 1.100 10463
3.270 4.058 1.084 15334
3.276 4.066 1.070 12889
3.288 4.081 1.058 9919
3.284 4.077 1.041 7727
3.526 4.376 1.092 8005
3.523 4.372 1.074 9772
3.525 4.375 1.058 9727
3.531 4.383 1.043 6195
3.538 4.391 1.028 2573
3.770 4.679 1.069 2920
3.693 4.584 1.033 4694
3.695 4.586 1.016 4730
3.795 4.710 1.022 4952
3.953 4.907 1.040 6357
3.955 4.909 1.022 9299
3.957 4.911 1.004 12642
3.958 4.913 0.985 14726
3.960 4.915 0.967 15357
3.961 4.917 0.949 14681
3.963 4.919 0.931 12241
3.964 4.920 0.912 8867
3.966 4.922 0.894 6142
3.967 4.924 0.876 5047
4.329 5.372 0.923 4044
4.281 5.313 0.895 5197
4.277 5.309 0.874 7143
4.278 5.310 0.854 5887
4.285 5.318 0.835 3175
4.513 5.602 0.852 3091
4.519 5.609 0.832 2988
4.516 5.605 0.810 2959
4.927 6.116 0.849 3123
4.934 6.124 0.826 3502
4.940 6.131 0.804 4523
4.936 6.127 0.781 5002
4.937 6.128 0.758 4460
4.943 6.136 0.736 3858
4.939 6.131 0.712 3062
5.649 7.011 0.769 3901
5.650 7.013 0.743 3161
5.656 7.020 0.717 2411
5.657 7.022 0.691 2073
5.658 7.023 0.665 1564
5.654 7.018 0.638 1182
5.635 6.994 0.611 1269
5.646 7.008 0.585 1295
5.652 7.015 0.560 1352
5.652 7.016 0.533 1198
5.653 7.017 0.507 944
5.659 7.024 0.481 479
5.664 7.031 0.455 261
1.262 1.559 1.537 4708
1.265 1.562 1.532 9417
1.275 1.575 1.535 11399
1.282 1.583 1.534 13825
1.284 1.587 1.528 13825
1.299 1.605 1.536 15784
1.314 1.623 1.543 21115
1.325 1.637 1.546 16815
1.340 1.655 1.554 14482
1.342 1.658 1.548 14482
1.353 1.672 1.551 10531
1.364 1.685 1.553 7994
1.358 1.678 1.538 5823
1.353 1.671 1.523 4675
1.359 1.679 1.522 6938
1.362 1.682 1.516 9324
1.364 1.685 1.509 10780
1.367 1.689 1.503 12236
1.369 1.692 1.497 10996
1.372 1.695 1.491 9756
1.374 1.698 1.485 8253
1.381 1.706 1.483 6783
1.384 1.709 1.476 5183
1.466 1.811 1.549 6778
1.469 1.815 1.543 8680
1.472 1.818 1.536 7708
1.478 1.826 1.534 6744
1.481 1.829 1.527 7079
1.496 1.848 1.532 7234
1.507 1.862 1.534 6689
1.519 1.876 1.535 7427
1.521 1.879 1.528 7858
1.524 1.882 1.521 8979
1.522 1.880 1.510 10220
1.520 1.878 1.499 10812
1.518 1.875 1.488 12072
1.521 1.879 1.482 11139
1.519 1.876 1.471 10213
1.526 1.885 1.468 8938
1.559 1.925 1.488 11952
1.557 1.923 1.477 16714
1.568 1.937 1.477 15080
1.583 1.956 1.482 15574
1.581 1.954 1.471 13060
1.584 1.957 1.464 8117
1.617 1.998 1.483 8937
1.628 2.011 1.483 10319
1.635 2.020 1.479 10621
1.638 2.023 1.471 9702
1.627 2.010 1.453 10023
1.629 2.013 1.446 10687
1.636 2.021 1.442 10089
1.647 2.035 1.442 7867
1.654 2.043 1.438 6696
1.661 2.052 1.434 5916
1.721 2.126 1.472 6378
1.728 2.135 1.468 5549
1.713 2.116 1.446 7491
1.711 2.113 1.435 10885
1.713 2.116 1.427 11481
1.729 2.136 1.429 11176
1.740 2.150 1.428 10299
1.752 2.164 1.427 7141
1.799 2.222 1.453 9114
1.811 2.237 1.451 11614
1.822 2.251 1.450 8983
1.824 2.254 1.441 6245
1.831 2.262 1.436 6439
1.843 2.276 1.434 8718
1.850 2.285 1.429 11641
1.861 2.299 1.427 10234
1.873 2.313 1.425 8995
1.884 2.327 1.423 6870
1.896 2.342 1.421 4231
1.875 2.316 1.396 3661
1.905 2.353 1.407 6604
1.916 2.367 1.404 11879
1.919 2.370 1.395 14311
1.926 2.379 1.390 15508
1.932 2.387 1.384 12357
1.981 2.447 1.405 11777
1.997 2.467 1.405 9959
2.013 2.487 1.405 10874
2.002 2.473 1.387 11561
2.009 2.481 1.380 11273
2.020 2.495 1.377 7948
2.046 2.527 1.382 6956
2.048 2.530 1.373 6870
2.055 2.538 1.366 5946
2.085 2.576 1.374 6847
2.087 2.578 1.364 6790
2.103 2.598 1.363 6610
2.115 2.613 1.359 8229
2.131 2.633 1.357 5908
2.152 2.659 1.359 4352
2.117 2.615 1.327 3573
2.124 2.624 1.320 2936
2.178 2.690 1.340 3880
2.189 2.704 1.335 4799
2.210 2.730 1.335 5014
2.246 2.774 1.343 4775
2.252 2.782 1.335 7565
2.259 2.791 1.328 7607
2.266 2.799 1.320 4030
2.320 2.866 1.337 4175
2.351 2.904 1.341 3302
2.282 2.819 1.293 4458
2.284 2.822 1.283 3488
2.348 2.901 1.304 3776
2.369 2.927 1.302 4502
2.376 2.935 1.294 4714
2.383 2.944 1.285 4860
2.438 3.011 1.300 4433
2.440 3.014 1.289 4970
2.499 3.087 1.305 3399
2.501 3.090 1.293 4544
2.503 3.092 1.282 4557
2.496 3.083 1.266 3789
2.522 3.115 1.265 4433
2.543 3.141 1.262 4181
2.564 3.168 1.259 5047
2.581 3.188 1.254 5053
2.674 3.303 1.282 5149
2.695 3.330 1.277 7765
2.693 3.326 1.263 9709
2.695 3.329 1.251 12951
2.702 3.337 1.240 15176
2.704 3.340 1.228 15230
2.706 3.342 1.216 13732
2.756 3.404 1.222 11853
2.777 3.431 1.217 9144
2.818 3.481 1.220 10469
2.820 3.483 1.207 11493
2.890 3.570 1.220 13437
2.892 3.572 1.206 14061
2.898 3.580 1.195 12937
2.900 3.583 1.182 8336
2.912 3.597 1.172 9911
2.919 3.605 1.160 12831
2.916 3.602 1.145 7302
2.903 3.586 1.127 3431
2.900 3.582 1.112 3610
2.907 3.590 1.100 7802
2.913 3.599 1.088 8877
2.978 3.679 1.096 6449
2.980 3.681 1.082 4779
2.908 3.593 1.045 3608
3.184 3.933 1.117 3139
3.186 3.935 1.102 2716
3.271 4.040 1.113 4909
3.277 4.048 1.099 9213
3.279 4.051 1.084 13424
3.286 4.059 1.070 11362
3.297 4.073 1.058 9037
3.289 4.063 1.040 7018
3.531 4.362 1.090 8330
3.533 4.364 1.074 9651
3.540 4.372 1.059 9281
3.541 4.375 1.043 6089
3.691 4.559 1.064 2589
3.692 4.561 1.047 3587
3.699 4.569 1.031 4906
3.705 4.577 1.016 5298
3.963 4.896 1.058 3786
3.965 4.898 1.040 5265
3.967 4.900 1.022 7813
3.968 4.902 1.004 10775
3.970 4.904 0.985 12513
3.971 4.906 0.967 12940
3.973 4.907 0.949 12484
3.974 4.909 0.931 10439
3.976 4.911 0.912 7403
3.982 4.919 0.895 5036
3.978 4.914 0.876 4077
4.301 5.313 0.916 3615
4.288 5.297 0.894 5258
4.289 5.299 0.874 7451
4.291 5.300 0.854 6047
4.292 5.302 0.834 3299
4.526 5.591 0.852 3154
4.527 5.593 0.831 3092
4.529 5.594 0.810 3099
4.937 6.098 0.848 2867
4.953 6.118 0.827 3171
4.954 6.120 0.804 4298
4.950 6.115 0.781 4737
4.952 6.117 0.758 4155
4.958 6.124 0.736 3609
4.954 6.119 0.712 2878
5.665 6.998 0.769 3700
5.666 7.000 0.743 2924
5.672 7.007 0.717 2153
5.674 7.008 0.691 1846
5.675 7.010 0.665 1397
5.670 7.005 0.638 1099
5.651 6.981 0.611 1209
5.662 6.995 0.585 1218
5.668 7.002 0.560 1271
5.669 7.003 0.533 1131
5.669 7.003 0.507 890
5.675 7.010 0.481 441
1.259 1.545 1.528 4023
1.261 1.548 1.522 8046
1.284 1.576 1.540 10444
1.287 1.580 1.534 13713
1.289 1.583 1.528 13713
1.308 1.606 1.540 15773
1.319 1.619 1.543 20622
1.330 1.633 1.546 16030
1.341 1.646 1.549 13330
1.343 1.649 1.543 13330
1.354 1.662 1.546 9682
1.369 1.681 1.553 7476
1.363 1.674 1.538 5462
1.345 1.651 1.510 5194
1.364 1.675 1.522 7391
1.367 1.678 1.516 10329
1.369 1.681 1.509 11646
1.372 1.684 1.503 12962
1.374 1.687 1.497 11589
1.377 1.691 1.491 10215
1.379 1.694 1.485 8679
1.382 1.697 1.478 7142
1.393 1.710 1.481 5745
1.472 1.807 1.549 6752
1.474 1.810 1.543 8733
1.481 1.819 1.540 7838
1.484 1.822 1.534 6970
1.486 1.825 1.527 7585
1.502 1.844 1.532 8035
1.513 1.858 1.534 7255
1.524 1.871 1.535 7458
1.527 1.874 1.528 7479
1.525 1.872 1.517 8987
1.528 1.875 1.510 10676
1.526 1.873 1.499 11688
1.524 1.871 1.488 13198
1.526 1.874 1.482 12065
1.524 1.872 1.471 11080
1.531 1.880 1.468 9399
1.564 1.921 1.488 12143
1.567 1.924 1.481 17104
1.574 1.932 1.477 15548
1.589 1.951 1.482 16194
1.587 1.949 1.471 13180
1.621 1.990 1.490 7999
1.623 1.993 1.483 9317
1.634 2.007 1.483 10950
1.641 2.015 1.479 11471
1.639 2.013 1.468 10228
1.633 2.005 1.453 9754
1.635 2.008 1.446 10061
1.642 2.016 1.442 9260
1.653 2.030 1.442 7288
1.660 2.038 1.438 6892
1.667 2.047 1.434 6367
1.728 2.121 1.472 6516
1.735 2.130 1.468 5738
1.724 2.116 1.449 7371
1.722 2.114 1.438 9597
1.719 2.111 1.427 9461
1.735 2.131 1.429 9158
1.747 2.145 1.428 8600
1.754 2.153 1.424 6369
1.806 2.217 1.453 7658
1.817 2.231 1.451 10250
1.824 2.240 1.446 8350
1.818 2.231 1.431 6097
1.834 2.251 1.433 6568
1.850 2.271 1.434 8952
1.857 2.279 1.429 11973
1.868 2.293 1.427 10629
1.875 2.302 1.422 8885
1.882 2.311 1.417 6005
1.907 2.342 1.424 3763
1.905 2.339 1.412 3587
1.907 2.342 1.403 6942
1.919 2.356 1.401 11767
1.926 2.364 1.395 14268
1.933 2.373 1.390 15485
1.940 2.381 1.384 11823
1.988 2.441 1.405 11484
2.000 2.455 1.402 10015
2.021 2.481 1.405 10658
2.009 2.467 1.387 11850
2.016 2.475 1.380 11442
2.028 2.489 1.377 8536
2.053 2.521 1.382 7571
2.060 2.529 1.376 6763
2.081 2.555 1.378 5511
2.093 2.569 1.374 6488
2.095 2.572 1.364 7393
2.111 2.592 1.363 7262
2.118 2.601 1.356 8064
2.125 2.609 1.349 5447
2.156 2.646 1.356 3709
2.130 2.615 1.330 3581
2.132 2.617 1.320 3486
2.186 2.684 1.340 4339
2.193 2.692 1.332 5633
2.223 2.730 1.338 4593
2.249 2.761 1.340 4085
2.266 2.781 1.338 5804
2.272 2.790 1.330 5687
2.279 2.798 1.322 3727
2.329 2.859 1.337 4289
2.327 2.856 1.324 3868
2.291 2.812 1.293 4943
2.288 2.809 1.281 3650
2.404 2.952 1.328 3488
2.392 2.937 1.310 3725
2.385 2.928 1.294 4026
2.392 2.936 1.285 4758
2.447 3.004 1.300 4603
2.449 3.006 1.289 4581
2.446 3.003 1.275 2831
2.506 3.076 1.291 3828
2.493 3.061 1.273 4354
2.505 3.075 1.266 4304
2.531 3.108 1.265 4584
2.552 3.134 1.262 4087
2.579 3.166 1.261 5674
2.590 3.180 1.254 5895
2.694 3.307 1.286 5142
2.705 3.321 1.277 8225
2.703 3.318 1.263 10625
2.705 3.321 1.251 13353
2.707 3.323 1.238 14671
2.709 3.326 1.226 15379
2.711 3.328 1.214 15142
2.761 3.390 1.221 13168
2.720 3.339 1.191 9327
2.828 3.472 1.220 10389
2.830 3.475 1.207 10646
2.900 3.561 1.220 14553
2.902 3.563 1.206 15584
2.904 3.566 1.193 12413
2.906 3.568 1.180 8262
2.918 3.582 1.170 10152
2.925 3.591 1.158 13359
2.927 3.593 1.145 8699
2.914 3.577 1.127 5035
2.906 3.567 1.110 4725
2.912 3.576 1.098 7968
2.919 3.584 1.087 8466
2.989 3.670 1.096 6814
2.991 3.672 1.082 5096
2.919 3.584 1.045 4321
3.201 3.929 1.118 3658
3.291 4.040 1.131 3666
3.283 4.030 1.113 5410
3.285 4.033 1.098 7896
3.291 4.041 1.084 10630
3.298 4.049 1.070 9401
3.309 4.063 1.058 8063
3.296 4.047 1.039 6560
3.544 4.351 1.090 7650
3.546 4.354 1.074 8396
3.553 4.362 1.059 8307
3.554 4.364 1.043 5877
3.704 4.548 1.064 3871
3.701 4.544 1.046 4649
3.713 4.558 1.031 4925
3.714 4.560 1.014 5703
3.721 4.568 0.998 4763
3.861 4.740 1.013 5333
3.857 4.736 0.994 6354
3.983 4.890 1.004 7877
3.984 4.892 0.985 9165
3.986 4.894 0.967 9391
3.987 4.895 0.949 9209
3.989 4.897 0.931 7660
3.990 4.899 0.912 5261
4.300 5.279 0.953 4161
4.296 5.274 0.932 3701
4.298 5.276 0.912 3029
4.299 5.278 0.893 5208
4.300 5.280 0.873 7810
4.307 5.287 0.854 6455
4.308 5.289 0.834 3721
4.543 5.577 0.852 3075
4.544 5.579 0.831 3056
4.546 5.581 0.810 3056
4.542 5.576 0.788 2733
4.971 6.103 0.827 2666
4.973 6.105 0.804 3763
4.969 6.100 0.781 4120
4.970 6.102 0.758 3516
4.971 6.103 0.735 3074
4.972 6.104 0.712 2460
5.686 6.981 0.769 3278
5.687 6.983 0.743 2516
5.559 6.825 0.704 2009
5.555 6.820 0.678 1509
5.696 6.993 0.665 1113
5.687 6.981 0.638 969
5.672 6.964 0.611 1095
5.683 6.977 0.585 1074
5.689 6.985 0.560 1093
5.690 6.985 0.533 974
5.691 6.986 0.507 757
5.691 6.987 0.481 355
1.262 1.542 1.528 3430
1.265 1.545 1.522 6860
1.292 1.578 1.544 9532
1.294 1.582 1.538 13297
1.297 1.585 1.533 13297
1.312 1.603 1.540 15294
1.323 1.616 1.543 19465
1.334 1.629 1.546 14848
1.344 1.643 1.549 12027
1.347 1.646 1.543 12027
1.358 1.659 1.546 8565
1.373 1.678 1.553 6545
1.363 1.666 1.534 5130
1.349 1.648 1.510 5605
1.364 1.667 1.517 7727
1.371 1.675 1.516 10575
1.373 1.678 1.509 11666
1.376 1.681 1.503 12758
1.378 1.684 1.497 11309
1.381 1.687 1.491 9860
1.383 1.690 1.485 8490
1.386 1.693 1.478 7121
1.401 1.712 1.485 6247
1.480 1.809 1.554 6480
1.479 1.807 1.543 8477
1.486 1.815 1.540 7710
1.488 1.818 1.534 6965
1.491 1.821 1.527 7795
1.502 1.835 1.528 8316
1.517 1.854 1.534 7286
1.529 1.868 1.535 6993
1.531 1.871 1.528 6725
1.529 1.869 1.517 8636
1.528 1.866 1.506 10701
1.530 1.870 1.499 11953
1.528 1.867 1.488 13537
1.526 1.865 1.478 12427
1.529 1.868 1.471 11472
1.536 1.876 1.468 9397
1.573 1.922 1.492 11840
1.571 1.920 1.481 16543
1.583 1.934 1.481 15202
1.598 1.953 1.486 16052
1.592 1.945 1.471 12608
1.625 1.986 1.490 8154
1.632 1.994 1.486 9278
1.639 2.003 1.483 11000
1.646 2.011 1.479 11724
1.644 2.009 1.468 10287
1.638 2.001 1.453 9037
1.640 2.004 1.446 9019
1.647 2.012 1.442 8104
1.658 2.026 1.442 6486
1.670 2.040 1.441 6928
1.672 2.043 1.434 6513
1.733 2.117 1.472 6365
1.735 2.120 1.464 5802
1.729 2.112 1.449 7319
1.731 2.115 1.442 8354
1.733 2.118 1.434 7407
1.745 2.132 1.433 7223
1.752 2.140 1.428 6799
1.759 2.149 1.424 5705
1.811 2.213 1.453 6479
1.818 2.221 1.448 8880
1.825 2.230 1.443 7920
1.823 2.227 1.431 6712
1.839 2.247 1.433 6405
1.850 2.261 1.431 8382
1.862 2.275 1.429 11447
1.873 2.289 1.427 10580
1.880 2.298 1.422 8670
1.883 2.301 1.414 5498
1.922 2.348 1.430 4246
1.933 2.363 1.428 4597
1.913 2.337 1.403 6621
1.924 2.351 1.401 11068
1.931 2.360 1.395 13680
1.938 2.368 1.390 14647
1.945 2.377 1.384 10619
1.994 2.436 1.405 10552
2.006 2.451 1.402 9677
2.026 2.476 1.405 9924
2.015 2.462 1.387 10992
2.026 2.476 1.383 10773
2.033 2.485 1.377 8525
2.059 2.516 1.382 7905
2.066 2.524 1.376 6539
2.087 2.550 1.378 4961
2.099 2.564 1.374 5817
2.101 2.567 1.364 7470
2.117 2.587 1.363 7487
2.124 2.596 1.356 7741
2.127 2.598 1.347 5335
2.143 2.618 1.345 3424
2.136 2.610 1.330 3331
2.138 2.612 1.320 3593
2.173 2.655 1.329 4469
2.194 2.681 1.330 5589
2.234 2.730 1.340 4574
1.715 2.095 1.048 4128
1.721 2.103 1.043 4924
2.288 2.796 1.335 3981
2.314 2.828 1.337 3782
2.336 2.854 1.337 5122
2.338 2.857 1.326 5462
2.297 2.807 1.293 4754
2.337 2.856 1.302 3593
2.411 2.946 1.328 3480
2.423 2.961 1.321 3561
2.397 2.928 1.296 3981
2.399 2.931 1.285 4758
2.454 2.998 1.300 4505
2.456 3.001 1.289 4128
2.448 2.991 1.273 2844
2.494 3.047 1.282 3128
2.500 3.055 1.273 4677
2.512 3.070 1.266 5378
2.519 3.078 1.257 5110
2.574 3.145 1.269 3827
2.586 3.160 1.261 6130
2.593 3.168 1.252 6495
2.706 3.307 1.288 4457
2.713 3.315 1.277 7169
2.710 3.312 1.263 9617
2.712 3.314 1.251 11633
2.715 3.317 1.238 12017
2.717 3.319 1.226 13382
2.719 3.322 1.214 13909
2.769 3.384 1.221 12011
2.727 3.332 1.191 8784
2.836 3.466 1.220 9274
2.902 3.546 1.231 9285
2.904 3.548 1.218 13877
2.911 3.556 1.206 14785
2.913 3.559 1.193 10929
2.910 3.555 1.178 8063
2.926 3.576 1.170 9497
2.933 3.584 1.158 11628
2.930 3.580 1.143 8611
2.917 3.564 1.125 6455
2.914 3.561 1.110 5965
2.921 3.569 1.098 7696
2.922 3.571 1.085 7438
2.993 3.657 1.094 6436
2.990 3.653 1.079 5207
2.923 3.571 1.044 4626
3.210 3.922 1.118 3997
3.295 4.026 1.129 4597
3.292 4.023 1.113 5596
3.294 4.025 1.098 6826
3.301 4.033 1.084 8152
3.307 4.041 1.070 7838
3.319 4.055 1.058 7476
3.301 4.033 1.037 6113
3.555 4.343 1.090 6168
3.556 4.345 1.074 6301
3.563 4.353 1.059 6634
3.565 4.356 1.043 5236
3.715 4.539 1.064 4685
3.707 4.529 1.045 5347
3.713 4.537 1.029 4809
3.725 4.551 1.014 5674
3.731 4.559 0.998 5575
3.872 4.731 1.013 6009
3.873 4.733 0.995 7380
3.731 4.559 0.946 8330
3.996 4.882 0.985 6131
3.997 4.884 0.967 6193
3.999 4.886 0.949 6174
4.000 4.888 0.931 5108
4.002 4.890 0.912 3278
4.307 5.263 0.952 3918
4.303 5.258 0.931 3607
4.305 5.260 0.912 3067
4.306 5.262 0.892 5394
4.313 5.269 0.873 8152
4.314 5.271 0.853 6811
4.320 5.279 0.834 3931
4.561 5.573 0.852 2682
4.557 5.568 0.831 2678
4.559 5.570 0.810 2633
4.555 5.565 0.788 2339
4.985 6.092 0.827 2118
4.987 6.093 0.804 3041
4.983 6.089 0.781 3295
4.984 6.090 0.758 2754
4.985 6.091 0.735 2412
5.146 6.288 0.731 2335
5.147 6.290 0.707 2922
5.148 6.291 0.684 2197
5.575 6.812 0.704 2089
5.576 6.813 0.678 1605
5.572 6.808 0.652 1202
5.578 6.815 0.627 953
5.689 6.951 0.611 960
5.700 6.964 0.585 935
5.705 6.971 0.560 896
5.701 6.966 0.533 800
5.707 6.973 0.507 599
6.058 7.402 0.502 265
1.263 1.533 1.523 3009
1.265 1.537 1.518 6019
1.301 1.580 1.549 9153
1.299 1.578 1.538 13484
1.302 1.581 1.533 13484
1.317 1.599 1.540 15170
1.328 1.612 1.543 18621
1.334 1.620 1.542 13976
1.349 1.639 1.549 11008
1.352 1.642 1.543 11008
1.359 1.650 1.542 7526
1.378 1.674 1.553 5461
1.360 1.651 1.525 5081
1.358 1.649 1.515 6265
1.369 1.663 1.517 8246
1.372 1.666 1.511 10640
1.374 1.669 1.505 11456
1.377 1.672 1.499 12273
1.383 1.680 1.497 10775
1.386 1.683 1.491 9313
1.389 1.686 1.485 8343
1.391 1.689 1.478 7373
1.411 1.713 1.489 7135
1.422 1.726 1.491 7591
1.484 1.802 1.543 8335
1.487 1.805 1.536 7735
1.468 1.782 1.509 7382
1.470 1.786 1.502 8477
1.507 1.831 1.528 8553
1.519 1.844 1.530 7206
1.534 1.863 1.535 6389
1.532 1.861 1.524 5886
1.531 1.859 1.513 8341
1.533 1.862 1.506 10904
1.531 1.860 1.495 12201
1.534 1.863 1.488 13803
1.532 1.860 1.478 12813
1.534 1.863 1.471 12005
1.537 1.866 1.464 9442
1.579 1.917 1.492 11380
1.581 1.921 1.485 15788
1.593 1.934 1.485 14750
1.604 1.948 1.486 15914
1.602 1.946 1.475 11869
1.644 1.997 1.501 8538
1.638 1.989 1.486 9160
1.645 1.998 1.483 10759
1.652 2.006 1.479 11717
1.650 2.004 1.468 10113
1.648 2.001 1.457 8293
1.646 1.999 1.446 7996
1.653 2.007 1.442 7007
1.669 2.027 1.445 5963
1.680 2.040 1.445 6896
1.678 2.038 1.434 6576
1.739 2.112 1.472 6358
1.728 2.098 1.454 6202
1.735 2.107 1.449 7768
1.746 2.121 1.449 8134
1.749 2.124 1.441 6931
1.756 2.132 1.436 5994
1.763 2.141 1.432 5250
1.770 2.149 1.427 5107
1.781 2.163 1.426 5909
1.820 2.210 1.445 8070
1.827 2.219 1.440 8023
1.825 2.216 1.428 7622
1.832 2.225 1.423 6589
1.857 2.255 1.431 7513
1.873 2.275 1.433 10527
1.880 2.283 1.427 10353
1.887 2.292 1.422 8393
1.885 2.289 1.410 5221
1.938 2.354 1.436 5574
1.945 2.362 1.431 6444
1.938 2.354 1.416 6838
1.936 2.351 1.404 10836
1.943 2.360 1.398 13801
1.945 2.363 1.390 13915
1.952 2.371 1.384 9207
2.006 2.436 1.408 9786
2.013 2.444 1.402 9218
2.025 2.459 1.399 8794
2.027 2.461 1.390 9544
2.034 2.470 1.383 9740
2.041 2.478 1.377 8333
2.067 2.510 1.382 8145
2.074 2.518 1.376 6284
2.095 2.544 1.378 4254
2.102 2.552 1.371 4984
2.109 2.561 1.364 7335
2.125 2.581 1.363 7583
2.132 2.589 1.356 7261
2.134 2.592 1.347 5534
2.146 2.606 1.342 3545
2.153 2.615 1.335 3183
2.150 2.612 1.323 3384
2.181 2.649 1.329 4150
2.202 2.675 1.330 5238
2.243 2.723 1.340 4764
1.726 2.096 1.050 4578
1.728 2.098 1.043 5183
2.302 2.795 1.338 3744
2.318 2.815 1.335 4461
2.344 2.847 1.337 6432
2.351 2.855 1.328 6989
2.349 2.852 1.315 5139
2.341 2.843 1.300 3380
2.348 2.852 1.292 3116
2.432 2.953 1.321 3542
2.405 2.921 1.296 4567
2.407 2.924 1.285 5043
2.467 2.996 1.302 4347
2.470 2.999 1.291 3679
2.452 2.978 1.271 2942
2.498 3.033 1.280 3141
2.510 3.048 1.273 5366
2.521 3.062 1.266 7054
2.528 3.070 1.257 6077
2.589 3.144 1.271 4532
2.600 3.158 1.263 6680
2.607 3.166 1.254 7082
2.609 3.169 1.242 4800
2.723 3.307 1.277 5000
2.677 3.250 1.245 7927
2.722 3.306 1.251 8276
2.720 3.303 1.236 7759
2.726 3.311 1.226 9952
2.729 3.314 1.214 10912
2.774 3.369 1.219 9112
2.742 3.330 1.193 7178
2.852 3.463 1.222 7501
2.908 3.531 1.229 7985
2.914 3.539 1.218 12051
2.921 3.548 1.206 12224
2.923 3.550 1.193 8922
2.920 3.546 1.178 8132
2.932 3.561 1.168 8767
2.944 3.575 1.158 8984
2.941 3.571 1.143 7514
2.928 3.556 1.125 7476
2.925 3.552 1.110 7053
2.927 3.554 1.097 6971
2.933 3.562 1.085 5806
2.994 3.636 1.091 6056
2.991 3.632 1.076 6072
2.933 3.562 1.044 4752
3.231 3.924 1.121 4342
3.307 4.017 1.129 5471
3.304 4.013 1.113 5753
3.306 4.015 1.098 5837
3.313 4.023 1.084 6011
3.324 4.037 1.072 6688
3.331 4.045 1.058 7409
3.333 4.047 1.043 5794
3.568 4.333 1.090 4223
3.564 4.329 1.073 3960
3.571 4.337 1.058 4737
3.578 4.345 1.043 4407
3.723 4.522 1.063 5563
3.720 4.518 1.045 6468
3.717 4.514 1.027 5171
3.724 4.522 1.011 5064
3.740 4.542 0.997 5881
3.881 4.713 1.012 6800
3.888 4.721 0.995 8632
3.889 4.723 0.978 9409
3.891 4.725 0.960 5901
4.012 4.872 0.967 3315
4.014 4.874 0.949 3373
4.285 5.203 0.984 3036
4.296 5.217 0.967 3471
4.318 5.243 0.951 3969
4.314 5.239 0.930 4093
4.316 5.241 0.911 3975
4.322 5.249 0.892 6262
4.323 5.250 0.872 8894
4.330 5.258 0.853 7293
4.336 5.266 0.834 4315
4.342 5.273 0.815 2713
4.619 5.609 0.838 2339
4.781 5.806 0.840 2088
4.862 5.905 0.830 2371
4.818 5.851 0.801 2172
5.130 6.230 0.821 2509
5.142 6.244 0.799 3377
5.143 6.246 0.776 2677
5.164 6.271 0.755 2143
5.165 6.273 0.731 2888
5.166 6.274 0.707 3622
5.167 6.275 0.684 2741
5.595 6.795 0.704 2096
5.601 6.802 0.679 1664
6.054 7.352 0.695 1303
5.598 6.798 0.627 1010
5.639 6.848 0.605 799
5.725 6.953 0.586 739
5.726 6.954 0.560 657
5.722 6.949 0.533 592
5.723 6.950 0.507 422
6.080 7.384 0.502 300
6.081 7.385 0.474 268
1.316 1.589 1.579 2893
1.319 1.592 1.573 5786
1.305 1.576 1.549 9267
1.304 1.574 1.538 13587
1.306 1.577 1.533 13587
1.321 1.595 1.540 14886
1.332 1.608 1.543 17610
1.339 1.617 1.542 13125
1.354 1.635 1.549 10150
1.357 1.638 1.543 10150
1.355 1.636 1.533 6796
1.383 1.670 1.553 4404
1.360 1.642 1.521 5142
1.367 1.650 1.519 6794
1.374 1.659 1.517 8535
1.377 1.662 1.511 10465
1.379 1.665 1.505 10880
1.382 1.668 1.499 11294
1.384 1.671 1.493 9869
1.387 1.674 1.487 8444
1.393 1.682 1.485 7987
1.409 1.701 1.491 7757
1.420 1.714 1.493 7791
1.427 1.722 1.491 8318
1.489 1.798 1.543 7920
1.492 1.801 1.536 7543
1.473 1.778 1.509 8069
1.476 1.781 1.502 9177
1.504 1.816 1.520 8448
1.524 1.840 1.530 6791
1.535 1.853 1.531 5698
1.533 1.851 1.520 5241
1.536 1.854 1.513 7956
1.539 1.857 1.506 10672
1.537 1.855 1.495 12069
1.539 1.858 1.488 13522
1.537 1.856 1.478 12746
1.540 1.859 1.471 12178
1.542 1.862 1.464 9356
1.584 1.913 1.492 10527
1.587 1.916 1.485 14529
1.603 1.935 1.489 13984
1.610 1.943 1.486 15307
1.617 1.952 1.482 11290
1.650 1.992 1.501 8834
1.648 1.990 1.490 8850
1.651 1.993 1.483 10067
1.658 2.001 1.479 11202
1.656 1.999 1.468 9560
1.649 1.991 1.453 7540
1.652 1.994 1.446 7142
1.654 1.997 1.438 6268
1.675 2.022 1.445 5742
1.686 2.036 1.445 6912
1.689 2.038 1.437 6641
1.745 2.107 1.472 6016
1.734 2.093 1.454 6808
1.741 2.102 1.449 7902
1.753 2.116 1.449 7933
1.764 2.130 1.448 6856
1.767 2.133 1.440 5464
1.774 2.141 1.435 4383
1.780 2.149 1.431 4572
1.792 2.163 1.429 5809
1.822 2.199 1.441 7828
1.829 2.208 1.436 7986
1.827 2.205 1.425 8105
1.834 2.214 1.420 6846
1.864 2.250 1.431 6981
1.880 2.270 1.433 9552
1.892 2.284 1.431 9644
1.894 2.286 1.422 7704
1.892 2.284 1.410 4845
1.950 2.354 1.440 6840
1.952 2.357 1.431 7985
1.950 2.354 1.419 7761
1.948 2.351 1.407 10854
1.950 2.354 1.398 13741
1.957 2.362 1.393 12894
1.964 2.371 1.387 7969
2.013 2.430 1.408 8764
2.020 2.439 1.402 8301
2.027 2.447 1.396 7510
2.034 2.456 1.390 7904
2.041 2.464 1.383 8638
2.043 2.467 1.374 7998
2.074 2.504 1.382 7988
2.076 2.506 1.373 5940
2.083 2.515 1.366 3642
2.109 2.546 1.371 4295
2.116 2.555 1.364 7030
2.133 2.575 1.363 7503
2.135 2.577 1.353 6615
2.137 2.580 1.344 5375
