0.213 2.316 1.659 10216
0.214 2.327 1.657 10928
0.215 2.338 1.654 11972
0.215 2.336 1.643 13372
0.215 2.340 1.637 14979
0.215 2.345 1.630 14329
0.216 2.349 1.623 13980
0.216 2.353 1.617 14281
0.217 2.364 1.614 11986
0.218 2.375 1.612 10327
0.221 2.406 1.622 7944
0.223 2.424 1.623 7347
0.223 2.428 1.616 6528
0.223 2.432 1.609 5709
0.231 2.517 1.652 5890
0.230 2.501 1.632 7124
0.230 2.499 1.621 5662
0.229 2.497 1.610 4333
0.230 2.501 1.603 4489
0.238 2.586 1.644 4809
0.239 2.604 1.644 4575
0.240 2.616 1.641 4541
0.241 2.620 1.633 4389
0.242 2.631 1.630 4459
0.241 2.622 1.614 4679
0.239 2.605 1.595 4383
0.240 2.610 1.588 4219
0.248 2.696 1.627 5048
0.248 2.701 1.619 6333
0.249 2.712 1.615 5702
0.249 2.709 1.603 3662
0.248 2.700 1.588 2498
0.249 2.711 1.584 3336
0.250 2.722 1.580 4321
0.251 2.733 1.576 5545
0.253 2.758 1.579 7130
0.255 2.776 1.579 8362
0.259 2.822 1.593 8149
0.260 2.834 1.588 9026
0.261 2.845 1.584 6779
0.264 2.877 1.590 5884
0.265 2.881 1.582 6462
0.266 2.892 1.577 6770
0.266 2.897 1.569 5634
0.266 2.901 1.560 4107
0.275 2.990 1.594 7713
0.275 2.994 1.585 13375
0.275 2.998 1.577 15124
0.277 3.016 1.575 14216
0.279 3.035 1.573 12553
0.278 3.032 1.561 7429
0.289 3.143 1.603 7870
0.289 3.147 1.594 8803
0.280 3.044 1.535 9231
0.281 3.055 1.529 7919
0.282 3.067 1.524 6692
0.283 3.085 1.521 5287
0.294 3.204 1.565 4432
0.295 3.215 1.559 6496
0.296 3.219 1.549 8960
0.296 3.223 1.540 9900
0.297 3.235 1.534 8354
0.300 3.268 1.537 5055
0.301 3.279 1.531 4005
0.302 3.283 1.521 4264
0.304 3.309 1.521 5149
0.306 3.327 1.518 6093
0.313 3.411 1.542 5955
0.316 3.437 1.541 7842
0.316 3.441 1.531 8646
0.316 3.445 1.521 8873
0.318 3.464 1.517 8790
0.319 3.475 1.510 8672
0.320 3.479 1.500 7627
0.321 3.491 1.493 8064
0.322 3.502 1.486 7705
0.324 3.528 1.484 3838
0.337 3.664 1.525 4319
0.338 3.676 1.517 7014
0.339 3.695 1.512 7378
0.338 3.684 1.496 6866
0.339 3.695 1.488 10738
0.341 3.714 1.483 15107
0.342 3.725 1.475 12805
0.345 3.751 1.472 6702
0.346 3.770 1.466 5525
0.347 3.774 1.455 4769
0.356 3.882 1.481 2823
0.362 3.945 1.490 2792
0.361 3.934 1.474 4690
0.360 3.923 1.457 5457
0.369 4.017 1.476 6042
0.369 4.013 1.462 5491
0.367 3.994 1.443 5024
0.378 4.118 1.471 6184
0.379 4.122 1.459 7640
0.381 4.148 1.454 6010
0.383 4.167 1.447 5079
0.382 4.156 1.430 4003
0.392 4.265 1.451 3636
0.392 4.269 1.439 3879
0.394 4.288 1.431 4096
0.399 4.344 1.435 5120
0.400 4.356 1.424 7072
0.400 4.359 1.412 5429
0.399 4.348 1.395 3977
0.415 4.518 1.430 4761
0.415 4.522 1.417 4152
0.418 4.556 1.413 3683
0.422 4.590 1.408 5503
0.422 4.594 1.395 6475
0.423 4.605 1.383 4104
0.446 4.852 1.436 2891
0.451 4.909 1.436 3086
0.454 4.943 1.430 3842
0.452 4.917 1.408 5644
0.452 4.920 1.393 8052
0.456 4.970 1.391 8156
0.457 4.973 1.376 5737
0.457 4.977 1.362 4225
0.459 4.996 1.351 4070
0.476 5.183 1.381 3068
0.480 5.225 1.376 4430
0.482 5.252 1.366 4112
0.487 5.301 1.361 4146
0.502 5.466 1.383 4000
0.503 5.478 1.369 4267
0.510 5.558 1.370 4470
0.511 5.562 1.354 5577
0.514 5.596 1.345 3459
0.528 5.754 1.361 3212
0.537 5.850 1.364 2940
0.538 5.861 1.349 3316
0.539 5.864 1.332 4272
0.540 5.876 1.316 3398
0.541 5.887 1.301 2100
0.572 6.223 1.349 2390
0.582 6.335 1.352 2688
0.561 6.114 1.291 2609
0.590 6.419 1.330 2742
0.592 6.446 1.315 3668
0.593 6.457 1.298 4221
0.589 6.414 1.271 3406
0.589 6.409 1.251 2546
0.633 6.894 1.315 1993
0.633 6.898 1.295 2580
0.670 7.298 1.341 2624
0.623 6.788 1.236 2261
0.691 7.522 1.333 2453
0.688 7.487 1.305 2823
0.684 7.451 1.277 3430
0.682 7.431 1.252 3120
0.713 7.762 1.279 3045
0.712 7.758 1.255 2288
0.749 8.151 1.288 2667
0.748 8.147 1.263 3783
0.747 8.134 1.237 3497
0.747 8.129 1.212 2569
0.748 8.148 1.191 1599
0.749 8.159 1.168 1436
0.819 8.913 1.237 1624
0.844 9.190 1.245 1431
0.845 9.201 1.219 1657
0.866 9.431 1.218 1375
0.867 9.442 1.191 907
0.841 9.155 1.132 1037
0.842 9.166 1.106 1103
0.869 9.467 1.110 788
0.870 9.470 1.083 524
0.871 9.480 1.056 308
0.867 9.444 1.025 258
0.220 2.393 -0.004 293
0.220 2.393 -0.011 407
0.220 2.392 -0.018 521
0.220 2.392 -0.025 610
0.220 2.391 -0.032 698
0.220 2.391 -0.039 729
0.220 2.390 -0.046 761
0.220 2.398 -0.053 752
0.220 2.397 -0.060 747
0.220 2.397 -0.067 658
0.219 2.388 -0.073 570
0.219 2.388 -0.080 570
0.220 2.395 -0.087 476
0.220 2.394 -0.094 383
0.220 2.393 -0.101 288
0.210 2.221 1.699 3593
0.211 2.225 1.692 7186
0.211 2.230 1.686 7186
0.212 2.234 1.680 6582
0.212 2.239 1.673 5979
0.214 2.263 1.680 7792
0.215 2.274 1.678 10395
0.216 2.278 1.672 10312
0.217 2.289 1.670 11132
0.217 2.294 1.663 12104
0.218 2.305 1.661 11370
0.219 2.315 1.659 11075
0.220 2.326 1.657 12107
0.221 2.337 1.654 13567
0.221 2.335 1.643 15070
0.221 2.340 1.637 16676
0.222 2.344 1.630 15652
0.222 2.348 1.623 14876
0.223 2.353 1.617 15123
0.223 2.357 1.610 12453
0.224 2.368 1.607 10177
0.225 2.379 1.605 7574
0.229 2.416 1.619 6068
0.230 2.427 1.616 5918
0.231 2.438 1.613 5841
0.240 2.530 1.660 5862
0.239 2.528 1.649 6911
0.240 2.539 1.646 5668
0.237 2.503 1.614 4570
0.237 2.507 1.607 5152
0.238 2.511 1.599 5734
0.246 2.604 1.644 4726
0.248 2.615 1.641 4622
0.248 2.619 1.633 4384
0.250 2.637 1.634 3573
0.246 2.594 1.599 3275
0.246 2.598 1.591 3382
0.254 2.685 1.630 3734
0.255 2.696 1.627 4884
0.256 2.707 1.623 6262
0.257 2.711 1.615 5715
0.256 2.709 1.603 4028
0.256 2.706 1.592 3076
0.257 2.717 1.588 3737
0.258 2.728 1.584 4586
0.259 2.739 1.580 5890
0.260 2.750 1.575 7190
0.263 2.776 1.579 8006
0.267 2.822 1.593 7210
0.268 2.833 1.588 7932
0.269 2.837 1.580 6273
0.272 2.869 1.586 5421
0.273 2.880 1.582 6156
0.273 2.885 1.573 6403
0.273 2.889 1.565 5188
0.274 2.893 1.557 3727
0.283 2.989 1.594 7162
0.283 2.986 1.582 12595
0.284 2.997 1.577 14266
0.285 3.016 1.575 12648
0.287 3.034 1.573 12121
0.288 3.038 1.564 7675
0.297 3.142 1.603 7661
0.298 3.146 1.594 8683
0.288 3.043 1.535 8238
0.290 3.062 1.533 8871
0.291 3.073 1.527 8423
0.291 3.077 1.518 6519
0.300 3.167 1.548 4003
0.304 3.207 1.555 7325
0.304 3.211 1.546 10369
0.304 3.215 1.537 10866
0.305 3.227 1.531 8745
0.306 3.231 1.522 4556
0.310 3.271 1.528 3128
0.311 3.282 1.521 3046
0.315 3.323 1.527 3911
0.316 3.334 1.521 5726
0.323 3.411 1.542 5702
0.325 3.437 1.541 6879
0.326 3.448 1.534 7045
0.327 3.452 1.524 8272
0.328 3.463 1.517 9515
0.329 3.475 1.510 9414
0.329 3.479 1.500 8367
0.330 3.490 1.493 9178
0.332 3.508 1.488 9260
0.334 3.527 1.484 5295
0.347 3.671 1.528 4082
0.349 3.682 1.520 7157
0.350 3.694 1.512 8739
0.349 3.690 1.498 8244
0.350 3.694 1.488 11081
0.352 3.720 1.485 15694
0.353 3.724 1.475 13157
0.354 3.743 1.469 6762
0.356 3.761 1.464 5590
0.356 3.765 1.453 5342
0.367 3.881 1.481 3446
0.373 3.937 1.488 2321
0.370 3.911 1.466 4168
0.371 3.922 1.457 5546
0.380 4.016 1.476 6234
0.377 3.982 1.452 5749
0.378 3.993 1.443 4474
0.388 4.102 1.466 6700
0.389 4.113 1.457 7805
0.394 4.162 1.459 5981
0.395 4.174 1.450 4843
0.394 4.162 1.433 3176
0.403 4.256 1.449 3638
0.403 4.260 1.437 4225
0.406 4.287 1.431 4774
0.410 4.336 1.432 5547
0.412 4.354 1.424 7880
0.413 4.358 1.412 5738
0.411 4.347 1.395 4593
0.429 4.532 1.435 3471
0.420 4.437 1.393 2853
0.433 4.577 1.419 3172
0.435 4.596 1.410 5896
0.435 4.600 1.397 7092
0.436 4.604 1.383 4444
0.442 4.668 1.387 3133
0.465 4.908 1.436 3528
0.466 4.919 1.424 4038
0.465 4.908 1.406 6586
0.466 4.919 1.393 8455
0.470 4.961 1.389 8525
0.471 4.972 1.376 6500
0.470 4.960 1.358 4309
0.470 4.964 1.344 3819
0.490 5.174 1.380 3799
0.495 5.224 1.376 4573
0.497 5.250 1.366 4331
0.502 5.308 1.363 5338
0.518 5.473 1.385 4304
0.518 5.476 1.369 5036
0.524 5.534 1.365 4139
0.523 5.529 1.347 5319
0.522 5.517 1.328 3516
0.543 5.737 1.358 3029
0.554 5.856 1.366 2594
0.555 5.859 1.349 3317
0.554 5.855 1.330 4494
0.555 5.866 1.315 3233
0.556 5.878 1.299 1992
0.589 6.221 1.349 2421
0.600 6.333 1.352 2456
0.601 6.344 1.335 2312
0.607 6.410 1.328 2343
0.610 6.444 1.315 2713
0.610 6.448 1.296 3450
0.608 6.420 1.272 3401
0.607 6.408 1.251 2647
0.652 6.892 1.315 1976
0.654 6.911 1.298 2840
0.690 7.288 1.339 2883
0.642 6.786 1.236 2288
0.712 7.521 1.333 2333
0.710 7.501 1.307 2491
0.704 7.442 1.276 2873
0.703 7.429 1.252 3105
0.703 7.425 1.229 2891
0.733 7.748 1.254 2145
0.771 8.149 1.288 2882
0.772 8.152 1.264 3724
0.771 8.140 1.238 2946
0.768 8.112 1.210 2291
0.771 8.146 1.191 1609
0.772 8.157 1.168 1664
0.844 8.911 1.237 1751
0.843 8.906 1.210 1511
0.892 9.426 1.245 1713
0.893 9.429 1.218 1568
0.893 9.432 1.191 1020
0.866 9.145 1.131 1090
0.867 9.164 1.106 1086
0.895 9.457 1.110 982
0.895 9.452 1.081 712
0.898 9.486 1.057 411
0.895 9.457 1.026 362
0.898 9.491 1.001 307
0.899 9.493 0.974 277
0.899 9.496 0.946 271
0.899 9.498 0.918 262
0.226 2.392 -0.018 259
0.226 2.391 -0.025 319
0.226 2.391 -0.032 379
0.226 2.390 -0.039 407
0.227 2.398 -0.046 435
0.227 2.397 -0.053 445
0.227 2.397 -0.060 455
0.227 2.396 -0.067 407
0.227 2.395 -0.074 359
0.227 2.395 -0.081 359
0.227 2.394 -0.087 296
0.215 2.214 1.694 3726
0.216 2.218 1.688 7453
0.216 2.223 1.682 7453
0.217 2.234 1.680 6601
0.218 2.238 1.673 5871
0.221 2.269 1.685 7978
0.221 2.273 1.678 10748
0.222 2.284 1.676 10640
0.222 2.289 1.670 11615
0.224 2.300 1.668 12650
0.224 2.304 1.661 12182
0.225 2.315 1.659 11885
0.226 2.326 1.657 12913
0.227 2.337 1.654 14501
0.227 2.335 1.643 15869
0.227 2.339 1.637 17252
0.228 2.343 1.630 15944
0.228 2.348 1.623 14817
0.229 2.352 1.617 14998
0.229 2.356 1.610 12181
0.230 2.367 1.607 9622
0.230 2.371 1.601 7164
0.235 2.423 1.623 5201
0.237 2.434 1.620 5441
0.237 2.438 1.613 5782
0.246 2.529 1.660 5930
0.246 2.534 1.653 6894
0.246 2.531 1.641 5938
0.244 2.509 1.618 5243
0.244 2.506 1.607 5691
0.244 2.511 1.599 6245
0.244 2.508 1.588 4850
0.253 2.607 1.637 4736
0.254 2.612 1.629 4414
0.257 2.643 1.638 2937
0.251 2.579 1.591 2278
0.260 2.673 1.634 2801
0.261 2.684 1.630 3493
0.263 2.702 1.630 4496
0.263 2.706 1.623 5735
0.263 2.711 1.615 5299
0.265 2.722 1.611 4340
0.266 2.733 1.607 3891
0.265 2.730 1.595 4414
0.266 2.734 1.587 5014
0.266 2.739 1.580 6331
0.267 2.750 1.575 7299
0.269 2.768 1.575 7696
0.272 2.800 1.582 6220
0.275 2.825 1.584 6453
0.276 2.836 1.580 5295
0.279 2.869 1.586 4858
0.280 2.880 1.582 5701
0.280 2.877 1.570 5939
0.280 2.881 1.561 5129
0.281 2.892 1.557 4133
0.290 2.988 1.594 6884
0.290 2.985 1.582 11673
0.291 2.990 1.573 13155
0.292 3.008 1.571 10975
0.296 3.040 1.577 11536
0.296 3.045 1.568 8145
0.306 3.149 1.606 7003
0.306 3.153 1.597 7946
0.297 3.057 1.541 7909
0.299 3.075 1.539 10422
0.299 3.072 1.527 9883
0.299 3.076 1.518 7399
0.307 3.159 1.545 4420
0.311 3.199 1.552 8017
0.312 3.211 1.546 11166
0.312 3.215 1.537 11388
0.313 3.219 1.528 9027
0.314 3.230 1.522 4873
0.316 3.256 1.522 2767
0.316 3.252 1.509 2165
0.324 3.336 1.534 3194
0.324 3.333 1.521 5127
0.331 3.402 1.539 5638
0.335 3.443 1.544 6128
0.329 3.381 1.507 6108
0.335 3.451 1.524 7593
0.337 3.470 1.520 9617
0.338 3.474 1.510 9598
0.338 3.478 1.500 8549
0.340 3.496 1.496 9470
0.342 3.515 1.491 9919
0.343 3.534 1.487 6624
0.345 3.545 1.480 4269
0.358 3.681 1.520 7268
0.358 3.685 1.509 9694
0.359 3.689 1.498 9150
0.360 3.701 1.491 10801
0.362 3.719 1.485 15181
0.363 3.731 1.477 12791
0.364 3.742 1.469 6460
0.366 3.761 1.464 5323
0.366 3.764 1.453 5560
0.376 3.872 1.478 4174
0.375 3.861 1.462 3683
0.378 3.888 1.459 4765
0.380 3.914 1.455 5754
0.384 3.947 1.454 7090
0.385 3.966 1.447 6307
0.387 3.985 1.441 4351
0.398 4.094 1.464 6819
0.398 4.097 1.452 7757
0.404 4.161 1.459 5792
0.406 4.180 1.452 4562
0.411 4.229 1.454 3601
0.411 4.233 1.442 4125
0.415 4.267 1.439 4160
0.417 4.286 1.431 5301
0.421 4.335 1.432 5765
0.423 4.353 1.424 7993
0.423 4.357 1.412 6048
0.423 4.353 1.397 5033
0.423 4.349 1.382 3788
0.430 4.429 1.391 2906
0.451 4.645 1.438 3215
0.447 4.595 1.410 5965
0.447 4.599 1.397 7043
0.447 4.603 1.383 4370
0.454 4.675 1.389 3832
0.478 4.914 1.438 3906
0.478 4.918 1.424 4648
0.476 4.899 1.404 7958
0.477 4.910 1.391 9050
0.482 4.960 1.389 8536
0.482 4.963 1.374 7265
0.480 4.936 1.352 5294
0.481 4.947 1.340 3878
0.502 5.165 1.378 4118
0.507 5.215 1.374 4210
0.514 5.287 1.375 4408
0.516 5.306 1.363 5914
0.518 5.325 1.351 4475
0.532 5.475 1.369 5117
0.535 5.501 1.358 4191
0.536 5.513 1.344 5433
0.536 5.516 1.328 3841
0.557 5.728 1.356 2925
0.556 5.723 1.338 2576
0.569 5.858 1.349 3060
0.569 5.854 1.330 4278
0.568 5.842 1.310 3202
0.593 6.100 1.344 1974
0.605 6.220 1.349 2162
0.603 6.200 1.326 2244
0.616 6.343 1.335 1963
0.622 6.400 1.327 2067
0.625 6.427 1.312 2083
0.626 6.438 1.295 2844
0.624 6.418 1.272 3238
0.623 6.406 1.251 2649
0.670 6.891 1.315 1973
0.673 6.925 1.300 3182
0.675 6.944 1.283 3131
0.690 7.103 1.288 2330
0.708 7.285 1.296 2244
0.709 7.296 1.276 2263
0.722 7.432 1.275 2409
0.721 7.420 1.251 2994
0.721 7.423 1.229 2890
0.722 7.426 1.208 2065
0.792 8.147 1.288 2910
0.792 8.150 1.264 3488
0.790 8.130 1.237 2327
0.787 8.102 1.209 2147
0.823 8.472 1.233 1768
0.824 8.475 1.209 1815
0.824 8.479 1.184 1807
0.865 8.904 1.210 1574
0.916 9.424 1.245 1816
0.916 9.427 1.218 1798
0.916 9.422 1.190 1313
0.911 9.370 1.156 1145
0.919 9.459 1.138 1323
0.919 9.454 1.110 1318
0.915 9.410 1.077 971
0.914 9.405 1.049 575
0.915 9.415 1.022 591
0.916 9.426 0.996 541
0.922 9.491 0.974 494
0.923 9.493 0.946 424
0.923 9.496 0.918 271
0.232 2.382 -0.031 263
0.232 2.390 -0.039 285
0.232 2.389 -0.046 309
0.233 2.397 -0.053 301
0.233 2.396 -0.060 301
0.233 2.395 -0.067 263
0.218 2.201 1.685 3911
0.218 2.205 1.679 7823
0.219 2.210 1.672 7823
0.221 2.227 1.675 6586
0.222 2.238 1.673 5635
0.225 2.268 1.685 7985
0.226 2.279 1.683 10843
0.226 2.284 1.676 10843
0.227 2.288 1.670 11983
0.228 2.299 1.668 13321
0.228 2.304 1.661 13044
0.229 2.315 1.659 12787
0.230 2.325 1.657 13587
0.231 2.330 1.650 15156
0.231 2.334 1.643 16211
0.232 2.339 1.637 17266
0.232 2.343 1.630 15705
0.232 2.347 1.623 14245
0.233 2.352 1.617 14346
0.233 2.356 1.610 11527
0.234 2.367 1.607 8831
0.235 2.371 1.601 6711
0.241 2.435 1.631 5113
0.242 2.440 1.624 5453
0.243 2.451 1.622 5839
0.250 2.529 1.660 5908
0.251 2.533 1.653 6695
0.251 2.531 1.641 6082
0.249 2.515 1.622 6010
0.249 2.513 1.611 6095
0.249 2.510 1.599 6383
0.248 2.508 1.588 5117
0.258 2.607 1.637 4835
0.259 2.611 1.629 4517
0.261 2.636 1.634 2818
0.255 2.572 1.587 1874
0.265 2.679 1.638 2516
0.261 2.635 1.603 3637
0.267 2.695 1.627 3901
0.268 2.706 1.623 4691
0.269 2.717 1.619 4285
0.270 2.728 1.615 4509
0.271 2.732 1.607 5150
0.271 2.737 1.599 5786
0.271 2.741 1.591 6423
0.272 2.745 1.583 7239
0.272 2.749 1.575 7617
0.274 2.767 1.575 7521
0.275 2.779 1.571 5767
0.278 2.811 1.577 5272
0.280 2.829 1.576 4419
0.283 2.854 1.579 4548
0.285 2.879 1.582 5228
0.284 2.869 1.566 5479
0.285 2.881 1.561 5276
0.286 2.892 1.557 4886
0.296 2.988 1.594 6648
0.296 2.985 1.582 10554
0.296 2.989 1.573 11966
0.298 3.007 1.571 9635
0.301 3.040 1.577 10824
0.302 3.051 1.571 8676
0.303 3.055 1.562 6724
0.312 3.152 1.597 6799
0.304 3.071 1.548 9457
0.305 3.082 1.543 12444
0.305 3.079 1.530 11272
0.305 3.083 1.521 8069
0.313 3.159 1.545 6255
0.316 3.192 1.549 8899
0.317 3.203 1.543 11918
0.318 3.214 1.537 11753
0.319 3.218 1.528 9415
0.321 3.237 1.525 5301
0.325 3.277 1.531 3560
0.325 3.281 1.521 2783
0.331 3.343 1.537 3024
0.332 3.347 1.527 4830
0.329 3.322 1.505 5691
0.329 3.319 1.493 6213
0.334 3.373 1.504 6058
0.343 3.465 1.530 6996
0.344 3.469 1.520 9463
0.344 3.473 1.510 9533
0.345 3.484 1.503 8285
0.346 3.496 1.496 8659
0.348 3.514 1.491 9182
0.350 3.533 1.487 6705
0.351 3.544 1.480 4607
0.365 3.681 1.520 7244
0.365 3.685 1.509 10232
0.365 3.689 1.498 9563
0.366 3.700 1.491 10065
0.368 3.719 1.485 13942
0.369 3.730 1.477 12005
0.371 3.741 1.469 6028
0.372 3.752 1.461 4855
0.373 3.764 1.453 5526
0.383 3.864 1.476 5343
0.383 3.868 1.465 5433
0.384 3.879 1.456 6004
0.387 3.906 1.452 6229
0.391 3.947 1.454 7867
0.392 3.958 1.445 6842
0.394 3.977 1.438 4345
0.405 4.093 1.464 6073
0.404 4.082 1.447 7168
0.412 4.160 1.459 5252
0.415 4.187 1.454 4289
0.419 4.228 1.454 4043
0.418 4.224 1.439 4322
0.424 4.281 1.444 3911
0.424 4.285 1.431 5935
0.429 4.326 1.430 5956
0.431 4.353 1.424 7899
0.431 4.356 1.412 6260
0.431 4.352 1.397 5383
0.432 4.364 1.386 3961
0.439 4.428 1.391 2807
0.460 4.644 1.438 3378
0.455 4.594 1.410 5513
0.455 4.598 1.397 6715
0.460 4.640 1.394 4595
0.464 4.681 1.391 4915
0.486 4.906 1.436 4328
0.486 4.910 1.422 5112
0.484 4.890 1.402 8485
0.485 4.902 1.389 9409
0.490 4.943 1.385 8338
0.491 4.955 1.373 7645
0.489 4.935 1.352 5832
0.489 4.939 1.338 3969
0.512 5.164 1.378 4176
0.516 5.206 1.372 3856
0.524 5.287 1.375 4657
0.525 5.305 1.363 5977
0.528 5.332 1.353 4937
0.541 5.466 1.367 4733
0.541 5.462 1.350 4149
0.546 5.512 1.344 5401
0.546 5.515 1.328 4060
0.566 5.719 1.355 2770
0.566 5.715 1.337 2939
0.566 5.710 1.318 2991
0.579 5.845 1.329 3571
0.578 5.833 1.309 2938
0.605 6.107 1.346 2219
0.608 6.134 1.332 2060
0.613 6.191 1.325 2313
0.612 6.179 1.304 1850
0.635 6.407 1.328 1971
0.636 6.418 1.311 1791
0.637 6.429 1.294 2289
0.636 6.425 1.274 2884
0.635 6.413 1.252 2548
0.667 6.734 1.288 2070
0.686 6.924 1.300 3557
0.688 6.943 1.283 3512
0.703 7.102 1.288 2394
0.721 7.284 1.296 2358
0.722 7.287 1.274 2119
0.770 7.773 1.328 2106
0.735 7.418 1.251 2771
0.735 7.422 1.229 2794
0.735 7.425 1.208 2007
0.807 8.145 1.288 2756
0.807 8.149 1.264 3116
0.804 8.113 1.235 1864
0.839 8.475 1.259 2057
0.839 8.471 1.233 2048
0.839 8.474 1.209 2067
0.840 8.477 1.184 2145
0.840 8.480 1.159 1678
0.934 9.430 1.246 1784
0.933 9.417 1.217 1865
0.931 9.397 1.187 1699
0.928 9.368 1.156 1836
0.928 9.371 1.129 1862
0.929 9.382 1.102 1704
0.931 9.401 1.076 1345
0.931 9.395 1.048 818
0.939 9.484 1.029 719
0.940 9.487 1.001 637
0.940 9.489 0.974 548
0.940 9.492 0.946 448
0.940 9.494 0.918 296
0.255 2.578 -0.135 270
0.256 2.585 -0.144 393
0.256 2.584 -0.151 536
0.256 2.584 -0.158 679
0.256 2.583 -0.166 679
0.256 2.582 -0.173 844
0.226 2.193 1.680 3996
0.226 2.198 1.674 7992
0.227 2.202 1.668 7992
0.225 2.181 1.643 6385
0.225 2.179 1.632 6181
0.234 2.267 1.685 7799
0.235 2.278 1.683 10864
0.235 2.283 1.676 10864
0.236 2.287 1.670 12362
0.237 2.298 1.668 14097
0.237 2.303 1.661 13976
0.238 2.307 1.655 13856
0.239 2.318 1.652 14275
0.240 2.329 1.650 15562
0.240 2.333 1.643 16142
0.241 2.338 1.637 16721
0.241 2.342 1.630 14927
0.242 2.346 1.623 13126
0.242 2.351 1.617 13120
0.243 2.355 1.610 10436
0.243 2.359 1.603 7752
0.244 2.363 1.596 6213
0.252 2.448 1.640 6106
0.253 2.459 1.637 6308
0.255 2.470 1.634 6546
0.259 2.515 1.652 5887
0.261 2.532 1.653 6250
0.259 2.517 1.633 6203
0.259 2.514 1.622 6600
0.260 2.518 1.615 6250
0.259 2.509 1.599 6135
0.258 2.507 1.588 5234
0.269 2.606 1.637 4792
0.269 2.610 1.629 4591
0.271 2.628 1.630 3305
0.264 2.564 1.583 2427
0.272 2.637 1.615 3248
0.272 2.641 1.607 4367
0.273 2.652 1.603 4945
0.274 2.663 1.600 5637
0.277 2.688 1.603 4297
0.281 2.727 1.615 4215
0.281 2.724 1.603 5553
0.282 2.736 1.599 6628
0.282 2.740 1.591 7741
0.283 2.744 1.583 8076
0.283 2.748 1.575 7654
0.284 2.759 1.571 7110
0.285 2.770 1.567 5308
0.289 2.803 1.574 4353
0.294 2.849 1.587 4312
0.294 2.853 1.579 4668
0.297 2.878 1.582 4842
0.294 2.854 1.559 5148
0.297 2.886 1.565 5359
0.298 2.891 1.557 5901
0.308 2.994 1.597 6308
0.307 2.984 1.582 9249
0.308 2.988 1.573 10545
0.309 2.999 1.568 8482
0.313 3.039 1.577 10025
0.314 3.050 1.571 9343
0.315 3.054 1.562 8320
0.316 3.065 1.557 9070
0.317 3.077 1.551 12710
0.317 3.081 1.543 15272
0.318 3.085 1.534 12844
0.318 3.082 1.521 8753
0.325 3.157 1.545 8677
0.328 3.183 1.546 9976
0.330 3.202 1.543 12354
0.330 3.206 1.534 11979
0.331 3.217 1.528 9796
0.334 3.243 1.528 5842
0.338 3.283 1.534 5159
0.339 3.287 1.525 4534
0.341 3.305 1.521 3612
0.342 3.317 1.515 4941
0.341 3.313 1.502 7079
0.342 3.317 1.493 7547
0.343 3.328 1.486 6154
0.357 3.464 1.530 6103
0.357 3.468 1.520 8619
0.358 3.472 1.510 9067
0.359 3.483 1.503 7811
0.360 3.494 1.496 7716
0.362 3.513 1.491 8131
0.364 3.531 1.487 6288
0.365 3.543 1.480 5254
0.379 3.679 1.520 6921
0.380 3.683 1.509 10146
0.381 3.694 1.501 9533
0.381 3.698 1.491 8850
0.383 3.717 1.485 11966
0.384 3.728 1.477 10886
0.385 3.740 1.469 5625
0.397 3.855 1.498 4511
0.398 3.859 1.487 5907
0.398 3.863 1.476 7018
0.398 3.867 1.465 7608
0.399 3.870 1.453 7518
0.401 3.889 1.447 7040
0.407 3.945 1.454 8308
0.408 3.956 1.445 6935
0.410 3.975 1.438 4373
0.422 4.091 1.464 4607
0.420 4.073 1.444 5836
0.429 4.159 1.459 4466
0.428 4.155 1.445 4562
0.432 4.196 1.445 4425
0.435 4.223 1.439 3722
0.443 4.294 1.448 3512
0.442 4.291 1.433 6507
0.445 4.317 1.428 6206
0.448 4.351 1.424 7179
0.449 4.355 1.412 6047
0.449 4.358 1.399 5355
0.449 4.362 1.386 3776
0.477 4.631 1.450 2818
0.478 4.634 1.436 3184
0.473 4.593 1.410 4970
0.474 4.596 1.397 6481
0.479 4.645 1.396 5474
0.481 4.672 1.389 6199
0.505 4.896 1.434 4495
0.506 4.908 1.422 4892
0.504 4.888 1.402 7946
0.504 4.892 1.388 9498
0.506 4.911 1.377 8304
0.509 4.937 1.369 7317
0.508 4.933 1.352 5616
0.507 4.922 1.334 3929
0.532 5.162 1.378 4005
0.535 5.197 1.370 3820
0.545 5.284 1.375 4404
0.546 5.303 1.363 5416
0.550 5.338 1.355 4856
0.553 5.364 1.344 4394
0.558 5.414 1.339 4169
0.567 5.502 1.342 5473
0.569 5.521 1.330 4431
0.588 5.709 1.353 2654
0.588 5.705 1.335 3746
0.588 5.708 1.318 3754
0.600 5.827 1.326 2652
0.598 5.800 1.302 2966
0.630 6.112 1.347 2360
0.633 6.139 1.334 2530
0.637 6.181 1.323 2864
0.637 6.184 1.305 2562
0.660 6.404 1.328 2043
0.660 6.408 1.309 1763
0.672 6.520 1.310 2343
0.673 6.531 1.293 2664
0.669 6.488 1.266 3040
0.669 6.491 1.247 2283
0.714 6.929 1.301 3727
0.715 6.940 1.283 3766
0.700 6.796 1.238 2338
0.750 7.281 1.296 2288
0.751 7.284 1.274 1820
0.801 7.770 1.328 1964
0.763 7.408 1.250 2489
0.764 7.419 1.229 2576
0.785 7.617 1.236 1951
0.839 8.142 1.288 2396
0.840 8.153 1.265 2601
0.872 8.461 1.283 1854
0.873 8.472 1.259 2296
0.873 8.467 1.233 2306
0.873 8.471 1.209 2391
0.873 8.474 1.184 2646
0.873 8.477 1.159 2201
0.963 9.348 1.237 1735
0.968 9.390 1.214 2240
0.967 9.385 1.186 2548
0.966 9.373 1.157 2765
0.965 9.368 1.129 2717
0.966 9.378 1.102 2509
0.968 9.397 1.076 1958
0.968 9.392 1.048 1197
0.968 9.394 1.021 997
0.977 9.483 1.001 887
0.977 9.485 0.974 857
0.978 9.488 0.946 803
0.978 9.490 0.918 705
0.978 9.492 0.891 549
0.978 9.495 0.863 438
0.979 9.497 0.835 319
0.222 2.159 -0.046 277
0.222 2.158 -0.052 276
0.222 2.150 -0.058 280
0.221 2.149 -0.064 256
0.265 2.569 -0.134 302
0.265 2.569 -0.142 395
0.265 2.568 -0.149 542
0.265 2.575 -0.157 696
0.265 2.574 -0.165 696
0.264 2.565 -0.171 921
0.232 2.193 1.680 3884
0.233 2.197 1.674 7769
0.233 2.202 1.668 7769
0.230 2.174 1.639 6789
0.231 2.178 1.632 6778
0.241 2.273 1.690 7331
0.241 2.278 1.683 10407
0.242 2.282 1.676 10407
0.242 2.287 1.670 12252
0.243 2.298 1.668 14246
0.244 2.302 1.661 14230
0.244 2.306 1.655 14214
0.245 2.317 1.652 14297
0.247 2.328 1.650 15274
0.247 2.333 1.643 15374
0.248 2.344 1.641 15484
0.248 2.341 1.630 13570
0.248 2.346 1.623 11576
0.249 2.350 1.617 11485
0.249 2.354 1.610 9095
0.250 2.358 1.603 6705
0.250 2.363 1.596 5643
0.260 2.454 1.644 6982
0.260 2.458 1.637 7064
0.262 2.476 1.638 7418
0.265 2.500 1.644 6095
0.267 2.518 1.645 5750
0.266 2.516 1.633 6060
0.266 2.513 1.622 6511
0.267 2.518 1.615 5948
0.266 2.508 1.599 5500
0.265 2.506 1.588 5017
0.275 2.598 1.633 4619
0.276 2.610 1.629 4535
0.278 2.628 1.630 3791
0.272 2.570 1.587 3356
0.279 2.636 1.615 3843
0.280 2.640 1.607 4846
0.281 2.658 1.607 5545
0.283 2.676 1.607 6551
0.285 2.688 1.603 4758
0.289 2.726 1.615 3853
0.289 2.731 1.607 5162
0.290 2.735 1.599 6720
0.290 2.739 1.591 8278
0.290 2.743 1.583 8505
0.291 2.747 1.575 7591
0.292 2.759 1.571 6567
0.293 2.763 1.563 4947
0.304 2.872 1.610 5073
0.302 2.855 1.591 5173
0.303 2.866 1.586 4928
0.305 2.877 1.582 4651
0.302 2.853 1.559 4831
0.306 2.893 1.569 5496
0.307 2.897 1.560 6652
0.308 2.908 1.555 6456
0.316 2.983 1.582 8436
0.315 2.980 1.570 9774
0.317 2.991 1.565 7914
0.322 3.038 1.577 9093
0.322 3.042 1.568 9777
0.324 3.060 1.566 9709
0.325 3.072 1.560 11137
0.326 3.076 1.551 14698
0.327 3.087 1.546 16649
0.327 3.084 1.534 13550
0.329 3.109 1.535 9347
0.334 3.157 1.545 10113
0.337 3.182 1.546 10458
0.338 3.193 1.540 12103
0.339 3.205 1.534 11672
0.340 3.216 1.528 9705
0.345 3.256 1.534 6081
0.348 3.289 1.537 6111
0.349 3.293 1.528 5644
0.349 3.297 1.518 4619
0.350 3.308 1.512 5674
0.350 3.305 1.499 8513
0.351 3.316 1.493 8499
0.353 3.335 1.489 6648
0.357 3.375 1.494 6187
0.367 3.467 1.520 7082
0.367 3.471 1.510 7876
0.369 3.482 1.503 6850
0.371 3.501 1.499 6469
0.373 3.519 1.494 6845
0.375 3.538 1.490 6279
0.375 3.542 1.480 5948
0.376 3.553 1.472 7440
0.391 3.689 1.512 9610
0.391 3.693 1.501 9239
0.392 3.705 1.493 7861
0.393 3.716 1.485 10208
0.395 3.727 1.477 9783
0.397 3.746 1.472 5493
0.408 3.854 1.498 4336
0.408 3.858 1.487 5818
0.409 3.862 1.476 7936
0.409 3.865 1.465 9038
0.410 3.869 1.453 8455
0.411 3.880 1.445 7741
0.418 3.944 1.454 8348
0.419 3.955 1.445 6591
0.421 3.974 1.438 4273
0.429 4.053 1.451 4066
0.431 4.071 1.444 5546
0.431 4.075 1.433 4533
0.439 4.146 1.442 5229
0.442 4.173 1.437 4942
0.444 4.191 1.430 2879
0.455 4.301 1.450 3356
0.454 4.289 1.433 6671
0.457 4.316 1.428 6107
0.461 4.350 1.424 6255
0.461 4.353 1.412 5313
0.461 4.357 1.399 4602
0.462 4.361 1.386 3154
0.489 4.622 1.448 2576
0.490 4.625 1.434 2710
0.486 4.591 1.410 4440
0.486 4.595 1.397 6285
0.492 4.644 1.396 5863
0.494 4.671 1.389 6913
0.517 4.887 1.432 4378
0.518 4.891 1.418 4417
0.517 4.887 1.402 7377
0.517 4.883 1.386 8970
0.517 4.887 1.371 8491
0.518 4.890 1.357 7208
0.522 4.932 1.352 4966
0.520 4.912 1.333 3855
0.546 5.161 1.378 3733
0.550 5.195 1.370 3802
0.559 5.283 1.375 3989
0.561 5.302 1.363 4631
0.566 5.344 1.356 4420
0.568 5.363 1.344 4489
0.572 5.404 1.337 4291
0.582 5.500 1.342 5452
0.584 5.519 1.330 4653
0.586 5.530 1.315 2865
0.604 5.703 1.335 4351
0.604 5.706 1.318 4153
0.592 5.594 1.278 2617
0.614 5.798 1.302 3180
0.647 6.110 1.347 2299
0.650 6.137 1.334 2649
0.653 6.171 1.322 2964
0.654 6.175 1.304 2762
0.678 6.403 1.328 1978
0.686 6.483 1.324 1911
0.688 6.495 1.306 2494
0.686 6.482 1.285 2802
0.687 6.486 1.266 3329
0.688 6.497 1.248 2389
0.733 6.927 1.301 3582
0.735 6.938 1.283 3722
0.735 6.941 1.262 2513
0.771 7.279 1.296 2021
0.754 7.119 1.249 1675
0.822 7.768 1.328 1800
0.784 7.405 1.250 2216
0.785 7.416 1.229 2322
0.807 7.622 1.237 1939
0.810 7.649 1.218 2137
0.864 8.159 1.266 2205
0.896 8.466 1.284 1801
0.897 8.470 1.259 2293
0.896 8.465 1.233 2285
0.897 8.468 1.209 2401
0.897 8.471 1.184 2797
0.897 8.474 1.159 2433
0.991 9.361 1.239 1789
0.993 9.379 1.213 2484
0.993 9.375 1.185 3174
0.992 9.370 1.157 3410
0.992 9.373 1.130 3257
0.993 9.376 1.102 2876
0.995 9.394 1.076 2128
0.995 9.397 1.049 1517
0.994 9.391 1.021 1496
0.995 9.394 0.993 1227
0.994 9.389 0.965 967
0.994 9.391 0.938 727
1.004 9.487 0.918 469
1.004 9.482 0.890 497
1.004 9.484 0.862 465
1.004 9.486 0.835 427
1.005 9.496 0.807 356
1.006 9.498 0.780 270
0.228 2.152 -0.027 281
0.228 2.151 -0.033 291
0.228 2.151 -0.039 347
0.228 2.158 -0.046 407
0.228 2.150 -0.052 430
0.228 2.149 -0.058 457
0.227 2.148 -0.064 436
0.227 2.148 -0.070 415
0.228 2.155 -0.077 357
0.228 2.154 -0.083 302
0.228 2.154 -0.089 302
0.272 2.568 -0.142 304
0.272 2.567 -0.149 480
0.273 2.574 -0.157 656
0.272 2.573 -0.165 656
0.272 2.564 -0.171 867
0.237 2.186 1.676 3868
0.237 2.190 1.669 7737
0.238 2.195 1.663 7737
0.235 2.173 1.639 7442
0.236 2.178 1.632 7644
0.246 2.273 1.690 6862
0.246 2.277 1.683 9894
0.247 2.282 1.676 9894
0.247 2.286 1.670 12168
0.248 2.290 1.663 14443
0.249 2.301 1.661 14436
0.250 2.306 1.655 14464
0.251 2.317 1.652 14228
0.252 2.328 1.650 14932
0.252 2.332 1.643 14485
0.254 2.343 1.641 14227
0.253 2.341 1.630 12005
0.254 2.345 1.623 9778
0.255 2.356 1.621 9634
0.255 2.354 1.610 7596
0.255 2.358 1.603 5607
0.264 2.442 1.647 5303
0.265 2.453 1.644 7881
0.267 2.464 1.641 7847
0.269 2.482 1.642 8298
0.270 2.493 1.639 6479
0.272 2.518 1.645 5344
0.272 2.515 1.633 5756
0.273 2.520 1.626 6185
0.273 2.524 1.619 5452
0.278 2.569 1.636 4759
0.271 2.505 1.588 4769
0.272 2.516 1.585 4631
0.274 2.534 1.586 4775
0.276 2.552 1.586 4613
0.278 2.570 1.587 4620
0.285 2.635 1.615 4186
0.286 2.640 1.607 4814
0.288 2.665 1.611 5560
0.290 2.676 1.607 6775
0.291 2.687 1.603 5102
0.293 2.705 1.603 3894
0.295 2.723 1.603 4888
0.295 2.727 1.595 6725
0.296 2.731 1.587 8561
0.296 2.736 1.580 9004
0.297 2.747 1.575 7893
0.298 2.751 1.567 6511
0.299 2.762 1.563 4922
0.310 2.864 1.606 6277
0.309 2.854 1.591 6390
0.310 2.865 1.586 5474
0.312 2.884 1.585 4694
0.313 2.888 1.577 4658
0.314 2.899 1.572 6056
0.314 2.903 1.564 7398
0.315 2.914 1.559 6804
0.323 2.982 1.582 8013
0.322 2.979 1.570 9379
0.323 2.983 1.561 7743
0.329 3.037 1.577 7860
0.330 3.048 1.571 9685
0.332 3.067 1.569 10962
0.332 3.071 1.560 13385
0.333 3.075 1.551 16962
0.334 3.086 1.546 18195
0.334 3.090 1.537 14340
0.336 3.109 1.535 9976
0.342 3.156 1.545 11249
0.344 3.181 1.546 10562
0.346 3.200 1.543 11504
0.347 3.204 1.534 11048
0.348 3.215 1.528 9283
0.354 3.270 1.540 6334
0.356 3.288 1.537 7041
0.356 3.292 1.528 6709
0.357 3.296 1.518 5947
0.356 3.293 1.506 7226
0.358 3.304 1.499 10416
0.359 3.315 1.493 9909
0.362 3.348 1.495 7489
0.365 3.374 1.494 7015
0.366 3.378 1.485 6660
0.375 3.470 1.510 6875
0.377 3.481 1.503 6209
0.380 3.507 1.501 5889
0.381 3.518 1.494 5878
0.384 3.544 1.493 6486
0.384 3.548 1.482 6654
0.385 3.559 1.475 7794
0.399 3.689 1.512 8857
0.400 3.700 1.504 8943
0.401 3.704 1.493 7395
0.401 3.708 1.483 8936
0.403 3.726 1.477 8787
0.408 3.767 1.480 6033
0.407 3.764 1.466 4260
0.417 3.857 1.487 5558
0.419 3.868 1.478 8627
0.419 3.872 1.467 10282
0.419 3.876 1.456 9110
0.419 3.872 1.442 8443
0.427 3.943 1.454 8052
0.428 3.954 1.445 6001
0.434 4.010 1.451 4586
0.438 4.052 1.451 4022
0.441 4.078 1.447 5821
0.441 4.074 1.433 4870
0.449 4.145 1.442 6349
0.451 4.164 1.435 5972
0.453 4.183 1.428 3055
0.465 4.300 1.450 3184
0.464 4.288 1.433 6588
0.466 4.307 1.426 5890
0.471 4.348 1.424 5106
0.471 4.352 1.412 4364
0.472 4.363 1.401 3692
0.485 4.481 1.422 3012
0.477 4.409 1.387 2498
0.479 4.427 1.378 2600
0.496 4.583 1.408 4013
0.497 4.594 1.397 6156
0.503 4.651 1.398 5754
0.505 4.669 1.389 7180
0.519 4.795 1.408 4527
0.519 4.798 1.394 5111
0.528 4.878 1.400 6714
0.528 4.882 1.386 8159
0.528 4.878 1.369 8334
0.528 4.881 1.355 7295
0.544 5.030 1.377 4149
0.530 4.896 1.329 3362
0.561 5.182 1.383 3770
0.562 5.194 1.370 4013
0.572 5.282 1.375 3523
0.574 5.300 1.363 3853
0.579 5.350 1.358 4031
0.582 5.377 1.348 4450
0.585 5.403 1.337 4323
0.595 5.499 1.342 5391
0.597 5.518 1.330 4760
0.597 5.521 1.313 3030
0.617 5.702 1.335 4872
0.617 5.705 1.318 4452
0.605 5.593 1.278 3025
0.627 5.797 1.302 3670
0.629 5.808 1.287 2314
0.665 6.143 1.335 2944
0.667 6.162 1.320 3234
0.668 6.173 1.304 2724
0.658 6.084 1.269 2215
0.701 6.482 1.324 2191
0.702 6.485 1.305 2733
0.701 6.481 1.285 2954
0.702 6.484 1.266 3545
0.739 6.829 1.306 2629
0.728 6.731 1.269 3334
0.751 6.936 1.283 3478
0.751 6.940 1.262 2513
0.748 6.912 1.237 2062
0.770 7.117 1.249 1800
0.782 7.229 1.245 1947
0.784 7.240 1.225 2055
0.802 7.415 1.229 2084
0.835 7.714 1.251 1997
0.829 7.662 1.220 2050
0.883 8.157 1.266 1844
0.916 8.464 1.284 1708
0.916 8.467 1.259 2249
0.917 8.471 1.234 2263
0.916 8.466 1.209 2400
0.917 8.469 1.184 2898
0.917 8.472 1.159 2639
1.013 9.358 1.239 1889
1.015 9.377 1.213 2689
1.014 9.372 1.185 3512
1.014 9.368 1.157 3894
1.014 9.370 1.130 3907
1.015 9.381 1.103 3747
1.016 9.392 1.076 3027
1.016 9.387 1.048 2058
1.016 9.389 1.021 1575
1.016 9.392 0.993 985
1.024 9.465 0.972 685
1.025 9.475 0.945 748
1.026 9.485 0.918 763
1.027 9.487 0.891 517
1.025 9.474 0.862 386
1.027 9.491 0.835 285
0.278 2.568 -0.134 253
0.278 2.567 -0.142 328
0.278 2.566 -0.149 436
0.278 2.566 -0.157 543
0.278 2.565 -0.164 543
0.277 2.556 -0.170 730
0.236 2.121 1.630 3805
0.236 2.126 1.624 7610
0.237 2.130 1.617 7610
0.241 2.173 1.639 7776
0.242 2.177 1.632 8150
0.252 2.272 1.690 6394
0.253 2.276 1.683 9324
0.253 2.281 1.676 9324
0.254 2.285 1.670 11880
0.254 2.290 1.663 14436
0.255 2.301 1.661 14189
0.256 2.305 1.655 14180
0.257 2.316 1.652 13676
0.258 2.327 1.650 14146
0.260 2.338 1.648 13303
0.260 2.342 1.641 12677
0.261 2.347 1.634 10421
0.261 2.351 1.628 8034
0.262 2.355 1.621 7903
0.262 2.360 1.614 6401
0.263 2.370 1.612 4954
0.270 2.435 1.643 5839
0.272 2.446 1.640 8474
0.274 2.463 1.641 8237
0.276 2.481 1.642 8739
0.276 2.486 1.635 6536
0.279 2.510 1.640 4850
0.279 2.514 1.633 5216
0.280 2.519 1.626 5581
0.280 2.523 1.619 4887
0.285 2.568 1.636 4525
0.279 2.511 1.592 4517
0.280 2.522 1.589 5285
0.281 2.533 1.586 5830
0.283 2.551 1.586 5649
0.285 2.569 1.587 5723
0.287 2.587 1.587 4629
0.294 2.646 1.611 4694
0.297 2.671 1.615 5697
0.298 2.682 1.611 7098
0.298 2.686 1.603 5608
0.300 2.704 1.603 4396
0.302 2.715 1.599 5005
0.303 2.726 1.595 6647
0.303 2.731 1.587 8415
0.304 2.735 1.580 8750
0.304 2.739 1.572 7674
0.305 2.750 1.567 6415
0.318 2.866 1.618 5090
0.317 2.856 1.603 6989
0.317 2.853 1.591 7182
0.318 2.864 1.586 5989
0.320 2.883 1.585 5015
0.321 2.894 1.580 5145
0.323 2.905 1.576 6861
0.322 2.902 1.564 8129
0.324 2.913 1.559 7071
0.331 2.981 1.582 7522
0.331 2.978 1.570 9064
0.331 2.982 1.561 7850
0.333 3.001 1.559 7336
0.338 3.047 1.571 9490
0.341 3.073 1.573 11618
0.341 3.070 1.560 14532
0.341 3.074 1.551 18143
0.343 3.085 1.546 18790
0.344 3.096 1.540 14486
0.346 3.115 1.538 10280
0.350 3.155 1.545 11575
0.354 3.188 1.549 10067
0.355 3.199 1.543 10710
0.356 3.210 1.537 10219
0.358 3.221 1.531 8731
0.364 3.276 1.544 6309
0.365 3.287 1.537 7185
0.365 3.291 1.528 7017
0.366 3.295 1.518 6713
0.366 3.292 1.506 8571
0.366 3.296 1.496 11877
0.368 3.314 1.493 10904
0.372 3.347 1.495 8200
0.375 3.373 1.494 7741
0.375 3.377 1.485 7730
0.384 3.461 1.507 6470
0.387 3.487 1.506 5898
0.390 3.513 1.504 5084
0.393 3.539 1.503 5085
0.393 3.543 1.493 6829
0.395 3.554 1.485 7541
0.397 3.573 1.480 8543
0.409 3.687 1.512 7840
0.411 3.699 1.504 8744
0.410 3.695 1.491 7378
0.411 3.699 1.480 8167
0.415 3.740 1.483 7874
0.419 3.774 1.483 6610
0.418 3.763 1.466 4560
0.427 3.848 1.484 5129
0.429 3.867 1.478 8923
0.430 3.871 1.467 10868
0.430 3.875 1.456 9199
0.429 3.863 1.440 8653
0.438 3.942 1.454 7056
0.440 3.961 1.447 5064
0.445 4.009 1.451 4957
0.449 4.043 1.449 4379
0.453 4.077 1.447 6584
0.452 4.073 1.433 5456
0.460 4.144 1.442 7236
0.462 4.163 1.435 6795
0.464 4.174 1.425 3341
0.473 4.261 1.439 3153
0.475 4.279 1.431 6209
0.476 4.291 1.421 5622
0.483 4.347 1.424 3915
0.483 4.351 1.412 3357
0.497 4.475 1.435 2933
0.498 4.487 1.424 2841
0.489 4.400 1.385 2582
0.491 4.418 1.376 2686
0.509 4.581 1.408 3660
0.510 4.592 1.397 5803
0.515 4.642 1.396 5084
0.519 4.676 1.391 6770
0.520 4.687 1.379 4492
0.534 4.804 1.396 5293
0.538 4.846 1.392 6861
0.539 4.857 1.380 7706
0.541 4.869 1.367 8392
0.542 4.880 1.355 7456
0.540 4.860 1.335 4317
0.574 5.170 1.396 3084
0.575 5.181 1.383 4204
0.577 5.192 1.370 4453
0.579 5.211 1.359 3732
0.589 5.306 1.365 3467
0.595 5.356 1.360 3786
0.597 5.375 1.348 4194
0.600 5.401 1.337 4260
0.611 5.505 1.344 5288
0.613 5.516 1.330 4627
0.613 5.519 1.313 3061
0.633 5.700 1.335 4973
0.633 5.703 1.318 4460
0.643 5.791 1.319 3203
0.644 5.803 1.304 4298
0.646 5.814 1.289 2891
0.683 6.149 1.337 3044
0.684 6.160 1.320 3442
0.674 6.071 1.285 2876
0.675 6.082 1.269 2433
0.720 6.480 1.324 2228
0.720 6.483 1.305 2701
0.719 6.471 1.283 2813
0.719 6.474 1.264 3398
0.758 6.827 1.306 2717
0.747 6.729 1.269 3288
0.771 6.942 1.284 3023
0.770 6.938 1.262 2311
0.767 6.910 1.237 1926
0.791 7.123 1.250 1909
0.803 7.227 1.245 2353
0.804 7.238 1.225 2432
0.824 7.420 1.230 1791
0.856 7.711 1.251 2013
0.852 7.668 1.221 1893
0.896 8.068 1.254 1728
0.865 7.791 1.193 1789
0.940 8.465 1.259 2032
0.940 8.468 1.234 2157
0.939 8.456 1.208 2362
0.939 8.459 1.183 2894
0.941 8.469 1.159 2715
1.038 9.348 1.238 1954
1.041 9.374 1.213 2677
1.040 9.369 1.185 3696
1.040 9.365 1.157 4181
1.041 9.375 1.130 4264
1.041 9.378 1.103 4063
1.042 9.381 1.076 3147
1.042 9.384 1.048 1996
1.041 9.378 1.020 1403
1.042 9.381 0.993 952
1.041 9.376 0.965 745
1.041 9.378 0.937 615
1.052 9.474 0.918 475
1.053 9.484 0.891 416
1.053 9.486 0.863 391
1.054 9.489 0.835 355
1.054 9.491 0.807 253
0.240 2.157 -0.040 293
0.240 2.157 -0.046 377
0.239 2.148 -0.052 423
0.239 2.148 -0.058 474
0.238 2.147 -0.064 493
0.238 2.147 -0.070 512
0.238 2.146 -0.076 442
0.239 2.153 -0.083 373
0.285 2.567 -0.134 492
0.285 2.566 -0.142 632
0.284 2.558 -0.148 795
0.284 2.557 -0.156 959
0.284 2.556 -0.163 959
0.284 2.555 -0.170 1309
0.244 2.140 1.643 4057
0.245 2.144 1.637 8114
0.245 2.148 1.631 8114
0.248 2.172 1.639 8573
0.248 2.176 1.632 9233
0.250 2.194 1.635 6520
0.260 2.276 1.683 8881
0.260 2.280 1.676 8881
0.260 2.278 1.665 11702
0.261 2.289 1.663 14499
0.262 2.293 1.657 14041
0.263 2.304 1.655 13684
0.264 2.309 1.648 12931
0.266 2.326 1.650 13139
0.267 2.337 1.648 11911
0.268 2.348 1.645 10907
0.268 2.346 1.634 8688
0.268 2.350 1.628 6337
0.270 2.361 1.625 6342
0.271 2.372 1.623 5847
0.273 2.390 1.624 5718
0.277 2.427 1.638 6662
0.279 2.445 1.640 9181
0.281 2.463 1.641 8579
0.283 2.480 1.642 9047
0.284 2.485 1.635 6464
0.286 2.509 1.640 4389
0.287 2.514 1.633 4628
0.287 2.518 1.626 4867
0.289 2.529 1.623 4426
0.292 2.560 1.632 4611
0.287 2.517 1.596 4491
0.288 2.521 1.589 6179
0.289 2.532 1.586 7056
0.291 2.550 1.586 6723
0.293 2.568 1.587 6729
0.294 2.579 1.583 5357
0.304 2.665 1.623 5097
0.306 2.677 1.619 6671
0.306 2.681 1.611 8258
0.307 2.685 1.603 7037
0.308 2.696 1.600 5697
0.309 2.707 1.596 5767
0.310 2.718 1.592 7019
0.312 2.730 1.587 8493
0.312 2.734 1.580 8440
0.313 2.738 1.572 7237
0.314 2.749 1.567 6192
0.326 2.851 1.611 5329
0.326 2.855 1.603 7414
0.326 2.852 1.591 7821
0.327 2.863 1.586 6651
0.329 2.882 1.585 5540
0.331 2.900 1.584 5820
0.332 2.911 1.579 7717
0.332 2.908 1.567 8830
0.333 2.919 1.562 7240
0.339 2.973 1.578 7472
0.340 2.977 1.570 9204
0.340 2.974 1.558 8368
0.339 2.971 1.546 7667
0.348 3.046 1.571 9608
0.351 3.072 1.573 12272
0.350 3.069 1.560 15236
0.351 3.073 1.551 18377
0.352 3.084 1.546 18483
0.353 3.095 1.540 14091
0.356 3.114 1.538 10161
0.360 3.154 1.545 11159
0.364 3.186 1.549 8969
0.366 3.205 1.546 9449
0.366 3.209 1.537 9000
0.368 3.220 1.531 7653
0.374 3.275 1.544 5971
0.375 3.286 1.537 7139
0.376 3.290 1.528 7480
0.375 3.287 1.515 8001
0.375 3.284 1.503 10500
0.376 3.295 1.496 13951
0.378 3.313 1.493 12362
0.383 3.354 1.498 9291
0.385 3.372 1.494 8373
0.385 3.376 1.485 8562
0.395 3.460 1.507 6476
0.398 3.486 1.506 6049
0.401 3.512 1.504 4662
0.404 3.538 1.503 4650
0.404 3.535 1.490 7445
0.407 3.561 1.488 8536
0.408 3.572 1.480 9220
0.422 3.693 1.515 6733
0.422 3.697 1.504 8506
0.422 3.694 1.491 7836
0.422 3.698 1.480 7974
0.429 3.761 1.491 7677
0.431 3.772 1.483 7278
0.430 3.769 1.469 5035
0.437 3.824 1.476 4615
0.441 3.865 1.478 9061
0.442 3.869 1.467 11301
0.442 3.873 1.456 9020
0.441 3.862 1.440 8760
0.458 4.008 1.476 6671
0.455 3.989 1.457 4769
0.458 4.008 1.451 5306
0.462 4.049 1.451 5369
0.465 4.075 1.447 8104
0.464 4.064 1.430 6571
0.473 4.143 1.442 8259
0.475 4.161 1.435 7527
0.477 4.180 1.428 3856
0.485 4.244 1.434 3683
0.488 4.278 1.431 5720
0.489 4.282 1.419 5375
0.497 4.353 1.427 2739
0.491 4.304 1.398 2747
0.511 4.474 1.435 2868
0.512 4.485 1.424 2639
0.502 4.398 1.385 2922
0.503 4.402 1.372 2971
0.522 4.572 1.406 3140
0.523 4.583 1.395 5376
0.523 4.579 1.379 4719
0.534 4.674 1.391 5527
0.535 4.685 1.379 4365
0.550 4.818 1.400 4612
0.552 4.837 1.390 6997
0.552 4.833 1.374 8729
0.553 4.844 1.362 8507
0.556 4.870 1.353 7278
0.554 4.851 1.333 4066
0.589 5.160 1.395 3655
0.591 5.179 1.383 4773
0.593 5.190 1.370 4863
0.594 5.202 1.357 4548
0.594 5.205 1.342 3586
0.611 5.354 1.360 3504
0.614 5.381 1.350 3804
0.617 5.400 1.337 4170
0.627 5.495 1.342 5108
0.630 5.514 1.330 4221
0.629 5.510 1.312 2934
0.651 5.698 1.335 4722
0.651 5.701 1.318 4328
0.662 5.797 1.321 3464
0.662 5.801 1.304 4993
0.664 5.819 1.290 3546
0.703 6.155 1.338 3210
0.703 6.158 1.320 3611
0.693 6.069 1.285 3075
0.693 6.072 1.267 2560
0.740 6.478 1.324 2013
0.739 6.473 1.303 2517
0.757 6.632 1.312 2594
0.739 6.472 1.264 3117
0.778 6.817 1.304 2751
0.768 6.727 1.269 3037
0.792 6.940 1.284 2487
0.798 6.989 1.271 2196
0.780 6.830 1.225 2058
0.821 7.190 1.261 2437
0.824 7.217 1.244 2811
0.826 7.235 1.225 2795
0.881 7.713 1.274 1682
0.880 7.709 1.251 2078
0.881 7.712 1.228 1805
0.949 8.307 1.288 1741
0.889 7.788 1.193 1901
0.923 8.080 1.208 1778
0.967 8.465 1.234 1909
0.965 8.453 1.208 2175
0.965 8.456 1.183 2695
0.967 8.467 1.159 2609
1.068 9.352 1.239 1925
1.070 9.371 1.213 2930
1.069 9.366 1.185 4047
1.069 9.361 1.157 4464
1.070 9.372 1.130 4471
1.070 9.375 1.103 4316
1.071 9.378 1.076 3340
1.071 9.380 1.048 2182
1.071 9.383 1.021 1808
1.072 9.386 0.993 1400
1.071 9.380 0.965 1043
1.071 9.382 0.938 789
1.081 9.471 0.918 694
1.081 9.465 0.889 556
1.082 9.475 0.862 476
1.083 9.485 0.835 382
0.245 2.143 -0.008 252
0.245 2.143 -0.014 339
0.245 2.142 -0.020 402
0.245 2.150 -0.027 493
0.245 2.149 -0.033 511
0.245 2.149 -0.039 573
0.245 2.148 -0.045 635
0.245 2.148 -0.052 624
0.244 2.139 -0.057 614
0.244 2.139 -0.063 571
0.244 2.138 -0.069 529
0.244 2.138 -0.075 441
0.245 2.145 -0.082 355
0.293 2.566 -0.134 454
0.293 2.566 -0.142 655
0.292 2.557 -0.148 943
0.292 2.556 -0.156 1231
0.292 2.555 -0.163 1231
0.292 2.554 -0.170 1633
0.244 2.120 1.630 4026
0.245 2.125 1.624 8052
0.245 2.129 1.617 8052
0.250 2.172 1.639 8538
0.251 2.183 1.637 9335
0.253 2.193 1.635 6770
0.262 2.275 1.683 8374
0.262 2.273 1.672 8437
0.262 2.278 1.665 11488
0.263 2.282 1.659 14202
0.264 2.293 1.657 13416
0.265 2.297 1.650 12767
0.266 2.308 1.648 11955
0.268 2.326 1.650 11934
0.269 2.337 1.648 10438
0.271 2.348 1.645 9444
0.271 2.352 1.639 7351
0.272 2.356 1.632 5370
0.273 2.367 1.629 5607
0.275 2.385 1.631 6212
0.275 2.389 1.624 7007
0.279 2.420 1.634 7260
0.282 2.445 1.640 9392
0.284 2.462 1.641 8467
0.286 2.480 1.642 8813
0.287 2.491 1.639 6064
0.290 2.516 1.645 4102
0.290 2.520 1.637 4200
0.291 2.524 1.630 4298
0.293 2.542 1.631 4413
0.294 2.553 1.628 4891
0.295 2.558 1.620 4589
0.290 2.521 1.589 6658
0.292 2.532 1.586 7741
0.294 2.550 1.586 7262
0.295 2.561 1.583 7184
0.305 2.647 1.623 5630
0.307 2.665 1.623 5860
0.308 2.676 1.619 7368
0.310 2.687 1.615 8906
0.309 2.685 1.603 8005
0.311 2.696 1.600 6703
0.312 2.707 1.596 6442
0.312 2.711 1.588 7466
0.314 2.722 1.584 8610
0.314 2.727 1.576 8199
0.315 2.738 1.572 6811
0.317 2.749 1.567 5990
0.318 2.760 1.563 5495
0.328 2.848 1.599 7280
0.329 2.852 1.591 7887
0.330 2.863 1.586 7024
0.331 2.874 1.582 5959
0.334 2.900 1.584 6190
0.335 2.911 1.579 8131
0.336 2.915 1.571 9193
0.336 2.919 1.562 7395
0.343 2.973 1.578 7742
0.343 2.977 1.570 9575
0.342 2.967 1.554 8859
0.342 2.964 1.542 7984
0.351 3.046 1.571 8603
0.354 3.071 1.573 11695
0.354 3.068 1.560 14574
0.355 3.080 1.555 17229
0.356 3.091 1.549 17074
0.357 3.095 1.540 13007
0.359 3.113 1.538 9433
0.363 3.146 1.542 9801
0.368 3.193 1.552 7724
0.369 3.205 1.546 8536
0.371 3.216 1.540 7942
0.371 3.220 1.531 6646
0.378 3.282 1.547 5255
0.379 3.286 1.537 6707
0.378 3.282 1.525 7749
0.379 3.286 1.515 8781
0.378 3.283 1.503 11570
0.380 3.294 1.496 15083
0.382 3.313 1.493 13477
0.386 3.346 1.495 10019
0.389 3.372 1.494 8573
0.389 3.376 1.485 8577
0.399 3.460 1.507 6264
0.402 3.493 1.509 5873
0.406 3.526 1.510 4218
0.408 3.538 1.503 4162
0.408 3.542 1.493 7151
0.410 3.560 1.488 8736
0.412 3.579 1.483 9035
0.426 3.693 1.515 5816
0.426 3.697 1.504 8071
0.424 3.679 1.485 8400
0.425 3.690 1.477 8124
0.433 3.760 1.491 7330
0.435 3.772 1.483 7137
0.434 3.768 1.469 4786
0.435 3.772 1.458 3833
0.445 3.865 1.478 8549
0.447 3.876 1.470 10931
0.446 3.873 1.456 8406
0.445 3.862 1.440 8541
0.462 4.007 1.476 7198
0.460 3.996 1.460 5089
0.462 4.007 1.451 5348
0.466 4.048 1.451 5874
0.470 4.075 1.447 8680
0.468 4.063 1.430 7079
0.477 4.142 1.442 8254
0.479 4.161 1.435 7409
0.482 4.187 1.430 3946
0.489 4.244 1.434 3702
0.491 4.262 1.426 5362
0.492 4.274 1.416 4791
0.492 4.270 1.402 2609
0.496 4.304 1.398 3125
0.496 4.307 1.386 3004
0.517 4.485 1.424 2183
0.508 4.405 1.387 3136
0.521 4.522 1.406 3106
0.520 4.511 1.389 2911
0.528 4.583 1.395 4644
0.527 4.571 1.377 4469
0.539 4.681 1.393 4118
0.540 4.685 1.379 3829
0.554 4.810 1.398 4518
0.557 4.836 1.390 7078
0.557 4.832 1.374 10221
0.558 4.843 1.362 9572
0.561 4.870 1.353 6916
0.558 4.843 1.332 3977
0.595 5.160 1.395 4007
0.597 5.178 1.383 4913
0.598 5.190 1.370 5078
0.599 5.201 1.357 5099
0.600 5.204 1.342 4183
0.618 5.361 1.362 3222
0.620 5.380 1.350 3314
0.622 5.399 1.337 3975
0.631 5.479 1.339 4944
0.633 5.490 1.324 3730
0.635 5.509 1.312 2644
0.656 5.697 1.335 4120
0.657 5.701 1.318 3979
0.668 5.797 1.321 3511
0.669 5.808 1.305 5295
0.670 5.811 1.289 3784
0.709 6.154 1.338 3436
0.709 6.157 1.320 4097
0.698 6.060 1.283 3313
0.699 6.064 1.266 2601
0.745 6.469 1.322 1662
0.740 6.426 1.295 2429
0.740 6.422 1.275 2551
0.747 6.479 1.266 2768
0.784 6.808 1.303 2582
0.785 6.811 1.283 2571
0.800 6.939 1.284 2019
0.807 7.004 1.274 2182
0.787 6.829 1.225 2192
0.828 7.189 1.261 2807
0.831 7.216 1.244 3134
0.834 7.235 1.225 2939
0.889 7.712 1.274 1762
0.889 7.716 1.252 2100
0.889 7.719 1.229 1901
0.957 8.306 1.288 1923
0.896 7.780 1.191 1976
0.931 8.079 1.208 1669
0.975 8.464 1.234 1669
0.974 8.452 1.208 1960
0.975 8.463 1.184 2423
0.975 8.466 1.159 2426
1.077 9.351 1.239 1872
1.079 9.362 1.213 2751
1.079 9.365 1.185 3890
1.079 9.360 1.157 4237
1.080 9.371 1.130 4247
1.080 9.374 1.103 4060
1.081 9.384 1.076 3080
1.082 9.387 1.049 2140
1.081 9.382 1.021 2001
1.081 9.384 0.993 1394
1.081 9.379 0.965 820
1.082 9.389 0.939 568
1.089 9.454 0.916 412
1.091 9.464 0.889 278
0.248 2.150 -0.021 256
0.248 2.150 -0.027 285
0.248 2.149 -0.033 285
0.248 2.156 -0.040 288
0.249 2.164 -0.047 294
0.248 2.155 -0.052 278
0.248 2.155 -0.058 262
0.248 2.154 -0.065 267
0.248 2.154 -0.071 272
0.295 2.560 -0.119 259
0.295 2.559 -0.126 380
0.295 2.558 -0.134 566
0.295 2.557 -0.141 752
0.295 2.557 -0.148 874
0.294 2.548 -0.155 997
0.293 2.547 -0.162 997
0.293 2.546 -0.169 1301
0.252 2.139 1.643 3958
0.253 2.143 1.637 7917
0.253 2.147 1.631 7917
0.256 2.171 1.639 8524
0.257 2.182 1.637 9434
0.259 2.193 1.635 6922
0.268 2.275 1.683 7746
0.267 2.266 1.667 8000
0.268 2.271 1.661 11160
0.269 2.281 1.659 13658
0.270 2.292 1.657 12475
0.271 2.297 1.650 11689
0.272 2.308 1.648 10874
0.274 2.325 1.650 10805
0.276 2.343 1.652 9136
0.278 2.354 1.650 8205
0.278 2.358 1.643 6675
0.280 2.376 1.645 5774
0.281 2.380 1.638 6292
0.281 2.384 1.631 7381
0.282 2.389 1.624 8470
0.285 2.413 1.630 7833
0.287 2.437 1.636 9437
0.290 2.455 1.637 8108
0.292 2.479 1.642 8061
0.294 2.490 1.639 5292
0.298 2.528 1.653 3951
0.298 2.526 1.641 3943
0.298 2.530 1.634 3957
0.300 2.541 1.631 4623
0.300 2.546 1.624 5362
0.300 2.543 1.612 5113
0.298 2.527 1.593 7110
0.299 2.531 1.586 8337
0.300 2.542 1.582 7762
0.302 2.560 1.583 7598
0.313 2.653 1.626 6084
0.314 2.664 1.623 6395
0.316 2.675 1.619 7487
0.317 2.687 1.615 8940
0.317 2.691 1.607 8253
0.318 2.695 1.600 7295
0.319 2.706 1.596 7111
0.320 2.710 1.588 7743
0.320 2.715 1.580 8374
0.321 2.726 1.576 7684
0.323 2.737 1.572 6579
0.325 2.755 1.571 6377
0.327 2.773 1.571 6175
0.335 2.840 1.595 6876
0.336 2.851 1.591 7650
0.338 2.862 1.586 7268
0.339 2.873 1.582 6387
0.342 2.899 1.584 6312
0.344 2.917 1.583 8059
0.344 2.914 1.571 9047
0.344 2.918 1.562 7074
0.350 2.972 1.578 7604
0.351 2.976 1.570 9396
0.350 2.966 1.554 9189
0.349 2.963 1.542 8558
0.359 3.045 1.571 6964
0.362 3.070 1.573 10210
0.362 3.068 1.560 12905
0.363 3.079 1.555 15155
0.364 3.090 1.549 14891
0.366 3.101 1.544 11526
0.368 3.120 1.541 8429
0.370 3.138 1.539 7991
0.378 3.207 1.559 6708
0.379 3.211 1.549 7959
0.380 3.222 1.543 7183
0.380 3.219 1.531 5539
0.387 3.281 1.547 4387
0.387 3.277 1.534 6495
0.386 3.274 1.521 8531
0.387 3.278 1.512 9855
0.387 3.282 1.503 12615
0.388 3.286 1.493 15717
0.391 3.312 1.493 13942
0.394 3.345 1.495 10258
0.397 3.363 1.491 8260
0.397 3.367 1.482 8001
0.408 3.459 1.507 6956
0.410 3.477 1.503 6408
0.412 3.496 1.499 4383
0.417 3.536 1.503 3526
0.417 3.533 1.490 6837
0.420 3.559 1.488 8654
0.423 3.585 1.486 8765
0.423 3.589 1.476 4953
0.436 3.696 1.504 7395
0.433 3.670 1.482 8654
0.435 3.689 1.477 8266
0.443 3.752 1.488 7062
