-1.066 2.870 1.771 7422
-1.111 2.992 1.829 6816
-1.113 2.997 1.820 8199
-1.117 3.008 1.815 9563
-1.119 3.012 1.805 9333
-1.123 3.024 1.800 7739
-1.125 3.028 1.791 6172
-1.114 3.000 1.763 6844
-1.116 3.004 1.754 6488
-1.120 3.015 1.748 5288
-1.144 3.079 1.771 6548
-1.135 3.057 1.748 7145
-1.164 3.135 1.777 7053
-1.171 3.152 1.775 6665
-1.182 3.183 1.779 7037
-1.216 3.275 1.814 7079
-1.218 3.279 1.804 10409
-1.220 3.284 1.794 11525
-1.224 3.295 1.787 10218
-1.225 3.299 1.777 7649
-1.230 3.311 1.770 8750
-1.239 3.335 1.770 8802
-1.228 3.306 1.744 8167
-1.232 3.317 1.737 6521
-1.276 3.436 1.782 5144
-1.275 3.434 1.768 5316
-1.267 3.411 1.745 4893
-1.269 3.416 1.734 5385
-1.346 3.624 1.820 5603
-1.348 3.628 1.809 7096
-1.349 3.633 1.798 8562
-1.351 3.638 1.786 7238
-1.353 3.642 1.775 7453
-1.354 3.646 1.764 9759
-1.356 3.651 1.753 8843
-1.363 3.669 1.748 6800
-1.443 3.886 1.830 7448
-1.389 3.740 1.752 5840
-1.459 3.930 1.821 4459
-1.454 3.914 1.800 6004
-1.453 3.911 1.785 6971
-1.452 3.909 1.770 7994
-1.456 3.920 1.761 7750
-1.509 4.063 1.807 4335
-1.516 4.081 1.800 4798
-1.515 4.079 1.784 5241
-1.517 4.083 1.772 4936
-1.536 4.136 1.779 4539
-1.541 4.148 1.769 4831
-1.542 4.152 1.756 3533
-1.536 4.136 1.735 2737
-1.628 4.384 1.817 3349
-1.622 4.368 1.795 6632
-1.614 4.344 1.771 8347
-1.615 4.349 1.758 8635
-1.617 4.353 1.744 6505
-1.658 4.463 1.770 4620
-1.677 4.516 1.774 3957
-1.676 4.514 1.758 5744
-1.673 4.504 1.739 6872
-1.677 4.516 1.727 5058
-1.726 4.647 1.758 4306
-1.730 4.658 1.746 5035
-1.734 4.670 1.734 3771
-1.757 4.731 1.739 2747
-1.809 4.869 1.770 2276
-1.818 4.895 1.762 2570
-1.817 4.892 1.745 2602
-1.813 4.883 1.725 2603
-1.831 4.929 1.724 2352
-1.877 5.055 1.748 2930
-1.874 5.045 1.727 3338
-1.873 5.042 1.710 3774
-1.877 5.053 1.696 3577
-1.963 5.286 1.751 2916
-1.954 5.262 1.726 4615
-1.958 5.273 1.712 6215
-1.963 5.284 1.698 6473
-1.964 5.289 1.681 4683
-2.091 5.629 1.763 3792
-2.090 5.627 1.744 4681
-2.097 5.645 1.730 4997
-2.098 5.650 1.713 4044
-2.100 5.654 1.695 3956
-2.104 5.665 1.680 4564
-2.108 5.677 1.664 3510
-2.257 6.077 1.753 2576
-2.299 6.189 1.763 3439
-2.295 6.179 1.740 3509
-2.307 6.213 1.728 3460
-2.314 6.231 1.713 2896
-2.335 6.286 1.706 2249
-2.360 6.355 1.703 1530
-2.467 6.642 1.752 1457
-2.463 6.632 1.728 1487
-2.457 6.614 1.703 1209
-2.558 6.887 1.745 1134
-2.662 7.167 1.788 1308
-2.671 7.193 1.770 2078
-2.670 7.190 1.747 1916
-2.667 7.180 1.721 1222
-2.674 7.199 1.702 1812
-2.678 7.210 1.681 3005
-2.682 7.222 1.661 3080
-2.684 7.226 1.638 1909
-3.015 8.119 1.799 1919
-3.020 8.131 1.775 1986
-3.236 8.712 1.865 1475
-3.235 8.709 1.836 1174
-3.204 8.626 1.792 1013
-3.200 8.616 1.763 777
-3.283 8.840 1.777 722
-3.230 8.698 1.723 518
-3.235 8.709 1.697 292
-0.812 2.203 1.806 3437
-0.816 2.214 1.804 7128
-0.820 2.224 1.802 7796
-0.822 2.229 1.795 6840
-0.819 2.221 1.779 6158
-0.827 2.244 1.786 6327
-0.831 2.255 1.784 7087
-0.833 2.259 1.777 7087
-0.848 2.300 1.797 7407
-0.850 2.305 1.790 9590
-0.856 2.322 1.792 9022
-0.864 2.345 1.798 10370
-0.868 2.355 1.795 8917
-0.888 2.409 1.823 8422
-0.890 2.414 1.816 8422
-0.866 2.350 1.761 9760
-0.868 2.355 1.754 11536
-0.872 2.365 1.751 11193
-0.876 2.376 1.748 11322
-0.882 2.393 1.749 8603
-0.895 2.428 1.763 8267
-0.936 2.539 1.828 7044
-0.938 2.544 1.820 8913
-0.939 2.549 1.813 7589
-0.941 2.553 1.805 6265
-0.943 2.558 1.797 6069
-0.945 2.562 1.789 5873
-0.951 2.579 1.790 7659
-0.953 2.584 1.782 9639
-0.959 2.601 1.782 8436
-0.965 2.618 1.782 7935
-0.967 2.623 1.774 7617
-0.971 2.634 1.770 7379
-0.975 2.645 1.766 5237
-0.995 2.700 1.790 4230
-1.014 2.750 1.810 5114
-1.018 2.761 1.805 7208
-1.019 2.765 1.797 8348
-1.023 2.776 1.792 7936
-1.039 2.820 1.807 8363
-1.041 2.824 1.799 7521
-1.045 2.835 1.794 6785
-1.049 2.846 1.789 5741
-1.056 2.864 1.788 6671
-1.060 2.875 1.783 8440
-1.059 2.873 1.771 7465
-1.104 2.995 1.829 6787
-1.106 2.999 1.820 8147
-1.110 3.011 1.815 9483
-1.112 3.015 1.805 9242
-1.116 3.026 1.800 7637
-1.117 3.031 1.791 6074
-1.104 2.996 1.760 6754
-1.108 3.007 1.754 6331
-1.112 3.018 1.748 5086
-1.136 3.082 1.771 6433
-1.128 3.060 1.748 7121
-1.159 3.144 1.781 6957
-1.163 3.155 1.775 6634
-1.175 3.186 1.779 7071
-1.206 3.271 1.811 6996
-1.210 3.282 1.804 10305
-1.212 3.287 1.794 11421
-1.216 3.298 1.787 10171
-1.217 3.302 1.777 7660
-1.229 3.334 1.781 8772
-1.231 3.338 1.770 8869
-1.220 3.309 1.744 8203
-1.224 3.320 1.737 6510
-1.270 3.446 1.786 5014
-1.270 3.444 1.772 5138
-1.259 3.415 1.745 5164
-1.260 3.419 1.734 5885
-1.264 3.430 1.727 5730
-1.339 3.632 1.809 7152
-1.340 3.636 1.798 8643
-1.342 3.641 1.786 7266
-1.344 3.645 1.775 7455
-1.345 3.650 1.764 9825
-1.347 3.654 1.753 8952
-1.354 3.672 1.748 6902
-1.434 3.890 1.830 7455
-1.380 3.743 1.752 5840
-1.450 3.933 1.821 4402
-1.444 3.917 1.800 5931
-1.443 3.915 1.785 6993
-1.442 3.912 1.770 8110
-1.446 3.924 1.761 7859
-1.499 4.067 1.807 4344
-1.506 4.085 1.800 4796
-1.505 4.083 1.784 5271
-1.507 4.087 1.772 4963
-1.526 4.140 1.779 4531
-1.530 4.152 1.769 4830
-1.532 4.156 1.756 3560
-1.526 4.139 1.735 2789
-1.618 4.388 1.817 3357
-1.612 4.372 1.795 6646
-1.603 4.348 1.771 8433
-1.605 4.353 1.758 8770
-1.606 4.357 1.744 6555
-1.647 4.467 1.770 4618
-1.666 4.521 1.774 3908
-1.665 4.518 1.758 5721
-1.662 4.508 1.739 6856
-1.666 4.520 1.727 5066
-1.715 4.651 1.758 4351
-1.719 4.662 1.746 5035
-1.723 4.674 1.734 3760
-1.743 4.728 1.737 2759
-1.797 4.874 1.770 2266
-1.806 4.899 1.762 2543
-1.805 4.897 1.745 2560
-1.802 4.887 1.725 2598
-1.819 4.934 1.724 2345
-1.865 5.059 1.748 2913
-1.861 5.049 1.727 3354
-1.860 5.046 1.710 3768
-1.865 5.058 1.696 3598
-1.906 5.169 1.714 2370
-1.944 5.273 1.728 4303
-1.948 5.285 1.714 5409
-1.950 5.289 1.698 6241
-1.951 5.294 1.681 5836
-2.077 5.635 1.763 3683
-2.076 5.632 1.744 4698
-2.083 5.650 1.730 5069
-2.085 5.655 1.713 4103
-2.086 5.659 1.695 4020
-2.090 5.671 1.680 4602
-2.095 5.682 1.664 3428
-2.242 6.082 1.753 2567
-2.284 6.195 1.763 3451
-2.280 6.185 1.740 3478
-2.292 6.218 1.728 3530
-2.299 6.237 1.713 2990
-2.319 6.292 1.706 2264
-2.345 6.361 1.703 1573
-2.451 6.648 1.752 1490
-2.447 6.638 1.728 1493
-2.440 6.620 1.703 1208
-2.512 6.813 1.726 1348
-2.644 7.173 1.788 1480
-2.651 7.192 1.769 2181
-2.653 7.197 1.747 1947
-2.649 7.186 1.721 1217
-2.656 7.205 1.702 1835
-2.660 7.217 1.681 3003
-2.665 7.228 1.661 3099
-2.666 7.232 1.638 1952
-2.996 8.126 1.799 1944
-2.997 8.131 1.774 2001
-3.002 8.143 1.750 1451
-3.216 8.724 1.838 1094
-3.183 8.634 1.792 1036
-3.182 8.631 1.764 787
-3.262 8.847 1.777 739
-3.209 8.706 1.723 538
-3.211 8.710 1.696 284
-0.352 0.955 0.227 252
-0.349 0.947 0.224 254
-0.808 2.205 1.806 3437
-0.812 2.215 1.804 7120
-0.816 2.226 1.802 7780
-0.818 2.230 1.795 6840
-0.815 2.223 1.779 6185
-0.823 2.246 1.786 6363
-0.827 2.256 1.784 7143
-0.829 2.261 1.777 7143
-0.844 2.302 1.797 7437
-0.845 2.306 1.790 9624
-0.852 2.323 1.792 9048
-0.860 2.346 1.798 10389
-0.862 2.351 1.791 8941
-0.884 2.411 1.823 8387
-0.885 2.415 1.816 8387
-0.862 2.352 1.761 9785
-0.864 2.356 1.754 11536
-0.868 2.367 1.751 11203
-0.872 2.377 1.748 11379
-0.878 2.394 1.749 8672
-0.891 2.430 1.763 8326
-0.932 2.541 1.828 7033
-0.933 2.546 1.820 8894
-0.935 2.550 1.813 7563
-0.937 2.555 1.805 6232
-0.938 2.559 1.797 6071
-0.942 2.570 1.793 5911
-0.946 2.581 1.790 7690
-0.948 2.586 1.782 9658
-0.954 2.603 1.782 8410
-0.960 2.620 1.782 7902
-0.962 2.625 1.774 7626
-0.966 2.635 1.770 7407
-0.970 2.646 1.766 5250
-0.991 2.702 1.790 4200
-1.009 2.752 1.810 5098
-1.015 2.769 1.809 7195
-1.014 2.767 1.797 8328
-1.018 2.778 1.792 7929
-1.034 2.821 1.807 8378
-1.036 2.826 1.799 7542
-1.040 2.837 1.794 6811
-1.044 2.848 1.789 5759
-1.050 2.866 1.788 6702
-1.055 2.877 1.783 8485
-1.054 2.875 1.771 7521
-1.099 2.997 1.829 6751
-1.100 3.001 1.820 8121
-1.104 3.013 1.815 9497
-1.106 3.017 1.805 9271
-1.110 3.028 1.800 7683
-1.112 3.033 1.791 6128
-1.099 2.998 1.760 6789
-1.103 3.009 1.754 6318
-1.107 3.020 1.748 5035
-1.128 3.077 1.768 6357
-1.122 3.062 1.748 7226
-1.153 3.146 1.781 6795
-1.157 3.157 1.775 6596
-1.169 3.188 1.779 7126
-1.195 3.260 1.804 7059
-1.204 3.284 1.804 10376
-1.206 3.289 1.794 11504
-1.210 3.300 1.787 10226
-1.211 3.305 1.777 7678
-1.223 3.336 1.781 8839
-1.225 3.341 1.770 8935
-1.214 3.311 1.744 8163
-1.218 3.322 1.737 6526
-1.264 3.449 1.786 4976
-1.263 3.446 1.772 5134
-1.253 3.417 1.745 5491
-1.257 3.428 1.738 6268
-1.261 3.439 1.730 5989
-1.332 3.634 1.809 7107
-1.334 3.639 1.798 8599
-1.336 3.643 1.786 7211
-1.337 3.648 1.775 7429
-1.339 3.652 1.764 9853
-1.340 3.657 1.753 9003
-1.347 3.675 1.748 6963
-1.427 3.892 1.830 7487
-1.376 3.752 1.755 5803
-1.443 3.936 1.821 4349
-1.437 3.920 1.800 5926
-1.436 3.917 1.785 7032
-1.435 3.915 1.770 8243
-1.439 3.926 1.761 7976
-1.492 4.069 1.807 4325
-1.498 4.088 1.800 4753
-1.498 4.085 1.784 5195
-1.499 4.090 1.772 4942
-1.519 4.143 1.779 4505
-1.525 4.161 1.772 4837
-1.525 4.159 1.756 3619
-1.518 4.142 1.735 2852
-1.610 4.391 1.817 3383
-1.604 4.375 1.795 6658
-1.595 4.351 1.771 8443
-1.597 4.356 1.758 8759
-1.598 4.360 1.744 6558
-1.639 4.470 1.770 4642
-1.658 4.524 1.774 3934
-1.657 4.521 1.758 5751
-1.654 4.511 1.739 6834
-1.658 4.523 1.727 5080
-1.706 4.654 1.758 4363
-1.710 4.666 1.746 5066
-1.715 4.677 1.734 3771
-1.737 4.738 1.739 2753
-1.788 4.877 1.770 2234
-1.797 4.903 1.762 2538
-1.796 4.900 1.745 2546
-1.793 4.890 1.725 2571
-1.865 5.087 1.772 2327
-1.856 5.062 1.748 2981
-1.852 5.053 1.727 3464
-1.851 5.050 1.710 3876
-1.855 5.061 1.696 3640
-1.896 5.173 1.714 2426
-1.921 5.241 1.717 2909
-1.933 5.274 1.710 3662
-1.940 5.293 1.698 4943
-1.942 5.297 1.681 5237
-2.067 5.638 1.763 3673
-2.066 5.636 1.744 4777
-2.073 5.654 1.730 5132
-2.074 5.659 1.713 4188
-2.076 5.663 1.695 4155
-2.080 5.674 1.680 4719
-2.084 5.686 1.664 3513
-2.231 6.086 1.753 2603
-2.272 6.199 1.763 3389
-2.269 6.189 1.740 3511
-2.281 6.222 1.728 3521
-2.288 6.241 1.713 2942
-2.308 6.296 1.706 2242
-2.333 6.365 1.703 1611
-2.439 6.652 1.752 1556
-2.435 6.642 1.728 1503
-2.498 6.813 1.747 1294
-2.499 6.818 1.726 1395
-2.631 7.178 1.788 1604
-2.641 7.204 1.770 2277
-2.640 7.201 1.747 1990
-2.639 7.198 1.723 1198
-2.643 7.210 1.702 1805
-2.647 7.222 1.681 2923
-2.652 7.233 1.661 3029
-2.653 7.237 1.638 1939
-2.981 8.132 1.799 1947
-2.983 8.136 1.774 2006
-2.987 8.148 1.750 1465
-3.200 8.730 1.838 1070
-3.167 8.639 1.792 1037
-3.166 8.637 1.764 785
-3.246 8.853 1.777 690
-3.247 8.858 1.750 507
-3.249 8.862 1.722 289
-0.803 2.207 1.806 3405
-0.807 2.217 1.804 7050
-0.811 2.228 1.802 7694
-0.813 2.232 1.795 6756
-0.810 2.225 1.779 6106
-0.818 2.247 1.786 6316
-0.822 2.258 1.784 7138
-0.824 2.263 1.777 7138
-0.839 2.304 1.797 7420
-0.840 2.308 1.790 9596
-0.846 2.325 1.792 9010
-0.855 2.348 1.798 10347
-0.856 2.353 1.791 8901
-0.878 2.413 1.823 8364
-0.880 2.417 1.816 8364
-0.857 2.354 1.761 9724
-0.858 2.358 1.754 11459
-0.862 2.369 1.751 11121
-0.866 2.379 1.748 11281
-0.872 2.396 1.749 8598
-0.885 2.432 1.763 8266
-0.926 2.543 1.828 6969
-0.927 2.548 1.820 8812
-0.929 2.552 1.813 7492
-0.931 2.557 1.805 6172
-0.935 2.568 1.801 6028
-0.936 2.572 1.793 5884
-0.940 2.583 1.790 7623
-0.942 2.588 1.782 9532
-0.948 2.605 1.782 8252
-0.955 2.622 1.782 7729
-0.956 2.627 1.774 7487
-0.960 2.638 1.770 7276
-0.964 2.648 1.766 5153
-0.984 2.704 1.790 4126
-1.002 2.754 1.810 5045
-1.009 2.771 1.809 7145
-1.008 2.769 1.797 8273
-1.012 2.780 1.792 7899
-1.028 2.824 1.807 8370
-1.030 2.828 1.799 7535
-1.034 2.839 1.794 6805
-1.038 2.850 1.789 5753
-1.044 2.868 1.788 6680
-1.048 2.879 1.783 8452
-1.047 2.877 1.771 7492
-1.092 2.999 1.829 6743
-1.093 3.004 1.820 8113
-1.098 3.015 1.815 9509
-1.099 3.020 1.805 9310
-1.103 3.031 1.800 7725
-1.105 3.035 1.791 6173
-1.095 3.007 1.763 6877
-1.096 3.011 1.754 6449
-1.100 3.022 1.748 5182
-1.121 3.080 1.768 6446
-1.115 3.064 1.748 7182
-1.146 3.149 1.781 6886
-1.150 3.160 1.775 6668
-1.162 3.191 1.779 7141
-1.188 3.262 1.804 7033
-1.197 3.287 1.804 10295
-1.198 3.292 1.794 11402
-1.202 3.303 1.787 10161
-1.204 3.307 1.777 7669
-1.215 3.339 1.781 8869
-1.217 3.343 1.770 9014
-1.206 3.314 1.744 8131
-1.210 3.325 1.737 6470
-1.256 3.451 1.786 4979
-1.255 3.449 1.772 5375
-1.245 3.420 1.745 5971
-1.249 3.431 1.738 6428
-1.253 3.442 1.730 6103
-1.324 3.637 1.809 6995
-1.326 3.642 1.798 8520
-1.327 3.646 1.786 7205
-1.329 3.651 1.775 7455
-1.331 3.655 1.764 9884
-1.332 3.660 1.753 9007
-1.339 3.678 1.748 6965
-1.418 3.895 1.830 7458
-1.367 3.755 1.755 5798
-1.431 3.932 1.818 4333
-1.428 3.923 1.800 5934
-1.425 3.914 1.782 7067
-1.426 3.918 1.770 8228
-1.430 3.930 1.761 7914
-1.482 4.073 1.807 4300
-1.489 4.091 1.800 4762
-1.488 4.089 1.784 5194
-1.490 4.093 1.772 4903
-1.509 4.146 1.779 4504
-1.513 4.158 1.769 4882
-1.515 4.162 1.756 3643
-1.509 4.146 1.735 2841
-1.600 4.395 1.817 3393
-1.594 4.378 1.795 6585
-1.585 4.355 1.771 8435
-1.587 4.359 1.758 8744
-1.588 4.364 1.744 6527
-1.628 4.474 1.770 4655
-1.648 4.527 1.774 3930
-1.647 4.525 1.758 5749
-1.643 4.515 1.739 6784
-1.648 4.526 1.727 5017
-1.696 4.658 1.758 4379
-1.700 4.669 1.746 5108
-1.704 4.681 1.734 3757
-1.734 4.763 1.747 2742
-1.777 4.881 1.770 2270
-1.786 4.907 1.762 2580
-1.788 4.911 1.747 2581
-1.782 4.894 1.725 2597
-1.853 5.091 1.772 2314
-1.844 5.067 1.748 2926
-1.841 5.057 1.727 3422
-1.840 5.054 1.710 3846
-1.844 5.065 1.696 3592
-1.884 5.177 1.714 2377
-1.904 5.231 1.713 2658
-1.908 5.243 1.699 2805
-1.913 5.254 1.685 2417
-1.932 5.309 1.684 2878
-2.054 5.643 1.763 3720
-2.053 5.640 1.744 4882
-2.060 5.659 1.730 5242
-2.061 5.663 1.713 4175
-2.063 5.668 1.695 4060
-2.067 5.679 1.680 4701
-2.071 5.690 1.664 3495
-2.217 6.091 1.753 2671
-2.258 6.204 1.763 3390
-2.255 6.194 1.740 3531
-2.267 6.227 1.728 3489
-2.274 6.246 1.713 2905
-2.291 6.294 1.704 2203
-2.319 6.371 1.703 1574
-2.423 6.658 1.752 1545
-2.420 6.648 1.728 1472
-2.411 6.623 1.701 1146
-2.484 6.823 1.726 1365
-2.615 7.184 1.788 1642
-2.622 7.203 1.769 2308
-2.624 7.207 1.747 1976
-2.622 7.204 1.723 1210
-2.627 7.216 1.702 1914
-2.631 7.228 1.681 3004
-2.635 7.239 1.661 3050
-2.637 7.243 1.638 1941
-2.962 8.138 1.799 1922
-2.964 8.143 1.774 2012
-2.968 8.155 1.750 1453
-3.180 8.737 1.838 1122
-3.147 8.647 1.792 1025
-3.146 8.644 1.764 779
-3.225 8.861 1.777 664
-3.227 8.865 1.750 508
-3.229 8.870 1.722 313
-0.801 2.207 1.806 3384
-0.805 2.218 1.804 7013
-0.809 2.228 1.802 7666
-0.810 2.233 1.795 6723
-0.808 2.225 1.779 6058
-0.816 2.248 1.786 6282
-0.820 2.259 1.784 7106
-0.821 2.263 1.777 7106
-0.836 2.304 1.797 7421
-0.838 2.309 1.790 9597
-0.844 2.326 1.792 9005
-0.852 2.349 1.798 10348
-0.856 2.360 1.795 8890
-0.876 2.414 1.823 8408
-0.878 2.418 1.816 8408
-0.855 2.354 1.761 9692
-0.856 2.359 1.754 11449
-0.860 2.370 1.751 11116
-0.864 2.380 1.748 11255
-0.870 2.397 1.749 8555
-0.883 2.433 1.763 8204
-0.923 2.544 1.828 6954
-0.925 2.549 1.820 8793
-0.927 2.553 1.813 7483
-0.928 2.558 1.805 6172
-0.932 2.569 1.801 6011
-0.934 2.573 1.793 5851
-0.938 2.584 1.790 7534
-0.940 2.589 1.782 9372
-0.943 2.600 1.778 8071
-0.952 2.623 1.782 7465
-0.954 2.628 1.774 7273
-0.958 2.639 1.770 7093
-0.962 2.649 1.766 5031
-0.982 2.705 1.790 4109
-1.000 2.755 1.810 5010
-1.006 2.772 1.809 7114
-1.005 2.770 1.797 8230
-1.009 2.781 1.792 7879
-1.025 2.825 1.807 8376
-1.027 2.829 1.799 7531
-1.031 2.840 1.794 6791
-1.035 2.851 1.789 5732
-1.041 2.869 1.788 6640
-1.045 2.880 1.783 8406
-1.045 2.878 1.771 7454
-1.089 3.000 1.829 6787
-1.091 3.005 1.820 8160
-1.095 3.016 1.815 9551
-1.096 3.021 1.805 9338
-1.100 3.032 1.800 7707
-1.102 3.036 1.791 6116
-1.092 3.008 1.763 6846
-1.093 3.012 1.754 6415
-1.097 3.023 1.748 5144
-1.116 3.074 1.764 6338
-1.113 3.065 1.748 7140
-1.143 3.150 1.781 6751
-1.147 3.161 1.775 6551
-1.159 3.192 1.779 7044
-1.184 3.264 1.804 6954
-1.193 3.288 1.804 10217
-1.195 3.293 1.794 11365
-1.199 3.304 1.787 10160
-1.201 3.309 1.777 7666
-1.212 3.340 1.781 8841
-1.214 3.344 1.770 8989
-1.203 3.315 1.744 8053
-1.207 3.326 1.737 6420
-1.253 3.453 1.786 5010
-1.252 3.450 1.772 5651
-1.242 3.421 1.745 6227
-1.246 3.432 1.738 6161
-1.250 3.443 1.730 5864
-1.321 3.638 1.809 7141
-1.322 3.643 1.798 8637
-1.324 3.648 1.786 7249
-1.325 3.652 1.775 7406
-1.327 3.657 1.764 9774
-1.329 3.661 1.753 8927
-1.335 3.679 1.748 6924
-1.414 3.897 1.830 7404
-1.363 3.757 1.755 5768
-1.428 3.933 1.818 4251
-1.424 3.924 1.800 5859
-1.421 3.915 1.782 7058
-1.423 3.919 1.770 8218
-1.427 3.931 1.761 7883
-1.479 4.074 1.807 4291
-1.485 4.092 1.800 4710
-1.484 4.090 1.784 5089
-1.486 4.095 1.772 4793
-1.505 4.148 1.779 4502
-1.512 4.166 1.772 4899
-1.511 4.164 1.756 3605
-1.505 4.147 1.735 2727
-1.596 4.396 1.817 3391
-1.590 4.380 1.795 6597
-1.581 4.356 1.771 8420
-1.583 4.361 1.758 8684
-1.584 4.365 1.744 6430
-1.624 4.475 1.770 4645
-1.641 4.522 1.772 3870
-1.643 4.526 1.758 5696
-1.639 4.517 1.739 6751
-1.643 4.528 1.727 5008
-1.691 4.660 1.758 4392
-1.695 4.671 1.746 5120
-1.699 4.683 1.734 3747
-1.729 4.765 1.747 2730
-1.772 4.883 1.770 2293
-1.781 4.908 1.762 2597
-1.783 4.913 1.747 2585
-1.777 4.896 1.725 2561
-1.812 4.993 1.740 2285
-1.840 5.068 1.748 2911
-1.836 5.059 1.727 3446
-1.835 5.056 1.710 3845
-1.839 5.067 1.696 3542
-1.921 5.293 1.749 3488
-1.915 5.276 1.726 5252
-1.919 5.288 1.712 7005
-1.921 5.292 1.696 6985
-1.922 5.296 1.679 5425
-2.049 5.645 1.763 3754
-2.050 5.649 1.746 4941
-2.055 5.661 1.730 5455
-2.056 5.665 1.713 4270
-2.058 5.670 1.695 4102
-2.062 5.681 1.680 4840
-2.066 5.692 1.664 3580
-2.212 6.094 1.753 2653
-2.253 6.206 1.763 3394
-2.249 6.196 1.740 3505
-2.261 6.230 1.728 3413
-2.268 6.248 1.713 2854
-2.288 6.303 1.706 2140
-2.358 6.496 1.733 1599
-2.417 6.660 1.752 1542
-2.416 6.657 1.730 1442
-2.481 6.836 1.751 1162
-2.501 6.891 1.742 1309
-2.608 7.186 1.788 1718
-2.615 7.205 1.769 2336
-2.617 7.210 1.747 1938
-2.616 7.207 1.723 1194
-2.620 7.219 1.702 1966
-2.624 7.230 1.681 3052
-2.628 7.242 1.661 3109
-2.630 7.246 1.638 1997
-2.955 8.141 1.799 1885
-2.956 8.146 1.774 2017
-2.961 8.158 1.750 1463
-3.169 8.733 1.836 1132
-3.139 8.650 1.792 991
-3.138 8.647 1.764 726
-3.217 8.864 1.777 649
-3.219 8.868 1.750 490
-3.220 8.873 1.722 307
-0.795 2.210 1.806 3397
-0.799 2.220 1.804 7044
-0.802 2.231 1.802 7695
-0.804 2.235 1.795 6752
-0.801 2.228 1.779 6081
-0.809 2.251 1.786 6306
-0.813 2.261 1.784 7129
-0.815 2.266 1.777 7129
-0.830 2.307 1.797 7444
-0.831 2.311 1.790 9633
-0.837 2.328 1.792 9055
-0.846 2.351 1.798 10409
-0.850 2.362 1.795 8943
-0.869 2.416 1.823 8466
-0.871 2.421 1.816 8466
-0.848 2.357 1.761 9762
-0.849 2.361 1.754 11538
-0.853 2.372 1.751 11199
-0.857 2.383 1.748 11326
-0.863 2.400 1.749 8586
-0.876 2.435 1.763 8195
-0.916 2.547 1.828 7009
-0.918 2.551 1.820 8863
-0.919 2.556 1.813 7546
-0.921 2.561 1.805 6229
-0.925 2.571 1.801 6038
-0.926 2.576 1.793 5854
-0.930 2.587 1.790 7516
-0.932 2.591 1.782 9323
-0.936 2.602 1.778 7983
-0.942 2.620 1.778 7263
-0.946 2.630 1.774 7073
-0.948 2.635 1.766 6901
-0.954 2.652 1.766 4891
-0.974 2.708 1.790 4115
-0.992 2.758 1.810 5004
-0.998 2.775 1.809 7123
-0.997 2.773 1.797 8237
-1.001 2.784 1.792 7903
-1.017 2.828 1.807 8388
-1.019 2.832 1.799 7543
-1.023 2.843 1.794 6801
-1.027 2.854 1.789 5743
-1.033 2.872 1.788 6648
-1.037 2.883 1.783 8419
-1.036 2.881 1.771 7468
-1.080 3.004 1.829 6827
-1.082 3.008 1.820 8177
-1.086 3.019 1.815 9540
-1.088 3.024 1.805 9325
-1.092 3.035 1.800 7704
-1.093 3.040 1.791 6131
-1.083 3.011 1.763 6785
-1.085 3.016 1.754 6360
-1.089 3.027 1.748 5097
-1.109 3.084 1.768 6410
-1.104 3.069 1.748 7140
-1.134 3.153 1.781 6789
-1.138 3.164 1.775 6579
-1.149 3.196 1.779 7091
-1.175 3.267 1.804 7031
-1.184 3.292 1.804 10300
-1.185 3.296 1.794 11467
-1.190 3.307 1.787 10245
-1.191 3.312 1.777 7736
-1.195 3.323 1.770 8947
-1.204 3.348 1.770 9066
-1.194 3.319 1.744 8104
-1.198 3.330 1.737 6462
-1.243 3.456 1.786 5112
-1.240 3.447 1.768 5989
-1.232 3.424 1.745 6298
-1.236 3.436 1.738 5544
-1.308 3.638 1.820 5527
-1.310 3.642 1.809 7114
-1.312 3.647 1.798 8607
-1.313 3.651 1.786 7169
-1.315 3.656 1.775 7317
-1.316 3.660 1.764 9721
-1.318 3.665 1.753 8926
-1.325 3.683 1.748 6957
-1.403 3.901 1.830 7369
-1.353 3.761 1.755 5797
-1.416 3.938 1.818 4191
-1.413 3.928 1.800 5811
-1.410 3.919 1.782 7071
-1.411 3.924 1.770 8288
-1.415 3.935 1.761 7954
-1.467 4.078 1.807 4373
-1.473 4.097 1.800 4791
-1.473 4.094 1.784 5122
-1.474 4.099 1.772 4800
-1.493 4.152 1.779 4587
-1.497 4.164 1.769 4992
-1.499 4.168 1.756 3643
-1.493 4.151 1.735 2761
-1.580 4.394 1.814 3377
-1.577 4.384 1.795 6621
-1.568 4.361 1.771 8403
-1.570 4.365 1.758 8756
-1.572 4.370 1.744 6567
-1.611 4.480 1.770 4651
-1.628 4.527 1.772 3850
-1.630 4.531 1.758 5687
-1.626 4.521 1.739 6732
-1.630 4.533 1.727 4985
-1.678 4.664 1.758 4418
-1.682 4.676 1.746 5137
-1.686 4.687 1.734 3748
-1.715 4.770 1.747 2742
-1.758 4.888 1.770 2324
-1.767 4.914 1.762 2601
-1.769 4.918 1.747 2550
-1.765 4.908 1.728 2549
-1.833 5.098 1.772 2380
-1.825 5.074 1.748 2920
-1.821 5.064 1.727 3346
-1.820 5.061 1.710 3825
-1.824 5.073 1.696 3656
-1.908 5.306 1.751 3318
-1.902 5.289 1.728 6750
-1.906 5.300 1.714 8681
-1.908 5.305 1.698 8792
-1.909 5.309 1.681 6910
-2.032 5.651 1.763 3760
-2.034 5.655 1.746 4885
-1.914 5.321 1.632 5586
-1.915 5.325 1.616 5532
-2.041 5.675 1.695 4154
-2.045 5.687 1.680 4804
-2.049 5.698 1.664 3546
-2.194 6.100 1.753 2667
-2.234 6.213 1.763 3347
-2.231 6.203 1.740 3442
-2.243 6.236 1.728 3437
-2.250 6.255 1.713 2886
-2.269 6.310 1.706 2130
-2.339 6.503 1.733 1590
-2.398 6.667 1.752 1578
-2.397 6.664 1.730 1467
-2.458 6.836 1.749 1301
-2.455 6.826 1.725 1274
-2.587 7.194 1.788 1749
-2.594 7.213 1.769 2404
-2.596 7.217 1.747 1964
-2.595 7.214 1.723 1172
-2.599 7.226 1.702 1926
-2.603 7.238 1.681 3007
-2.607 7.249 1.661 3107
-2.609 7.253 1.638 2010
-2.931 8.150 1.799 1901
-2.935 8.162 1.775 2051
-2.937 8.166 1.750 1514
-3.144 8.742 1.836 1215
-3.117 8.666 1.794 953
-3.113 8.656 1.764 716
-3.191 8.873 1.777 604
-3.193 8.878 1.750 491
-3.194 8.882 1.722 323
-0.790 2.211 1.806 3434
-0.794 2.222 1.804 7149
-0.798 2.232 1.802 7851
-0.799 2.237 1.795 6861
-0.797 2.229 1.779 6035
-0.805 2.252 1.786 6300
-0.809 2.263 1.784 7048
-0.810 2.267 1.777 7048
-0.825 2.309 1.797 7541
-0.827 2.313 1.790 9871
-0.833 2.330 1.792 9329
-0.841 2.353 1.798 10616
-0.842 2.358 1.791 9104
-0.864 2.418 1.823 8622
-0.866 2.422 1.816 8622
-0.843 2.359 1.761 9836
-0.844 2.363 1.754 11620
-0.848 2.374 1.751 11195
-0.850 2.378 1.744 11095
-0.856 2.395 1.745 8241
-0.871 2.437 1.763 7703
-0.911 2.549 1.828 7105
-0.912 2.553 1.820 8932
-0.914 2.558 1.813 7583
-0.916 2.562 1.805 6234
-0.917 2.567 1.797 5956
-0.919 2.571 1.789 5679
-0.923 2.582 1.786 7169
-0.927 2.593 1.782 8906
-0.931 2.604 1.778 7602
-0.939 2.628 1.782 6845
-0.941 2.632 1.774 6815
-0.942 2.637 1.766 6785
-0.948 2.654 1.766 4799
-0.968 2.710 1.790 4135
-0.986 2.760 1.810 5083
-0.992 2.777 1.809 7165
-0.992 2.775 1.797 8251
-0.996 2.786 1.792 7854
-1.011 2.830 1.807 8119
-1.013 2.834 1.799 7263
-1.017 2.845 1.794 6514
-1.021 2.857 1.789 5539
-1.027 2.874 1.788 6438
-1.031 2.885 1.783 8175
-1.030 2.883 1.771 7169
-1.074 3.006 1.829 7246
-1.076 3.010 1.820 8752
-1.080 3.022 1.815 9920
-1.081 3.026 1.805 9427
-1.085 3.037 1.800 7743
-1.087 3.042 1.791 6085
-1.077 3.013 1.763 6487
-1.078 3.018 1.754 5954
-1.099 3.075 1.774 5294
-1.108 3.100 1.775 6395
-1.121 3.138 1.783 6925
-1.128 3.155 1.781 7026
-1.132 3.167 1.775 6680
-1.143 3.198 1.779 7025
-1.164 3.256 1.797 6731
-1.175 3.287 1.801 9722
-1.179 3.299 1.794 11053
-1.183 3.310 1.787 10061
-1.184 3.314 1.777 7763
-1.186 3.319 1.767 9008
-1.185 3.317 1.754 8841
-1.187 3.321 1.744 8075
-1.188 3.325 1.733 6488
-1.234 3.452 1.782 4732
-1.223 3.422 1.755 5879
-1.225 3.427 1.745 6123
-1.231 3.445 1.741 4820
-1.301 3.640 1.820 5634
-1.303 3.645 1.809 7278
-1.304 3.649 1.798 8738
-1.306 3.654 1.786 7160
-1.305 3.652 1.772 7316
-1.309 3.663 1.764 9716
-1.311 3.667 1.753 8926
-1.317 3.686 1.748 6991
-1.393 3.897 1.827 7080
-1.342 3.757 1.752 6135
-1.351 3.782 1.750 3706
-1.402 3.924 1.797 5263
-1.404 3.929 1.785 6709
-1.403 3.926 1.770 7945
-1.410 3.945 1.764 7848
-1.414 3.956 1.755 4391
-1.465 4.100 1.800 4718
-1.464 4.097 1.784 4945
-1.466 4.102 1.772 4717
-1.485 4.155 1.779 4724
-1.489 4.167 1.769 5104
-1.488 4.164 1.753 3460
-1.480 4.141 1.730 2717
-1.554 4.348 1.795 3530
-1.568 4.388 1.795 6613
-1.560 4.364 1.771 8515
-1.561 4.369 1.758 9046
-1.563 4.373 1.744 6733
-1.600 4.476 1.767 4338
-1.619 4.530 1.772 3346
-1.618 4.527 1.755 5363
-1.617 4.525 1.739 6623
-1.621 4.536 1.727 4924
-1.668 4.668 1.758 4419
-1.672 4.679 1.746 5181
-1.676 4.691 1.734 3750
-1.706 4.773 1.747 2739
-1.745 4.884 1.768 2615
-1.755 4.910 1.760 2724
-1.756 4.915 1.745 2582
-1.753 4.905 1.725 2585
-1.787 5.002 1.740 2462
-1.786 4.999 1.722 2826
-1.806 5.053 1.723 3145
-1.810 5.065 1.710 3442
-1.817 5.083 1.699 3243
-1.895 5.303 1.749 3808
-1.896 5.307 1.733 6184
-1.898 5.311 1.716 8645
-1.900 5.316 1.700 7773
-1.901 5.320 1.684 7392
-1.903 5.324 1.667 9036
-1.901 5.321 1.649 9409
-1.903 5.325 1.632 8450
-1.904 5.329 1.616 5705
-2.079 5.817 1.733 4118
-2.034 5.691 1.680 4803
-2.038 5.703 1.664 3793
-2.181 6.104 1.753 2718
-2.222 6.217 1.763 3075
-2.221 6.215 1.742 3409
-2.225 6.226 1.724 3251
-2.234 6.252 1.711 2483
-2.259 6.322 1.708 2375
-2.326 6.508 1.733 1651
-2.384 6.672 1.752 1864
-2.383 6.669 1.730 1659
-2.465 6.899 1.763 1146
-2.449 6.852 1.730 1385
-2.573 7.199 1.788 1618
-2.585 7.233 1.772 2521
-2.584 7.230 1.748 2070
-2.580 7.220 1.723 1280
-2.584 7.231 1.702 2145
-2.588 7.243 1.681 3078
-2.590 7.247 1.659 3025
-2.594 7.259 1.638 1996
-2.914 8.156 1.799 2083
-2.916 8.160 1.774 2195
-2.920 8.172 1.750 1608
-3.126 8.748 1.836 1369
-3.096 8.665 1.792 966
-3.093 8.655 1.763 801
-3.173 8.880 1.777 556
-3.175 8.884 1.750 491
-3.176 8.888 1.722 331
-3.133 8.768 1.673 301
-0.340 0.951 0.227 259
-0.340 0.951 0.224 271
-0.340 0.951 0.221 257
-0.786 2.213 1.806 3394
-0.792 2.229 1.808 7147
-0.796 2.240 1.806 7920
-0.795 2.239 1.795 6914
-0.794 2.237 1.784 5924
-0.800 2.254 1.786 6199
-0.804 2.264 1.784 6805
-0.806 2.269 1.777 6805
-0.820 2.310 1.797 7649
-0.824 2.321 1.794 10244
-0.828 2.332 1.792 9658
-0.836 2.355 1.798 10685
-0.838 2.359 1.791 9175
-0.859 2.420 1.823 8616
-0.861 2.424 1.816 8616
-0.838 2.360 1.761 9892
-0.842 2.371 1.758 11800
-0.844 2.375 1.751 11199
-0.845 2.380 1.744 10722
-0.849 2.391 1.741 7762
-0.871 2.451 1.772 6723
-0.906 2.550 1.828 7064
-0.907 2.555 1.820 8759
-0.909 2.560 1.813 7379
-0.911 2.564 1.805 5999
-0.912 2.569 1.797 5652
-0.912 2.567 1.785 5338
-0.918 2.584 1.786 6515
-0.922 2.595 1.782 8086
-0.925 2.606 1.778 6974
-0.934 2.630 1.782 6407
-0.935 2.634 1.774 6548
-0.937 2.639 1.766 6688
-0.934 2.630 1.750 4826
-0.963 2.712 1.790 4259
-0.981 2.762 1.810 5223
-0.985 2.773 1.805 7255
-0.986 2.777 1.797 8221
-0.990 2.788 1.792 7623
-1.003 2.825 1.803 7395
-1.007 2.836 1.799 6566
-1.011 2.847 1.794 5864
-1.015 2.859 1.789 5108
-1.024 2.883 1.792 5984
-1.025 2.887 1.783 7552
-1.025 2.885 1.771 6434
-1.068 3.008 1.829 7735
-1.070 3.012 1.820 9476
-1.074 3.024 1.815 10347
-1.078 3.035 1.809 9504
-1.079 3.039 1.800 7802
-1.081 3.044 1.791 6101
-1.071 3.015 1.763 5903
-1.072 3.020 1.754 5235
-1.093 3.077 1.774 5471
-1.104 3.109 1.778 6234
-1.113 3.133 1.780 6974
-1.119 3.151 1.777 7103
-1.123 3.162 1.771 6682
-1.139 3.207 1.782 6787
-1.148 3.231 1.783 7051
-1.166 3.283 1.797 8893
-1.172 3.301 1.794 10336
-1.174 3.305 1.784 10102
-1.175 3.310 1.774 8268
-1.177 3.314 1.764 9627
-1.167 3.285 1.737 9469
-1.178 3.317 1.740 8056
-1.182 3.328 1.733 6539
-1.186 3.339 1.726 4809
-1.211 3.411 1.749 5948
-1.218 3.429 1.745 6329
-1.224 3.447 1.741 4767
-1.294 3.643 1.820 5591
-1.295 3.647 1.809 7336
-1.297 3.652 1.798 8734
-1.296 3.650 1.783 6956
-1.298 3.654 1.772 7005
-1.302 3.666 1.764 9226
-1.303 3.670 1.753 8503
-1.310 3.688 1.748 6715
-1.333 3.755 1.764 6509
-1.337 3.766 1.755 6670
-1.341 3.777 1.747 4553
-1.397 3.934 1.800 4466
-1.399 3.939 1.788 6104
-1.400 3.943 1.776 7308
-1.402 3.948 1.764 7625
-1.408 3.966 1.758 4598
-1.457 4.103 1.800 4328
-1.456 4.100 1.784 4628
-1.460 4.112 1.775 4641
-1.477 4.158 1.779 4895
-1.483 4.177 1.772 5218
-1.475 4.153 1.748 3213
-1.541 4.340 1.806 3051
-1.543 4.344 1.793 4058
-1.559 4.391 1.795 6047
-1.551 4.367 1.771 8121
-1.550 4.365 1.755 9104
-1.552 4.369 1.742 6717
-1.591 4.479 1.767 3757
-1.567 4.413 1.728 3159
-1.609 4.530 1.755 4565
-1.605 4.521 1.736 6073
-1.612 4.539 1.727 4641
-1.659 4.671 1.758 4276
-1.663 4.683 1.746 4946
-1.667 4.694 1.734 3575
-1.696 4.777 1.747 2686
-1.736 4.888 1.768 2852
-1.742 4.906 1.758 2768
-1.744 4.911 1.743 2388
-1.728 4.865 1.711 2818
-1.780 5.012 1.742 2692
-1.779 5.010 1.725 3234
-1.788 5.035 1.716 3016
-1.797 5.061 1.707 2780
-1.812 5.101 1.703 2669
-1.892 5.328 1.755 2262
-1.886 5.311 1.733 3765
-1.888 5.315 1.716 4618
-1.889 5.319 1.700 5236
-1.891 5.324 1.684 7022
-1.890 5.321 1.665 7629
-1.891 5.325 1.649 6942
-1.893 5.329 1.632 5496
-2.060 5.802 1.747 4725
-2.065 5.814 1.731 4600
-2.064 5.811 1.712 4580
-2.027 5.707 1.664 3645
-2.169 6.109 1.753 2620
-2.168 6.106 1.732 3368
-2.209 6.219 1.742 2989
-2.210 6.223 1.723 2814
-2.217 6.242 1.707 2075
-2.247 6.326 1.708 2566
-2.302 6.483 1.726 1779
-2.371 6.677 1.752 2108
-2.367 6.666 1.728 1747
-2.341 6.591 1.689 1249
-2.435 6.857 1.730 1549
-2.564 7.219 1.791 1382
-2.573 7.245 1.774 2549
-2.572 7.242 1.750 2151
-2.563 7.218 1.721 1473
-2.570 7.236 1.702 2249
-2.574 7.248 1.681 2823
-2.576 7.252 1.659 2626
-2.899 8.164 1.825 1833
-2.898 8.162 1.799 2195
-2.900 8.166 1.774 2199
-2.904 8.178 1.750 1705
-3.109 8.755 1.836 1375
-3.124 8.796 1.816 1146
-3.071 8.646 1.760 925
-3.067 8.636 1.731 614
-3.157 8.890 1.750 420
-3.120 8.784 1.703 392
-3.119 8.781 1.674 280
-0.338 0.951 0.235 253
-0.338 0.951 0.232 271
-0.335 0.944 0.229 288
-0.338 0.951 0.227 318
-0.338 0.952 0.224 317
-0.338 0.952 0.221 302
-0.338 0.952 0.218 255
-0.782 2.214 1.806 3228
-0.788 2.231 1.808 6863
-0.791 2.242 1.806 7798
-0.793 2.246 1.800 6764
-0.793 2.245 1.788 5755
-0.798 2.261 1.791 5952
-0.802 2.272 1.788 6389
-0.804 2.276 1.781 6389
-0.818 2.318 1.801 7766
-0.820 2.322 1.794 10498
-0.824 2.333 1.792 9836
-0.832 2.356 1.798 10535
-0.834 2.361 1.791 9116
-0.855 2.421 1.823 8276
-0.857 2.426 1.816 8276
-0.836 2.368 1.765 9993
-0.838 2.373 1.758 12202
-0.839 2.377 1.751 11332
-0.841 2.381 1.744 10495
-0.845 2.392 1.741 7509
-0.868 2.459 1.776 5997
-0.901 2.552 1.828 6831
-0.903 2.557 1.820 8302
-0.904 2.561 1.813 6914
-0.906 2.566 1.805 5526
-0.908 2.570 1.797 5120
-0.905 2.562 1.781 4911
-0.913 2.586 1.786 5689
-0.919 2.603 1.786 7194
-0.923 2.614 1.782 6477
-0.929 2.631 1.782 6096
-0.931 2.636 1.774 6271
-0.930 2.634 1.762 6505
-0.927 2.626 1.746 4758
-0.956 2.707 1.786 4581
-0.973 2.757 1.806 5312
-0.980 2.774 1.805 7242
-0.981 2.779 1.797 8034
-0.985 2.790 1.792 7151
-0.998 2.827 1.803 6261
-1.002 2.838 1.799 5501
-1.006 2.849 1.794 4902
-1.010 2.860 1.789 4550
-1.019 2.884 1.792 5328
-1.022 2.896 1.787 6541
-1.059 2.999 1.835 6069
-1.060 3.003 1.826 7970
-1.064 3.014 1.820 9806
-1.068 3.026 1.815 10261
-1.072 3.037 1.809 9090
-1.074 3.041 1.800 7485
-1.076 3.046 1.791 5881
-1.077 3.050 1.781 4973
-1.081 3.062 1.776 4393
-1.090 3.086 1.777 5431
-1.101 3.117 1.782 6128
-1.107 3.135 1.780 7188
-1.113 3.153 1.777 7385
-1.115 3.157 1.768 7204
-1.112 3.149 1.751 7366
-1.113 3.153 1.741 7812
-1.146 3.245 1.777 8269
-1.164 3.296 1.791 8876
-1.166 3.301 1.781 9857
-1.160 3.285 1.760 9890
-1.166 3.303 1.757 10609
-1.163 3.294 1.740 10227
-1.169 3.312 1.737 8275
-1.173 3.323 1.730 6586
-1.180 3.341 1.726 4879
-1.205 3.413 1.749 6668
-1.212 3.431 1.745 7180
-1.218 3.450 1.741 5379
-1.287 3.645 1.820 5114
-1.289 3.650 1.809 6858
-1.288 3.648 1.794 8236
-1.290 3.652 1.783 6291
-1.291 3.657 1.772 6124
-1.295 3.668 1.764 8040
-1.297 3.672 1.753 7546
-1.301 3.684 1.745 6157
-1.329 3.764 1.767 6085
-1.331 3.768 1.755 7075
-1.335 3.780 1.747 5516
-1.336 3.784 1.735 4485
-1.394 3.948 1.791 5812
-1.396 3.953 1.779 6652
-1.397 3.957 1.767 6967
-1.404 3.975 1.761 4564
-1.450 4.105 1.800 3839
-1.449 4.103 1.784 4388
-1.450 4.107 1.772 4502
-1.472 4.168 1.782 4824
-1.476 4.179 1.772 5068
-1.462 4.142 1.742 3122
-1.533 4.342 1.806 3518
-1.535 4.347 1.793 4559
-1.537 4.351 1.779 5204
-1.541 4.363 1.769 7857
-1.542 4.367 1.755 8964
-1.544 4.372 1.742 6217
-1.545 4.376 1.728 3162
-1.559 4.416 1.728 3325
-1.598 4.526 1.753 3607
-1.597 4.524 1.736 4915
-1.604 4.542 1.727 3883
-1.650 4.674 1.758 3837
-1.655 4.686 1.746 4271
-1.659 4.697 1.734 3243
-1.660 4.702 1.720 2899
-1.662 4.706 1.706 3345
-1.731 4.902 1.755 2612
-1.710 4.843 1.719 2441
-1.722 4.876 1.714 2983
-1.771 5.016 1.742 2886
-1.770 5.013 1.725 3678
-1.772 5.017 1.709 3359
-1.806 5.115 1.723 2118
-1.810 5.126 1.710 2266
-1.812 5.130 1.694 2631
-1.813 5.135 1.678 2580
-1.858 5.261 1.699 2710
-1.854 5.251 1.679 3451
-2.000 5.665 1.783 2892
-1.999 5.663 1.763 3697
-1.986 5.624 1.733 4444
-2.046 5.794 1.763 5153
-2.050 5.806 1.747 4713
-2.052 5.810 1.729 4777
-2.051 5.807 1.710 4940
-2.050 5.804 1.690 3129
-2.015 5.707 1.645 2347
-2.104 5.958 1.692 3324
-2.164 6.129 1.717 2420
-2.199 6.227 1.723 2091
-2.170 6.144 1.681 1996
-2.235 6.330 1.708 2486
-2.288 6.480 1.724 2041
-2.356 6.674 1.750 2287
-2.355 6.671 1.728 1737
-2.326 6.588 1.687 1673
-2.423 6.862 1.730 1695
-2.422 6.859 1.707 1325
-2.560 7.250 1.774 2324
-2.559 7.247 1.750 2007
-2.545 7.208 1.718 1538
-2.557 7.241 1.702 2023
-2.561 7.253 1.681 2200
-2.565 7.264 1.661 2007
-2.724 7.715 1.731 1936
-2.884 8.167 1.799 2045
-2.885 8.171 1.774 2066
-2.889 8.183 1.750 1692
-3.098 8.775 1.839 1479
-3.108 8.802 1.816 1373
-3.112 8.813 1.791 1121
-3.051 8.641 1.731 804
-3.120 8.837 1.739 585
-3.109 8.805 1.705 394
-3.139 8.890 1.692 256
-0.336 0.951 0.235 277
-0.336 0.951 0.232 327
-0.333 0.944 0.229 345
-0.336 0.952 0.227 361
-0.336 0.952 0.224 366
-0.336 0.952 0.221 346
-0.336 0.953 0.218 288
-0.776 2.216 1.806 3016
-0.782 2.233 1.808 6420
-0.786 2.243 1.806 7483
-0.787 2.248 1.800 6477
-0.789 2.253 1.793 5471
-0.793 2.263 1.791 5565
-0.797 2.274 1.788 5869
-0.798 2.278 1.781 5869
-0.813 2.320 1.801 7810
-0.814 2.324 1.794 10512
-0.818 2.335 1.792 9793
-0.824 2.352 1.794 10181
-0.825 2.357 1.787 8968
-0.825 2.355 1.775 7901
-0.826 2.359 1.768 7985
-0.832 2.376 1.769 10077
-0.832 2.375 1.758 12413
-0.833 2.379 1.751 11356
-0.835 2.384 1.744 10270
-0.839 2.394 1.741 7308
-0.864 2.468 1.780 5523
-0.895 2.554 1.828 6520
-0.896 2.559 1.820 7782
-0.898 2.563 1.813 6415
-0.900 2.568 1.805 5048
-0.899 2.566 1.793 4657
-0.894 2.552 1.773 4561
-0.907 2.588 1.786 5082
-0.913 2.605 1.786 6695
-0.916 2.616 1.782 6202
-0.923 2.634 1.782 5977
-0.924 2.638 1.774 6053
-0.923 2.636 1.762 6197
-0.920 2.628 1.746 4555
-0.949 2.710 1.786 4899
-0.953 2.721 1.782 5495
-0.973 2.777 1.805 7106
-0.974 2.782 1.797 7760
-0.976 2.786 1.789 6694
-0.991 2.830 1.803 5245
-0.997 2.847 1.803 4606
-1.013 2.891 1.817 4799
-1.014 2.896 1.808 4409
-1.011 2.887 1.792 4870
-1.015 2.898 1.787 5849
-1.051 3.001 1.835 5847
-1.053 3.006 1.826 8069
-1.057 3.017 1.820 9787
-1.061 3.028 1.815 9852
-1.065 3.039 1.809 8478
-1.066 3.044 1.800 7070
-1.068 3.049 1.791 5662
-1.069 3.053 1.781 4529
-1.085 3.098 1.794 4221
-1.082 3.089 1.777 5032
-1.093 3.120 1.782 5726
-1.099 3.138 1.780 6754
-1.105 3.156 1.777 6974
-1.105 3.154 1.764 7188
-1.104 3.151 1.751 7922
-1.105 3.156 1.741 8508
-1.135 3.241 1.773 8999
-1.108 3.165 1.722 8363
-1.155 3.297 1.777 9855
-1.154 3.295 1.764 10878
-1.156 3.299 1.754 11198
-1.157 3.304 1.744 10441
-1.159 3.308 1.734 8276
-1.165 3.326 1.730 6301
-1.164 3.324 1.717 4583
-1.197 3.416 1.749 7270
-1.203 3.435 1.745 7929
-1.207 3.446 1.738 5839
-1.206 3.443 1.724 5453
-1.208 3.448 1.713 7124
-1.209 3.452 1.703 7938
-1.211 3.456 1.692 6469
-1.282 3.660 1.772 5236
-1.286 3.671 1.764 6844
-1.287 3.676 1.753 6548
-1.289 3.680 1.742 5514
-1.320 3.767 1.767 5567
-1.321 3.772 1.755 6955
-1.325 3.783 1.747 5812
-1.327 3.788 1.735 4621
-1.387 3.958 1.794 5565
-1.388 3.963 1.782 6026
-1.390 3.968 1.770 6140
-1.396 3.986 1.763 4178
-1.439 4.109 1.800 3473
-1.436 4.099 1.782 4197
-1.440 4.111 1.772 4382
-1.461 4.171 1.782 4485
-1.470 4.197 1.777 4759
-1.450 4.138 1.740 2964
-1.513 4.318 1.795 3769
-1.522 4.344 1.790 4916
-1.523 4.348 1.777 5425
-1.527 4.360 1.766 7908
-1.529 4.364 1.753 8507
-1.530 4.369 1.739 5443
-1.534 4.380 1.728 2952
-1.548 4.420 1.728 3689
-1.552 4.431 1.717 3508
-1.583 4.521 1.734 3828
-1.597 4.560 1.732 3210
-1.636 4.671 1.756 3518
-1.640 4.683 1.744 3755
-1.647 4.701 1.734 3103
-1.646 4.699 1.718 3353
-1.647 4.703 1.703 3880
-1.716 4.900 1.753 2445
-1.695 4.840 1.717 2796
-1.712 4.887 1.716 2987
-1.713 4.891 1.701 3137
-1.757 5.017 1.725 3682
-1.759 5.022 1.709 3245
-1.798 5.133 1.728 2068
-1.800 5.138 1.712 2285
-1.801 5.142 1.696 2942
-1.803 5.146 1.680 2990
-1.862 5.316 1.714 3463
-1.864 5.320 1.698 4525
-1.870 5.339 1.686 6760
-1.872 5.343 1.669 8887
-1.871 5.340 1.651 7647
-1.872 5.344 1.635 5030
-2.035 5.811 1.747 4379
-2.037 5.815 1.729 4621
-2.036 5.812 1.710 4857
-2.035 5.809 1.690 3152
-2.102 6.002 1.722 2470
-2.089 5.963 1.692 3638
-2.146 6.127 1.715 2512
-2.214 6.320 1.745 2707
-2.154 6.150 1.681 2317
-2.219 6.336 1.708 2164
-2.269 6.479 1.723 2294
-2.340 6.679 1.750 2394
-2.308 6.589 1.707 2010
-2.312 6.601 1.689 1966
-2.406 6.868 1.730 1924
-2.405 6.865 1.707 1676
-2.542 7.256 1.774 2046
-2.543 7.261 1.751 1793
-2.524 7.207 1.716 1550
-2.528 7.218 1.696 1772
-2.535 7.237 1.677 1592
-2.703 7.718 1.755 1665
-2.705 7.722 1.731 1889
-2.866 8.181 1.800 1796
-2.865 8.178 1.774 1831
-2.871 8.198 1.751 1550
-3.079 8.790 1.841 1534
-3.086 8.809 1.816 1512
-3.087 8.814 1.789 1279
-3.027 8.642 1.729 852
-3.098 8.845 1.739 685
-3.033 8.658 1.678 440
-0.333 0.952 0.235 272
-0.334 0.952 0.232 328
-0.331 0.945 0.229 363
-0.334 0.953 0.227 375
-0.334 0.953 0.224 371
-0.334 0.953 0.221 343
-0.334 0.954 0.218 276
-0.771 2.218 1.806 2712
-0.779 2.241 1.813 5808
-0.782 2.251 1.811 7160
-0.784 2.256 1.804 6076
-0.784 2.255 1.793 5004
-0.789 2.271 1.795 4995
-0.806 2.319 1.820 5443
-0.807 2.323 1.813 5443
-0.809 2.328 1.806 8017
-0.809 2.326 1.794 10604
-0.814 2.343 1.796 9816
-0.818 2.354 1.794 9827
-0.820 2.359 1.787 9039
-0.819 2.357 1.775 8327
-0.821 2.361 1.768 8410
-0.827 2.378 1.769 10673
-0.826 2.377 1.758 13119
-0.828 2.381 1.751 11780
-0.831 2.392 1.748 10523
-0.833 2.396 1.741 7405
-0.858 2.470 1.780 5129
-0.888 2.556 1.828 6041
-0.890 2.561 1.820 7034
-0.892 2.566 1.813 5714
-0.893 2.570 1.805 4394
-0.884 2.543 1.776 4162
-0.885 2.548 1.768 4270
-0.909 2.616 1.802 4978
-0.911 2.620 1.794 6613
-0.915 2.631 1.790 6255
-0.918 2.642 1.786 6252
-0.918 2.640 1.774 5906
-0.917 2.638 1.762 5772
-0.914 2.630 1.746 4333
-0.943 2.712 1.786 5584
-0.946 2.723 1.782 6122
-0.966 2.779 1.805 6872
-0.968 2.784 1.797 7381
-0.969 2.788 1.789 6170
-0.971 2.793 1.780 4452
-1.004 2.889 1.826 4869
-1.006 2.893 1.817 5352
-1.007 2.898 1.808 4700
-1.009 2.903 1.799 4558
-1.010 2.907 1.791 5188
-1.044 3.004 1.835 5373
-1.046 3.008 1.826 7821
-1.047 3.013 1.816 9315
-1.053 3.031 1.815 9019
-1.057 3.042 1.809 7608
-1.059 3.047 1.800 6594
-1.060 3.051 1.791 5580
-1.062 3.056 1.781 4259
-1.077 3.100 1.794 3955
-1.077 3.098 1.781 4481
-1.085 3.123 1.782 5196
-1.089 3.134 1.776 6292
-1.095 3.152 1.774 6400
-1.097 3.156 1.764 7250
-1.096 3.154 1.751 8639
-1.123 3.232 1.779 9602
-1.127 3.244 1.773 10288
-1.101 3.167 1.722 8248
-1.145 3.293 1.774 9635
-1.146 3.298 1.764 11644
-1.148 3.302 1.754 11543
-1.149 3.306 1.744 10613
-1.151 3.311 1.734 8300
-1.157 3.329 1.730 5845
-1.154 3.320 1.713 4388
-1.191 3.426 1.752 7576
-1.195 3.437 1.745 8407
-1.199 3.449 1.738 6257
-1.198 3.446 1.724 6099
-1.199 3.451 1.713 8058
-1.198 3.448 1.700 9191
-1.200 3.452 1.689 7907
-1.307 3.759 1.816 4945
-1.277 3.674 1.764 5387
-1.279 3.679 1.753 5413
-1.280 3.683 1.742 4879
-1.310 3.771 1.767 5017
-1.314 3.782 1.758 6569
-1.316 3.786 1.747 5806
-1.315 3.784 1.732 4463
-1.377 3.962 1.794 5162
-1.379 3.966 1.782 5262
-1.382 3.978 1.773 5140
-1.386 3.989 1.763 3458
-1.427 4.105 1.797 2977
-1.426 4.103 1.782 4108
-1.428 4.107 1.769 4468
-1.453 4.182 1.784 4114
-1.460 4.200 1.777 4496
-1.461 4.205 1.764 2954
-1.500 4.315 1.792 4049
-1.508 4.340 1.787 5214
-1.513 4.352 1.777 5829
-1.514 4.356 1.763 8105
-1.518 4.368 1.753 8110
-1.520 4.372 1.739 4860
-1.526 4.391 1.731 3181
-1.537 4.424 1.728 4033
-1.541 4.435 1.717 3666
-1.570 4.517 1.731 2760
-1.589 4.571 1.735 2787
-1.622 4.668 1.753 3289
-1.626 4.680 1.741 3210
-1.663 4.784 1.761 3093
-1.632 4.695 1.715 4030
-1.636 4.707 1.703 4548
-1.667 4.797 1.717 3017
-1.681 4.837 1.714 3277
-1.702 4.898 1.718 3157
-1.704 4.903 1.703 3471
-1.748 5.029 1.727 3542
-1.744 5.019 1.707 2961
-1.783 5.131 1.725 1884
-1.790 5.149 1.714 2312
-1.794 5.161 1.701 3439
-1.848 5.316 1.730 4226
-1.852 5.328 1.716 6026
-1.853 5.332 1.700 6642
-1.857 5.343 1.686 4955
-1.941 5.586 1.738 2879
-1.953 5.619 1.729 3881
-1.959 5.638 1.716 4727
-1.968 5.664 1.705 4255
-2.023 5.820 1.729 3900
-2.022 5.817 1.710 4319
-2.091 6.017 1.744 3615
-2.088 6.007 1.722 3312
-2.077 5.975 1.694 3627
-2.197 6.321 1.764 2808
-2.198 6.325 1.745 3761
-2.197 6.322 1.724 2614
-2.138 6.152 1.661 2401
-2.251 6.477 1.721 2654
-2.250 6.474 1.699 3020
-2.292 6.595 1.707 2334
-2.296 6.606 1.689 2228
-2.389 6.873 1.730 1563
-2.388 6.871 1.707 1549
-2.524 7.262 1.774 1675
-2.528 7.274 1.753 1516
-2.504 7.205 1.715 1661
-2.506 7.210 1.692 1801
-2.510 7.221 1.672 1357
-2.715 7.812 1.773 1562
-2.714 7.809 1.748 1876
-2.698 7.762 1.713 1719
-2.850 8.200 1.777 1486
-3.051 8.778 1.865 1311
-3.058 8.797 1.841 1648
-3.064 8.817 1.816 1720
-3.066 8.821 1.789 1474
-3.070 8.833 1.763 1000
-3.077 8.852 1.739 840
-3.009 8.658 1.676 513
-3.008 8.655 1.648 285
-0.331 0.953 0.232 310
-0.331 0.953 0.230 364
-0.331 0.954 0.227 366
-0.332 0.954 0.224 342
-0.332 0.954 0.221 306
-0.766 2.220 1.806 2309
-0.774 2.242 1.813 5143
-0.778 2.253 1.811 6609
-0.779 2.258 1.804 5438
-0.781 2.262 1.797 4267
-0.797 2.310 1.822 4501
-0.801 2.320 1.820 5539
-0.803 2.325 1.813 5539
-0.804 2.330 1.806 7868
-0.806 2.334 1.799 10197
-0.810 2.345 1.796 9312
-0.813 2.356 1.794 9014
-0.815 2.360 1.787 8808
-0.814 2.359 1.775 8626
-0.816 2.363 1.768 8704
-0.822 2.380 1.769 11070
-0.821 2.378 1.758 13610
-0.823 2.383 1.751 12085
-0.826 2.393 1.748 10808
-0.828 2.398 1.741 7489
-0.853 2.472 1.780 4856
-0.883 2.558 1.828 5226
-0.885 2.563 1.820 5957
-0.886 2.567 1.813 4784
-0.875 2.534 1.780 3654
-0.876 2.539 1.772 3844
-0.880 2.549 1.768 4052
-0.906 2.624 1.806 5023
-0.905 2.622 1.794 6576
-0.909 2.633 1.790 6245
-0.913 2.644 1.786 6354
-0.915 2.649 1.778 5690
-0.914 2.647 1.766 5148
-0.935 2.709 1.794 4510
-0.937 2.714 1.786 6248
-0.941 2.725 1.782 6686
-0.960 2.781 1.805 6384
-0.962 2.786 1.797 6768
-0.963 2.790 1.789 5537
-0.999 2.893 1.839 4218
-0.998 2.891 1.826 4893
-1.000 2.895 1.817 5632
-0.999 2.894 1.804 5001
-0.994 2.878 1.784 4538
-1.009 2.922 1.798 4813
-1.036 2.999 1.831 4709
-1.039 3.011 1.826 6977
-1.041 3.015 1.816 8212
-1.045 3.026 1.811 7780
-1.053 3.051 1.813 6407
-1.053 3.049 1.800 5770
-1.052 3.047 1.787 5214
-1.058 3.065 1.785 3855
-1.044 3.023 1.750 3739
-1.045 3.027 1.741 4607
-1.049 3.038 1.736 4911
-1.080 3.129 1.773 5938
-1.084 3.141 1.767 6405
-1.088 3.152 1.760 7586
-1.090 3.156 1.751 9341
-1.117 3.235 1.779 10158
-1.121 3.246 1.773 10921
-1.125 3.257 1.767 8314
-1.138 3.295 1.774 9001
-1.139 3.300 1.764 11510
-1.143 3.311 1.757 11307
-1.142 3.309 1.744 10582
-1.146 3.320 1.737 8501
-1.148 3.324 1.727 5788
-1.147 3.322 1.713 4346
-1.184 3.429 1.752 7111
-1.188 3.440 1.745 7885
-1.189 3.444 1.734 6310
-1.188 3.442 1.721 6764
-1.190 3.446 1.710 8949
-1.191 3.451 1.700 10206
-1.193 3.455 1.689 8890
-1.190 3.445 1.673 6227
-1.186 3.436 1.656 5773
-1.185 3.433 1.642 6244
-1.182 3.423 1.626 5007
-1.305 3.780 1.770 4481
-1.307 3.785 1.758 5788
-1.306 3.782 1.744 5244
-1.185 3.433 1.581 4938
-1.187 3.437 1.571 4721
-1.351 3.914 1.759 4560
-1.384 4.009 1.784 4300
-1.378 3.992 1.763 2737
-1.416 4.101 1.794 2560
-1.415 4.099 1.779 3938
-1.417 4.103 1.766 4594
-1.447 4.192 1.787 3751
-1.451 4.203 1.777 4136
-1.174 3.401 1.449 3275
-1.491 4.318 1.792 3855
-1.497 4.336 1.784 4980
-1.501 4.348 1.774 5720
-1.505 4.360 1.763 7924
-1.507 4.364 1.750 7525
-1.508 4.368 1.737 4672
-1.515 4.387 1.728 3631
-1.528 4.427 1.728 4179
-1.532 4.438 1.717 3691
-1.583 4.584 1.754 2505
-1.582 4.582 1.737 2776
-1.610 4.664 1.751 3240
-1.612 4.669 1.736 2967
-1.621 4.694 1.730 3067
-1.622 4.699 1.715 4612
-1.624 4.703 1.701 4915
-1.657 4.800 1.717 3530
-1.669 4.833 1.712 3594
-1.695 4.909 1.721 3305
-1.696 4.913 1.706 3541
-1.737 5.032 1.727 3158
-1.754 5.080 1.725 3188
-1.758 5.091 1.712 2445
-1.784 5.167 1.719 2216
-1.786 5.172 1.703 3554
-1.787 5.176 1.687 3817
-1.823 5.281 1.701 2798
-1.837 5.321 1.696 3378
-1.846 5.347 1.686 3215
-1.845 5.344 1.667 4207
-1.844 5.341 1.649 4329
-1.950 5.649 1.718 4462
-1.957 5.668 1.705 4817
-1.958 5.672 1.688 4551
-1.955 5.662 1.666 3613
-2.079 6.022 1.744 3495
-2.073 6.004 1.720 3604
-2.064 5.979 1.694 3309
-2.184 6.325 1.764 3144
-2.185 6.330 1.745 4294
-2.184 6.327 1.724 2736
-2.123 6.149 1.659 2439
-2.235 6.474 1.719 2862
-2.237 6.478 1.699 3477
-2.279 6.599 1.707 2363
-2.285 6.618 1.690 2292
-2.377 6.886 1.731 1634
-2.374 6.875 1.707 1550
-2.456 7.114 1.739 1579
-2.559 7.411 1.782 1400
-2.563 7.423 1.761 1696
-2.491 7.215 1.692 1650
-2.563 7.424 1.714 1342
-2.699 7.818 1.773 1473
-2.696 7.808 1.746 1928
-2.687 7.783 1.716 1912
-2.836 8.213 1.778 1227
-2.875 8.328 1.775 1228
-3.042 8.811 1.842 1556
-3.044 8.816 1.815 1751
-3.045 8.820 1.788 1536
-3.052 8.839 1.763 1046
-3.059 8.859 1.739 892
-3.032 8.782 1.697 510
-3.034 8.786 1.670 340
-0.329 0.954 0.230 298
-0.329 0.954 0.227 299
-0.330 0.955 0.224 274
-0.762 2.221 1.806 2040
-0.772 2.250 1.818 4820
-0.773 2.255 1.811 6221
-0.777 2.265 1.809 4889
-0.779 2.270 1.802 3561
-0.793 2.311 1.822 4336
-0.797 2.322 1.820 5608
-0.798 2.327 1.813 5608
-0.800 2.331 1.806 7687
-0.801 2.336 1.799 9767
-0.805 2.347 1.796 8781
-0.809 2.357 1.794 8184
-0.810 2.362 1.787 8692
-0.812 2.366 1.779 9200
-0.811 2.365 1.768 9238
-0.815 2.375 1.765 11661
-0.816 2.380 1.758 14210
-0.820 2.391 1.755 12487
-0.824 2.401 1.752 11140
-0.823 2.400 1.741 7648
-0.849 2.473 1.780 4619
-0.850 2.478 1.773 4882
-0.852 2.482 1.765 5145
-0.857 2.499 1.766 3966
-0.868 2.529 1.776 3336
-0.871 2.540 1.772 3646
-0.873 2.545 1.764 4008
-0.901 2.626 1.806 5112
-0.900 2.624 1.794 6597
-0.906 2.641 1.794 6350
-0.910 2.652 1.791 6578
-0.909 2.651 1.778 5508
-0.909 2.649 1.766 4548
-0.930 2.711 1.794 5370
-0.932 2.716 1.786 6979
-0.935 2.727 1.782 7285
-0.953 2.777 1.801 5915
-0.956 2.788 1.797 6139
-0.958 2.792 1.789 4952
-0.993 2.895 1.839 4063
-0.992 2.893 1.826 4918
-0.992 2.891 1.813 6001
-0.987 2.876 1.793 5832
-0.986 2.874 1.780 4982
-1.010 2.944 1.810 4792
-1.014 2.955 1.804 4819
-1.034 3.013 1.826 6097
-1.035 3.017 1.816 6964
-1.039 3.028 1.811 6500
-1.047 3.053 1.813 5448
-1.042 3.038 1.793 5169
-1.041 3.036 1.780 5214
-1.027 2.993 1.745 4627
-1.035 3.018 1.747 4197
-1.039 3.029 1.741 4964
-1.041 3.033 1.732 5259
-1.074 3.131 1.773 5815
-1.080 3.149 1.770 6933
-1.082 3.154 1.760 8119
-1.084 3.158 1.751 9721
-1.110 3.237 1.779 10486
-1.112 3.241 1.770 11152
-1.116 3.253 1.763 8301
-1.134 3.304 1.777 7495
-1.135 3.309 1.767 9982
-1.137 3.313 1.757 9718
-1.136 3.311 1.744 9410
-1.140 3.322 1.737 8124
-1.144 3.333 1.730 5330
-1.138 3.317 1.710 3755
-1.177 3.431 1.752 5961
-1.181 3.442 1.745 6771
-1.182 3.447 1.734 6193
-1.182 3.444 1.721 7584
-1.183 3.449 1.710 9771
-1.185 3.453 1.700 10804
-1.184 3.450 1.686 9397
-1.180 3.441 1.669 7488
-1.179 3.438 1.656 7270
-1.179 3.435 1.642 7696
-1.178 3.433 1.629 5764
-1.174 3.423 1.612 4258
-1.178 3.434 1.605 5071
-1.177 3.431 1.592 5968
-1.178 3.435 1.581 5449
-1.177 3.432 1.568 4989
-1.341 3.909 1.756 4945
-1.347 3.928 1.750 3911
-1.349 3.932 1.738 2574
-1.403 4.090 1.788 2502
-1.405 4.095 1.776 4132
-1.409 4.106 1.766 5192
-1.410 4.111 1.754 4453
-1.443 4.206 1.777 3948
-1.167 3.403 1.449 4036
-1.166 3.400 1.436 4391
-1.489 4.339 1.784 4343
