0.371 4.092 1.449 8563
0.371 4.096 1.438 4663
0.381 4.205 1.459 3948
0.382 4.209 1.447 4272
0.383 4.220 1.437 5064
0.385 4.247 1.432 3929
0.389 4.288 1.431 4309
0.393 4.337 1.432 5031
0.395 4.356 1.424 6821
0.395 4.360 1.412 5402
0.394 4.348 1.395 4624
0.395 4.352 1.382 3650
0.410 4.522 1.417 2465
0.421 4.640 1.436 3745
0.417 4.598 1.410 5728
0.417 4.602 1.397 6996
0.418 4.605 1.383 4344
0.426 4.700 1.395 3659
0.445 4.910 1.436 5666
0.443 4.883 1.414 6463
0.444 4.894 1.402 8181
0.446 4.913 1.391 8007
0.451 4.970 1.391 6782
0.450 4.966 1.374 5367
0.447 4.932 1.351 6569
0.448 4.943 1.338 4860
0.469 5.176 1.380 4369
0.474 5.226 1.376 5377
0.478 5.268 1.369 6006
0.480 5.294 1.359 6718
0.481 5.305 1.346 4066
0.497 5.478 1.369 4701
0.500 5.512 1.360 4424
0.501 5.524 1.346 6166
0.501 5.527 1.330 3994
0.508 5.600 1.328 2137
0.520 5.735 1.340 1881
0.532 5.862 1.349 1905
0.531 5.857 1.330 2366
0.528 5.822 1.305 2018
0.554 6.112 1.346 1830
0.562 6.200 1.344 2070
0.563 6.204 1.326 2342
0.557 6.137 1.295 2200
0.580 6.397 1.325 2261
0.578 6.369 1.301 2238
0.583 6.434 1.294 2607
0.583 6.430 1.274 3348
0.582 6.418 1.252 2954
0.608 6.701 1.282 1993
0.660 7.279 1.359 2624
0.660 7.283 1.338 3607
0.661 7.294 1.318 2705
0.682 7.523 1.333 2457
0.682 7.519 1.310 2540
0.674 7.437 1.275 2661
0.674 7.432 1.252 3095
0.674 7.435 1.230 2700
0.703 7.751 1.254 2285
0.738 8.144 1.287 2658
0.738 8.140 1.262 3244
0.737 8.127 1.236 2827
0.735 8.107 1.209 2992
0.735 8.102 1.185 2330
0.769 8.481 1.209 1914
0.808 8.914 1.237 1933
0.808 8.909 1.210 1860
0.855 9.429 1.245 1697
0.854 9.417 1.216 1778
0.851 9.381 1.184 2201
0.851 9.384 1.157 1903
0.851 9.387 1.130 1335
0.856 9.444 1.108 1044
0.858 9.463 1.082 807
0.858 9.466 1.054 727
0.858 9.460 1.026 521
0.858 9.463 0.998 281
0.401 4.423 0.525 312
0.401 4.424 0.512 378
0.401 4.417 0.499 536
0.401 4.418 0.486 681
0.401 4.419 0.473 799
0.401 4.420 0.461 858
0.401 4.421 0.448 846
0.401 4.422 0.435 762
0.401 4.423 0.422 621
0.401 4.424 0.409 553
0.402 4.432 0.397 539
0.401 4.425 0.384 592
0.401 4.426 0.371 659
0.401 4.419 0.358 665
0.401 4.419 0.345 623
0.401 4.420 0.332 487
0.401 4.421 0.319 404
0.401 4.421 0.306 350
0.400 4.414 0.293 261
0.396 4.368 0.229 385
0.396 4.368 0.216 502
0.396 4.369 0.203 594
0.395 4.361 0.191 707
0.395 4.353 0.178 740
0.395 4.361 0.165 924
0.395 4.361 0.153 1124
0.395 4.353 0.140 1166
0.394 4.345 0.127 1140
0.394 4.345 0.115 1056
0.394 4.345 0.102 1124
0.394 4.345 0.090 1191
0.394 4.345 0.077 1351
0.394 4.345 0.065 1510
0.394 4.344 0.052 1451
0.393 4.336 0.040 1213
0.394 4.344 0.027 1024
0.394 4.344 0.014 984
0.393 4.335 0.002 957
0.392 4.327 -0.010 803
0.390 4.303 -0.022 750
0.390 4.302 -0.034 725
0.390 4.302 -0.047 700
0.391 4.317 -0.060 741
0.391 4.316 -0.073 798
0.389 4.292 -0.084 780
0.388 4.284 -0.096 874
0.387 4.267 -0.107 1059
0.387 4.267 -0.120 1268
0.387 4.266 -0.132 1616
0.386 4.257 -0.144 1991
0.385 4.248 -0.156 1658
0.385 4.247 -0.168 1381
0.385 4.247 -0.180 1383
0.385 4.246 -0.192 965
0.384 4.237 -0.204 566
0.383 4.228 -0.216 751
0.383 4.227 -0.228 957
0.383 4.226 -0.240 1045
0.383 4.225 -0.252 1134
0.383 4.224 -0.265 1057
0.384 4.230 -0.278 990
0.383 4.229 -0.290 990
0.383 4.228 -0.302 834
0.383 4.219 -0.313 681
0.382 4.209 -0.325 537
0.379 4.177 -0.333 498
0.379 4.175 -0.345 498
0.205 2.202 1.685 4508
0.206 2.206 1.679 9017
0.206 2.211 1.672 9017
0.207 2.222 1.671 6787
0.203 2.181 1.632 5031
0.212 2.276 1.690 6058
0.213 2.280 1.683 8124
0.213 2.285 1.676 8124
0.214 2.296 1.674 8744
0.214 2.300 1.668 9368
0.214 2.298 1.657 10610
0.215 2.303 1.650 11927
0.216 2.314 1.648 14657
0.217 2.325 1.646 18027
0.218 2.336 1.643 17182
0.218 2.340 1.637 16712
0.219 2.344 1.630 14861
0.219 2.349 1.623 13083
0.219 2.353 1.617 13157
0.220 2.357 1.610 10856
0.220 2.361 1.603 8554
0.221 2.366 1.596 6856
0.229 2.457 1.644 6287
0.229 2.455 1.633 6662
0.229 2.452 1.622 7150
0.236 2.530 1.660 6294
0.237 2.542 1.657 6933
0.237 2.539 1.646 5914
0.237 2.544 1.638 4932
0.234 2.507 1.607 4855
0.233 2.505 1.595 5408
0.243 2.604 1.644 4757
0.243 2.608 1.637 5404
0.244 2.613 1.629 4822
0.243 2.603 1.614 2961
0.241 2.580 1.591 2233
0.243 2.612 1.599 2510
0.245 2.630 1.599 3220
0.251 2.696 1.627 4469
0.252 2.700 1.619 5915
0.253 2.712 1.615 5168
0.254 2.730 1.615 4612
0.256 2.741 1.611 4970
0.257 2.752 1.607 5115
0.258 2.763 1.602 5127
0.257 2.754 1.587 5893
0.257 2.758 1.579 6973
0.258 2.769 1.575 7179
0.259 2.780 1.571 5604
0.262 2.812 1.577 5263
0.264 2.830 1.576 4060
0.268 2.870 1.586 3989
0.269 2.881 1.582 5169
0.268 2.878 1.570 5111
0.269 2.889 1.565 4816
0.280 2.999 1.610 4952
0.279 2.989 1.594 6412
0.278 2.979 1.578 10799
0.279 2.991 1.573 13239
0.281 3.009 1.571 10900
0.284 3.042 1.577 11041
0.285 3.053 1.571 9247
0.285 3.057 1.562 7770
0.293 3.147 1.594 7003
0.286 3.072 1.548 6799
0.287 3.084 1.543 8706
0.287 3.081 1.530 8191
0.288 3.085 1.521 6446
0.293 3.146 1.539 5149
0.298 3.200 1.552 7038
0.299 3.212 1.546 9853
0.300 3.216 1.537 10190
0.300 3.220 1.528 8319
0.301 3.231 1.522 4753
0.304 3.264 1.525 2911
0.305 3.275 1.518 2222
0.310 3.330 1.531 3555
0.311 3.334 1.521 5767
0.311 3.331 1.508 5965
0.315 3.379 1.517 6553
0.315 3.375 1.504 6545
0.323 3.467 1.530 7447
0.324 3.471 1.520 9657
0.324 3.475 1.510 9559
0.324 3.479 1.500 7118
0.326 3.498 1.496 5870
0.327 3.509 1.488 6657
0.330 3.535 1.487 3923
0.342 3.671 1.528 4442
0.343 3.683 1.520 7975
0.344 3.694 1.512 9462
0.345 3.698 1.501 8009
0.345 3.702 1.491 8607
0.347 3.721 1.485 12435
0.348 3.732 1.477 11064
0.350 3.751 1.472 6001
0.360 3.866 1.501 5513
0.361 3.870 1.490 6585
0.362 3.881 1.481 5151
0.362 3.885 1.470 4288
0.363 3.889 1.459 4197
0.375 4.027 1.493 4069
0.375 4.024 1.479 6554
0.370 3.968 1.447 6616
0.370 3.971 1.436 4122
0.381 4.088 1.461 6954
0.380 4.076 1.444 8783
0.381 4.088 1.435 5009
0.393 4.219 1.464 4097
0.393 4.216 1.449 4649
0.393 4.212 1.435 5378
0.396 4.246 1.432 3637
0.400 4.295 1.433 4948
0.404 4.329 1.430 5367
0.406 4.355 1.424 6752
0.406 4.359 1.412 5498
0.405 4.347 1.395 4823
0.406 4.351 1.382 3831
0.413 4.430 1.391 2621
0.433 4.646 1.438 3568
0.429 4.605 1.412 5406
0.429 4.601 1.397 6632
0.431 4.627 1.390 4224
0.437 4.684 1.391 4730
0.458 4.909 1.436 6008
0.456 4.889 1.416 7345
0.456 4.893 1.402 8637
0.457 4.904 1.389 7205
0.463 4.969 1.391 6546
0.461 4.950 1.371 5914
0.460 4.930 1.351 7386
0.460 4.934 1.336 5044
0.482 5.175 1.380 4323
0.488 5.232 1.377 4977
0.492 5.274 1.371 6324
0.493 5.285 1.358 6990
0.494 5.297 1.344 4329
0.511 5.477 1.369 4458
0.514 5.511 1.360 4444
0.514 5.515 1.344 6283
0.514 5.518 1.328 4050
0.534 5.730 1.356 2037
0.534 5.733 1.340 2179
0.534 5.729 1.322 2132
0.546 5.856 1.330 1879
0.540 5.798 1.301 2247
0.571 6.126 1.349 2034
0.576 6.183 1.341 2386
0.577 6.195 1.325 2787
0.576 6.183 1.304 2453
0.596 6.395 1.325 2081
0.592 6.352 1.298 2441
0.600 6.441 1.295 2375
0.600 6.436 1.275 3198
0.600 6.432 1.255 2892
0.606 6.497 1.247 1941
0.678 7.270 1.358 2890
0.678 7.273 1.337 3741
0.634 6.802 1.238 2602
0.701 7.522 1.333 2082
0.701 7.517 1.310 2188
0.693 7.435 1.275 2188
0.692 7.423 1.251 2924
0.692 7.426 1.229 2754
0.722 7.749 1.254 2133
0.759 8.142 1.287 2601
0.758 8.130 1.261 3023
0.757 8.117 1.235 2572
0.755 8.097 1.208 2920
0.790 8.476 1.233 2602
0.790 8.479 1.209 2412
0.791 8.482 1.184 2065
0.830 8.907 1.210 1847
0.877 9.411 1.244 1864
0.877 9.407 1.215 2130
0.874 9.379 1.184 2814
0.875 9.382 1.157 2517
0.876 9.392 1.130 1866
0.877 9.403 1.104 1444
0.877 9.406 1.076 875
0.878 9.416 1.050 792
0.878 9.419 1.022 658
0.412 4.421 0.538 453
0.412 4.422 0.525 550
0.412 4.415 0.512 657
0.412 4.416 0.499 873
0.412 4.417 0.486 1031
0.412 4.418 0.473 1186
0.412 4.419 0.461 1275
0.412 4.420 0.448 1254
0.412 4.421 0.435 1128
0.412 4.422 0.422 930
0.413 4.431 0.410 848
0.412 4.424 0.397 864
0.412 4.424 0.384 956
0.413 4.425 0.371 1021
0.412 4.418 0.358 1006
0.412 4.418 0.345 897
0.412 4.419 0.332 683
0.412 4.419 0.319 571
0.412 4.420 0.306 503
0.411 4.413 0.293 379
0.410 4.397 0.280 346
0.411 4.406 0.268 264
0.407 4.367 0.241 275
0.407 4.367 0.229 525
0.408 4.375 0.216 691
0.407 4.368 0.203 803
0.406 4.360 0.191 895
0.406 4.352 0.178 897
0.406 4.360 0.165 1144
0.406 4.360 0.153 1412
0.406 4.360 0.140 1441
0.405 4.344 0.127 1362
0.405 4.344 0.115 1242
0.405 4.344 0.102 1306
0.405 4.344 0.090 1370
0.405 4.344 0.077 1556
0.405 4.344 0.065 1743
0.405 4.343 0.052 1685
0.404 4.335 0.040 1411
0.405 4.343 0.027 1191
0.405 4.343 0.014 1125
0.404 4.334 0.002 1077
0.403 4.326 -0.010 912
0.402 4.310 -0.022 834
0.402 4.309 -0.035 794
0.402 4.309 -0.047 755
0.402 4.316 -0.060 814
0.402 4.315 -0.073 876
0.401 4.299 -0.084 844
0.399 4.283 -0.096 922
0.398 4.274 -0.108 1095
0.398 4.266 -0.120 1289
0.398 4.265 -0.132 1635
0.397 4.256 -0.144 1991
0.397 4.255 -0.156 1635
0.396 4.247 -0.168 1331
0.397 4.253 -0.181 1333
0.396 4.245 -0.192 922
0.395 4.236 -0.204 527
0.395 4.235 -0.216 713
0.394 4.226 -0.228 917
0.394 4.225 -0.240 991
0.394 4.224 -0.252 1065
0.394 4.223 -0.265 1000
0.394 4.229 -0.278 940
0.394 4.228 -0.290 940
0.394 4.227 -0.302 790
0.394 4.225 -0.314 641
0.392 4.208 -0.325 495
0.389 4.176 -0.333 499
0.389 4.174 -0.345 499
0.212 2.195 1.680 4633
0.212 2.199 1.674 9266
0.213 2.204 1.668 9266
0.213 2.208 1.661 6882
0.211 2.180 1.632 5952
0.220 2.275 1.690 6225
0.221 2.286 1.687 8435
0.221 2.291 1.681 8435
0.222 2.295 1.674 9127
0.222 2.300 1.668 9819
0.222 2.298 1.657 10988
0.222 2.302 1.650 12439
0.223 2.313 1.648 15028
0.224 2.324 1.646 18213
0.225 2.335 1.643 17173
0.226 2.339 1.637 16564
0.226 2.344 1.630 14389
0.227 2.348 1.623 12215
0.227 2.352 1.617 12215
0.228 2.356 1.610 9949
0.228 2.361 1.603 7684
0.228 2.358 1.592 6494
0.237 2.456 1.644 7730
0.238 2.467 1.641 7861
0.239 2.478 1.638 8029
0.244 2.523 1.656 6598
0.245 2.541 1.657 6903
0.245 2.538 1.646 5987
0.245 2.536 1.634 5296
0.243 2.513 1.611 4919
0.242 2.504 1.595 5368
0.251 2.603 1.644 4695
0.252 2.608 1.637 5388
0.252 2.612 1.629 4957
0.253 2.616 1.622 2999
0.248 2.566 1.583 1924
0.255 2.645 1.619 2211
0.259 2.684 1.630 3091
0.260 2.695 1.627 4161
0.261 2.706 1.623 5340
0.262 2.711 1.615 4672
0.263 2.729 1.615 4876
0.264 2.733 1.607 5640
0.265 2.744 1.603 5776
0.265 2.749 1.595 5895
0.265 2.746 1.583 6634
0.266 2.757 1.579 7088
0.267 2.761 1.571 6859
0.268 2.772 1.567 5252
0.271 2.804 1.574 4530
0.271 2.809 1.565 3458
0.275 2.848 1.575 3445
0.279 2.887 1.585 4238
0.274 2.842 1.552 4394
0.288 2.987 1.615 4817
0.289 2.991 1.606 5589
0.283 2.932 1.566 6473
0.288 2.978 1.578 9688
0.288 2.983 1.570 11938
0.290 3.001 1.568 9503
0.294 3.041 1.577 10704
0.295 3.052 1.571 10786
0.295 3.056 1.562 10091
0.296 3.067 1.557 9036
0.298 3.086 1.555 10282
0.298 3.090 1.546 12139
0.298 3.087 1.534 10374
0.298 3.084 1.521 7388
0.305 3.159 1.545 7191
0.308 3.192 1.549 7913
0.309 3.204 1.543 10111
0.310 3.215 1.537 10285
0.311 3.219 1.528 8724
0.311 3.223 1.518 5016
0.316 3.278 1.531 3003
0.318 3.289 1.525 2255
0.322 3.336 1.534 3224
0.322 3.333 1.521 5299
0.321 3.323 1.505 6524
0.321 3.327 1.496 7076
0.325 3.367 1.501 6558
0.335 3.466 1.530 6700
0.335 3.470 1.520 8687
0.335 3.474 1.510 8814
0.336 3.485 1.503 6808
0.338 3.496 1.496 5025
0.339 3.515 1.491 5183
0.343 3.548 1.493 4175
0.344 3.567 1.488 5152
0.355 3.682 1.520 7478
0.357 3.693 1.512 9714
0.357 3.697 1.501 8682
0.358 3.708 1.493 8218
0.359 3.720 1.485 11512
0.360 3.731 1.477 10689
0.362 3.750 1.472 6486
0.372 3.857 1.498 5251
0.374 3.869 1.490 6690
0.374 3.873 1.478 6115
0.374 3.876 1.467 6143
0.375 3.880 1.456 5908
0.380 3.936 1.463 5467
0.383 3.963 1.459 7225
0.382 3.959 1.445 7849
0.382 3.955 1.431 5002
0.395 4.086 1.461 6322
0.394 4.083 1.447 7994
0.395 4.086 1.435 5511
0.407 4.218 1.464 4271
0.406 4.207 1.447 4960
0.407 4.210 1.435 5309
0.415 4.297 1.448 3509
0.415 4.293 1.433 5640
0.418 4.327 1.430 5696
0.420 4.354 1.424 6585
0.421 4.357 1.412 5548
0.420 4.353 1.397 4822
0.420 4.350 1.382 3790
0.428 4.429 1.391 2864
0.448 4.645 1.438 3235
0.444 4.603 1.412 4970
0.444 4.599 1.397 6416
0.448 4.641 1.394 4958
0.451 4.675 1.389 6108
0.473 4.899 1.434 5670
0.473 4.895 1.418 7662
0.472 4.892 1.402 8350
0.473 4.895 1.388 6640
0.480 4.975 1.393 5924
0.477 4.941 1.369 5590
0.476 4.929 1.351 7472
0.475 4.925 1.334 4772
0.499 5.173 1.380 3953
0.506 5.238 1.379 4591
0.509 5.272 1.371 6255
0.510 5.284 1.358 6687
0.510 5.287 1.342 4278
0.528 5.467 1.367 3583
0.531 5.502 1.358 4175
0.532 5.513 1.344 6060
0.533 5.516 1.328 3890
0.534 5.535 1.315 2080
0.553 5.724 1.338 2556
0.553 5.727 1.322 2461
0.559 5.785 1.316 1726
0.560 5.796 1.301 2539
0.592 6.132 1.350 2433
0.594 6.150 1.335 3083
0.596 6.177 1.322 3215
0.597 6.181 1.304 2748
0.617 6.393 1.325 2031
0.612 6.335 1.295 2597
0.623 6.454 1.298 2364
0.622 6.442 1.276 3024
0.627 6.492 1.266 3410
0.627 6.495 1.247 2270
0.702 7.268 1.358 3028
0.701 7.263 1.335 3799
0.657 6.800 1.238 2697
0.704 7.294 1.297 1603
0.705 7.297 1.276 1713
0.717 7.425 1.274 1928
0.716 7.420 1.251 2805
0.717 7.423 1.229 2699
0.748 7.746 1.254 2025
0.786 8.140 1.287 2249
0.783 8.112 1.259 2624
0.817 8.466 1.283 2477
0.818 8.470 1.258 3105
0.817 8.465 1.232 3407
0.818 8.476 1.209 2979
0.819 8.479 1.184 2401
0.904 9.366 1.266 2066
0.908 9.401 1.243 2073
0.908 9.404 1.215 2515
0.906 9.383 1.185 3369
0.906 9.379 1.157 2987
0.907 9.389 1.130 2166
0.908 9.400 1.104 1634
0.909 9.411 1.077 1140
0.909 9.413 1.050 1159
0.910 9.424 1.023 823
0.915 9.481 1.001 800
0.915 9.476 0.972 928
0.426 4.414 0.512 1025
0.426 4.415 0.499 1269
0.426 4.416 0.486 1430
0.426 4.417 0.473 1645
0.427 4.418 0.461 1784
0.427 4.419 0.448 1732
0.427 4.420 0.435 1544
0.427 4.421 0.422 1331
0.428 4.429 0.410 1263
0.427 4.422 0.397 1308
0.427 4.423 0.384 1425
0.427 4.424 0.371 1487
0.426 4.416 0.358 1438
0.426 4.417 0.345 1246
0.427 4.418 0.332 938
0.427 4.418 0.319 784
0.427 4.419 0.306 696
0.426 4.411 0.293 524
0.424 4.396 0.280 461
0.425 4.404 0.268 356
0.422 4.373 0.254 267
0.421 4.365 0.241 359
0.422 4.366 0.229 679
0.422 4.374 0.216 915
0.422 4.366 0.203 1014
0.422 4.366 0.191 1077
0.420 4.351 0.178 1042
0.421 4.359 0.165 1395
0.421 4.359 0.153 1754
0.421 4.359 0.140 1768
0.420 4.351 0.127 1612
0.419 4.343 0.115 1439
0.419 4.343 0.102 1480
0.419 4.343 0.090 1521
0.419 4.343 0.077 1724
0.419 4.342 0.065 1927
0.419 4.342 0.052 1861
0.419 4.342 0.039 1544
0.419 4.342 0.027 1294
0.419 4.341 0.014 1232
0.418 4.333 0.002 1182
0.418 4.325 -0.010 996
0.416 4.308 -0.022 886
0.417 4.316 -0.035 829
0.417 4.315 -0.048 775
0.417 4.315 -0.060 867
0.417 4.314 -0.073 960
0.416 4.306 -0.085 903
0.414 4.289 -0.096 939
0.413 4.281 -0.108 1101
0.412 4.272 -0.120 1313
0.412 4.263 -0.132 1604
0.412 4.263 -0.144 1911
0.411 4.254 -0.156 1532
0.410 4.245 -0.168 1186
0.411 4.252 -0.181 1192
0.410 4.243 -0.192 838
0.409 4.234 -0.204 499
0.409 4.233 -0.216 663
0.408 4.225 -0.228 840
0.408 4.223 -0.240 893
0.408 4.222 -0.252 946
0.408 4.221 -0.265 907
0.408 4.228 -0.278 879
0.408 4.227 -0.290 879
0.408 4.225 -0.302 738
0.407 4.216 -0.313 601
0.406 4.207 -0.325 441
0.402 4.167 -0.332 406
0.402 4.165 -0.344 406
0.217 2.194 1.680 4508
0.217 2.199 1.674 9016
0.218 2.203 1.668 9016
0.216 2.188 1.648 6855
0.216 2.180 1.632 6463
0.225 2.275 1.690 6102
0.226 2.286 1.687 8315
0.227 2.290 1.681 8315
0.227 2.295 1.674 9051
0.227 2.299 1.668 9787
0.228 2.304 1.661 10857
0.228 2.301 1.650 12186
0.229 2.312 1.648 14571
0.230 2.323 1.646 17482
0.231 2.334 1.643 16298
0.232 2.345 1.641 15586
0.232 2.343 1.630 13221
0.232 2.347 1.623 10834
0.233 2.358 1.621 10822
0.233 2.356 1.610 8766
0.233 2.360 1.603 6760
0.233 2.358 1.592 6033
0.244 2.462 1.648 8539
0.244 2.467 1.641 8590
0.246 2.484 1.642 8859
0.248 2.509 1.648 6782
0.251 2.540 1.657 6620
0.251 2.538 1.646 5777
0.250 2.529 1.630 5313
0.249 2.519 1.615 4721
0.248 2.503 1.595 4974
0.257 2.596 1.640 4470
0.258 2.607 1.637 5188
0.258 2.611 1.629 4938
0.260 2.629 1.630 3441
0.254 2.565 1.583 2358
0.262 2.645 1.619 2692
0.265 2.683 1.630 3500
0.267 2.695 1.627 4299
0.268 2.706 1.623 5236
0.269 2.717 1.619 4455
0.270 2.728 1.615 4865
0.270 2.732 1.607 5851
0.271 2.737 1.599 6166
0.271 2.741 1.591 6481
0.272 2.745 1.583 6960
0.273 2.756 1.579 6870
0.273 2.760 1.571 6380
0.274 2.772 1.567 4839
0.277 2.797 1.570 4109
0.278 2.808 1.565 3260
0.282 2.854 1.579 3465
0.278 2.809 1.546 4058
0.281 2.841 1.552 4177
0.295 2.986 1.615 4832
0.287 2.899 1.560 5827
0.289 2.924 1.562 6532
0.294 2.971 1.575 8774
0.295 2.982 1.570 10773
0.295 2.986 1.561 8662
0.301 3.040 1.577 10152
0.302 3.051 1.571 11665
0.302 3.055 1.562 11632
0.303 3.067 1.557 11238
0.305 3.085 1.555 12723
0.306 3.089 1.546 14262
0.306 3.093 1.537 11644
0.307 3.104 1.531 8055
0.312 3.159 1.545 8572
0.315 3.184 1.546 8669
0.317 3.203 1.543 10129
0.318 3.214 1.537 10169
0.318 3.218 1.528 8846
0.319 3.229 1.522 5031
0.325 3.284 1.534 3518
0.326 3.295 1.528 2864
0.330 3.336 1.534 2920
0.329 3.325 1.518 4861
0.328 3.315 1.502 7355
0.328 3.319 1.493 7911
0.333 3.366 1.501 6765
0.333 3.370 1.491 5942
0.343 3.469 1.520 7437
0.344 3.480 1.513 7911
0.345 3.484 1.503 6618
0.346 3.496 1.496 4342
0.351 3.551 1.506 4032
0.351 3.548 1.493 4709
0.353 3.566 1.488 6240
0.353 3.570 1.478 7669
0.365 3.692 1.512 9447
0.366 3.696 1.501 8886
0.367 3.707 1.493 7826
0.368 3.719 1.485 10398
0.369 3.730 1.477 10042
0.371 3.756 1.474 6674
0.372 3.760 1.464 5106
0.382 3.860 1.487 6441
0.382 3.864 1.476 6804
0.383 3.868 1.465 7361
0.384 3.879 1.456 7180
0.389 3.935 1.463 6621
0.390 3.947 1.454 7374
0.391 3.958 1.445 8105
0.390 3.947 1.428 5574
0.404 4.085 1.461 5407
0.403 4.074 1.444 7534
0.404 4.085 1.435 5621
0.406 4.104 1.428 4620
0.415 4.198 1.445 4963
0.416 4.202 1.432 4744
0.425 4.296 1.448 3567
0.425 4.300 1.436 5995
0.428 4.326 1.430 5721
0.430 4.353 1.424 6176
0.431 4.356 1.412 5270
0.430 4.352 1.397 4441
0.440 4.447 1.411 3585
0.439 4.435 1.393 2877
0.459 4.644 1.438 2712
0.456 4.610 1.414 4391
0.455 4.598 1.397 6176
0.460 4.647 1.396 5312
0.462 4.674 1.389 6629
0.484 4.898 1.434 4892
0.484 4.894 1.418 7088
0.484 4.890 1.402 7403
0.483 4.886 1.386 6341
0.493 4.982 1.395 5403
0.488 4.932 1.367 5068
0.487 4.928 1.351 7029
0.487 4.924 1.334 4318
0.512 5.180 1.381 3394
0.518 5.237 1.379 4302
0.521 5.264 1.369 5770
0.522 5.282 1.358 5932
0.523 5.286 1.342 3946
0.531 5.366 1.344 3361
0.544 5.501 1.358 3703
0.545 5.512 1.344 5473
0.545 5.515 1.328 3537
0.547 5.534 1.315 2165
0.566 5.722 1.338 2780
0.566 5.726 1.322 2570
0.572 5.783 1.316 1705
0.573 5.794 1.301 2642
0.606 6.130 1.350 2595
0.608 6.149 1.335 3491
0.611 6.176 1.322 3530
0.611 6.179 1.304 2950
0.632 6.392 1.325 1962
0.626 6.325 1.294 2490
0.643 6.499 1.306 2493
0.641 6.479 1.283 3154
0.642 6.490 1.266 3766
0.643 6.501 1.248 2403
0.718 7.258 1.357 2971
0.718 7.262 1.335 3675
0.672 6.799 1.238 2630
0.685 6.926 1.238 1632
0.705 7.124 1.249 1695
0.733 7.407 1.271 1890
0.734 7.419 1.251 2666
0.734 7.422 1.229 2570
0.765 7.737 1.253 1900
0.801 8.099 1.281 2022
0.801 8.102 1.258 2376
0.838 8.472 1.284 2838
0.837 8.468 1.258 3675
0.837 8.463 1.232 3961
0.838 8.474 1.209 3276
0.838 8.477 1.184 2443
0.926 9.364 1.266 2390
0.926 9.359 1.238 2379
0.929 9.394 1.214 2652
0.928 9.381 1.185 3606
0.928 9.384 1.158 3268
0.928 9.387 1.130 2451
0.929 9.390 1.103 1859
0.930 9.401 1.076 1322
0.931 9.411 1.050 1420
0.931 9.414 1.022 1082
0.437 4.419 0.538 970
0.437 4.420 0.525 1161
0.436 4.413 0.512 1285
0.437 4.414 0.499 1518
0.437 4.415 0.486 1666
0.437 4.416 0.473 1899
0.437 4.417 0.461 2059
0.437 4.418 0.448 2015
0.437 4.419 0.435 1811
0.437 4.420 0.422 1595
0.437 4.420 0.409 1537
0.437 4.421 0.397 1589
0.437 4.422 0.384 1694
0.437 4.423 0.371 1748
0.437 4.415 0.358 1681
0.437 4.416 0.345 1445
0.437 4.417 0.332 1086
0.437 4.417 0.319 901
0.436 4.410 0.306 801
0.436 4.410 0.293 597
0.435 4.395 0.280 504
0.435 4.395 0.267 397
0.432 4.372 0.254 315
0.432 4.364 0.241 421
0.432 4.373 0.229 786
0.432 4.373 0.216 1061
0.433 4.373 0.203 1139
0.432 4.365 0.191 1162
0.432 4.365 0.178 1081
0.432 4.366 0.165 1484
0.431 4.358 0.153 1890
0.431 4.358 0.140 1913
0.430 4.350 0.127 1723
0.429 4.342 0.115 1503
0.429 4.342 0.102 1524
0.429 4.342 0.090 1544
0.429 4.342 0.077 1756
0.429 4.341 0.065 1968
0.429 4.341 0.052 1894
0.429 4.341 0.039 1556
0.429 4.341 0.027 1292
0.429 4.340 0.014 1234
0.428 4.332 0.002 1191
0.428 4.324 -0.010 994
0.427 4.315 -0.023 862
0.427 4.315 -0.035 806
0.427 4.322 -0.048 749
0.427 4.314 -0.060 859
0.427 4.313 -0.073 969
0.426 4.305 -0.085 899
0.425 4.296 -0.097 885
0.423 4.280 -0.108 1055
0.422 4.271 -0.120 1272
0.422 4.262 -0.132 1481
0.421 4.262 -0.144 1726
0.421 4.253 -0.156 1345
0.420 4.244 -0.168 995
0.420 4.251 -0.181 1002
0.420 4.242 -0.192 717
0.419 4.241 -0.205 447
0.419 4.233 -0.216 584
0.418 4.224 -0.228 734
0.418 4.223 -0.240 784
0.418 4.221 -0.252 835
0.417 4.220 -0.265 804
0.418 4.227 -0.278 791
0.418 4.226 -0.290 791
0.418 4.224 -0.302 654
0.417 4.215 -0.313 523
0.416 4.206 -0.325 375
0.412 4.166 -0.332 314
0.412 4.164 -0.344 314
0.224 2.194 1.680 4326
0.225 2.198 1.674 8653
0.225 2.203 1.668 8653
0.223 2.188 1.648 7174
0.223 2.179 1.632 7040
0.232 2.274 1.690 6020
0.233 2.285 1.687 8263
0.234 2.289 1.681 8263
0.234 2.294 1.674 9102
0.235 2.298 1.668 9941
0.235 2.303 1.661 10773
0.235 2.301 1.650 11839
0.236 2.312 1.648 13934
0.237 2.323 1.646 16495
0.238 2.334 1.643 15147
0.239 2.344 1.641 14358
0.239 2.342 1.630 11795
0.240 2.353 1.628 9280
0.241 2.357 1.621 9331
0.241 2.362 1.614 7660
0.241 2.359 1.603 6036
0.250 2.450 1.651 6311
0.251 2.455 1.644 9459
0.253 2.472 1.645 9419
0.254 2.484 1.642 9896
0.255 2.501 1.644 7251
0.259 2.539 1.657 6414
0.260 2.544 1.650 5573
0.258 2.528 1.630 5223
0.258 2.525 1.619 4458
0.255 2.496 1.591 4403
0.265 2.595 1.640 4348
0.266 2.606 1.637 5110
0.267 2.611 1.629 5118
0.268 2.629 1.630 4389
0.262 2.564 1.583 3482
0.270 2.644 1.619 3710
0.273 2.676 1.627 4407
0.274 2.687 1.623 5111
0.276 2.698 1.619 5892
0.276 2.702 1.611 4641
0.279 2.727 1.615 4789
0.278 2.725 1.603 6016
0.279 2.729 1.595 6562
0.279 2.733 1.587 7108
0.280 2.744 1.583 7283
0.281 2.748 1.575 6664
0.282 2.760 1.571 5857
0.282 2.764 1.563 4382
0.291 2.852 1.599 4295
0.291 2.849 1.587 4533
0.291 2.853 1.579 3874
0.288 2.815 1.549 3965
0.297 2.911 1.588 4268
0.296 2.901 1.572 5462
0.296 2.898 1.560 6707
0.299 2.923 1.562 6894
0.303 2.963 1.571 8294
0.304 2.974 1.566 10121
0.304 2.978 1.558 8599
0.310 3.039 1.577 9656
0.312 3.050 1.571 12616
0.313 3.062 1.566 13439
0.314 3.073 1.560 14189
0.314 3.077 1.551 15863
0.315 3.088 1.546 16771
0.316 3.092 1.537 13192
0.318 3.111 1.535 8688
0.323 3.158 1.545 9854
0.325 3.183 1.546 9324
0.327 3.202 1.543 10068
0.328 3.213 1.537 10054
0.329 3.217 1.528 8951
0.330 3.228 1.522 5060
0.336 3.290 1.537 4163
0.337 3.302 1.531 3670
0.338 3.306 1.521 3443
0.338 3.310 1.512 5664
0.338 3.306 1.499 9327
0.339 3.318 1.493 9334
0.343 3.358 1.498 7536
0.344 3.369 1.491 6980
0.345 3.380 1.485 6237
0.355 3.479 1.513 6944
0.356 3.483 1.503 6680
0.356 3.487 1.493 4239
0.363 3.550 1.506 3943
0.362 3.546 1.493 6055
0.363 3.558 1.485 7839
0.365 3.569 1.478 9237
0.377 3.691 1.512 8826
0.378 3.702 1.504 9081
0.379 3.706 1.493 7631
0.380 3.717 1.485 9292
0.382 3.736 1.480 9272
0.384 3.762 1.477 6975
0.384 3.759 1.464 5714
0.394 3.859 1.487 6404
0.395 3.863 1.476 7682
0.396 3.874 1.467 8516
0.397 3.886 1.459 8490
0.396 3.882 1.445 8206
0.403 3.945 1.454 7424
0.403 3.949 1.442 7940
0.403 3.946 1.428 6230
0.417 4.084 1.461 4423
0.417 4.080 1.447 6853
0.417 4.084 1.435 5513
0.421 4.118 1.433 5472
0.427 4.182 1.440 5600
0.428 4.193 1.430 4405
0.439 4.295 1.448 3624
0.439 4.298 1.436 6110
0.441 4.317 1.428 5623
0.444 4.351 1.424 5590
0.445 4.355 1.412 4705
0.444 4.351 1.397 3810
0.455 4.453 1.413 3699
0.463 4.533 1.422 3153
0.452 4.423 1.376 2609
0.471 4.608 1.414 3773
0.469 4.597 1.397 6262
0.475 4.646 1.396 5513
0.477 4.672 1.389 7230
0.478 4.684 1.377 4808
0.500 4.893 1.418 5836
0.499 4.889 1.402 5880
0.496 4.854 1.378 5738
0.510 4.995 1.399 5196
0.514 5.030 1.392 4443
0.503 4.926 1.351 6024
0.502 4.914 1.333 3591
0.476 4.665 1.257 2898
0.535 5.235 1.379 3940
0.537 5.254 1.368 5034
0.539 5.281 1.358 4703
0.539 5.277 1.341 3414
0.550 5.388 1.350 3324
0.562 5.499 1.358 3107
0.563 5.510 1.344 4593
0.563 5.513 1.328 2978
0.566 5.540 1.317 2159
0.583 5.713 1.337 2783
0.480 4.698 1.108 2878
0.481 4.709 1.096 2041
0.592 5.800 1.302 2791
0.626 6.128 1.350 2660
0.628 6.147 1.335 3989
0.630 6.166 1.320 3978
0.631 6.177 1.304 3157
0.623 6.095 1.270 2015
0.645 6.316 1.292 2384
0.660 6.458 1.299 2559
0.662 6.477 1.283 3319
0.662 6.481 1.264 4078
0.699 6.849 1.308 2578
0.688 6.735 1.269 3005
0.741 7.259 1.335 3321
0.695 6.804 1.240 2486
0.705 6.901 1.235 1858
0.728 7.129 1.250 1872
0.756 7.405 1.271 1929
0.757 7.416 1.251 2544
0.758 7.419 1.229 2375
0.789 7.726 1.252 1960
0.823 8.057 1.276 2014
0.826 8.084 1.255 2211
0.865 8.470 1.284 3254
0.865 8.465 1.258 4336
0.864 8.460 1.232 4576
0.865 8.471 1.209 3597
0.866 8.482 1.185 2468
0.956 9.361 1.266 2719
0.956 9.356 1.238 2751
0.959 9.391 1.214 2778
0.959 9.386 1.186 3616
0.958 9.381 1.158 3307
0.958 9.384 1.130 2544
0.960 9.395 1.104 1995
0.961 9.413 1.078 1659
0.961 9.408 1.050 1818
0.960 9.403 1.022 1319
0.451 4.417 0.538 1245
0.451 4.418 0.525 1495
0.451 4.411 0.512 1591
0.451 4.413 0.499 1761
0.451 4.414 0.486 1881
0.451 4.415 0.473 2171
0.451 4.416 0.461 2374
0.451 4.416 0.448 2331
0.451 4.417 0.435 2116
0.451 4.418 0.422 1868
0.451 4.419 0.409 1793
0.451 4.420 0.397 1834
0.451 4.413 0.383 1947
0.451 4.413 0.370 2005
0.451 4.414 0.358 1908
0.451 4.415 0.345 1610
0.451 4.415 0.332 1204
0.451 4.416 0.319 998
0.450 4.408 0.306 895
0.450 4.409 0.293 665
0.450 4.401 0.280 546
0.450 4.402 0.268 424
0.446 4.371 0.254 331
0.446 4.363 0.241 449
0.446 4.371 0.229 853
0.446 4.371 0.216 1150
0.447 4.372 0.203 1218
0.446 4.364 0.191 1229
0.446 4.364 0.178 1148
0.446 4.364 0.165 1581
0.446 4.364 0.153 2013
0.445 4.356 0.140 1988
0.444 4.348 0.127 1712
0.443 4.341 0.115 1451
0.443 4.340 0.102 1483
0.443 4.332 0.090 1515
0.443 4.340 0.077 1728
0.443 4.340 0.065 1941
0.443 4.340 0.052 1851
0.443 4.339 0.039 1504
0.443 4.339 0.027 1247
0.443 4.339 0.014 1207
0.442 4.331 0.002 1186
0.442 4.330 -0.011 962
0.441 4.314 -0.023 785
0.441 4.321 -0.035 772
0.441 4.321 -0.048 768
0.440 4.312 -0.060 865
0.440 4.312 -0.073 978
0.440 4.303 -0.085 907
0.439 4.303 -0.097 859
0.437 4.278 -0.108 1030
0.437 4.278 -0.121 1259
0.436 4.269 -0.132 1352
0.435 4.260 -0.144 1476
0.434 4.252 -0.156 1095
0.434 4.251 -0.168 745
0.434 4.250 -0.181 751
0.433 4.241 -0.192 574
0.433 4.240 -0.205 409
0.432 4.231 -0.216 511
0.431 4.222 -0.228 621
0.431 4.221 -0.240 657
0.431 4.220 -0.252 693
0.432 4.227 -0.265 668
0.432 4.226 -0.278 655
0.431 4.224 -0.290 655
0.431 4.223 -0.302 517
0.430 4.214 -0.313 386
0.429 4.205 -0.325 278
0.229 2.187 1.676 3804
0.229 2.191 1.669 7609
0.230 2.196 1.663 7609
0.228 2.181 1.643 7019
0.228 2.179 1.632 7228
0.238 2.273 1.690 5650
0.239 2.284 1.687 7796
0.239 2.289 1.681 7796
0.240 2.293 1.674 8716
0.240 2.298 1.668 9635
0.241 2.302 1.661 10126
0.241 2.300 1.650 10831
0.242 2.311 1.648 12701
0.243 2.322 1.646 14976
0.244 2.333 1.643 13557
0.245 2.344 1.641 12763
0.246 2.348 1.634 10245
0.246 2.353 1.628 7748
0.247 2.364 1.625 7783
0.248 2.368 1.618 6749
0.249 2.379 1.616 5719
0.256 2.443 1.647 6590
0.257 2.454 1.644 9838
0.259 2.472 1.645 9700
0.260 2.483 1.642 10267
0.262 2.501 1.644 7344
0.266 2.539 1.657 6100
0.266 2.543 1.650 5271
0.264 2.527 1.630 4847
0.264 2.525 1.619 3992
0.261 2.495 1.591 3752
0.271 2.594 1.640 4063
0.273 2.606 1.637 4888
0.274 2.617 1.633 5212
0.276 2.635 1.634 5197
0.269 2.571 1.587 4563
0.277 2.650 1.623 4641
0.280 2.675 1.627 5219
0.280 2.679 1.619 5997
0.281 2.691 1.615 6783
0.283 2.702 1.611 5163
0.284 2.713 1.607 4747
0.284 2.717 1.599 5871
0.285 2.728 1.595 6509
0.286 2.732 1.587 7213
0.286 2.737 1.580 7275
0.287 2.748 1.575 6492
0.288 2.752 1.567 5595
0.298 2.847 1.607 4601
0.298 2.851 1.599 5403
0.299 2.855 1.591 5668
0.299 2.859 1.583 4343
0.303 2.899 1.592 4024
0.304 2.910 1.588 4980
0.305 2.914 1.579 6458
0.304 2.904 1.564 7353
0.306 2.922 1.562 7079
0.310 2.962 1.571 7962
0.311 2.973 1.566 9641
0.311 2.970 1.554 8865
0.318 3.038 1.577 8945
0.319 3.049 1.571 12809
0.320 3.061 1.566 14298
0.321 3.072 1.560 15895
0.322 3.076 1.551 17771
0.323 3.087 1.546 18268
0.323 3.091 1.537 14040
0.325 3.110 1.535 9066
0.331 3.164 1.548 10350
0.333 3.183 1.546 9286
0.335 3.201 1.543 9589
0.336 3.212 1.537 9496
0.336 3.216 1.528 8523
0.337 3.220 1.518 5053
0.344 3.289 1.537 4440
0.344 3.294 1.528 4142
0.345 3.298 1.518 4223
0.345 3.294 1.506 6884
0.346 3.305 1.499 10802
0.348 3.324 1.496 10186
0.350 3.350 1.495 8085
0.353 3.376 1.494 7697
0.353 3.379 1.485 7198
0.363 3.471 1.510 6168
0.364 3.482 1.503 6596
0.364 3.479 1.490 4796
0.370 3.542 1.503 3993
0.370 3.538 1.490 7184
0.372 3.557 1.485 8852
0.373 3.568 1.478 10101
0.373 3.565 1.465 8414
0.387 3.701 1.504 9038
0.388 3.705 1.493 7588
0.388 3.709 1.483 8598
0.388 3.706 1.469 8575
0.393 3.761 1.477 7189
0.393 3.758 1.464 6070
0.404 3.858 1.487 5752
0.404 3.862 1.476 8078
0.405 3.873 1.467 9264
0.406 3.877 1.456 9127
0.406 3.881 1.445 9091
0.412 3.937 1.451 7045
0.412 3.941 1.440 7300
0.413 3.945 1.428 6487
0.415 3.971 1.424 4519
0.427 4.079 1.447 6575
0.426 4.076 1.433 5183
0.432 4.132 1.438 6140
0.436 4.173 1.437 6092
0.438 4.185 1.428 4038
0.448 4.286 1.446 3650
0.449 4.290 1.433 5787
0.451 4.309 1.426 5188
0.455 4.350 1.424 4835
0.455 4.354 1.412 3991
0.468 4.478 1.435 3753
0.469 4.482 1.422 3756
0.475 4.539 1.424 3227
0.462 4.421 1.376 2843
0.480 4.592 1.410 3330
0.481 4.596 1.397 6096
0.486 4.645 1.396 5075
0.489 4.671 1.389 7251
0.490 4.682 1.377 5227
0.512 4.892 1.418 4198
0.502 4.804 1.380 4828
0.504 4.823 1.370 6417
0.506 4.834 1.358 5475
0.526 5.028 1.392 4290
0.516 4.933 1.352 4646
0.488 4.668 1.272 3776
0.488 4.664 1.257 3385
0.547 5.226 1.377 3415
0.549 5.253 1.368 4167
0.551 5.264 1.354 3634
0.550 5.260 1.337 2927
0.563 5.386 1.350 3224
0.576 5.505 1.360 2625
0.575 5.501 1.342 3748
0.576 5.512 1.328 2425
0.578 5.531 1.315 2020
0.597 5.711 1.337 2599
0.491 4.697 1.108 3256
0.492 4.708 1.096 2406
0.607 5.807 1.304 2816
0.642 6.134 1.352 2587
0.643 6.146 1.335 4195
0.645 6.164 1.320 4136
0.645 6.168 1.303 3121
0.637 6.086 1.269 2201
0.660 6.306 1.291 2230
0.675 6.457 1.299 2521
0.676 6.468 1.282 3255
0.678 6.479 1.264 4099
0.715 6.839 1.307 2688
0.704 6.734 1.269 3175
0.759 7.258 1.335 2773
0.711 6.802 1.240 2204
0.720 6.883 1.232 1879
0.745 7.128 1.250 1939
0.775 7.411 1.272 1897
0.775 7.414 1.251 2382
0.776 7.417 1.229 2141
0.808 7.725 1.252 2067
0.820 7.845 1.246 1994
0.844 8.074 1.254 2011
0.886 8.467 1.284 3495
0.885 8.463 1.258 4652
0.885 8.458 1.232 4788
0.886 8.469 1.209 3728
0.887 8.480 1.185 2498
0.978 9.351 1.265 2758
0.978 9.354 1.238 2895
0.982 9.388 1.214 2757
0.981 9.384 1.186 3484
0.981 9.379 1.158 3063
0.981 9.382 1.130 2299
0.982 9.393 1.104 1685
0.984 9.411 1.078 1655
0.985 9.414 1.051 2076
0.989 9.455 1.027 1639
0.990 9.466 1.000 1448
0.462 4.417 0.525 1668
0.461 4.410 0.512 1743
0.461 4.411 0.499 1850
0.461 4.412 0.486 1923
0.462 4.413 0.473 2270
0.462 4.414 0.461 2521
0.462 4.415 0.448 2477
0.462 4.416 0.435 2244
0.462 4.417 0.422 1954
0.462 4.418 0.409 1853
0.462 4.419 0.397 1878
0.461 4.411 0.383 1982
0.461 4.412 0.370 2046
0.462 4.413 0.358 1944
0.462 4.413 0.345 1647
0.462 4.414 0.332 1250
0.462 4.415 0.319 1050
0.461 4.407 0.306 938
0.461 4.408 0.293 697
0.460 4.400 0.280 575
0.460 4.401 0.268 444
0.457 4.369 0.254 323
0.456 4.362 0.241 448
0.457 4.370 0.229 860
0.457 4.370 0.216 1155
0.457 4.371 0.203 1201
0.456 4.363 0.191 1196
0.456 4.363 0.178 1130
0.456 4.363 0.165 1555
0.456 4.363 0.153 1981
0.456 4.355 0.140 1918
0.455 4.347 0.127 1591
0.454 4.339 0.115 1317
0.454 4.339 0.102 1376
0.454 4.339 0.090 1436
0.454 4.339 0.077 1634
0.454 4.339 0.065 1832
0.454 4.339 0.052 1709
0.454 4.338 0.039 1359
0.454 4.338 0.027 1132
0.454 4.338 0.014 1092
0.453 4.329 0.002 1076
0.453 4.329 -0.011 851
0.452 4.321 -0.023 648
0.452 4.320 -0.035 715
0.452 4.320 -0.048 781
0.451 4.311 -0.060 851
0.451 4.311 -0.073 946
0.450 4.302 -0.085 879
0.450 4.302 -0.097 826
0.448 4.285 -0.109 955
0.447 4.276 -0.121 1161
0.446 4.268 -0.132 1164
0.445 4.259 -0.144 1195
0.445 4.258 -0.157 861
0.444 4.250 -0.168 545
0.444 4.249 -0.181 548
0.444 4.248 -0.193 442
0.443 4.239 -0.205 340
0.442 4.230 -0.216 406
0.442 4.229 -0.229 479
0.441 4.220 -0.240 494
0.441 4.219 -0.252 509
0.442 4.226 -0.265 495
0.442 4.224 -0.278 489
0.442 4.223 -0.290 489
0.442 4.222 -0.302 381
0.441 4.213 -0.313 278
0.235 2.180 1.671 3420
0.235 2.184 1.665 6841
0.236 2.188 1.659 6841
0.234 2.174 1.639 7181
0.234 2.178 1.632 7746
0.236 2.189 1.631 5744
0.246 2.284 1.687 7188
0.246 2.288 1.681 7188
0.247 2.293 1.674 8181
0.247 2.297 1.668 9173
0.248 2.302 1.661 9223
0.247 2.299 1.650 9462
0.249 2.310 1.648 11107
0.250 2.321 1.646 13108
0.251 2.332 1.643 11639
0.252 2.343 1.641 10868
0.253 2.348 1.634 8507
0.253 2.352 1.628 6194
0.254 2.363 1.625 6482
0.255 2.374 1.623 6430
0.257 2.385 1.620 6557
0.262 2.436 1.643 6907
0.264 2.453 1.644 10091
0.266 2.471 1.645 9784
0.267 2.482 1.642 10401
0.269 2.500 1.644 7374
0.273 2.538 1.657 5828
0.274 2.542 1.650 4984
0.273 2.533 1.634 4366
0.275 2.558 1.639 3620
0.276 2.569 1.636 3420
0.279 2.594 1.640 3726
0.280 2.605 1.637 4643
0.282 2.623 1.637 5490
0.283 2.634 1.634 6208
0.277 2.570 1.587 5895
0.285 2.649 1.623 5698
0.287 2.667 1.623 6086
0.288 2.678 1.619 6837
0.289 2.683 1.611 7702
0.291 2.701 1.611 5798
0.292 2.712 1.607 4827
0.292 2.716 1.599 5541
0.293 2.720 1.592 6175
0.294 2.732 1.587 6925
0.294 2.736 1.580 7005
0.296 2.747 1.575 6267
0.296 2.751 1.567 5496
0.306 2.846 1.607 5219
0.307 2.850 1.599 6357
0.307 2.854 1.591 6725
0.308 2.859 1.583 5075
0.313 2.905 1.596 4157
0.313 2.909 1.588 5633
0.314 2.913 1.579 7525
0.313 2.910 1.567 8096
0.314 2.922 1.562 7322
0.318 2.954 1.568 7903
0.319 2.965 1.563 9576
0.320 2.969 1.554 9224
0.325 3.023 1.570 8162
0.328 3.049 1.571 12568
0.329 3.060 1.566 14633
0.331 3.071 1.560 16811
0.332 3.082 1.555 18731
0.332 3.086 1.546 18888
0.333 3.098 1.540 14470
0.335 3.116 1.538 9226
0.340 3.163 1.548 10130
0.343 3.189 1.549 8651
0.344 3.200 1.543 8867
0.346 3.211 1.537 8727
0.347 3.223 1.531 7799
0.346 3.219 1.518 4983
0.353 3.281 1.534 4714
0.354 3.285 1.525 4905
0.353 3.282 1.512 5602
0.354 3.286 1.503 8987
0.355 3.297 1.496 13252
0.357 3.316 1.493 11618
0.361 3.356 1.498 8899
0.363 3.374 1.494 8412
0.364 3.378 1.485 7768
0.373 3.463 1.507 6081
0.374 3.474 1.500 6633
0.374 3.478 1.490 5377
0.379 3.519 1.494 4614
0.381 3.537 1.490 8119
0.383 3.556 1.485 9592
0.385 3.574 1.480 10681
0.384 3.563 1.465 8245
0.398 3.700 1.504 9098
0.399 3.704 1.493 7994
0.398 3.701 1.480 8316
0.398 3.697 1.466 8080
0.406 3.768 1.480 7324
0.405 3.764 1.466 6299
0.406 3.768 1.455 5371
0.416 3.861 1.476 8143
0.417 3.872 1.467 9803
0.418 3.883 1.459 9653
0.418 3.887 1.447 9862
0.418 3.884 1.434 7461
0.424 3.940 1.440 6741
0.424 3.943 1.428 6495
0.427 3.970 1.424 4688
0.439 4.078 1.447 6924
0.451 4.187 1.469 5162
0.448 4.161 1.447 7363
0.448 4.164 1.435 6713
0.450 4.183 1.428 3817
0.459 4.262 1.439 4122
0.461 4.281 1.431 5239
0.461 4.285 1.419 4602
0.470 4.364 1.429 4070
0.468 4.345 1.409 2994
0.482 4.477 1.435 3555
0.482 4.481 1.422 3576
0.488 4.538 1.424 3115
0.475 4.412 1.374 2940
0.494 4.590 1.410 3191
0.494 4.594 1.397 5689
0.493 4.582 1.379 4699
0.503 4.670 1.389 6266
0.504 4.681 1.377 5160
0.516 4.799 1.394 3492
0.518 4.810 1.382 4865
0.519 4.821 1.370 6530
0.519 4.825 1.356 5789
0.505 4.691 1.307 4150
0.504 4.679 1.290 3560
0.503 4.675 1.274 4007
0.502 4.662 1.257 3433
0.560 5.202 1.372 3205
0.561 5.213 1.359 3478
0.561 5.216 1.343 3347
0.564 5.243 1.334 2544
0.580 5.385 1.350 2904
0.581 5.396 1.336 2557
0.592 5.499 1.342 3010
0.592 5.503 1.326 1923
0.598 5.560 1.322 1754
0.614 5.702 1.335 2265
0.506 4.704 1.109 3337
0.507 4.706 1.096 2622
0.626 5.812 1.305 2865
0.511 4.750 1.076 3176
0.662 6.151 1.337 4285
0.663 6.163 1.320 4378
0.654 6.081 1.286 3004
0.654 6.076 1.267 2301
0.678 6.296 1.289 2048
0.694 6.447 1.298 2432
0.696 6.466 1.282 3092
0.697 6.477 1.264 3889
0.734 6.821 1.304 2729
0.725 6.732 1.269 3089
0.735 6.828 1.264 2478
0.756 7.026 1.276 2112
0.736 6.842 1.226 1830
0.768 7.133 1.251 2008
0.777 7.222 1.244 2322
0.779 7.241 1.225 2390
0.799 7.423 1.230 1835
0.830 7.714 1.251 2213
0.844 7.842 1.246 2219
0.845 7.853 1.224 1862
0.911 8.465 1.284 3667
0.911 8.460 1.258 4791
0.910 8.456 1.232 4831
0.911 8.467 1.209 3794
0.912 8.477 1.185 2461
1.006 9.348 1.265 2494
1.006 9.351 1.238 2731
1.009 9.378 1.213 2452
1.010 9.381 1.186 2896
1.009 9.376 1.158 2362
1.010 9.387 1.131 1675
0.990 9.194 1.084 1373
1.014 9.424 1.080 1546
1.015 9.426 1.052 2237
1.013 9.413 1.023 1672
0.475 4.415 0.538 1455
0.475 4.416 0.525 1714
0.475 4.409 0.512 1754
0.475 4.410 0.499 1806
0.475 4.411 0.486 1865
0.475 4.412 0.473 2267
0.475 4.413 0.461 2558
0.476 4.422 0.448 2514
0.475 4.415 0.435 2263
0.475 4.416 0.422 1931
0.475 4.416 0.409 1806
0.475 4.417 0.397 1808
0.475 4.410 0.383 1875
0.475 4.411 0.370 1929
0.475 4.411 0.358 1837
0.475 4.412 0.345 1558
0.475 4.413 0.332 1185
0.475 4.413 0.319 1000
0.474 4.406 0.306 887
0.474 4.406 0.293 661
0.473 4.399 0.280 556
0.473 4.399 0.268 427
0.470 4.368 0.254 292
0.470 4.368 0.241 423
0.470 4.369 0.229 818
0.470 4.369 0.216 1081
0.470 4.369 0.203 1091
0.469 4.361 0.191 1118
0.470 4.369 0.178 1125
0.469 4.362 0.165 1504
0.469 4.362 0.153 1885
0.469 4.354 0.140 1749
0.468 4.346 0.127 1331
0.466 4.330 0.115 1036
0.467 4.338 0.102 1155
0.467 4.338 0.090 1276
0.467 4.338 0.077 1429
0.467 4.337 0.065 1583
0.467 4.337 0.052 1428
0.467 4.337 0.039 1130
0.467 4.337 0.027 987
0.467 4.336 0.014 932
0.466 4.328 0.002 895
0.466 4.328 -0.011 704
0.465 4.319 -0.023 519
0.465 4.319 -0.035 645
0.465 4.318 -0.048 772
0.464 4.310 -0.060 793
0.464 4.309 -0.073 841
0.463 4.301 -0.085 778
0.462 4.292 -0.097 728
0.461 4.284 -0.109 817
0.460 4.275 -0.121 959
0.459 4.267 -0.132 895
0.458 4.258 -0.144 855
0.458 4.257 -0.157 601
0.457 4.248 -0.168 356
0.457 4.247 -0.181 357
0.458 4.254 -0.194 304
0.458 4.253 -0.206 252
0.455 4.229 -0.216 275
0.454 4.220 -0.228 320
0.454 4.219 -0.240 339
0.454 4.218 -0.252 358
0.455 4.224 -0.265 348
0.455 4.223 -0.278 339
0.454 4.222 -0.290 339
0.454 4.221 -0.302 255
0.238 2.153 1.653 3263
0.238 2.158 1.647 6527
0.239 2.162 1.640 6527
0.240 2.173 1.639 7245
0.241 2.177 1.632 7994
0.242 2.188 1.631 6020
0.252 2.283 1.687 6449
0.253 2.287 1.681 6449
0.253 2.292 1.674 7440
0.254 2.296 1.668 8431
0.254 2.301 1.661 8027
0.254 2.299 1.650 7783
0.255 2.310 1.648 9226
0.256 2.321 1.646 10960
0.258 2.338 1.648 9616
0.260 2.349 1.645 9029
0.260 2.353 1.639 6933
0.260 2.358 1.632 5237
0.262 2.375 1.634 5885
0.264 2.386 1.631 6783
0.264 2.391 1.624 7698
0.268 2.428 1.638 7065
0.271 2.453 1.644 9838
0.273 2.470 1.645 9360
0.275 2.488 1.647 9947
0.276 2.499 1.644 7037
0.280 2.537 1.657 5544
0.280 2.535 1.646 4696
0.280 2.532 1.634 3920
0.282 2.550 1.635 3474
0.283 2.561 1.632 3245
0.286 2.593 1.640 3327
0.279 2.522 1.589 5001
0.280 2.533 1.586 6024
0.292 2.640 1.638 7019
0.284 2.569 1.587 6916
0.293 2.655 1.626 6550
0.295 2.667 1.623 6692
0.295 2.671 1.615 7319
0.296 2.682 1.611 8139
0.298 2.700 1.611 6192
0.300 2.711 1.607 4871
0.300 2.715 1.599 5218
0.300 2.720 1.592 5868
0.301 2.724 1.584 6518
0.301 2.728 1.576 6477
0.303 2.739 1.572 6010
0.304 2.750 1.567 5553
0.314 2.838 1.604 5641
0.314 2.842 1.595 6762
0.314 2.846 1.587 7243
0.316 2.858 1.583 5594
0.321 2.904 1.596 4068
0.322 2.915 1.591 5818
0.322 2.912 1.579 8038
0.321 2.909 1.567 8529
0.323 2.921 1.562 7323
0.327 2.960 1.571 7736
0.327 2.964 1.563 9518
0.328 2.968 1.554 9354
0.329 2.980 1.549 8069
0.337 3.048 1.571 11246
0.339 3.066 1.569 13639
0.339 3.070 1.560 16131
0.340 3.081 1.555 18305
0.342 3.093 1.549 18431
0.342 3.097 1.540 13972
0.344 3.115 1.538 8917
0.349 3.155 1.545 8922
0.353 3.195 1.552 7501
0.354 3.206 1.546 8027
0.355 3.210 1.537 7742
0.356 3.222 1.531 6740
0.356 3.218 1.518 4613
0.362 3.273 1.531 5172
0.362 3.277 1.521 6287
0.362 3.281 1.512 7375
0.363 3.285 1.503 10941
0.363 3.289 1.493 14918
0.366 3.315 1.493 12768
0.371 3.355 1.498 9335
0.373 3.373 1.494 8520
0.374 3.385 1.487 7659
0.382 3.454 1.504 6433
0.383 3.466 1.497 6794
0.384 3.477 1.490 5477
0.389 3.517 1.494 4949
0.391 3.536 1.490 8167
0.393 3.555 1.485 9422
0.395 3.573 1.480 10517
0.395 3.577 1.470 7795
0.409 3.706 1.507 8903
0.409 3.703 1.493 8182
0.409 3.699 1.480 8188
0.408 3.696 1.466 7509
0.416 3.766 1.480 6994
0.416 3.763 1.466 6102
0.416 3.767 1.455 5144
0.426 3.852 1.473 7830
0.428 3.871 1.467 9436
0.429 3.882 1.459 9122
0.429 3.886 1.447 9636
0.430 3.890 1.436 7627
0.434 3.931 1.437 6154
0.436 3.942 1.428 6300
0.442 3.998 1.434 5035
0.450 4.077 1.447 7829
0.450 4.073 1.433 5363
0.459 4.152 1.445 8052
0.460 4.163 1.435 6945
0.470 4.257 1.451 3807
0.471 4.261 1.439 4298
0.471 4.265 1.426 4819
0.472 4.276 1.416 4183
0.484 4.378 1.433 3911
0.475 4.298 1.396 2957
0.495 4.483 1.437 3187
0.496 4.487 1.424 3106
0.486 4.400 1.385 2977
0.501 4.532 1.408 3167
0.507 4.589 1.410 3000
0.507 4.585 1.395 4896
0.505 4.573 1.377 4479
0.517 4.676 1.391 4762
0.517 4.679 1.377 4684
0.519 4.698 1.368 3742
0.519 4.702 1.354 4480
0.532 4.820 1.370 5528
0.533 4.823 1.356 5327
0.518 4.689 1.307 4862
0.518 4.685 1.292 4145
0.516 4.673 1.274 3918
0.516 4.669 1.259 3071
0.574 5.200 1.372 3211
0.575 5.204 1.357 3657
0.575 5.207 1.342 3555
0.577 5.226 1.330 2472
0.596 5.391 1.351 2410
0.596 5.394 1.336 2477
0.607 5.490 1.340 2771
0.606 5.486 1.323 1755
0.615 5.566 1.323 1554
0.630 5.700 1.335 2018
0.519 4.702 1.109 3011
0.520 4.705 1.096 2534
0.642 5.811 1.305 2682
0.525 4.749 1.076 3664
0.680 6.157 1.338 4420
0.681 6.168 1.322 4557
0.671 6.071 1.285 3027
0.671 6.075 1.267 2266
0.690 6.248 1.281 2212
0.710 6.429 1.295 2467
0.712 6.441 1.278 2831
0.715 6.475 1.264 3525
0.753 6.812 1.303 2712
0.743 6.730 1.269 2652
0.776 7.028 1.298 2083
0.775 7.016 1.275 2259
0.775 7.011 1.253 1900
0.794 7.185 1.260 2201
0.798 7.220 1.244 2666
0.800 7.238 1.225 2654
0.852 7.709 1.273 1799
0.853 7.720 1.252 2259
0.866 7.840 1.246 2154
0.868 7.859 1.225 2034
0.935 8.462 1.284 3538
0.934 8.458 1.258 4527
0.935 8.461 1.233 4512
0.935 8.464 1.209 3681
0.936 8.475 1.185 2356
1.032 9.345 1.265 2286
1.032 9.340 1.237 2676
1.033 9.351 1.211 2307
1.035 9.370 1.185 2605
1.036 9.373 1.158 2091
1.015 9.188 1.111 1787
1.015 9.191 1.084 1608
1.041 9.421 1.080 1784
1.041 9.423 1.052 2209
1.042 9.434 1.025 1570
0.488 4.413 0.538 1417
0.488 4.414 0.525 1626
0.488 4.415 0.512 1601
0.487 4.409 0.499 1573
0.487 4.410 0.486 1664
0.487 4.411 0.473 2104
0.487 4.412 0.461 2387
0.488 4.420 0.448 2339
0.488 4.413 0.435 2069
0.488 4.414 0.422 1708
0.488 4.415 0.409 1557
0.488 4.416 0.397 1571
0.487 4.409 0.383 1633
0.488 4.417 0.371 1667
0.487 4.410 0.358 1598
0.487 4.411 0.345 1369
0.487 4.411 0.332 1046
0.487 4.412 0.319 882
0.487 4.404 0.306 783
0.487 4.405 0.293 589
0.486 4.397 0.280 502
0.486 4.398 0.268 380
0.482 4.367 0.254 250
0.482 4.367 0.241 377
0.482 4.367 0.229 721
0.483 4.368 0.216 938
0.483 4.368 0.203 912
0.483 4.368 0.191 972
0.483 4.368 0.178 1057
0.482 4.360 0.165 1344
0.482 4.360 0.153 1644
0.481 4.353 0.140 1457
0.480 4.345 0.127 1025
0.478 4.329 0.115 779
0.479 4.337 0.102 918
0.479 4.337 0.090 1072
0.479 4.336 0.077 1163
0.479 4.336 0.065 1254
0.479 4.336 0.052 1111
0.479 4.336 0.039 895
0.479 4.335 0.027 823
0.479 4.335 0.014 754
0.478 4.327 0.002 696
0.478 4.326 -0.011 575
0.478 4.326 -0.023 454
0.477 4.318 -0.035 563
0.477 4.317 -0.048 673
0.476 4.309 -0.060 664
0.475 4.300 -0.072 678
0.475 4.299 -0.085 639
0.474 4.291 -0.097 619
0.473 4.282 -0.109 653
0.472 4.274 -0.121 717
0.471 4.265 -0.132 630
0.470 4.257 -0.144 572
0.470 4.256 -0.157 397
0.244 2.153 1.653 3214
0.244 2.157 1.647 6429
0.245 2.161 1.640 6429
0.246 2.172 1.639 7235
0.247 2.183 1.637 8180
0.247 2.187 1.631 6240
0.258 2.282 1.687 5431
0.259 2.287 1.681 5431
0.259 2.291 1.674 6372
0.260 2.296 1.668 7314
0.259 2.294 1.657 6573
0.259 2.291 1.646 5969
0.262 2.315 1.652 7259
0.262 2.320 1.646 8709
0.265 2.344 1.652 7738
0.266 2.355 1.650 7501
0.267 2.359 1.643 6092
0.269 2.377 1.645 5745
0.269 2.381 1.638 6724
0.270 2.386 1.631 7891
0.270 2.390 1.624 9058
0.271 2.394 1.617 7710
0.277 2.445 1.640 9231
0.279 2.470 1.645 8481
0.281 2.487 1.647 8927
0.283 2.498 1.644 6289
0.286 2.530 1.653 5113
0.287 2.534 1.646 4342
0.287 2.538 1.638 3572
0.288 2.549 1.635 3406
0.289 2.554 1.628 3283
0.289 2.558 1.620 3203
0.285 2.522 1.589 5629
0.287 2.533 1.586 6985
0.299 2.639 1.638 7825
0.291 2.568 1.587 7794
0.300 2.648 1.623 7407
0.301 2.659 1.619 7277
0.302 2.670 1.615 7542
0.304 2.688 1.615 8191
0.305 2.699 1.611 6348
0.307 2.710 1.607 5137
0.307 2.715 1.599 5445
0.307 2.712 1.588 5919
0.307 2.716 1.580 6400
0.309 2.727 1.576 6106
0.310 2.738 1.572 5744
0.311 2.749 1.567 5854
0.321 2.837 1.604 5798
0.321 2.841 1.595 6665
0.322 2.846 1.587 7252
0.323 2.857 1.583 5868
0.326 2.882 1.585 4165
0.330 2.914 1.591 5717
0.329 2.911 1.579 8174
0.330 2.916 1.571 8820
0.330 2.920 1.562 7247
0.335 2.959 1.571 7639
0.335 2.963 1.563 9476
0.336 2.967 1.554 9301
0.336 2.972 1.546 8103
0.345 3.047 1.571 9680
0.347 3.065 1.569 11858
0.347 3.069 1.560 14248
0.348 3.080 1.555 16570
0.350 3.092 1.549 16892
0.351 3.103 1.544 12879
0.352 3.114 1.538 8252
0.356 3.147 1.542 7129
0.362 3.201 1.555 6343
0.363 3.212 1.549 7437
0.364 3.217 1.540 7020
0.364 3.221 1.531 5700
0.364 3.217 1.518 4193
0.369 3.265 1.528 5603
0.370 3.269 1.518 7608
0.371 3.280 1.512 8844
0.372 3.284 1.503 12385
0.372 3.288 1.493 16174
0.375 3.314 1.493 13555
0.379 3.347 1.495 9619
0.382 3.372 1.494 8152
0.383 3.384 1.487 6927
0.390 3.446 1.501 7024
0.390 3.450 1.491 6986
0.392 3.469 1.487 5197
0.397 3.509 1.491 4710
0.400 3.535 1.490 7426
0.402 3.554 1.485 8674
0.405 3.580 1.483 9968
0.405 3.583 1.473 7526
0.419 3.705 1.507 8409
0.418 3.694 1.491 8175
0.418 3.698 1.480 8278
0.419 3.702 1.469 7243
0.426 3.765 1.480 6356
0.426 3.762 1.466 5548
0.425 3.758 1.453 5009
0.436 3.851 1.473 7219
0.437 3.862 1.465 8384
0.438 3.874 1.456 7892
0.439 3.877 1.445 8719
0.440 3.889 1.436 7204
0.441 3.900 1.427 5696
0.448 3.963 1.436 5673
0.453 4.005 1.437 5442
0.461 4.076 1.447 8431
0.460 4.064 1.430 5560
0.470 4.151 1.445 8386
0.471 4.162 1.435 6839
0.481 4.256 1.451 3685
0.483 4.267 1.441 4080
0.481 4.256 1.424 4343
0.482 4.260 1.412 4039
0.496 4.384 1.436 3689
0.486 4.297 1.396 3860
0.487 4.308 1.386 3565
0.498 4.403 1.400 3236
0.498 4.406 1.387 3122
0.512 4.523 1.406 3662
0.510 4.504 1.387 3021
0.519 4.584 1.395 3895
0.517 4.572 1.377 3941
0.527 4.659 1.387 3478
0.529 4.678 1.377 4055
0.531 4.689 1.366 4055
0.531 4.693 1.352 4801
0.546 4.826 1.372 4116
0.546 4.829 1.358 4394
0.530 4.688 1.307 5059
0.530 4.684 1.292 4406
0.529 4.672 1.274 3628
0.586 5.180 1.383 2657
0.587 5.191 1.370 3101
0.588 5.194 1.355 3581
0.589 5.206 1.342 3453
0.590 5.217 1.328 2409
0.591 5.220 1.313 1935
0.610 5.393 1.336 2368
0.620 5.480 1.339 2799
0.609 5.384 1.301 2063
0.630 5.572 1.325 1465
0.644 5.691 1.333 1702
0.532 4.701 1.109 2233
0.532 4.703 1.096 2141
0.537 4.745 1.090 2545
0.538 4.755 1.077 3775
0.697 6.163 1.340 4510
0.698 6.167 1.322 4741
0.687 6.069 1.285 2825
0.686 6.065 1.266 2071
0.706 6.239 1.279 2430
0.726 6.420 1.294 2644
0.728 6.431 1.276 2794
0.732 6.473 1.264 3075
0.743 6.569 1.261 2501
0.771 6.813 1.283 2144
0.794 7.018 1.297 1813
0.793 7.014 1.275 2267
0.794 7.017 1.255 2145
0.814 7.191 1.261 2541
0.817 7.218 1.244 2902
0.820 7.244 1.226 2818
0.823 7.278 1.210 1907
0.873 7.717 1.252 2272
0.873 7.721 1.229 2023
0.891 7.880 1.228 2144
0.957 8.460 1.284 3186
0.957 8.455 1.258 3922
0.957 8.458 1.233 3894
0.958 8.469 1.210 3381
0.958 8.472 1.185 2161
0.503 4.445 0.671 2182
1.056 9.338 1.237 2524
1.037 9.169 1.190 2061
1.038 9.172 1.163 2519
1.039 9.183 1.137 2392
1.040 9.193 1.111 1964
1.039 9.188 1.084 1745
1.065 9.410 1.079 1621
1.065 9.413 1.051 1771
1.063 9.392 1.022 1317
0.500 4.420 0.539 1226
0.499 4.413 0.525 1367
0.499 4.414 0.512 1287
0.499 4.407 0.499 1185
0.499 4.408 0.486 1328
0.499 4.409 0.473 1790
