-0.428 2.982 1.697 3630
-0.423 2.944 1.666 4936
-0.423 2.949 1.657 7458
-0.425 2.960 1.653 9761
-0.427 2.978 1.651 11052
-0.435 3.032 1.668 9761
-0.430 2.994 1.638 7465
-0.442 3.082 1.671 6728
-0.443 3.087 1.662 7336
-0.445 3.098 1.657 8487
-0.446 3.110 1.652 7155
-0.458 3.192 1.681 7895
-0.461 3.210 1.678 10183
-0.461 3.215 1.669 11532
-0.461 3.212 1.656 10346
-0.461 3.209 1.643 7537
-0.459 3.199 1.627 4931
-0.471 3.282 1.655 4215
-0.471 3.279 1.642 4972
-0.469 3.269 1.626 8497
-0.470 3.273 1.616 11639
-0.469 3.271 1.604 7594
-0.488 3.404 1.652 7805
-0.490 3.415 1.646 7070
-0.495 3.448 1.649 4838
-0.516 3.596 1.702 4753
-0.513 3.572 1.679 7135
-0.514 3.583 1.672 8640
-0.515 3.588 1.661 9191
-0.516 3.592 1.651 11614
-0.516 3.597 1.640 12725
-0.517 3.601 1.630 10504
-0.517 3.605 1.619 8393
-0.540 3.762 1.672 7534
-0.540 3.766 1.661 6387
-0.525 3.662 1.606 4750
-0.561 3.906 1.692 4646
-0.556 3.874 1.666 4046
-0.557 3.878 1.655 4442
-0.568 3.956 1.672 5833
-0.567 3.953 1.658 6020
-0.568 3.957 1.646 4878
-0.570 3.969 1.638 3907
-0.572 3.988 1.632 3235
-0.580 4.044 1.639 3222
-0.582 4.055 1.630 3051
-0.577 4.023 1.605 2504
-0.586 4.086 1.615 2983
-0.588 4.098 1.606 4376
-0.601 4.190 1.626 5623
-0.607 4.232 1.626 7043
-0.608 4.236 1.614 7983
-0.607 4.233 1.599 6503
-0.609 4.244 1.589 4286
-0.622 4.338 1.608 6597
-0.623 4.342 1.595 7463
-0.624 4.346 1.582 5125
-0.636 4.432 1.597 4719
-0.628 4.377 1.564 5074
-0.631 4.396 1.557 5571
-0.652 4.541 1.590 4634
-0.653 4.553 1.579 5555
-0.653 4.550 1.563 4908
-0.649 4.524 1.540 3752
-0.668 4.655 1.567 3945
-0.665 4.637 1.546 4098
-0.681 4.746 1.565 3680
-0.683 4.758 1.553 3611
-0.683 4.762 1.539 3139
-0.684 4.766 1.525 3368
-0.686 4.777 1.514 3567
-0.688 4.796 1.504 3003
-0.728 5.072 1.567 4045
-0.728 5.076 1.553 4149
-0.723 5.035 1.525 3263
-0.735 5.122 1.533 3988
-0.736 5.126 1.518 4884
-0.748 5.213 1.526 3919
-0.745 5.194 1.504 6414
-0.747 5.206 1.491 8152
-0.754 5.255 1.488 5881
-0.757 5.274 1.476 5017
-0.750 5.225 1.448 4201
-0.780 5.434 1.484 3418
-0.825 5.750 1.545 2325
-0.827 5.762 1.530 2741
-0.799 5.567 1.465 3087
-0.838 5.838 1.513 2622
-0.842 5.865 1.501 2561
-0.846 5.892 1.489 2615
-0.849 5.919 1.477 2010
-0.851 5.930 1.461 2861
-0.853 5.942 1.446 3880
-0.853 5.945 1.428 3168
-0.855 5.957 1.413 1465
-0.861 5.999 1.403 1001
-0.868 6.048 1.396 1075
-0.869 6.052 1.378 1178
-0.873 6.086 1.366 1056
-0.873 6.082 1.347 1064
-0.868 6.047 1.322 1213
-0.848 5.912 1.277 799
-0.849 5.915 1.260 1245
-0.849 5.919 1.243 1319
-0.850 5.922 1.225 1248
-1.152 8.030 1.591 1071
-1.153 8.034 1.568 1690
-1.170 8.154 1.565 1606
-1.124 7.834 1.485 2085
-1.125 7.838 1.462 1831
-1.181 8.228 1.503 1703
-1.188 8.279 1.487 2283
-1.189 8.282 1.462 2078
-1.231 8.580 1.485 2518
-1.191 8.298 1.415 2092
-1.158 8.069 1.355 2036
-1.158 8.072 1.332 2872
-1.159 8.076 1.308 3137
-1.158 8.071 1.283 2943
-1.159 8.075 1.260 2758
-1.159 8.078 1.236 2599
-1.160 8.081 1.212 2029
-1.160 8.084 1.189 1600
-1.161 8.087 1.165 1512
-1.162 8.098 1.142 1207
-1.163 8.101 1.119 707
-1.163 8.103 1.095 308
-0.802 5.587 0.255 264
-0.801 5.580 0.238 272
-0.799 5.564 0.222 273
-0.800 5.572 0.205 366
-0.799 5.565 0.189 510
-0.799 5.565 0.173 566
-0.797 5.557 0.156 561
-0.797 5.557 0.140 557
-0.797 5.557 0.124 450
-0.797 5.557 0.108 342
-0.796 5.549 0.092 481
-0.797 5.557 0.075 721
-0.797 5.557 0.059 834
-0.797 5.556 0.043 836
-0.798 5.564 0.026 851
-0.797 5.556 0.010 863
-0.797 5.555 -0.006 890
-0.797 5.555 -0.022 726
-0.796 5.546 -0.038 569
-0.795 5.538 -0.054 442
-0.789 5.498 -0.069 440
-0.789 5.498 -0.085 603
-0.789 5.497 -0.101 766
-0.788 5.489 -0.116 669
-0.786 5.480 -0.132 589
-0.786 5.479 -0.148 378
-0.782 5.446 -0.178 273
-0.784 5.461 -0.195 343
-0.785 5.468 -0.212 454
-0.785 5.467 -0.227 569
-0.782 5.450 -0.242 535
-0.781 5.441 -0.258 576
-0.781 5.440 -0.274 472
-0.779 5.431 -0.289 376
-0.778 5.422 -0.304 447
-0.778 5.420 -0.320 527
-0.778 5.419 -0.336 527
-0.776 5.410 -0.351 750
-0.776 5.408 -0.367 980
-0.775 5.399 -0.382 900
-0.773 5.390 -0.397 835
-0.771 5.373 -0.411 546
-0.763 5.316 -0.421 488
-0.763 5.315 -0.436 488
-0.764 5.321 -0.452 443
-0.766 5.335 -0.470 419
-0.311 2.222 1.708 4003
-0.312 2.227 1.702 8006
-0.312 2.231 1.695 8006
-0.312 2.229 1.684 6464
-0.319 2.279 1.710 5842
-0.319 2.277 1.699 5130
-0.318 2.275 1.687 4485
-0.319 2.279 1.681 4485
-0.321 2.297 1.683 6578
-0.322 2.301 1.677 8811
-0.324 2.312 1.674 7930
-0.325 2.323 1.672 7364
-0.327 2.334 1.670 6196
-0.329 2.351 1.672 5574
-0.330 2.356 1.665 6102
-0.329 2.347 1.650 6715
-0.331 2.365 1.652 6270
-0.333 2.382 1.653 5907
-0.341 2.433 1.676 7625
-0.341 2.437 1.669 7779
-0.342 2.442 1.662 7932
-0.343 2.453 1.659 6531
-0.344 2.457 1.652 5287
-0.356 2.541 1.695 5012
-0.357 2.552 1.692 6503
-0.358 2.557 1.685 5872
-0.355 2.535 1.661 5651
-0.357 2.552 1.662 5669
-0.359 2.564 1.659 5955
-0.360 2.575 1.655 6949
-0.362 2.586 1.652 8381
-0.364 2.604 1.652 8194
-0.365 2.608 1.645 8171
-0.370 2.639 1.653 9167
-0.371 2.651 1.650 9153
-0.371 2.648 1.638 7524
-0.371 2.653 1.630 6421
-0.372 2.657 1.623 5319
-0.374 2.675 1.623 4403
-0.379 2.706 1.630 4558
-0.380 2.718 1.626 5628
-0.383 2.736 1.626 5701
-0.384 2.740 1.618 4438
-0.399 2.848 1.667 4657
-0.401 2.866 1.666 4815
-0.402 2.870 1.658 4704
-0.401 2.868 1.646 4668
-0.401 2.865 1.634 3958
-0.413 2.953 1.670 4826
-0.413 2.950 1.657 7176
-0.416 2.969 1.656 9455
-0.418 2.987 1.655 10648
-0.425 3.033 1.668 10114
-0.425 3.038 1.659 7693
-0.432 3.084 1.671 7981
-0.433 3.095 1.666 9110
-0.434 3.100 1.657 10164
-0.435 3.104 1.648 8101
-0.448 3.200 1.684 6335
-0.449 3.205 1.675 8926
-0.449 3.209 1.665 10567
-0.449 3.206 1.653 9959
-0.448 3.204 1.640 8109
-0.447 3.194 1.624 6475
-0.449 3.205 1.618 5040
-0.460 3.288 1.645 4728
-0.458 3.271 1.626 7616
-0.458 3.275 1.616 10534
-0.473 3.379 1.653 7765
-0.476 3.398 1.649 9820
-0.475 3.395 1.636 8722
-0.475 3.392 1.623 6000
-0.472 3.375 1.604 4511
-0.502 3.588 1.685 5643
-0.503 3.592 1.675 7271
-0.503 3.590 1.661 8209
-0.503 3.594 1.651 11137
-0.504 3.598 1.640 11628
-0.504 3.603 1.630 8935
-0.504 3.600 1.616 7549
-0.527 3.764 1.672 8338
-0.529 3.775 1.664 7095
-0.531 3.794 1.659 3760
-0.543 3.879 1.680 4553
-0.543 3.876 1.666 4140
-0.543 3.880 1.655 4516
-0.554 3.958 1.672 5835
-0.555 3.962 1.661 5802
-0.554 3.959 1.646 4992
-0.555 3.963 1.635 4412
-0.558 3.982 1.629 3882
-0.562 4.016 1.628 3737
-0.568 4.057 1.630 3236
-0.568 4.054 1.616 3168
-0.568 4.058 1.604 3728
-0.585 4.181 1.635 3599
-0.587 4.192 1.626 6043
-0.592 4.226 1.624 6810
-0.592 4.231 1.612 7732
-0.592 4.227 1.597 6692
-0.593 4.239 1.587 4350
-0.609 4.347 1.610 5569
-0.609 4.351 1.598 5939
-0.609 4.348 1.582 4574
-0.621 4.434 1.597 4826
-0.614 4.386 1.567 5768
-0.616 4.398 1.557 6075
-0.617 4.409 1.546 4471
-0.637 4.548 1.576 4734
-0.636 4.545 1.561 4656
-0.635 4.534 1.543 3984
-0.651 4.650 1.564 3385
-0.649 4.639 1.546 3559
-0.665 4.748 1.565 3655
-0.666 4.760 1.553 3593
-0.668 4.772 1.541 3554
-0.667 4.768 1.525 4104
-0.669 4.780 1.514 4234
-0.671 4.791 1.502 3344
-0.711 5.082 1.569 3754
-0.712 5.086 1.555 3845
-0.701 5.007 1.517 3915
-0.728 5.200 1.554 4237
-0.730 5.212 1.541 5173
-0.730 5.216 1.526 5094
-0.729 5.204 1.507 4180
-0.739 5.277 1.509 5238
-0.737 5.265 1.490 7673
-0.738 5.269 1.475 7136
-0.740 5.288 1.463 4034
-0.759 5.421 1.480 3912
-0.797 5.692 1.530 2542
-0.798 5.704 1.515 3116
-0.798 5.700 1.497 2967
-0.801 5.719 1.484 2745
-0.814 5.815 1.488 2557
-0.813 5.811 1.470 1944
-0.846 6.044 1.505 1418
-0.847 6.048 1.487 1807
-0.832 5.945 1.446 2895
-0.834 5.956 1.430 2513
-0.835 5.967 1.414 1142
-0.853 6.094 1.423 1139
-0.851 6.082 1.402 1471
-0.851 6.078 1.383 1623
-0.854 6.097 1.368 1459
-0.852 6.085 1.347 1276
-0.848 6.058 1.323 1324
-0.847 6.054 1.304 786
-0.845 6.034 1.282 822
-0.828 5.914 1.241 946
-0.829 5.925 1.225 1083
-1.098 7.841 1.556 1154
-1.104 7.884 1.540 1671
-1.105 7.896 1.518 1848
-1.096 7.830 1.483 2077
-1.097 7.834 1.460 1831
-1.159 8.279 1.511 1906
-1.159 8.283 1.487 2652
-1.160 8.286 1.462 2334
-1.204 8.600 1.487 2502
-1.162 8.302 1.415 2090
-1.128 8.057 1.353 2074
-1.130 8.068 1.331 2869
-1.130 8.072 1.307 4239
-1.130 8.075 1.283 5491
-1.131 8.079 1.260 6095
-1.131 8.082 1.236 5843
-1.132 8.085 1.212 4798
-1.132 8.088 1.189 3267
-1.132 8.083 1.164 2067
-1.133 8.094 1.141 1322
-1.133 8.097 1.118 672
-1.134 8.100 1.094 257
-0.782 5.589 0.287 278
-0.782 5.590 0.271 355
-0.783 5.590 0.255 369
-0.781 5.582 0.238 352
-0.778 5.559 0.221 340
-0.780 5.575 0.205 458
-0.779 5.567 0.189 633
-0.779 5.568 0.173 715
-0.778 5.560 0.156 752
-0.778 5.560 0.140 794
-0.778 5.560 0.124 652
-0.778 5.560 0.108 511
-0.777 5.552 0.092 591
-0.777 5.552 0.075 800
-0.777 5.551 0.059 926
-0.778 5.559 0.043 914
-0.778 5.559 0.027 911
-0.779 5.566 0.010 904
-0.779 5.566 -0.006 900
-0.778 5.557 -0.022 797
-0.777 5.549 -0.038 719
-0.777 5.549 -0.054 552
-0.771 5.509 -0.069 483
-0.770 5.500 -0.085 699
-0.770 5.500 -0.101 930
-0.769 5.491 -0.116 842
-0.768 5.483 -0.132 776
-0.768 5.490 -0.148 511
-0.764 5.457 -0.163 262
-0.765 5.464 -0.179 324
-0.765 5.463 -0.195 393
-0.765 5.462 -0.211 509
-0.765 5.461 -0.227 626
-0.764 5.460 -0.243 566
-0.763 5.451 -0.258 525
-0.763 5.450 -0.274 401
-0.762 5.441 -0.289 284
-0.760 5.432 -0.305 348
-0.759 5.423 -0.320 425
-0.759 5.422 -0.336 425
-0.758 5.412 -0.351 655
-0.757 5.411 -0.367 903
-0.757 5.409 -0.382 861
-0.757 5.408 -0.398 818
-0.757 5.406 -0.414 539
-0.745 5.319 -0.421 478
-0.744 5.317 -0.436 478
-0.745 5.323 -0.452 406
-0.747 5.337 -0.470 356
-0.300 2.217 1.703 3443
-0.301 2.222 1.697 6887
-0.301 2.226 1.691 6887
-0.301 2.224 1.680 5696
-0.300 2.216 1.664 4821
-0.307 2.265 1.690 5117
-0.307 2.270 1.683 6012
-0.308 2.274 1.676 6012
-0.309 2.285 1.674 8847
-0.312 2.302 1.677 12137
-0.313 2.313 1.674 11368
-0.315 2.324 1.672 11208
-0.316 2.335 1.670 9232
-0.318 2.346 1.668 7682
-0.318 2.351 1.661 7348
-0.319 2.355 1.654 7015
-0.319 2.359 1.647 6676
-0.321 2.370 1.645 6623
-0.325 2.401 1.655 7186
-0.327 2.419 1.657 6889
-0.329 2.430 1.654 6729
-0.330 2.441 1.651 4875
-0.345 2.545 1.707 4517
-0.344 2.543 1.695 5442
-0.345 2.547 1.688 6451
-0.344 2.538 1.672 6942
-0.343 2.536 1.661 8014
-0.345 2.547 1.658 7655
-0.347 2.565 1.659 7651
-0.349 2.576 1.655 8368
-0.350 2.587 1.652 9601
-0.352 2.599 1.648 9029
-0.353 2.610 1.645 8618
-0.358 2.641 1.653 7547
-0.360 2.659 1.654 6605
-0.362 2.670 1.650 5142
-0.362 2.675 1.642 5004
-0.363 2.679 1.634 4847
-0.365 2.697 1.634 5457
-0.367 2.708 1.630 6312
-0.368 2.719 1.626 7371
-0.371 2.737 1.626 7062
-0.372 2.749 1.622 5284
-0.387 2.856 1.671 5357
-0.387 2.861 1.662 5973
-0.389 2.872 1.658 5912
-0.389 2.876 1.650 5886
-0.389 2.874 1.638 5153
-0.404 2.982 1.684 5378
-0.400 2.952 1.657 6105
-0.404 2.984 1.663 8615
-0.406 2.996 1.658 9545
-0.411 3.035 1.668 10171
-0.412 3.039 1.659 8192
-0.418 3.086 1.671 9605
-0.418 3.090 1.662 11745
-0.420 3.102 1.657 12698
-0.421 3.106 1.648 9633
-0.415 3.068 1.618 6678
-0.433 3.200 1.671 5729
-0.431 3.183 1.652 8715
-0.431 3.180 1.639 9219
-0.433 3.199 1.637 8725
-0.434 3.203 1.627 8415
-0.434 3.207 1.618 6377
-0.445 3.290 1.645 4710
-0.443 3.273 1.626 6204
-0.444 3.277 1.616 7870
-0.458 3.381 1.653 10289
-0.458 3.386 1.643 12548
-0.459 3.390 1.633 11085
-0.460 3.394 1.623 7326
-0.458 3.384 1.607 5176
-0.493 3.641 1.707 4401
-0.493 3.645 1.697 4810
-0.486 3.592 1.661 5263
-0.486 3.589 1.648 8358
-0.486 3.593 1.637 8112
-0.486 3.590 1.624 6820
-0.487 3.595 1.613 6734
-0.509 3.759 1.669 8403
-0.510 3.770 1.661 7132
-0.513 3.789 1.656 5089
-0.524 3.874 1.677 4428
-0.526 3.886 1.669 3960
-0.532 3.926 1.672 5986
-0.533 3.938 1.664 5751
-0.538 3.972 1.664 4742
-0.536 3.962 1.646 3848
-0.535 3.951 1.629 4571
-0.537 3.963 1.621 4575
-0.542 4.004 1.623 3801
-0.549 4.052 1.628 3383
-0.549 4.057 1.616 5137
-0.551 4.068 1.607 6461
-0.551 4.073 1.595 4418
-0.566 4.180 1.620 6325
-0.566 4.177 1.605 6972
-0.573 4.233 1.612 6513
-0.573 4.230 1.597 6260
-0.572 4.227 1.582 3779
-0.580 4.283 1.587 3299
-0.579 4.280 1.572 4446
-0.581 4.291 1.562 6052
-0.583 4.303 1.552 5584
-0.595 4.396 1.569 6323
-0.596 4.400 1.557 5266
-0.608 4.494 1.573 3249
-0.613 4.528 1.569 4360
-0.615 4.540 1.558 4285
-0.614 4.536 1.543 3988
-0.620 4.578 1.541 3722
-0.620 4.582 1.528 3465
-0.618 4.563 1.508 2421
-0.643 4.748 1.549 2776
-0.646 4.775 1.541 3857
-0.647 4.779 1.528 4417
-0.648 4.783 1.514 4135
-0.649 4.794 1.502 3250
-0.672 4.964 1.535 2813
-0.691 5.104 1.559 3302
-0.681 5.033 1.523 4161
-0.683 5.044 1.510 4340
-0.687 5.071 1.502 3168
-0.694 5.128 1.501 3127
-0.707 5.223 1.511 3612
-0.714 5.272 1.507 6044
-0.715 5.284 1.494 8078
-0.716 5.288 1.478 8315
-0.712 5.261 1.455 6877
-0.710 5.242 1.434 5386
-0.711 5.253 1.421 3866
-0.774 5.715 1.517 4115
-0.773 5.711 1.498 4156
-0.774 5.715 1.482 4078
-0.776 5.734 1.469 3351
-0.782 5.776 1.461 2528
-0.805 5.948 1.482 1658
-0.820 6.059 1.489 2086
-0.821 6.063 1.471 2547
-0.823 6.082 1.457 1798
-0.825 6.094 1.441 1130
-0.825 6.090 1.421 1487
-0.825 6.094 1.404 2171
-0.824 6.090 1.384 2382
-0.826 6.101 1.368 1976
-0.824 6.089 1.347 1332
-0.821 6.062 1.323 1340
-0.823 6.080 1.309 1083
-0.824 6.084 1.291 1154
-0.822 6.072 1.270 948
-0.809 5.975 1.234 901
-1.063 7.854 1.558 1243
-1.068 7.889 1.540 2218
-1.069 7.893 1.517 2406
-1.063 7.850 1.486 1931
-1.072 7.916 1.473 1949
-1.123 8.292 1.512 2491
-1.123 8.295 1.488 3262
-1.125 8.307 1.465 3219
-1.166 8.613 1.488 2406
-1.093 8.074 1.379 2067
-1.217 8.985 1.493 1573
-1.219 9.005 1.469 1580
-1.219 9.001 1.442 1251
-1.096 8.096 1.286 1764
-1.097 8.099 1.262 2801
-1.096 8.095 1.237 3382
-1.097 8.105 1.214 2922
-1.097 8.101 1.190 1740
-1.096 8.096 1.165 823
-1.098 8.107 1.142 519
-1.098 8.110 1.119 412
-1.098 8.112 1.095 261
-0.122 0.899 0.227 254
-0.123 0.907 0.225 301
-0.123 0.907 0.222 280
-0.758 5.600 0.304 309
-0.757 5.593 0.287 414
-0.757 5.593 0.271 524
-0.757 5.593 0.255 510
-0.757 5.594 0.238 428
-0.757 5.594 0.222 358
-0.756 5.586 0.205 515
-0.755 5.579 0.189 724
-0.754 5.571 0.173 820
-0.754 5.571 0.157 964
-0.754 5.571 0.140 1108
-0.753 5.563 0.124 978
-0.753 5.563 0.108 850
-0.752 5.555 0.092 811
-0.751 5.547 0.076 910
-0.751 5.547 0.059 1010
-0.751 5.547 0.043 1008
-0.752 5.554 0.027 1022
-0.753 5.562 0.010 860
-0.755 5.577 -0.006 752
-0.753 5.561 -0.022 764
-0.752 5.553 -0.038 812
-0.752 5.552 -0.054 690
-0.752 5.551 -0.070 568
-0.747 5.520 -0.085 653
-0.746 5.511 -0.101 820
-0.745 5.502 -0.117 823
-0.745 5.502 -0.133 837
-0.745 5.501 -0.149 581
-0.745 5.500 -0.165 326
-0.740 5.468 -0.179 351
-0.740 5.467 -0.195 414
-0.740 5.466 -0.211 533
-0.740 5.465 -0.227 652
-0.740 5.464 -0.243 587
-0.739 5.455 -0.258 543
-0.738 5.454 -0.274 432
-0.737 5.445 -0.289 328
-0.736 5.435 -0.305 308
-0.735 5.426 -0.320 312
-0.734 5.425 -0.336 312
-0.733 5.416 -0.351 528
-0.733 5.414 -0.367 751
-0.732 5.405 -0.382 740
-0.732 5.404 -0.397 730
-0.731 5.402 -0.413 475
-0.725 5.354 -0.424 301
-0.725 5.352 -0.440 301
-0.721 5.327 -0.452 287
-0.721 5.325 -0.468 274
-0.297 2.218 1.703 2734
-0.297 2.222 1.697 5469
-0.298 2.227 1.691 5469
-0.297 2.225 1.680 4682
-0.297 2.223 1.669 4034
-0.303 2.266 1.690 5191
-0.304 2.270 1.683 6856
-0.303 2.268 1.672 6868
-0.306 2.286 1.674 9681
-0.307 2.296 1.672 12941
-0.309 2.314 1.674 12114
-0.311 2.325 1.672 12158
-0.312 2.336 1.670 9959
-0.314 2.347 1.668 8226
-0.314 2.351 1.661 7297
-0.314 2.349 1.650 6433
-0.315 2.353 1.643 6193
-0.316 2.364 1.640 6432
-0.319 2.388 1.646 7153
-0.322 2.406 1.648 6683
-0.323 2.417 1.645 6367
-0.325 2.428 1.643 4359
-0.340 2.546 1.707 4772
-0.340 2.543 1.695 5401
-0.340 2.541 1.684 6256
-0.340 2.539 1.672 7498
-0.339 2.537 1.661 9027
-0.341 2.548 1.658 8502
-0.342 2.559 1.655 8282
-0.345 2.577 1.655 8431
-0.346 2.588 1.652 9202
-0.348 2.599 1.648 8603
-0.349 2.610 1.645 8161
-0.351 2.621 1.641 6540
-0.357 2.666 1.657 5534
-0.361 2.698 1.666 5065
-0.361 2.703 1.658 5355
-0.361 2.700 1.646 5041
-0.362 2.704 1.638 5944
-0.362 2.709 1.630 6846
-0.364 2.720 1.626 7773
-0.366 2.738 1.626 7210
-0.368 2.749 1.622 5241
-0.381 2.850 1.667 5250
-0.383 2.861 1.662 5984
-0.384 2.873 1.658 6019
-0.385 2.877 1.650 6085
-0.385 2.881 1.641 5463
-0.399 2.983 1.684 5400
-0.399 2.981 1.672 5386
-0.399 2.985 1.663 7840
-0.403 3.010 1.666 8805
-0.406 3.036 1.668 9669
-0.407 3.040 1.659 8044
-0.413 3.087 1.671 9954
-0.413 3.091 1.662 12698
-0.415 3.102 1.657 13568
-0.414 3.100 1.645 10197
-0.410 3.069 1.618 7014
-0.412 3.080 1.613 6011
-0.425 3.176 1.648 8472
-0.424 3.174 1.636 9245
-0.426 3.185 1.630 8265
-0.428 3.204 1.627 8223
-0.429 3.208 1.618 6319
-0.430 3.219 1.612 4602
-0.437 3.266 1.623 5215
-0.452 3.378 1.662 6379
-0.451 3.375 1.649 10894
-0.453 3.387 1.643 13068
-0.453 3.391 1.633 11282
-0.454 3.395 1.623 7108
-0.453 3.385 1.607 4987
-0.453 3.389 1.597 3819
-0.488 3.646 1.697 3970
-0.477 3.571 1.652 3804
-0.480 3.590 1.648 6728
-0.481 3.594 1.637 6713
-0.479 3.584 1.621 6466
-0.481 3.595 1.613 6449
-0.503 3.759 1.669 7798
-0.503 3.764 1.658 6586
-0.506 3.783 1.653 5267
-0.506 3.787 1.642 5194
-0.507 3.792 1.631 4316
-0.525 3.927 1.672 6490
-0.526 3.932 1.661 6139
-0.531 3.973 1.664 4031
-0.519 3.882 1.615 3812
-0.528 3.952 1.629 4550
-0.530 3.964 1.621 4843
-0.535 3.997 1.620 3535
-0.542 4.053 1.628 3341
-0.543 4.058 1.616 5790
-0.544 4.069 1.607 6977
-0.546 4.081 1.598 4476
-0.558 4.174 1.618 6456
-0.559 4.178 1.605 7363
-0.565 4.227 1.609 5932
-0.565 4.223 1.594 5839
-0.565 4.228 1.582 3320
-0.575 4.299 1.592 2698
-0.573 4.288 1.575 4390
-0.574 4.292 1.562 6462
-0.575 4.304 1.552 6342
-0.589 4.405 1.572 6162
-0.590 4.409 1.559 4820
-0.601 4.495 1.573 3147
-0.605 4.522 1.567 4197
-0.606 4.533 1.556 3971
-0.606 4.530 1.540 3708
-0.617 4.616 1.553 3960
-0.612 4.576 1.526 3743
-0.613 4.587 1.514 2566
-0.632 4.726 1.542 2510
-0.640 4.783 1.544 3634
-0.640 4.787 1.530 3829
-0.641 4.791 1.516 3481
-0.641 4.795 1.502 2911
-0.664 4.965 1.535 3008
-0.681 5.090 1.555 2915
-0.673 5.034 1.523 3475
-0.676 5.053 1.512 3844
-0.677 5.064 1.500 3224
-0.685 5.121 1.499 2293
-0.704 5.262 1.521 2285
-0.705 5.273 1.507 4511
-0.707 5.285 1.494 6644
-0.706 5.281 1.476 7614
-0.705 5.270 1.457 6897
-0.703 5.258 1.438 4449
-0.703 5.255 1.421 3621
-0.764 5.716 1.517 3912
-0.764 5.712 1.498 4354
-0.764 5.716 1.482 4235
-0.767 5.735 1.469 3425
-0.773 5.777 1.461 2657
-0.796 5.950 1.482 1846
-0.809 6.053 1.487 1964
-0.811 6.065 1.471 2349
-0.813 6.084 1.457 1635
-0.816 6.103 1.442 962
-0.814 6.091 1.421 1389
-0.815 6.095 1.404 2199
-0.814 6.091 1.384 2404
-0.816 6.102 1.368 2004
-0.813 6.083 1.346 1299
-0.812 6.071 1.325 1217
-0.916 6.852 1.458 1151
-0.814 6.085 1.291 1238
-0.813 6.081 1.272 1000
-0.799 5.976 1.234 840
-1.050 7.856 1.558 1137
-1.055 7.891 1.540 2073
-1.057 7.902 1.518 2298
-0.788 5.895 1.148 1680
-1.110 8.305 1.539 2024
-1.109 8.293 1.512 2609
-1.109 8.297 1.488 3406
-1.112 8.317 1.466 3595
-1.115 8.336 1.444 2626
-1.202 8.991 1.521 1616
-1.213 9.073 1.506 1609
-1.082 8.091 1.333 1824
-1.082 8.094 1.309 2032
-1.083 8.098 1.286 2266
-1.083 8.101 1.262 2748
-1.084 8.104 1.238 3319
-1.084 8.107 1.214 3557
-1.084 8.110 1.191 3133
-1.084 8.106 1.166 2200
-1.085 8.116 1.143 1223
-1.085 8.111 1.119 560
-0.120 0.899 0.229 256
-0.120 0.899 0.227 264
-0.121 0.907 0.225 311
-0.121 0.907 0.222 352
-0.120 0.900 0.219 283
-0.749 5.601 0.304 315
-0.749 5.602 0.287 420
-0.749 5.602 0.271 525
-0.748 5.595 0.255 507
-0.748 5.595 0.238 432
-0.748 5.595 0.222 374
-0.748 5.595 0.206 515
-0.746 5.580 0.189 684
-0.745 5.572 0.173 785
-0.745 5.572 0.157 943
-0.745 5.572 0.140 1102
-0.744 5.564 0.124 992
-0.744 5.564 0.108 894
-0.743 5.556 0.092 839
-0.742 5.548 0.076 862
-0.742 5.548 0.059 905
-0.742 5.548 0.043 921
-0.743 5.556 0.027 941
-0.743 5.555 0.011 820
-0.745 5.570 -0.006 721
-0.744 5.562 -0.022 694
-0.744 5.562 -0.038 667
-0.744 5.561 -0.054 583
-0.744 5.561 -0.071 499
-0.737 5.513 -0.085 596
-0.737 5.512 -0.101 752
-0.736 5.504 -0.117 798
-0.736 5.503 -0.133 845
-0.736 5.502 -0.149 633
-0.735 5.493 -0.164 423
-0.734 5.492 -0.180 397
-0.731 5.468 -0.195 401
-0.732 5.475 -0.212 506
-0.732 5.474 -0.227 612
-0.731 5.465 -0.243 538
-0.730 5.456 -0.258 484
-0.729 5.455 -0.274 381
-0.728 5.446 -0.289 293
-0.726 5.429 -0.304 277
-0.724 5.412 -0.319 300
-0.723 5.411 -0.334 300
-0.724 5.417 -0.351 414
-0.724 5.416 -0.367 532
-0.724 5.414 -0.382 517
-0.724 5.413 -0.398 501
-0.724 5.411 -0.414 339
-0.289 2.218 1.703 2049
-0.290 2.223 1.697 4099
-0.290 2.227 1.691 4099
-0.291 2.232 1.684 3764
-0.291 2.230 1.673 3453
-0.295 2.260 1.685 5645
-0.295 2.265 1.678 8033
-0.296 2.269 1.672 8111
-0.298 2.287 1.674 10750
-0.300 2.297 1.672 13975
-0.302 2.315 1.674 13078
-0.303 2.326 1.672 13374
-0.304 2.330 1.666 11035
-0.306 2.348 1.668 9192
-0.306 2.346 1.656 7448
-0.306 2.343 1.645 5925
-0.306 2.348 1.639 5754
-0.308 2.365 1.640 6309
-0.312 2.390 1.646 7413
-0.313 2.401 1.644 6864
-0.314 2.411 1.641 6440
-0.315 2.416 1.634 4482
-0.332 2.547 1.707 5141
-0.332 2.545 1.695 5515
-0.331 2.536 1.680 6320
-0.330 2.533 1.668 8201
-0.331 2.538 1.661 10178
-0.332 2.549 1.658 9486
-0.334 2.560 1.655 9091
-0.336 2.578 1.655 8497
-0.338 2.589 1.652 8627
-0.339 2.600 1.648 8001
-0.340 2.611 1.645 7556
-0.342 2.622 1.641 5607
-0.350 2.681 1.665 5402
-0.352 2.699 1.666 6226
-0.352 2.704 1.658 6444
-0.352 2.701 1.646 5732
-0.353 2.706 1.638 6549
-0.353 2.710 1.630 7367
-0.355 2.721 1.626 8059
-0.357 2.739 1.626 7170
-0.359 2.757 1.626 5047
-0.372 2.851 1.667 4915
-0.374 2.869 1.666 5653
-0.375 2.874 1.658 5931
-0.375 2.878 1.650 6208
-0.376 2.883 1.641 5854
-0.388 2.977 1.681 5450
-0.389 2.982 1.672 4905
-0.390 2.993 1.667 7046
-0.394 3.019 1.669 8142
-0.397 3.044 1.671 8965
-0.397 3.041 1.659 7862
-0.402 3.081 1.668 10485
-0.402 3.085 1.659 14044
-0.404 3.097 1.654 14798
-0.404 3.101 1.645 10935
-0.401 3.077 1.622 7389
-0.403 3.089 1.616 6663
-0.412 3.164 1.642 9017
-0.411 3.154 1.626 10213
-0.415 3.179 1.627 7854
-0.419 3.212 1.631 7632
-0.419 3.216 1.622 6213
-0.420 3.221 1.612 4870
-0.424 3.254 1.616 4477
-0.440 3.372 1.659 6810
-0.440 3.377 1.649 11774
-0.441 3.381 1.639 13523
-0.442 3.392 1.633 11193
-0.443 3.397 1.623 6523
-0.442 3.387 1.607 4480
-0.443 3.398 1.600 3456
-0.476 3.647 1.697 3076
-0.464 3.558 1.646 2967
-0.467 3.584 1.645 5091
-0.468 3.588 1.634 5740
-0.467 3.586 1.621 6494
-0.468 3.590 1.610 6190
-0.489 3.754 1.666 7264
-0.491 3.766 1.658 6078
-0.492 3.777 1.650 5536
-0.494 3.789 1.642 6540
-0.495 3.793 1.631 5295
-0.512 3.929 1.672 6525
-0.512 3.926 1.658 6651
-0.509 3.901 1.635 5025
-0.507 3.891 1.618 5152
-0.515 3.947 1.626 4743
-0.517 3.966 1.621 4956
-0.520 3.992 1.617 3258
-0.529 4.055 1.628 3712
-0.529 4.059 1.616 6291
-0.530 4.064 1.604 6848
-0.530 4.068 1.592 4334
-0.544 4.176 1.618 6373
-0.545 4.180 1.605 7229
-0.546 4.191 1.596 5670
-0.550 4.218 1.591 5432
-0.549 4.207 1.574 3361
-0.563 4.315 1.597 2530
-0.561 4.305 1.580 4463
-0.560 4.294 1.562 6682
-0.561 4.306 1.552 7091
-0.563 4.317 1.542 6382
-0.576 4.418 1.561 5913
-0.578 4.430 1.551 4306
-0.590 4.524 1.567 3913
-0.589 4.520 1.551 3558
-0.602 4.614 1.566 3284
-0.603 4.626 1.555 4092
-0.598 4.585 1.528 3747
-0.599 4.597 1.517 2789
-0.614 4.706 1.535 2768
-0.624 4.785 1.544 3250
-0.626 4.804 1.534 3235
-0.632 4.846 1.531 3533
-0.630 4.835 1.513 2652
-0.649 4.975 1.537 2738
-0.655 5.024 1.536 2513
-0.643 4.930 1.494 2943
-0.660 5.063 1.515 3465
-0.660 5.059 1.498 3319
-0.697 5.344 1.558 2726
-0.698 5.355 1.545 2916
-0.701 5.375 1.533 3787
-0.700 5.371 1.516 4902
-0.690 5.291 1.478 5763
-0.689 5.287 1.461 4174
-0.725 5.558 1.512 4271
-0.721 5.531 1.489 3455
-0.746 5.718 1.517 3316
-0.745 5.715 1.498 4586
-0.746 5.719 1.482 4375
-0.748 5.738 1.469 3476
-0.756 5.795 1.464 2878
-0.776 5.952 1.482 1889
-0.775 5.941 1.461 1689
-0.791 6.067 1.471 1762
-0.796 6.102 1.460 1121
-0.816 6.259 1.476 1251
-0.795 6.102 1.423 1171
-0.795 6.098 1.404 1991
-0.795 6.101 1.386 2178
-0.796 6.105 1.368 1891
-0.876 6.717 1.472 1548
-0.821 6.297 1.369 1377
-0.893 6.848 1.457 1135
-0.794 6.088 1.291 1294
-0.898 6.886 1.422 1078
-0.765 5.870 1.214 1036
-0.766 5.874 1.197 1333
-1.029 7.894 1.540 1799
-1.031 7.906 1.518 2018
-0.768 5.890 1.147 1878
-0.768 5.893 1.129 2156
-1.082 8.297 1.512 2573
-1.083 8.309 1.489 3453
-1.085 8.320 1.466 3957
-1.087 8.340 1.444 2924
-1.149 8.817 1.493 1584
-1.212 9.294 1.539 1900
-1.211 9.290 1.511 1815
-1.211 9.287 1.482 1763
-1.210 9.283 1.454 1477
-1.055 8.089 1.260 1264
-1.216 9.329 1.405 1556
-1.216 9.325 1.377 1508
-1.214 9.313 1.347 1100
-1.214 9.308 1.319 940
-1.214 9.312 1.292 678
-1.214 9.315 1.264 303
-0.117 0.899 0.232 355
-0.117 0.899 0.229 421
-0.117 0.899 0.227 426
-0.117 0.900 0.224 409
-0.117 0.900 0.222 416
-0.118 0.908 0.220 395
-0.117 0.900 0.217 284
-0.758 5.813 0.633 340
-0.758 5.814 0.616 401
-0.758 5.816 0.599 309
-0.745 5.713 0.491 288
-0.744 5.706 0.473 343
-0.745 5.715 0.457 322
-0.745 5.716 0.441 260
-0.743 5.701 0.423 267
-0.743 5.702 0.407 313
-0.743 5.703 0.390 276
-0.743 5.696 0.373 280
-0.742 5.688 0.356 329
-0.742 5.689 0.339 294
-0.732 5.611 0.320 251
-0.731 5.604 0.304 322
-0.730 5.596 0.287 433
-0.730 5.597 0.271 545
-0.730 5.597 0.255 522
-0.731 5.605 0.238 434
-0.731 5.606 0.222 379
-0.731 5.606 0.206 498
-0.729 5.590 0.189 635
-0.727 5.575 0.173 692
-0.727 5.575 0.157 871
-0.727 5.575 0.140 1050
-0.727 5.575 0.124 948
-0.726 5.567 0.108 866
-0.725 5.559 0.092 826
-0.724 5.551 0.076 827
-0.724 5.551 0.059 858
-0.724 5.550 0.043 842
-0.724 5.550 0.027 826
-0.725 5.558 0.011 706
-0.726 5.565 -0.006 610
-0.725 5.565 -0.022 568
-0.724 5.556 -0.038 528
-0.724 5.556 -0.054 489
-0.722 5.539 -0.070 457
-0.720 5.523 -0.085 508
-0.719 5.515 -0.101 594
-0.718 5.506 -0.117 659
-0.718 5.505 -0.133 728
-0.718 5.504 -0.149 542
-0.718 5.504 -0.165 355
-0.716 5.495 -0.180 305
-0.713 5.470 -0.195 303
-0.713 5.469 -0.211 402
-0.713 5.468 -0.227 500
-0.712 5.459 -0.242 455
-0.712 5.458 -0.258 420
-0.711 5.457 -0.274 341
-0.710 5.448 -0.289 273
-0.709 5.439 -0.305 257
-0.708 5.427 -0.351 394
-0.707 5.426 -0.367 552
-0.706 5.416 -0.382 533
-0.705 5.407 -0.397 524
-0.706 5.413 -0.414 335
-0.695 5.330 -0.452 252
-0.696 5.336 -0.469 261
-0.285 2.219 1.703 1623
-0.286 2.224 1.697 3247
-0.286 2.228 1.691 3247
-0.287 2.233 1.684 3311
-0.289 2.250 1.687 3548
-0.290 2.261 1.685 5991
-0.291 2.265 1.678 8500
-0.292 2.270 1.672 8586
-0.293 2.281 1.670 10946
-0.295 2.298 1.672 13940
-0.297 2.315 1.674 13035
-0.299 2.326 1.672 13458
-0.299 2.331 1.666 11198
-0.302 2.348 1.668 9472
-0.301 2.346 1.656 7261
-0.300 2.337 1.641 5464
-0.302 2.348 1.639 5312
-0.305 2.373 1.645 6086
-0.307 2.390 1.646 7397
-0.308 2.401 1.644 6818
-0.310 2.412 1.641 6308
-0.325 2.529 1.706 4562
-0.327 2.547 1.707 5157
-0.326 2.538 1.691 5467
-0.325 2.530 1.676 6353
-0.326 2.534 1.668 8494
-0.326 2.538 1.661 10636
-0.328 2.550 1.658 9790
-0.329 2.561 1.655 9193
-0.330 2.572 1.651 8041
-0.333 2.590 1.652 7531
-0.334 2.601 1.648 6954
-0.336 2.612 1.645 6582
-0.338 2.630 1.645 4812
-0.344 2.675 1.661 5743
-0.346 2.693 1.662 6931
-0.347 2.698 1.654 6940
-0.347 2.702 1.646 6017
-0.348 2.706 1.638 6733
-0.349 2.717 1.634 7473
-0.350 2.722 1.626 7906
-0.353 2.747 1.630 6854
-0.356 2.772 1.633 4884
-0.365 2.845 1.663 4426
-0.369 2.870 1.666 5095
-0.369 2.875 1.658 5563
-0.371 2.886 1.653 6072
-0.371 2.890 1.645 5993
-0.383 2.978 1.681 5249
-0.384 2.990 1.676 4415
-0.385 2.994 1.667 6310
-0.388 3.019 1.669 7424
-0.391 3.045 1.671 8066
-0.391 3.042 1.659 7465
-0.396 3.082 1.668 10575
-0.396 3.086 1.659 14719
-0.398 3.098 1.654 15279
-0.398 3.102 1.645 11187
-0.396 3.085 1.625 7525
-0.398 3.096 1.620 7115
-0.405 3.150 1.635 9719
-0.403 3.140 1.619 11673
-0.403 3.138 1.606 8935
-0.413 3.213 1.631 6970
-0.413 3.217 1.622 6016
-0.414 3.222 1.612 4907
-0.418 3.254 1.616 4218
-0.433 3.373 1.659 6766
-0.434 3.377 1.649 11699
-0.434 3.382 1.639 13202
-0.436 3.393 1.633 10425
-0.436 3.398 1.623 5646
-0.449 3.495 1.654 3903
-0.438 3.406 1.603 3227
-0.464 3.612 1.681 2688
-0.444 3.458 1.602 2966
-0.460 3.578 1.642 4182
-0.461 3.589 1.634 5139
-0.461 3.586 1.621 6395
-0.461 3.591 1.610 5924
-0.482 3.755 1.666 6791
-0.483 3.759 1.655 5647
-0.485 3.778 1.650 5585
-0.487 3.790 1.642 7117
-0.488 3.801 1.634 5740
-0.505 3.930 1.672 6208
-0.504 3.920 1.655 7126
-0.501 3.902 1.635 6449
-0.501 3.899 1.621 6150
-0.505 3.933 1.621 5214
-0.509 3.959 1.618 4938
-0.512 3.985 1.615 3079
-0.521 4.056 1.628 3956
-0.522 4.060 1.616 5984
-0.521 4.057 1.601 6087
-0.522 4.061 1.590 4073
-0.536 4.177 1.618 6093
-0.537 4.181 1.605 6856
-0.526 4.096 1.562 6369
-0.541 4.212 1.589 5240
-0.540 4.201 1.571 3469
-0.540 4.205 1.559 2729
-0.554 4.313 1.582 4513
-0.552 4.295 1.562 6397
-0.552 4.299 1.550 6988
-0.555 4.318 1.542 6693
-0.568 4.419 1.561 6514
-0.568 4.423 1.549 5884
-0.569 4.428 1.536 3995
-0.581 4.521 1.551 3151
-0.593 4.616 1.566 2954
-0.594 4.627 1.555 3890
-0.590 4.594 1.530 3620
-0.592 4.605 1.519 3004
-0.605 4.707 1.535 2913
-0.602 4.688 1.515 3231
-0.621 4.836 1.543 2960
-0.623 4.847 1.531 3856
-0.622 4.844 1.515 2931
-0.639 4.976 1.537 2272
-0.647 5.033 1.538 2299
-0.633 4.931 1.494 2973
-0.650 5.064 1.515 3253
-0.650 5.060 1.498 3208
-0.687 5.345 1.558 3224
-0.671 5.227 1.511 4224
-0.673 5.239 1.497 5421
-0.674 5.251 1.484 6285
-0.676 5.262 1.471 8345
-0.674 5.251 1.451 7224
-0.675 5.254 1.436 4999
-0.713 5.548 1.492 4257
-0.712 5.544 1.474 3193
-0.733 5.709 1.497 4559
-0.735 5.720 1.482 4036
-0.738 5.747 1.470 3429
-0.746 5.804 1.466 2691
-0.766 5.961 1.484 1808
-0.767 5.973 1.468 1480
-0.779 6.061 1.470 1154
-0.804 6.257 1.494 953
-0.804 6.261 1.476 1485
-0.804 6.257 1.456 1181
-0.783 6.099 1.404 1670
-0.784 6.103 1.386 1835
-0.783 6.099 1.366 1698
-0.862 6.711 1.470 1758
-0.809 6.298 1.369 1485
-0.883 6.872 1.461 1085
-0.883 6.876 1.441 1249
-0.885 6.888 1.422 1141
-0.755 5.880 1.215 1094
-0.755 5.875 1.197 1401
-1.014 7.896 1.540 1442
-1.017 7.915 1.520 1600
-0.757 5.892 1.147 1894
-0.757 5.895 1.129 2166
-1.067 8.307 1.514 2401
-1.068 8.311 1.489 3288
-1.070 8.330 1.467 3922
-1.072 8.342 1.444 2997
-1.038 8.081 1.379 1864
-1.039 8.085 1.355 2376
-1.039 8.089 1.332 2623
-1.039 8.092 1.308 2906
-1.040 8.095 1.285 3220
-1.040 8.099 1.261 3086
-1.041 8.102 1.237 2300
-1.198 9.327 1.377 1810
-1.198 9.323 1.348 1331
-1.196 9.311 1.319 1074
-1.196 9.314 1.292 721
-1.198 9.325 1.265 306
-0.116 0.907 0.235 288
-0.115 0.899 0.232 397
-0.116 0.899 0.229 499
-0.116 0.900 0.227 544
-0.116 0.900 0.224 576
-0.117 0.908 0.222 534
-0.116 0.900 0.219 403
-0.116 0.901 0.217 295
-0.750 5.836 0.652 285
-0.748 5.822 0.634 481
-0.748 5.824 0.617 575
-0.748 5.825 0.600 465
-0.748 5.826 0.583 250
-0.734 5.715 0.491 372
-0.733 5.708 0.473 467
-0.734 5.717 0.457 444
-0.733 5.710 0.440 351
-0.733 5.703 0.423 355
-0.733 5.703 0.407 425
-0.733 5.704 0.390 376
-0.732 5.697 0.373 382
-0.732 5.698 0.356 437
-0.731 5.690 0.339 392
-0.720 5.605 0.304 297
-0.720 5.606 0.287 408
-0.720 5.606 0.271 519
-0.719 5.598 0.255 496
-0.720 5.607 0.238 422
-0.724 5.638 0.222 393
-0.721 5.615 0.206 472
-0.719 5.599 0.189 562
-0.716 5.576 0.173 599
-0.716 5.576 0.157 772
-0.716 5.576 0.140 946
-0.716 5.576 0.124 839
-0.715 5.568 0.108 742
-0.714 5.560 0.092 702
-0.713 5.552 0.076 737
-0.713 5.552 0.059 793
-0.713 5.552 0.043 812
-0.713 5.551 0.027 831
-0.714 5.559 0.011 731
-0.715 5.566 -0.006 643
-0.715 5.566 -0.022 554
-0.715 5.565 -0.038 465
-0.714 5.557 -0.054 419
-0.711 5.533 -0.069 404
-0.709 5.517 -0.085 439
-0.709 5.516 -0.101 492
-0.707 5.507 -0.117 597
-0.707 5.507 -0.133 703
-0.707 5.506 -0.149 560
-0.707 5.505 -0.165 417
-0.706 5.496 -0.180 316
-0.702 5.464 -0.195 259
-0.703 5.471 -0.211 332
-0.703 5.470 -0.227 414
-0.702 5.469 -0.243 391
-0.702 5.468 -0.259 371
-0.702 5.466 -0.275 290
-0.694 5.404 -0.365 259
-0.694 5.402 -0.381 256
-0.695 5.408 -0.397 253
-0.268 2.143 1.648 1536
-0.269 2.148 1.642 3073
-0.269 2.152 1.636 3073
-0.280 2.240 1.689 3411
-0.282 2.251 1.687 4382
-0.283 2.262 1.685 6713
-0.284 2.266 1.678 9215
-0.284 2.271 1.672 9317
-0.286 2.282 1.670 11280
-0.287 2.292 1.668 13783
-0.290 2.316 1.674 12817
-0.291 2.327 1.672 13515
-0.292 2.332 1.666 11327
-0.295 2.356 1.672 9879
-0.296 2.367 1.670 7245
-0.293 2.338 1.641 5121
-0.303 2.422 1.686 4941
-0.297 2.374 1.645 6048
-0.300 2.398 1.651 7491
-0.301 2.402 1.644 6853
-0.301 2.406 1.637 6216
-0.316 2.524 1.702 4949
-0.319 2.548 1.707 5389
-0.317 2.533 1.687 5674
-0.316 2.524 1.671 6698
-0.317 2.535 1.668 9048
-0.318 2.539 1.661 11415
-0.319 2.551 1.658 10393
-0.321 2.562 1.655 9648
-0.322 2.573 1.651 7701
-0.324 2.591 1.652 6296
-0.327 2.609 1.652 5711
-0.328 2.620 1.649 5420
-0.330 2.638 1.649 4322
-0.335 2.676 1.661 6672
-0.336 2.681 1.654 8243
-0.338 2.699 1.654 7700
-0.338 2.703 1.646 6449
-0.339 2.707 1.638 7025
-0.340 2.719 1.634 7722
-0.342 2.730 1.630 7741
-0.345 2.755 1.634 6470
-0.349 2.787 1.641 5437
-0.352 2.812 1.644 4140
-0.359 2.871 1.666 4255
-0.361 2.883 1.662 4997
-0.361 2.887 1.653 5829
-0.362 2.891 1.645 6053
-0.363 2.896 1.637 5177
-0.368 2.942 1.650 4230
-0.376 3.002 1.671 5681
-0.370 2.958 1.637 6956
-0.370 2.955 1.625 7284
-0.381 3.043 1.659 6922
-0.385 3.076 1.664 10996
-0.387 3.087 1.659 15846
-0.388 3.099 1.654 16076
-0.389 3.103 1.645 11613
-0.386 3.086 1.625 7781
-0.388 3.098 1.620 7911
-0.392 3.130 1.624 11523
-0.392 3.135 1.615 14025
-0.393 3.139 1.606 10857
-0.402 3.214 1.631 6432
-0.403 3.219 1.622 5976
-0.403 3.223 1.612 5212
-0.409 3.270 1.623 4356
-0.422 3.367 1.656 6641
-0.422 3.372 1.646 11424
-0.424 3.383 1.639 12665
-0.424 3.387 1.630 9516
-0.426 3.406 1.626 4791
-0.437 3.490 1.651 3879
-0.451 3.602 1.688 3717
-0.452 3.614 1.681 3632
-0.432 3.452 1.599 3587
-0.434 3.463 1.592 4073
-0.450 3.598 1.637 4465
-0.450 3.595 1.624 6095
-0.463 3.701 1.656 6260
-0.470 3.756 1.666 6637
-0.471 3.761 1.655 5571
-0.473 3.780 1.650 6207
-0.475 3.791 1.642 8166
-0.476 3.803 1.634 6257
-0.490 3.917 1.666 5716
-0.490 3.914 1.652 8037
-0.489 3.904 1.635 8339
-0.489 3.908 1.624 7506
-0.493 3.934 1.621 6275
-0.496 3.961 1.618 5067
-0.498 3.980 1.612 3036
-0.509 4.065 1.630 4423
-0.508 4.055 1.613 5467
-0.506 4.044 1.596 5809
-0.507 4.048 1.584 4583
-0.522 4.171 1.615 5805
-0.515 4.116 1.582 6949
-0.513 4.098 1.562 6731
-0.526 4.198 1.584 5176
-0.526 4.203 1.571 3733
-0.528 4.214 1.562 3390
-0.530 4.233 1.555 4775
-0.536 4.282 1.557 5999
-0.538 4.301 1.550 6373
-0.541 4.320 1.542 6455
-0.554 4.421 1.561 6803
-0.554 4.425 1.549 7790
-0.555 4.429 1.536 5754
-0.555 4.433 1.523 3962
-0.558 4.460 1.517 3258
-0.576 4.599 1.546 3395
-0.575 4.596 1.530 3548
-0.577 4.607 1.519 3342
-0.589 4.701 1.533 2990
-0.587 4.690 1.515 3825
-0.589 4.702 1.503 2973
-0.606 4.842 1.529 4006
-0.609 4.861 1.519 3353
-0.611 4.880 1.509 2053
-0.630 5.035 1.538 2359
-0.618 4.933 1.494 2740
-0.634 5.066 1.515 2942
-0.634 5.062 1.498 3060
-0.670 5.355 1.560 3747
-0.671 5.359 1.545 4801
-0.672 5.370 1.531 4938
-0.674 5.382 1.517 6237
-0.673 5.378 1.500 6711
-0.674 5.382 1.484 5729
-0.674 5.386 1.468 5309
-0.696 5.558 1.494 4530
-0.694 5.547 1.474 3840
-0.715 5.711 1.497 4672
-0.715 5.715 1.480 3739
-0.720 5.749 1.470 3571
-0.727 5.807 1.466 2432
-0.749 5.979 1.487 1687
-0.750 5.991 1.472 1613
-0.750 5.987 1.453 878
-0.784 6.259 1.494 1173
-0.784 6.263 1.476 1733
-0.784 6.259 1.456 1548
-0.764 6.102 1.404 1157
-0.763 6.098 1.384 1338
-0.820 6.548 1.457 1495
-0.840 6.713 1.470 1912
-0.789 6.301 1.369 1505
-0.861 6.875 1.461 1067
-0.733 5.852 1.245 1300
-0.734 5.863 1.229 1218
-0.865 6.910 1.405 1058
-0.736 5.877 1.197 1383
-0.735 5.873 1.178 1554
-0.735 5.868 1.160 1589
-0.737 5.886 1.145 1899
-0.737 5.889 1.128 2061
-1.040 8.310 1.514 2023
-1.042 8.322 1.491 3109
-1.043 8.333 1.467 3771
-1.045 8.345 1.444 2892
-1.106 8.830 1.494 1997
-1.165 9.308 1.540 2341
-1.164 9.296 1.511 2399
-1.163 9.293 1.482 2047
-1.013 8.091 1.283 1956
-1.013 8.094 1.260 2440
-1.014 8.097 1.236 2542
-1.015 8.108 1.213 2378
-1.016 8.111 1.190 2116
-1.016 8.114 1.166 1620
-1.016 8.117 1.142 1010
-1.017 8.120 1.119 500
-0.113 0.899 0.237 300
-0.114 0.907 0.235 395
-0.113 0.899 0.232 533
-0.113 0.900 0.229 681
-0.113 0.900 0.227 711
-0.113 0.900 0.224 699
-0.114 0.908 0.222 667
-0.113 0.901 0.219 532
-0.732 5.845 0.670 397
-0.731 5.839 0.652 453
-0.729 5.825 0.634 702
-0.729 5.826 0.617 825
-0.730 5.827 0.600 657
-0.730 5.829 0.583 342
-0.716 5.716 0.507 289
-0.715 5.709 0.490 529
-0.715 5.710 0.473 649
-0.715 5.711 0.457 605
-0.715 5.712 0.440 467
-0.714 5.705 0.423 491
-0.714 5.706 0.407 602
-0.714 5.706 0.390 554
-0.714 5.699 0.373 540
-0.714 5.700 0.356 583
-0.713 5.693 0.339 539
-0.713 5.693 0.323 368
-0.701 5.600 0.303 263
-0.702 5.608 0.287 348
-0.702 5.608 0.271 434
-0.702 5.609 0.255 409
-0.702 5.609 0.238 352
-0.706 5.641 0.222 376
-0.704 5.625 0.206 418
-0.701 5.602 0.189 469
-0.700 5.594 0.173 463
-0.699 5.586 0.157 599
-0.699 5.586 0.140 744
-0.698 5.578 0.124 647
-0.697 5.570 0.108 560
-0.696 5.562 0.092 516
-0.695 5.554 0.076 523
-0.695 5.554 0.059 567
-0.695 5.554 0.043 577
-0.695 5.554 0.027 586
-0.696 5.561 0.011 528
-0.697 5.569 -0.006 483
-0.697 5.568 -0.022 423
-0.697 5.568 -0.038 364
-0.696 5.559 -0.054 354
-0.694 5.543 -0.070 356
-0.692 5.527 -0.085 358
-0.691 5.518 -0.101 374
-0.691 5.517 -0.117 448
-0.691 5.517 -0.133 522
-0.690 5.508 -0.149 425
-0.689 5.507 -0.165 333
-0.688 5.498 -0.180 253
-0.686 5.480 -0.227 287
-0.685 5.471 -0.243 257
-0.679 5.426 -0.399 252
-0.265 2.144 1.648 1500
-0.265 2.148 1.642 3001
-0.266 2.152 1.636 3001
-0.277 2.240 1.689 3374
-0.277 2.245 1.682 4566
-0.279 2.262 1.685 6641
-0.280 2.267 1.678 8932
-0.280 2.271 1.672 9037
-0.282 2.282 1.670 10606
-0.283 2.293 1.668 12653
-0.286 2.317 1.674 11711
-0.287 2.328 1.672 12621
-0.289 2.339 1.670 10672
-0.293 2.370 1.681 10005
-0.293 2.374 1.674 7445
-0.298 2.418 1.693 5180
-0.298 2.416 1.682 5137
-0.294 2.381 1.649 6107
-0.295 2.392 1.646 7238
-0.297 2.403 1.644 6493
-0.297 2.407 1.637 5748
-0.312 2.524 1.702 5001
-0.315 2.549 1.707 5300
-0.313 2.533 1.687 5612
-0.312 2.524 1.671 6756
-0.313 2.536 1.668 8999
-0.314 2.540 1.661 11341
-0.314 2.544 1.654 10212
-0.315 2.556 1.650 9359
-0.318 2.573 1.651 6997
-0.320 2.591 1.652 5149
-0.322 2.609 1.652 4603
-0.323 2.620 1.649 4410
-0.327 2.645 1.653 4243
-0.330 2.670 1.657 7153
-0.330 2.674 1.650 8952
-0.332 2.692 1.650 7945
-0.334 2.704 1.646 6455
-0.334 2.708 1.638 6966
-0.336 2.719 1.634 7629
-0.337 2.730 1.630 7345
-0.343 2.776 1.645 6121
-0.344 2.787 1.641 5651
-0.346 2.805 1.641 4548
-0.353 2.858 1.659 3665
-0.356 2.883 1.662 4460
-0.357 2.895 1.657 5425
-0.357 2.892 1.645 5760
-0.358 2.896 1.637 5253
-0.359 2.908 1.632 4530
-0.364 2.947 1.642 5687
-0.365 2.958 1.637 7730
-0.365 2.956 1.625 8145
-0.365 2.960 1.616 6963
-0.380 3.077 1.664 11231
-0.381 3.088 1.659 16149
-0.383 3.099 1.654 16046
-0.382 3.097 1.641 11466
-0.381 3.087 1.625 7601
-0.383 3.105 1.623 8083
-0.387 3.131 1.624 12127
-0.387 3.135 1.615 14752
-0.388 3.140 1.606 11515
-0.397 3.215 1.631 6364
-0.397 3.219 1.622 5827
-0.398 3.224 1.612 5256
-0.405 3.278 1.626 4934
-0.414 3.354 1.649 6646
-0.416 3.372 1.646 11007
-0.418 3.384 1.639 12042
-0.418 3.388 1.630 8779
-0.421 3.407 1.626 4101
-0.442 3.577 1.689 3888
-0.445 3.603 1.688 3856
-0.446 3.615 1.681 3958
-0.427 3.460 1.602 3805
-0.429 3.471 1.595 4150
-0.445 3.606 1.640 4117
-0.444 3.596 1.624 5761
-0.456 3.695 1.653 7227
-0.464 3.757 1.666 6352
-0.464 3.762 1.655 5368
-0.467 3.780 1.650 6473
-0.468 3.792 1.642 8648
-0.470 3.804 1.634 6457
-0.483 3.910 1.663 5352
-0.482 3.908 1.649 8262
-0.482 3.905 1.635 9162
-0.483 3.909 1.624 8018
-0.486 3.935 1.621 6818
-0.487 3.947 1.612 5009
-0.484 3.922 1.590 3568
-0.502 4.066 1.630 4567
-0.499 4.041 1.608 4996
-0.498 4.038 1.593 6048
-0.500 4.049 1.584 5289
-0.515 4.172 1.615 5477
-0.508 4.117 1.582 6667
-0.505 4.091 1.559 6274
-0.518 4.199 1.584 5129
-0.518 4.196 1.569 3799
-0.520 4.215 1.562 3814
-0.523 4.234 1.555 6085
-0.524 4.246 1.545 6701
-0.530 4.294 1.547 5692
-0.533 4.321 1.542 5726
-0.545 4.415 1.559 6325
-0.545 4.419 1.546 8368
-0.547 4.430 1.536 6632
-0.549 4.449 1.528 4902
-0.551 4.461 1.517 3534
-0.567 4.592 1.543 3046
-0.568 4.604 1.532 3262
-0.569 4.608 1.519 3306
-0.579 4.687 1.528 2883
-0.579 4.691 1.515 4068
-0.581 4.703 1.503 3065
-0.598 4.843 1.529 3752
-0.599 4.854 1.517 3288
-0.603 4.888 1.511 2117
-0.622 5.036 1.538 2369
-0.608 4.927 1.491 2456
-0.626 5.067 1.515 2710
-0.629 5.094 1.506 3158
-0.661 5.356 1.560 3656
-0.661 5.352 1.543 4708
-0.662 5.364 1.529 5092
-0.665 5.383 1.517 6625
-0.664 5.380 1.500 7199
-0.664 5.376 1.482 6231
-0.666 5.395 1.470 5455
-0.686 5.559 1.494 4293
-0.686 5.555 1.476 3966
-0.705 5.712 1.497 4569
-0.706 5.716 1.480 3341
-0.710 5.750 1.470 3523
-0.710 5.754 1.454 2172
-0.731 5.919 1.474 1755
-0.742 6.007 1.475 1867
-0.743 6.019 1.459 1092
-0.773 6.261 1.494 1198
-0.773 6.264 1.476 1668
-0.774 6.268 1.457 1603
-0.773 6.264 1.437 1207
-0.809 6.553 1.478 1282
-0.775 6.280 1.402 1507
-0.829 6.715 1.470 1828
-0.778 6.302 1.369 1320
-0.721 5.843 1.261 1201
-0.723 5.854 1.245 1721
-0.723 5.857 1.228 1499
-0.724 5.868 1.212 1047
-0.725 5.871 1.195 1455
-0.725 5.874 1.178 1714
-0.725 5.869 1.160 1700
-0.726 5.880 1.144 1820
-0.727 5.890 1.128 1852
-0.995 8.056 1.471 1763
-1.028 8.324 1.491 2749
-1.029 8.335 1.467 3337
-1.030 8.347 1.444 2574
-1.090 8.832 1.494 2048
-1.149 9.310 1.540 2279
-1.148 9.298 1.511 2365
-1.147 9.295 1.482 1983
-1.091 8.839 1.390 1878
-1.153 9.341 1.433 2054
-1.153 9.337 1.405 2464
-1.153 9.341 1.378 2333
-1.153 9.336 1.349 1625
-1.150 9.317 1.319 1154
-1.151 9.328 1.293 731
-1.152 9.331 1.265 348
-0.111 0.899 0.237 337
-0.112 0.907 0.235 501
-0.111 0.900 0.232 622
-0.111 0.900 0.229 693
-0.111 0.900 0.227 755
-0.111 0.900 0.224 734
-0.111 0.901 0.222 617
-0.111 0.901 0.219 520
-0.722 5.846 0.670 497
-0.722 5.848 0.653 570
-0.720 5.834 0.635 842
-0.719 5.827 0.617 972
-0.720 5.829 0.600 781
-0.721 5.838 0.584 432
-0.715 5.793 0.546 292
-0.706 5.717 0.507 375
-0.705 5.710 0.490 658
-0.705 5.711 0.473 786
-0.705 5.712 0.457 705
-0.705 5.713 0.440 554
-0.704 5.706 0.423 634
-0.705 5.707 0.407 780
-0.705 5.708 0.390 719
-0.705 5.708 0.373 640
-0.705 5.709 0.357 626
-0.704 5.702 0.340 589
-0.703 5.694 0.323 421
-0.705 5.711 0.307 285
-0.692 5.609 0.287 285
-0.692 5.609 0.271 368
-0.693 5.610 0.255 353
-0.693 5.610 0.238 299
-0.696 5.642 0.222 316
-0.696 5.634 0.206 347
-0.693 5.611 0.189 367
-0.691 5.595 0.173 353
-0.690 5.587 0.157 455
-0.690 5.587 0.140 563
-0.689 5.580 0.124 483
-0.689 5.579 0.108 411
-0.688 5.572 0.092 387
-0.686 5.556 0.076 417
-0.686 5.555 0.059 462
-0.686 5.555 0.043 474
-0.686 5.555 0.027 486
-0.687 5.562 0.011 417
-0.688 5.570 -0.006 367
-0.688 5.577 -0.022 328
-0.688 5.577 -0.039 295
-0.687 5.568 -0.054 256
-0.681 5.519 -0.101 286
-0.680 5.511 -0.117 370
-0.680 5.510 -0.133 454
-0.680 5.509 -0.149 370
-0.680 5.508 -0.165 286
-0.260 2.157 1.657 1530
-0.260 2.162 1.651 3061
-0.261 2.166 1.645 3061
-0.270 2.241 1.689 3403
-0.270 2.246 1.682 4759
-0.273 2.263 1.685 6477
-0.273 2.267 1.678 8486
-0.274 2.272 1.672 8600
-0.274 2.276 1.665 9689
-0.275 2.287 1.663 10983
-0.279 2.318 1.674 10048
-0.280 2.329 1.672 11311
-0.283 2.346 1.674 9842
-0.286 2.377 1.685 10606
-0.287 2.381 1.678 8060
-0.291 2.412 1.689 5767
-0.291 2.417 1.682 5700
-0.291 2.415 1.670 6376
-0.290 2.406 1.655 7066
-0.289 2.403 1.644 6095
-0.302 2.507 1.700 5898
-0.304 2.525 1.702 5153
-0.307 2.550 1.707 5325
-0.305 2.534 1.687 5672
-0.304 2.525 1.671 6945
-0.305 2.530 1.664 9059
-0.306 2.541 1.661 11227
-0.307 2.545 1.654 9936
-0.309 2.563 1.655 8904
-0.310 2.574 1.651 6215
-0.312 2.592 1.652 3982
-0.314 2.610 1.652 3405
-0.317 2.635 1.657 3408
-0.320 2.653 1.657 4450
-0.321 2.664 1.654 7867
-0.321 2.668 1.646 9886
-0.324 2.686 1.646 8227
-0.325 2.698 1.642 6533
-0.326 2.709 1.638 6912
-0.328 2.720 1.634 7600
-0.329 2.731 1.630 6957
-0.335 2.784 1.649 6049
-0.337 2.795 1.645 5878
-0.338 2.806 1.641 5033
-0.340 2.825 1.640 4002
-0.347 2.877 1.658 4020
-0.355 2.951 1.687 4988
-0.348 2.893 1.645 5360
-0.350 2.904 1.640 5465
-0.351 2.916 1.636 5369
-0.354 2.941 1.638 6711
-0.356 2.952 1.633 9342
-0.356 2.957 1.625 9800
-0.357 2.961 1.616 7980
-0.371 3.078 1.664 11557
-0.372 3.089 1.659 16424
-0.373 3.101 1.654 15899
-0.373 3.098 1.641 11211
-0.373 3.095 1.629 7517
-0.374 3.107 1.623 8170
-0.377 3.132 1.624 12372
-0.378 3.136 1.615 14982
-0.378 3.141 1.606 11788
-0.388 3.223 1.634 6711
-0.389 3.228 1.625 5912
-0.389 3.232 1.616 5708
-0.396 3.286 1.629 6170
-0.402 3.340 1.643 7181
-0.405 3.366 1.643 10570
-0.407 3.378 1.636 11554
-0.407 3.382 1.626 8197
-0.418 3.473 1.655 3848
-0.430 3.571 1.686 4014
-0.433 3.597 1.685 3795
-0.436 3.616 1.681 4008
-0.417 3.461 1.602 3773
-0.418 3.473 1.595 4048
-0.435 3.615 1.643 4221
-0.444 3.684 1.660 7186
-0.445 3.696 1.653 8376
-0.446 3.700 1.642 6923
-0.446 3.705 1.631 5461
-0.456 3.782 1.650 6779
-0.457 3.794 1.642 9039
-0.459 3.812 1.637 6521
-0.469 3.897 1.658 5487
-0.471 3.909 1.649 8890
-0.470 3.906 1.635 9927
-0.471 3.910 1.624 8217
-0.474 3.937 1.621 7246
-0.474 3.934 1.607 5242
-0.473 3.923 1.590 4180
-0.490 4.067 1.630 4492
-0.486 4.035 1.605 4331
-0.486 4.039 1.593 6019
-0.488 4.051 1.584 6036
-0.503 4.173 1.615 5272
-0.501 4.163 1.598 6529
-0.502 4.167 1.585 5875
-0.505 4.193 1.581 5694
-0.506 4.198 1.569 4344
-0.508 4.217 1.562 4668
-0.510 4.236 1.555 7686
-0.512 4.247 1.545 7949
-0.512 4.251 1.532 5384
-0.520 4.315 1.540 4712
-0.531 4.409 1.557 5592
-0.532 4.420 1.546 8333
-0.534 4.432 1.536 7190
-0.537 4.458 1.530 6335
-0.537 4.462 1.517 4212
-0.538 4.466 1.504 2729
-0.554 4.598 1.530 3003
-0.554 4.602 1.517 3188
-0.563 4.674 1.524 2879
-0.565 4.693 1.515 4326
-0.567 4.705 1.503 3161
-0.583 4.837 1.527 3095
-0.584 4.848 1.515 2836
-0.594 4.928 1.522 2394
-0.594 4.932 1.508 2422
-0.598 4.966 1.502 2339
-0.598 4.963 1.485 3038
-0.616 5.118 1.512 3524
-0.646 5.365 1.562 3435
-0.645 5.354 1.543 4480
-0.645 5.358 1.527 5374
-0.648 5.378 1.516 6627
-0.648 5.381 1.500 7514
-0.647 5.370 1.480 7160
-0.650 5.397 1.470 5827
-0.650 5.393 1.453 4006
-0.670 5.565 1.478 3746
-0.688 5.714 1.497 4146
-0.691 5.741 1.485 2879
-0.692 5.745 1.469 3366
-0.710 5.894 1.485 2133
-0.712 5.913 1.472 2170
-0.725 6.017 1.477 2417
-0.726 6.029 1.461 1830
-0.752 6.247 1.490 1193
-0.756 6.274 1.477 1475
-0.755 6.271 1.457 1528
-0.755 6.267 1.437 1361
-0.755 6.270 1.419 1447
-0.757 6.282 1.402 1571
-0.808 6.709 1.469 1610
-0.704 5.842 1.278 1213
-0.704 5.845 1.261 1684
-0.705 5.856 1.245 2287
-0.706 5.859 1.228 2002
-0.705 5.854 1.210 1395
-0.707 5.873 1.195 1729
-0.707 5.868 1.177 1968
-0.707 5.871 1.160 1801
-0.708 5.882 1.144 1685
-0.709 5.885 1.127 1553
-0.971 8.059 1.471 1427
-1.004 8.334 1.492 2281
-1.005 8.346 1.469 2738
-1.065 8.839 1.521 2405
-1.066 8.851 1.497 2054
-1.122 9.313 1.540 2039
-1.120 9.302 1.511 2078
-1.120 9.298 1.482 1713
-1.065 8.843 1.390 1839
-1.126 9.344 1.433 2150
-1.125 9.340 1.405 2522
-1.125 9.344 1.378 2323
-1.126 9.348 1.350 1519
-1.123 9.320 1.319 998
-1.124 9.331 1.293 651
-1.124 9.334 1.265 331
-0.715 5.934 0.835 277
-0.108 0.899 0.237 388
-0.708 5.876 0.794 597
-0.108 0.900 0.232 650
-0.108 0.900 0.229 682
-0.108 0.901 0.227 733
-0.108 0.901 0.224 768
-0.109 0.901 0.222 622
-0.704 5.847 0.687 600
-0.704 5.848 0.670 623
-0.705 5.850 0.653 714
-0.703 5.836 0.635 989
-0.702 5.829 0.617 1114
-0.703 5.839 0.601 893
-0.703 5.840 0.584 488
-0.697 5.787 0.546 292
-0.688 5.711 0.507 445
-0.688 5.712 0.490 757
-0.688 5.713 0.473 881
-0.688 5.714 0.457 758
-0.688 5.715 0.440 636
-0.688 5.708 0.423 824
-0.688 5.709 0.407 1001
-0.687 5.702 0.390 939
-0.688 5.710 0.373 801
-0.688 5.711 0.357 736
-0.687 5.704 0.340 694
-0.687 5.704 0.323 527
-0.687 5.705 0.306 379
-0.686 5.698 0.290 296
-0.676 5.611 0.271 278
-0.676 5.612 0.255 276
-0.679 5.636 0.206 275
-0.677 5.621 0.189 271
-0.674 5.597 0.157 303
-0.674 5.597 0.140 378
-0.673 5.589 0.124 329
-0.672 5.582 0.108 287
-0.671 5.574 0.092 251
-0.669 5.557 0.059 264
-0.669 5.557 0.043 275
-0.670 5.565 0.027 288
-0.670 5.564 0.011 252
-0.665 5.521 -0.117 257
-0.664 5.512 -0.133 296
-0.255 2.158 1.657 1502
-0.256 2.162 1.651 3005
-0.256 2.167 1.645 3005
-0.264 2.229 1.680 3399
-0.265 2.240 1.678 4578
-0.267 2.257 1.680 5922
