-3.383 7.515 1.763 1593
-3.535 7.852 1.811 1549
-3.540 7.864 1.787 2060
-3.548 7.882 1.765 2249
-3.553 7.894 1.741 1383
-3.651 8.111 1.759 1138
-3.839 8.527 1.815 1136
-3.844 8.539 1.789 1266
-3.846 8.543 1.762 1058
-3.838 8.526 1.730 692
-3.853 8.559 1.709 388
-0.952 2.131 1.773 3015
-0.954 2.135 1.766 6031
-0.956 2.140 1.759 6031
-0.965 2.162 1.766 6425
-0.967 2.166 1.760 7419
-0.972 2.176 1.757 6999
-0.995 2.228 1.787 6913
-0.997 2.232 1.780 6913
-1.002 2.243 1.777 8872
-1.004 2.247 1.770 10836
-1.006 2.251 1.763 9042
-1.029 2.304 1.791 7527
-1.034 2.314 1.788 9248
-1.038 2.325 1.785 11411
-1.040 2.329 1.778 11411
-1.042 2.333 1.771 12402
-1.041 2.332 1.759 13320
-1.043 2.336 1.752 11413
-1.051 2.352 1.753 9773
-1.055 2.363 1.750 7330
-1.093 2.447 1.798 8891
-1.097 2.457 1.794 8454
-1.102 2.468 1.791 8216
-1.107 2.478 1.787 6088
-1.131 2.532 1.813 4821
-1.113 2.493 1.776 4864
-1.110 2.485 1.760 5642
-1.153 2.582 1.813 4752
-1.158 2.593 1.809 5141
-1.163 2.604 1.805 4748
-1.176 2.633 1.813 4967
-1.169 2.619 1.793 4202
-1.169 2.617 1.781 3945
-1.168 2.615 1.768 3542
-1.167 2.613 1.756 3210
-1.216 2.724 1.815 5106
-1.218 2.728 1.806 7129
-1.223 2.739 1.802 6602
-1.214 2.718 1.778 5569
-1.210 2.710 1.761 6237
-1.229 2.752 1.776 6127
-1.234 2.763 1.771 7924
-1.239 2.774 1.766 6899
-1.275 2.854 1.803 7342
-1.280 2.865 1.798 6705
-1.279 2.863 1.785 7793
-1.281 2.867 1.776 9400
-1.283 2.872 1.767 9125
-1.284 2.876 1.758 6201
-1.324 2.964 1.796 3792
-1.357 3.039 1.827 4350
-1.356 3.037 1.814 5392
-1.358 3.041 1.804 5576
-1.323 2.962 1.748 7598
-1.325 2.966 1.739 9123
-1.330 2.977 1.733 8805
-1.378 3.085 1.780 8500
-1.383 3.096 1.773 10136
-1.384 3.100 1.764 10093
-1.384 3.098 1.751 8128
-1.385 3.102 1.741 6957
-1.387 3.106 1.731 7832
-1.424 3.189 1.762 9061
-1.417 3.174 1.742 8616
-1.419 3.178 1.732 7340
-1.421 3.182 1.722 4998
-1.458 3.265 1.751 7672
-1.460 3.270 1.741 9300
-1.500 3.360 1.773 9894
-1.499 3.357 1.759 8789
-1.492 3.342 1.739 7015
-1.491 3.339 1.725 6588
-1.493 3.344 1.715 5281
-1.498 3.354 1.707 3980
-1.592 3.564 1.794 3796
-1.621 3.629 1.810 3984
-1.623 3.633 1.799 4870
-1.628 3.644 1.791 6710
-1.629 3.649 1.779 5514
-1.694 3.793 1.831 4416
-1.693 3.791 1.816 5196
-1.671 3.742 1.780 5604
-1.697 3.800 1.792 5123
-1.702 3.811 1.783 7805
-1.701 3.809 1.768 7442
-1.745 3.907 1.797 5612
-1.750 3.918 1.787 6139
-1.752 3.923 1.775 5220
-1.760 3.941 1.768 5413
-1.762 3.945 1.755 5449
-1.758 3.936 1.737 4852
-1.844 4.130 1.802 4351
-1.846 4.134 1.789 4818
-1.848 4.138 1.776 4644
-1.850 4.143 1.763 4884
-1.892 4.235 1.785 3997
-1.894 4.240 1.772 5104
-1.902 4.258 1.763 5348
-1.910 4.276 1.755 4963
-1.912 4.280 1.742 3631
-1.929 4.319 1.741 3809
-1.931 4.323 1.727 3501
-1.981 4.437 1.754 3880
-1.986 4.448 1.742 4359
-2.028 4.541 1.761 4595
-2.009 4.497 1.729 3747
-2.023 4.529 1.725 3009
-2.102 4.706 1.771 3705
-2.103 4.710 1.756 4266
-2.099 4.700 1.736 4650
-2.101 4.705 1.721 4860
-2.106 4.716 1.709 3152
-2.160 4.837 1.733 2700
-2.168 4.856 1.722 1921
-2.170 4.860 1.707 2798
-2.172 4.864 1.691 3502
-2.174 4.868 1.676 2453
-2.284 5.115 1.737 1816
-2.361 5.286 1.773 1501
-2.360 5.284 1.754 2217
-2.355 5.274 1.733 3494
-2.354 5.271 1.714 4158
-2.353 5.268 1.696 3391
-2.420 5.419 1.722 4814
-2.419 5.416 1.703 4193
-2.471 5.532 1.718 3101
-2.541 5.690 1.744 3660
-2.540 5.688 1.724 5797
-2.542 5.692 1.706 6477
-2.550 5.710 1.692 3998
-2.718 6.086 1.775 2872
-2.720 6.090 1.755 2929
-2.618 5.863 1.675 3027
-2.699 6.043 1.702 2828
-2.704 6.054 1.685 2373
-2.878 6.445 1.764 1807
-2.805 6.280 1.701 1973
-2.813 6.299 1.685 1897
-2.944 6.592 1.735 1806
-2.895 6.483 1.687 1765
-3.065 6.862 1.755 1893
-3.073 6.880 1.737 1430
-3.094 6.927 1.725 1393
-3.216 7.200 1.764 940
-3.132 7.013 1.698 1346
-3.362 7.528 1.789 1473
-3.361 7.525 1.763 1665
-3.511 7.863 1.811 1605
-3.517 7.874 1.787 2205
-3.525 7.893 1.765 2337
-3.546 7.940 1.749 1480
-3.630 8.129 1.760 1467
-3.686 8.254 1.758 1077
-3.818 8.550 1.789 1014
-3.820 8.554 1.762 890
-3.813 8.537 1.730 676
-3.827 8.570 1.709 305
-0.944 2.127 1.768 2863
-0.946 2.131 1.761 5727
-0.948 2.136 1.755 5727
-0.961 2.164 1.766 6278
-0.965 2.174 1.764 7541
-0.967 2.178 1.757 7122
-0.990 2.230 1.787 7247
-0.992 2.235 1.780 7247
-0.997 2.245 1.777 9015
-0.999 2.249 1.770 10837
-1.001 2.254 1.763 9000
-1.000 2.252 1.752 7253
-1.031 2.323 1.793 8458
-1.033 2.327 1.785 10443
-1.035 2.331 1.778 10443
-1.037 2.336 1.771 11933
-1.036 2.334 1.759 13389
-1.038 2.338 1.752 11767
-1.043 2.349 1.749 10354
-1.050 2.365 1.750 7393
-1.087 2.449 1.798 8508
-1.092 2.459 1.794 8132
-1.097 2.470 1.791 8070
-1.104 2.487 1.791 6372
-1.120 2.522 1.804 5249
-1.108 2.496 1.776 5202
-1.107 2.494 1.764 5568
-1.115 2.510 1.764 4499
-1.155 2.602 1.813 4813
-1.160 2.612 1.809 4596
-1.170 2.635 1.813 4863
-1.164 2.621 1.793 4006
-1.202 2.707 1.837 3919
-1.204 2.711 1.828 3578
-1.206 2.716 1.820 3236
-1.208 2.720 1.811 5122
-1.210 2.725 1.803 7008
-1.215 2.735 1.798 6524
-1.208 2.721 1.778 5819
-1.207 2.719 1.765 6202
-1.223 2.755 1.776 6291
-1.228 2.766 1.771 7727
-1.233 2.776 1.766 6505
-1.269 2.857 1.803 6935
-1.273 2.868 1.798 6252
-1.272 2.866 1.785 7145
-1.272 2.864 1.772 8687
-1.276 2.875 1.767 8541
-1.278 2.879 1.758 6030
-1.283 2.890 1.752 3626
-1.316 2.965 1.783 3651
-1.350 3.040 1.814 4388
-1.317 2.967 1.761 4523
-1.316 2.965 1.748 7478
-1.321 2.976 1.742 9481
-1.323 2.980 1.733 9389
-1.371 3.088 1.780 7386
-1.376 3.099 1.773 9010
-1.375 3.097 1.760 9392
-1.374 3.094 1.747 8240
-1.373 3.092 1.734 6631
-1.415 3.188 1.772 7075
-1.420 3.199 1.765 9389
-1.425 3.210 1.758 9239
-1.412 3.181 1.732 6877
-1.446 3.258 1.758 6583
-1.451 3.268 1.751 8850
-1.453 3.273 1.741 9123
-1.487 3.350 1.766 9448
-1.489 3.354 1.756 8963
-1.485 3.345 1.739 7730
-1.484 3.343 1.725 7286
-1.486 3.347 1.715 5890
-1.491 3.358 1.707 4367
-1.584 3.568 1.794 3920
-1.580 3.559 1.776 3645
-1.615 3.637 1.799 4380
-1.620 3.648 1.791 6168
-1.622 3.652 1.779 5229
-1.686 3.797 1.831 4683
-1.685 3.795 1.816 5675
-1.663 3.746 1.780 5718
-1.692 3.810 1.795 5788
-1.694 3.815 1.783 8259
-1.693 3.812 1.768 7524
-1.733 3.904 1.794 5672
-1.741 3.922 1.787 5969
-1.743 3.927 1.775 5083
-1.751 3.944 1.768 5491
-1.753 3.949 1.755 5116
-1.752 3.946 1.740 4391
-1.838 4.140 1.805 4410
-1.840 4.145 1.792 5066
-1.842 4.149 1.779 4982
-1.844 4.154 1.766 4961
-1.855 4.178 1.761 4242
-1.881 4.237 1.769 4259
-1.898 4.276 1.769 5231
-1.900 4.280 1.755 5300
-1.905 4.291 1.744 3957
-1.919 4.323 1.741 4548
-1.921 4.327 1.727 3859
-1.969 4.434 1.751 3840
-1.974 4.445 1.740 3979
-2.018 4.546 1.761 4405
-2.002 4.509 1.731 3537
-2.001 4.506 1.715 2852
-2.091 4.710 1.771 3345
-2.093 4.714 1.756 4239
-2.089 4.705 1.736 5133
-2.091 4.709 1.721 5305
-2.093 4.713 1.706 3436
-2.150 4.842 1.733 2678
-2.158 4.860 1.722 2181
-2.160 4.864 1.707 2943
-2.162 4.869 1.691 3682
-2.163 4.873 1.676 2667
-2.273 5.120 1.737 1955
-2.275 5.124 1.721 1630
-2.348 5.289 1.754 1924
-2.341 5.272 1.731 3074
-2.343 5.276 1.714 3737
-2.341 5.274 1.696 3127
-2.408 5.424 1.722 3687
-2.407 5.422 1.703 3442
-2.456 5.531 1.716 3439
-2.532 5.703 1.746 4112
-2.531 5.700 1.726 5530
-2.533 5.704 1.708 6445
-2.538 5.716 1.692 4696
-2.546 5.734 1.678 2483
-2.707 6.096 1.755 2521
-2.606 5.869 1.675 2692
-2.689 6.056 1.704 3089
-2.691 6.060 1.685 2775
-2.789 6.282 1.721 1774
-2.794 6.294 1.703 2371
-2.796 6.298 1.683 2141
-2.930 6.598 1.735 1666
-2.881 6.490 1.687 1823
-3.050 6.869 1.755 1658
-3.055 6.880 1.735 1263
-3.085 6.948 1.728 1535
-3.099 6.980 1.712 1067
-3.117 7.020 1.698 1421
-3.345 7.535 1.789 1402
-3.341 7.525 1.762 1691
-3.494 7.870 1.811 1572
-3.499 7.882 1.787 2199
-3.508 7.900 1.765 2208
-3.529 7.947 1.749 1590
-3.613 8.137 1.760 1604
-3.671 8.269 1.760 1111
-3.825 8.615 1.800 865
-3.792 8.541 1.758 761
-3.791 8.538 1.729 637
-3.806 8.571 1.707 296
-0.936 2.124 1.763 2665
-0.938 2.128 1.757 5331
-0.940 2.132 1.750 5331
-0.958 2.172 1.771 6214
-0.960 2.176 1.764 7911
-0.964 2.187 1.762 7441
-0.984 2.233 1.787 7790
-0.986 2.237 1.780 7790
-0.988 2.242 1.773 9332
-0.993 2.252 1.770 10985
-0.995 2.256 1.763 9007
-0.994 2.255 1.752 7085
-1.025 2.325 1.793 7726
-1.030 2.336 1.790 9350
-1.032 2.340 1.783 9350
-1.031 2.338 1.771 11310
-1.030 2.337 1.759 13375
-1.032 2.341 1.752 12077
-1.037 2.351 1.749 10947
-1.041 2.362 1.746 7528
-1.081 2.452 1.798 8375
-1.086 2.462 1.794 8047
-1.093 2.479 1.795 8296
-1.100 2.496 1.796 6938
-1.110 2.519 1.800 6163
-1.107 2.511 1.784 5744
-1.106 2.509 1.772 5575
-1.111 2.519 1.768 4805
-1.148 2.605 1.813 4681
-1.153 2.615 1.809 4614
-1.125 2.551 1.757 5326
-1.160 2.630 1.797 3936
-1.197 2.716 1.841 3862
-1.197 2.714 1.828 3736
-1.193 2.706 1.812 3661
-1.201 2.723 1.811 5233
-1.203 2.728 1.803 6821
-1.205 2.732 1.794 6444
-1.201 2.724 1.778 6207
-1.203 2.728 1.769 6482
-1.216 2.758 1.776 6650
-1.221 2.769 1.771 7462
-1.225 2.780 1.766 5951
-1.258 2.854 1.799 6428
-1.266 2.871 1.798 5622
-1.259 2.856 1.777 6285
-1.258 2.854 1.765 7970
-1.266 2.871 1.763 7735
-1.271 2.882 1.758 5769
-1.273 2.887 1.749 3734
-1.275 2.891 1.740 4178
-1.282 2.908 1.738 3694
-1.307 2.964 1.757 4056
-1.309 2.968 1.748 7076
-1.313 2.979 1.742 9568
-1.315 2.983 1.733 9763
-1.320 2.994 1.727 7494
-1.368 3.102 1.773 7850
-1.367 3.100 1.760 8671
-1.363 3.091 1.744 8443
-1.365 3.096 1.734 6613
-1.410 3.198 1.775 7091
-1.412 3.202 1.765 9916
-1.420 3.220 1.762 10474
-1.427 3.237 1.758 8548
-1.438 3.261 1.758 9076
-1.443 3.272 1.751 10298
-1.445 3.277 1.741 8962
-1.476 3.347 1.763 9336
-1.477 3.351 1.753 9242
-1.476 3.349 1.739 8244
-1.475 3.346 1.725 7782
-1.480 3.357 1.718 6507
-1.482 3.362 1.707 4823
-1.575 3.572 1.794 3805
-1.574 3.570 1.779 3844
-1.570 3.561 1.762 4037
-1.607 3.645 1.787 5463
-1.612 3.656 1.779 4879
-1.676 3.801 1.831 4994
-1.675 3.799 1.816 6215
-1.674 3.797 1.801 6138
-1.685 3.821 1.798 7169
-1.684 3.819 1.783 9024
-1.683 3.817 1.768 7728
-1.723 3.909 1.794 5826
-1.728 3.920 1.784 5915
-1.736 3.938 1.778 4973
-1.744 3.956 1.771 5438
-1.749 3.967 1.761 4754
-1.769 4.012 1.765 4111
-1.828 4.145 1.805 4395
-1.829 4.150 1.792 5380
-1.834 4.161 1.782 5281
-1.836 4.165 1.769 4983
-1.844 4.183 1.761 4732
-1.870 4.242 1.769 3483
-1.887 4.281 1.769 5459
-1.886 4.278 1.753 5779
-1.900 4.310 1.749 4351
-1.908 4.328 1.741 5102
-1.907 4.325 1.725 4176
-1.957 4.439 1.751 3498
-1.959 4.443 1.737 3428
-2.006 4.551 1.761 4076
-1.990 4.514 1.731 3382
-1.980 4.491 1.707 3014
-2.064 4.681 1.758 2898
-2.084 4.727 1.758 3913
-2.077 4.710 1.736 5446
-2.076 4.708 1.719 5715
-2.080 4.719 1.706 3723
-2.088 4.737 1.696 2680
-2.099 4.762 1.688 2682
-2.150 4.877 1.709 3100
-2.149 4.874 1.691 3611
-2.184 4.955 1.700 2669
-2.260 5.126 1.737 2051
-2.259 5.123 1.719 1877
-2.261 5.128 1.703 1587
-2.324 5.271 1.729 2406
-2.314 5.248 1.704 3260
-2.325 5.273 1.693 2659
-2.345 5.319 1.689 2826
-2.436 5.526 1.731 3754
-2.441 5.537 1.716 3883
-2.520 5.717 1.748 4746
-2.519 5.714 1.728 5204
-2.521 5.718 1.710 6104
-2.523 5.722 1.692 5403
-2.534 5.747 1.680 2836
-2.595 5.885 1.697 2272
-2.659 6.030 1.716 2479
-2.670 6.056 1.702 3218
-2.675 6.067 1.685 2867
-2.776 6.297 1.723 2258
-2.778 6.301 1.703 2793
-2.780 6.305 1.683 2274
-2.866 6.500 1.709 1740
-2.868 6.504 1.689 1757
-3.029 6.869 1.754 1414
-3.068 6.959 1.752 1324
-3.070 6.963 1.730 1893
-3.081 6.988 1.712 1354
-3.099 7.028 1.698 1405
-3.326 7.544 1.789 1204
-3.318 7.527 1.760 1667
-3.474 7.879 1.811 1373
-3.476 7.884 1.786 2178
-3.484 7.902 1.763 2050
-3.511 7.964 1.750 1627
-3.591 8.146 1.760 1685
-3.801 8.621 1.827 1319
-3.803 8.625 1.800 1041
-3.767 8.544 1.756 619
-3.766 8.541 1.728 554
-3.808 8.638 1.718 344
-3.810 8.642 1.690 294
-0.931 2.126 1.763 2442
-0.933 2.130 1.757 4885
-0.935 2.134 1.750 4885
-0.953 2.174 1.771 6185
-0.955 2.179 1.764 8109
-0.959 2.189 1.762 7696
-0.979 2.235 1.787 8032
-0.981 2.239 1.780 8032
-0.983 2.244 1.773 9351
-0.988 2.254 1.770 10747
-0.990 2.258 1.763 8719
-0.989 2.257 1.752 6701
-1.020 2.328 1.793 7007
-1.024 2.338 1.790 8157
-1.026 2.342 1.783 8157
-1.026 2.341 1.771 10355
-1.025 2.339 1.759 12799
-1.027 2.343 1.752 11825
-1.031 2.354 1.749 10984
-1.036 2.364 1.746 7440
-1.075 2.454 1.798 8201
-1.083 2.471 1.798 7951
-1.090 2.488 1.799 8522
-1.095 2.498 1.796 7481
-1.105 2.521 1.800 7000
-1.104 2.519 1.788 6239
-1.103 2.518 1.776 5584
-1.105 2.522 1.768 5091
-1.110 2.533 1.764 4617
-1.114 2.543 1.761 4990
-1.119 2.554 1.757 5580
-1.124 2.564 1.753 4047
-1.191 2.719 1.841 3677
-1.191 2.717 1.828 3734
-1.187 2.709 1.812 4020
-1.195 2.726 1.811 5155
-1.196 2.731 1.803 6439
-1.198 2.735 1.794 6229
-1.200 2.739 1.785 6439
-1.200 2.737 1.773 6866
-1.207 2.754 1.772 6901
-1.212 2.765 1.767 7157
-1.219 2.782 1.766 5357
-1.249 2.850 1.795 5920
-1.259 2.874 1.798 4958
-1.247 2.846 1.770 5629
-1.249 2.851 1.761 7302
-1.257 2.868 1.759 6772
-1.264 2.885 1.758 5442
-1.266 2.889 1.749 3965
-1.268 2.894 1.740 4711
-1.275 2.911 1.738 4481
-1.292 2.947 1.747 3819
-1.302 2.971 1.748 6432
-1.307 2.982 1.742 9171
-1.309 2.986 1.733 9673
-1.313 2.997 1.727 8006
-1.358 3.099 1.770 6987
-1.357 3.097 1.757 7885
-1.356 3.094 1.744 8237
-1.355 3.092 1.731 6352
-1.403 3.201 1.775 7167
-1.408 3.212 1.769 10250
-1.415 3.230 1.765 11460
-1.423 3.247 1.762 9978
-1.430 3.265 1.758 10643
-1.435 3.275 1.751 11123
-1.437 3.280 1.741 8668
-1.465 3.344 1.760 9058
-1.470 3.354 1.753 9221
-1.469 3.352 1.739 8248
-1.468 3.350 1.725 7730
-1.473 3.361 1.718 6669
-1.474 3.365 1.707 4951
-1.482 3.382 1.703 4018
-1.563 3.567 1.776 3977
-1.565 3.571 1.765 4528
-1.599 3.649 1.787 4731
-1.601 3.653 1.776 4635
-1.667 3.805 1.831 5154
-1.666 3.803 1.816 6551
-1.668 3.807 1.804 6745
-1.679 3.832 1.801 8610
-1.675 3.823 1.783 9377
-1.674 3.821 1.768 7669
-1.714 3.913 1.794 5704
-1.719 3.924 1.784 5778
-1.730 3.949 1.780 4775
-1.738 3.966 1.774 5280
-1.743 3.978 1.764 4651
-1.757 4.009 1.763 4376
-1.818 4.149 1.805 4175
-1.820 4.154 1.792 5511
-1.825 4.165 1.782 5380
-1.830 4.176 1.771 4995
-1.835 4.187 1.761 5014
-1.837 4.192 1.748 3545
-1.878 4.285 1.769 5650
-1.876 4.282 1.753 6141
-1.893 4.321 1.752 4586
-1.898 4.332 1.741 5150
-1.894 4.323 1.722 4234
-1.944 4.437 1.749 3162
-1.988 4.537 1.770 3025
-1.993 4.549 1.758 3638
-1.983 4.525 1.734 3136
-1.967 4.488 1.705 3046
-2.020 4.610 1.732 3693
-2.019 4.607 1.715 3414
-2.066 4.715 1.736 5120
-2.065 4.712 1.719 5537
-2.070 4.723 1.706 3752
-2.078 4.742 1.696 2935
-2.089 4.767 1.688 3015
-2.139 4.882 1.709 3293
-2.141 4.886 1.694 3443
-2.173 4.960 1.700 2893
-2.175 4.964 1.685 1934
-2.241 5.114 1.714 1991
-2.249 5.133 1.703 1708
-2.291 5.228 1.714 2353
-2.296 5.239 1.700 3066
-2.340 5.341 1.712 2995
-2.342 5.345 1.695 3115
-2.424 5.531 1.731 3905
-2.429 5.543 1.716 4080
-2.507 5.722 1.748 4937
-2.509 5.727 1.730 4587
-2.508 5.724 1.710 5351
-2.513 5.735 1.694 5697
-2.521 5.753 1.680 2883
-2.581 5.891 1.697 2247
-2.645 6.036 1.716 2356
-2.656 6.062 1.702 3006
-2.661 6.073 1.685 2512
-2.759 6.296 1.721 2496
-2.761 6.300 1.701 2925
-2.765 6.311 1.683 2176
-2.851 6.506 1.709 1624
-2.853 6.511 1.689 1561
-3.013 6.876 1.754 1265
-3.055 6.973 1.753 1458
-3.057 6.977 1.731 2223
-3.068 7.002 1.714 1672
-3.083 7.035 1.698 1518
-3.094 7.061 1.681 1304
-3.301 7.534 1.760 1602
-3.300 7.531 1.735 1482
-3.449 7.870 1.781 2123
-3.457 7.889 1.759 1965
-3.568 8.143 1.785 1436
-3.573 8.154 1.760 1655
-3.781 8.629 1.827 1515
-3.783 8.634 1.800 1174
-3.785 8.638 1.773 664
-3.665 8.364 1.693 500
-3.789 8.647 1.718 409
-3.791 8.651 1.690 305
-0.444 1.014 0.288 250
-0.939 2.158 1.786 2301
-0.941 2.162 1.780 4602
-0.956 2.196 1.796 4681
-0.947 2.177 1.771 6598
-0.949 2.181 1.764 8601
-0.956 2.197 1.766 8232
-0.971 2.232 1.782 8600
-0.973 2.236 1.775 8600
-0.978 2.246 1.773 9530
-0.982 2.257 1.770 10628
-0.984 2.261 1.763 8521
-0.986 2.265 1.756 6415
-1.014 2.330 1.793 6542
-1.019 2.341 1.790 6888
-1.020 2.345 1.783 6888
-1.017 2.337 1.767 9375
-1.016 2.335 1.755 12145
-1.018 2.340 1.748 11438
-1.023 2.350 1.745 10966
-1.027 2.361 1.742 7362
-1.069 2.457 1.798 8275
-1.079 2.480 1.803 8204
-1.084 2.490 1.799 9161
-1.091 2.507 1.800 8402
-1.096 2.518 1.796 8166
-1.098 2.522 1.788 6898
-1.097 2.520 1.776 5635
-1.099 2.525 1.768 5501
-1.101 2.529 1.760 5366
-1.108 2.546 1.761 5386
-1.113 2.557 1.757 5776
-1.120 2.573 1.757 4150
-1.138 2.615 1.773 3765
-1.178 2.708 1.820 3871
-1.177 2.706 1.808 4452
-1.185 2.723 1.807 5023
-1.190 2.734 1.803 5953
-1.192 2.738 1.794 5950
-1.193 2.742 1.785 6822
-1.198 2.753 1.781 7724
-1.200 2.758 1.772 7305
-1.205 2.768 1.767 6974
-1.212 2.785 1.766 4728
-1.242 2.854 1.795 5467
-1.224 2.813 1.760 4441
-1.226 2.818 1.751 5467
-1.234 2.835 1.750 6775
-1.244 2.858 1.752 5763
-1.257 2.888 1.758 5130
-1.259 2.893 1.749 4510
-1.263 2.903 1.743 5513
-1.268 2.914 1.738 5434
-1.273 2.925 1.732 4660
-1.292 2.968 1.745 5716
-1.296 2.979 1.739 8344
-1.301 2.989 1.733 9249
-1.306 3.000 1.727 8439
-1.350 3.102 1.770 6217
-1.349 3.100 1.757 6827
-1.348 3.098 1.744 7740
-1.344 3.089 1.727 6170
-1.400 3.218 1.782 7535
-1.405 3.229 1.775 10862
-1.410 3.240 1.769 12531
-1.415 3.251 1.762 11168
-1.419 3.262 1.755 11853
-1.427 3.279 1.751 11582
-1.429 3.283 1.741 8257
-1.457 3.347 1.760 8772
-1.461 3.358 1.753 9024
-1.463 3.362 1.742 8002
-1.462 3.360 1.728 7383
-1.464 3.364 1.718 6606
-1.469 3.375 1.710 4976
-1.474 3.386 1.703 4192
-1.554 3.571 1.776 4194
-1.556 3.575 1.765 5060
-1.552 3.566 1.748 5381
-1.554 3.570 1.736 5561
-1.658 3.809 1.831 5464
-1.657 3.807 1.816 7121
-1.662 3.818 1.807 8054
-1.669 3.836 1.801 10292
-1.668 3.834 1.786 9832
-1.664 3.825 1.768 7782
-1.663 3.822 1.753 6098
-1.668 3.833 1.744 5701
-1.676 3.851 1.738 5631
-1.734 3.984 1.779 5462
-1.739 3.996 1.770 5126
-1.744 4.007 1.760 4890
-1.748 4.018 1.750 4002
-1.810 4.158 1.792 5549
-1.814 4.170 1.782 5314
-1.822 4.188 1.774 5031
-1.827 4.199 1.763 5178
-1.826 4.196 1.748 3671
-1.864 4.283 1.766 6047
-1.866 4.287 1.753 6621
-1.882 4.326 1.752 4638
-1.884 4.330 1.738 4899
-1.883 4.327 1.722 4247
-1.888 4.338 1.711 2933
-1.914 4.398 1.717 3134
-1.931 4.436 1.716 3292
-1.938 4.454 1.707 3303
-2.009 4.617 1.749 3176
-2.005 4.608 1.730 4492
-2.007 4.612 1.715 3976
-2.051 4.713 1.734 4661
-2.053 4.718 1.719 5203
-2.058 4.729 1.706 3564
-2.066 4.747 1.696 2798
-2.122 4.876 1.722 3414
-2.127 4.887 1.709 3440
-2.129 4.891 1.694 3188
-2.161 4.965 1.700 2951
-2.163 4.969 1.685 2048
-2.222 5.106 1.710 2177
-2.215 5.089 1.688 1882
-2.277 5.233 1.714 2275
-2.279 5.238 1.698 2767
-2.327 5.347 1.712 3399
-2.329 5.351 1.695 3616
-2.410 5.537 1.731 3739
-2.412 5.542 1.714 4133
-2.493 5.729 1.748 4754
-2.495 5.733 1.730 4165
-2.497 5.737 1.712 4840
-2.498 5.741 1.694 5574
-2.509 5.767 1.681 2829
-2.567 5.898 1.697 2215
-2.627 6.036 1.714 2396
-2.632 6.047 1.697 2770
-2.664 6.122 1.696 2037
-2.743 6.303 1.721 2594
-2.745 6.307 1.701 2849
-2.750 6.318 1.683 1861
-2.835 6.514 1.709 1441
-2.923 6.716 1.736 1351
-2.996 6.884 1.754 1238
-3.038 6.980 1.753 1547
-3.043 6.992 1.733 2450
-3.051 7.010 1.714 2044
-3.065 7.043 1.698 1831
-3.076 7.068 1.681 1687
-3.282 7.542 1.760 1526
-3.281 7.540 1.735 1702
-3.429 7.879 1.781 2053
-3.434 7.890 1.758 2005
-3.547 8.152 1.785 1467
-3.552 8.163 1.760 1671
-3.759 8.639 1.827 1708
-3.761 8.643 1.800 1289
-3.763 8.648 1.773 714
-3.765 8.652 1.745 547
-3.767 8.656 1.718 507
-3.769 8.661 1.690 341
-2.465 5.665 -0.542 251
-2.464 5.663 -0.560 258
-0.937 2.166 1.791 2474
-0.939 2.170 1.784 4948
-0.948 2.192 1.791 5055
-0.945 2.185 1.775 6852
-0.947 2.189 1.769 8730
-0.951 2.199 1.766 8411
-0.963 2.228 1.778 8876
-0.965 2.232 1.771 8876
-0.972 2.248 1.773 9424
-0.977 2.259 1.770 10273
-0.979 2.263 1.763 8153
-1.004 2.322 1.796 6526
-1.006 2.326 1.788 6180
-1.016 2.349 1.794 5924
-1.018 2.353 1.787 5924
-1.012 2.339 1.767 8409
-1.011 2.338 1.755 11015
-1.013 2.342 1.748 10528
-1.017 2.352 1.745 10257
-1.022 2.363 1.742 6868
-1.064 2.459 1.798 8177
-1.074 2.482 1.803 8352
-1.081 2.499 1.803 9531
-1.085 2.510 1.800 8896
-1.090 2.520 1.796 8779
-1.092 2.525 1.788 7160
-1.094 2.529 1.780 5541
-1.093 2.527 1.768 5659
-1.095 2.532 1.760 5785
-1.102 2.548 1.761 5416
-1.109 2.565 1.761 5628
-1.144 2.645 1.801 4264
-1.129 2.612 1.769 3937
-1.167 2.698 1.812 4085
-1.171 2.708 1.808 4693
-1.173 2.713 1.799 4776
-1.186 2.743 1.806 5396
-1.185 2.741 1.794 5499
-1.187 2.745 1.785 6877
-1.192 2.756 1.781 8128
-1.194 2.760 1.772 7414
-1.198 2.771 1.767 6729
-1.203 2.782 1.762 4224
-1.233 2.850 1.791 5022
-1.218 2.816 1.760 4756
-1.220 2.820 1.751 5576
-1.224 2.831 1.746 6433
-1.232 2.848 1.745 4954
-1.250 2.891 1.758 4917
-1.252 2.895 1.749 5058
-1.257 2.906 1.743 6133
-1.262 2.917 1.738 6070
-1.266 2.928 1.732 5303
-1.282 2.964 1.741 5378
-1.290 2.982 1.739 7439
-1.294 2.992 1.733 8538
-1.299 3.003 1.727 8361
-1.343 3.105 1.770 5880
-1.342 3.103 1.757 5868
-1.341 3.101 1.744 7045
-1.349 3.118 1.741 6062
-1.393 3.221 1.782 7693
-1.398 3.232 1.775 11053
-1.403 3.243 1.769 12744
-1.407 3.254 1.762 11274
-1.412 3.265 1.755 12013
-1.420 3.282 1.751 11287
-1.421 3.287 1.741 7833
-1.449 3.351 1.760 8211
-1.454 3.361 1.753 8559
-1.456 3.366 1.742 7565
-1.455 3.363 1.728 6774
-1.456 3.368 1.718 6184
-1.461 3.379 1.710 4707
-1.466 3.389 1.703 4076
-1.543 3.567 1.773 4352
-1.548 3.578 1.765 5302
-1.544 3.569 1.748 5901
-1.543 3.567 1.733 6401
-1.646 3.806 1.828 5614
-1.648 3.811 1.816 7417
-1.653 3.822 1.807 8962
-1.658 3.833 1.798 11035
-1.660 3.838 1.786 9903
-1.656 3.829 1.768 7806
-1.655 3.826 1.753 6623
-1.660 3.837 1.744 6240
-1.667 3.855 1.738 6422
-1.728 3.995 1.782 5719
-1.730 3.999 1.770 5575
-1.732 4.004 1.757 5161
-1.739 4.022 1.750 4364
-1.797 4.156 1.789 5469
-1.755 4.058 1.735 5143
-1.760 4.069 1.725 5196
-1.818 4.203 1.763 5086
-1.817 4.200 1.748 3564
-1.854 4.287 1.766 6290
-1.853 4.284 1.750 6952
-1.870 4.323 1.749 4459
-1.872 4.327 1.736 4452
-1.870 4.325 1.720 4051
-1.878 4.343 1.711 3030
-1.907 4.409 1.720 3667
-1.918 4.434 1.713 3648
-1.928 4.459 1.707 3426
-1.987 4.594 1.739 3626
-1.995 4.612 1.730 4737
-1.994 4.610 1.713 4154
-2.040 4.718 1.734 3860
-2.042 4.722 1.719 4496
-2.047 4.733 1.706 3089
-2.100 4.856 1.730 2416
-2.108 4.874 1.720 3326
-2.119 4.899 1.711 3353
-2.121 4.903 1.696 2977
-2.150 4.970 1.700 2637
-2.197 5.079 1.717 1956
-2.211 5.111 1.710 2147
-2.203 5.094 1.688 1870
-2.238 5.175 1.695 2269
-2.267 5.243 1.698 2391
-2.312 5.345 1.710 3472
-2.320 5.363 1.697 3820
-2.397 5.543 1.731 3293
-2.399 5.547 1.714 3917
-2.480 5.734 1.748 4252
-2.482 5.738 1.730 4296
-2.484 5.743 1.712 4858
-2.489 5.754 1.696 5090
-2.499 5.779 1.683 2702
-2.556 5.910 1.699 2191
-2.613 6.042 1.714 2328
-2.615 6.046 1.695 2524
-2.653 6.135 1.697 1789
-2.722 6.295 1.717 2466
-2.730 6.313 1.701 2471
-2.738 6.332 1.685 1439
-2.820 6.520 1.709 1244
-2.908 6.723 1.736 1400
-2.891 6.685 1.705 1267
-3.025 6.994 1.755 1518
-3.027 6.999 1.733 2441
-3.038 7.024 1.716 2270
-3.049 7.050 1.698 2134
-3.057 7.068 1.679 1985
-3.062 7.079 1.658 1818
-3.060 7.076 1.634 1843
-3.408 7.879 1.780 1923
-3.413 7.891 1.756 2001
-3.526 8.152 1.783 1496
-3.534 8.171 1.760 1590
-3.740 8.647 1.827 1711
-3.742 8.652 1.800 1268
-3.744 8.656 1.773 662
-3.746 8.661 1.745 567
-3.747 8.665 1.718 599
-3.749 8.669 1.690 403
-0.931 2.168 1.791 2839
-0.933 2.173 1.784 5678
-0.940 2.189 1.787 5816
-0.939 2.187 1.775 7369
-0.941 2.192 1.769 8963
-0.945 2.202 1.766 8667
-0.957 2.230 1.778 9380
-0.959 2.235 1.771 9380
-0.966 2.251 1.773 9600
-0.971 2.261 1.770 10268
-0.973 2.266 1.763 8054
-0.998 2.325 1.796 6964
-1.000 2.329 1.788 6298
-1.002 2.333 1.781 5632
-1.004 2.338 1.774 5632
-1.003 2.336 1.762 7762
-1.002 2.334 1.751 9911
-1.007 2.345 1.748 9545
-1.011 2.355 1.745 9475
-1.016 2.366 1.742 6381
-1.057 2.462 1.798 8278
-1.069 2.491 1.807 8749
-1.074 2.502 1.803 10100
-1.079 2.513 1.800 9490
-1.083 2.523 1.796 9433
-1.085 2.528 1.788 7458
-1.084 2.526 1.776 5505
-1.086 2.530 1.768 5921
-1.085 2.528 1.756 6358
-1.093 2.545 1.757 5603
-1.103 2.568 1.761 5575
-1.139 2.654 1.805 4561
-1.122 2.615 1.769 4323
-1.157 2.694 1.808 4453
-1.161 2.705 1.804 5023
-1.163 2.710 1.795 4676
-1.181 2.752 1.810 4858
-1.181 2.750 1.798 5110
-1.180 2.748 1.785 7017
-1.184 2.759 1.781 8563
-1.186 2.763 1.772 7602
-1.188 2.768 1.763 6641
-1.190 2.772 1.755 4008
-1.225 2.853 1.791 4805
-1.210 2.819 1.760 5263
-1.212 2.824 1.751 5812
-1.214 2.828 1.742 6361
-1.216 2.832 1.734 4582
-1.270 2.959 1.794 5453
-1.242 2.892 1.745 5744
-1.249 2.910 1.743 6719
-1.254 2.920 1.738 6524
-1.258 2.931 1.732 5781
-1.271 2.961 1.737 5705
-1.281 2.985 1.739 6551
-1.286 2.996 1.733 7805
-1.291 3.007 1.727 8197
-1.337 3.115 1.773 6041
-1.339 3.120 1.764 5437
-1.336 3.111 1.747 6571
-1.346 3.135 1.748 6702
-1.362 3.172 1.755 8258
-1.389 3.236 1.775 11147
-1.394 3.247 1.769 12671
-1.396 3.251 1.758 10929
-1.403 3.269 1.755 11644
-1.408 3.280 1.748 10598
-1.404 3.271 1.731 7506
-1.440 3.354 1.760 7442
-1.445 3.365 1.753 8015
-1.447 3.370 1.742 7111
-1.448 3.374 1.732 6106
-1.447 3.372 1.718 5649
-1.449 3.376 1.707 4281
-1.528 3.560 1.781 4284
-1.533 3.572 1.773 4933
-1.538 3.583 1.765 5684
-1.534 3.574 1.748 6553
-1.533 3.571 1.733 7145
-1.636 3.811 1.828 5840
-1.638 3.815 1.816 7803
-1.643 3.826 1.807 9923
-1.647 3.838 1.798 11686
-1.649 3.842 1.786 9881
-1.645 3.833 1.768 7895
-1.644 3.831 1.753 7190
-1.652 3.848 1.747 6933
-1.657 3.860 1.738 7247
-1.717 4.000 1.782 6000
-1.719 4.004 1.770 6031
-1.721 4.008 1.757 5453
-1.731 4.033 1.753 4803
-1.786 4.160 1.789 5439
-1.744 4.062 1.735 6068
-1.749 4.073 1.725 5695
-1.809 4.215 1.766 4875
-1.811 4.219 1.753 3393
-1.842 4.292 1.766 6604
-1.841 4.289 1.750 7453
-1.840 4.287 1.734 4732
-1.860 4.332 1.736 3974
-1.859 4.330 1.720 3744
-1.866 4.348 1.711 3017
-1.895 4.414 1.720 4288
-1.903 4.432 1.711 4317
-1.913 4.457 1.704 3679
-1.972 4.593 1.737 3878
-1.979 4.611 1.727 4693
-1.978 4.608 1.710 4108
-1.980 4.612 1.696 3724
-2.027 4.721 1.716 3458
-2.031 4.732 1.704 2502
-2.087 4.861 1.730 2157
-2.098 4.886 1.722 3132
-2.106 4.905 1.711 3374
-2.107 4.909 1.696 2777
-2.136 4.976 1.700 2079
-2.135 4.973 1.682 1838
-2.197 5.117 1.710 2064
-2.202 5.128 1.696 1848
-2.224 5.181 1.695 2328
-2.292 5.340 1.725 1967
-2.297 5.351 1.710 3452
-2.302 5.362 1.695 4014
-2.379 5.542 1.729 2722
-2.384 5.554 1.714 3433
-2.468 5.748 1.750 3740
-2.457 5.724 1.724 4642
-2.459 5.728 1.706 4910
-2.476 5.768 1.698 4573
-2.484 5.786 1.683 2875
-2.540 5.917 1.699 2097
-2.597 6.049 1.714 2247
-2.599 6.053 1.695 2234
-2.640 6.149 1.699 1492
-2.705 6.302 1.717 2198
-2.710 6.313 1.699 1956
-2.761 6.431 1.707 1535
-2.754 6.414 1.682 1236
-2.889 6.731 1.736 1408
-2.870 6.685 1.703 1477
-3.006 7.002 1.755 1415
-3.008 7.007 1.733 2231
-3.019 7.032 1.716 2445
-3.030 7.058 1.698 2536
-3.035 7.069 1.678 2382
-3.040 7.080 1.657 2451
-3.041 7.085 1.634 2579
-3.040 7.081 1.611 1897
-3.391 7.900 1.756 1870
-3.507 8.169 1.785 1522
-3.512 8.181 1.760 1557
-3.717 8.657 1.827 1591
-3.719 8.662 1.800 1165
-3.659 8.523 1.745 783
-3.661 8.527 1.718 658
-3.724 8.675 1.718 662
-3.726 8.679 1.690 443
-2.811 6.549 -0.606 301
-2.810 6.547 -0.626 327
-2.810 6.545 -0.647 352
-2.452 5.711 -0.564 483
-0.927 2.170 1.791 3076
-0.929 2.174 1.784 6152
-0.935 2.191 1.787 6288
-0.935 2.189 1.775 7560
-0.937 2.193 1.769 8839
-0.941 2.204 1.766 8552
-0.953 2.232 1.778 9437
-0.955 2.237 1.771 9437
-0.962 2.253 1.773 9447
-0.967 2.263 1.770 9964
-0.968 2.268 1.763 7759
-0.991 2.320 1.791 7044
-0.993 2.325 1.784 6281
-0.995 2.329 1.777 5519
-0.997 2.334 1.770 5519
-0.996 2.332 1.758 7102
-0.998 2.336 1.751 8682
-1.000 2.341 1.743 8389
-1.004 2.351 1.740 8382
-1.011 2.368 1.742 5662
-1.055 2.470 1.802 8230
-1.065 2.493 1.807 8889
-1.069 2.504 1.803 10235
-1.074 2.515 1.800 9600
-1.078 2.525 1.796 9532
-1.080 2.530 1.788 7409
-1.058 2.478 1.743 5398
-1.079 2.526 1.764 6010
-1.081 2.530 1.756 6696
-1.085 2.541 1.753 5687
-1.098 2.570 1.761 5441
-1.134 2.656 1.805 4742
-1.117 2.617 1.769 4631
-1.152 2.697 1.808 4621
-1.153 2.701 1.800 5038
-1.158 2.712 1.795 4542
-1.176 2.754 1.810 4488
-1.167 2.733 1.786 4769
-1.175 2.751 1.785 6936
-1.176 2.755 1.777 8581
-1.181 2.766 1.772 7504
-1.183 2.770 1.763 6437
-1.185 2.774 1.755 3870
-1.217 2.849 1.788 4724
-1.205 2.822 1.760 5463
-1.204 2.819 1.747 5782
-1.206 2.824 1.739 6122
-1.260 2.950 1.800 5187
-1.265 2.961 1.794 6366
-1.236 2.895 1.745 6029
-1.243 2.912 1.743 6793
-1.245 2.916 1.734 6337
-1.255 2.940 1.736 5629
-1.266 2.964 1.737 6139
-1.315 3.079 1.788 6997
-1.317 3.083 1.779 7581
-1.285 3.009 1.727 7776
-1.334 3.125 1.777 6289
-1.333 3.122 1.764 5414
-1.332 3.120 1.751 6385
-1.345 3.151 1.754 7423
-1.356 3.175 1.755 8827
-1.380 3.232 1.772 10818
-1.388 3.249 1.769 12053
-1.389 3.254 1.758 10138
-1.394 3.265 1.752 10774
-1.399 3.276 1.745 9607
-1.395 3.267 1.728 7385
-1.434 3.357 1.760 6429
-1.438 3.368 1.753 7228
-1.443 3.379 1.745 6526
-1.442 3.377 1.732 5397
-1.441 3.374 1.718 5022
-1.523 3.566 1.795 4267
-1.522 3.563 1.781 4929
-1.526 3.574 1.773 5410
-1.531 3.586 1.765 5834
-1.527 3.576 1.748 6786
-1.526 3.574 1.733 7442
-1.568 3.673 1.765 6225
-1.631 3.818 1.816 7684
-1.632 3.823 1.804 10156
-1.640 3.841 1.798 11506
-1.642 3.845 1.786 9433
-1.638 3.836 1.768 7647
-1.640 3.840 1.756 7291
-1.648 3.858 1.750 7212
-1.652 3.869 1.740 7725
-1.709 4.003 1.782 5983
-1.711 4.007 1.770 6165
-1.713 4.012 1.757 5485
-1.724 4.037 1.753 5007
-1.734 4.061 1.748 5864
-1.736 4.066 1.735 6448
-1.741 4.077 1.725 5704
-1.804 4.225 1.769 4690
-1.815 4.250 1.764 3521
-1.831 4.289 1.763 6636
-1.830 4.286 1.747 7604
-1.829 4.283 1.731 5360
-1.881 4.405 1.761 3795
-1.842 4.313 1.712 3391
-1.885 4.413 1.734 2990
-1.886 4.418 1.720 4531
-1.894 4.436 1.711 4728
-1.905 4.461 1.704 3788
-1.963 4.596 1.737 3805
-1.968 4.608 1.725 4547
-1.966 4.605 1.708 3992
-1.971 4.616 1.696 3458
-2.018 4.725 1.716 2701
-2.019 4.729 1.702 2239
-2.081 4.872 1.733 1763
-2.091 4.897 1.724 2710
-2.096 4.909 1.711 3171
-2.098 4.913 1.696 2654
-2.100 4.917 1.680 1730
-2.122 4.970 1.680 1765
-2.148 5.030 1.682 2191
-2.192 5.132 1.696 1820
-2.214 5.186 1.695 2331
-2.282 5.344 1.725 1909
-2.290 5.363 1.712 3379
-2.292 5.367 1.695 4046
-2.294 5.371 1.678 2219
-2.374 5.558 1.714 2847
-2.423 5.675 1.728 3679
-2.440 5.715 1.720 4767
-2.445 5.726 1.704 4767
-2.465 5.772 1.698 4095
-2.470 5.784 1.681 2992
-2.475 5.795 1.665 1998
-2.585 6.054 1.714 2134
-2.587 6.058 1.695 1958
-2.601 6.090 1.683 1369
-2.693 6.307 1.717 1839
-2.701 6.326 1.701 1525
-2.749 6.436 1.707 1583
-2.744 6.426 1.684 1403
-2.861 6.701 1.728 1443
-2.860 6.698 1.705 1678
-2.859 6.695 1.682 1419
-2.995 7.012 1.733 1872
-3.009 7.045 1.717 2434
-3.016 7.064 1.698 2779
-3.021 7.075 1.678 2652
-3.026 7.086 1.657 2956
-3.028 7.090 1.634 3106
-3.026 7.087 1.611 2318
-3.379 7.914 1.758 1640
-3.403 7.968 1.743 1619
-3.496 8.187 1.760 1516
-3.700 8.664 1.827 1390
-3.702 8.669 1.800 1005
-3.643 8.530 1.745 863
-3.641 8.527 1.717 773
-3.707 8.682 1.718 683
-3.709 8.686 1.690 435
-0.345 0.807 0.204 251
-2.804 6.565 -0.565 251
-2.803 6.563 -0.586 313
-2.802 6.561 -0.606 375
-2.801 6.559 -0.627 421
-2.800 6.557 -0.648 468
-2.799 6.555 -0.668 468
-0.920 2.173 1.791 3394
-0.922 2.177 1.784 6789
-0.926 2.187 1.782 6941
-0.928 2.192 1.775 7858
-0.930 2.196 1.769 8774
-0.935 2.207 1.766 8497
-0.947 2.235 1.778 9519
-0.948 2.239 1.771 9519
-0.955 2.256 1.773 9350
-0.960 2.266 1.770 9753
-0.962 2.271 1.763 7570
-0.981 2.317 1.787 7161
-0.983 2.322 1.780 6441
-0.977 2.308 1.759 5798
-0.984 2.324 1.761 5751
-0.986 2.329 1.754 6700
-0.988 2.333 1.746 7608
-0.990 2.337 1.739 7134
-0.997 2.354 1.740 7087
-1.041 2.457 1.801 5614
-1.048 2.473 1.802 8371
-1.057 2.496 1.807 9109
-1.062 2.507 1.803 10382
-1.066 2.518 1.800 9635
-1.071 2.528 1.796 9486
-1.070 2.527 1.784 7288
-1.051 2.481 1.743 5449
-1.071 2.529 1.764 6093
-1.073 2.534 1.756 6950
-1.078 2.544 1.753 5846
-1.122 2.649 1.809 5302
-1.126 2.660 1.805 4985
-1.110 2.620 1.769 5088
-1.141 2.694 1.804 4600
-1.145 2.705 1.800 4802
-1.137 2.684 1.776 4434
-1.168 2.758 1.810 4185
-1.156 2.731 1.782 4699
-1.164 2.748 1.782 6780
-1.168 2.758 1.777 8395
-1.170 2.763 1.768 7308
-1.172 2.767 1.760 6221
-1.177 2.778 1.755 3886
-1.206 2.846 1.784 4670
-1.197 2.825 1.760 5540
-1.196 2.823 1.747 5673
-1.197 2.827 1.739 5827
-1.251 2.954 1.800 6445
-1.256 2.965 1.794 7365
-1.258 2.969 1.785 6733
-1.232 2.909 1.740 6827
-1.237 2.920 1.734 5902
-1.252 2.957 1.743 5234
-1.257 2.967 1.737 6456
-1.306 3.083 1.788 7437
-1.307 3.087 1.779 8183
-1.276 3.013 1.727 7241
-1.328 3.135 1.780 6753
-1.327 3.133 1.767 5689
-1.315 3.104 1.740 6468
-1.336 3.155 1.754 8004
-1.344 3.172 1.751 9426
-1.348 3.183 1.745 10814
-1.375 3.247 1.765 11202
-1.377 3.251 1.755 8974
-1.384 3.269 1.752 9629
-1.386 3.273 1.741 8778
-1.382 3.264 1.725 7447
-1.387 3.275 1.718 5913
-1.428 3.372 1.753 6213
-1.433 3.383 1.745 5839
-1.432 3.381 1.732 4573
-1.507 3.559 1.803 4988
-1.512 3.570 1.795 4937
-1.514 3.575 1.784 5534
-1.516 3.579 1.773 5802
-1.518 3.583 1.762 5936
-1.517 3.581 1.748 6845
-1.519 3.585 1.736 7300
-1.557 3.677 1.765 6747
-1.619 3.823 1.816 7357
-1.621 3.828 1.804 10063
-1.626 3.839 1.795 11059
-1.631 3.850 1.786 8691
-1.630 3.848 1.771 7233
-1.632 3.852 1.759 7165
-1.639 3.870 1.753 7378
-1.641 3.874 1.740 7948
-1.698 4.008 1.782 5801
-1.699 4.012 1.770 6047
-1.701 4.017 1.757 5269
-1.712 4.042 1.753 5031
-1.722 4.066 1.748 6362
-1.724 4.071 1.735 6598
-1.729 4.082 1.725 5429
-1.792 4.230 1.769 4389
-1.805 4.262 1.766 3834
-1.819 4.294 1.763 6588
-1.818 4.291 1.747 7700
-1.814 4.282 1.729 6037
-1.815 4.286 1.715 3937
-1.826 4.311 1.709 3112
-1.872 4.419 1.734 2920
-1.873 4.423 1.720 4629
-1.878 4.434 1.709 5079
-1.889 4.459 1.702 3865
-1.946 4.595 1.734 3544
-1.951 4.607 1.722 4410
-1.947 4.597 1.703 4019
-1.955 4.615 1.693 2987
-1.998 4.717 1.712 2374
-2.002 4.728 1.699 2400
-2.007 4.739 1.687 1898
-2.018 4.764 1.679 2656
-2.085 4.922 1.713 2977
-2.083 4.919 1.696 2648
-2.085 4.923 1.680 1899
-2.131 5.032 1.698 1840
-2.133 5.037 1.682 2485
-2.194 5.181 1.709 1921
-2.202 5.199 1.697 2345
-2.204 5.203 1.681 1887
-2.274 5.369 1.712 3260
-2.279 5.381 1.697 3971
-2.278 5.378 1.678 2275
-2.360 5.572 1.716 2232
-2.404 5.675 1.726 4924
-2.408 5.686 1.710 6080
-2.416 5.705 1.696 5400
-2.451 5.787 1.700 3778
-2.453 5.791 1.681 3070
-2.457 5.802 1.665 2006
-2.552 6.026 1.704 2040
-2.578 6.087 1.700 1723
-2.589 6.112 1.686 1509
-2.588 6.109 1.665 1620
-2.592 6.120 1.648 1599
-2.730 6.445 1.707 1633
-2.725 6.434 1.684 1535
-2.839 6.702 1.726 1436
-2.840 6.706 1.705 1818
-2.839 6.703 1.682 1494
-2.983 7.043 1.738 1409
-2.991 7.061 1.719 2281
-2.996 7.073 1.698 2853
-3.000 7.084 1.678 2850
-3.005 7.095 1.657 3368
-3.007 7.099 1.634 3491
-3.005 7.096 1.611 2634
-3.377 7.974 1.768 1677
-3.379 7.978 1.743 2120
-3.384 7.990 1.719 1665
-3.674 8.675 1.827 1115
-3.676 8.680 1.800 827
-3.617 8.541 1.745 867
-3.616 8.538 1.717 814
-3.682 8.693 1.718 665
-3.684 8.697 1.690 417
-0.342 0.808 0.204 258
-2.422 5.718 -0.545 259
-2.424 5.723 -0.564 361
-0.915 2.175 1.791 3565
-0.917 2.179 1.784 7130
-0.921 2.190 1.782 7288
-0.923 2.194 1.775 7866
-0.925 2.198 1.769 8443
-0.932 2.215 1.771 8291
-0.941 2.237 1.778 9433
-0.943 2.242 1.771 9433
-0.950 2.258 1.773 9140
-0.954 2.268 1.770 9472
-0.959 2.279 1.767 7357
-0.976 2.320 1.787 7221
-0.975 2.318 1.775 6780
-0.972 2.310 1.759 6684
-0.974 2.315 1.752 6621
-0.978 2.325 1.749 6784
-0.980 2.329 1.742 6976
-0.984 2.340 1.739 6103
-0.989 2.350 1.736 5738
-1.037 2.465 1.805 5690
-1.044 2.482 1.806 8413
-1.051 2.499 1.807 9096
-1.053 2.503 1.799 10238
-1.058 2.514 1.796 9381
-1.065 2.531 1.796 9066
-1.064 2.529 1.784 6983
-1.045 2.484 1.743 5328
-1.065 2.532 1.764 6037
-1.067 2.536 1.756 7020
-1.069 2.540 1.748 5933
-1.118 2.658 1.813 5358
-1.120 2.662 1.805 5158
-1.104 2.623 1.769 5489
-1.105 2.627 1.761 4904
-1.139 2.707 1.800 4365
-1.130 2.686 1.776 4331
-1.135 2.697 1.771 4045
-1.150 2.733 1.782 4586
-1.157 2.750 1.782 6516
-1.162 2.761 1.777 8020
-1.164 2.766 1.768 7022
-1.163 2.764 1.756 6069
-1.173 2.787 1.759 4016
-1.193 2.836 1.776 4744
-1.190 2.828 1.760 5552
-1.189 2.826 1.747 5520
-1.237 2.940 1.802 6157
-1.244 2.957 1.800 7388
-1.249 2.968 1.794 8065
-1.251 2.972 1.785 7277
-1.225 2.912 1.740 6834
-1.230 2.923 1.734 5274
-1.248 2.966 1.747 4926
-1.253 2.977 1.741 6484
-1.298 3.086 1.788 7469
-1.300 3.090 1.779 8407
-1.302 3.094 1.769 7592
-1.320 3.138 1.780 7102
-1.322 3.143 1.771 5952
-1.305 3.101 1.737 6903
-1.329 3.158 1.754 8180
-1.336 3.175 1.751 9740
-1.341 3.186 1.745 11012
-1.365 3.243 1.762 10265
-1.369 3.254 1.755 7929
-1.371 3.259 1.745 8686
-1.373 3.263 1.735 8366
-1.361 3.234 1.708 7647
-1.379 3.278 1.718 5716
-1.426 3.389 1.759 5136
-1.428 3.393 1.749 5021
-1.393 3.311 1.696 4792
-1.499 3.562 1.803 5030
-1.504 3.574 1.795 5009
-1.506 3.578 1.784 5617
-1.505 3.576 1.770 5812
-1.509 3.587 1.762 5724
-1.508 3.585 1.748 6579
-1.510 3.589 1.736 6879
-1.549 3.681 1.765 7363
-1.610 3.827 1.816 6559
-1.612 3.831 1.804 9248
-1.614 3.836 1.792 9964
-1.622 3.854 1.786 7568
-1.621 3.852 1.771 6527
-1.625 3.863 1.762 6747
-1.630 3.874 1.753 7222
-1.635 3.885 1.743 7631
-1.688 4.012 1.782 5228
-1.690 4.016 1.770 5560
-1.692 4.021 1.757 4900
-1.702 4.046 1.753 4730
-1.716 4.077 1.751 6402
-1.717 4.082 1.738 6376
-1.719 4.086 1.725 4888
-1.785 4.241 1.772 4009
-1.795 4.266 1.766 3922
-1.809 4.298 1.763 6227
-1.805 4.289 1.745 7441
-1.801 4.279 1.726 6411
-1.802 4.284 1.713 4139
-1.816 4.315 1.709 2763
-1.867 4.437 1.739 2889
-1.866 4.435 1.722 4437
-1.868 4.439 1.709 5176
-1.875 4.457 1.700 3866
-1.936 4.600 1.734 3081
-1.937 4.604 1.720 4278
-1.936 4.601 1.703 4044
-1.941 4.613 1.691 2573
-1.984 4.714 1.709 2416
-1.991 4.732 1.699 2533
-1.996 4.744 1.687 2232
-2.007 4.769 1.679 3015
-2.070 4.920 1.711 2933
-2.072 4.924 1.696 2896
-2.074 4.928 1.680 2281
-2.087 4.960 1.674 1986
-2.124 5.049 1.684 2599
-2.182 5.186 1.709 2064
-2.193 5.211 1.699 2388
-2.260 5.370 1.729 1990
-2.264 5.382 1.714 3297
-2.266 5.386 1.697 3830
-2.265 5.383 1.678 2181
-2.386 5.669 1.742 2193
-2.390 5.681 1.726 5967
-2.395 5.692 1.710 7609
-2.400 5.703 1.695 6738
-2.402 5.708 1.677 4192
-2.436 5.790 1.680 2666
-2.444 5.808 1.665 1864
-2.463 5.855 1.658 2389
-2.462 5.852 1.638 1709
-2.577 6.125 1.688 1649
-2.576 6.122 1.667 1794
-2.611 6.205 1.667 1821
-2.714 6.451 1.707 1634
-2.710 6.441 1.684 1571
-2.823 6.709 1.726 1387
-2.825 6.713 1.705 1843
-2.823 6.710 1.682 1458
-2.969 7.057 1.739 1116
-2.977 7.075 1.721 2099
-2.979 7.080 1.698 2638
-2.984 7.091 1.678 2696
-2.988 7.102 1.657 3427
-2.990 7.106 1.634 3493
-2.989 7.103 1.611 2677
-3.358 7.982 1.768 1939
-3.360 7.986 1.743 2385
-3.362 7.990 1.718 1816
-3.376 8.023 1.698 1078
-3.620 8.602 1.783 953
-3.597 8.549 1.745 751
-3.593 8.539 1.716 779
-3.661 8.702 1.718 641
-3.663 8.706 1.690 386
-0.910 2.177 1.791 3662
-0.912 2.181 1.784 7324
-0.916 2.192 1.782 7491
-0.918 2.196 1.775 7737
-0.917 2.195 1.764 7984
-0.927 2.217 1.771 7979
-0.936 2.239 1.778 9281
-0.938 2.244 1.771 9281
-0.945 2.260 1.773 8992
-0.949 2.271 1.770 9321
-0.953 2.281 1.767 7281
-0.968 2.316 1.782 7279
-0.967 2.314 1.771 7278
-0.966 2.313 1.759 7571
-0.968 2.317 1.752 7506
-0.973 2.327 1.749 7250
-0.974 2.332 1.742 6986
-0.976 2.336 1.735 5654
-0.981 2.346 1.732 4598
-1.031 2.468 1.805 5831
-1.038 2.485 1.806 8511
-1.043 2.495 1.803 9035
-1.047 2.506 1.799 9959
-1.052 2.517 1.796 8935
-1.059 2.534 1.796 8431
-1.058 2.532 1.784 6538
-1.039 2.486 1.743 5042
-1.059 2.534 1.764 5849
-1.061 2.539 1.756 6910
-1.063 2.543 1.748 5939
-1.112 2.660 1.813 5448
-1.114 2.665 1.805 5308
-1.097 2.625 1.769 5805
-1.099 2.630 1.761 5206
-1.101 2.634 1.752 4606
-1.124 2.689 1.776 4097
-1.128 2.700 1.771 4123
-1.141 2.730 1.778 4659
-1.151 2.753 1.782 6242
-1.155 2.764 1.777 7475
-1.154 2.762 1.764 6659
-1.156 2.766 1.756 5900
-1.166 2.790 1.759 4203
-1.181 2.826 1.769 4852
-1.183 2.831 1.760 5343
-1.228 2.938 1.811 5494
-1.230 2.943 1.802 6879
-1.237 2.960 1.800 7953
-1.242 2.971 1.794 8459
-1.243 2.975 1.785 7652
-1.218 2.915 1.740 6876
-1.223 2.926 1.734 4747
-1.244 2.976 1.750 4745
-1.245 2.980 1.741 6276
-1.291 3.089 1.788 7169
-1.293 3.093 1.779 8313
-1.292 3.091 1.766 7924
-1.316 3.148 1.784 7208
-1.295 3.100 1.746 6534
-1.297 3.104 1.737 7615
-1.324 3.168 1.758 8035
-1.328 3.179 1.751 9710
-1.333 3.190 1.745 10872
-1.354 3.240 1.758 9610
-1.359 3.251 1.752 7355
-1.360 3.255 1.742 8303
-1.357 3.246 1.725 8661
-1.353 3.237 1.708 7831
-1.363 3.262 1.708 5375
-1.379 3.299 1.714 4376
-1.383 3.310 1.707 5037
-1.388 3.321 1.700 5051
-1.488 3.559 1.800 4800
-1.498 3.584 1.799 4559
-1.497 3.582 1.784 5154
-1.496 3.579 1.770 5509
-1.498 3.584 1.759 5292
-1.500 3.588 1.748 6002
-1.538 3.680 1.776 6704
-1.540 3.685 1.765 7908
-1.544 3.696 1.756 6604
-1.600 3.829 1.801 7991
-1.605 3.840 1.792 8633
-1.612 3.858 1.786 6251
-1.617 3.869 1.777 5708
-1.622 3.880 1.768 6392
-1.626 3.891 1.758 6870
-1.628 3.896 1.746 6896
-1.678 4.016 1.782 4440
-1.683 4.027 1.772 4794
-1.682 4.025 1.757 4401
-1.692 4.050 1.753 4285
-1.706 4.081 1.751 6057
-1.708 4.086 1.738 5821
-1.706 4.083 1.723 4192
-1.777 4.252 1.774 3434
-1.788 4.278 1.769 3692
-1.798 4.303 1.763 5598
-1.794 4.293 1.745 6826
-1.790 4.284 1.726 6348
-1.792 4.288 1.713 4128
-1.852 4.430 1.750 2571
-1.859 4.449 1.741 3012
-1.855 4.439 1.722 4084
-1.857 4.443 1.709 4968
-1.864 4.461 1.700 3706
-1.881 4.500 1.698 2577
-1.923 4.602 1.717 4182
-1.925 4.606 1.703 4135
-1.962 4.694 1.717 2876
-1.972 4.719 1.709 2658
-1.980 4.737 1.699 2621
-1.993 4.769 1.694 2561
-1.995 4.774 1.679 3162
-2.058 4.925 1.711 2964
-2.060 4.929 1.696 3231
-2.062 4.933 1.680 2772
-2.075 4.965 1.674 2314
-2.112 5.054 1.684 2759
-2.114 5.058 1.668 2169
-2.183 5.224 1.701 2410
-2.250 5.383 1.731 2168
-2.251 5.387 1.714 3441
-2.253 5.391 1.697 3622
-2.258 5.403 1.683 2102
-2.336 5.590 1.718 2617
-2.376 5.687 1.726 6526
-2.378 5.691 1.708 8538
-2.383 5.702 1.693 7839
-2.385 5.706 1.675 4662
-2.422 5.796 1.680 2307
-2.489 5.956 1.703 2057
-2.449 5.861 1.658 2648
-2.448 5.857 1.638 1910
-2.565 6.139 1.690 1562
-2.591 6.200 1.685 1938
-2.596 6.211 1.667 2216
-2.696 6.450 1.706 1509
-2.677 6.405 1.673 1448
-2.735 6.544 1.685 1426
-2.808 6.720 1.705 1856
-2.804 6.710 1.681 1464
-2.904 6.950 1.713 1069
-2.963 7.090 1.722 1866
-2.962 7.087 1.698 2174
-2.966 7.098 1.678 2346
-2.971 7.109 1.657 3252
-2.973 7.114 1.634 3159
-2.971 7.110 1.611 2424
-3.339 7.990 1.768 2033
-3.341 7.994 1.743 2435
-3.343 7.999 1.718 1854
-3.597 8.607 1.810 1141
-3.599 8.611 1.783 1072
-3.552 8.500 1.734 692
-3.617 8.656 1.736 708
-3.619 8.660 1.709 743
-3.621 8.664 1.681 465
-2.751 6.583 -0.606 282
-2.747 6.573 -0.626 341
-2.746 6.571 -0.647 401
-2.745 6.569 -0.667 401
-0.906 2.179 1.791 3539
-0.908 2.183 1.784 7078
-0.912 2.193 1.782 7240
-0.914 2.198 1.775 7255
-0.914 2.196 1.764 7319
-0.925 2.225 1.775 7500
-0.932 2.241 1.778 8906
-0.934 2.245 1.771 8906
-0.941 2.262 1.773 8722
-0.945 2.272 1.770 9075
-0.950 2.283 1.767 7099
-0.964 2.317 1.782 7063
-0.963 2.316 1.771 7461
-0.963 2.314 1.759 8053
-0.967 2.325 1.756 7992
-0.969 2.329 1.749 7664
-0.971 2.333 1.742 7361
-0.972 2.338 1.735 5629
-1.013 2.434 1.792 4778
-1.027 2.469 1.805 5863
-1.034 2.486 1.806 8424
-1.039 2.497 1.803 8764
-1.043 2.508 1.799 9425
-1.048 2.518 1.796 8275
-1.052 2.529 1.792 7634
-1.054 2.533 1.784 6007
-1.035 2.488 1.743 4584
-1.055 2.536 1.764 5547
-1.057 2.540 1.756 6610
-1.059 2.545 1.748 5759
-1.107 2.662 1.813 5430
-1.109 2.667 1.805 5322
-1.093 2.627 1.769 5938
-1.095 2.632 1.761 5355
-1.096 2.636 1.752 4771
-1.090 2.621 1.732 4080
-1.124 2.702 1.771 4012
-1.136 2.732 1.778 4582
-1.146 2.755 1.782 5908
-1.151 2.766 1.777 6902
-1.152 2.770 1.768 6348
-1.152 2.768 1.756 5834
-1.161 2.792 1.759 4528
-1.177 2.828 1.769 4850
-1.178 2.833 1.760 4974
-1.223 2.940 1.811 5419
-1.225 2.945 1.802 7048
-1.229 2.956 1.796 7949
-1.237 2.973 1.794 8333
-1.209 2.906 1.745 7710
-1.213 2.917 1.740 6848
-1.218 2.928 1.734 5019
-1.236 2.971 1.747 4770
-1.243 2.989 1.745 5922
-1.240 2.980 1.728 6745
-1.285 3.089 1.775 7819
-1.281 3.080 1.759 8098
-1.310 3.150 1.784 6992
-1.290 3.102 1.746 7225
-1.292 3.106 1.737 8285
-1.297 3.117 1.731 7750
-1.326 3.187 1.755 9272
-1.330 3.198 1.748 10341
-1.349 3.242 1.758 9216
-1.351 3.247 1.748 7149
-1.352 3.251 1.738 8198
-1.351 3.249 1.725 8974
-1.348 3.240 1.708 7728
-1.358 3.264 1.708 4950
-1.387 3.335 1.730 4665
-1.378 3.312 1.707 5204
-1.385 3.330 1.703 5182
-1.398 3.361 1.705 4519
-1.408 3.385 1.704 3896
-1.488 3.578 1.781 4430
-1.490 3.582 1.770 4991
-1.525 3.667 1.796 5005
-1.527 3.672 1.784 5469
-1.532 3.683 1.776 7044
-1.534 3.687 1.765 8125
-1.538 3.698 1.756 6687
-1.594 3.831 1.801 6536
-1.596 3.836 1.789 7255
-1.549 3.725 1.727 5246
-1.613 3.879 1.780 5007
-1.618 3.890 1.770 6042
-1.623 3.901 1.761 6364
-1.622 3.898 1.746 6069
-1.672 4.019 1.782 3506
-1.676 4.030 1.772 4008
-1.675 4.028 1.757 4088
-1.683 4.046 1.750 3859
-1.702 4.091 1.754 5463
-1.704 4.095 1.741 5179
-1.697 4.079 1.720 3558
-1.773 4.262 1.777 2804
-1.781 4.280 1.769 3199
-1.791 4.306 1.763 4705
-1.787 4.296 1.745 5839
-1.783 4.287 1.726 5881
-1.785 4.291 1.713 3871
-1.844 4.433 1.750 2449
-1.855 4.459 1.744 3202
-1.851 4.449 1.725 3730
-1.852 4.453 1.711 4572
-1.863 4.478 1.704 3481
-1.876 4.510 1.700 3126
-1.913 4.598 1.715 4028
-1.917 4.609 1.703 4164
-1.954 4.697 1.717 3158
-1.964 4.722 1.709 2703
-1.972 4.741 1.699 2634
-1.985 4.773 1.694 2798
-1.990 4.784 1.681 3168
-2.050 4.928 1.711 3038
-2.055 4.939 1.698 3353
-2.056 4.944 1.683 2983
-2.067 4.969 1.674 2595
-2.104 5.057 1.684 2851
-2.141 5.146 1.694 2302
-2.177 5.234 1.703 2312
-2.241 5.387 1.731 2256
-2.242 5.391 1.714 3455
-2.241 5.388 1.695 3395
-2.299 5.526 1.717 2221
-2.327 5.594 1.718 2814
-2.367 5.691 1.726 6468
-2.369 5.695 1.708 8599
-2.374 5.706 1.693 8168
-2.375 5.710 1.675 4757
-2.474 5.949 1.720 2098
-2.482 5.967 1.705 2385
-2.439 5.865 1.658 2794
-2.438 5.862 1.638 2000
-2.594 6.236 1.714 1573
-2.581 6.204 1.685 2270
-2.582 6.208 1.666 2459
-2.724 6.547 1.728 1582
-2.722 6.545 1.706 1507
-2.718 6.535 1.682 1601
-2.797 6.724 1.705 1873
-2.793 6.714 1.681 1492
-2.860 6.876 1.695 1296
-2.954 7.102 1.724 1611
-2.950 7.092 1.698 1598
-2.958 7.110 1.679 1894
-2.959 7.114 1.657 2795
-2.961 7.118 1.634 2638
-3.142 7.553 1.702 2060
-3.326 7.995 1.768 1879
-3.328 8.000 1.743 2257
-3.329 8.004 1.718 1805
-3.580 8.605 1.809 1187
-3.584 8.617 1.783 1089
-3.586 8.621 1.756 741
-3.603 8.662 1.736 844
-3.605 8.666 1.709 1007
-3.607 8.670 1.681 698
-3.605 8.667 1.653 268
-2.741 6.589 -0.586 313
-2.740 6.587 -0.606 393
-2.739 6.585 -0.627 452
-2.738 6.583 -0.648 511
-2.737 6.581 -0.668 511
-2.737 6.579 -0.689 255
-0.900 2.181 1.791 3322
-0.902 2.186 1.784 6644
-0.906 2.196 1.782 6798
-0.908 2.200 1.775 6648
-0.907 2.199 1.764 6574
-0.921 2.233 1.780 7048
-0.926 2.244 1.778 8563
-0.927 2.248 1.771 8563
-0.934 2.265 1.773 8524
-0.938 2.275 1.770 8911
-0.943 2.286 1.767 6956
-0.957 2.320 1.782 6801
-0.956 2.319 1.771 7620
-0.958 2.323 1.764 8536
-0.960 2.327 1.756 8536
-0.962 2.332 1.749 8234
-0.966 2.342 1.746 8248
-0.968 2.347 1.739 6051
-1.005 2.437 1.792 5320
-1.020 2.473 1.805 5890
-1.027 2.489 1.806 8295
-1.031 2.500 1.803 8427
-1.036 2.511 1.799 8812
-1.040 2.521 1.796 7542
-1.045 2.532 1.792 6796
-1.046 2.537 1.784 5531
-1.046 2.535 1.772 4310
-1.050 2.545 1.768 5263
-1.052 2.550 1.760 6259
-1.054 2.554 1.753 5450
-1.100 2.666 1.813 5422
-1.101 2.670 1.805 5337
-1.088 2.637 1.773 6018
-1.087 2.635 1.761 5452
-1.089 2.639 1.752 4923
-1.083 2.624 1.732 4063
-1.126 2.730 1.787 4003
-1.128 2.735 1.778 4587
-1.138 2.758 1.782 5718
-1.142 2.769 1.777 6503
-1.144 2.774 1.768 6251
-1.146 2.778 1.760 5999
-1.153 2.795 1.759 5094
-1.168 2.832 1.769 4943
-1.173 2.843 1.764 4820
-1.214 2.944 1.811 5115
-1.216 2.948 1.802 6926
-1.221 2.959 1.796 7613
-1.225 2.970 1.791 7963
-1.200 2.910 1.745 7904
-1.205 2.921 1.740 6876
-1.220 2.957 1.749 6120
-1.214 2.942 1.729 5736
-1.226 2.973 1.734 5819
-1.231 2.983 1.728 6875
-1.273 3.086 1.772 7209
-1.272 3.084 1.759 8372
-1.271 3.082 1.746 7731
-1.278 3.099 1.743 8144
-1.283 3.110 1.737 9170
-1.285 3.114 1.727 8099
-1.319 3.198 1.758 8677
-1.324 3.209 1.752 9616
-1.336 3.240 1.755 9073
-1.341 3.251 1.748 7458
-1.343 3.255 1.738 8365
