0.719 2.667 1.557 9081
0.720 2.671 1.550 8147
0.718 2.662 1.534 6896
0.721 2.672 1.530 4756
0.747 2.772 1.572 5116
0.747 2.769 1.561 7180
0.740 2.746 1.538 7569
0.741 2.750 1.530 8375
0.755 2.801 1.546 9028
0.760 2.819 1.545 8956
0.765 2.837 1.544 10007
0.755 2.799 1.515 10073
0.754 2.796 1.503 10930
0.757 2.807 1.498 9064
0.762 2.825 1.496 5345
0.783 2.905 1.525 9477
0.786 2.916 1.520 12092
0.789 2.926 1.514 9936
0.796 2.951 1.516 7632
0.789 2.927 1.494 6570
0.790 2.931 1.485 6454
0.793 2.942 1.480 6696
0.802 2.973 1.484 7428
0.812 3.012 1.491 10431
0.815 3.023 1.485 8149
0.824 3.055 1.489 5726
0.823 3.051 1.476 6607
0.824 3.055 1.467 5733
0.849 3.150 1.498 6122
0.849 3.147 1.486 9847
0.848 3.144 1.474 10966
0.847 3.141 1.461 9376
0.871 3.229 1.488 8974
0.872 3.233 1.478 13279
0.873 3.237 1.469 14236
0.872 3.233 1.456 13433
0.875 3.244 1.449 10761
0.885 3.283 1.454 10337
0.884 3.280 1.442 7916
0.883 3.277 1.429 4262
0.906 3.359 1.450 4916
0.920 3.412 1.460 6344
0.923 3.423 1.453 4866
0.930 3.448 1.451 2566
0.935 3.466 1.446 3372
0.938 3.477 1.438 7149
0.960 3.560 1.458 7570
0.961 3.564 1.447 8038
0.960 3.560 1.434 7211
0.963 3.571 1.426 10264
0.962 3.567 1.413 11594
0.963 3.571 1.402 8524
0.987 3.661 1.422 5177
0.986 3.658 1.409 3704
0.997 3.697 1.410 4183
1.002 3.716 1.404 4424
1.044 3.871 1.445 4253
1.045 3.875 1.434 4635
1.024 3.799 1.395 4275
1.025 3.802 1.384 4358
1.069 3.966 1.425 5376
1.070 3.970 1.414 7530
1.075 3.988 1.406 5971
1.066 3.955 1.383 4274
1.063 3.944 1.366 4799
1.098 4.072 1.394 3635
1.117 4.141 1.402 4260
1.098 4.071 1.367 4746
1.101 4.082 1.357 6099
1.119 4.152 1.365 4923
1.122 4.162 1.354 3476
1.153 4.276 1.374 4256
1.152 4.272 1.359 5147
1.159 4.298 1.353 4877
1.194 4.427 1.375 6872
1.206 4.474 1.375 7810
1.211 4.493 1.365 7739
1.212 4.496 1.352 8832
1.211 4.492 1.336 8354
1.212 4.495 1.323 7362
1.213 4.499 1.310 7700
1.222 4.532 1.304 8109
1.221 4.527 1.288 5575
1.290 4.783 1.339 5037
1.295 4.801 1.328 4097
1.310 4.857 1.327 3800
1.316 4.882 1.318 5782
1.317 4.886 1.303 6535
1.314 4.874 1.285 4106
1.353 5.019 1.304 3293
1.358 5.037 1.292 3438
1.371 5.085 1.287 3115
1.374 5.096 1.274 2149
1.423 5.278 1.298 3410
1.426 5.289 1.284 4567
1.427 5.292 1.268 4734
1.430 5.303 1.254 3140
1.473 5.463 1.271 4069
1.474 5.466 1.254 3801
1.493 5.537 1.252 3931
1.492 5.533 1.234 3974
1.491 5.528 1.216 3078
1.495 5.546 1.202 2339
1.581 5.865 1.245 3381
1.586 5.883 1.231 3875
1.595 5.916 1.219 4056
1.602 5.942 1.205 2990
1.648 6.111 1.217 2726
1.730 6.415 1.251 2063
1.621 6.011 1.162 2630
1.670 6.195 1.174 2039
1.744 6.470 1.201 2196
1.733 6.427 1.174 2930
1.734 6.430 1.155 2850
1.747 6.478 1.142 2256
1.823 6.761 1.166 2403
1.826 6.771 1.147 2735
1.855 6.880 1.142 2423
1.864 6.913 1.126 1659
1.865 6.916 1.105 2287
1.865 6.919 1.084 2768
1.968 7.300 1.114 2241
1.994 7.394 1.104 2175
2.013 7.465 1.091 2178
2.016 7.475 1.069 3017
2.018 7.485 1.048 2840
2.019 7.488 1.025 2425
2.257 8.371 1.105 1828
2.256 8.367 1.079 1483
2.328 8.635 1.083 1448
2.329 8.638 1.057 1619
2.322 8.610 1.028 1389
2.451 9.092 1.051 1126
2.448 9.079 1.022 1039
2.440 9.051 0.992 931
2.384 8.840 0.945 838
2.388 8.858 0.920 666
2.389 8.860 0.893 522
2.389 8.862 0.866 387
2.485 9.215 0.867 326
2.483 9.209 0.839 256
0.260 0.963 0.121 264
0.262 0.971 0.118 341
0.262 0.971 0.115 442
0.262 0.971 0.112 606
0.262 0.971 0.110 701
0.262 0.970 0.107 766
0.260 0.963 0.104 815
0.262 0.970 0.101 827
0.262 0.970 0.099 833
0.262 0.970 0.096 787
0.259 0.962 0.093 738
0.259 0.962 0.091 648
0.259 0.962 0.088 548
0.259 0.962 0.085 459
0.259 0.962 0.082 342
0.517 1.901 1.531 2737
0.518 1.905 1.526 5475
0.520 1.915 1.525 4425
0.527 1.938 1.533 3901
0.528 1.942 1.527 3901
0.527 1.940 1.517 6168
0.526 1.937 1.507 8522
0.527 1.941 1.501 10167
0.528 1.945 1.495 11812
0.530 1.949 1.489 8981
0.531 1.952 1.484 6150
0.532 1.956 1.478 6150
0.533 1.960 1.472 4682
0.596 2.192 1.625 3697
0.592 2.177 1.605 5345
0.591 2.175 1.595 7411
0.587 2.160 1.575 7866
0.586 2.158 1.564 9006
0.587 2.162 1.558 6641
0.601 2.211 1.582 4807
0.604 2.221 1.580 4926
0.603 2.219 1.569 5105
0.604 2.223 1.562 5296
0.602 2.214 1.547 6671
0.603 2.218 1.541 8349
0.604 2.222 1.534 7755
0.629 2.317 1.586 9402
0.632 2.327 1.583 9467
0.635 2.338 1.580 9824
0.636 2.342 1.573 7635
0.648 2.385 1.591 6429
0.639 2.350 1.559 5528
0.634 2.334 1.540 5475
0.635 2.338 1.533 5610
0.665 2.447 1.590 5809
0.666 2.452 1.583 6223
0.664 2.442 1.568 5209
0.658 2.420 1.545 5135
0.677 2.490 1.577 5989
0.676 2.488 1.566 8878
0.677 2.492 1.558 10993
0.678 2.496 1.551 12264
0.677 2.493 1.540 11490
0.680 2.504 1.536 9943
0.683 2.514 1.533 8692
0.684 2.518 1.525 8027
0.716 2.636 1.581 6636
0.694 2.553 1.525 6544
0.722 2.658 1.573 6363
0.723 2.662 1.565 7345
0.724 2.666 1.557 8685
0.724 2.663 1.546 8703
0.723 2.660 1.534 7875
0.724 2.664 1.526 5296
0.755 2.777 1.576 4492
0.746 2.747 1.550 6351
0.746 2.744 1.538 7184
0.758 2.789 1.551 7830
0.761 2.800 1.546 9165
0.769 2.831 1.552 8404
0.772 2.842 1.547 8898
0.768 2.825 1.528 9550
0.763 2.809 1.510 11110
0.766 2.819 1.505 9672
0.777 2.858 1.513 6720
0.789 2.903 1.525 8998
0.794 2.921 1.523 11433
0.797 2.932 1.518 9349
0.803 2.956 1.519 7060
0.814 2.995 1.526 6740
0.815 2.999 1.518 6327
0.801 2.947 1.483 7295
0.804 2.958 1.477 8484
0.818 3.011 1.491 9428
0.821 3.021 1.485 7401
0.830 3.053 1.489 5141
0.829 3.050 1.476 5802
0.830 3.054 1.467 5182
0.856 3.149 1.498 7416
0.855 3.146 1.486 11244
0.854 3.142 1.474 11937
0.853 3.139 1.461 10051
0.877 3.228 1.488 7901
0.878 3.231 1.478 11934
0.877 3.228 1.466 13217
0.878 3.232 1.456 13383
0.881 3.243 1.449 11572
0.892 3.282 1.454 10476
0.891 3.278 1.442 7488
0.890 3.275 1.429 4371
0.910 3.350 1.447 4340
0.929 3.418 1.463 5409
0.932 3.429 1.455 4876
0.933 3.432 1.445 2994
0.934 3.436 1.435 3382
0.944 3.475 1.438 7907
0.945 3.479 1.428 7361
0.962 3.540 1.439 6309
0.963 3.544 1.428 6654
0.970 3.569 1.426 9877
0.969 3.566 1.413 12101
0.970 3.569 1.402 8969
0.994 3.659 1.422 6408
0.993 3.656 1.409 4820
1.004 3.695 1.410 4990
1.007 3.706 1.402 4988
1.049 3.862 1.443 4392
1.052 3.873 1.434 4719
1.055 3.884 1.425 4376
1.058 3.895 1.416 4262
1.077 3.964 1.425 5410
1.078 3.968 1.414 7645
1.063 3.913 1.383 6196
1.074 3.953 1.383 4217
1.069 3.934 1.364 4777
1.068 3.931 1.350 3332
1.125 4.139 1.402 4018
1.106 4.069 1.367 4398
1.107 4.073 1.355 5505
1.128 4.149 1.365 3861
1.160 4.270 1.387 2674
1.159 4.267 1.372 3891
1.158 4.263 1.357 5194
1.165 4.288 1.351 5219
1.202 4.424 1.375 6387
1.215 4.472 1.375 7388
1.218 4.483 1.363 7581
1.219 4.486 1.350 8191
1.220 4.490 1.336 9159
1.221 4.493 1.323 8382
1.222 4.496 1.310 7074
1.231 4.529 1.304 6916
1.230 4.525 1.288 5367
1.299 4.781 1.339 5033
1.306 4.806 1.330 3551
1.321 4.862 1.329 3684
1.326 4.880 1.318 6104
1.325 4.876 1.301 7044
1.324 4.871 1.285 4433
1.365 5.024 1.305 2622
1.372 5.049 1.295 3053
1.379 5.075 1.285 3017
1.386 5.100 1.275 2220
1.433 5.275 1.298 3112
1.436 5.286 1.284 4320
1.439 5.297 1.270 4595
1.440 5.300 1.254 3242
1.484 5.460 1.271 4498
1.485 5.464 1.254 4194
1.506 5.542 1.253 3562
1.496 5.507 1.229 4152
1.497 5.510 1.213 3068
1.506 5.543 1.202 2160
1.597 5.877 1.248 3127
1.598 5.880 1.231 3717
1.601 5.891 1.214 3347
1.663 6.119 1.238 2876
1.660 6.107 1.217 2726
1.652 6.080 1.193 2370
1.635 6.015 1.163 2718
1.754 6.456 1.219 2015
1.755 6.459 1.199 2406
1.746 6.424 1.174 3038
1.746 6.427 1.155 2961
1.761 6.482 1.144 2482
1.760 6.478 1.123 2494
1.839 6.768 1.147 2528
1.869 6.876 1.142 2127
1.937 7.129 1.157 1746
1.915 7.049 1.124 2214
1.879 6.915 1.084 2714
1.981 7.289 1.113 2308
1.981 7.292 1.091 2115
2.025 7.453 1.090 2277
2.030 7.471 1.069 2845
2.031 7.474 1.047 2608
2.034 7.484 1.025 2263
2.274 8.367 1.105 1731
2.272 8.362 1.079 1457
2.345 8.631 1.083 1345
2.346 8.633 1.057 1457
2.473 9.100 1.079 1147
2.471 9.095 1.051 1136
2.433 8.953 1.010 1083
2.442 8.985 0.986 918
2.403 8.843 0.945 803
2.404 8.845 0.919 660
2.404 8.848 0.892 539
2.405 8.850 0.866 400
2.503 9.210 0.867 364
2.503 9.212 0.840 269
0.262 0.963 0.121 284
0.264 0.970 0.118 378
0.262 0.963 0.115 490
0.262 0.962 0.113 669
0.264 0.970 0.110 761
0.264 0.970 0.107 833
0.264 0.970 0.104 891
0.263 0.970 0.101 908
0.263 0.970 0.099 916
0.263 0.969 0.096 859
0.261 0.962 0.093 800
0.261 0.962 0.091 707
0.261 0.961 0.088 603
0.261 0.961 0.085 500
0.261 0.961 0.082 364
0.261 0.961 0.080 259
0.521 1.900 1.531 2527
0.522 1.904 1.526 5054
0.525 1.914 1.525 3976
0.531 1.937 1.533 3317
0.532 1.941 1.527 3317
0.530 1.932 1.512 6032
0.529 1.930 1.502 8857
0.530 1.933 1.496 10785
0.531 1.937 1.491 12713
0.532 1.941 1.485 9655
0.535 1.951 1.484 6723
0.536 1.955 1.478 6723
0.537 1.959 1.472 5144
0.538 1.962 1.466 3565
0.595 2.170 1.601 5179
0.594 2.167 1.590 7593
0.592 2.159 1.575 7940
0.593 2.163 1.569 8648
0.593 2.160 1.558 6333
0.604 2.203 1.577 4182
0.595 2.168 1.545 4272
0.599 2.185 1.547 4636
0.606 2.208 1.554 4725
0.607 2.212 1.547 6204
0.608 2.216 1.541 7683
0.609 2.220 1.534 6920
0.635 2.315 1.586 8683
0.638 2.326 1.583 8660
0.641 2.336 1.580 8865
0.644 2.347 1.577 7032
0.654 2.384 1.591 6378
0.642 2.342 1.555 5186
0.640 2.333 1.540 5350
0.641 2.337 1.533 5731
0.669 2.439 1.586 5391
0.672 2.450 1.583 5544
0.670 2.441 1.568 4605
0.662 2.412 1.541 4232
0.683 2.489 1.577 5498
0.682 2.486 1.566 8272
0.685 2.497 1.562 10422
0.684 2.494 1.551 11987
0.685 2.498 1.544 11428
0.686 2.502 1.536 10242
0.689 2.513 1.533 9374
0.690 2.516 1.525 8500
0.723 2.635 1.581 6829
0.698 2.544 1.521 6334
0.729 2.656 1.573 5965
0.728 2.653 1.562 6491
0.729 2.657 1.554 8360
0.728 2.655 1.542 9302
0.727 2.652 1.531 8904
0.730 2.662 1.526 5988
0.744 2.714 1.544 4458
0.749 2.732 1.543 5729
0.752 2.742 1.538 6525
0.765 2.787 1.551 7423
0.768 2.798 1.546 8925
0.774 2.823 1.549 7591
0.779 2.840 1.547 7965
0.776 2.830 1.532 9956
0.777 2.834 1.523 12873
0.779 2.838 1.515 11489
0.783 2.856 1.513 8404
0.796 2.901 1.525 8448
0.801 2.919 1.523 10682
0.806 2.937 1.521 8787
0.810 2.954 1.519 6443
0.819 2.986 1.523 6643
0.820 2.990 1.514 6808
0.810 2.952 1.486 8051
0.811 2.956 1.477 9283
0.825 3.009 1.491 8301
0.836 3.047 1.498 6774
0.837 3.051 1.489 4972
0.836 3.048 1.476 5611
0.837 3.052 1.467 5314
0.863 3.147 1.498 8156
0.862 3.144 1.486 11703
0.859 3.133 1.470 12220
0.860 3.137 1.461 10415
0.863 3.148 1.455 7865
0.886 3.229 1.478 10291
0.885 3.226 1.466 11897
0.886 3.230 1.456 12948
0.889 3.240 1.449 11947
0.898 3.272 1.451 10235
0.899 3.276 1.442 7104
0.900 3.280 1.432 4565
0.914 3.333 1.442 4172
0.937 3.416 1.463 4413
0.940 3.426 1.455 4850
0.939 3.423 1.442 3722
0.940 3.427 1.432 3947
0.955 3.480 1.441 8437
0.956 3.484 1.431 7827
0.967 3.524 1.434 5834
0.968 3.527 1.423 6785
0.976 3.560 1.423 9506
0.977 3.563 1.413 12057
0.978 3.567 1.402 9001
1.003 3.657 1.422 7094
1.002 3.653 1.409 5446
1.013 3.693 1.410 5506
1.016 3.704 1.402 5510
1.025 3.736 1.401 4428
1.062 3.871 1.434 4407
1.065 3.881 1.425 4607
1.068 3.892 1.416 4561
1.087 3.961 1.425 5132
1.088 3.965 1.414 7210
1.073 3.910 1.383 5900
1.086 3.958 1.385 3864
1.076 3.925 1.362 4637
1.077 3.928 1.350 3370
1.135 4.136 1.402 3487
1.115 4.066 1.367 4012
1.116 4.070 1.355 4765
1.139 4.154 1.367 3265
1.169 4.260 1.385 2429
1.168 4.256 1.370 3363
1.168 4.260 1.357 4847
1.171 4.271 1.347 5404
1.213 4.421 1.375 5721
1.228 4.476 1.377 6785
1.229 4.480 1.363 7627
1.230 4.483 1.350 7542
1.231 4.487 1.336 9438
1.234 4.497 1.325 9058
1.233 4.493 1.310 5940
1.240 4.519 1.302 5360
1.279 4.663 1.325 4744
1.312 4.785 1.341 4796
1.287 4.692 1.302 3397
1.333 4.858 1.329 3582
1.338 4.877 1.318 6369
1.337 4.872 1.301 7546
1.335 4.868 1.285 4742
1.381 5.035 1.309 1965
1.390 5.068 1.301 2937
1.391 5.072 1.285 2863
1.406 5.127 1.282 2286
1.444 5.265 1.296 2886
1.449 5.283 1.284 3850
1.452 5.293 1.270 4302
1.455 5.304 1.255 3400
1.497 5.457 1.271 4928
1.496 5.453 1.253 4606
1.496 5.456 1.237 3691
1.508 5.496 1.228 4390
1.508 5.499 1.211 3133
1.520 5.540 1.202 2045
1.617 5.896 1.253 2989
1.610 5.869 1.229 3365
1.611 5.872 1.212 3077
1.644 5.995 1.216 2771
1.674 6.103 1.217 2614
1.667 6.076 1.193 2585
1.661 6.057 1.171 2965
1.770 6.451 1.219 2179
1.768 6.447 1.198 2571
1.761 6.420 1.174 3058
1.787 6.513 1.169 2962
1.777 6.478 1.144 2691
1.776 6.473 1.123 2728
1.855 6.763 1.147 2282
1.856 6.766 1.126 1721
1.954 7.124 1.157 1903
1.930 7.036 1.123 2527
1.931 7.039 1.102 2720
1.996 7.276 1.112 2309
1.997 7.279 1.090 2215
2.043 7.449 1.090 2400
2.046 7.459 1.068 2622
2.049 7.469 1.047 2265
2.052 7.479 1.025 1982
2.294 8.362 1.105 1512
2.294 8.364 1.080 1331
2.364 8.617 1.082 1365
2.369 8.635 1.058 1423
2.494 9.094 1.079 1126
2.495 9.096 1.052 1148
2.500 9.114 1.026 1146
2.501 9.116 0.999 1094
2.501 9.119 0.971 785
2.425 8.840 0.919 617
2.511 9.154 0.919 515
2.514 9.163 0.892 391
2.525 9.204 0.867 415
2.525 9.206 0.840 311
0.264 0.962 0.121 294
0.266 0.970 0.118 389
0.264 0.962 0.115 503
0.264 0.962 0.113 690
0.266 0.969 0.110 792
0.266 0.969 0.107 866
0.266 0.969 0.104 923
0.266 0.969 0.101 942
0.266 0.969 0.099 952
0.266 0.969 0.096 888
0.264 0.961 0.093 820
0.264 0.961 0.091 724
0.264 0.961 0.088 617
0.264 0.961 0.085 510
0.263 0.961 0.082 371
0.263 0.960 0.080 267
0.531 1.904 1.536 2227
0.533 1.908 1.530 4455
0.534 1.912 1.525 3512
0.517 1.854 1.473 3074
0.518 1.857 1.468 3074
0.537 1.923 1.508 6005
0.538 1.927 1.502 9441
0.539 1.931 1.496 11488
0.540 1.935 1.491 13534
0.541 1.939 1.485 10330
0.544 1.949 1.484 7243
0.545 1.953 1.478 7243
0.546 1.956 1.472 5562
0.547 1.960 1.466 3882
0.605 2.167 1.601 5155
0.604 2.165 1.590 7792
0.604 2.162 1.580 8014
0.603 2.160 1.569 8393
0.602 2.158 1.558 6165
0.602 2.155 1.547 4151
0.604 2.165 1.545 4465
0.606 2.169 1.539 5138
0.608 2.180 1.537 5382
0.615 2.203 1.543 6095
0.618 2.213 1.541 7287
0.619 2.217 1.534 6275
0.647 2.319 1.590 8010
0.650 2.329 1.587 7829
0.651 2.333 1.580 7802
0.654 2.344 1.577 6477
0.664 2.381 1.591 6204
0.653 2.339 1.555 4879
0.650 2.330 1.540 5242
0.651 2.334 1.533 5902
0.678 2.430 1.582 5222
0.681 2.440 1.579 5054
0.680 2.438 1.568 4231
0.672 2.409 1.541 3752
0.694 2.486 1.577 5122
0.695 2.490 1.570 7776
0.696 2.494 1.562 9836
0.695 2.491 1.551 11462
0.696 2.495 1.544 11098
0.697 2.499 1.536 10052
0.700 2.509 1.533 9356
0.702 2.513 1.525 8324
0.736 2.638 1.585 6900
0.709 2.541 1.521 5898
0.740 2.653 1.573 5614
0.740 2.650 1.562 5900
0.739 2.647 1.550 8125
0.740 2.651 1.542 9647
0.739 2.648 1.531 9489
0.740 2.652 1.523 6514
0.757 2.711 1.544 4526
0.758 2.715 1.536 5642
0.763 2.732 1.535 5909
0.775 2.777 1.548 6901
0.780 2.795 1.546 8440
0.783 2.805 1.542 6954
0.792 2.837 1.547 7463
0.791 2.834 1.535 11138
0.790 2.831 1.523 14840
0.793 2.842 1.518 13736
0.794 2.845 1.510 9925
0.809 2.898 1.525 7597
0.814 2.915 1.523 9555
0.819 2.933 1.521 8093
0.826 2.958 1.522 5895
0.832 2.982 1.523 6423
0.832 2.979 1.511 7316
0.825 2.955 1.489 8597
0.824 2.952 1.477 9579
0.847 3.033 1.504 7450
0.850 3.044 1.498 6463
0.849 3.040 1.485 4599
0.850 3.044 1.476 5180
0.851 3.048 1.467 5254
0.877 3.143 1.498 8390
0.874 3.133 1.483 11547
0.873 3.129 1.470 12227
0.875 3.133 1.461 10433
0.878 3.144 1.455 7540
0.900 3.225 1.478 8580
0.897 3.215 1.463 10545
0.900 3.226 1.456 12333
0.903 3.236 1.449 12029
0.912 3.268 1.451 9727
0.913 3.272 1.442 6759
0.916 3.283 1.435 4861
0.929 3.329 1.442 4247
0.928 3.326 1.429 3790
0.955 3.422 1.455 4843
0.952 3.412 1.440 4583
0.953 3.415 1.429 4550
0.970 3.476 1.441 8641
0.971 3.480 1.431 8167
0.980 3.512 1.431 5416
0.983 3.523 1.423 6821
0.990 3.548 1.420 9039
0.993 3.559 1.413 11444
0.994 3.562 1.402 8542
1.019 3.652 1.422 7294
1.020 3.656 1.411 5743
1.030 3.689 1.410 5784
1.033 3.699 1.402 5750
1.042 3.732 1.401 5054
1.079 3.866 1.434 3941
1.082 3.877 1.425 4596
1.083 3.880 1.413 4542
1.096 3.927 1.416 4816
1.103 3.953 1.411 6418
1.090 3.905 1.383 5255
1.091 3.909 1.371 3490
1.092 3.912 1.360 4458
1.095 3.923 1.350 3369
1.127 4.036 1.372 2986
1.132 4.054 1.365 3647
1.135 4.065 1.355 3974
1.160 4.156 1.369 2713
1.184 4.240 1.380 2409
1.187 4.251 1.370 3210
1.188 4.255 1.357 4529
1.191 4.265 1.347 5292
1.233 4.416 1.375 5099
1.248 4.471 1.377 6163
1.249 4.474 1.363 7790
1.248 4.470 1.348 6810
1.253 4.488 1.338 9295
1.254 4.492 1.325 9881
1.255 4.495 1.311 5206
1.260 4.513 1.302 4258
1.261 4.516 1.288 4164
1.334 4.779 1.341 4402
1.308 4.686 1.302 3339
1.354 4.852 1.329 3445
1.357 4.863 1.316 6558
1.358 4.866 1.301 7966
1.357 4.862 1.285 5070
1.443 5.170 1.342 1784
1.413 5.062 1.301 2835
1.412 5.058 1.284 2760
1.433 5.136 1.285 2402
1.468 5.258 1.296 2695
1.450 5.194 1.266 3404
1.476 5.287 1.270 3923
1.479 5.297 1.255 3448
1.521 5.450 1.271 5258
1.520 5.446 1.253 4940
1.521 5.449 1.237 3990
1.530 5.482 1.226 4535
1.533 5.492 1.211 3086
1.567 5.615 1.218 2204
1.646 5.896 1.254 3074
1.632 5.846 1.226 3083
1.633 5.849 1.209 3166
1.671 5.988 1.216 2721
1.702 6.096 1.217 2478
1.692 6.061 1.192 2636
1.688 6.049 1.171 3077
1.796 6.436 1.217 2230
1.795 6.431 1.197 2682
1.792 6.419 1.175 2928
1.816 6.505 1.169 2986
1.806 6.470 1.144 2800
1.807 6.473 1.124 2919
1.808 6.476 1.105 2093
1.935 6.931 1.152 1651
1.988 7.123 1.158 1939
1.962 7.028 1.123 2674
1.962 7.030 1.102 2737
1.931 6.920 1.065 2274
2.029 7.270 1.090 2301
2.074 7.432 1.089 2477
2.079 7.449 1.068 2420
2.082 7.460 1.047 1932
2.085 7.470 1.025 1716
2.272 8.139 1.080 1312
2.275 8.149 1.057 1207
2.280 8.167 1.034 1368
2.407 8.625 1.058 1366
2.535 9.082 1.079 1102
2.536 9.085 1.052 1188
2.541 9.103 1.026 1268
2.541 9.105 0.999 1265
2.542 9.107 0.971 963
2.551 9.140 0.947 608
2.550 9.135 0.918 576
2.548 9.129 0.890 460
2.566 9.192 0.867 456
2.566 9.194 0.840 355
0.268 0.961 0.121 309
0.270 0.968 0.118 395
0.268 0.961 0.115 498
0.270 0.968 0.112 668
0.270 0.968 0.110 775
0.270 0.968 0.107 856
0.268 0.960 0.104 915
0.270 0.968 0.101 929
0.270 0.968 0.099 936
0.270 0.968 0.096 878
0.268 0.960 0.093 816
0.268 0.960 0.091 716
0.268 0.960 0.088 607
0.270 0.967 0.085 502
0.268 0.959 0.082 364
0.268 0.959 0.080 256
0.517 1.835 1.485 2159
0.518 1.839 1.479 4319
0.519 1.842 1.474 3815
0.522 1.852 1.473 3346
0.523 1.856 1.468 3346
0.542 1.922 1.508 6235
0.541 1.920 1.498 10244
0.542 1.923 1.492 12318
0.543 1.927 1.486 14392
0.546 1.937 1.485 10975
0.549 1.947 1.484 7768
0.550 1.951 1.478 7768
0.551 1.955 1.472 5970
0.552 1.959 1.466 4172
0.609 2.159 1.597 5200
0.608 2.157 1.586 7938
0.609 2.161 1.580 7999
0.610 2.165 1.573 8060
0.608 2.156 1.558 6057
0.607 2.154 1.547 4384
0.608 2.158 1.541 4792
0.611 2.168 1.539 5757
0.614 2.178 1.537 6299
0.621 2.201 1.543 6334
0.624 2.212 1.541 7140
0.626 2.222 1.538 5827
0.655 2.324 1.594 7354
0.656 2.328 1.587 7008
0.659 2.338 1.584 6724
0.660 2.342 1.577 5955
0.669 2.372 1.587 5933
0.659 2.337 1.555 4568
0.656 2.328 1.540 5113
0.659 2.339 1.537 6068
0.683 2.421 1.578 5304
0.684 2.425 1.571 4931
0.677 2.403 1.548 4181
0.678 2.407 1.541 3592
0.700 2.484 1.577 4438
0.701 2.488 1.570 6733
0.702 2.492 1.562 8618
0.702 2.489 1.551 10347
0.703 2.493 1.544 10262
0.704 2.497 1.536 9566
0.707 2.508 1.533 9256
0.708 2.512 1.525 8034
0.743 2.636 1.585 6904
0.746 2.647 1.581 5483
0.747 2.651 1.573 5290
0.747 2.648 1.562 5357
0.746 2.645 1.550 7996
0.747 2.649 1.542 9820
0.746 2.647 1.531 9790
0.747 2.650 1.523 6951
0.764 2.709 1.544 4475
0.763 2.706 1.532 5721
0.768 2.723 1.531 5357
0.782 2.775 1.548 6470
0.785 2.786 1.543 7965
0.788 2.797 1.538 6668
0.797 2.828 1.544 7152
0.798 2.832 1.535 12378
0.797 2.829 1.523 16480
0.800 2.840 1.518 15669
0.803 2.850 1.513 11306
0.822 2.916 1.535 7172
0.823 2.920 1.526 8269
0.828 2.938 1.524 7355
0.831 2.949 1.519 5506
0.838 2.973 1.520 6197
0.839 2.977 1.511 7657
0.836 2.967 1.496 8910
0.834 2.957 1.480 9554
0.856 3.038 1.507 7335
0.859 3.048 1.501 6582
0.856 3.038 1.485 4293
0.857 3.042 1.476 4453
0.859 3.046 1.467 4796
0.885 3.141 1.498 8046
0.882 3.130 1.483 10584
0.881 3.127 1.470 11693
0.883 3.131 1.461 10249
0.888 3.149 1.458 7082
0.907 3.216 1.475 6785
0.906 3.213 1.463 9251
0.907 3.216 1.453 11633
0.912 3.234 1.449 11892
0.917 3.252 1.445 9293
0.924 3.277 1.444 6454
0.927 3.288 1.437 5196
0.938 3.327 1.442 4404
0.939 3.330 1.432 3682
0.964 3.420 1.455 4902
0.961 3.409 1.440 5340
0.962 3.413 1.429 4994
0.979 3.474 1.441 8493
0.980 3.477 1.431 8200
0.989 3.510 1.431 4807
0.994 3.527 1.426 6446
0.999 3.545 1.420 8372
1.002 3.556 1.413 10369
1.006 3.567 1.404 7792
1.029 3.650 1.422 7346
1.030 3.653 1.411 6026
1.037 3.679 1.408 5906
1.040 3.689 1.399 5818
1.051 3.729 1.401 5542
1.089 3.863 1.434 3404
1.090 3.867 1.422 4445
1.093 3.877 1.413 4311
1.106 3.925 1.416 4357
1.111 3.943 1.409 5397
1.112 3.946 1.397 4563
1.101 3.906 1.371 3192
1.102 3.910 1.360 4234
1.105 3.920 1.350 3327
1.135 4.026 1.370 3356
1.138 4.037 1.360 3422
1.143 4.055 1.353 3361
1.177 4.175 1.376 2712
1.194 4.237 1.380 2636
1.197 4.248 1.370 3363
1.198 4.252 1.357 4233
1.208 4.284 1.353 5035
1.244 4.413 1.375 4758
1.259 4.468 1.377 5897
1.260 4.471 1.363 8167
1.259 4.467 1.348 6008
1.264 4.485 1.338 8776
1.267 4.496 1.327 10951
1.268 4.499 1.313 6214
1.271 4.510 1.302 4573
1.272 4.513 1.288 3674
1.354 4.805 1.348 3911
1.320 4.683 1.302 3045
1.367 4.849 1.329 3335
1.370 4.860 1.316 6684
1.371 4.863 1.301 8196
1.370 4.859 1.285 5433
1.400 4.966 1.295 2242
1.426 5.058 1.301 2773
1.425 5.054 1.284 2842
1.447 5.132 1.285 2410
1.450 5.142 1.272 2750
1.463 5.190 1.266 3101
1.487 5.276 1.268 3668
1.492 5.294 1.255 3434
1.537 5.454 1.272 5429
1.534 5.442 1.253 5015
1.535 5.445 1.237 4028
1.544 5.478 1.226 4409
1.577 5.593 1.232 3014
1.580 5.604 1.216 2388
1.663 5.899 1.255 3150
1.643 5.827 1.224 3255
1.643 5.830 1.206 3624
1.644 5.833 1.189 2880
1.717 6.091 1.217 2339
1.705 6.049 1.190 2537
1.702 6.037 1.170 2984
1.807 6.409 1.214 2322
1.810 6.419 1.196 2820
1.808 6.415 1.175 2752
1.832 6.500 1.169 3000
1.823 6.466 1.144 2924
1.823 6.468 1.124 3108
1.824 6.471 1.105 2356
1.950 6.919 1.151 1935
2.006 7.118 1.158 1895
1.977 7.015 1.122 2719
1.978 7.018 1.101 2714
1.947 6.907 1.064 2390
2.048 7.265 1.090 2220
2.091 7.419 1.088 2553
2.096 7.437 1.067 2194
2.172 7.704 1.077 1851
2.172 7.707 1.054 1629
2.293 8.133 1.080 1544
2.296 8.143 1.057 1388
2.301 8.161 1.034 1381
2.303 8.171 1.010 1307
2.387 8.469 1.016 1130
2.561 9.086 1.053 1221
2.564 9.096 1.026 1397
2.565 9.099 0.999 1417
2.565 9.101 0.971 1076
2.568 9.111 0.945 669
2.571 9.121 0.918 673
2.572 9.123 0.890 580
2.589 9.186 0.867 476
2.590 9.188 0.840 374
0.213 0.754 0.166 256
0.213 0.754 0.163 299
0.213 0.754 0.161 322
0.213 0.754 0.159 295
0.271 0.960 0.121 287
0.273 0.968 0.118 364
0.273 0.968 0.115 464
0.271 0.960 0.113 629
0.273 0.967 0.110 728
0.273 0.967 0.107 802
0.271 0.960 0.104 857
0.273 0.967 0.101 871
0.273 0.967 0.099 879
0.273 0.967 0.096 824
0.270 0.959 0.093 766
0.270 0.959 0.091 675
0.270 0.959 0.088 571
0.270 0.959 0.085 465
0.270 0.959 0.082 332
0.521 1.834 1.485 2602
0.522 1.837 1.479 5205
0.525 1.847 1.479 4417
0.526 1.851 1.473 3646
0.527 1.855 1.468 3646
0.544 1.915 1.503 6590
0.544 1.912 1.493 11035
0.546 1.922 1.492 13045
0.547 1.926 1.486 15116
0.550 1.936 1.485 11484
0.553 1.946 1.484 8209
0.554 1.950 1.478 8209
0.555 1.954 1.472 6303
0.555 1.951 1.462 4432
0.613 2.158 1.597 5288
0.613 2.155 1.586 7966
0.614 2.159 1.580 7865
0.615 2.163 1.573 7763
0.612 2.155 1.558 5930
0.612 2.152 1.547 4667
0.613 2.156 1.541 5171
0.616 2.167 1.539 6351
0.619 2.177 1.537 7185
0.624 2.194 1.539 6730
0.628 2.211 1.541 7109
0.659 2.318 1.601 5600
0.660 2.322 1.594 6863
0.663 2.333 1.591 6359
0.664 2.337 1.584 5911
0.665 2.341 1.577 5596
0.674 2.371 1.587 5692
0.688 2.421 1.608 4661
0.689 2.425 1.601 5418
0.664 2.337 1.537 6363
0.669 2.354 1.538 5532
0.678 2.384 1.547 5634
0.681 2.395 1.544 4633
0.682 2.399 1.537 3669
0.685 2.409 1.534 3925
0.707 2.486 1.570 5667
0.708 2.490 1.562 7346
0.707 2.488 1.551 9171
0.708 2.492 1.544 9378
0.711 2.502 1.540 9052
0.714 2.513 1.536 9240
0.715 2.517 1.529 7931
0.749 2.634 1.585 6670
0.752 2.645 1.581 5293
0.753 2.649 1.573 4844
0.750 2.640 1.558 4731
0.750 2.637 1.546 7859
0.751 2.641 1.539 10003
0.752 2.645 1.531 10079
0.753 2.649 1.523 7524
0.768 2.700 1.540 4599
0.769 2.704 1.532 5981
0.772 2.715 1.528 5270
0.786 2.766 1.544 6415
0.789 2.777 1.539 7784
0.793 2.788 1.535 6724
0.801 2.819 1.540 7057
0.803 2.823 1.532 13036
0.806 2.834 1.527 17258
0.807 2.838 1.518 16692
0.810 2.849 1.513 12312
0.827 2.908 1.532 6795
0.830 2.918 1.526 7033
0.835 2.936 1.524 6633
0.838 2.947 1.519 5233
0.845 2.972 1.520 5914
0.846 2.975 1.511 7564
0.843 2.965 1.496 8819
0.840 2.955 1.480 9240
0.863 3.036 1.507 7407
0.866 3.046 1.501 6930
0.863 3.036 1.485 4128
0.864 3.040 1.476 3604
0.865 3.044 1.467 4118
0.892 3.139 1.498 7105
0.887 3.121 1.480 9225
0.888 3.125 1.470 10951
0.891 3.136 1.464 9844
0.894 3.147 1.458 6222
0.912 3.207 1.472 5190
0.911 3.203 1.460 7952
0.914 3.214 1.453 10641
0.919 3.232 1.449 11325
0.922 3.243 1.443 8839
0.931 3.275 1.444 6080
0.936 3.293 1.440 5330
0.943 3.318 1.439 4645
0.948 3.336 1.435 3806
0.969 3.410 1.453 5041
0.968 3.407 1.440 5879
0.970 3.411 1.429 5235
0.987 3.471 1.441 8133
0.988 3.475 1.431 8126
0.995 3.500 1.428 4408
1.002 3.525 1.426 6006
1.009 3.550 1.423 7594
1.012 3.561 1.415 8955
1.013 3.565 1.404 6836
1.035 3.640 1.420 7115
1.038 3.651 1.411 5905
1.045 3.676 1.408 5620
1.048 3.687 1.399 5577
1.059 3.727 1.401 5767
1.054 3.709 1.382 3606
1.098 3.864 1.422 4252
1.099 3.868 1.411 4083
1.115 3.922 1.416 3874
1.118 3.933 1.406 4381
1.123 3.951 1.399 3809
1.110 3.904 1.371 2928
1.111 3.907 1.360 3927
1.136 3.998 1.375 3269
1.137 4.001 1.363 3771
1.143 4.020 1.356 3494
1.154 4.059 1.355 3071
1.190 4.187 1.380 2991
1.204 4.235 1.380 3049
1.205 4.238 1.368 3610
1.210 4.256 1.359 3988
1.217 4.282 1.353 4933
1.254 4.410 1.375 4757
1.271 4.472 1.379 6273
1.270 4.468 1.363 8548
1.269 4.464 1.348 5565
1.276 4.490 1.340 8538
1.277 4.493 1.327 12267
1.280 4.504 1.315 8498
1.281 4.507 1.302 5801
1.282 4.510 1.288 3530
1.367 4.809 1.350 3992
1.377 4.842 1.343 2731
1.377 4.846 1.329 3205
1.381 4.857 1.316 6649
1.381 4.860 1.301 8265
1.380 4.856 1.285 5788
1.411 4.963 1.295 3117
1.437 5.055 1.301 2668
1.434 5.044 1.282 3058
1.430 5.032 1.263 2476
1.461 5.139 1.272 2806
1.496 5.262 1.282 2856
1.497 5.265 1.266 3676
1.551 5.454 1.290 3440
1.549 5.450 1.272 5391
1.546 5.438 1.253 4802
1.547 5.442 1.237 3890
1.554 5.467 1.225 4174
1.589 5.590 1.232 3068
1.592 5.600 1.216 2546
1.676 5.895 1.255 3096
1.655 5.824 1.224 3461
1.656 5.827 1.206 4202
1.655 5.822 1.187 3367
1.728 6.080 1.215 2196
1.716 6.038 1.189 2507
1.715 6.034 1.170 2895
1.818 6.397 1.212 2452
1.821 6.408 1.194 2864
1.852 6.516 1.192 2517
1.847 6.496 1.169 2996
1.837 6.461 1.144 2991
1.835 6.457 1.123 3235
1.838 6.467 1.105 2546
1.963 6.907 1.150 2193
1.896 6.668 1.094 2107
1.993 7.011 1.122 2724
1.994 7.013 1.101 2666
1.962 6.903 1.064 2460
2.066 7.268 1.091 2081
2.108 7.414 1.088 2525
2.110 7.424 1.066 1964
2.189 7.699 1.077 1973
2.189 7.702 1.054 1759
2.311 8.128 1.080 1774
2.311 8.131 1.056 1581
2.433 8.557 1.078 1388
2.410 8.477 1.043 1280
2.404 8.456 1.015 1310
2.318 8.156 0.959 1207
2.584 9.090 1.026 1437
2.585 9.093 0.999 1508
2.585 9.095 0.971 1175
2.586 9.098 0.944 730
2.591 9.115 0.918 729
2.589 9.109 0.890 644
2.609 9.180 0.867 502
2.610 9.182 0.840 397
2.611 9.184 0.812 260
0.214 0.754 0.168 260
0.216 0.761 0.166 329
0.214 0.754 0.163 380
0.214 0.754 0.161 417
0.214 0.754 0.159 403
0.212 0.746 0.157 304
0.273 0.960 0.121 252
0.275 0.967 0.118 324
0.273 0.959 0.115 421
0.273 0.959 0.113 578
0.275 0.967 0.110 670
0.275 0.967 0.107 743
0.273 0.959 0.104 793
0.275 0.967 0.101 804
0.275 0.966 0.099 809
0.275 0.966 0.096 759
0.272 0.959 0.093 709
0.272 0.958 0.091 630
0.272 0.958 0.088 538
0.272 0.958 0.085 434
0.272 0.958 0.082 304
0.528 1.838 1.489 3058
0.529 1.842 1.484 6116
0.530 1.846 1.479 5051
0.534 1.862 1.482 4122
0.536 1.866 1.477 4122
0.547 1.907 1.499 7052
0.548 1.911 1.493 11857
0.550 1.915 1.487 13707
0.552 1.925 1.486 15714
0.554 1.928 1.480 11916
0.558 1.945 1.484 8563
0.559 1.948 1.478 8563
0.560 1.952 1.472 6523
0.560 1.950 1.462 4565
0.619 2.156 1.597 5460
0.618 2.154 1.586 7943
0.621 2.164 1.584 7713
0.622 2.168 1.577 7544
0.618 2.153 1.558 5811
0.617 2.151 1.547 5029
0.618 2.155 1.541 5628
0.621 2.165 1.539 7043
0.626 2.182 1.541 8209
0.629 2.192 1.539 7414
0.634 2.209 1.541 7224
0.665 2.316 1.601 5573
0.668 2.327 1.598 6352
0.667 2.324 1.587 5916
0.668 2.328 1.580 5508
0.670 2.333 1.573 5502
0.678 2.363 1.583 5557
0.694 2.419 1.608 4859
0.695 2.423 1.601 5753
0.672 2.342 1.541 6872
0.677 2.359 1.542 6378
0.684 2.383 1.547 6641
0.685 2.387 1.540 5357
0.688 2.397 1.537 4169
0.689 2.401 1.530 4377
0.711 2.478 1.566 4617
0.714 2.488 1.562 6124
0.713 2.486 1.551 8086
0.713 2.483 1.540 8604
0.718 2.500 1.540 8595
0.721 2.511 1.536 9235
0.722 2.515 1.529 7739
0.756 2.633 1.585 6381
0.761 2.650 1.585 5218
0.760 2.647 1.573 4379
0.744 2.591 1.532 4348
0.754 2.628 1.543 7487
0.757 2.639 1.539 9726
0.759 2.643 1.531 9880
0.758 2.640 1.519 7754
0.765 2.664 1.522 5053
0.774 2.695 1.529 5998
0.777 2.706 1.524 5215
0.792 2.758 1.541 6585
0.795 2.768 1.536 7745
0.798 2.779 1.531 7174
0.807 2.810 1.537 7041
0.810 2.821 1.532 13052
0.813 2.832 1.527 17201
0.816 2.843 1.522 16947
0.819 2.853 1.517 12899
0.834 2.905 1.532 6674
0.839 2.923 1.530 6018
0.842 2.934 1.524 5973
0.843 2.938 1.516 5062
0.850 2.962 1.517 5526
0.853 2.973 1.511 6958
0.851 2.963 1.496 8073
0.848 2.953 1.480 8444
0.873 3.040 1.510 7449
0.874 3.044 1.501 7441
0.871 3.034 1.485 4132
0.892 3.108 1.508 2722
0.897 3.126 1.505 3594
0.902 3.143 1.501 5700
0.893 3.112 1.477 7564
0.894 3.116 1.467 9664
0.899 3.134 1.464 9110
0.905 3.151 1.461 5213
0.918 3.197 1.469 4052
0.919 3.201 1.460 6790
0.922 3.212 1.453 9473
0.925 3.223 1.446 10607
0.928 3.233 1.440 8196
0.939 3.272 1.444 5397
0.948 3.304 1.446 5254
0.952 3.315 1.439 4914
0.959 3.340 1.437 4037
0.978 3.408 1.453 5088
0.977 3.404 1.440 6224
0.978 3.408 1.429 5313
0.996 3.469 1.441 7553
0.997 3.473 1.431 7836
1.000 3.483 1.423 4405
1.030 3.587 1.450 5532
1.031 3.591 1.439 7281
1.021 3.559 1.415 7351
1.039 3.620 1.425 6078
1.046 3.645 1.422 6738
1.051 3.663 1.416 5857
1.054 3.674 1.408 5200
1.068 3.721 1.412 5295
1.067 3.717 1.398 6022
1.064 3.706 1.382 4046
1.106 3.854 1.420 4095
1.109 3.865 1.411 3868
1.125 3.919 1.416 3270
1.126 3.923 1.404 3216
1.133 3.948 1.399 3022
1.138 3.966 1.392 2630
1.121 3.904 1.360 3521
1.145 3.988 1.373 3808
1.146 3.991 1.361 4160
1.151 4.009 1.354 3663
1.169 4.071 1.359 3275
1.201 4.184 1.380 3272
1.215 4.232 1.380 3437
1.218 4.242 1.370 3837
1.225 4.268 1.364 3858
1.230 4.286 1.355 5045
1.267 4.414 1.378 5128
1.285 4.476 1.381 7256
1.282 4.465 1.363 8942
1.285 4.476 1.352 6374
1.288 4.487 1.340 9379
1.289 4.490 1.327 13700
1.292 4.501 1.315 11445
1.293 4.504 1.302 7581
1.296 4.514 1.290 3983
1.382 4.813 1.352 4107
1.389 4.839 1.343 2717
1.390 4.842 1.329 3015
1.393 4.853 1.316 6347
1.394 4.856 1.301 8119
1.393 4.852 1.285 6067
1.423 4.959 1.295 3706
1.418 4.940 1.275 3047
1.447 5.040 1.282 3325
1.443 5.028 1.263 3340
1.474 5.136 1.272 2773
1.507 5.250 1.281 2878
1.508 5.254 1.265 3871
1.564 5.451 1.290 3250
1.563 5.446 1.272 5085
1.560 5.434 1.253 4223
1.559 5.430 1.235 3517
1.566 5.456 1.223 3692
1.603 5.586 1.232 2877
1.606 5.596 1.216 2505
1.693 5.899 1.257 2989
1.670 5.819 1.224 3638
1.669 5.815 1.205 4575
1.670 5.818 1.187 3657
1.800 6.271 1.250 2232
1.725 6.011 1.185 2435
1.731 6.029 1.170 2623
1.835 6.392 1.212 2396
1.838 6.403 1.194 2735
1.869 6.511 1.192 2594
1.863 6.492 1.169 3000
1.853 6.457 1.144 2900
1.852 6.452 1.123 3182
1.855 6.462 1.105 2675
1.979 6.894 1.148 2456
1.975 6.882 1.126 2397
2.009 6.998 1.121 2606
1.977 6.888 1.084 2634
1.980 6.898 1.064 2524
2.108 7.346 1.102 2306
2.124 7.401 1.087 2502
2.212 7.706 1.103 1943
2.208 7.694 1.077 2250
2.209 7.696 1.054 2041
2.331 8.122 1.080 1919
2.447 8.526 1.101 1879
2.448 8.528 1.076 1769
2.433 8.478 1.044 1488
2.425 8.450 1.015 1479
2.339 8.150 0.959 1222
2.607 9.084 1.026 1384
2.608 9.086 0.999 1463
2.609 9.089 0.971 1139
2.570 8.954 0.932 731
2.447 8.524 0.868 818
2.613 9.103 0.890 681
2.633 9.173 0.867 497
2.634 9.175 0.840 394
2.634 9.177 0.812 263
0.216 0.753 0.170 275
0.216 0.753 0.168 335
0.216 0.753 0.166 407
0.216 0.753 0.163 447
0.216 0.753 0.161 488
0.216 0.753 0.159 491
0.214 0.746 0.157 386
0.214 0.746 0.155 267
0.277 0.966 0.118 268
0.277 0.966 0.115 353
0.275 0.959 0.113 495
0.277 0.966 0.110 585
0.277 0.966 0.107 647
0.275 0.958 0.104 689
0.277 0.966 0.101 694
0.277 0.966 0.099 699
0.277 0.966 0.096 650
0.275 0.958 0.093 601
0.275 0.958 0.091 528
0.275 0.958 0.088 447
0.275 0.957 0.085 363
0.277 0.965 0.082 260
0.532 1.837 1.489 3579
0.533 1.841 1.484 7158
0.536 1.851 1.483 5826
0.539 1.861 1.482 4680
0.540 1.865 1.477 4680
0.550 1.900 1.494 7535
0.551 1.903 1.488 12400
0.554 1.913 1.487 14116
0.557 1.923 1.486 15879
0.558 1.927 1.480 12031
0.563 1.943 1.484 8683
0.564 1.947 1.478 8683
0.565 1.951 1.472 6567
0.564 1.948 1.462 4579
0.624 2.155 1.597 5606
0.623 2.152 1.586 7745
0.626 2.163 1.584 7513
0.629 2.173 1.582 7426
0.630 2.177 1.575 5861
0.622 2.149 1.547 5455
0.623 2.153 1.541 6146
0.626 2.164 1.539 7837
0.631 2.180 1.541 9410
0.634 2.191 1.539 8291
0.637 2.201 1.536 7593
0.670 2.315 1.601 5557
0.673 2.325 1.598 5884
0.671 2.316 1.583 5811
0.672 2.320 1.576 5877
0.673 2.324 1.569 5860
0.682 2.355 1.579 5367
0.700 2.417 1.608 4965
0.701 2.421 1.601 6002
0.679 2.347 1.545 7521
0.682 2.357 1.542 7314
0.687 2.374 1.543 7670
0.690 2.385 1.540 6320
0.694 2.396 1.537 5011
0.695 2.399 1.530 5091
0.696 2.403 1.523 4436
0.718 2.480 1.558 5109
0.719 2.484 1.551 7017
0.718 2.481 1.540 7730
0.723 2.499 1.540 7952
0.728 2.516 1.540 9036
0.730 2.520 1.533 7481
0.764 2.638 1.589 6056
0.767 2.648 1.585 5280
0.770 2.659 1.581 4153
0.750 2.589 1.532 4423
0.755 2.606 1.532 7000
0.764 2.637 1.539 8979
0.763 2.634 1.527 9158
0.766 2.645 1.523 7663
0.771 2.663 1.522 5577
0.780 2.694 1.529 5985
0.779 2.691 1.517 5458
0.798 2.756 1.541 7250
0.799 2.760 1.532 8557
0.802 2.770 1.528 8065
0.807 2.788 1.526 7562
0.816 2.819 1.532 12219
0.817 2.823 1.523 16122
0.822 2.841 1.522 16174
0.826 2.851 1.517 12857
0.839 2.897 1.528 6922
0.844 2.914 1.526 5523
0.847 2.925 1.521 5490
0.852 2.943 1.519 4870
0.857 2.960 1.517 4986
0.860 2.971 1.511 5950
0.859 2.968 1.499 6802
0.854 2.951 1.480 7197
0.880 3.038 1.510 7434
0.879 3.035 1.498 8100
0.878 3.032 1.485 4633
0.899 3.106 1.508 2893
0.888 3.068 1.480 3519
0.889 3.071 1.471 5679
0.896 3.096 1.471 6466
0.901 3.114 1.467 8009
0.907 3.132 1.464 7969
0.912 3.149 1.461 4847
0.923 3.188 1.466 3517
0.926 3.199 1.460 5511
0.929 3.210 1.453 7949
0.932 3.220 1.446 9354
0.933 3.224 1.437 7228
0.949 3.277 1.447 4506
0.958 3.309 1.449 5064
0.959 3.313 1.439 4992
0.968 3.345 1.440 4116
0.984 3.399 1.450 4914
0.985 3.402 1.440 6251
0.986 3.406 1.429 5300
1.002 3.459 1.438 6929
1.005 3.470 1.431 7320
1.004 3.467 1.418 4481
1.036 3.578 1.447 6139
1.039 3.589 1.439 7617
1.042 3.599 1.431 6664
1.047 3.617 1.425 5677
1.057 3.650 1.425 6394
1.062 3.668 1.419 5824
1.055 3.642 1.398 4492
1.076 3.718 1.412 5111
1.073 3.707 1.396 6263
1.072 3.703 1.382 4596
1.113 3.844 1.417 3846
1.118 3.862 1.411 3584
1.094 3.779 1.370 2875
1.095 3.782 1.359 2453
1.144 3.953 1.402 2496
1.148 3.964 1.392 2911
1.151 3.974 1.383 3494
1.152 3.978 1.371 4223
1.153 3.981 1.359 4125
1.177 4.065 1.371 4334
1.180 4.076 1.361 3855
1.211 4.181 1.380 3490
1.224 4.229 1.380 3628
1.227 4.240 1.370 3775
1.237 4.272 1.366 3809
1.242 4.290 1.357 5254
1.277 4.411 1.378 5882
1.295 4.473 1.381 8175
1.283 4.433 1.355 9602
1.297 4.480 1.354 7861
1.298 4.484 1.340 10171
1.299 4.487 1.327 14445
1.302 4.498 1.315 13857
1.303 4.501 1.302 8948
1.308 4.519 1.292 4316
1.393 4.810 1.352 4022
1.364 4.710 1.311 2977
1.401 4.839 1.329 2772
1.404 4.850 1.316 5727
1.403 4.846 1.299 7699
1.404 4.849 1.285 6098
1.411 4.874 1.276 4148
1.429 4.937 1.275 3467
1.458 5.037 1.282 3487
1.457 5.032 1.265 3911
1.456 5.028 1.248 3270
1.519 5.247 1.281 3196
1.520 5.250 1.265 4004
1.523 5.261 1.251 3035
1.578 5.450 1.274 4577
1.572 5.431 1.253 3579
1.571 5.427 1.235 3190
1.576 5.445 1.222 3377
1.618 5.589 1.233 2558
1.667 5.757 1.248 2537
1.672 5.775 1.234 3007
1.681 5.808 1.222 3682
1.682 5.811 1.205 4645
1.681 5.806 1.186 3683
1.814 6.267 1.250 2301
1.811 6.255 1.229 2507
1.809 6.250 1.208 2531
1.849 6.388 1.212 2171
1.852 6.399 1.194 2472
1.884 6.507 1.192 2644
1.878 6.487 1.169 3046
1.872 6.468 1.146 2748
1.867 6.448 1.123 2971
1.870 6.458 1.105 2654
1.993 6.882 1.147 2672
1.991 6.878 1.126 2805
2.022 6.986 1.120 2476
1.993 6.883 1.084 2763
1.996 6.893 1.064 2564
2.125 7.341 1.102 2535
2.141 7.396 1.087 2346
2.232 7.708 1.104 2209
2.228 7.696 1.078 2563
2.229 7.699 1.055 2339
2.464 8.510 1.126 2161
2.464 8.513 1.101 2386
2.465 8.515 1.075 2217
2.453 8.472 1.044 1755
2.445 8.445 1.015 1667
2.443 8.439 0.989 1253
2.628 9.078 1.026 1341
2.629 9.080 0.999 1391
2.592 8.954 0.959 1128
2.466 8.517 0.893 1073
2.466 8.519 0.868 1166
2.467 8.521 0.842 925
2.654 9.167 0.867 488
2.655 9.169 0.840 374
0.218 0.752 0.170 327
0.218 0.753 0.168 401
0.218 0.753 0.166 481
0.218 0.753 0.163 521
0.218 0.753 0.161 557
0.218 0.753 0.159 554
0.216 0.745 0.157 434
0.216 0.745 0.155 301
0.280 0.966 0.115 283
0.277 0.958 0.113 410
0.280 0.966 0.110 478
0.280 0.965 0.107 524
0.277 0.958 0.104 552
0.279 0.965 0.101 555
0.279 0.965 0.099 557
0.279 0.965 0.096 521
0.277 0.957 0.093 489
0.277 0.957 0.091 438
0.277 0.957 0.088 376
0.279 0.964 0.085 304
0.537 1.842 1.494 4139
0.538 1.846 1.489 8278
0.540 1.850 1.483 6688
0.542 1.860 1.482 5304
0.544 1.864 1.477 5304
0.552 1.892 1.489 7988
0.555 1.902 1.488 12733
0.558 1.912 1.487 14112
0.559 1.916 1.482 15658
0.562 1.926 1.480 11810
0.567 1.942 1.484 8635
0.568 1.946 1.478 8635
0.569 1.950 1.472 6523
0.566 1.941 1.458 4589
0.628 2.153 1.597 5750
0.629 2.157 1.590 7543
0.632 2.168 1.588 7322
0.634 2.172 1.582 7329
0.635 2.176 1.575 6126
0.627 2.148 1.547 5909
0.628 2.152 1.541 6684
0.631 2.162 1.539 8669
0.636 2.179 1.541 10616
0.639 2.189 1.539 9261
0.642 2.200 1.536 8206
0.643 2.204 1.530 5625
0.676 2.317 1.594 5503
0.675 2.315 1.583 5961
0.675 2.313 1.572 6532
0.678 2.323 1.569 6377
0.679 2.327 1.562 5401
0.705 2.416 1.608 4958
0.706 2.420 1.601 6144
0.684 2.346 1.545 8133
0.687 2.356 1.542 8129
0.692 2.373 1.543 8573
0.693 2.377 1.536 7329
0.696 2.388 1.533 6165
0.698 2.391 1.526 5972
0.701 2.402 1.523 4895
0.723 2.479 1.558 4589
0.724 2.483 1.551 6491
0.723 2.480 1.540 7308
0.730 2.504 1.544 7673
0.733 2.514 1.540 9125
0.737 2.525 1.536 7531
0.769 2.636 1.589 5756
0.774 2.653 1.589 5417
0.775 2.657 1.581 4125
0.755 2.588 1.532 4421
0.760 2.605 1.532 6786
0.767 2.629 1.535 8005
0.768 2.633 1.527 8140
0.771 2.644 1.523 7378
0.776 2.661 1.522 6014
0.785 2.692 1.529 5773
0.784 2.689 1.517 5836
0.799 2.741 1.534 8219
0.803 2.751 1.529 9658
0.806 2.762 1.524 8675
0.813 2.786 1.526 7902
0.820 2.811 1.528 11157
0.823 2.821 1.523 14248
0.826 2.832 1.518 14554
0.831 2.850 1.517 12100
0.844 2.895 1.528 7273
0.850 2.913 1.526 5630
0.853 2.923 1.521 5277
0.860 2.948 1.522 4680
0.863 2.959 1.517 4322
0.866 2.970 1.511 4652
0.865 2.966 1.499 5210
0.862 2.956 1.484 5981
0.884 3.030 1.507 7338
0.883 3.026 1.495 8743
0.884 3.030 1.485 5366
0.889 3.048 1.483 3393
0.892 3.059 1.477 4241
0.895 3.069 1.471 6553
0.898 3.080 1.464 6808
0.910 3.119 1.470 7001
0.915 3.137 1.467 7178
0.918 3.147 1.461 5130
0.913 3.130 1.442 3653
0.933 3.197 1.460 4491
0.936 3.208 1.453 6587
0.937 3.212 1.444 8027
0.936 3.208 1.431 6370
0.931 3.190 1.413 4253
0.967 3.315 1.452 4811
0.966 3.311 1.439 4932
0.975 3.343 1.440 3883
0.985 3.375 1.441 4485
0.994 3.407 1.442 5936
0.995 3.411 1.432 5326
1.006 3.450 1.436 6822
1.010 3.461 1.428 7028
1.009 3.458 1.415 4624
1.043 3.576 1.447 6381
1.046 3.586 1.439 7580
1.049 3.597 1.431 6237
1.057 3.622 1.428 5327
1.064 3.648 1.425 6149
1.071 3.673 1.421 5785
1.085 3.720 1.425 3894
1.084 3.716 1.412 4914
1.079 3.698 1.393 6557
1.082 3.709 1.385 5107
1.121 3.842 1.417 3585
1.096 3.759 1.377 3807
1.100 3.770 1.368 3735
1.103 3.780 1.359 2852
1.154 3.958 1.404 2308
1.155 3.961 1.392 3277
1.159 3.972 1.383 4241
1.160 3.976 1.371 4410
1.184 4.059 1.384 4588
1.187 4.070 1.374 4962
1.188 4.073 1.361 4477
1.213 4.157 1.373 3693
1.235 4.234 1.383 3622
1.238 4.244 1.372 3809
1.245 4.270 1.366 4161
1.249 4.280 1.355 5588
1.284 4.401 1.375 6593
1.291 4.427 1.368 9202
1.290 4.423 1.353 11064
1.289 4.419 1.338 9343
1.307 4.481 1.340 10169
1.308 4.484 1.327 14369
1.311 4.495 1.315 15038
1.312 4.498 1.302 9629
1.317 4.516 1.292 4649
1.372 4.704 1.326 3990
1.375 4.715 1.313 3035
1.409 4.829 1.327 2596
1.412 4.840 1.314 5084
1.413 4.843 1.299 7209
1.416 4.853 1.287 6022
1.423 4.879 1.277 4440
1.437 4.927 1.273 3560
1.466 5.026 1.280 3735
1.467 5.029 1.265 4211
1.466 5.025 1.248 3768
1.527 5.236 1.279 3545
1.531 5.247 1.265 3888
1.531 5.250 1.249 2809
1.589 5.447 1.274 3915
1.590 5.450 1.258 3041
1.582 5.423 1.235 2755
1.583 5.426 1.219 3025
1.627 5.579 1.232 2030
1.678 5.754 1.248 2672
1.681 5.764 1.233 3254
1.693 5.805 1.222 3539
1.694 5.808 1.205 4425
1.693 5.803 1.186 3549
1.827 6.263 1.250 2270
1.823 6.251 1.229 2574
1.824 6.254 1.210 2627
1.832 6.280 1.195 2168
1.865 6.395 1.194 2074
1.897 6.503 1.192 2743
1.889 6.476 1.168 3209
1.888 6.471 1.147 2730
1.880 6.444 1.123 2708
1.885 6.462 1.106 2652
2.004 6.871 1.146 2817
2.005 6.874 1.126 3036
2.004 6.869 1.104 2610
2.007 6.879 1.084 2899
2.010 6.889 1.064 2635
2.140 7.337 1.102 2778
2.156 7.392 1.087 2166
2.247 7.704 1.104 2716
2.246 7.699 1.079 3130
2.247 7.702 1.056 2949
2.249 7.712 1.034 2711
2.482 8.508 1.101 2781
2.482 8.510 1.075 2554
2.472 8.475 1.045 2066
2.462 8.440 1.015 1844
2.460 8.435 0.989 1457
2.646 9.072 1.026 1206
2.647 9.075 0.999 1273
2.480 8.502 0.918 1077
2.483 8.512 0.893 1432
2.483 8.514 0.868 1504
2.484 8.516 0.842 1203
2.485 8.518 0.816 617
2.673 9.164 0.840 314
0.219 0.752 0.172 275
0.219 0.752 0.170 378
0.219 0.752 0.168 462
0.219 0.752 0.166 545
0.219 0.752 0.163 570
0.219 0.752 0.161 592
0.219 0.752 0.159 584
0.217 0.745 0.157 464
0.217 0.745 0.155 332
0.279 0.957 0.113 321
0.281 0.965 0.110 380
0.279 0.957 0.107 418
0.279 0.957 0.104 433
0.281 0.965 0.101 433
0.281 0.965 0.099 437
0.281 0.964 0.096 413
0.279 0.957 0.093 392
0.279 0.957 0.091 348
0.279 0.956 0.088 299
0.623 2.137 -0.031 251
0.623 2.137 -0.037 262
0.621 2.128 -0.043 261
0.621 2.128 -0.049 262
0.542 1.841 1.494 4485
0.543 1.845 1.489 8970
0.546 1.855 1.488 7360
0.547 1.859 1.482 5940
0.548 1.862 1.477 5940
0.555 1.885 1.485 8468
0.559 1.901 1.488 12817
0.562 1.911 1.487 13811
0.563 1.915 1.482 15129
0.566 1.925 1.480 11381
0.571 1.941 1.484 8546
0.572 1.945 1.478 8546
0.573 1.948 1.472 6482
0.571 1.940 1.458 4701
0.633 2.152 1.597 5781
0.634 2.156 1.590 7242
0.637 2.166 1.588 7124
0.641 2.177 1.586 7221
0.640 2.174 1.575 6364
0.632 2.146 1.547 6394
0.633 2.150 1.541 7235
0.638 2.167 1.543 9636
0.641 2.177 1.541 11864
0.642 2.181 1.534 10404
0.645 2.192 1.532 9176
0.646 2.196 1.526 6207
0.680 2.309 1.590 5229
0.679 2.307 1.579 6154
0.680 2.311 1.572 7189
0.681 2.315 1.565 6866
0.684 2.325 1.562 5464
0.710 2.414 1.608 4826
0.712 2.418 1.601 6171
0.690 2.344 1.545 8504
0.693 2.354 1.542 8729
0.696 2.365 1.539 9252
0.699 2.375 1.536 8332
0.702 2.386 1.533 7437
0.703 2.390 1.526 6975
0.706 2.400 1.523 5340
0.729 2.477 1.558 4179
0.730 2.481 1.551 5848
0.729 2.478 1.540 6605
0.738 2.509 1.548 7288
0.743 2.526 1.548 9143
0.746 2.537 1.544 7476
0.775 2.634 1.589 5511
0.778 2.645 1.585 5599
0.780 2.649 1.577 4346
0.765 2.599 1.540 4465
0.766 2.603 1.532 6456
0.771 2.620 1.531 6923
0.790 2.685 1.556 7600
0.779 2.649 1.526 6973
0.783 2.659 1.522 6301
0.790 2.683 1.525 5406
0.791 2.687 1.517 6010
0.806 2.739 1.534 9395
0.809 2.749 1.529 10762
0.812 2.760 1.524 9294
0.819 2.784 1.526 8056
0.827 2.809 1.528 10366
0.828 2.813 1.520 12168
0.833 2.830 1.518 12347
0.838 2.848 1.517 10695
0.853 2.900 1.532 7416
0.857 2.911 1.526 5902
0.862 2.928 1.524 5191
0.867 2.946 1.522 4645
0.870 2.957 1.517 3725
0.879 2.988 1.521 3445
0.872 2.964 1.499 3572
0.871 2.961 1.487 4622
0.889 3.021 1.504 7290
0.890 3.024 1.495 9295
0.889 3.021 1.482 6145
0.896 3.046 1.483 4177
0.899 3.057 1.477 5144
0.901 3.060 1.468 7574
0.906 3.078 1.464 7371
0.919 3.124 1.474 6414
0.922 3.135 1.467 6375
0.924 3.138 1.458 5476
0.920 3.128 1.442 4894
0.938 3.188 1.457 3946
0.939 3.192 1.447 5652
0.942 3.202 1.441 6880
0.939 3.192 1.425 6119
0.938 3.188 1.413 4051
0.977 3.319 1.455 4610
0.970 3.295 1.433 4655
0.964 3.277 1.415 4023
0.993 3.373 1.441 3894
1.002 3.405 1.442 5370
1.009 3.430 1.440 5484
1.015 3.448 1.436 7089
1.016 3.452 1.425 6802
1.019 3.462 1.418 4228
1.051 3.573 1.447 6363
1.055 3.584 1.439 7287
1.058 3.595 1.431 5608
1.067 3.627 1.430 4996
1.075 3.652 1.427 5703
1.078 3.663 1.419 5529
1.094 3.717 1.425 3713
1.093 3.713 1.412 4650
1.087 3.695 1.393 6961
1.091 3.706 1.385 5705
1.102 3.746 1.386 4251
1.105 3.756 1.377 4292
1.109 3.767 1.368 4403
1.110 3.770 1.357 3164
1.164 3.955 1.404 2198
1.163 3.951 1.390 3701
1.166 3.962 1.380 5005
1.167 3.966 1.368 4540
1.194 4.056 1.384 4745
1.197 4.067 1.374 5120
1.198 4.070 1.361 4810
1.218 4.140 1.369 4252
1.217 4.136 1.354 3675
1.252 4.256 1.376 4338
1.258 4.274 1.368 4705
1.259 4.278 1.355 5642
1.294 4.398 1.375 6918
1.300 4.416 1.366 9988
1.301 4.420 1.353 12154
1.299 4.416 1.338 10788
1.303 4.426 1.326 10182
1.319 4.481 1.327 13595
1.320 4.484 1.313 14721
1.323 4.495 1.302 9672
1.328 4.513 1.292 4819
1.383 4.701 1.326 3868
1.384 4.704 1.311 3571
1.418 4.818 1.325 2366
1.421 4.829 1.312 4452
1.424 4.839 1.299 6598
1.429 4.857 1.288 5725
1.437 4.883 1.279 4405
1.447 4.916 1.271 3375
1.478 5.023 1.280 3715
1.479 5.026 1.265 4115
1.478 5.022 1.248 4084
1.540 5.233 1.279 3722
1.543 5.243 1.265 3622
1.544 5.246 1.249 2522
1.602 5.443 1.274 3112
1.603 5.446 1.258 2567
1.593 5.412 1.233 2545
1.594 5.415 1.217 2762
1.614 5.485 1.214 2225
1.690 5.742 1.247 2741
1.695 5.760 1.233 3304
1.705 5.793 1.221 3243
1.708 5.804 1.205 3949
1.707 5.799 1.186 3186
1.762 5.989 1.202 2267
1.838 6.247 1.229 2525
1.841 6.257 1.211 2659
1.851 6.290 1.197 2476
1.850 6.286 1.177 2360
1.912 6.499 1.192 2876
1.904 6.471 1.168 3313
1.905 6.474 1.148 2618
1.895 6.440 1.123 2323
1.936 6.578 1.124 2723
2.020 6.866 1.146 2827
2.021 6.869 1.126 3073
2.022 6.872 1.105 2659
2.023 6.874 1.084 2978
2.026 6.884 1.064 2730
2.155 7.324 1.101 2920
2.267 7.703 1.128 2286
2.266 7.699 1.104 3334
2.264 7.694 1.079 3827
2.265 7.696 1.056 3757
2.268 7.706 1.034 3576
2.271 7.716 1.011 3091
2.500 8.497 1.074 2786
2.494 8.477 1.046 2457
2.491 8.464 1.019 2113
2.483 8.436 0.990 1675
2.485 8.446 0.965 1455
2.488 8.456 0.940 1515
2.522 8.572 0.925 1586
2.501 8.498 0.893 1797
2.501 8.500 0.867 1792
2.504 8.510 0.842 1411
2.527 8.587 0.822 912
2.530 8.597 0.797 480
2.528 8.591 0.770 386
2.529 8.593 0.744 250
0.221 0.751 0.172 288
0.221 0.751 0.170 387
0.221 0.752 0.168 463
0.221 0.752 0.166 538
0.221 0.752 0.163 566
0.221 0.752 0.161 589
0.221 0.752 0.159 585
0.221 0.752 0.157 480
0.221 0.752 0.155 361
0.221 0.752 0.153 277
0.284 0.964 0.110 278
0.284 0.964 0.107 302
0.281 0.957 0.104 316
0.284 0.964 0.101 318
0.284 0.964 0.099 320
0.284 0.964 0.096 302
0.281 0.956 0.093 285
0.281 0.956 0.091 258
0.627 2.129 -0.011 285
0.626 2.129 -0.017 343
0.626 2.128 -0.024 375
0.628 2.136 -0.031 424
0.628 2.135 -0.037 436
0.626 2.127 -0.043 427
0.626 2.126 -0.049 423
0.626 2.126 -0.055 387
0.628 2.133 -0.062 350
0.627 2.132 -0.069 300
0.544 1.840 1.494 4738
0.545 1.844 1.489 9477
0.548 1.854 1.488 7948
0.549 1.858 1.482 6498
0.551 1.862 1.477 6498
0.557 1.884 1.485 8851
0.560 1.894 1.484 12751
0.563 1.904 1.483 13321
0.566 1.914 1.482 14341
0.569 1.924 1.480 10825
0.576 1.946 1.488 8472
0.577 1.950 1.482 8472
0.576 1.948 1.472 6460
0.572 1.932 1.453 4864
0.636 2.151 1.597 5688
0.637 2.155 1.590 6849
0.640 2.165 1.588 6858
0.644 2.176 1.586 7013
0.643 2.173 1.575 6570
0.635 2.146 1.547 6914
0.636 2.150 1.541 7808
0.641 2.166 1.543 10636
0.644 2.177 1.541 13094
0.645 2.181 1.534 11593
0.648 2.191 1.532 10247
0.649 2.195 1.526 6895
0.683 2.308 1.590 4974
0.682 2.306 1.579 6243
0.683 2.310 1.572 7591
0.684 2.314 1.565 7104
