-3.862 7.236 1.909 1625
-3.860 7.234 1.883 1226
-4.271 8.004 2.042 1598
-4.274 8.009 2.016 1193
-4.021 7.534 1.878 940
-4.367 8.182 2.001 748
-4.365 8.180 1.972 732
-4.412 8.267 1.964 575
-4.392 8.231 1.928 409
-0.521 0.975 0.339 322
-0.524 0.983 0.337 309
-0.525 0.983 0.334 278
-3.698 6.929 1.549 324
-3.696 6.926 1.525 421
-3.694 6.922 1.501 402
-3.692 6.919 1.476 311
-3.690 6.915 1.452 314
-3.692 6.919 1.430 313
-3.587 6.722 1.370 299
-3.740 7.008 1.399 309
-3.580 6.708 1.322 336
-3.519 6.593 1.280 768
-3.520 6.596 1.258 1026
-3.525 6.606 1.237 810
-3.523 6.602 1.215 664
-3.514 6.584 1.190 829
-3.515 6.587 1.168 842
-3.509 6.575 1.144 843
-3.363 6.301 1.081 1367
-3.364 6.303 1.060 2064
-3.365 6.306 1.039 2349
-3.366 6.308 1.019 2407
-3.364 6.303 0.997 2395
-3.365 6.306 0.976 2375
-3.366 6.308 0.956 2031
-3.371 6.317 0.936 1358
-3.372 6.319 0.915 736
-3.377 6.328 0.895 375
-3.382 6.337 0.875 285
-3.379 6.331 0.854 271
-1.103 2.073 1.806 1621
-1.144 2.151 1.859 4619
-1.146 2.156 1.853 9239
-1.152 2.166 1.850 9486
-1.157 2.176 1.848 9979
-1.163 2.186 1.845 8740
-1.174 2.207 1.852 8147
-1.176 2.212 1.845 8147
-1.179 2.216 1.837 8035
-1.181 2.221 1.830 7923
-1.183 2.225 1.823 7346
-1.183 2.223 1.811 6828
-1.216 2.286 1.849 6142
-1.218 2.290 1.841 7358
-1.220 2.295 1.834 7358
-1.223 2.299 1.826 6226
-1.275 2.397 1.888 5410
-1.274 2.395 1.876 6689
-1.276 2.400 1.869 7987
-1.279 2.404 1.861 6664
-1.281 2.409 1.853 5340
-1.283 2.413 1.845 4444
-1.286 2.417 1.837 3547
-1.294 2.434 1.838 4173
-1.300 2.444 1.834 5183
-1.302 2.448 1.826 4381
-1.358 2.554 1.889 4281
-1.361 2.558 1.881 3654
-1.363 2.563 1.872 3027
-1.378 2.591 1.880 4560
-1.380 2.596 1.872 6545
-1.386 2.606 1.868 7679
-1.392 2.617 1.863 9023
-1.394 2.621 1.855 8504
-1.396 2.625 1.846 7985
-1.402 2.636 1.842 6958
-1.411 2.652 1.841 6120
-1.406 2.645 1.825 7721
-1.409 2.649 1.816 9241
-1.482 2.787 1.893 9871
-1.485 2.792 1.884 11746
-1.484 2.790 1.871 13659
-1.489 2.800 1.866 14161
-1.495 2.811 1.861 15013
-1.497 2.815 1.851 13481
-1.500 2.820 1.842 13385
-1.502 2.824 1.833 14820
-1.501 2.822 1.820 13835
-1.503 2.827 1.811 13622
-1.509 2.837 1.805 14604
-1.511 2.842 1.796 12398
-1.514 2.846 1.787 10191
-1.516 2.850 1.778 7683
-1.571 2.954 1.826 8625
-1.573 2.958 1.817 10403
-1.572 2.956 1.803 9030
-1.594 2.998 1.815 7642
-1.600 3.009 1.809 9050
-1.599 3.007 1.796 8997
-1.605 3.017 1.789 8670
-1.607 3.021 1.779 8341
-1.653 3.107 1.814 8289
-1.655 3.112 1.804 8567
-1.654 3.110 1.791 7144
-1.656 3.114 1.781 5622
-1.662 3.124 1.774 6009
-1.664 3.129 1.764 5715
-1.666 3.133 1.753 3758
-1.695 3.188 1.770 4120
-1.701 3.198 1.763 4020
-1.703 3.202 1.752 3544
-1.709 3.213 1.745 3713
-1.704 3.204 1.728 4766
-1.703 3.202 1.714 4980
-1.709 3.212 1.707 4283
-1.881 3.537 1.854 3124
-1.887 3.548 1.846 4214
-1.893 3.559 1.837 6237
-1.895 3.563 1.826 10159
-1.894 3.561 1.811 12639
-1.900 3.572 1.802 13286
-1.902 3.576 1.791 12120
-1.904 3.580 1.779 7836
-1.910 3.591 1.770 5564
-1.912 3.595 1.759 4007
-1.918 3.606 1.750 2718
-1.910 3.590 1.729 2938
-1.912 3.594 1.718 4316
-1.921 3.612 1.712 5700
-1.930 3.629 1.706 4638
-2.161 4.063 1.881 3352
-2.157 4.055 1.862 3011
-2.218 4.171 1.896 3090
-2.224 4.182 1.885 2565
-2.237 4.206 1.880 3185
-2.298 4.322 1.912 3869
-2.297 4.320 1.895 4383
-2.300 4.324 1.881 3889
-2.306 4.335 1.870 4274
-2.319 4.360 1.863 4593
-2.374 4.463 1.888 4201
-2.379 4.474 1.876 4086
-2.382 4.478 1.862 3871
-2.388 4.490 1.849 3794
-2.390 4.494 1.835 3743
-2.424 4.558 1.843 3872
-2.402 4.516 1.810 4210
-2.397 4.507 1.791 3259
-2.488 4.677 1.837 4880
-2.486 4.675 1.819 4909
-2.542 4.779 1.840 3465
-2.551 4.797 1.829 3592
-2.628 4.941 1.862 3623
-2.627 4.939 1.844 4917
-2.626 4.937 1.825 4565
-2.685 5.048 1.846 4134
-2.687 5.053 1.829 5360
-2.711 5.097 1.826 4912
-2.717 5.108 1.812 3214
-2.730 5.133 1.802 2259
-2.725 5.124 1.780 1545
-2.895 5.444 1.865 2344
-2.890 5.435 1.843 2856
-2.914 5.480 1.837 2442
-2.924 5.498 1.824 2437
-3.062 5.758 1.884 2837
-3.068 5.769 1.867 2615
-3.060 5.754 1.842 4138
-3.062 5.758 1.823 4095
-3.140 5.904 1.846 1849
-3.139 5.902 1.824 2075
-3.228 6.069 1.851 2474
-3.234 6.080 1.833 2645
-3.276 6.159 1.834 2314
-3.282 6.170 1.816 2286
-3.382 6.358 1.845 2474
-3.384 6.363 1.824 3119
-3.386 6.367 1.803 2717
-3.747 7.046 1.958 1549
-3.753 7.057 1.936 1969
-3.756 7.062 1.913 1554
-3.845 7.230 1.931 1772
-3.851 7.242 1.909 1637
-3.850 7.239 1.883 1230
-4.260 8.010 2.042 1578
-4.262 8.015 2.016 1166
-4.010 7.540 1.878 925
-4.355 8.189 2.001 730
-4.354 8.186 1.972 728
-4.400 8.273 1.964 589
-4.362 8.203 1.920 414
-0.519 0.976 0.339 339
-0.523 0.984 0.337 349
-0.523 0.984 0.334 293
-4.083 7.677 1.701 279
-3.690 6.938 1.526 332
-3.688 6.934 1.502 342
-3.686 6.931 1.478 288
-3.681 6.921 1.452 312
-3.682 6.924 1.430 275
-3.725 7.003 1.421 330
-3.730 7.013 1.399 270
-3.570 6.713 1.322 328
-3.506 6.591 1.278 758
-3.507 6.594 1.257 914
-3.520 6.618 1.239 650
-3.573 6.718 1.233 665
-3.501 6.582 1.188 881
-3.506 6.592 1.168 907
-3.507 6.594 1.146 807
-3.354 6.306 1.081 1209
-3.355 6.308 1.060 1959
-3.356 6.311 1.039 2359
-3.354 6.306 1.018 2450
-3.355 6.308 0.997 2371
-3.356 6.310 0.976 2320
-3.357 6.312 0.956 2065
-3.362 6.321 0.936 1512
-3.363 6.323 0.915 856
-3.364 6.325 0.894 363
-1.097 2.076 1.806 1636
-1.138 2.154 1.859 4606
-1.141 2.159 1.853 9212
-1.146 2.169 1.850 9478
-1.151 2.179 1.848 9985
-1.157 2.189 1.845 8755
-1.168 2.211 1.852 8163
-1.170 2.215 1.845 8163
-1.173 2.219 1.837 8041
-1.175 2.224 1.830 7918
-1.177 2.228 1.823 7322
-1.177 2.227 1.811 6779
-1.210 2.289 1.849 6119
-1.212 2.293 1.841 7338
-1.214 2.298 1.834 7338
-1.216 2.302 1.826 6190
-1.268 2.400 1.888 5420
-1.268 2.399 1.876 6688
-1.270 2.403 1.869 7973
-1.272 2.408 1.861 6643
-1.275 2.412 1.853 5314
-1.277 2.416 1.845 4430
-1.279 2.421 1.837 3547
-1.288 2.437 1.838 4178
-1.293 2.447 1.834 5188
-1.296 2.452 1.826 4383
-1.351 2.557 1.889 4309
-1.354 2.562 1.881 3673
-1.356 2.566 1.872 3036
-1.371 2.595 1.880 4552
-1.374 2.599 1.872 6530
-1.379 2.610 1.868 7671
-1.385 2.620 1.863 9023
-1.387 2.625 1.855 8493
-1.389 2.629 1.846 7963
-1.395 2.640 1.842 6939
-1.404 2.656 1.841 6107
-1.399 2.648 1.825 7708
-1.402 2.653 1.816 9228
-1.475 2.791 1.893 9914
-1.477 2.795 1.884 11792
-1.476 2.794 1.871 13700
-1.482 2.804 1.866 14217
-1.488 2.815 1.861 15073
-1.490 2.819 1.851 13529
-1.492 2.824 1.842 13391
-1.495 2.828 1.833 14798
-1.494 2.826 1.820 13804
-1.496 2.831 1.811 13590
-1.501 2.841 1.805 14584
-1.504 2.846 1.796 12373
-1.506 2.850 1.787 10163
-1.508 2.854 1.778 7672
-1.563 2.958 1.826 8520
-1.565 2.962 1.817 10355
-1.564 2.960 1.803 9046
-1.583 2.996 1.812 7682
-1.589 3.006 1.805 9066
-1.591 3.011 1.796 8976
-1.597 3.021 1.789 8545
-1.599 3.026 1.779 8207
-1.644 3.112 1.814 7916
-1.647 3.116 1.804 8252
-1.645 3.114 1.791 6863
-1.648 3.118 1.781 5276
-1.657 3.135 1.777 5482
-1.659 3.139 1.767 5141
-1.668 3.156 1.763 3757
-1.690 3.199 1.773 3970
-1.696 3.209 1.766 3815
-1.688 3.194 1.746 3349
-1.693 3.205 1.738 3131
-1.844 3.490 1.870 4393
-1.847 3.495 1.858 4303
-1.700 3.217 1.707 4065
-1.872 3.542 1.854 3101
-1.877 3.553 1.846 4198
-1.883 3.564 1.837 6235
-1.885 3.568 1.826 10145
-1.884 3.566 1.811 12602
-1.890 3.577 1.802 13242
-1.892 3.581 1.791 12059
-1.895 3.585 1.779 7784
-1.904 3.602 1.773 5515
-1.902 3.600 1.759 3929
-1.908 3.611 1.750 2739
-1.900 3.595 1.729 3082
-1.902 3.600 1.718 4557
-1.915 3.623 1.715 6099
-1.924 3.640 1.708 5203
-2.150 4.069 1.881 3400
-2.146 4.061 1.862 3011
-2.207 4.176 1.896 3121
-2.213 4.188 1.885 2636
-2.226 4.212 1.880 3325
-2.287 4.328 1.912 3841
-2.286 4.326 1.895 4364
-2.288 4.330 1.881 3881
-2.294 4.341 1.870 4236
-2.307 4.366 1.863 4542
-2.362 4.469 1.888 4264
-2.368 4.480 1.876 4144
-2.370 4.485 1.862 3879
-2.376 4.496 1.849 3768
-2.378 4.500 1.835 3698
-2.412 4.564 1.843 3853
-2.390 4.522 1.810 4178
-2.385 4.513 1.791 3228
-2.475 4.684 1.837 4845
-2.470 4.675 1.817 4869
-2.529 4.786 1.840 3459
-2.538 4.804 1.829 3546
-2.615 4.948 1.862 3641
-2.614 4.946 1.844 4935
-2.612 4.944 1.825 4575
-2.671 5.055 1.846 4106
-2.674 5.060 1.829 5335
-2.697 5.104 1.826 4905
-2.707 5.122 1.814 3178
-2.716 5.140 1.802 2234
-2.711 5.131 1.780 1528
-2.881 5.452 1.865 2330
-2.876 5.443 1.843 2817
-2.900 5.487 1.837 2361
-2.909 5.505 1.824 2352
-3.047 5.766 1.884 2787
-3.049 5.771 1.865 2636
-3.045 5.762 1.842 4224
-3.047 5.766 1.823 4143
-3.124 5.913 1.846 1929
-3.120 5.904 1.822 2119
-3.212 6.078 1.851 2538
-3.217 6.089 1.833 2678
-3.259 6.168 1.834 2360
-3.265 6.179 1.816 2304
-3.365 6.367 1.845 2499
-3.367 6.372 1.824 3148
-3.369 6.376 1.803 2734
-3.728 7.056 1.958 1572
-3.734 7.067 1.936 1976
-3.737 7.072 1.913 1552
-3.822 7.234 1.929 1761
-3.832 7.252 1.909 1612
-4.232 8.009 2.067 1209
-4.238 8.021 2.042 1614
-4.241 8.026 2.016 1198
-3.990 7.551 1.878 926
-4.333 8.200 2.001 738
-4.332 8.198 1.972 728
-4.378 8.285 1.964 624
-4.355 8.242 1.926 416
-0.517 0.978 0.339 326
-0.520 0.985 0.337 336
-0.521 0.985 0.334 280
-4.066 7.695 1.702 257
-3.671 6.948 1.526 307
-3.699 7.000 1.466 379
-3.704 7.010 1.444 419
-3.710 7.020 1.422 514
-3.711 7.023 1.399 593
-3.713 7.027 1.376 558
-3.488 6.601 1.278 668
-3.486 6.597 1.256 734
-3.557 6.731 1.256 572
-3.558 6.734 1.234 569
-3.479 6.584 1.187 913
-3.484 6.594 1.167 994
-3.486 6.597 1.145 830
-3.337 6.315 1.081 1358
-3.338 6.317 1.060 2244
-3.339 6.319 1.039 2637
-3.337 6.315 1.018 2605
-3.338 6.317 0.997 2494
-3.339 6.319 0.976 2445
-3.340 6.321 0.956 2255
-3.341 6.323 0.935 1682
-3.343 6.325 0.914 1018
-3.344 6.327 0.893 565
-3.345 6.329 0.873 316
-1.092 2.079 1.806 1591
-1.134 2.157 1.859 4593
-1.136 2.161 1.853 9187
-1.141 2.171 1.850 9477
-1.147 2.181 1.848 10011
-1.152 2.191 1.845 8794
-1.163 2.213 1.852 8189
-1.166 2.218 1.845 8189
-1.168 2.222 1.837 8047
-1.170 2.226 1.830 7904
-1.172 2.231 1.823 7291
-1.172 2.229 1.811 6731
-1.205 2.292 1.849 6089
-1.207 2.296 1.841 7301
-1.209 2.300 1.834 7301
-1.211 2.305 1.826 6163
-1.263 2.403 1.888 5386
-1.262 2.401 1.876 6641
-1.265 2.406 1.869 7915
-1.267 2.410 1.861 6590
-1.269 2.415 1.853 5265
-1.272 2.419 1.845 4390
-1.274 2.424 1.837 3515
-1.282 2.440 1.838 4162
-1.288 2.450 1.834 5181
-1.290 2.455 1.826 4390
-1.346 2.560 1.889 4295
-1.348 2.565 1.881 3656
-1.350 2.569 1.872 3018
-1.365 2.598 1.880 4526
-1.368 2.602 1.872 6505
-1.373 2.613 1.868 7648
-1.379 2.623 1.863 9006
-1.381 2.628 1.855 8487
-1.383 2.632 1.846 7968
-1.389 2.643 1.842 6942
-1.398 2.659 1.841 6109
-1.394 2.651 1.825 7728
-1.396 2.656 1.816 9260
-1.469 2.794 1.893 9881
-1.471 2.799 1.884 11772
-1.470 2.797 1.871 13689
-1.476 2.808 1.866 14224
-1.481 2.818 1.861 15092
-1.484 2.823 1.851 13555
-1.486 2.827 1.842 13403
-1.488 2.832 1.833 14787
-1.487 2.830 1.820 13809
-1.490 2.834 1.811 13619
-1.495 2.845 1.805 14632
-1.497 2.849 1.796 12439
-1.500 2.853 1.787 10247
-1.502 2.857 1.778 7736
-1.557 2.961 1.826 8528
-1.559 2.966 1.817 10460
-1.558 2.964 1.803 9140
-1.577 2.999 1.812 7697
-1.582 3.010 1.805 9017
-1.584 3.014 1.796 8963
-1.590 3.025 1.789 8514
-1.592 3.029 1.779 8144
-1.637 3.115 1.814 7881
-1.640 3.120 1.804 8306
-1.639 3.118 1.791 6893
-1.641 3.122 1.781 5240
-1.650 3.139 1.777 5377
-1.652 3.143 1.767 4660
-1.678 3.192 1.780 3712
-1.680 3.196 1.770 4338
-1.685 3.207 1.763 3960
-1.664 3.166 1.729 3469
-1.838 3.496 1.884 3080
-1.837 3.494 1.870 4426
-1.839 3.499 1.858 4335
-1.700 3.234 1.713 3587
-1.864 3.546 1.854 3083
-1.870 3.557 1.846 4162
-1.875 3.568 1.837 6188
-1.878 3.572 1.826 10089
-1.877 3.570 1.811 12539
-1.882 3.581 1.802 13195
-1.884 3.585 1.791 12045
-1.887 3.589 1.779 7828
-1.896 3.607 1.773 5598
-1.895 3.604 1.759 3951
-1.897 3.609 1.747 2678
-1.892 3.600 1.729 3161
-1.894 3.604 1.718 4706
-1.907 3.627 1.715 6383
-1.919 3.651 1.711 5567
-2.141 4.074 1.881 3414
-2.137 4.065 1.862 3057
-2.198 4.181 1.896 3156
-2.204 4.192 1.885 2564
-2.216 4.217 1.880 3138
-2.277 4.333 1.912 3729
-2.276 4.331 1.895 4253
-2.279 4.335 1.881 3838
-2.285 4.347 1.870 4265
-2.297 4.371 1.863 4526
-2.352 4.474 1.888 4268
-2.358 4.486 1.876 4126
-2.360 4.490 1.862 3822
-2.366 4.501 1.849 3745
-2.368 4.506 1.835 3736
-2.402 4.570 1.843 3846
-2.380 4.527 1.810 4179
-2.375 4.518 1.791 3226
-2.465 4.689 1.837 4813
-2.460 4.680 1.817 4849
-2.519 4.792 1.840 3472
-2.528 4.809 1.829 3577
-2.604 4.954 1.862 3597
-2.603 4.952 1.844 4907
-2.602 4.950 1.825 4555
-2.660 5.061 1.846 4097
-2.663 5.066 1.829 5348
-2.683 5.104 1.824 4898
-2.692 5.121 1.812 3181
-2.705 5.146 1.802 2272
-2.700 5.137 1.780 1588
-2.869 5.458 1.865 2330
-2.864 5.449 1.843 2796
-2.888 5.494 1.837 2356
-2.897 5.512 1.824 2311
-3.034 5.773 1.884 2763
-3.037 5.778 1.865 2641
-3.032 5.768 1.842 4255
-3.034 5.773 1.823 4178
-3.111 5.920 1.846 1891
-3.110 5.917 1.824 2033
-3.198 6.085 1.851 2512
-3.204 6.096 1.833 2632
-3.246 6.175 1.834 2364
-3.252 6.186 1.816 2281
-3.351 6.375 1.845 2494
-3.353 6.379 1.824 3105
-3.355 6.383 1.803 2657
-3.716 7.071 1.959 1538
-3.719 7.075 1.936 1989
-3.721 7.080 1.913 1568
-3.810 7.249 1.931 1746
-3.816 7.260 1.909 1623
-3.815 7.258 1.883 1222
-4.221 8.030 2.042 1603
-4.223 8.035 2.016 1202
-3.973 7.559 1.878 926
-4.315 8.210 2.001 752
-4.314 8.208 1.972 719
-4.360 8.295 1.964 612
-4.362 8.299 1.937 421
-0.514 0.979 0.339 331
-0.518 0.986 0.337 323
-0.519 0.987 0.334 276
-4.046 7.697 1.701 253
-3.652 6.949 1.525 272
-3.694 7.028 1.422 284
-3.485 6.630 1.327 268
-3.468 6.599 1.299 285
-3.470 6.602 1.277 540
-3.468 6.598 1.254 549
-3.546 6.746 1.257 502
-3.460 6.582 1.208 556
-3.465 6.592 1.187 994
-3.470 6.602 1.167 1151
-3.471 6.604 1.145 921
-3.323 6.322 1.081 1301
-3.324 6.324 1.060 2154
-3.325 6.327 1.039 2662
-3.323 6.322 1.018 2694
-3.324 6.324 0.997 2501
-3.325 6.327 0.976 2410
-3.326 6.329 0.956 2129
-3.328 6.331 0.935 1480
-3.329 6.333 0.914 947
-3.330 6.335 0.893 666
-3.331 6.337 0.873 475
-3.332 6.339 0.852 400
-3.333 6.340 0.831 322
-3.290 6.258 0.802 266
-1.090 2.080 1.806 1361
-1.131 2.158 1.859 4600
-1.133 2.163 1.853 9200
-1.141 2.178 1.855 9428
-1.144 2.183 1.848 9889
-1.149 2.193 1.845 8753
-1.157 2.209 1.847 8159
-1.160 2.213 1.840 8159
-1.165 2.223 1.837 8033
-1.167 2.228 1.830 7909
-1.170 2.232 1.823 7293
-1.169 2.231 1.811 6742
-1.202 2.293 1.849 6024
-1.204 2.298 1.841 7229
-1.206 2.302 1.834 7229
-1.209 2.306 1.826 6091
-1.260 2.404 1.888 5366
-1.259 2.403 1.876 6632
-1.262 2.408 1.869 7911
-1.264 2.412 1.861 6600
-1.266 2.416 1.853 5289
-1.269 2.421 1.845 4394
-1.271 2.425 1.837 3498
-1.279 2.442 1.838 4144
-1.285 2.452 1.834 5187
-1.287 2.456 1.826 4405
-1.343 2.562 1.889 4282
-1.345 2.567 1.881 3644
-1.347 2.571 1.872 3006
-1.362 2.600 1.880 4524
-1.365 2.604 1.872 6510
-1.370 2.615 1.868 7651
-1.376 2.625 1.863 9000
-1.378 2.629 1.855 8480
-1.380 2.634 1.846 7960
-1.386 2.644 1.842 6940
-1.394 2.661 1.841 6109
-1.390 2.653 1.825 7749
-1.393 2.657 1.816 9303
-1.465 2.796 1.893 9858
-1.468 2.801 1.884 11748
-1.467 2.799 1.871 13686
-1.472 2.810 1.866 14203
-1.478 2.820 1.861 15063
-1.480 2.825 1.851 13538
-1.482 2.829 1.842 13392
-1.485 2.833 1.833 14771
-1.484 2.832 1.820 13808
-1.486 2.836 1.811 13658
-1.492 2.846 1.805 14697
-1.494 2.851 1.796 12504
-1.496 2.855 1.787 10310
-1.498 2.859 1.778 7787
-1.553 2.963 1.826 8568
-1.555 2.968 1.817 10538
-1.554 2.966 1.803 9194
-1.573 3.001 1.812 7684
-1.578 3.012 1.805 8998
-1.581 3.016 1.796 8969
-1.586 3.027 1.789 8510
-1.588 3.031 1.779 8155
-1.634 3.117 1.814 7949
-1.636 3.122 1.804 8424
-1.635 3.120 1.791 7068
-1.637 3.124 1.781 5446
-1.643 3.135 1.774 5847
-1.648 3.145 1.767 5378
-1.670 3.187 1.777 3844
-1.676 3.198 1.770 4441
-1.681 3.209 1.763 4003
-1.670 3.187 1.739 3394
-1.676 3.198 1.732 3215
-1.832 3.497 1.870 4463
-1.835 3.501 1.858 4391
-1.699 3.242 1.717 3780
-1.859 3.549 1.854 3067
-1.865 3.559 1.846 4123
-1.871 3.570 1.837 6168
-1.873 3.575 1.826 10101
-1.872 3.573 1.811 12582
-1.878 3.583 1.802 13239
-1.880 3.588 1.791 12104
-1.886 3.598 1.782 7879
-1.891 3.609 1.773 5643
-1.890 3.607 1.759 3971
-1.892 3.611 1.747 2752
-1.887 3.602 1.729 3276
-1.890 3.606 1.718 4798
-1.902 3.630 1.715 6449
-1.918 3.660 1.714 5578
-2.136 4.077 1.881 3424
-2.132 4.068 1.862 3039
-2.192 4.184 1.896 3122
-2.198 4.195 1.885 2579
-2.211 4.219 1.880 3297
-2.272 4.336 1.912 3744
-2.271 4.334 1.895 4285
-2.273 4.338 1.881 3872
-2.279 4.349 1.870 4263
-2.288 4.367 1.861 4535
-2.346 4.477 1.888 4209
-2.352 4.489 1.876 4065
-2.354 4.493 1.862 3727
-2.360 4.504 1.849 3674
-2.362 4.508 1.835 3705
-2.396 4.573 1.843 3862
-2.371 4.524 1.808 4207
-2.369 4.521 1.791 3302
-2.459 4.692 1.837 4801
-2.454 4.684 1.817 4822
-2.512 4.795 1.840 3442
-2.522 4.813 1.829 3475
-2.598 4.957 1.862 3588
-2.597 4.955 1.844 4901
-2.595 4.953 1.825 4582
-2.654 5.065 1.846 4076
-2.656 5.069 1.829 5336
-2.676 5.107 1.824 4920
-2.685 5.125 1.812 3205
-2.698 5.149 1.802 2269
-2.693 5.140 1.780 1585
-2.862 5.462 1.865 2370
-2.857 5.452 1.843 2826
-2.881 5.497 1.837 2352
-2.890 5.515 1.824 2364
-3.027 5.777 1.884 2817
-3.030 5.781 1.865 2649
-3.025 5.772 1.842 4238
-3.027 5.777 1.823 4203
-3.104 5.924 1.846 1971
-3.103 5.921 1.824 2115
-3.191 6.089 1.851 2544
-3.196 6.100 1.833 2698
-3.238 6.179 1.834 2339
-3.240 6.184 1.814 2281
-3.343 6.379 1.845 2483
-3.345 6.383 1.824 3101
-3.347 6.388 1.803 2649
-3.704 7.069 1.958 1579
-3.710 7.080 1.936 2018
-3.712 7.085 1.913 1561
-3.797 7.247 1.929 1770
-3.807 7.265 1.909 1606
-4.205 8.024 2.067 1211
-4.211 8.036 2.042 1610
-4.213 8.041 2.016 1207
-3.960 7.558 1.877 969
-4.305 8.215 2.001 732
-4.304 8.213 1.972 699
-4.349 8.300 1.964 549
-4.352 8.305 1.937 386
-0.513 0.979 0.339 305
-0.517 0.987 0.337 314
-0.517 0.987 0.334 258
-4.039 7.709 1.702 266
-3.680 7.023 1.444 270
-3.682 7.026 1.421 345
-3.683 7.029 1.398 372
-3.649 6.963 1.363 285
-3.458 6.599 1.276 396
-3.452 6.588 1.252 506
-3.534 6.743 1.256 526
-3.455 6.594 1.209 615
-3.460 6.603 1.188 977
-3.462 6.606 1.167 1164
-3.459 6.602 1.144 946
-3.315 6.326 1.081 1261
-3.316 6.329 1.060 2208
-3.317 6.331 1.039 2786
-3.315 6.326 1.018 2786
-3.316 6.329 0.997 2489
-3.317 6.331 0.976 2321
-3.318 6.333 0.956 1981
-3.320 6.335 0.935 1306
-3.321 6.337 0.914 863
-3.322 6.339 0.893 704
-3.326 6.348 0.874 578
-3.327 6.350 0.853 495
-3.328 6.352 0.832 367
-1.085 2.083 1.806 1516
-1.129 2.167 1.864 4548
-1.131 2.171 1.857 9096
-1.136 2.181 1.855 9375
-1.138 2.186 1.848 9892
-1.144 2.196 1.845 8717
-1.152 2.212 1.847 8094
-1.154 2.216 1.840 8094
-1.160 2.226 1.837 7974
-1.162 2.231 1.830 7855
-1.164 2.235 1.823 7248
-1.163 2.234 1.811 6707
-1.196 2.296 1.849 5987
-1.198 2.300 1.841 7185
-1.201 2.305 1.834 7185
-1.203 2.309 1.826 6038
-1.254 2.407 1.888 5372
-1.253 2.406 1.876 6648
-1.256 2.411 1.869 7940
-1.258 2.415 1.861 6625
-1.260 2.420 1.853 5309
-1.263 2.424 1.845 4402
-1.265 2.428 1.837 3494
-1.273 2.445 1.838 4144
-1.279 2.455 1.834 5205
-1.281 2.459 1.826 4420
-1.336 2.565 1.889 4293
-1.339 2.570 1.881 3654
-1.341 2.574 1.872 3016
-1.356 2.603 1.880 4522
-1.358 2.607 1.872 6517
-1.364 2.618 1.868 7659
-1.369 2.628 1.863 9016
-1.371 2.633 1.855 8486
-1.374 2.637 1.846 7956
-1.379 2.648 1.842 6946
-1.388 2.664 1.841 6120
-1.384 2.656 1.825 7747
-1.386 2.661 1.816 9276
-1.458 2.800 1.893 9879
-1.461 2.804 1.884 11774
-1.460 2.803 1.871 13698
-1.465 2.813 1.866 14215
-1.471 2.824 1.861 15075
-1.473 2.828 1.851 13553
-1.476 2.833 1.842 13407
-1.478 2.837 1.833 14782
-1.477 2.835 1.820 13820
-1.479 2.840 1.811 13651
-1.485 2.850 1.805 14682
-1.487 2.854 1.796 12464
-1.489 2.859 1.787 10246
-1.491 2.863 1.778 7748
-1.546 2.967 1.826 8661
-1.548 2.971 1.817 10651
-1.547 2.970 1.803 9299
-1.565 3.005 1.812 7654
-1.571 3.016 1.805 8949
-1.573 3.020 1.796 8947
-1.575 3.024 1.786 8429
-1.581 3.035 1.779 8067
-1.580 3.033 1.766 7782
-1.628 3.126 1.804 8232
-1.627 3.124 1.791 7101
-1.633 3.134 1.784 5696
-1.638 3.145 1.777 6287
-1.640 3.149 1.767 5840
-1.653 3.172 1.767 4050
-1.668 3.202 1.770 4480
-1.670 3.206 1.759 3889
-1.666 3.198 1.742 3285
-1.678 3.221 1.742 3620
-1.680 3.225 1.731 4971
-1.682 3.229 1.721 4840
-1.684 3.233 1.710 4057
-1.851 3.553 1.854 3041
-1.856 3.564 1.846 4096
-1.862 3.575 1.837 6151
-1.864 3.579 1.826 10136
-1.863 3.577 1.811 12659
-1.869 3.588 1.802 13343
-1.871 3.592 1.791 12214
-1.877 3.603 1.782 7971
-1.882 3.614 1.773 5702
-1.881 3.611 1.759 3979
-1.883 3.616 1.747 2805
-1.879 3.607 1.729 3341
-1.881 3.611 1.718 4802
-1.893 3.634 1.715 6297
-1.909 3.665 1.714 5283
-2.126 4.082 1.881 3467
-2.122 4.073 1.862 3050
-2.182 4.189 1.896 3111
-2.188 4.200 1.885 2578
-2.201 4.225 1.880 3330
-2.261 4.341 1.912 3735
-2.260 4.339 1.895 4289
-2.263 4.344 1.881 3880
-2.269 4.355 1.870 4286
-2.281 4.379 1.863 4558
-2.335 4.483 1.888 4243
-2.341 4.494 1.876 4069
-2.343 4.499 1.862 3712
-2.349 4.510 1.849 3621
-2.351 4.514 1.835 3636
-2.385 4.579 1.843 3853
-2.359 4.530 1.808 4222
-2.358 4.527 1.791 3282
-2.447 4.698 1.837 4852
-2.446 4.696 1.819 4845
-2.501 4.801 1.840 3384
-2.510 4.819 1.829 3414
-2.586 4.964 1.862 3572
-2.585 4.962 1.844 4890
-2.583 4.959 1.825 4565
-2.642 5.071 1.846 4062
-2.644 5.076 1.829 5337
-2.664 5.114 1.824 4920
-2.673 5.131 1.812 3204
-2.686 5.156 1.802 2284
-2.681 5.147 1.780 1606
-2.849 5.468 1.865 2389
-2.844 5.459 1.843 2859
-2.867 5.504 1.837 2502
-2.877 5.522 1.824 2481
-3.013 5.784 1.884 2671
-3.019 5.796 1.867 2619
-3.011 5.780 1.842 4322
-3.013 5.784 1.823 4256
-3.090 5.931 1.846 2015
-3.088 5.929 1.824 2115
-3.176 6.097 1.851 2612
-3.182 6.108 1.833 2736
-3.223 6.187 1.834 2280
-3.225 6.191 1.814 2254
-3.327 6.387 1.845 2485
-3.329 6.391 1.824 3086
-3.332 6.396 1.803 2665
-3.687 7.078 1.958 1581
-3.693 7.089 1.936 2039
-3.695 7.094 1.913 1572
-3.780 7.256 1.929 1773
-3.789 7.274 1.909 1623
-3.788 7.272 1.883 1235
-4.191 8.046 2.042 1611
-4.194 8.051 2.016 1196
-3.945 7.574 1.878 941
-4.285 8.226 2.001 732
-4.284 8.223 1.972 706
-4.329 8.311 1.964 575
-4.310 8.274 1.928 408
-0.511 0.981 0.339 319
-0.515 0.988 0.337 330
-0.515 0.989 0.334 277
-3.668 7.042 1.422 327
-3.670 7.045 1.399 348
-3.672 7.048 1.376 332
-3.518 6.753 1.301 411
-3.436 6.596 1.252 665
-3.438 6.599 1.231 744
-3.439 6.602 1.209 727
-3.440 6.605 1.187 943
-3.442 6.607 1.166 1096
-3.443 6.610 1.144 926
-3.300 6.334 1.081 1040
-3.301 6.337 1.060 1834
-3.302 6.339 1.039 2382
-3.303 6.341 1.019 2397
-3.301 6.337 0.997 2004
-3.302 6.339 0.976 1759
-3.303 6.341 0.956 1500
-3.308 6.350 0.936 909
-3.309 6.352 0.915 598
-3.310 6.354 0.894 678
-3.311 6.356 0.874 653
-3.312 6.358 0.853 570
-3.316 6.367 0.833 459
-3.317 6.368 0.812 270
-1.082 2.084 1.806 1540
-1.126 2.168 1.864 4553
-1.128 2.173 1.857 9107
-1.133 2.183 1.855 9382
-1.136 2.187 1.848 9879
-1.141 2.197 1.845 8714
-1.152 2.219 1.852 8100
-1.154 2.223 1.845 8100
-1.157 2.228 1.837 8005
-1.159 2.232 1.830 7910
-1.161 2.237 1.823 7263
-1.160 2.235 1.811 6688
-1.193 2.298 1.849 6016
-1.195 2.302 1.841 7225
-1.198 2.306 1.834 7225
-1.200 2.311 1.826 6074
-1.251 2.409 1.888 5424
-1.250 2.408 1.876 6676
-1.252 2.412 1.869 7943
-1.255 2.417 1.861 6608
-1.257 2.421 1.853 5274
-1.259 2.426 1.845 4392
-1.262 2.430 1.837 3511
-1.270 2.446 1.838 4170
-1.276 2.457 1.834 5240
-1.278 2.461 1.826 4452
-1.333 2.567 1.889 4328
-1.335 2.572 1.881 3684
-1.338 2.576 1.872 3041
-1.352 2.605 1.880 4528
-1.355 2.609 1.872 6530
-1.360 2.620 1.868 7673
-1.366 2.630 1.863 9033
-1.368 2.635 1.855 8498
-1.370 2.639 1.846 7962
-1.376 2.650 1.842 6946
-1.384 2.666 1.841 6120
-1.380 2.658 1.825 7735
-1.382 2.663 1.816 9232
-1.455 2.802 1.893 9889
-1.457 2.806 1.884 11787
-1.456 2.804 1.871 13711
-1.462 2.815 1.866 14245
-1.467 2.826 1.861 15117
-1.469 2.830 1.851 13595
-1.472 2.835 1.842 13432
-1.474 2.839 1.833 14792
-1.473 2.837 1.820 13834
-1.475 2.842 1.811 13654
-1.481 2.852 1.805 14681
-1.483 2.856 1.796 12459
-1.485 2.861 1.787 10238
-1.487 2.865 1.778 7740
-1.542 2.969 1.826 8844
-1.544 2.974 1.817 10887
-1.543 2.972 1.803 9490
-1.561 3.007 1.812 7637
-1.570 3.024 1.809 8897
-1.569 3.022 1.796 8913
-1.571 3.026 1.786 8451
-1.577 3.037 1.779 8061
-1.576 3.035 1.766 7728
-1.624 3.128 1.804 8091
-1.623 3.126 1.791 6967
-1.628 3.136 1.784 5484
-1.634 3.147 1.777 6038
-1.636 3.151 1.767 5597
-1.645 3.168 1.763 4264
-1.657 3.192 1.763 4565
-1.656 3.189 1.749 4170
-1.661 3.200 1.742 3456
-1.674 3.223 1.742 4035
-1.676 3.227 1.731 5494
-1.678 3.232 1.721 5152
-1.683 3.242 1.713 4140
-1.846 3.556 1.854 3044
-1.852 3.566 1.846 4102
-1.857 3.577 1.837 6194
-1.860 3.582 1.826 10195
-1.859 3.580 1.811 12705
-1.864 3.590 1.802 13346
-1.866 3.595 1.791 12160
-1.872 3.605 1.782 7928
-1.878 3.616 1.773 5663
-1.876 3.614 1.759 3939
-1.879 3.618 1.747 2815
-1.874 3.609 1.729 3487
-1.876 3.613 1.718 4996
-1.888 3.637 1.715 6335
-1.904 3.667 1.714 4738
-2.121 4.085 1.881 3486
-2.116 4.076 1.862 3056
-2.177 4.192 1.896 3200
-2.182 4.203 1.885 2585
-2.195 4.228 1.880 3117
-2.256 4.344 1.912 3754
-2.255 4.342 1.895 4315
-2.257 4.347 1.881 3864
-2.263 4.358 1.870 4219
-2.275 4.382 1.863 4435
-2.329 4.486 1.888 4268
-2.335 4.497 1.876 4104
-2.337 4.502 1.862 3763
-2.340 4.506 1.847 3675
-2.335 4.497 1.827 3685
-2.382 4.588 1.845 3885
-2.353 4.533 1.808 4227
-2.352 4.530 1.791 3300
-2.441 4.702 1.837 4837
-2.437 4.693 1.817 4830
-2.494 4.804 1.840 3411
-2.504 4.822 1.829 3459
-2.579 4.967 1.862 3557
-2.578 4.965 1.844 4898
-2.577 4.963 1.825 4558
-2.635 5.075 1.846 4111
-2.637 5.079 1.829 5371
-2.657 5.117 1.824 4934
-2.666 5.135 1.812 3222
-2.679 5.159 1.802 2308
-2.674 5.150 1.780 1603
-2.841 5.472 1.865 2422
-2.837 5.463 1.843 2898
-2.860 5.508 1.837 2462
-2.869 5.526 1.824 2358
-3.005 5.788 1.884 2766
-3.008 5.793 1.865 2685
-3.003 5.784 1.842 4334
-3.005 5.788 1.823 4259
-3.082 5.935 1.846 2039
-3.080 5.933 1.824 2165
-3.168 6.101 1.851 2586
-3.173 6.112 1.833 2716
-3.215 6.191 1.834 2307
-3.217 6.196 1.814 2292
-3.319 6.391 1.845 2464
-3.321 6.396 1.824 3045
-3.323 6.400 1.803 2643
-3.677 7.082 1.958 1577
-3.683 7.094 1.936 2066
-3.686 7.099 1.913 1613
-3.770 7.261 1.929 1822
-3.780 7.279 1.909 1660
-3.778 7.277 1.883 1225
-4.180 8.051 2.042 1617
-4.183 8.056 2.016 1196
-4.271 8.226 2.028 917
-4.274 8.231 2.001 759
-4.273 8.229 1.972 703
-4.318 8.317 1.964 577
-4.303 8.287 1.929 394
-0.509 0.981 0.339 324
-0.513 0.989 0.337 336
-0.514 0.989 0.334 269
-4.010 7.724 1.702 253
-3.621 6.974 1.479 280
-3.659 7.047 1.422 257
-3.660 7.050 1.399 306
-3.659 7.046 1.375 323
-3.429 6.605 1.275 502
-3.431 6.608 1.253 847
-3.429 6.604 1.231 975
-3.430 6.607 1.209 934
-3.432 6.609 1.187 1027
-3.433 6.612 1.166 1080
-3.434 6.615 1.144 976
-3.436 6.617 1.123 712
-3.296 6.348 1.061 1222
-3.294 6.343 1.039 1780
-3.295 6.346 1.019 1962
-3.296 6.348 0.998 1688
-3.293 6.343 0.976 1486
-3.298 6.352 0.957 1244
-3.303 6.361 0.937 751
-3.304 6.363 0.916 544
-3.305 6.365 0.895 643
-3.306 6.367 0.874 658
-3.307 6.369 0.854 597
-3.308 6.371 0.833 509
-3.309 6.373 0.812 298
-1.077 2.087 1.806 1581
-1.120 2.171 1.864 4582
-1.123 2.175 1.857 9164
-1.128 2.185 1.855 9457
-1.130 2.190 1.848 9952
-1.135 2.200 1.845 8801
-1.147 2.222 1.852 8212
-1.149 2.226 1.845 8212
-1.151 2.231 1.837 8121
-1.154 2.235 1.830 8030
-1.156 2.239 1.823 7326
-1.155 2.238 1.811 6702
-1.187 2.301 1.849 6173
-1.190 2.305 1.841 7408
-1.192 2.309 1.834 7408
-1.194 2.314 1.826 6241
-1.245 2.412 1.888 5476
-1.244 2.411 1.876 6679
-1.247 2.415 1.869 7900
-1.249 2.420 1.861 6545
-1.251 2.424 1.853 5190
-1.254 2.429 1.845 4373
-1.256 2.433 1.837 3557
-1.264 2.449 1.838 4191
-1.270 2.460 1.834 5252
-1.272 2.464 1.826 4433
-1.327 2.570 1.889 4309
-1.329 2.575 1.881 3658
-1.331 2.579 1.872 3008
-1.346 2.608 1.880 4504
-1.345 2.606 1.868 6511
-1.354 2.623 1.868 7675
-1.359 2.633 1.863 9068
-1.362 2.638 1.855 8543
-1.364 2.642 1.846 8018
-1.369 2.653 1.842 6984
-1.378 2.669 1.841 6152
-1.374 2.662 1.825 7723
-1.376 2.666 1.816 9152
-1.448 2.805 1.893 9895
-1.450 2.810 1.884 11826
-1.449 2.808 1.871 13785
-1.455 2.819 1.866 14333
-1.460 2.829 1.861 15228
-1.463 2.834 1.851 13693
-1.465 2.838 1.842 13451
-1.467 2.843 1.833 14745
-1.466 2.841 1.820 13796
-1.468 2.845 1.811 13591
-1.474 2.856 1.805 14572
-1.476 2.860 1.796 12373
-1.478 2.864 1.787 10175
-1.481 2.869 1.778 7692
-1.534 2.973 1.826 9082
-1.537 2.977 1.817 11138
-1.536 2.975 1.803 9648
-1.557 3.017 1.815 7625
-1.563 3.028 1.809 8864
-1.562 3.026 1.796 8742
-1.564 3.030 1.786 8387
-1.569 3.041 1.779 8161
-1.568 3.039 1.766 7800
-1.613 3.125 1.801 8060
-1.615 3.130 1.791 6658
-1.608 3.115 1.770 4763
-1.623 3.145 1.774 5115
-1.628 3.155 1.767 4833
-1.641 3.179 1.767 4184
-1.646 3.189 1.760 4860
-1.645 3.187 1.746 4759
-1.650 3.198 1.739 3775
-1.666 3.227 1.742 4143
-1.668 3.232 1.731 5663
-1.667 3.229 1.718 5270
-1.672 3.240 1.710 4128
-1.837 3.560 1.854 3135
-1.843 3.571 1.846 4134
-1.849 3.582 1.837 6216
-1.851 3.586 1.826 10140
-1.850 3.584 1.811 12541
-1.855 3.595 1.802 13186
-1.858 3.599 1.791 11989
-1.863 3.610 1.782 7775
-1.869 3.621 1.773 5637
-1.868 3.618 1.759 3961
-1.870 3.623 1.747 2932
-1.865 3.614 1.729 3645
-1.867 3.618 1.718 5130
-1.879 3.642 1.715 6485
-1.882 3.646 1.703 4602
-2.111 4.090 1.881 3493
-2.106 4.081 1.862 3094
-2.166 4.198 1.896 3226
-2.172 4.209 1.885 2675
-2.185 4.233 1.880 3290
-2.245 4.350 1.912 3810
-2.244 4.348 1.895 4412
-2.246 4.352 1.881 3879
-2.252 4.363 1.870 4042
-2.265 4.388 1.863 4408
-2.318 4.492 1.888 4410
-2.324 4.503 1.876 4237
-2.330 4.514 1.864 3911
-2.329 4.512 1.847 3829
-2.324 4.503 1.827 3875
-2.371 4.594 1.845 3870
-2.342 4.538 1.808 4187
-2.341 4.536 1.791 3236
-2.430 4.708 1.837 4782
-2.425 4.699 1.817 4757
-2.483 4.810 1.840 3479
-2.492 4.828 1.829 3449
-2.567 4.974 1.862 3558
-2.566 4.971 1.844 4782
-2.565 4.969 1.825 4396
-2.622 5.081 1.846 4179
-2.625 5.085 1.829 5476
-2.644 5.124 1.824 4940
-2.654 5.141 1.812 3191
-2.666 5.166 1.802 2344
-2.662 5.157 1.780 1622
-2.828 5.479 1.865 2437
-2.827 5.477 1.845 2797
-2.850 5.522 1.839 2514
-2.856 5.533 1.824 2443
-2.991 5.796 1.884 2756
-2.994 5.800 1.865 2598
-2.989 5.791 1.842 4228
-2.991 5.795 1.823 4186
-3.067 5.943 1.846 2022
-3.066 5.940 1.824 2220
-3.153 6.108 1.851 2557
-3.159 6.120 1.833 2684
-3.200 6.199 1.834 2340
-3.202 6.204 1.814 2353
-3.303 6.400 1.845 2447
-3.305 6.404 1.824 3039
-3.307 6.408 1.803 2650
-3.664 7.098 1.959 1505
-3.666 7.103 1.936 1975
-3.746 7.259 1.951 1529
-3.752 7.270 1.929 1770
-3.762 7.288 1.909 1638
-3.761 7.286 1.883 1275
-4.161 8.062 2.042 1617
-4.163 8.067 2.016 1225
-3.917 7.589 1.878 908
-4.254 8.242 2.001 701
-4.253 8.240 1.972 655
-4.298 8.327 1.964 613
-4.300 8.332 1.937 427
-0.507 0.983 0.339 307
-0.511 0.990 0.337 302
-0.511 0.990 0.334 260
-3.995 7.741 1.704 290
-3.600 6.976 1.525 286
-3.606 6.986 1.503 442
-3.608 6.990 1.480 367
-3.444 6.674 1.352 295
-3.475 6.732 1.340 431
-3.476 6.735 1.318 469
-3.417 6.620 1.276 627
-3.415 6.616 1.253 1038
-3.413 6.612 1.231 1162
-3.414 6.615 1.209 1082
-3.416 6.618 1.187 1042
-3.417 6.620 1.166 1108
-3.418 6.623 1.144 1094
-3.423 6.633 1.124 816
-3.281 6.356 1.061 670
-3.282 6.358 1.040 1156
-3.279 6.354 1.019 1408
-3.280 6.356 0.998 1341
-3.282 6.358 0.977 1233
-3.283 6.360 0.957 1086
-3.287 6.369 0.937 818
-3.292 6.378 0.917 621
-3.293 6.380 0.896 560
-3.291 6.375 0.874 591
-3.288 6.370 0.853 593
-3.292 6.379 0.833 486
-3.293 6.381 0.812 270
-1.074 2.088 1.806 1632
-1.118 2.172 1.864 4997
-1.120 2.177 1.857 9995
-1.125 2.187 1.855 10351
-1.127 2.191 1.848 10759
-1.133 2.201 1.845 9534
-1.141 2.217 1.847 8870
-1.143 2.222 1.840 8870
-1.148 2.232 1.837 8709
-1.151 2.236 1.830 8573
-1.153 2.241 1.823 7614
-1.152 2.239 1.811 6791
-1.184 2.302 1.849 7166
-1.187 2.306 1.841 8597
-1.189 2.311 1.834 8597
-1.191 2.315 1.826 7407
-1.194 2.320 1.819 6229
-1.241 2.412 1.876 6588
-1.244 2.417 1.869 7245
-1.249 2.427 1.865 5818
-1.251 2.432 1.857 4448
-1.254 2.436 1.849 4095
-1.253 2.435 1.837 3810
-1.258 2.445 1.834 4224
-1.266 2.461 1.834 5050
-1.272 2.472 1.830 4125
-1.323 2.572 1.889 4057
-1.326 2.577 1.881 3394
-1.328 2.581 1.872 2731
-1.333 2.592 1.868 4368
-1.342 2.608 1.868 6365
-1.350 2.625 1.868 7547
-1.356 2.635 1.863 9114
-1.358 2.640 1.855 8611
-1.360 2.644 1.846 8109
-1.366 2.655 1.842 6998
-1.374 2.671 1.841 6103
-1.370 2.663 1.825 7589
-1.376 2.674 1.820 8795
-1.444 2.807 1.893 9431
-1.447 2.811 1.884 11608
-1.446 2.810 1.871 13826
-1.451 2.820 1.866 14455
-1.457 2.831 1.861 15493
-1.459 2.836 1.851 13880
-1.461 2.840 1.842 13393
-1.464 2.844 1.833 14519
-1.463 2.843 1.820 13609
-1.465 2.847 1.811 13175
-1.470 2.857 1.805 13808
-1.472 2.862 1.796 11943
-1.475 2.866 1.787 10079
-1.477 2.870 1.778 7643
-1.527 2.969 1.823 9400
-1.533 2.979 1.817 11199
-1.532 2.977 1.803 9730
-1.563 3.038 1.826 8117
-1.562 3.036 1.812 9289
-1.561 3.034 1.799 8304
-1.563 3.039 1.789 8082
-1.566 3.043 1.779 8618
-1.568 3.047 1.770 8438
-1.609 3.127 1.801 8684
-1.608 3.125 1.787 6823
-1.601 3.111 1.767 4701
-1.622 3.153 1.777 4465
-1.625 3.157 1.767 5138
-1.630 3.168 1.760 5436
-1.639 3.185 1.756 5739
-1.641 3.189 1.746 5534
-1.650 3.206 1.742 4361
-1.662 3.229 1.742 3937
-1.661 3.227 1.728 4941
-1.663 3.231 1.718 4738
-1.668 3.242 1.710 3747
-1.833 3.562 1.854 3569
-1.839 3.573 1.846 4263
-1.844 3.584 1.837 6108
-1.846 3.589 1.826 9621
-1.845 3.586 1.811 11533
-1.851 3.597 1.802 12359
-1.853 3.602 1.791 11437
-1.855 3.606 1.779 7706
-1.868 3.630 1.776 6131
-1.866 3.627 1.762 4617
-1.869 3.631 1.750 3261
-1.864 3.623 1.732 3702
-1.866 3.627 1.721 5098
-1.875 3.644 1.715 6349
-1.877 3.648 1.703 4488
-2.106 4.092 1.881 3471
-2.105 4.090 1.865 3182
-2.158 4.194 1.893 3485
-2.167 4.211 1.885 2908
-2.179 4.236 1.880 3525
-2.240 4.353 1.912 3959
-2.242 4.357 1.898 4674
-2.241 4.355 1.881 3715
-2.250 4.373 1.872 3634
-2.259 4.391 1.863 4413
-2.313 4.495 1.888 5294
-2.318 4.506 1.876 4985
-2.324 4.517 1.864 4793
-2.323 4.515 1.847 4660
-2.318 4.506 1.827 4740
-2.334 4.537 1.823 4101
-2.340 4.548 1.810 4206
-2.335 4.539 1.791 3094
-2.420 4.704 1.834 4311
-2.416 4.695 1.814 4311
-2.477 4.813 1.840 3528
-2.482 4.824 1.826 3345
-2.561 4.977 1.862 3273
-2.560 4.974 1.844 4088
-2.558 4.972 1.825 3559
-2.616 5.084 1.846 4445
-2.618 5.089 1.829 5715
-2.634 5.120 1.822 4515
-2.647 5.145 1.812 2962
-2.660 5.169 1.802 2605
-2.659 5.167 1.783 1816
-2.821 5.483 1.865 2473
-2.823 5.487 1.847 2526
-2.843 5.526 1.839 2649
-2.845 5.530 1.821 2390
-2.980 5.793 1.882 2885
-2.948 5.729 1.843 2819
-2.985 5.801 1.844 4285
-2.984 5.799 1.823 4234
-2.951 5.735 1.785 2010
-2.992 5.815 1.787 2094
-3.145 6.112 1.851 2442
-3.151 6.124 1.833 2452
-3.192 6.203 1.834 2605
-3.191 6.201 1.812 2711
-3.295 6.404 1.845 2376
-3.297 6.408 1.824 3113
-3.299 6.412 1.803 2748
-3.651 7.096 1.958 1468
-3.657 7.108 1.936 1936
-3.734 7.256 1.949 1528
-3.743 7.275 1.929 1594
-3.753 7.293 1.909 1549
-3.755 7.298 1.885 1419
-4.147 8.060 2.041 1454
-4.150 8.065 2.014 1165
-4.156 8.077 1.990 932
-4.162 8.088 1.965 720
-4.285 8.328 1.991 583
-4.287 8.332 1.964 797
-4.286 8.330 1.935 643
-4.289 8.335 1.908 316
-3.974 7.724 1.751 334
-3.980 7.735 1.728 417
-3.985 7.746 1.704 559
-3.987 7.750 1.678 544
-3.597 6.991 1.503 774
-3.599 6.994 1.480 661
-3.486 6.776 1.416 359
-3.434 6.675 1.374 418
-3.443 6.692 1.355 517
-3.466 6.737 1.340 729
-3.482 6.768 1.323 795
-3.409 6.625 1.276 1110
-3.406 6.621 1.253 1731
-3.404 6.616 1.231 1864
-3.406 6.619 1.209 1709
-3.411 6.629 1.188 1384
-3.409 6.625 1.166 1308
-3.410 6.627 1.144 1463
-3.418 6.644 1.125 1165
-3.434 6.674 1.107 742
-3.270 6.356 1.039 747
-3.271 6.358 1.019 1032
-3.273 6.360 0.998 962
-3.274 6.362 0.977 802
-3.271 6.357 0.956 597
-3.283 6.381 0.938 351
-3.288 6.390 0.918 443
-3.285 6.385 0.896 583
-3.282 6.380 0.874 663
-3.283 6.381 0.854 669
-3.284 6.383 0.833 558
-3.289 6.392 0.813 339
-1.069 2.091 1.806 1569
-1.115 2.181 1.869 5326
-1.118 2.185 1.862 10652
-1.120 2.190 1.855 10977
-1.122 2.194 1.848 11302
-1.127 2.204 1.845 9977
-1.136 2.220 1.847 9170
-1.138 2.225 1.840 9170
-1.143 2.235 1.837 8932
-1.145 2.239 1.830 8754
-1.148 2.244 1.823 7584
-1.147 2.242 1.811 6599
-1.182 2.311 1.853 8052
-1.184 2.315 1.846 9690
-1.186 2.320 1.838 9690
-1.189 2.324 1.831 8515
-1.188 2.323 1.819 7318
-1.190 2.327 1.811 6846
-1.241 2.426 1.873 6919
-1.243 2.430 1.865 5553
-1.251 2.447 1.866 4389
-1.248 2.439 1.849 4194
-1.247 2.438 1.837 4267
-1.252 2.448 1.834 4458
-1.260 2.464 1.834 4936
-1.266 2.475 1.830 3872
-1.317 2.575 1.889 3841
-1.319 2.580 1.881 3171
-1.325 2.590 1.877 2514
-1.327 2.595 1.868 4271
-1.333 2.605 1.864 6133
-1.344 2.628 1.868 7349
-1.349 2.638 1.863 9084
-1.352 2.643 1.855 8569
-1.354 2.647 1.846 8053
-1.356 2.652 1.838 6874
-1.368 2.675 1.841 5863
-1.364 2.667 1.825 7321
-1.369 2.677 1.820 8397
-1.437 2.810 1.893 8785
-1.440 2.815 1.884 11078
-1.439 2.813 1.871 13409
-1.444 2.824 1.866 14047
-1.450 2.835 1.861 15105
-1.452 2.839 1.851 13463
-1.454 2.844 1.842 12804
-1.457 2.848 1.833 13786
-1.456 2.846 1.820 12952
-1.458 2.850 1.811 12331
-1.463 2.861 1.805 12637
-1.466 2.865 1.796 11167
-1.468 2.870 1.787 9696
-1.521 2.974 1.836 7889
-1.520 2.972 1.823 9428
-1.526 2.983 1.817 10815
-1.525 2.981 1.803 9552
-1.556 3.042 1.826 8568
-1.555 3.040 1.812 9567
-1.557 3.044 1.803 8174
-1.559 3.049 1.793 7902
-1.561 3.053 1.783 8624
-1.560 3.051 1.770 8569
-1.602 3.131 1.801 9226
-1.604 3.136 1.791 7323
-1.593 3.114 1.767 4792
-1.615 3.157 1.777 4721
-1.620 3.168 1.770 5579
-1.622 3.172 1.760 6299
-1.628 3.182 1.753 6120
-1.636 3.199 1.749 5820
-1.645 3.216 1.746 4883
-1.654 3.234 1.742 4015
-1.794 3.508 1.866 4342
-1.797 3.513 1.855 4602
-1.799 3.517 1.844 3678
-1.821 3.560 1.851 3935
-1.827 3.571 1.843 4428
-1.839 3.595 1.840 5988
-1.838 3.593 1.826 8904
-1.840 3.597 1.814 10296
-1.839 3.595 1.799 11158
-1.841 3.599 1.788 10599
-1.847 3.610 1.779 7470
-1.859 3.634 1.776 6689
-1.861 3.638 1.765 5289
-1.860 3.636 1.750 3780
-1.862 3.640 1.738 3869
-1.861 3.638 1.723 5070
-1.866 3.648 1.715 6231
-1.868 3.653 1.703 4507
-2.102 4.111 1.886 3481
-2.105 4.115 1.873 3455
-2.148 4.199 1.893 3669
-2.157 4.217 1.885 3083
-2.172 4.248 1.882 3709
-2.229 4.358 1.912 4021
-2.231 4.363 1.898 4857
-2.234 4.367 1.884 3786
-2.239 4.378 1.872 3517
-2.293 4.483 1.898 4387
-2.298 4.494 1.886 5896
-2.307 4.512 1.876 5471
-2.310 4.516 1.862 5573
-2.312 4.521 1.847 5326
-2.304 4.505 1.825 5204
-2.323 4.543 1.823 4240
-2.329 4.554 1.810 4253
-2.372 4.638 1.825 3163
-2.402 4.696 1.830 3660
-2.397 4.687 1.809 4113
-2.465 4.819 1.840 3496
-2.471 4.831 1.826 3048
-2.549 4.983 1.862 2813
-2.547 4.981 1.844 3267
-2.598 5.079 1.860 2792
-2.604 5.091 1.846 4387
-2.606 5.095 1.829 5579
-2.619 5.120 1.819 3946
-2.635 5.151 1.812 2674
-2.647 5.176 1.802 2821
-2.649 5.180 1.785 2046
-2.808 5.490 1.865 2375
-2.813 5.501 1.849 2239
-2.830 5.532 1.839 2523
-2.926 5.720 1.878 2293
-2.956 5.779 1.876 2863
-2.934 5.736 1.843 3394
-2.971 5.809 1.844 4152
-2.970 5.806 1.823 4174
-2.937 5.742 1.785 2565
-2.978 5.822 1.787 2562
-3.137 6.134 1.855 2397
-3.136 6.131 1.833 2151
-3.173 6.204 1.832 2818
-3.175 6.209 1.812 3064
-3.279 6.412 1.845 2249
-3.282 6.416 1.824 3077
-3.280 6.414 1.801 2682
-3.669 7.174 1.975 1339
-3.640 7.116 1.936 1742
-3.691 7.217 1.937 1500
-3.722 7.277 1.927 1432
-3.735 7.302 1.909 1533
-3.737 7.307 1.885 1450
-4.127 8.070 2.041 1239
-4.130 8.075 2.014 1070
-4.136 8.087 1.990 1003
-4.138 8.091 1.963 845
-4.265 8.338 1.991 846
-4.267 8.343 1.964 1083
-4.266 8.341 1.935 1023
-4.268 8.345 1.908 573
-3.955 7.733 1.751 659
-3.961 7.744 1.728 753
-3.967 7.755 1.704 907
-3.969 7.759 1.678 855
-3.580 7.000 1.503 1187
-3.582 7.003 1.480 922
-3.466 6.777 1.414 534
-3.422 6.690 1.375 803
-3.427 6.700 1.355 1065
-3.439 6.724 1.337 1175
-3.448 6.741 1.317 1140
-3.389 6.626 1.275 1823
-3.390 6.629 1.253 2608
-3.388 6.625 1.231 2788
-3.393 6.634 1.210 2664
-3.395 6.637 1.188 2132
-3.396 6.640 1.167 1927
-3.390 6.629 1.143 2018
-3.399 6.645 1.124 1376
-3.253 6.361 1.060 1538
-3.255 6.363 1.039 1745
-3.259 6.373 1.020 2019
-3.261 6.375 0.999 2137
-3.262 6.377 0.978 2063
-3.263 6.379 0.957 1716
-3.264 6.382 0.937 976
-3.269 6.391 0.917 488
-3.266 6.386 0.895 483
-3.267 6.388 0.874 584
-3.268 6.389 0.854 594
-3.269 6.391 0.833 558
-3.270 6.393 0.812 399
-3.231 6.318 0.783 253
-3.228 6.312 0.762 274
-3.226 6.307 0.741 263
-1.067 2.092 1.806 1663
-1.113 2.182 1.869 5635
-1.115 2.186 1.862 11271
-1.117 2.191 1.855 11479
-1.119 2.195 1.848 11687
-1.125 2.206 1.845 10183
-1.133 2.222 1.847 9097
-1.135 2.226 1.840 9097
-1.140 2.236 1.837 8732
-1.145 2.246 1.835 8574
-1.145 2.245 1.823 7135
-1.174 2.302 1.856 7235
-1.179 2.312 1.853 9022
-1.181 2.317 1.846 10864
-1.183 2.321 1.838 10864
-1.186 2.326 1.831 9693
-1.185 2.324 1.819 8474
-1.187 2.328 1.811 7776
-1.189 2.333 1.804 7032
-1.195 2.343 1.801 5855
-1.251 2.454 1.870 5240
-1.251 2.453 1.858 4913
-1.244 2.439 1.837 5204
-1.249 2.450 1.834 5151
-1.254 2.460 1.830 5227
-1.263 2.476 1.830 3803
-1.314 2.577 1.889 3653
-1.319 2.587 1.885 3017
-1.334 2.616 1.893 2578
-1.324 2.596 1.868 4193
-1.326 2.601 1.860 5962
-1.341 2.630 1.868 7190
-1.346 2.640 1.863 9108
-1.348 2.645 1.855 8507
-1.351 2.649 1.846 7907
-1.353 2.654 1.838 6659
-1.358 2.664 1.833 5426
-1.361 2.668 1.825 6888
-1.366 2.679 1.820 7844
-1.434 2.812 1.893 7968
-1.436 2.817 1.884 10279
-1.435 2.815 1.871 12614
-1.441 2.826 1.866 13182
-1.446 2.836 1.861 14153
-1.449 2.841 1.851 12489
-1.451 2.845 1.842 11641
-1.453 2.850 1.833 12457
-1.452 2.848 1.820 11687
-1.454 2.852 1.811 10839
-1.460 2.863 1.805 10799
-1.462 2.867 1.796 9824
-1.464 2.872 1.787 8850
-1.514 2.970 1.832 8152
-1.516 2.974 1.823 9403
-1.522 2.985 1.817 10365
-1.518 2.977 1.800 9452
-1.555 3.050 1.829 8653
-1.554 3.048 1.816 9575
-1.556 3.053 1.806 8080
-1.559 3.057 1.796 7860
-1.558 3.055 1.783 8428
-1.557 3.053 1.770 8280
-1.601 3.140 1.804 9545
-1.603 3.144 1.794 7771
-1.612 3.161 1.791 5250
-1.614 3.165 1.781 5315
-1.616 3.170 1.770 6218
-1.618 3.174 1.760 6876
-1.624 3.184 1.753 5980
-1.636 3.208 1.753 5459
-1.644 3.225 1.749 5131
-1.653 3.242 1.745 4302
-1.790 3.510 1.866 3966
-1.789 3.508 1.852 4434
-1.794 3.519 1.844 3719
-1.813 3.556 1.848 4217
-1.815 3.561 1.836 4679
-1.834 3.597 1.840 5944
-1.833 3.595 1.826 8137
-1.835 3.600 1.814 8920
-1.834 3.598 1.799 9753
-1.836 3.602 1.788 9423
-1.842 3.613 1.779 7087
-1.857 3.643 1.779 7110
-1.860 3.647 1.768 5833
-1.858 3.645 1.753 4291
-1.861 3.649 1.741 4167
-1.863 3.653 1.729 5111
-1.865 3.657 1.717 5837
-1.867 3.661 1.706 4344
-2.114 4.146 1.900 3589
-2.120 4.157 1.890 3713
-2.142 4.202 1.893 3656
-2.114 4.147 1.855 3282
-2.167 4.250 1.882 3710
-2.223 4.361 1.912 3864
-2.226 4.365 1.898 4798
-2.232 4.377 1.886 4136
-2.234 4.381 1.872 3438
-2.287 4.485 1.898 5034
-2.293 4.497 1.886 6199
-2.298 4.508 1.874 5817
-2.304 4.519 1.862 6352
-2.306 4.523 1.847 5667
-2.298 4.508 1.825 5104
-2.304 4.519 1.813 4121
-2.323 4.557 1.810 4116
-2.367 4.641 1.825 3220
-2.389 4.686 1.825 3210
-2.388 4.684 1.807 3798
-2.459 4.822 1.840 3270
-2.461 4.827 1.824 2569
-2.542 4.986 1.862 2213
-2.483 4.869 1.804 2332
-2.592 5.083 1.860 2572
-2.597 5.094 1.846 4052
-2.600 5.098 1.829 5066
-2.605 5.110 1.815 3222
-2.628 5.154 1.812 2359
-2.641 5.179 1.802 2951
-2.643 5.183 1.785 2291
-2.801 5.493 1.865 2203
-2.810 5.511 1.851 1906
-2.823 5.536 1.839 2246
-2.891 5.670 1.861 2244
-2.921 5.729 1.859 3011
-2.923 5.733 1.840 4259
-2.922 5.731 1.820 4011
-2.962 5.810 1.823 3903
-2.930 5.746 1.785 3305
-2.970 5.826 1.787 2829
-3.133 6.144 1.857 2675
-3.132 6.142 1.835 1977
-3.165 6.208 1.832 2784
-3.168 6.213 1.812 3097
-3.271 6.416 1.845 2100
-3.270 6.413 1.822 2905
-3.272 6.418 1.801 2395
-3.660 7.178 1.975 1523
-3.666 7.190 1.954 1547
-3.682 7.222 1.937 1549
-3.706 7.268 1.924 1227
-3.726 7.307 1.909 1422
-3.728 7.312 1.885 1520
-3.734 7.323 1.863 1058
-4.120 8.080 2.014 942
-4.126 8.092 1.990 985
-4.248 8.332 2.017 1034
-4.254 8.343 1.991 1177
-4.257 8.348 1.964 1314
-4.255 8.346 1.935 1355
-4.258 8.351 1.908 936
-3.946 7.738 1.751 1155
-3.951 7.749 1.728 1224
-3.957 7.760 1.704 1364
-3.573 7.007 1.527 1383
-3.571 7.004 1.503 1757
-3.573 7.008 1.480 1316
-3.412 6.691 1.397 959
-3.413 6.694 1.375 1535
-3.415 6.698 1.354 2068
-3.420 6.708 1.333 2010
-3.432 6.732 1.315 1645
-3.381 6.630 1.275 2558
-3.382 6.633 1.253 3279
-3.383 6.636 1.232 3522
-3.385 6.639 1.210 3669
-3.386 6.642 1.188 2767
-3.388 6.644 1.167 2284
-3.382 6.633 1.143 2279
-3.408 6.684 1.129 1568
-3.410 6.687 1.107 1716
-3.250 6.375 1.040 2248
-3.248 6.370 1.019 3542
-3.253 6.379 0.999 4070
-3.254 6.381 0.978 4002
-3.255 6.384 0.957 3501
-3.256 6.386 0.937 2486
-3.257 6.388 0.916 1626
-3.254 6.383 0.894 1032
-3.255 6.385 0.874 616
-3.253 6.379 0.852 470
-3.257 6.388 0.832 404
-3.262 6.397 0.812 271
-1.061 2.095 1.806 1857
-1.107 2.185 1.869 5820
-1.109 2.190 1.862 11640
-1.111 2.194 1.855 11732
-1.113 2.198 1.848 11824
-1.119 2.209 1.845 10135
-1.124 2.219 1.843 8732
-1.126 2.223 1.836 8732
-1.134 2.239 1.837 8257
-1.139 2.250 1.835 8140
-1.139 2.248 1.823 6534
-1.167 2.305 1.856 7688
-1.173 2.315 1.853 9563
-1.175 2.320 1.846 11491
-1.177 2.324 1.838 11491
-1.179 2.329 1.831 10317
-1.179 2.327 1.819 9064
-1.181 2.332 1.811 8264
-1.183 2.336 1.804 7384
-1.239 2.447 1.874 6363
-1.245 2.458 1.870 6156
-1.244 2.456 1.858 5848
-1.237 2.443 1.837 6221
-1.239 2.447 1.830 6042
-1.245 2.457 1.826 5966
-1.253 2.474 1.826 4144
-1.279 2.526 1.852 3829
-1.279 2.525 1.839 3291
-1.327 2.620 1.893 2829
-1.320 2.606 1.872 4216
-1.319 2.605 1.860 5943
-1.334 2.633 1.868 7120
-1.339 2.644 1.863 9135
-1.341 2.648 1.855 8387
-1.343 2.653 1.846 7639
-1.346 2.657 1.838 6360
-1.348 2.662 1.829 5082
-1.353 2.672 1.825 6431
-1.359 2.683 1.820 7316
-1.426 2.816 1.893 7201
-1.428 2.821 1.884 9427
-1.431 2.825 1.875 11652
-1.433 2.830 1.866 12141
-1.438 2.840 1.861 12972
-1.441 2.845 1.851 11291
-1.443 2.849 1.842 10289
-1.442 2.848 1.829 10981
-1.444 2.852 1.820 10261
-1.446 2.856 1.811 9290
-1.452 2.867 1.805 9044
-1.454 2.871 1.796 8474
-1.507 2.976 1.845 8368
-1.506 2.974 1.832 8486
-1.508 2.978 1.823 9440
-1.510 2.983 1.813 10080
-1.510 2.981 1.800 9415
-1.547 3.055 1.829 8719
-1.546 3.053 1.816 9479
-1.551 3.063 1.810 8162
-1.557 3.074 1.803 8070
-1.556 3.072 1.790 8429
-1.587 3.133 1.811 8274
-1.592 3.144 1.804 9634
-1.598 3.155 1.798 7914
-1.574 3.108 1.760 5797
-1.608 3.176 1.784 5701
-1.607 3.174 1.770 6705
-1.606 3.172 1.757 7517
-1.612 3.183 1.750 6372
-1.624 3.206 1.749 5215
-1.635 3.229 1.749 4851
-1.644 3.247 1.745 4306
-1.777 3.509 1.863 3556
-1.779 3.513 1.852 4149
-1.788 3.531 1.847 3668
-1.800 3.555 1.845 4374
-1.802 3.559 1.833 4940
-1.824 3.602 1.840 5914
-1.823 3.600 1.826 7572
-1.822 3.598 1.811 7956
-1.824 3.603 1.799 8649
-1.827 3.607 1.788 8270
-1.835 3.624 1.782 6614
-1.847 3.648 1.779 7209
-1.850 3.652 1.768 6171
-1.852 3.657 1.756 4881
-1.854 3.661 1.744 4667
-1.853 3.658 1.729 5088
-1.855 3.662 1.717 5370
-1.857 3.667 1.706 4256
-2.103 4.152 1.900 3694
-2.108 4.163 1.890 3755
-2.091 4.128 1.860 3532
-2.103 4.152 1.855 3651
-2.155 4.256 1.882 3447
-2.211 4.367 1.912 3726
-2.214 4.372 1.898 4783
-2.223 4.389 1.889 4761
-2.218 4.381 1.870 3794
-2.275 4.492 1.898 5463
-2.280 4.503 1.886 6190
-2.286 4.514 1.874 6064
-2.292 4.525 1.862 7067
-2.294 4.530 1.847 5770
-2.283 4.507 1.822 4574
-2.332 4.606 1.843 3716
-2.311 4.563 1.810 3788
-2.354 4.648 1.825 3226
-2.373 4.686 1.822 2948
-2.375 4.690 1.807 3664
-2.446 4.829 1.840 2932
-2.451 4.840 1.826 1965
-2.464 4.865 1.818 2181
-2.469 4.876 1.804 3052
-2.475 4.887 1.791 3064
-2.583 5.101 1.846 3497
-2.586 5.105 1.829 4318
-2.588 5.110 1.813 2624
-2.614 5.162 1.812 2157
-2.630 5.193 1.804 2964
-2.629 5.191 1.785 2341
-2.786 5.501 1.865 1997
-2.798 5.526 1.853 1738
-2.814 5.557 1.844 2156
-2.879 5.684 1.863 2444
-2.905 5.737 1.859 3744
-2.907 5.741 1.840 5058
-2.903 5.732 1.818 4389
-2.901 5.729 1.797 4096
-2.914 5.754 1.785 4147
-2.913 5.752 1.764 2862
-3.119 6.160 1.859 2956
-3.118 6.158 1.837 2007
-3.148 6.217 1.832 2460
-3.151 6.221 1.812 2808
-3.250 6.418 1.843 1887
-3.252 6.422 1.822 2576
-3.255 6.427 1.801 2014
-3.644 7.195 1.977 1596
-3.650 7.207 1.955 1581
-3.659 7.225 1.935 1412
-3.661 7.230 1.912 1091
-3.706 7.317 1.909 1282
-3.711 7.329 1.886 1443
-3.784 7.471 1.895 1068
-4.175 8.244 2.050 897
-4.062 8.020 1.971 1025
-4.225 8.343 2.017 1197
-4.231 8.355 1.991 1191
