-1.883 4.577 1.756 2489
-1.885 4.582 1.741 2978
-1.884 4.579 1.725 2686
-1.934 4.702 1.751 3402
-1.942 4.720 1.742 4054
-1.949 4.738 1.732 3026
-1.968 4.785 1.731 3284
-1.970 4.789 1.716 4255
-2.058 5.003 1.770 2950
-2.054 4.993 1.750 3677
-2.053 4.991 1.732 4784
-2.052 4.988 1.714 4302
-2.051 4.985 1.696 2848
-2.099 5.102 1.716 2902
-2.156 5.240 1.741 2709
-2.140 5.202 1.712 2220
-2.214 5.383 1.749 2645
-2.219 5.394 1.734 2924
-2.256 5.483 1.742 2669
-2.269 5.516 1.733 2720
-2.288 5.562 1.728 3585
-2.299 5.588 1.717 4650
-2.312 5.620 1.707 3985
-2.311 5.617 1.688 2878
-2.316 5.629 1.672 2910
-2.446 5.945 1.739 2856
-2.515 6.113 1.765 3390
-2.517 6.117 1.746 2921
-2.524 6.136 1.730 3881
-2.532 6.154 1.715 4038
-2.536 6.166 1.697 2825
-2.617 6.363 1.726 2083
-2.631 6.395 1.713 2085
-2.630 6.392 1.691 1814
-2.681 6.518 1.701 1831
-2.901 7.051 1.806 1557
-2.903 7.056 1.784 2090
-2.910 7.075 1.765 1486
-3.009 7.315 1.797 1033
-3.032 7.370 1.786 1420
-3.037 7.382 1.764 1356
-2.932 7.128 1.684 1429
-3.229 7.850 1.817 1804
-3.497 8.501 1.929 1746
-3.502 8.513 1.904 1813
-3.504 8.518 1.877 1237
-3.390 8.242 1.793 1035
-3.395 8.253 1.769 918
-3.394 8.250 1.742 566
-3.511 8.536 1.770 450
-3.587 8.720 1.777 341
-3.589 8.725 1.750 331
-0.891 2.173 1.806 3100
-0.898 2.189 1.808 6590
-0.904 2.205 1.811 7570
-0.899 2.192 1.790 7123
-0.898 2.190 1.779 7789
-0.903 2.201 1.777 8784
-0.907 2.211 1.775 10213
-0.909 2.216 1.768 10213
-0.910 2.220 1.761 8942
-0.920 2.243 1.768 8380
-0.537 1.309 1.068 7755
-0.540 1.318 1.069 8975
-0.542 1.321 1.065 7709
-0.543 1.323 1.061 6444
-1.011 2.465 1.878 5058
-1.010 2.464 1.866 4602
-1.010 2.463 1.854 4148
-1.009 2.461 1.842 3437
-1.009 2.460 1.830 2796
-1.013 2.470 1.826 5443
-1.017 2.481 1.823 8243
-1.024 2.498 1.824 10102
-1.029 2.509 1.820 12240
-1.031 2.513 1.813 10797
-1.032 2.518 1.805 9355
-1.034 2.522 1.797 8848
-1.051 2.564 1.814 8990
-1.043 2.544 1.790 10834
-1.047 2.554 1.786 13188
-1.049 2.559 1.778 10570
-1.054 2.569 1.774 7993
-1.058 2.580 1.770 5587
-1.070 2.610 1.778 4717
-1.072 2.614 1.770 3882
-1.089 2.656 1.786 3474
-1.117 2.724 1.818 5513
-1.119 2.729 1.809 8071
-1.118 2.727 1.797 8252
-1.120 2.731 1.789 6941
-1.140 2.780 1.807 7656
-1.142 2.785 1.799 7303
-1.146 2.796 1.794 6954
-1.146 2.794 1.781 6302
-1.153 2.811 1.780 6809
-1.157 2.822 1.775 8236
-1.159 2.826 1.767 7549
-1.163 2.837 1.762 6887
-1.181 2.880 1.775 6310
-1.186 2.891 1.770 8788
-1.187 2.896 1.761 9905
-1.192 2.906 1.756 9243
-1.199 2.924 1.754 7557
-1.209 2.948 1.756 7847
-1.213 2.958 1.750 7314
-1.223 2.982 1.752 6751
-1.233 3.006 1.753 7318
-1.237 3.017 1.748 9077
-1.239 3.022 1.738 7631
-1.281 3.124 1.782 8042
-1.283 3.129 1.772 7921
-1.320 3.219 1.807 7154
-1.325 3.230 1.801 10339
-1.332 3.248 1.797 10923
-1.336 3.259 1.791 9441
-1.346 3.283 1.791 7275
-1.348 3.287 1.781 8986
-1.350 3.292 1.770 10213
-1.344 3.276 1.750 9334
-1.343 3.274 1.737 7232
-1.385 3.378 1.776 6753
-1.387 3.383 1.765 7071
-1.378 3.360 1.742 5637
-1.385 3.378 1.738 4337
-1.390 3.389 1.730 4547
-1.471 3.588 1.812 5008
-1.473 3.592 1.801 5995
-1.475 3.597 1.789 5383
-1.474 3.595 1.775 5387
-1.476 3.599 1.764 7030
-1.478 3.603 1.753 6515
-1.485 3.621 1.748 5123
-1.578 3.849 1.836 4851
-1.586 3.867 1.830 7747
-1.588 3.872 1.818 8810
-1.587 3.869 1.803 7372
-1.591 3.881 1.794 8003
-1.593 3.885 1.782 10600
-1.595 3.890 1.770 8318
-1.602 3.908 1.763 4190
-1.646 4.014 1.794 5961
-1.648 4.019 1.782 6384
-1.655 4.037 1.775 4712
-1.671 4.076 1.776 3565
-1.679 4.094 1.769 4309
-1.681 4.098 1.756 4370
-1.744 4.254 1.803 4494
-1.743 4.251 1.787 3991
-1.776 4.332 1.803 5119
-1.761 4.295 1.774 5479
-1.760 4.292 1.758 5142
-1.813 4.421 1.792 4723
-1.812 4.419 1.775 5001
-1.831 4.465 1.777 5085
-1.833 4.469 1.763 5224
-1.817 4.432 1.734 5090
-1.825 4.450 1.725 3252
-1.884 4.593 1.761 3125
-1.883 4.591 1.744 3728
-1.884 4.595 1.730 2962
-1.926 4.697 1.749 3283
-1.934 4.715 1.739 3575
-1.944 4.740 1.732 2621
-1.966 4.794 1.733 3075
-1.965 4.791 1.716 4031
-2.053 5.005 1.770 2993
-2.049 4.996 1.750 3764
-2.048 4.993 1.732 4587
-2.044 4.983 1.712 4289
-2.045 4.988 1.696 3226
-2.093 5.104 1.716 3072
-2.106 5.137 1.709 3132
-2.117 5.162 1.699 2226
-2.208 5.385 1.749 2583
-2.213 5.396 1.734 2743
-2.252 5.493 1.744 2783
-2.263 5.518 1.733 3174
-2.282 5.565 1.728 4282
-2.287 5.576 1.713 4810
-2.288 5.580 1.695 4054
-2.296 5.599 1.682 3262
-2.309 5.631 1.672 2571
-2.439 5.948 1.739 2575
-2.505 6.109 1.763 3585
-2.504 6.106 1.742 3391
-2.514 6.132 1.728 4441
-2.522 6.150 1.713 4005
-2.530 6.169 1.697 2357
-2.660 6.487 1.757 1902
-2.624 6.398 1.713 1967
-2.623 6.395 1.691 1807
-2.674 6.521 1.701 1657
-2.893 7.055 1.806 1565
-2.895 7.059 1.784 2229
-2.899 7.071 1.764 1716
-2.904 7.082 1.743 1094
-3.021 7.366 1.784 1321
-2.919 7.119 1.705 1259
-2.921 7.124 1.683 1486
-3.223 7.861 1.818 1718
-3.488 8.505 1.929 1727
-3.493 8.517 1.904 1882
-3.494 8.521 1.877 1320
-3.381 8.245 1.793 1055
-3.386 8.257 1.769 941
-3.497 8.528 1.795 520
-3.502 8.540 1.770 502
-3.578 8.724 1.777 379
-3.579 8.729 1.750 368
-0.885 2.175 1.806 3351
-0.892 2.191 1.808 7064
-0.896 2.202 1.806 8130
-0.896 2.200 1.795 6992
-0.893 2.193 1.779 6514
-0.897 2.203 1.777 7297
-0.901 2.214 1.775 8441
-0.903 2.218 1.768 8441
-0.910 2.234 1.770 8019
-0.919 2.257 1.776 8981
-0.923 2.267 1.774 6587
-0.930 2.284 1.776 4833
-0.998 2.453 1.888 3778
-1.000 2.457 1.881 4792
-1.005 2.468 1.878 5364
-1.004 2.467 1.866 4937
-1.004 2.465 1.854 4550
-1.005 2.470 1.846 3625
-0.980 2.407 1.791 3266
-1.009 2.479 1.831 5173
-1.011 2.484 1.823 7645
-1.018 2.500 1.824 9656
-1.020 2.505 1.816 11813
-1.022 2.510 1.808 10723
-1.026 2.520 1.805 9656
-1.028 2.525 1.797 9135
-1.032 2.535 1.793 8686
-1.037 2.546 1.790 10628
-1.041 2.557 1.786 12688
-1.043 2.561 1.778 9995
-1.047 2.572 1.774 7412
-1.051 2.583 1.770 5570
-1.061 2.606 1.774 4814
-1.065 2.617 1.770 3816
-1.083 2.659 1.786 3330
-1.110 2.727 1.818 5490
-1.112 2.732 1.809 8006
-1.111 2.730 1.797 8230
-1.116 2.741 1.792 7163
-1.133 2.783 1.807 8044
-1.135 2.788 1.799 7473
-1.139 2.799 1.794 6954
-1.141 2.803 1.785 6205
-1.148 2.820 1.784 6891
-1.150 2.825 1.775 8452
-1.152 2.829 1.767 7710
-1.154 2.834 1.758 6969
-1.174 2.883 1.775 6225
-1.178 2.894 1.770 9031
-1.180 2.899 1.761 9904
-1.184 2.909 1.756 9020
-1.191 2.927 1.754 7436
-1.204 2.957 1.760 7958
-1.208 2.968 1.754 7517
-1.213 2.979 1.748 6473
-1.228 3.016 1.757 6929
-1.230 3.020 1.748 8879
-1.231 3.025 1.738 7584
-1.273 3.128 1.782 7680
-1.275 3.132 1.772 7335
-1.312 3.222 1.807 7234
-1.319 3.240 1.804 10505
-1.323 3.251 1.797 11218
-1.325 3.255 1.787 9445
-1.330 3.267 1.781 6818
-1.340 3.291 1.781 8473
-1.342 3.295 1.770 9477
-1.332 3.273 1.747 8891
-1.334 3.277 1.737 7151
-1.379 3.388 1.779 6035
-1.379 3.386 1.765 6315
-1.369 3.364 1.742 5065
-1.456 3.576 1.831 3904
-1.452 3.567 1.813 4593
-1.459 3.585 1.809 5517
-1.461 3.589 1.798 6627
-1.466 3.601 1.789 5970
-1.465 3.598 1.775 6173
-1.467 3.603 1.764 8092
-1.468 3.607 1.753 7602
-1.476 3.625 1.748 5976
-1.569 3.853 1.836 4880
-1.576 3.871 1.830 7968
-1.578 3.876 1.818 8762
-1.577 3.873 1.803 7038
-1.579 3.878 1.791 7388
-1.583 3.889 1.782 10061
-1.585 3.894 1.770 8611
-1.592 3.912 1.763 4755
-1.636 4.019 1.794 5845
-1.638 4.023 1.782 6101
-1.645 4.041 1.775 4588
-1.661 4.080 1.776 3836
-1.668 4.098 1.769 4624
-1.670 4.102 1.756 4328
-1.734 4.258 1.803 3693
-1.735 4.263 1.790 3491
-1.762 4.329 1.801 5876
-1.747 4.292 1.771 6749
-1.749 4.297 1.758 6298
-1.796 4.412 1.786 4961
-1.781 4.375 1.757 5257
-1.819 4.469 1.777 4826
-1.821 4.474 1.763 5209
-1.806 4.436 1.734 5409
-1.813 4.455 1.725 3719
-1.872 4.598 1.761 3744
-1.871 4.595 1.744 4439
-1.881 4.621 1.737 3425
-1.914 4.702 1.749 3114
-1.922 4.720 1.739 2953
-1.923 4.724 1.724 2163
-1.959 4.813 1.738 2777
-1.952 4.796 1.716 3711
-2.040 5.011 1.770 2972
-2.036 5.001 1.750 3672
-2.032 4.991 1.730 4174
-2.031 4.989 1.712 4223
-2.033 4.993 1.696 3502
-2.083 5.117 1.718 3046
-2.093 5.142 1.709 3291
-2.104 5.168 1.699 2455
-2.195 5.391 1.749 2534
-2.196 5.395 1.732 2590
-2.244 5.512 1.749 2785
-2.246 5.517 1.731 3462
-2.268 5.571 1.728 4580
-2.272 5.582 1.713 4628
-2.271 5.579 1.693 4098
-2.276 5.590 1.678 3817
-2.286 5.616 1.666 2398
-2.488 6.111 1.782 2559
-2.487 6.108 1.761 3879
-2.488 6.112 1.742 3874
-2.499 6.138 1.728 4794
-2.506 6.157 1.713 3793
-2.514 6.175 1.697 1933
-2.641 6.486 1.755 1839
-2.610 6.412 1.715 1689
-2.606 6.402 1.691 1553
-2.660 6.535 1.703 1356
-2.878 7.069 1.808 1508
-2.877 7.066 1.784 2183
-2.881 7.078 1.764 1819
-2.883 7.082 1.742 1098
-2.993 7.352 1.779 1181
-2.898 7.120 1.704 1048
-3.216 7.900 1.851 1392
-2.911 7.150 1.664 1664
-2.912 7.154 1.641 1690
-3.471 8.526 1.904 1850
-3.270 8.033 1.775 1314
-3.272 8.038 1.750 1000
-3.362 8.258 1.768 874
-3.508 8.616 1.811 519
-3.498 8.592 1.778 477
-3.555 8.734 1.777 377
-3.557 8.738 1.750 353
-0.880 2.177 1.806 3441
-0.887 2.193 1.808 7134
-0.891 2.204 1.806 8231
-0.893 2.208 1.800 6578
-0.892 2.207 1.788 4953
-0.896 2.217 1.786 6178
-0.901 2.228 1.784 7506
-0.902 2.232 1.777 7506
-0.911 2.255 1.783 8384
-0.916 2.265 1.781 10104
-0.920 2.276 1.778 7756
-0.924 2.286 1.776 5784
-0.926 2.291 1.769 3627
-0.989 2.448 1.872 3994
-0.996 2.464 1.873 4395
-0.993 2.457 1.857 4318
-0.983 2.431 1.828 4913
-0.979 2.423 1.811 4362
-0.974 2.409 1.791 4197
-0.991 2.451 1.809 4588
-1.007 2.492 1.827 7014
-1.012 2.503 1.824 9155
-1.014 2.508 1.816 11379
-1.015 2.512 1.808 10393
-1.020 2.523 1.805 9436
-1.022 2.527 1.797 8805
-1.023 2.532 1.789 8173
-1.030 2.549 1.790 9786
-1.032 2.553 1.782 11589
-1.036 2.564 1.778 9050
-1.041 2.575 1.774 6675
-1.045 2.585 1.770 5453
-1.052 2.602 1.770 4901
-1.056 2.613 1.766 3800
-1.094 2.706 1.814 3315
-1.103 2.730 1.818 5545
-1.105 2.734 1.809 7931
-1.107 2.739 1.801 8246
-1.109 2.743 1.792 7378
-1.126 2.786 1.807 8142
-1.128 2.791 1.799 7441
-1.132 2.801 1.794 6779
-1.134 2.806 1.785 6040
-1.141 2.823 1.784 6836
-1.146 2.834 1.779 8361
-1.145 2.832 1.767 7576
-1.147 2.836 1.758 6797
-1.201 2.970 1.824 7166
-1.171 2.897 1.770 9102
-1.173 2.901 1.761 9819
-1.180 2.919 1.760 8781
-1.184 2.930 1.754 7225
-1.197 2.960 1.760 7883
-1.201 2.971 1.754 7392
-1.205 2.982 1.748 6052
-1.220 3.019 1.757 6612
-1.222 3.023 1.748 8457
-1.224 3.028 1.738 7466
-1.266 3.131 1.782 7140
-1.270 3.142 1.775 6649
-1.301 3.219 1.804 6988
-1.311 3.243 1.804 10234
-1.313 3.248 1.794 11151
-1.317 3.259 1.787 9493
-1.319 3.263 1.777 6825
-1.323 3.274 1.770 7936
-1.331 3.292 1.767 8615
-1.324 3.276 1.747 8453
-1.326 3.281 1.737 7001
-1.374 3.399 1.782 5330
-1.370 3.390 1.765 5627
-1.358 3.361 1.738 4499
-1.447 3.579 1.831 4165
-1.446 3.577 1.817 4990
-1.451 3.589 1.809 5924
-1.452 3.593 1.798 7082
-1.454 3.598 1.786 6374
-1.456 3.602 1.775 6614
-1.458 3.606 1.764 8653
-1.460 3.611 1.753 8184
-1.464 3.622 1.745 6448
-1.496 3.701 1.767 5162
-1.566 3.875 1.830 7907
-1.568 3.880 1.818 8275
-1.565 3.870 1.800 6393
-1.569 3.882 1.791 6506
-1.574 3.893 1.782 9256
-1.578 3.904 1.773 8754
-1.583 3.916 1.763 5163
-1.626 4.023 1.794 5561
-1.628 4.027 1.782 5710
-1.635 4.045 1.775 4379
-1.654 4.091 1.779 4057
-1.661 4.109 1.772 4805
-1.660 4.107 1.756 4068
-1.659 4.104 1.741 3317
-1.755 4.343 1.820 3462
-1.749 4.327 1.798 6400
-1.737 4.297 1.771 7508
-1.739 4.301 1.758 7014
-1.740 4.305 1.744 5109
-1.770 4.379 1.757 5249
-1.808 4.474 1.777 4206
-1.810 4.478 1.763 4828
-1.798 4.448 1.736 5449
-1.805 4.466 1.727 3943
-1.860 4.603 1.761 4175
-1.862 4.607 1.746 4947
-1.870 4.625 1.737 3777
-1.902 4.707 1.749 2957
-1.910 4.725 1.739 2319
-1.963 4.855 1.767 2068
-1.953 4.832 1.743 2649
-1.938 4.794 1.714 3364
-2.027 5.016 1.770 2793
-2.024 5.006 1.750 3324
-2.020 4.996 1.730 3586
-2.018 4.994 1.712 3864
-2.020 4.998 1.696 3403
-2.070 5.122 1.718 2800
-2.083 5.154 1.711 3161
-2.091 5.173 1.699 2498
-2.178 5.389 1.747 2462
-2.183 5.400 1.732 2539
-2.230 5.518 1.749 2658
-2.232 5.522 1.731 3541
-2.254 5.576 1.728 4275
-2.259 5.588 1.713 3999
-2.257 5.585 1.693 3819
-2.265 5.603 1.680 4022
-2.272 5.622 1.666 2617
-2.432 6.017 1.755 2652
-2.469 6.107 1.759 4034
-2.473 6.118 1.742 4127
-2.481 6.137 1.726 4853
-2.488 6.156 1.711 3439
-2.501 6.188 1.699 1896
-2.619 6.479 1.751 1673
-2.594 6.419 1.715 1468
-2.590 6.408 1.691 1314
-2.647 6.549 1.704 1131
-2.860 7.076 1.808 1376
-2.859 7.074 1.784 1997
-2.864 7.085 1.764 1800
-3.020 7.470 1.828 1045
-3.021 7.475 1.805 1154
-3.198 7.911 1.877 1106
-3.194 7.901 1.849 1476
-2.893 7.157 1.664 1632
-2.895 7.161 1.641 1815
-3.450 8.534 1.904 1741
-3.248 8.034 1.774 1690
-3.249 8.039 1.748 1200
-3.342 8.267 1.768 772
-3.486 8.625 1.811 643
-3.485 8.622 1.782 616
-3.490 8.634 1.757 385
-3.536 8.747 1.750 334
-0.877 2.178 1.806 3713
-0.881 2.189 1.804 7599
-0.888 2.205 1.806 8497
-0.890 2.210 1.800 6725
-0.891 2.214 1.793 4952
-0.896 2.225 1.791 6410
-0.900 2.235 1.788 8218
-0.902 2.240 1.781 8218
-0.911 2.262 1.788 9852
-0.915 2.273 1.785 11957
-0.917 2.277 1.778 9445
-0.921 2.288 1.776 7184
-0.925 2.298 1.773 4494
-0.971 2.412 1.846 3827
-0.973 2.417 1.838 3827
-0.977 2.428 1.835 4530
-0.977 2.426 1.823 5200
-0.976 2.425 1.811 4563
-0.970 2.411 1.791 4253
-0.982 2.440 1.801 4658
-0.991 2.463 1.806 6247
-1.008 2.504 1.824 8049
-1.010 2.509 1.816 10192
-1.012 2.513 1.808 9423
-1.016 2.524 1.805 8672
-1.018 2.529 1.797 7947
-1.010 2.508 1.773 7310
-1.027 2.550 1.790 8504
-1.028 2.555 1.782 10096
-1.033 2.565 1.778 7969
-1.037 2.576 1.774 6029
-1.044 2.593 1.774 5503
-1.048 2.604 1.770 5225
-1.053 2.615 1.766 3927
-1.090 2.708 1.814 3349
-1.099 2.731 1.818 5552
-1.101 2.736 1.809 7775
-1.103 2.740 1.801 8204
-1.105 2.745 1.792 7547
-1.120 2.781 1.803 7998
-1.124 2.792 1.799 7204
-1.128 2.803 1.794 6462
-1.130 2.808 1.785 5766
-1.137 2.825 1.784 6621
-1.142 2.836 1.779 8115
-1.141 2.834 1.767 7202
-1.142 2.838 1.758 6406
-1.194 2.966 1.820 8192
-1.198 2.977 1.815 9428
-1.169 2.903 1.761 9672
-1.173 2.914 1.756 8506
-1.180 2.931 1.754 6920
-1.192 2.962 1.760 7653
-1.197 2.973 1.754 7236
-1.201 2.984 1.748 5824
-1.216 3.021 1.757 6612
-1.218 3.025 1.748 8060
-1.220 3.030 1.738 7073
-1.258 3.126 1.778 6843
-1.265 3.144 1.775 6368
-1.289 3.201 1.793 6861
-1.306 3.245 1.804 9818
-1.308 3.250 1.794 11043
-1.310 3.254 1.784 9731
-1.312 3.258 1.774 7195
-1.316 3.269 1.767 8367
-1.315 3.267 1.754 8408
-1.317 3.272 1.744 8086
-1.321 3.283 1.737 6905
-1.331 3.307 1.736 5217
-1.368 3.398 1.768 4909
-1.354 3.362 1.738 3988
-1.442 3.582 1.831 4299
-1.441 3.579 1.817 5140
-1.445 3.591 1.809 6150
-1.447 3.595 1.798 7364
-1.449 3.600 1.786 6574
-1.451 3.604 1.775 6791
-1.453 3.608 1.764 8817
-1.454 3.613 1.753 8362
-1.459 3.624 1.745 6654
-1.491 3.703 1.767 5325
-1.561 3.877 1.830 7608
-1.563 3.882 1.818 7415
-1.559 3.873 1.800 5379
-1.561 3.877 1.788 5265
-1.568 3.895 1.782 8229
-1.573 3.907 1.773 8787
-1.577 3.918 1.763 5551
-1.620 4.025 1.794 5182
-1.622 4.029 1.782 5380
-1.629 4.048 1.775 4277
-1.648 4.093 1.779 4389
-1.655 4.111 1.772 4920
-1.657 4.116 1.759 3606
-1.647 4.093 1.735 2984
-1.749 4.345 1.820 3362
-1.743 4.329 1.798 6577
-1.733 4.306 1.774 7976
-1.732 4.304 1.758 7582
-1.731 4.301 1.742 5586
-1.764 4.382 1.757 4898
-1.752 4.351 1.731 3780
-1.801 4.474 1.760 4181
-1.791 4.450 1.736 5459
-1.796 4.462 1.725 4137
-1.851 4.598 1.758 4553
-1.856 4.610 1.746 5328
-1.863 4.628 1.737 3945
-1.893 4.702 1.747 2855
-1.937 4.812 1.768 2339
-1.944 4.830 1.758 2451
-1.949 4.841 1.745 2736
-1.928 4.790 1.711 3202
-2.023 5.026 1.772 2480
-2.013 5.002 1.748 2693
-2.004 4.978 1.723 3057
-2.008 4.989 1.710 3448
-2.013 5.001 1.696 2987
-2.069 5.139 1.722 2391
-2.082 5.171 1.715 2769
-2.083 5.176 1.699 2402
-2.168 5.385 1.745 2420
-2.175 5.404 1.732 2442
-2.242 5.571 1.763 3042
-2.224 5.525 1.731 3620
-2.297 5.707 1.765 4216
-2.299 5.712 1.747 3226
-2.249 5.588 1.693 3259
-2.257 5.606 1.680 3915
-2.261 5.618 1.664 2931
-2.424 6.021 1.755 2728
-2.460 6.111 1.759 3904
-2.464 6.122 1.742 4131
-2.472 6.141 1.726 4685
-2.476 6.152 1.709 3073
-2.507 6.228 1.708 2039
-2.535 6.296 1.705 1778
-2.646 6.573 1.752 1565
-2.648 6.577 1.732 1336
-2.577 6.402 1.668 1089
-2.850 7.080 1.808 1117
-2.849 7.078 1.784 1599
-2.854 7.089 1.764 1643
-3.012 7.482 1.830 1028
-3.011 7.479 1.805 1161
-3.183 7.908 1.875 1143
-3.182 7.905 1.849 1584
-2.883 7.161 1.664 1529
-2.884 7.165 1.641 1902
-3.234 8.034 1.799 1862
-3.233 8.032 1.772 2089
-3.238 8.043 1.748 1410
-3.469 8.618 1.836 788
-3.471 8.623 1.809 708
-3.476 8.634 1.784 729
-3.478 8.639 1.757 506
-3.523 8.752 1.750 332
-0.272 0.676 0.142 261
-0.272 0.676 0.140 288
-0.272 0.676 0.138 287
-0.269 0.668 0.136 255
-0.871 2.181 1.806 3852
-0.875 2.191 1.804 7886
-0.879 2.202 1.802 8619
-0.881 2.206 1.795 7125
-0.883 2.211 1.788 5630
-0.889 2.227 1.791 6958
-0.893 2.238 1.788 8769
-0.895 2.242 1.781 8769
-0.907 2.271 1.792 10295
-0.908 2.275 1.785 12803
-0.913 2.286 1.783 10535
-0.917 2.296 1.780 8625
-0.924 2.313 1.782 6166
-0.528 1.322 1.056 4650
-0.930 2.328 1.772 4142
-0.931 2.332 1.765 4953
-0.933 2.337 1.758 5801
-0.935 2.341 1.751 4783
-0.937 2.345 1.744 3727
-0.975 2.442 1.801 4472
-0.982 2.459 1.802 5696
-1.001 2.507 1.824 6941
-1.005 2.518 1.820 8943
-1.007 2.523 1.813 8479
-1.009 2.527 1.805 8014
-1.011 2.532 1.797 7142
-1.000 2.505 1.768 6503
-1.017 2.547 1.786 7249
-1.021 2.558 1.782 8534
-1.026 2.568 1.778 6903
-1.035 2.592 1.782 5465
-1.037 2.596 1.774 5452
-1.038 2.600 1.766 5439
-1.045 2.618 1.766 3992
-1.090 2.730 1.826 3517
-1.092 2.734 1.818 5486
-1.096 2.745 1.813 7456
-1.095 2.743 1.801 7966
-1.097 2.748 1.792 7437
-1.112 2.784 1.803 7432
-1.116 2.795 1.799 6577
-1.121 2.806 1.794 5835
-1.125 2.817 1.789 5306
-1.132 2.834 1.788 6215
-1.134 2.839 1.779 7623
-1.133 2.837 1.767 6666
-1.184 2.964 1.829 7031
-1.185 2.969 1.820 9181
-1.190 2.980 1.815 10323
-1.192 2.984 1.805 9436
-1.165 2.917 1.756 7776
-1.172 2.935 1.754 6228
-1.184 2.965 1.760 6836
-1.188 2.976 1.754 6288
-1.206 3.020 1.766 5289
-1.226 3.070 1.782 6116
-1.236 3.094 1.783 7181
-1.243 3.112 1.781 7266
-1.247 3.123 1.775 6393
-1.259 3.154 1.779 5781
-1.274 3.191 1.786 6876
-1.287 3.222 1.790 9179
-1.296 3.247 1.791 10299
-1.301 3.258 1.784 9805
-1.303 3.262 1.774 7829
-1.302 3.260 1.760 9080
-1.293 3.238 1.737 8852
-1.308 3.275 1.744 7738
-1.312 3.286 1.737 6574
-1.325 3.317 1.740 5060
-1.332 3.335 1.736 4467
-1.344 3.366 1.738 3690
-1.432 3.586 1.831 4297
-1.434 3.590 1.820 5082
-1.435 3.595 1.809 6235
-1.434 3.592 1.794 7483
-1.436 3.597 1.783 6523
-1.441 3.608 1.775 6554
-1.443 3.613 1.764 8474
-1.444 3.617 1.753 8076
-1.449 3.628 1.745 6502
-1.480 3.707 1.767 5406
-1.547 3.875 1.827 7044
-1.549 3.879 1.815 6354
-1.543 3.863 1.794 4254
-1.547 3.875 1.785 4084
-1.560 3.907 1.785 7108
-1.562 3.911 1.773 8514
-1.566 3.922 1.763 5714
-1.612 4.036 1.797 4816
-1.611 4.034 1.782 5186
-1.618 4.052 1.775 4292
-1.636 4.098 1.779 4597
-1.644 4.116 1.772 4907
-1.678 4.203 1.792 3464
-1.697 4.249 1.795 2860
-1.710 4.281 1.793 3477
-1.728 4.327 1.795 6278
-1.721 4.311 1.774 7906
-1.718 4.301 1.755 7778
-1.717 4.299 1.739 5682
-1.760 4.407 1.765 4287
-1.737 4.349 1.728 3942
-1.775 4.444 1.748 3536
-1.776 4.448 1.734 5038
-1.784 4.467 1.725 3919
-1.838 4.604 1.758 4604
-1.843 4.615 1.746 5287
-1.850 4.633 1.737 3880
-1.880 4.708 1.747 2819
-1.923 4.817 1.768 2743
-1.928 4.828 1.755 2825
-1.935 4.847 1.745 2701
-1.912 4.788 1.709 3081
-1.972 4.940 1.742 2414
-1.971 4.937 1.725 2916
-1.982 4.963 1.716 2951
-1.992 4.988 1.707 3002
-2.002 5.013 1.699 2543
-2.057 5.152 1.725 1977
-2.070 5.184 1.717 2378
-2.072 5.189 1.701 2303
-2.153 5.391 1.745 2339
-2.228 5.580 1.783 2806
-2.230 5.584 1.765 3462
-2.209 5.532 1.731 3574
-2.281 5.714 1.765 5075
-2.283 5.718 1.747 3934
-2.285 5.722 1.729 3893
-2.287 5.727 1.712 4535
-2.246 5.624 1.664 2918
-2.407 6.027 1.755 2589
-2.443 6.117 1.759 3420
-2.447 6.129 1.742 3781
-2.452 6.140 1.724 4199
-2.456 6.152 1.707 2712
-2.492 6.242 1.710 2229
-2.517 6.303 1.705 1788
-2.627 6.580 1.752 1881
-2.626 6.577 1.730 1394
-2.697 6.754 1.751 1102
-2.698 6.758 1.730 1162
-2.729 6.834 1.725 1179
-2.834 7.097 1.764 1422
-2.833 7.094 1.740 1153
-2.993 7.495 1.806 1161
-3.158 7.910 1.874 1170
-3.157 7.907 1.847 1631
-3.116 7.803 1.800 1428
-2.861 7.166 1.640 1759
-3.212 8.043 1.799 2111
-3.211 8.041 1.772 2328
-3.215 8.052 1.748 1513
-3.445 8.628 1.836 864
-3.450 8.640 1.811 740
-3.452 8.644 1.784 777
-3.453 8.649 1.757 542
-3.461 8.667 1.732 350
-0.270 0.677 0.146 262
-0.270 0.677 0.144 294
-0.270 0.677 0.142 305
-0.270 0.677 0.140 322
-0.270 0.677 0.138 313
-0.267 0.669 0.136 276
-0.866 2.183 1.806 3988
-0.870 2.193 1.804 8176
-0.875 2.203 1.802 8932
-0.876 2.208 1.795 7601
-0.878 2.212 1.788 6270
-0.885 2.229 1.791 7266
-0.889 2.239 1.788 8741
-0.891 2.244 1.781 8741
-0.902 2.273 1.792 10042
-0.906 2.283 1.790 12865
-0.910 2.294 1.787 10954
-0.917 2.310 1.789 9651
-0.919 2.315 1.782 7848
-0.923 2.325 1.779 6173
-0.925 2.330 1.772 6173
-0.926 2.334 1.765 7007
-0.928 2.339 1.758 7869
-0.930 2.343 1.751 6531
-0.932 2.347 1.744 5166
-0.970 2.444 1.801 4125
-0.974 2.455 1.797 4996
-0.996 2.509 1.824 6176
-0.998 2.514 1.816 7958
-1.002 2.525 1.813 7623
-1.004 2.529 1.805 7304
-1.003 2.527 1.793 6399
-0.995 2.507 1.768 5781
-1.012 2.549 1.786 6212
-1.016 2.560 1.782 7285
-1.020 2.570 1.778 6145
-1.029 2.594 1.782 5192
-1.031 2.598 1.774 5310
-1.033 2.603 1.766 5427
-1.040 2.620 1.766 3917
-1.084 2.732 1.826 3389
-1.086 2.737 1.818 5197
-1.091 2.748 1.813 7105
-1.090 2.746 1.801 7688
-1.092 2.750 1.792 7322
-1.106 2.787 1.803 6684
-1.110 2.798 1.799 5831
-1.115 2.809 1.794 5146
-1.119 2.819 1.789 4938
-1.126 2.837 1.788 5890
-1.130 2.848 1.783 7133
-1.173 2.956 1.835 6055
-1.178 2.967 1.829 7550
-1.179 2.971 1.820 9691
-1.184 2.982 1.815 10441
-1.186 2.987 1.805 9294
-1.190 2.998 1.800 7476
-1.192 3.002 1.791 5845
-1.180 2.974 1.763 6388
-1.185 2.985 1.758 5718
-1.202 3.029 1.770 5637
-1.220 3.073 1.782 5763
-1.227 3.090 1.780 6665
-1.234 3.108 1.777 6717
-0.591 1.490 0.904 6659
-0.595 1.498 0.903 6190
-1.265 3.187 1.783 6235
-1.280 3.225 1.790 8189
-1.290 3.249 1.791 9313
-1.291 3.254 1.781 9504
-1.293 3.258 1.770 8276
-1.295 3.263 1.760 9287
-1.294 3.260 1.747 8769
-1.298 3.271 1.740 7495
-1.305 3.289 1.737 6304
-1.318 3.320 1.740 5120
-1.325 3.338 1.736 4467
-1.343 3.382 1.745 3702
-1.424 3.589 1.831 3832
-1.343 3.384 1.721 5279
-1.345 3.389 1.710 7679
-1.349 3.400 1.703 8513
-1.426 3.593 1.780 6266
-1.431 3.604 1.772 6018
-1.435 3.616 1.764 7607
-1.437 3.620 1.753 7327
-1.441 3.631 1.745 6053
-1.473 3.710 1.767 5370
-1.539 3.878 1.827 6359
-1.541 3.883 1.815 5276
-1.481 3.730 1.735 3567
-1.572 3.960 1.820 3858
-1.552 3.910 1.785 6153
-1.554 3.914 1.773 8011
-1.558 3.925 1.763 5687
-1.603 4.040 1.797 4320
-1.602 4.037 1.782 4950
-1.610 4.055 1.775 4385
-1.631 4.108 1.782 4708
-1.654 4.168 1.791 4905
-1.672 4.214 1.794 3744
-1.685 4.246 1.792 3302
-1.701 4.285 1.793 3835
-1.719 4.331 1.795 5690
-1.710 4.308 1.771 7630
-1.709 4.305 1.755 7720
-1.708 4.302 1.739 5476
-1.718 4.328 1.734 4139
-1.728 4.353 1.728 3969
-1.765 4.448 1.748 3013
-1.767 4.452 1.734 4293
-1.774 4.470 1.725 3485
-1.829 4.607 1.758 4471
-1.833 4.619 1.746 5004
-1.840 4.637 1.737 3709
-1.870 4.711 1.747 2764
-1.911 4.814 1.765 2927
-1.915 4.825 1.753 3128
-1.895 4.773 1.719 2876
-1.905 4.799 1.711 3032
-1.962 4.944 1.742 2637
-1.961 4.941 1.725 3360
-1.966 4.953 1.712 3166
-1.976 4.978 1.703 2328
-2.000 5.039 1.705 2014
-2.018 5.085 1.703 1677
-2.062 5.196 1.719 1989
-2.067 5.207 1.705 2198
-2.082 5.247 1.700 2495
-2.216 5.584 1.783 3030
-2.218 5.589 1.765 3474
-2.265 5.707 1.781 3932
-2.270 5.718 1.765 5642
-2.274 5.730 1.749 4437
-2.276 5.734 1.731 4518
-2.275 5.731 1.712 5327
-2.276 5.736 1.694 3469
-2.326 5.861 1.709 2558
-2.328 5.865 1.690 3530
-2.435 6.134 1.742 3104
-2.439 6.145 1.724 3443
-2.444 6.157 1.707 2322
-2.479 6.247 1.710 2390
-2.475 6.237 1.687 1703
-2.614 6.585 1.752 2141
-2.670 6.726 1.765 1550
-2.674 6.738 1.746 1255
-2.684 6.764 1.730 1259
-2.718 6.847 1.727 1181
-2.728 6.873 1.711 1344
-2.818 7.100 1.740 1259
-2.817 7.097 1.716 1125
-3.139 7.909 1.872 1178
-3.141 7.914 1.847 1639
-3.014 7.593 1.753 1408
-3.196 8.053 1.825 1522
-3.195 8.050 1.799 2206
-3.194 8.047 1.772 2402
-3.199 8.059 1.748 1512
-3.427 8.635 1.836 984
-3.435 8.654 1.812 851
-3.439 8.666 1.786 868
-3.441 8.670 1.759 633
-3.452 8.696 1.736 461
-3.439 8.664 1.703 302
-0.269 0.677 0.146 272
-0.269 0.677 0.144 307
-0.269 0.677 0.142 323
-0.269 0.677 0.140 341
-0.269 0.677 0.138 328
-0.269 0.677 0.136 286
-0.863 2.184 1.806 3823
-0.867 2.194 1.804 7854
-0.874 2.211 1.806 8719
-0.876 2.215 1.800 7351
-0.877 2.220 1.793 5982
-0.881 2.230 1.791 6912
-0.886 2.241 1.788 8085
-0.887 2.245 1.781 8085
-0.901 2.280 1.797 9305
-0.903 2.284 1.790 12168
-0.907 2.295 1.787 10682
-0.914 2.312 1.789 9965
-0.915 2.316 1.782 8380
-0.920 2.327 1.779 6866
-0.921 2.331 1.772 6866
-0.923 2.336 1.765 8126
-0.925 2.340 1.758 9367
-0.927 2.344 1.751 8000
-0.928 2.349 1.744 6651
-0.930 2.353 1.736 4572
-0.966 2.444 1.789 4535
-0.995 2.517 1.828 5558
-0.997 2.521 1.820 7013
-0.998 2.526 1.813 6661
-1.000 2.531 1.805 6309
-1.000 2.529 1.793 5587
-0.991 2.508 1.768 5116
-1.008 2.550 1.786 5437
-1.015 2.567 1.786 6458
-1.016 2.572 1.778 5680
-1.026 2.595 1.782 5075
-1.025 2.593 1.770 5196
-1.027 2.598 1.762 5357
-1.023 2.589 1.746 3963
-1.078 2.727 1.822 3540
-1.082 2.738 1.818 4932
-1.087 2.749 1.813 6546
-1.086 2.747 1.801 7179
-1.088 2.752 1.792 6972
-1.087 2.750 1.780 5970
-1.106 2.799 1.799 4873
-1.111 2.810 1.794 4279
-1.115 2.821 1.789 4511
-1.124 2.845 1.792 5455
-1.126 2.849 1.783 6485
-1.169 2.957 1.835 5944
-1.173 2.968 1.829 7668
-1.175 2.973 1.820 9792
-1.179 2.984 1.815 10381
-1.181 2.989 1.805 9107
-1.186 3.000 1.800 7597
-1.187 3.004 1.791 6219
-0.587 1.484 0.935 6167
-0.588 1.487 0.931 10580
-0.588 1.489 0.926 15088
-0.589 1.491 0.921 17512
-0.590 1.493 0.917 19812
-0.591 1.495 0.912 21669
-0.592 1.497 0.908 21753
-0.593 1.499 0.903 20239
-0.593 1.501 0.899 16162
-0.594 1.503 0.894 11101
-0.595 1.505 0.890 8603
-1.287 3.256 1.781 8411
-1.288 3.260 1.770 7641
-1.290 3.264 1.760 8508
-1.289 3.262 1.747 7872
-1.294 3.273 1.740 6490
-1.303 3.298 1.740 5420
-1.316 3.329 1.743 4845
-1.323 3.346 1.739 4416
-1.338 3.384 1.745 4116
-1.339 3.389 1.734 4288
-1.336 3.380 1.718 6588
-1.340 3.391 1.710 9187
-1.344 3.402 1.703 9767
-1.421 3.595 1.780 5978
-1.423 3.600 1.769 5520
-1.430 3.618 1.764 6688
-1.432 3.622 1.753 6437
-1.436 3.633 1.745 5432
-1.467 3.712 1.767 5198
-1.472 3.724 1.758 5825
-1.473 3.728 1.747 4703
-1.475 3.732 1.735 4061
-1.566 3.962 1.820 3892
-1.549 3.919 1.788 5330
-1.548 3.916 1.773 7240
-1.552 3.928 1.763 5344
-1.598 4.042 1.797 3773
-1.597 4.040 1.782 4712
-1.601 4.051 1.772 4446
-1.625 4.110 1.782 4593
-1.645 4.163 1.788 4991
-1.666 4.216 1.794 3897
-1.676 4.241 1.790 3732
-1.694 4.287 1.793 4085
-1.713 4.333 1.795 4949
-1.701 4.303 1.769 7301
-1.702 4.307 1.755 7449
-1.701 4.305 1.739 5105
-1.711 4.330 1.734 3974
-1.719 4.348 1.725 3929
-1.759 4.450 1.748 2556
-1.761 4.455 1.734 3460
-1.782 4.508 1.737 3106
-1.822 4.610 1.758 4207
-1.827 4.621 1.746 4558
-1.831 4.633 1.734 3450
-1.833 4.637 1.720 3079
-1.832 4.634 1.703 3554
-1.905 4.821 1.750 3175
-1.888 4.776 1.719 3094
-1.901 4.809 1.714 2946
-1.955 4.947 1.742 2684
-1.954 4.944 1.725 3466
-1.959 4.955 1.712 3152
-2.002 5.065 1.730 2013
-2.004 5.070 1.714 1900
-2.005 5.074 1.698 2057
-2.007 5.078 1.683 2597
-2.062 5.217 1.708 2144
-2.075 5.250 1.700 2680
-2.088 5.282 1.692 2955
-2.210 5.592 1.765 3176
-2.254 5.703 1.779 3858
-2.261 5.722 1.765 5637
-2.266 5.733 1.749 4392
-2.268 5.737 1.731 4756
-2.267 5.735 1.712 5771
-2.271 5.746 1.696 3758
-2.383 6.029 1.753 2393
-2.320 5.869 1.690 3798
-2.324 5.880 1.674 2485
-2.430 6.149 1.724 2559
-2.395 6.060 1.681 1907
-2.470 6.251 1.710 2307
-2.515 6.362 1.717 1842
-2.601 6.582 1.750 2254
-2.660 6.730 1.765 1677
-2.662 6.734 1.744 1418
-2.678 6.775 1.731 1303
-2.711 6.858 1.729 1196
-2.721 6.884 1.712 1286
-2.822 7.140 1.748 1219
-2.807 7.101 1.716 1310
-3.017 7.632 1.810 1461
-3.127 7.911 1.846 1612
-3.003 7.598 1.753 1467
-3.185 8.057 1.825 1526
-3.181 8.047 1.797 2069
-3.182 8.052 1.772 2300
-3.187 8.063 1.748 1460
-3.418 8.647 1.838 1045
-3.428 8.673 1.815 1047
-3.430 8.678 1.788 999
-3.432 8.682 1.761 756
-3.442 8.708 1.738 629
-3.435 8.691 1.707 376
-0.268 0.678 0.146 278
-0.268 0.678 0.144 313
-0.268 0.678 0.142 327
-0.268 0.678 0.140 337
-0.268 0.678 0.138 322
-0.268 0.678 0.136 278
-0.858 2.186 1.806 3606
-0.862 2.196 1.804 7407
-0.868 2.213 1.806 8410
-0.870 2.217 1.800 6955
-0.872 2.222 1.793 5500
-0.876 2.232 1.791 6231
-0.880 2.243 1.788 7122
-0.882 2.247 1.781 7122
-0.898 2.288 1.801 8742
-0.900 2.293 1.794 11613
-0.904 2.303 1.792 10581
-0.908 2.314 1.789 10305
-0.912 2.324 1.787 8998
-0.916 2.335 1.784 7739
-0.918 2.339 1.777 7739
-0.920 2.344 1.769 9552
-0.919 2.342 1.758 11340
-0.921 2.347 1.751 10002
-0.923 2.351 1.744 8638
-0.924 2.355 1.736 6143
-0.958 2.440 1.785 4770
-0.989 2.519 1.828 5600
-0.991 2.524 1.820 6857
-0.992 2.528 1.813 6165
-0.994 2.533 1.805 5473
-0.993 2.531 1.793 4898
-0.985 2.511 1.768 4693
-1.002 2.553 1.786 4795
-1.009 2.570 1.786 5995
-1.013 2.581 1.782 5470
-1.022 2.604 1.786 5248
-1.021 2.602 1.774 5184
-1.018 2.594 1.758 5308
-1.017 2.592 1.746 4042
-1.066 2.717 1.814 3902
-1.076 2.741 1.818 4647
-1.082 2.758 1.817 6062
-1.082 2.756 1.805 6668
-1.079 2.748 1.789 6514
-1.078 2.746 1.776 5690
-1.074 2.738 1.760 4371
-1.119 2.851 1.817 4551
-1.121 2.856 1.808 4344
-1.118 2.848 1.792 5125
-1.122 2.859 1.787 5833
-1.162 2.960 1.835 5623
-1.166 2.971 1.829 7503
-1.168 2.976 1.820 9564
-1.172 2.987 1.815 10020
-1.174 2.991 1.805 8731
-1.178 3.002 1.800 7753
-1.180 3.007 1.791 6786
-0.583 1.486 0.935 7740
-0.584 1.488 0.931 14913
-0.585 1.490 0.926 21909
-0.586 1.492 0.921 25830
-0.586 1.494 0.917 28865
-0.587 1.496 0.912 29746
-0.588 1.499 0.908 28782
-0.592 1.507 0.907 25137
-0.592 1.509 0.902 18271
-0.593 1.511 0.898 11709
-0.594 1.513 0.893 8807
-0.595 1.515 0.889 6812
-1.275 3.250 1.764 6338
-1.282 3.267 1.760 6686
-1.282 3.265 1.747 6038
-1.309 3.336 1.770 5058
-1.309 3.334 1.756 5519
-1.310 3.339 1.746 5096
-1.323 3.370 1.749 4681
-1.330 3.388 1.745 5137
-1.329 3.385 1.731 5741
-1.328 3.383 1.718 8090
-1.332 3.394 1.710 10732
-1.334 3.398 1.700 10986
-1.335 3.402 1.689 6327
-1.395 3.556 1.747 4887
-1.421 3.621 1.764 5526
-1.452 3.700 1.787 5610
-1.457 3.711 1.778 4870
-1.461 3.723 1.770 5100
-1.463 3.727 1.758 5864
-1.465 3.731 1.747 5072
-1.466 3.736 1.735 4194
-1.468 3.740 1.723 3805
-1.553 3.957 1.802 4989
-1.541 3.927 1.776 6325
-1.543 3.931 1.763 4764
-1.591 4.053 1.800 3153
-1.587 4.043 1.782 4385
-1.589 4.048 1.769 4535
-1.615 4.114 1.782 4355
-1.636 4.167 1.788 4873
-1.659 4.227 1.797 3968
-1.666 4.245 1.790 4020
-1.684 4.291 1.793 4144
-1.686 4.296 1.779 4809
-1.688 4.300 1.766 7200
-1.689 4.305 1.753 7213
-1.691 4.309 1.739 4716
-1.701 4.334 1.734 3781
-1.708 4.352 1.725 3926
-1.713 4.364 1.714 2898
-1.772 4.515 1.754 2808
-1.771 4.512 1.737 3027
-1.808 4.607 1.756 3911
-1.813 4.619 1.744 4046
-1.820 4.637 1.734 3282
-1.819 4.634 1.718 3680
-1.821 4.639 1.703 4288
-1.891 4.819 1.748 3044
-1.876 4.781 1.719 3250
-1.892 4.820 1.716 2933
-1.894 4.824 1.701 2713
-1.945 4.956 1.727 3488
-1.944 4.953 1.709 2995
-1.987 5.063 1.728 2048
-1.992 5.075 1.714 1922
-1.996 5.086 1.701 2481
-1.995 5.083 1.683 3103
-1.997 5.087 1.667 2265
-2.065 5.262 1.702 2767
-2.075 5.287 1.692 3191
-2.082 5.306 1.680 3117
-2.168 5.523 1.725 3882
-2.248 5.727 1.765 5008
-2.255 5.746 1.751 3934
-2.254 5.743 1.731 4703
-2.253 5.740 1.712 5891
-2.257 5.751 1.696 3832
-2.321 5.913 1.720 2737
-2.308 5.881 1.692 3639
-2.442 6.222 1.762 2497
-2.444 6.226 1.743 2727
-2.448 6.238 1.726 2212
-2.458 6.264 1.712 2088
-2.499 6.368 1.717 2213
-2.501 6.373 1.697 2541
-2.551 6.499 1.707 1859
-2.561 6.525 1.692 1771
-2.661 6.781 1.731 1326
-2.694 6.864 1.729 1205
-2.713 6.912 1.717 1138
-2.864 7.298 1.782 1069
-2.991 7.620 1.831 1455
-2.995 7.632 1.809 1758
-3.108 7.918 1.846 1486
-2.988 7.612 1.755 1422
-3.165 8.065 1.825 1434
-3.161 8.055 1.797 1812
-3.160 8.052 1.771 2069
-3.168 8.071 1.748 1311
-3.397 8.655 1.838 1050
-3.407 8.682 1.815 1179
-3.409 8.686 1.788 1127
-3.411 8.691 1.761 862
-3.421 8.717 1.738 741
-3.423 8.721 1.710 432
-0.266 0.678 0.144 278
-0.266 0.678 0.142 291
-0.266 0.678 0.140 300
-0.266 0.678 0.138 287
-0.855 2.187 1.806 3345
-0.861 2.203 1.808 6957
-0.865 2.214 1.806 8128
-0.870 2.225 1.804 6633
-0.871 2.229 1.797 5195
-0.875 2.240 1.795 5531
-0.877 2.244 1.788 5980
-0.879 2.249 1.781 5980
-0.895 2.289 1.801 8403
-0.897 2.294 1.794 11087
-0.901 2.304 1.792 10359
-0.907 2.321 1.794 10450
-0.909 2.326 1.787 9912
-0.913 2.336 1.784 9387
-0.915 2.341 1.777 9387
-0.917 2.345 1.769 11334
-0.916 2.343 1.758 13145
-0.918 2.348 1.751 11468
-0.919 2.352 1.744 9654
-0.921 2.357 1.736 7074
-0.954 2.442 1.785 4777
-0.985 2.521 1.828 5324
-0.987 2.525 1.820 6413
-0.989 2.530 1.813 5596
-0.991 2.534 1.805 4778
-0.980 2.508 1.776 4543
-0.982 2.512 1.768 4543
-1.008 2.579 1.802 4637
-1.008 2.577 1.790 6131
-1.012 2.588 1.786 5714
-1.018 2.605 1.786 5790
-1.018 2.603 1.774 5344
-1.017 2.602 1.762 5156
-1.014 2.593 1.746 4012
-1.048 2.680 1.790 4713
-1.047 2.678 1.778 4729
-1.079 2.760 1.817 5491
-1.078 2.758 1.805 5976
-1.075 2.749 1.789 5938
-1.072 2.741 1.772 5531
-1.113 2.848 1.826 4487
-1.115 2.853 1.817 4917
-1.115 2.851 1.804 4572
-1.114 2.849 1.792 4829
-1.121 2.867 1.791 5265
-1.158 2.962 1.835 5119
-1.160 2.966 1.826 7067
-1.161 2.971 1.816 8920
-1.166 2.982 1.811 9126
-1.173 3.000 1.809 7819
-1.172 2.998 1.796 7347
-1.174 3.002 1.787 6983
-1.175 3.006 1.778 6039
-1.172 2.998 1.761 7491
-1.176 3.009 1.756 9957
-1.178 3.013 1.746 10256
-1.180 3.018 1.737 9144
-0.585 1.497 0.912 18497
-0.586 1.499 0.908 23338
-0.587 1.501 0.903 24091
-0.588 1.503 0.899 20876
-0.586 1.499 0.891 12755
-0.587 1.501 0.886 8584
-0.588 1.503 0.882 7171
-0.588 1.505 0.877 4662
-1.304 3.336 1.794 4773
-1.308 3.347 1.787 7483
-1.308 3.345 1.773 7050
-1.307 3.343 1.760 6859
-1.308 3.347 1.749 5976
-1.318 3.372 1.749 5574
-1.322 3.383 1.742 6341
-1.321 3.380 1.728 7487
-1.323 3.385 1.718 9748
-1.327 3.396 1.710 12379
-1.329 3.400 1.700 12351
-1.331 3.404 1.689 6825
-1.391 3.557 1.747 4905
-1.445 3.698 1.798 4823
-1.447 3.702 1.787 5426
-1.452 3.713 1.778 4753
-1.456 3.725 1.770 4788
-1.458 3.729 1.758 5703
-1.459 3.733 1.747 5260
-1.458 3.731 1.732 4146
-1.463 3.742 1.723 3446
-1.545 3.952 1.799 4731
-1.541 3.943 1.781 5562
-1.540 3.940 1.766 4084
-1.582 4.048 1.797 2483
-1.579 4.039 1.779 4179
-1.581 4.043 1.766 4824
-1.612 4.123 1.784 4080
-1.627 4.162 1.785 4526
-1.653 4.229 1.797 3875
-1.660 4.247 1.790 4051
-1.676 4.287 1.790 4086
-1.677 4.291 1.777 4911
-1.682 4.302 1.766 7250
-1.684 4.307 1.753 6979
-1.683 4.304 1.737 4428
-1.692 4.329 1.731 3598
-1.705 4.362 1.728 3911
-1.709 4.373 1.717 3208
-1.763 4.510 1.751 3111
-1.767 4.521 1.740 2932
-1.802 4.610 1.756 3575
-1.806 4.621 1.744 3626
-1.811 4.632 1.732 3311
-1.810 4.630 1.715 4403
-1.812 4.634 1.701 4890
-1.852 4.737 1.720 3370
-1.867 4.776 1.717 3367
-1.896 4.851 1.725 2914
-1.892 4.841 1.706 2862
-1.938 4.958 1.727 3144
-1.937 4.956 1.709 2642
-1.975 5.052 1.723 2076
-1.988 5.084 1.716 1896
-1.989 5.089 1.701 2877
-1.991 5.093 1.685 3502
-1.993 5.097 1.669 2530
-2.061 5.272 1.704 2725
-2.071 5.297 1.694 3261
-2.078 5.316 1.682 3241
-2.157 5.519 1.723 3949
-2.168 5.545 1.712 4523
-2.175 5.563 1.699 3384
-2.246 5.746 1.731 4234
-2.245 5.743 1.712 5333
-2.252 5.762 1.698 3499
-2.313 5.916 1.720 3154
-2.300 5.884 1.692 3321
-2.434 6.225 1.762 2670
-2.438 6.237 1.745 3200
-2.473 6.327 1.748 2527
-2.472 6.324 1.726 2280
-2.491 6.372 1.717 2561
-2.495 6.383 1.699 2991
-2.542 6.502 1.707 2059
-2.555 6.536 1.694 2107
-2.683 6.864 1.750 1349
-2.685 6.868 1.729 1298
-2.737 7.002 1.737 1159
-2.855 7.302 1.782 1254
-2.980 7.624 1.831 1628
-2.985 7.636 1.809 1895
-2.990 7.648 1.786 1427
-3.096 7.920 1.820 1384
-3.004 7.686 1.745 1493
-2.995 7.661 1.715 1477
-3.149 8.056 1.771 1679
-3.154 8.068 1.747 1136
-3.385 8.660 1.838 1029
-3.396 8.686 1.815 1295
-3.394 8.683 1.786 1258
-3.399 8.695 1.761 999
-3.409 8.721 1.738 877
-3.414 8.733 1.712 504
-0.240 0.614 0.227 263
-0.240 0.614 0.225 294
-0.240 0.614 0.223 323
-0.240 0.614 0.222 299
-0.240 0.615 0.220 254
-0.240 0.615 0.218 285
-0.240 0.615 0.216 304
-0.241 0.615 0.214 308
-0.241 0.615 0.213 272
-0.265 0.679 0.142 252
-0.265 0.679 0.140 258
-0.850 2.189 1.806 2942
-0.856 2.206 1.808 6176
-0.862 2.222 1.811 7442
-0.864 2.227 1.804 5977
-0.866 2.231 1.797 4511
-0.872 2.248 1.800 4813
-0.886 2.282 1.815 5652
-0.888 2.287 1.808 5652
-0.889 2.292 1.801 8096
-0.891 2.296 1.794 10539
-0.898 2.313 1.796 9829
-0.902 2.323 1.794 9931
-0.903 2.328 1.787 10021
-0.905 2.332 1.779 10111
-0.907 2.337 1.772 10111
-0.911 2.347 1.769 12128
-0.910 2.346 1.758 14038
-0.912 2.350 1.751 11943
-0.916 2.361 1.748 9799
-0.918 2.365 1.741 7228
-0.917 2.363 1.729 4675
-0.950 2.448 1.777 4716
-0.981 2.528 1.820 5553
-0.980 2.526 1.808 4812
-0.970 2.499 1.780 4299
-0.972 2.504 1.772 4446
-0.973 2.508 1.764 4592
-1.002 2.582 1.802 4832
-1.004 2.586 1.794 6300
-1.008 2.597 1.790 5896
-1.014 2.614 1.791 6041
-1.014 2.612 1.778 5259
-1.011 2.604 1.762 4685
-1.044 2.691 1.807 4929
-1.044 2.689 1.794 5915
-1.040 2.681 1.778 5474
-1.074 2.769 1.821 4821
-1.074 2.767 1.809 5200
-1.065 2.746 1.785 5421
-1.062 2.737 1.768 5464
-1.106 2.851 1.826 4670
-1.108 2.856 1.817 5421
-1.100 2.834 1.793 5108
-1.102 2.839 1.784 4704
-1.124 2.895 1.806 4953
-1.128 2.906 1.801 5267
-1.152 2.969 1.826 6477
-1.154 2.974 1.816 7999
-1.156 2.978 1.807 7931
-1.158 2.983 1.798 6341
-1.159 2.987 1.789 6315
-1.161 2.992 1.780 6290
-1.153 2.970 1.756 5937
-1.162 2.994 1.758 7403
-1.166 3.005 1.752 10220
-1.170 3.016 1.746 10594
-1.172 3.020 1.737 9476
-0.576 1.485 0.905 7165
-0.575 1.481 0.897 7533
-0.578 1.490 0.896 9325
-0.581 1.498 0.895 12167
-0.582 1.500 0.891 11679
-0.583 1.502 0.886 10429
-0.584 1.504 0.882 8718
-0.585 1.506 0.877 5680
-1.301 3.353 1.801 4818
-1.300 3.350 1.787 8357
-1.299 3.348 1.773 8930
-1.298 3.346 1.760 8446
-1.303 3.357 1.753 7420
-1.310 3.375 1.749 6736
-1.311 3.379 1.738 7545
-1.313 3.383 1.728 9270
-1.315 3.388 1.718 11368
-1.319 3.399 1.710 13875
-1.321 3.403 1.700 13463
-1.320 3.401 1.686 7358
-1.382 3.561 1.747 4581
-1.436 3.701 1.798 4404
-1.435 3.699 1.783 4992
-1.313 3.383 1.629 5476
-1.314 3.387 1.618 5629
-1.319 3.398 1.611 5452
-1.320 3.402 1.600 5366
-1.314 3.385 1.581 5323
-1.315 3.389 1.571 4336
-1.532 3.949 1.796 4461
-1.534 3.953 1.784 5051
-1.536 3.958 1.772 3577
-1.564 4.031 1.788 2057
-1.566 4.036 1.776 4272
-1.571 4.047 1.766 5421
-1.572 4.051 1.754 4679
-1.611 4.153 1.780 4193
-1.643 4.233 1.797 3598
-1.650 4.252 1.790 3744
-1.660 4.277 1.784 3834
-1.667 4.295 1.777 4829
-1.671 4.307 1.766 7122
-1.673 4.311 1.753 6712
-1.672 4.308 1.737 4471
-1.682 4.334 1.731 3547
-1.694 4.366 1.728 3931
-1.699 4.377 1.717 3418
-1.752 4.514 1.751 3226
-1.756 4.526 1.740 2699
-1.791 4.614 1.756 3265
-1.792 4.619 1.741 3275
-1.797 4.630 1.730 3543
-1.796 4.627 1.713 5189
-1.800 4.638 1.701 5354
-1.840 4.741 1.720 3651
-1.853 4.774 1.714 3335
-1.884 4.856 1.725 3007
-1.883 4.853 1.708 2864
-1.926 4.963 1.727 2710
-1.947 5.017 1.727 2995
-1.949 5.021 1.712 2513
-1.980 5.103 1.721 1975
-1.979 5.101 1.703 3193
-1.978 5.098 1.685 3672
-1.980 5.102 1.669 2568
-2.050 5.284 1.706 2597
-2.060 5.309 1.696 3104
-2.065 5.321 1.682 3125
-2.141 5.517 1.721 3948
-2.148 5.536 1.708 3983
-2.150 5.540 1.691 3427
-2.229 5.744 1.729 3512
-2.231 5.749 1.712 4208
-2.299 5.924 1.741 3235
-2.298 5.922 1.720 3608
-2.347 6.048 1.734 3132
-2.421 6.238 1.764 2716
-2.423 6.243 1.745 3485
-2.455 6.326 1.746 2727
-2.457 6.330 1.726 2466
-2.475 6.378 1.717 2858
-2.477 6.382 1.697 3446
-2.478 6.386 1.678 2269
-2.539 6.542 1.694 2293
-2.540 6.546 1.674 1395
-2.665 6.868 1.727 1407
-2.723 7.016 1.739 1483
-2.837 7.309 1.782 1393
-2.841 7.321 1.761 1750
-2.966 7.644 1.809 1908
-2.971 7.655 1.786 1430
-3.076 7.928 1.820 1331
-2.983 7.686 1.743 1524
-2.979 7.676 1.716 1723
-3.141 8.093 1.777 1279
-3.207 8.265 1.785 1233
-3.367 8.675 1.839 974
-3.374 8.695 1.815 1400
-3.373 8.692 1.786 1396
-3.378 8.704 1.761 1119
-3.388 8.730 1.738 980
-3.392 8.741 1.712 549
-0.238 0.614 0.227 279
-0.238 0.615 0.225 313
-0.239 0.615 0.223 377
-0.239 0.615 0.222 377
-0.239 0.615 0.220 338
-0.239 0.615 0.218 390
-0.239 0.616 0.216 429
-0.239 0.616 0.214 424
-0.239 0.616 0.213 358
-0.239 0.616 0.211 280
-0.239 0.616 0.209 279
-0.844 2.191 1.806 2698
-0.853 2.214 1.813 5700
-0.857 2.224 1.811 7029
-0.859 2.229 1.804 5442
-0.863 2.239 1.802 3914
-0.876 2.274 1.818 4394
-0.880 2.285 1.815 5490
-0.882 2.289 1.808 5490
-0.884 2.294 1.801 7732
-0.886 2.298 1.794 9975
-0.892 2.315 1.796 9337
-0.896 2.326 1.794 9220
-0.898 2.330 1.787 9820
-0.902 2.341 1.784 10434
-0.904 2.345 1.777 10434
-0.905 2.350 1.769 12521
-0.905 2.348 1.758 14479
-0.906 2.352 1.751 12112
-0.910 2.363 1.748 9808
-0.912 2.367 1.741 7294
-0.911 2.365 1.729 4787
-0.944 2.451 1.777 4513
-0.946 2.455 1.770 4854
-0.953 2.472 1.771 4297
-0.959 2.489 1.771 4195
-0.963 2.500 1.768 4454
-0.967 2.510 1.764 4845
-0.996 2.584 1.802 5172
-0.997 2.589 1.794 6716
-1.004 2.606 1.794 6387
-1.008 2.617 1.791 6638
-1.008 2.615 1.778 5340
-1.036 2.689 1.815 4832
-1.035 2.687 1.803 5888
-1.035 2.685 1.790 6996
-1.036 2.690 1.782 6333
-1.033 2.682 1.766 4448
-1.067 2.769 1.809 4535
-1.059 2.748 1.785 5014
-1.053 2.733 1.764 5430
-1.052 2.731 1.752 4608
-1.099 2.852 1.813 5855
-1.093 2.837 1.793 6080
-1.092 2.835 1.780 5197
-1.119 2.904 1.810 5227
-1.123 2.915 1.804 5830
-1.145 2.972 1.826 5703
-1.147 2.977 1.816 6956
-1.146 2.975 1.804 6987
-1.133 2.940 1.772 5929
-1.134 2.944 1.763 6243
-1.139 2.955 1.758 7226
-1.138 2.953 1.745 7328
-1.150 2.984 1.750 7247
-1.156 3.001 1.748 9312
-1.163 3.019 1.746 9574
-1.167 3.030 1.741 8876
-0.578 1.500 0.912 11312
-0.579 1.502 0.908 13118
-0.580 1.504 0.903 13403
-0.580 1.506 0.899 12110
-0.581 1.508 0.894 8169
-0.585 1.517 0.893 5950
-0.585 1.519 0.889 5012
-0.584 1.515 0.881 3932
-1.293 3.356 1.801 5018
-1.292 3.353 1.787 9339
-1.291 3.351 1.773 11344
-1.293 3.356 1.763 11512
-1.295 3.360 1.753 10369
-1.299 3.371 1.746 8581
-1.301 3.376 1.735 8412
-1.302 3.380 1.725 10570
-1.307 3.391 1.718 12703
-1.308 3.395 1.707 15037
-1.312 3.406 1.700 14124
-1.309 3.397 1.683 7892
-1.305 3.388 1.666 4049
-1.425 3.698 1.795 4167
-1.303 3.382 1.639 5535
-1.302 3.379 1.626 6382
-1.306 3.390 1.618 6535
-1.311 3.401 1.611 6279
-1.312 3.405 1.600 6197
-1.306 3.389 1.581 6352
-1.307 3.392 1.571 5270
-1.486 3.856 1.756 4165
-1.527 3.964 1.787 4548
-1.532 3.975 1.778 3464
-1.539 3.994 1.771 2436
-1.554 4.032 1.773 4733
-1.558 4.044 1.763 6154
-1.563 4.055 1.754 5662
-1.564 4.060 1.741 4134
-1.609 4.175 1.772 3262
-1.640 4.255 1.790 3231
-1.652 4.288 1.787 3436
-1.657 4.299 1.777 4549
-1.658 4.304 1.763 6722
-1.660 4.308 1.750 6458
-1.659 4.305 1.734 4919
-1.666 4.324 1.726 3710
-1.686 4.377 1.731 3982
-1.694 4.395 1.722 3600
-1.738 4.512 1.749 3212
-1.781 4.621 1.772 2599
-1.777 4.611 1.753 3159
-1.781 4.623 1.741 3089
-1.783 4.627 1.727 3800
-1.785 4.631 1.713 5791
-1.789 4.643 1.701 5605
-1.826 4.739 1.717 3745
-1.838 4.771 1.712 3242
-1.873 4.860 1.725 2862
-1.872 4.857 1.708 2771
-1.930 5.010 1.741 2526
-1.935 5.022 1.727 3175
-1.939 5.033 1.714 2706
-1.968 5.108 1.721 2139
-1.967 5.105 1.703 3397
-1.969 5.110 1.687 3619
-2.044 5.306 1.729 2521
-2.043 5.303 1.711 2526
-2.089 5.421 1.728 2912
-2.055 5.333 1.684 2818
-2.125 5.515 1.719 3952
-2.130 5.527 1.704 3897
-2.131 5.531 1.687 3949
-2.141 5.557 1.676 3590
-2.217 5.754 1.712 3117
-2.282 5.923 1.739 3373
-2.284 5.927 1.720 3865
-2.330 6.046 1.732 2902
-2.406 6.244 1.764 2716
-2.410 6.256 1.747 3585
-2.434 6.318 1.742 2919
-2.441 6.336 1.726 2496
-2.460 6.384 1.717 2908
-2.461 6.388 1.697 3624
-2.460 6.385 1.676 2278
-2.523 6.548 1.694 2250
-2.527 6.559 1.675 1376
-2.640 6.852 1.722 1618
-2.706 7.023 1.739 1730
-2.819 7.316 1.782 1495
-2.821 7.321 1.760 1903
-2.948 7.651 1.809 1819
-2.824 7.329 1.714 1451
-2.826 7.334 1.691 1519
-2.964 7.693 1.743 1612
-2.963 7.690 1.718 1990
-2.962 7.687 1.692 1549
-3.190 8.279 1.786 1411
-3.346 8.683 1.839 901
-3.353 8.703 1.815 1433
-3.349 8.693 1.785 1464
-3.357 8.712 1.761 1186
-3.364 8.731 1.736 1006
-3.371 8.749 1.712 525
-3.328 8.637 1.664 293
-3.403 8.832 1.558 296
-0.237 0.615 0.229 295
-0.237 0.615 0.227 356
-0.237 0.615 0.225 386
-0.237 0.615 0.223 427
-0.237 0.616 0.222 436
-0.237 0.616 0.220 406
-0.237 0.616 0.218 432
-0.237 0.616 0.216 473
-0.238 0.616 0.214 503
-0.238 0.617 0.213 453
-0.238 0.617 0.211 372
-0.238 0.617 0.209 363
-0.238 0.617 0.207 321
-0.841 2.192 1.806 2512
-0.850 2.215 1.813 5349
-0.854 2.225 1.811 6588
-0.856 2.230 1.804 4884
-0.860 2.240 1.802 3202
-0.873 2.275 1.818 4285
-0.877 2.286 1.815 5747
-0.879 2.290 1.808 5747
-0.881 2.295 1.801 7867
-0.883 2.299 1.794 9988
-0.887 2.310 1.792 9155
-0.891 2.321 1.789 8739
-0.895 2.331 1.787 9863
-0.899 2.342 1.784 11182
-0.901 2.346 1.777 11182
-0.902 2.351 1.769 13248
-0.902 2.349 1.758 15178
-0.903 2.353 1.751 12499
-0.907 2.364 1.748 9971
-0.909 2.368 1.741 7427
-0.911 2.373 1.733 4883
-0.915 2.383 1.730 4112
-0.943 2.456 1.770 4351
-0.949 2.473 1.771 3936
-0.956 2.490 1.771 3972
-0.960 2.501 1.768 4571
-0.964 2.512 1.764 5275
-0.992 2.585 1.802 5247
-0.994 2.590 1.794 6769
-1.001 2.607 1.794 6621
-1.005 2.618 1.791 7061
-1.009 2.629 1.787 5437
-1.030 2.684 1.811 5933
-1.032 2.689 1.803 6997
-1.031 2.687 1.790 8109
-1.033 2.691 1.782 7130
-1.035 2.696 1.774 4648
-1.061 2.764 1.805 3647
-1.046 2.724 1.769 4278
-1.045 2.722 1.757 5036
-1.093 2.849 1.822 4753
-1.093 2.847 1.809 6529
-1.090 2.838 1.793 6661
-1.089 2.836 1.780 5316
-1.118 2.912 1.813 5387
-1.120 2.917 1.804 6179
-1.124 2.928 1.799 6001
-1.133 2.952 1.801 5979
-1.140 2.969 1.800 5937
-1.142 2.974 1.791 5238
-1.133 2.952 1.767 6705
-1.135 2.957 1.758 9199
-1.137 2.961 1.749 9391
-1.141 2.972 1.743 8860
-1.148 2.990 1.741 9568
-1.159 3.020 1.746 8510
-0.573 1.492 0.913 10215
-0.574 1.494 0.909 15577
-0.574 1.496 0.904 18255
-0.575 1.498 0.900 18897
-0.576 1.500 0.895 17688
-0.579 1.509 0.894 12608
-0.580 1.511 0.890 9417
-0.581 1.513 0.885 6915
-0.577 1.502 0.874 4223
-1.286 3.351 1.797 3988
-1.288 3.355 1.787 8529
-1.287 3.353 1.773 12285
-1.289 3.357 1.763 13683
-1.290 3.362 1.753 12656
-1.292 3.366 1.742 10408
-1.294 3.370 1.732 9635
-1.298 3.382 1.725 11808
-1.300 3.386 1.714 13830
-1.304 3.397 1.707 15981
-1.306 3.401 1.697 14547
-1.305 3.399 1.683 8772
-1.304 3.396 1.669 5065
-1.305 3.400 1.659 4729
-1.299 3.384 1.639 6224
-1.298 3.381 1.626 7073
-1.302 3.392 1.618 7093
-1.306 3.403 1.611 6826
-1.308 3.407 1.600 6829
-1.301 3.390 1.581 7167
-1.303 3.394 1.571 6121
-1.478 3.851 1.753 4731
-1.522 3.966 1.787 4174
-1.527 3.977 1.778 3731
-1.534 3.996 1.771 3102
-1.549 4.034 1.773 5449
-1.553 4.046 1.763 7034
-1.555 4.050 1.751 6574
-1.559 4.062 1.741 4698
-1.603 4.177 1.772 3003
-1.626 4.237 1.781 2612
-1.649 4.297 1.790 3022
-1.654 4.308 1.779 4149
-1.653 4.306 1.763 6094
-1.654 4.310 1.750 6366
-1.653 4.308 1.734 5716
-1.658 4.319 1.723 4057
-1.686 4.393 1.736 4085
-1.693 4.411 1.727 3909
-1.733 4.514 1.749 3200
-1.753 4.567 1.752 2919
-1.766 4.600 1.748 3357
-1.775 4.625 1.741 2911
-1.777 4.629 1.727 3887
-1.779 4.634 1.713 6077
-1.783 4.645 1.701 5590
-1.814 4.727 1.713 3744
-1.830 4.766 1.710 2981
-1.834 4.778 1.697 2733
-1.868 4.867 1.710 2597
-1.924 5.013 1.741 2434
-1.926 5.017 1.725 3213
-1.933 5.035 1.714 2691
-1.962 5.111 1.721 2322
-1.961 5.108 1.703 3546
-1.962 5.112 1.687 3392
-2.040 5.315 1.731 2872
-2.039 5.313 1.713 2551
-2.082 5.424 1.728 3212
-2.086 5.435 1.713 2619
-2.115 5.511 1.717 4037
-2.114 5.508 1.698 4467
-2.121 5.526 1.685 4731
-2.128 5.545 1.672 4082
-2.130 5.549 1.654 2753
-2.272 5.919 1.737 3535
-2.271 5.916 1.716 4228
-2.267 5.906 1.694 2867
-2.401 6.254 1.766 2593
-2.405 6.266 1.749 3413
-2.423 6.314 1.740 2894
-2.431 6.332 1.724 2327
-2.452 6.387 1.717 2905
-2.453 6.391 1.697 3686
-2.449 6.381 1.674 2255
