0.032 5.451 1.407 4210
0.032 5.532 1.410 4352
0.033 5.551 1.397 4136
0.033 5.562 1.383 2718
0.033 5.690 1.394 3671
0.033 5.709 1.381 4055
0.034 5.774 1.378 3163
0.034 5.778 1.361 2965
0.035 5.913 1.372 3311
0.035 5.901 1.352 2793
0.036 6.161 1.387 2952
0.036 6.164 1.370 3074
0.038 6.408 1.399 3098
0.038 6.466 1.392 3391
0.038 6.478 1.374 4060
0.038 6.505 1.360 4558
0.038 6.539 1.347 3605
0.039 6.699 1.357 2751
0.039 6.733 1.343 2570
0.040 6.807 1.336 2032
0.042 7.138 1.373 2479
0.042 7.134 1.351 3271
0.042 7.122 1.328 2426
0.043 7.352 1.344 2370
0.043 7.363 1.324 2700
0.044 7.429 1.313 2220
0.045 7.730 1.338 2195
0.046 7.866 1.336 2747
0.046 7.870 1.313 3083
0.050 8.515 1.385 1789
0.050 8.519 1.360 2015
0.050 8.530 1.337 2599
0.050 8.541 1.313 2228
0.050 8.537 1.287 1972
0.050 8.532 1.261 1943
0.055 9.407 1.349 1882
0.055 9.418 1.323 3231
0.055 9.422 1.296 3589
0.055 9.433 1.269 3433
0.055 9.436 1.242 5027
0.055 9.440 1.214 6452
0.055 9.435 1.186 6008
0.055 9.446 1.160 3806
0.055 9.449 1.132 2308
0.055 9.467 1.106 1573
0.056 9.486 1.080 701
0.055 9.465 1.051 376
0.029 2.153 1.643 3673
0.029 2.158 1.637 7347
0.029 2.162 1.631 7347
0.029 2.167 1.625 7240
0.029 2.177 1.623 7235
0.029 2.182 1.617 5855
0.029 2.192 1.615 4515
0.030 2.236 1.636 4771
0.030 2.260 1.643 6358
0.030 2.277 1.646 7556
0.030 2.295 1.648 7886
0.031 2.299 1.641 8403
0.031 2.310 1.639 6032
0.032 2.427 1.707 3793
0.032 2.431 1.700 5029
0.032 2.443 1.697 6271
0.032 2.441 1.686 6268
0.032 2.445 1.679 6644
0.033 2.450 1.672 7017
0.033 2.461 1.669 6623
0.033 2.472 1.667 6413
0.033 2.470 1.655 6574
0.033 2.467 1.644 6872
0.033 2.485 1.645 6032
0.033 2.503 1.647 6053
0.034 2.534 1.656 8214
0.034 2.539 1.649 10770
0.034 2.550 1.646 9870
0.034 2.561 1.642 9375
0.034 2.572 1.639 7466
0.034 2.590 1.640 6064
0.034 2.588 1.628 5472
0.036 2.674 1.669 5327
0.035 2.651 1.645 6712
0.035 2.642 1.630 8045
0.035 2.633 1.614 7803
0.035 2.630 1.603 5806
0.035 2.620 1.588 4068
0.036 2.721 1.634 4643
0.036 2.719 1.623 5468
0.036 2.730 1.619 5602
0.036 2.741 1.615 7052
0.037 2.753 1.611 8367
0.037 2.764 1.607 8497
0.037 2.768 1.599 8283
0.038 2.849 1.632 7890
0.038 2.846 1.620 8204
0.038 2.872 1.623 7378
0.038 2.855 1.604 8816
0.038 2.852 1.592 10712
0.038 2.857 1.584 10865
0.038 2.861 1.575 9487
0.038 2.865 1.567 7956
0.038 2.876 1.563 6072
0.040 2.986 1.608 7138
0.040 2.991 1.599 8298
0.040 2.995 1.590 7438
0.039 2.971 1.568 7599
0.040 2.975 1.559 8990
0.041 3.050 1.585 8329
0.041 3.055 1.577 10055
0.041 3.059 1.568 8260
0.041 3.070 1.562 6464
0.041 3.089 1.560 6860
0.042 3.143 1.575 8826
0.042 3.147 1.566 13591
0.042 3.166 1.563 15434
0.042 3.184 1.561 15668
0.042 3.181 1.548 9602
0.042 3.171 1.533 7143
0.042 3.175 1.524 6951
0.042 3.186 1.518 6042
0.042 3.197 1.512 4469
0.043 3.252 1.525 3978
0.044 3.336 1.550 6435
0.044 3.333 1.537 8612
0.044 3.344 1.531 7347
0.045 3.356 1.524 5365
0.046 3.484 1.566 4699
0.046 3.459 1.544 6749
0.046 3.448 1.528 9976
0.046 3.460 1.521 8887
0.047 3.515 1.532 7739
0.047 3.549 1.533 7038
0.046 3.501 1.503 5225
0.050 3.734 1.582 5053
0.050 3.745 1.575 7722
0.050 3.757 1.567 6435
0.050 3.768 1.559 4358
0.050 3.795 1.556 4923
0.051 3.806 1.548 6697
0.051 3.825 1.543 5639
0.050 3.777 1.512 4170
0.050 3.796 1.507 7118
0.051 3.807 1.499 8657
0.052 3.886 1.515 8652
0.052 3.897 1.506 8164
0.052 3.909 1.497 7156
0.053 3.965 1.505 5331
0.053 3.991 1.501 6333
0.053 3.980 1.484 4610
0.055 4.127 1.521 5374
0.055 4.131 1.509 6186
0.054 4.082 1.480 4904
0.056 4.221 1.513 4290
0.056 4.225 1.500 5388
0.056 4.229 1.488 5647
0.056 4.241 1.479 6596
0.057 4.260 1.471 5730
0.057 4.264 1.459 4083
0.058 4.351 1.472 3488
0.058 4.362 1.462 3195
0.060 4.487 1.486 5773
0.060 4.499 1.476 4849
0.059 4.434 1.442 2253
0.060 4.499 1.448 2814
0.060 4.525 1.441 6173
0.060 4.529 1.428 7234
0.060 4.540 1.417 3166
0.063 4.750 1.462 2411
0.063 4.746 1.446 3138
0.064 4.788 1.443 3993
0.064 4.799 1.431 4007
0.067 5.025 1.477 2378
0.067 5.036 1.465 6466
0.067 5.040 1.450 8163
0.067 5.067 1.442 6873
0.068 5.109 1.437 9045
0.068 5.113 1.422 7737
0.068 5.132 1.411 5719
0.068 5.151 1.400 5105
0.071 5.324 1.426 4833
0.072 5.435 1.437 4922
0.072 5.447 1.423 6027
0.072 5.458 1.409 4113
0.073 5.524 1.408 3777
0.074 5.551 1.397 3660
0.074 5.546 1.379 2461
0.076 5.689 1.394 3248
0.076 5.708 1.381 4222
0.076 5.712 1.365 2918
0.078 5.909 1.390 2591
0.079 5.913 1.372 3095
0.078 5.893 1.351 2851
0.082 6.168 1.389 2938
0.082 6.171 1.371 2942
0.085 6.416 1.401 3305
0.086 6.458 1.390 3413
0.086 6.477 1.374 4058
0.086 6.504 1.360 4611
0.087 6.531 1.345 3363
0.089 6.698 1.357 2728
0.089 6.733 1.343 2537
0.087 6.588 1.297 2178
0.095 7.130 1.372 2354
0.095 7.133 1.351 2976
0.095 7.129 1.329 2235
0.098 7.367 1.347 2240
0.098 7.370 1.326 2911
0.099 7.428 1.313 2761
0.099 7.487 1.300 2289
0.104 7.865 1.336 3045
0.104 7.869 1.313 3347
0.105 7.872 1.290 1807
0.113 8.510 1.359 2039
0.113 8.529 1.337 2519
0.113 8.541 1.313 2229
0.113 8.529 1.286 2208
0.113 8.532 1.261 2169
0.125 9.406 1.349 2006
0.125 9.418 1.323 3282
0.125 9.429 1.297 3452
0.125 9.440 1.270 3184
0.125 9.436 1.242 4493
0.125 9.439 1.214 5974
0.125 9.434 1.186 5721
0.125 9.445 1.160 3608
0.126 9.456 1.133 2133
0.126 9.467 1.106 1393
0.126 9.524 1.084 712
0.126 9.456 1.050 367
0.125 9.451 1.022 257
0.034 2.153 1.643 3902
0.034 2.158 1.637 7804
0.034 2.162 1.631 7804
0.035 2.166 1.625 7700
0.035 2.177 1.623 7689
0.035 2.182 1.617 6222
0.035 2.192 1.615 4818
0.036 2.236 1.636 5696
0.036 2.253 1.639 7523
0.036 2.271 1.641 8537
0.036 2.288 1.644 8991
0.037 2.299 1.641 9626
0.037 2.304 1.635 6979
0.037 2.315 1.633 4449
0.039 2.431 1.700 5390
0.039 2.436 1.693 6989
0.039 2.440 1.686 6938
0.039 2.438 1.675 7517
0.039 2.443 1.668 8044
0.039 2.461 1.669 6879
0.039 2.472 1.667 6075
0.039 2.469 1.655 6031
0.039 2.434 1.623 6484
0.040 2.492 1.650 5816
0.040 2.503 1.647 6153
0.040 2.528 1.652 8004
0.040 2.539 1.649 10473
0.041 2.550 1.646 9354
0.041 2.568 1.646 8776
0.041 2.579 1.643 7004
0.042 2.617 1.656 5783
0.041 2.588 1.628 5642
0.043 2.674 1.669 5891
0.043 2.679 1.661 6879
0.042 2.635 1.626 7564
0.042 2.626 1.610 7344
0.042 2.623 1.599 5766
0.042 2.620 1.588 4401
0.043 2.721 1.634 4796
0.043 2.719 1.623 5475
0.044 2.730 1.619 5406
0.044 2.741 1.615 6860
0.044 2.752 1.611 8309
0.044 2.764 1.607 8340
0.044 2.768 1.599 7962
0.045 2.849 1.632 7459
0.045 2.846 1.620 7924
0.046 2.872 1.623 7181
0.046 2.855 1.604 8924
0.046 2.859 1.595 10958
0.046 2.856 1.584 10532
0.046 2.861 1.575 8795
0.046 2.872 1.571 7536
0.046 2.876 1.563 5629
0.048 2.986 1.608 7172
0.048 2.983 1.595 8477
0.048 2.988 1.587 7524
0.047 2.971 1.568 7801
0.047 2.975 1.559 9367
0.049 3.050 1.585 9401
0.049 3.054 1.577 11964
0.049 3.059 1.568 9873
0.049 3.070 1.562 7483
0.049 3.088 1.560 7287
0.050 3.121 1.565 8926
0.050 3.147 1.566 12827
0.050 3.165 1.563 14582
0.051 3.184 1.561 15774
0.051 3.181 1.548 10495
0.051 3.178 1.536 8695
0.051 3.182 1.527 8892
0.051 3.186 1.518 7294
0.051 3.197 1.512 4825
0.052 3.274 1.534 4643
0.053 3.336 1.550 8110
0.053 3.333 1.537 10869
0.053 3.344 1.531 9287
0.054 3.356 1.524 6996
0.053 3.352 1.511 5154
0.055 3.451 1.541 5984
0.055 3.448 1.528 9013
0.055 3.460 1.521 8348
0.056 3.493 1.523 6772
0.056 3.541 1.531 5822
0.056 3.508 1.506 5267
0.056 3.512 1.496 3882
0.060 3.752 1.577 5643
0.060 3.764 1.570 5036
0.060 3.775 1.562 3766
0.061 3.794 1.556 4284
0.061 3.806 1.548 5911
0.061 3.817 1.540 5635
0.061 3.829 1.532 4970
0.061 3.803 1.510 8189
0.061 3.807 1.499 10220
0.062 3.893 1.517 9145
0.062 3.905 1.509 9669
0.062 3.909 1.497 8754
0.063 3.957 1.502 4896
0.064 3.991 1.501 4981
0.064 3.995 1.489 4301
0.066 4.119 1.519 4898
0.066 4.116 1.504 5830
0.065 4.082 1.480 4998
0.067 4.214 1.510 4115
0.067 4.225 1.500 4936
0.067 4.222 1.486 5123
0.068 4.241 1.479 5670
0.068 4.260 1.471 5283
0.069 4.316 1.475 3876
0.069 4.350 1.472 3378
0.070 4.362 1.462 3459
0.070 4.404 1.461 5325
0.070 4.407 1.448 4557
0.071 4.434 1.442 2492
0.072 4.499 1.448 2640
0.072 4.525 1.441 5478
0.072 4.529 1.428 6548
0.072 4.533 1.415 3403
0.076 4.757 1.464 2084
0.076 4.754 1.448 2744
0.076 4.788 1.443 3745
0.077 4.799 1.431 3740
0.080 5.025 1.477 2502
0.080 5.036 1.465 6440
0.081 5.048 1.452 7857
0.081 5.075 1.444 6665
0.081 5.101 1.435 8753
0.081 5.097 1.418 8307
0.081 5.101 1.403 6508
0.081 5.066 1.379 5620
0.085 5.331 1.428 4268
0.087 5.435 1.437 5202
0.087 5.447 1.423 6345
0.087 5.458 1.409 4159
0.088 5.516 1.406 2899
0.088 5.543 1.395 2937
0.088 5.539 1.378 2259
0.091 5.681 1.393 2658
0.091 5.708 1.381 4194
0.091 5.704 1.363 2980
0.094 5.916 1.391 2095
0.094 5.897 1.369 2698
0.097 6.094 1.392 2783
0.098 6.168 1.389 2676
0.098 6.171 1.371 2422
0.102 6.408 1.399 3397
0.102 6.419 1.382 3500
0.103 6.477 1.374 3912
0.104 6.504 1.360 4441
0.104 6.531 1.345 3013
0.107 6.706 1.358 2759
0.107 6.725 1.341 2685
0.105 6.596 1.298 2305
0.109 6.857 1.324 2335
0.114 7.125 1.350 2575
0.119 7.457 1.384 2239
0.119 7.484 1.366 2372
0.118 7.378 1.327 3288
0.118 7.420 1.312 3214
0.119 7.486 1.300 2832
0.125 7.865 1.336 3326
0.126 7.869 1.313 3583
0.126 7.872 1.290 1881
0.136 8.510 1.359 1899
0.136 8.529 1.337 2198
0.136 8.548 1.314 2098
0.136 8.520 1.285 2503
0.136 8.531 1.261 2375
0.150 9.398 1.348 1951
0.150 9.417 1.323 3106
0.151 9.437 1.298 3210
0.151 9.479 1.275 3129
0.150 9.435 1.242 3776
0.150 9.431 1.213 5170
0.150 9.434 1.186 5051
0.151 9.437 1.159 3212
0.151 9.448 1.132 1872
0.152 9.521 1.112 1534
0.152 9.524 1.084 893
0.151 9.448 1.049 420
0.151 9.443 1.021 309
0.038 2.153 1.643 3851
0.039 2.158 1.637 7703
0.039 2.162 1.631 7703
0.039 2.166 1.625 7586
0.039 2.177 1.623 7530
0.039 2.182 1.617 6096
0.040 2.231 1.642 4981
0.040 2.242 1.641 6301
0.040 2.253 1.639 8233
0.041 2.271 1.641 8984
0.041 2.288 1.644 9521
0.041 2.293 1.637 10343
0.041 2.304 1.635 7610
0.041 2.314 1.633 5090
0.043 2.431 1.700 5407
0.043 2.436 1.693 7245
0.043 2.434 1.682 7234
0.043 2.432 1.670 7855
0.043 2.436 1.664 8488
0.044 2.440 1.657 6953
0.044 2.472 1.667 5643
0.043 2.429 1.630 5637
0.043 2.427 1.619 6358
0.044 2.492 1.650 5580
0.045 2.503 1.647 6189
0.045 2.527 1.652 7686
0.045 2.539 1.649 9879
0.046 2.550 1.646 8637
0.046 2.568 1.646 7999
0.046 2.579 1.643 6427
0.047 2.617 1.656 5659
0.046 2.554 1.608 5811
0.046 2.592 1.621 6188
0.048 2.678 1.661 7129
0.047 2.635 1.626 6766
0.047 2.619 1.607 6664
0.047 2.623 1.599 5608
0.047 2.620 1.588 4638
0.049 2.721 1.634 4510
0.049 2.719 1.623 5046
0.049 2.730 1.619 4763
0.049 2.741 1.615 6318
0.049 2.752 1.611 8018
0.049 2.764 1.607 8065
0.049 2.768 1.599 7667
0.051 2.842 1.628 6867
0.051 2.846 1.620 7310
0.051 2.872 1.623 6539
0.051 2.855 1.604 8479
0.051 2.859 1.595 10600
0.051 2.856 1.584 9885
0.051 2.861 1.575 8113
0.051 2.879 1.574 7253
0.053 2.954 1.602 5268
0.053 2.979 1.604 7132
0.053 2.983 1.595 8429
0.053 2.988 1.587 7437
0.055 3.056 1.610 7668
0.053 2.975 1.559 9310
0.054 3.043 1.582 9971
0.055 3.054 1.577 12953
0.055 3.058 1.568 10631
0.055 3.063 1.559 7870
0.055 3.095 1.564 7472
0.056 3.121 1.565 8785
0.056 3.147 1.566 11271
0.056 3.165 1.563 12971
0.057 3.184 1.561 14658
0.057 3.188 1.552 10615
0.057 3.178 1.536 9587
0.057 3.182 1.527 10045
0.057 3.186 1.518 7998
0.057 3.197 1.512 5074
0.059 3.281 1.537 5095
0.059 3.329 1.547 8952
0.059 3.333 1.537 12049
0.060 3.344 1.531 10366
0.060 3.355 1.524 8065
0.060 3.352 1.511 6002
0.061 3.393 1.517 6164
0.061 3.441 1.525 7988
0.062 3.459 1.521 7588
0.062 3.485 1.520 6022
0.063 3.541 1.531 5217
0.063 3.538 1.517 5528
0.063 3.520 1.499 3825
0.067 3.760 1.580 4103
0.067 3.764 1.570 3805
0.067 3.768 1.559 3245
0.067 3.779 1.551 3565
0.068 3.798 1.545 4967
0.068 3.817 1.540 5149
0.068 3.821 1.529 5719
0.068 3.803 1.510 8720
0.068 3.807 1.499 10706
0.069 3.893 1.517 8748
0.070 3.904 1.509 9907
0.070 3.908 1.497 9128
0.070 3.935 1.494 4756
0.071 3.991 1.501 3712
0.071 3.995 1.489 4371
0.074 4.119 1.519 4362
0.073 4.115 1.504 5281
0.073 4.089 1.482 4504
0.075 4.214 1.510 3957
0.075 4.225 1.500 4851
0.075 4.214 1.483 5115
0.076 4.233 1.476 4855
0.076 4.252 1.469 4541
0.077 4.316 1.475 3459
0.078 4.350 1.472 3010
0.078 4.362 1.462 3384
0.078 4.396 1.459 5348
0.079 4.407 1.448 4685
0.079 4.434 1.442 2677
0.080 4.506 1.450 2694
0.081 4.517 1.439 4854
0.081 4.521 1.426 5772
0.081 4.533 1.415 3525
0.082 4.597 1.419 2432
0.085 4.753 1.448 2631
0.085 4.780 1.441 3547
0.086 4.799 1.431 3299
0.090 5.025 1.477 2844
0.090 5.036 1.465 6173
0.090 5.048 1.452 6925
0.091 5.074 1.444 6164
0.091 5.094 1.433 7888
0.091 5.097 1.418 8185
0.091 5.093 1.401 6726
0.091 5.074 1.381 5482
0.095 5.339 1.430 3886
0.097 5.435 1.437 5397
0.097 5.447 1.423 6627
0.097 5.458 1.409 4130
0.096 5.354 1.368 2462
0.099 5.535 1.394 2367
0.099 5.523 1.374 2145
0.101 5.681 1.393 2437
0.102 5.708 1.381 3988
0.102 5.696 1.361 2864
0.106 5.924 1.393 1710
0.105 5.881 1.366 2354
0.109 6.094 1.392 2520
0.110 6.167 1.389 2356
0.110 6.171 1.371 1932
0.114 6.408 1.399 3304
0.114 6.411 1.381 3466
0.116 6.477 1.374 3575
0.116 6.504 1.360 4000
0.117 6.531 1.345 2670
0.120 6.706 1.358 2835
0.120 6.725 1.341 2831
0.118 6.603 1.300 2341
0.122 6.841 1.321 2477
0.122 6.852 1.303 2706
0.133 7.464 1.385 2313
0.134 7.483 1.366 2511
0.132 7.385 1.328 3405
0.132 7.420 1.312 3322
0.134 7.486 1.300 2966
0.141 7.873 1.337 3322
0.140 7.868 1.313 3498
0.140 7.872 1.290 1839
0.152 8.502 1.358 1703
0.156 8.756 1.369 1937
0.152 8.517 1.310 1914
0.152 8.520 1.285 2680
0.152 8.523 1.260 2449
0.168 9.398 1.348 1750
0.168 9.417 1.323 2713
0.169 9.452 1.299 2887
0.169 9.479 1.275 3198
0.168 9.435 1.242 3045
0.168 9.430 1.213 4074
0.168 9.433 1.186 4013
0.168 9.436 1.159 2625
0.170 9.518 1.140 1879
0.170 9.521 1.112 1727
0.170 9.524 1.084 1038
0.169 9.448 1.049 505
0.169 9.442 1.021 365
0.045 2.153 1.643 3801
0.045 2.158 1.637 7602
0.045 2.162 1.631 7602
0.045 2.166 1.625 7504
0.046 2.177 1.623 7463
0.046 2.181 1.617 5962
0.047 2.238 1.647 5385
0.047 2.242 1.641 7011
0.047 2.253 1.639 9021
0.047 2.264 1.637 9451
0.048 2.281 1.639 10122
0.048 2.292 1.637 11237
0.048 2.303 1.635 8463
0.048 2.314 1.633 6098
0.051 2.431 1.700 5364
0.051 2.429 1.689 7588
0.051 2.434 1.682 7534
0.051 2.431 1.670 8267
0.051 2.436 1.664 8947
0.051 2.434 1.652 7099
0.051 2.438 1.645 5282
0.051 2.422 1.626 5599
0.051 2.427 1.619 6249
0.052 2.498 1.654 5779
0.052 2.503 1.647 6546
0.053 2.521 1.648 7504
0.053 2.532 1.645 9311
0.053 2.543 1.641 7976
0.054 2.568 1.646 7157
0.054 2.586 1.647 5853
0.055 2.624 1.660 5627
0.053 2.553 1.608 6117
0.054 2.585 1.617 6599
0.056 2.678 1.661 7456
0.056 2.683 1.654 6804
0.055 2.618 1.607 6087
0.055 2.616 1.595 5510
0.055 2.620 1.588 4956
0.057 2.714 1.630 4085
0.057 2.718 1.623 4452
0.057 2.723 1.615 3960
0.057 2.741 1.615 5548
0.058 2.752 1.611 7547
0.058 2.763 1.607 7656
0.058 2.768 1.599 7318
0.059 2.828 1.621 6515
0.059 2.839 1.616 6770
0.059 2.836 1.604 5990
0.060 2.848 1.600 7924
0.060 2.859 1.595 9972
0.060 2.856 1.584 9041
0.060 2.881 1.586 7468
0.061 2.893 1.582 7161
0.062 2.946 1.598 5452
0.062 2.979 1.604 7168
0.063 2.983 1.595 8458
0.063 2.987 1.587 7405
0.064 3.056 1.610 7640
0.062 2.975 1.559 9015
0.064 3.043 1.582 10301
0.064 3.054 1.577 13476
0.064 3.058 1.568 10983
0.064 3.062 1.559 8033
0.065 3.095 1.564 7806
0.065 3.121 1.565 8557
0.066 3.139 1.562 9486
0.066 3.165 1.563 11038
0.067 3.184 1.561 12884
0.067 3.188 1.552 10367
0.067 3.178 1.536 10211
0.067 3.182 1.527 10859
0.067 3.186 1.518 8485
0.067 3.204 1.515 5316
0.069 3.274 1.534 5489
0.070 3.328 1.547 9247
0.070 3.333 1.537 12495
0.070 3.344 1.531 10846
0.070 3.355 1.524 8967
0.070 3.352 1.511 6859
0.071 3.385 1.514 6477
0.072 3.441 1.525 7080
0.072 3.459 1.521 6938
0.073 3.485 1.520 5609
0.074 3.533 1.528 5154
0.074 3.552 1.523 6428
0.075 3.578 1.522 4148
0.079 3.759 1.580 2910
0.076 3.631 1.518 2673
0.079 3.753 1.553 3122
0.078 3.720 1.528 5262
0.078 3.731 1.520 6212
0.079 3.750 1.515 5333
0.080 3.821 1.529 6113
0.080 3.810 1.512 8933
0.080 3.807 1.499 10476
0.082 3.893 1.517 7962
0.082 3.904 1.509 9952
0.082 3.908 1.497 9462
0.082 3.927 1.491 4949
0.084 3.991 1.501 3266
0.084 3.987 1.487 4958
0.084 3.991 1.475 4456
0.086 4.115 1.504 4485
0.086 4.097 1.485 3729
0.088 4.206 1.508 3732
0.088 4.217 1.498 4907
0.088 4.206 1.481 5457
0.089 4.233 1.476 4300
0.089 4.259 1.471 3708
0.090 4.316 1.475 3120
0.091 4.335 1.468 2562
0.091 4.361 1.462 3305
0.092 4.396 1.459 5428
0.092 4.399 1.446 4788
0.093 4.434 1.442 2585
0.095 4.521 1.454 2976
0.095 4.525 1.441 4193
0.095 4.521 1.426 4906
0.095 4.555 1.422 3584
0.096 4.597 1.419 3266
0.099 4.738 1.444 2608
0.100 4.765 1.437 3329
0.099 4.738 1.415 2986
0.105 5.017 1.475 3268
0.106 5.036 1.465 5747
0.106 5.047 1.452 5640
0.106 5.074 1.444 5372
0.107 5.093 1.433 6591
0.107 5.089 1.416 7308
0.107 5.093 1.401 6177
0.106 5.074 1.381 4582
0.113 5.416 1.449 4276
0.114 5.435 1.437 5646
0.114 5.446 1.423 6802
0.114 5.450 1.407 4301
0.112 5.346 1.367 2776
0.118 5.612 1.411 2094
0.118 5.638 1.400 2264
0.119 5.673 1.391 2710
0.120 5.707 1.381 3968
0.119 5.696 1.361 2727
0.122 5.815 1.370 1349
0.123 5.873 1.364 1962
0.123 5.877 1.347 2216
0.126 5.996 1.354 2610
0.132 6.295 1.396 1697
0.134 6.399 1.398 3096
0.134 6.403 1.379 3400
0.136 6.484 1.376 3071
0.136 6.511 1.361 3490
0.137 6.530 1.345 2543
0.141 6.713 1.359 2925
0.141 6.724 1.341 3006
0.139 6.611 1.301 2289
0.143 6.832 1.320 2768
0.143 6.836 1.300 3126
0.157 7.472 1.387 2514
0.157 7.483 1.366 2821
0.155 7.385 1.328 3304
0.155 7.412 1.311 3213
0.157 7.486 1.300 2925
0.165 7.864 1.336 3375
0.165 7.868 1.313 3390
0.165 7.879 1.291 1792
0.184 8.760 1.395 1667
0.183 8.748 1.368 2274
0.183 8.728 1.339 2704
0.178 8.512 1.284 2881
0.179 8.523 1.260 2463
0.193 9.193 1.322 1819
0.197 9.409 1.322 2249
0.198 9.467 1.301 2681
0.199 9.486 1.276 3164
0.198 9.434 1.242 2376
0.198 9.438 1.214 2981
0.198 9.433 1.186 3023
0.199 9.515 1.167 2517
0.199 9.518 1.140 2162
0.199 9.520 1.112 1971
0.200 9.523 1.084 1183
0.198 9.447 1.049 553
0.198 9.442 1.021 389
0.050 2.153 1.643 3594
0.050 2.157 1.637 7188
0.050 2.162 1.631 7188
0.050 2.166 1.625 7240
0.050 2.177 1.623 7339
0.050 2.181 1.617 5834
0.052 2.270 1.669 6343
0.052 2.249 1.645 7599
0.052 2.253 1.639 9486
0.052 2.257 1.632 9681
0.053 2.281 1.639 10454
0.053 2.292 1.637 11826
0.053 2.303 1.635 9105
0.053 2.314 1.633 6948
0.056 2.424 1.696 5162
0.056 2.429 1.689 7650
0.056 2.427 1.677 7646
0.056 2.425 1.666 8393
0.056 2.429 1.659 9145
0.056 2.434 1.652 7068
0.055 2.398 1.620 5392
0.056 2.416 1.622 5720
0.056 2.420 1.615 6282
0.058 2.498 1.654 6328
0.058 2.503 1.647 7190
0.058 2.520 1.648 7410
0.058 2.532 1.645 8714
0.059 2.543 1.641 7341
0.059 2.574 1.650 6303
0.059 2.545 1.623 5629
0.059 2.542 1.611 5689
0.059 2.553 1.608 6302
0.060 2.585 1.617 6822
0.062 2.678 1.661 7555
0.062 2.683 1.654 7433
0.062 2.694 1.650 6579
0.060 2.616 1.595 5509
0.061 2.634 1.595 5323
0.063 2.707 1.627 3820
0.063 2.711 1.619 4041
0.063 2.716 1.611 3518
0.063 2.741 1.615 4817
0.064 2.752 1.611 6842
0.064 2.770 1.610 7076
0.064 2.775 1.602 6884
0.064 2.786 1.598 6665
0.065 2.825 1.609 6617
0.065 2.801 1.586 6184
0.066 2.840 1.596 7279
0.066 2.859 1.595 8990
0.066 2.856 1.584 8010
0.067 2.895 1.593 7372
0.067 2.900 1.585 7379
0.068 2.932 1.591 5744
0.069 2.979 1.604 6958
0.069 2.983 1.595 8178
0.069 2.987 1.587 7214
0.070 3.048 1.606 7276
0.069 2.974 1.559 8429
0.070 3.043 1.582 10164
0.071 3.054 1.577 13434
0.071 3.058 1.568 10939
0.071 3.069 1.562 7952
0.072 3.095 1.564 8041
0.072 3.121 1.565 8182
0.072 3.132 1.559 7852
0.073 3.165 1.563 9176
0.074 3.184 1.561 10781
0.074 3.195 1.555 9885
0.074 3.185 1.539 10376
0.074 3.181 1.527 10995
0.074 3.193 1.521 8563
0.074 3.211 1.518 5520
0.076 3.273 1.534 5614
0.077 3.321 1.543 8893
0.077 3.325 1.534 12143
0.077 3.344 1.531 10561
0.078 3.355 1.524 9286
0.077 3.352 1.511 7444
0.078 3.378 1.511 6657
0.079 3.440 1.525 6269
0.080 3.474 1.527 6419
0.081 3.485 1.520 5476
0.083 3.577 1.545 5327
0.082 3.567 1.529 7444
0.083 3.593 1.528 5217
0.084 3.626 1.529 4484
0.084 3.623 1.515 4791
0.086 3.723 1.542 3830
0.086 3.720 1.528 6805
0.086 3.731 1.520 7635
0.087 3.750 1.515 6230
0.088 3.814 1.526 6049
0.088 3.810 1.512 8457
0.088 3.807 1.499 9333
0.090 3.893 1.517 7055
0.090 3.904 1.509 9379
0.090 3.908 1.497 9062
0.091 3.927 1.491 4939
0.092 3.976 1.496 3870
0.092 3.980 1.484 6212
0.092 3.984 1.473 5746
0.092 3.995 1.464 4397
0.095 4.104 1.487 3145
0.097 4.206 1.508 3436
0.097 4.202 1.493 4998
0.097 4.206 1.481 5855
0.097 4.217 1.471 4242
0.099 4.267 1.473 3240
0.100 4.308 1.473 3088
0.100 4.327 1.465 2531
0.101 4.354 1.460 3353
0.101 4.388 1.456 5364
0.102 4.399 1.446 4529
0.104 4.486 1.458 2279
0.105 4.528 1.456 2979
0.105 4.540 1.446 3594
0.104 4.521 1.426 4007
0.106 4.578 1.428 4195
0.106 4.597 1.419 3885
0.109 4.722 1.440 2822
0.110 4.749 1.433 3395
0.109 4.738 1.415 3065
0.116 5.016 1.475 3415
0.116 5.036 1.465 5052
0.115 4.993 1.438 4445
0.116 5.005 1.426 4687
0.116 5.024 1.415 5558
0.117 5.058 1.408 6118
0.118 5.093 1.401 5187
0.121 5.250 1.425 4203
0.125 5.415 1.449 4633
0.126 5.434 1.437 5672
0.126 5.446 1.423 6601
0.126 5.450 1.407 4506
0.123 5.338 1.365 2968
0.126 5.442 1.372 2148
0.130 5.630 1.399 2421
0.131 5.665 1.389 3147
0.132 5.730 1.386 4206
0.131 5.688 1.360 2674
0.134 5.800 1.366 1905
0.133 5.757 1.340 1908
0.136 5.869 1.346 1914
0.139 5.996 1.354 2788
0.145 6.294 1.396 1689
0.148 6.399 1.398 2758
0.147 6.372 1.373 3427
0.147 6.360 1.352 2661
0.151 6.519 1.363 2985
0.151 6.538 1.347 2628
0.155 6.713 1.359 2855
0.155 6.724 1.341 2964
0.155 6.727 1.322 2219
0.158 6.832 1.320 2871
0.158 6.836 1.300 3332
0.173 7.471 1.387 2548
0.173 7.483 1.366 2844
0.171 7.385 1.328 2926
0.171 7.411 1.311 2873
0.173 7.493 1.301 2724
0.182 7.864 1.336 3261
0.182 7.875 1.314 3163
0.182 7.879 1.291 1734
0.202 8.759 1.395 1677
0.202 8.740 1.366 2514
0.202 8.727 1.339 3338
0.197 8.511 1.284 2954
0.197 8.515 1.259 2450
0.210 9.067 1.306 2009
0.203 8.788 1.243 2246
0.216 9.341 1.286 2673
0.219 9.486 1.276 2960
0.216 9.332 1.230 2388
0.220 9.508 1.223 2410
0.220 9.511 1.195 3097
0.220 9.514 1.167 2792
0.220 9.517 1.140 2353
0.220 9.520 1.112 2117
0.220 9.523 1.084 1242
0.218 9.447 1.049 537
0.218 9.434 1.020 391
0.055 2.153 1.643 3306
0.055 2.157 1.637 6612
0.056 2.162 1.631 6612
0.056 2.172 1.630 6836
0.056 2.177 1.623 7081
0.058 2.266 1.676 6036
0.058 2.270 1.669 7365
0.058 2.261 1.654 8335
0.058 2.253 1.639 9891
0.058 2.257 1.632 9896
0.059 2.281 1.639 10631
0.059 2.292 1.637 12149
0.059 2.303 1.635 9453
0.060 2.321 1.637 7560
0.060 2.332 1.635 5486
0.062 2.422 1.684 7707
0.062 2.427 1.677 7640
0.062 2.425 1.666 8479
0.062 2.422 1.655 9323
0.062 2.420 1.644 7229
0.062 2.398 1.620 5980
0.062 2.409 1.617 6119
0.062 2.420 1.615 6546
0.064 2.498 1.654 7416
0.064 2.496 1.642 8457
0.065 2.514 1.644 7676
0.065 2.531 1.645 8203
0.065 2.536 1.637 6825
0.065 2.547 1.634 5576
0.065 2.538 1.619 5568
0.065 2.535 1.607 5995
0.066 2.553 1.608 6561
0.066 2.585 1.617 7035
0.069 2.678 1.661 7619
0.069 2.682 1.654 8222
0.069 2.694 1.650 7740
0.069 2.698 1.642 5904
0.068 2.647 1.603 5990
0.068 2.665 1.603 4165
0.070 2.711 1.619 4228
0.070 2.709 1.607 3881
0.070 2.741 1.615 4400
0.071 2.745 1.607 5985
0.071 2.770 1.610 6373
0.071 2.774 1.602 6480
0.072 2.793 1.602 7118
0.072 2.797 1.594 7547
0.072 2.801 1.586 7147
0.073 2.833 1.593 6877
0.075 2.901 1.617 8051
0.075 2.919 1.616 7921
0.075 2.923 1.608 7430
0.074 2.899 1.585 7615
0.075 2.925 1.588 6042
0.076 2.972 1.600 6447
0.077 2.983 1.595 7515
0.077 2.987 1.587 6873
0.078 3.048 1.606 6916
0.077 2.981 1.563 7539
0.078 3.042 1.582 9828
0.078 3.054 1.577 12937
0.079 3.065 1.571 10547
0.079 3.076 1.566 7744
0.080 3.102 1.567 8235
0.080 3.121 1.565 7804
0.080 3.125 1.556 6829
0.081 3.165 1.563 7711
0.082 3.191 1.564 8637
0.082 3.202 1.558 9655
0.082 3.192 1.542 10310
0.082 3.181 1.527 10600
0.082 3.193 1.521 8308
0.083 3.247 1.534 6679
0.084 3.251 1.525 6199
0.085 3.306 1.537 8285
0.085 3.325 1.534 11304
0.086 3.336 1.527 9920
0.086 3.362 1.527 9441
0.086 3.352 1.511 7917
0.087 3.378 1.511 7034
0.087 3.374 1.498 6357
0.089 3.474 1.527 6124
0.090 3.485 1.520 5635
0.092 3.577 1.545 5938
0.092 3.581 1.535 8281
0.092 3.593 1.528 6405
0.093 3.626 1.529 6642
0.093 3.615 1.513 7474
0.093 3.612 1.499 5637
0.096 3.727 1.531 7903
0.096 3.731 1.520 8676
0.097 3.757 1.518 6735
0.098 3.798 1.521 5925
0.098 3.810 1.512 7280
0.098 3.806 1.499 7405
0.100 3.892 1.517 5988
0.100 3.904 1.509 8375
0.100 3.908 1.497 8215
0.101 3.934 1.494 4871
0.102 3.975 1.496 5239
0.102 3.972 1.482 7861
0.102 3.983 1.473 7268
0.103 3.995 1.464 5923
0.103 3.999 1.452 3999
0.108 4.198 1.505 3104
0.106 4.134 1.471 5435
0.107 4.145 1.462 6323
0.108 4.217 1.471 4095
0.110 4.281 1.478 3711
0.110 4.300 1.471 3315
0.111 4.327 1.465 2566
0.112 4.353 1.460 3317
0.113 4.388 1.456 5285
0.113 4.399 1.446 4088
0.115 4.494 1.460 1741
0.117 4.536 1.459 2687
0.118 4.577 1.457 4154
0.118 4.574 1.441 4739
0.118 4.585 1.430 4814
0.118 4.604 1.421 4218
0.121 4.722 1.440 2952
0.122 4.741 1.430 3563
0.122 4.730 1.413 3080
0.129 5.016 1.475 3371
0.129 5.035 1.465 4252
0.128 4.986 1.436 4794
0.128 4.997 1.424 4839
0.129 5.024 1.415 5108
0.129 5.027 1.401 5339
0.135 5.261 1.444 4698
0.135 5.257 1.427 4315
0.139 5.415 1.449 4749
0.140 5.434 1.437 5305
0.140 5.438 1.421 5836
0.140 5.449 1.407 4423
0.137 5.330 1.363 3013
0.140 5.441 1.372 2191
0.144 5.622 1.397 2590
0.145 5.649 1.386 3744
0.147 5.738 1.388 4584
0.149 5.780 1.380 2886
0.150 5.830 1.373 2332
0.148 5.779 1.345 1842
0.154 5.984 1.370 2006
0.154 5.996 1.354 2794
0.154 5.999 1.337 1547
0.163 6.352 1.389 2702
0.164 6.363 1.372 3563
0.163 6.351 1.350 2930
0.162 6.308 1.323 2726
0.168 6.553 1.350 2895
0.175 6.806 1.377 3158
0.173 6.723 1.341 2938
0.175 6.813 1.337 2468
0.175 6.824 1.319 3014
0.175 6.827 1.299 3416
0.175 6.823 1.278 2618
0.192 7.474 1.365 2757
0.190 7.384 1.328 2481
0.190 7.411 1.311 2306
0.193 7.493 1.301 2262
0.202 7.864 1.336 3060
0.202 7.875 1.314 2831
0.206 8.011 1.311 1828
0.206 8.007 1.287 1709
0.225 8.739 1.366 2739
0.224 8.719 1.338 3868
0.224 8.715 1.311 3177
0.219 8.514 1.259 2368
0.232 9.012 1.298 2797
0.232 9.015 1.272 2839
0.240 9.348 1.287 2661
0.240 9.344 1.259 2870
0.240 9.339 1.231 2288
0.244 9.507 1.223 2340
0.244 9.510 1.195 3223
0.244 9.514 1.167 2951
0.245 9.516 1.140 2420
0.245 9.519 1.112 2147
0.245 9.522 1.084 1209
0.241 9.399 1.044 481
0.242 9.433 1.020 335
0.061 2.159 1.648 2990
0.061 2.164 1.642 5980
0.061 2.168 1.636 5980
0.061 2.172 1.630 6407
0.062 2.177 1.623 6834
0.064 2.265 1.676 6669
0.064 2.270 1.669 8159
0.064 2.261 1.654 8970
0.064 2.253 1.639 10114
0.064 2.250 1.628 9968
0.065 2.281 1.639 10525
0.065 2.292 1.637 12135
0.065 2.303 1.635 9560
0.066 2.321 1.637 8021
0.066 2.338 1.639 6267
0.068 2.422 1.684 7583
0.068 2.420 1.673 7569
0.068 2.418 1.662 8463
0.068 2.415 1.651 9470
0.068 2.407 1.635 7708
0.068 2.397 1.620 6492
0.068 2.408 1.617 6610
0.071 2.493 1.661 7587
0.070 2.491 1.650 8769
0.071 2.495 1.642 9967
0.071 2.507 1.639 8227
0.071 2.524 1.640 7787
0.072 2.536 1.637 6500
0.072 2.540 1.630 5225
0.072 2.538 1.619 5706
0.072 2.535 1.607 6366
0.072 2.553 1.608 6876
0.073 2.578 1.613 7389
0.076 2.678 1.661 7595
0.076 2.682 1.654 8869
0.076 2.694 1.650 8724
0.076 2.698 1.642 6669
0.075 2.647 1.603 6511
0.076 2.700 1.623 4746
0.077 2.711 1.619 5037
0.077 2.715 1.611 4960
0.077 2.733 1.611 4616
0.078 2.745 1.607 5092
0.079 2.784 1.618 5685
0.079 2.788 1.610 6224
0.079 2.792 1.602 7511
0.079 2.804 1.598 8397
0.079 2.808 1.590 7959
0.080 2.819 1.585 6933
0.082 2.908 1.621 7366
0.083 2.919 1.616 7629
0.083 2.923 1.608 7299
0.082 2.899 1.585 7626
0.083 2.918 1.584 6081
0.084 2.978 1.604 5648
0.085 2.990 1.599 6570
0.084 2.987 1.587 6389
0.086 3.048 1.606 6484
0.086 3.052 1.597 7095
0.086 3.042 1.582 9181
0.086 3.054 1.577 11967
0.087 3.065 1.571 10013
0.087 3.083 1.569 7624
0.088 3.109 1.570 8198
0.088 3.120 1.565 7266
0.088 3.125 1.556 6018
0.090 3.165 1.563 6697
0.090 3.190 1.564 6979
0.091 3.223 1.568 10513
0.091 3.220 1.555 11905
0.091 3.224 1.546 10383
0.092 3.243 1.543 9601
0.092 3.247 1.534 8863
0.092 3.244 1.522 8689
0.092 3.262 1.518 8294
0.094 3.317 1.531 9946
0.093 3.278 1.503 9326
0.095 3.362 1.527 9399
0.095 3.359 1.514 8406
0.095 3.370 1.508 7349
0.095 3.367 1.495 6521
0.098 3.473 1.527 5902
0.099 3.485 1.520 5903
0.101 3.577 1.545 6122
0.101 3.581 1.535 8492
0.102 3.600 1.530 7554
0.102 3.619 1.526 8911
0.102 3.615 1.513 10061
0.102 3.604 1.496 7817
0.105 3.727 1.531 8532
0.106 3.731 1.520 9073
0.106 3.757 1.518 6698
0.107 3.783 1.515 6454
0.107 3.795 1.507 6123
0.108 3.821 1.504 5547
0.110 3.892 1.517 5188
0.110 3.904 1.509 7203
0.110 3.900 1.495 7041
0.111 3.941 1.497 4680
0.112 3.968 1.493 6163
0.112 3.972 1.482 8989
0.113 3.983 1.473 8262
0.113 3.994 1.464 7285
0.113 3.998 1.452 4962
0.115 4.070 1.463 3140
0.117 4.134 1.471 6041
0.117 4.138 1.459 7243
0.120 4.255 1.483 4123
0.121 4.274 1.476 4784
0.121 4.293 1.468 3976
0.122 4.311 1.461 2927
0.123 4.346 1.457 3187
0.124 4.395 1.459 4968
0.124 4.399 1.446 3456
0.128 4.524 1.470 1329
0.130 4.596 1.477 2063
0.129 4.577 1.457 4637
0.129 4.573 1.441 5658
0.130 4.585 1.430 4979
0.130 4.611 1.423 4269
0.134 4.722 1.440 2724
0.134 4.733 1.428 3537
0.134 4.729 1.413 2884
0.137 4.840 1.428 3686
0.138 4.882 1.424 4459
0.141 4.985 1.436 4718
0.141 4.997 1.424 4710
0.142 5.016 1.413 4350
0.142 5.027 1.401 4609
0.149 5.261 1.444 4838
0.149 5.257 1.427 3950
0.153 5.415 1.449 4657
0.153 5.426 1.435 4747
0.150 5.291 1.387 5078
0.154 5.457 1.409 3976
0.151 5.329 1.363 3022
0.158 5.587 1.406 2553
0.159 5.622 1.397 2773
0.160 5.649 1.386 4220
0.162 5.745 1.390 4746
0.163 5.772 1.378 2971
0.165 5.830 1.373 2562
0.164 5.795 1.348 2229
0.169 5.969 1.367 2113
0.169 5.980 1.351 2499
0.167 5.906 1.318 2004
0.179 6.344 1.387 2864
0.180 6.355 1.370 3640
0.179 6.343 1.349 3242
0.179 6.316 1.325 3160
0.185 6.553 1.350 3321
0.185 6.525 1.325 3555
0.193 6.809 1.357 3169
0.193 6.812 1.337 2645
0.193 6.816 1.317 2982
0.193 6.827 1.299 3146
0.209 7.392 1.374 2522
0.211 7.474 1.365 2354
0.209 7.384 1.328 1864
0.212 7.512 1.327 1896
0.222 7.844 1.356 1959
0.222 7.863 1.336 2730
0.223 7.874 1.314 2383
0.227 8.011 1.311 2038
0.226 8.006 1.287 1943
0.247 8.731 1.365 2788
0.247 8.718 1.338 4084
0.246 8.714 1.311 3672
0.255 9.008 1.325 3599
0.255 9.003 1.297 4172
0.255 9.014 1.272 4235
0.255 9.026 1.247 3185
0.264 9.351 1.260 2772
0.264 9.346 1.232 2203
0.269 9.507 1.223 2244
0.269 9.510 1.195 3195
0.269 9.513 1.167 2914
0.269 9.516 1.140 2316
0.269 9.519 1.112 2013
0.269 9.521 1.084 1091
0.266 9.390 1.044 432
0.267 9.424 1.019 299
0.066 2.165 1.653 2690
0.066 2.170 1.647 5380
0.066 2.174 1.640 5380
0.067 2.179 1.634 5907
0.066 2.177 1.623 6453
0.069 2.265 1.676 6888
0.069 2.270 1.669 8411
0.069 2.268 1.659 9130
0.069 2.253 1.639 9951
0.069 2.250 1.628 9763
0.070 2.281 1.639 10091
0.070 2.292 1.637 11681
0.070 2.303 1.635 9277
0.071 2.327 1.641 8120
0.071 2.338 1.639 6874
0.074 2.415 1.680 7224
0.074 2.420 1.673 7199
0.074 2.418 1.662 8120
0.073 2.402 1.642 9521
0.073 2.400 1.631 8052
0.073 2.404 1.624 6674
0.074 2.408 1.617 6779
0.076 2.486 1.657 8404
0.076 2.484 1.645 9763
0.076 2.489 1.638 11187
0.076 2.500 1.635 8849
0.077 2.524 1.640 7619
0.077 2.529 1.633 6355
0.077 2.533 1.626 5091
0.077 2.537 1.619 5780
0.077 2.535 1.607 6544
0.078 2.553 1.608 6979
0.079 2.578 1.613 7573
0.082 2.678 1.661 7406
0.082 2.682 1.654 9105
0.082 2.687 1.646 9189
0.082 2.691 1.638 7104
0.081 2.647 1.603 6710
0.083 2.707 1.627 5270
0.083 2.711 1.619 5744
0.083 2.715 1.611 5872
0.083 2.726 1.607 4978
0.084 2.745 1.607 4446
0.085 2.791 1.622 5376
0.085 2.795 1.614 6218
0.085 2.799 1.606 7711
0.086 2.803 1.598 8770
0.086 2.808 1.590 8337
0.086 2.819 1.585 7014
0.089 2.914 1.625 6525
0.089 2.919 1.616 7003
0.089 2.923 1.608 6920
0.088 2.899 1.585 7394
0.089 2.917 1.584 5852
0.091 2.978 1.604 4668
0.091 2.990 1.599 5484
0.091 2.987 1.587 5810
0.091 2.977 1.571 6067
0.093 3.052 1.597 6567
0.093 3.042 1.582 8551
0.093 3.053 1.577 11108
0.094 3.072 1.575 9522
0.094 3.083 1.569 7550
0.095 3.123 1.577 8002
0.095 3.120 1.565 6529
0.096 3.160 1.572 5333
0.096 3.157 1.560 5974
0.097 3.190 1.564 6423
0.098 3.223 1.568 12011
0.099 3.227 1.559 14639
0.099 3.231 1.549 13194
0.099 3.243 1.543 12649
0.099 3.240 1.531 11887
0.099 3.244 1.522 12645
0.099 3.255 1.515 11799
0.099 3.259 1.506 10532
0.100 3.270 1.500 12064
0.100 3.274 1.490 11000
0.103 3.358 1.514 8539
0.102 3.355 1.502 7770
0.103 3.366 1.495 6681
0.106 3.473 1.527 5841
0.106 3.484 1.520 6216
0.107 3.496 1.513 6000
0.110 3.588 1.538 8197
0.110 3.600 1.530 8197
0.110 3.618 1.526 10252
0.110 3.615 1.513 11819
0.110 3.604 1.496 9537
0.114 3.726 1.531 8419
0.114 3.731 1.520 8805
0.115 3.757 1.518 6419
0.115 3.783 1.515 7075
0.116 3.787 1.504 6133
0.117 3.836 1.510 5315
0.119 3.892 1.517 4652
0.119 3.903 1.509 6169
0.118 3.870 1.484 6212
0.118 3.866 1.471 4643
0.121 3.967 1.493 6350
0.121 3.971 1.482 9198
0.122 3.983 1.473 8573
0.122 3.994 1.464 8026
0.122 3.998 1.452 5520
0.124 4.062 1.461 3407
0.126 4.133 1.471 6219
0.126 4.137 1.459 7721
0.130 4.269 1.488 4445
0.130 4.273 1.476 5614
0.131 4.285 1.466 4499
0.132 4.311 1.461 3420
0.132 4.323 1.450 3269
0.134 4.395 1.459 4740
0.134 4.398 1.446 3010
0.138 4.531 1.472 1335
0.135 4.436 1.430 1866
0.140 4.584 1.459 4665
0.140 4.581 1.443 6088
0.140 4.584 1.430 4724
0.141 4.619 1.426 4142
0.140 4.577 1.399 2476
0.144 4.733 1.428 3281
0.144 4.721 1.411 2966
0.148 4.840 1.428 3617
0.149 4.882 1.424 4871
0.149 4.893 1.412 4516
0.153 4.996 1.424 4416
0.153 5.008 1.411 3572
0.160 5.257 1.459 4245
0.161 5.261 1.444 4550
0.156 5.103 1.389 4610
0.165 5.414 1.449 4251
0.161 5.287 1.402 4248
0.161 5.283 1.385 4963
0.161 5.287 1.369 3653
0.162 5.321 1.361 2784
0.171 5.587 1.406 2947
0.168 5.490 1.367 3300
0.172 5.641 1.384 4482
0.173 5.652 1.369 4984
0.173 5.671 1.356 2761
0.178 5.829 1.373 2526
0.177 5.794 1.348 2667
0.181 5.914 1.355 2458
0.182 5.956 1.346 2632
0.180 5.913 1.320 2356
0.194 6.351 1.389 2882
0.194 6.347 1.369 3567
0.193 6.335 1.347 3387
0.193 6.315 1.325 3423
0.200 6.552 1.350 3666
0.199 6.532 1.327 4004
0.200 6.543 1.309 3170
0.208 6.812 1.337 2750
0.208 6.815 1.317 3054
0.213 6.990 1.327 2947
0.226 7.392 1.374 2367
0.223 7.294 1.335 2156
0.222 7.282 1.312 1637
0.230 7.519 1.328 1720
0.239 7.836 1.355 1860
0.240 7.863 1.336 2374
0.236 7.741 1.294 2150
0.245 8.010 1.311 1955
0.246 8.068 1.296 2102
0.266 8.722 1.364 2698
0.266 8.718 1.338 3967
0.275 8.996 1.350 4087
0.275 8.999 1.324 4782
0.275 9.003 1.297 5360
0.275 9.014 1.272 5372
0.275 9.025 1.247 4023
0.276 9.028 1.221 3204
0.286 9.369 1.234 2382
0.290 9.506 1.223 2078
0.290 9.509 1.195 3043
0.290 9.512 1.167 2732
0.290 9.515 1.140 2095
0.291 9.518 1.112 1758
0.291 9.521 1.084 908
0.287 9.398 1.044 378
0.288 9.424 1.019 278
0.073 2.210 1.685 2473
0.073 2.215 1.679 4946
0.073 2.219 1.672 4946
0.072 2.185 1.639 5361
0.072 2.170 1.619 5957
0.075 2.265 1.676 6950
0.075 2.270 1.669 8427
0.075 2.268 1.659 9076
0.074 2.252 1.639 9632
0.074 2.250 1.628 9419
0.075 2.281 1.639 9544
0.076 2.292 1.637 11093
0.076 2.303 1.635 8892
0.077 2.333 1.646 8305
0.077 2.338 1.639 7783
0.078 2.349 1.637 7299
0.079 2.380 1.647 6789
0.079 2.391 1.645 8529
0.079 2.395 1.638 10227
0.079 2.399 1.631 8686
0.079 2.404 1.624 7145
0.080 2.415 1.622 7281
0.082 2.480 1.652 9353
0.082 2.484 1.645 11030
0.082 2.488 1.638 12708
0.083 2.499 1.635 9897
0.083 2.517 1.636 7795
0.083 2.522 1.629 6584
0.083 2.526 1.622 5372
0.084 2.530 1.615 6158
0.084 2.535 1.607 6944
0.084 2.553 1.608 7205
0.085 2.577 1.613 7974
0.085 2.582 1.606 7589
0.089 2.682 1.654 9191
0.089 2.693 1.650 9485
0.089 2.691 1.638 7404
0.087 2.647 1.603 6717
0.089 2.706 1.627 5762
0.090 2.711 1.619 6405
0.090 2.715 1.611 6748
0.090 2.726 1.607 5471
0.091 2.744 1.607 4076
0.092 2.797 1.625 5421
0.093 2.802 1.617 6430
0.092 2.799 1.606 7857
0.093 2.803 1.598 8999
0.093 2.807 1.590 8530
0.093 2.819 1.585 7021
0.094 2.837 1.584 6092
0.096 2.918 1.616 6021
0.097 2.923 1.608 6300
0.096 2.899 1.585 6997
0.096 2.903 1.577 5485
0.097 2.928 1.579 4030
0.097 2.947 1.578 4261
0.098 2.958 1.573 5471
0.098 2.969 1.568 6036
0.101 3.052 1.597 5974
0.100 3.035 1.578 7990
0.101 3.053 1.577 10404
0.101 3.072 1.575 9179
0.102 3.090 1.573 7614
0.103 3.130 1.580 7674
0.103 3.127 1.568 5366
0.103 3.124 1.556 4257
0.104 3.157 1.560 5329
0.105 3.183 1.561 7244
0.106 3.223 1.568 14874
0.107 3.227 1.559 19051
0.107 3.238 1.553 18062
0.107 3.243 1.543 17263
0.107 3.239 1.531 17187
0.107 3.243 1.522 19485
0.107 3.247 1.512 18167
0.107 3.244 1.500 16067
0.108 3.263 1.497 17284
0.108 3.267 1.487 15831
0.108 3.271 1.478 8768
0.115 3.487 1.556 8858
0.115 3.483 1.543 7176
0.115 3.473 1.527 6135
0.115 3.484 1.520 6722
0.115 3.496 1.513 7106
0.118 3.588 1.538 7720
0.119 3.599 1.530 8731
0.119 3.618 1.526 11226
0.119 3.607 1.510 13401
0.119 3.604 1.496 11414
0.123 3.726 1.531 7721
0.123 3.723 1.517 8208
0.125 3.771 1.523 6219
0.125 3.783 1.515 7558
0.125 3.794 1.507 7014
0.126 3.828 1.507 6782
0.126 3.824 1.493 4941
0.129 3.903 1.509 5131
0.128 3.862 1.482 5633
0.127 3.859 1.468 4680
0.131 3.967 1.493 6077
0.131 3.971 1.482 8631
0.132 3.990 1.475 8367
0.132 4.001 1.466 8472
0.132 4.005 1.455 5893
0.134 4.054 1.458 3832
0.137 4.141 1.473 6220
0.136 4.130 1.457 7926
0.141 4.277 1.491 4858
0.141 4.273 1.476 6042
0.141 4.284 1.466 4991
0.142 4.311 1.461 3980
0.142 4.307 1.446 3534
0.145 4.402 1.461 4437
0.146 4.413 1.451 2734
0.149 4.523 1.470 1650
0.147 4.451 1.434 2738
0.151 4.584 1.459 4490
0.151 4.580 1.443 6346
0.151 4.584 1.430 4118
0.153 4.626 1.428 3769
0.151 4.569 1.397 2612
0.156 4.725 1.426 2823
0.156 4.713 1.408 3119
0.159 4.824 1.424 3166
0.161 4.881 1.424 4738
0.161 4.885 1.410 4556
0.165 5.004 1.426 4015
0.165 5.007 1.411 3251
0.166 5.034 1.403 3941
0.168 5.091 1.401 4295
0.169 5.103 1.389 5248
0.179 5.421 1.451 3638
0.174 5.271 1.398 3932
0.174 5.275 1.383 4551
0.175 5.286 1.369 3431
0.184 5.575 1.420 3006
0.185 5.594 1.408 3571
0.181 5.490 1.367 4327
0.186 5.640 1.384 4588
0.187 5.652 1.369 5347
0.187 5.663 1.355 2830
0.192 5.821 1.371 2475
0.192 5.801 1.350 3207
0.195 5.913 1.355 2893
0.196 5.940 1.343 3191
0.196 5.936 1.324 2827
0.210 6.351 1.389 2961
0.210 6.347 1.369 3344
0.209 6.327 1.346 3239
0.208 6.307 1.323 3540
0.216 6.552 1.350 3993
0.216 6.532 1.327 4468
0.216 6.543 1.309 3486
0.225 6.811 1.337 2633
0.225 6.807 1.316 3071
0.231 6.990 1.327 2641
0.231 7.009 1.309 2179
0.241 7.293 1.335 2107
0.240 7.281 1.312 1757
0.249 7.527 1.329 1536
0.249 7.538 1.309 1802
0.260 7.870 1.337 1988
0.256 7.748 1.295 1988
0.257 7.767 1.275 1844
0.266 8.068 1.296 2432
0.267 8.071 1.272 2954
0.288 8.709 1.337 3563
0.297 8.987 1.349 5100
0.297 8.999 1.324 6039
0.297 9.002 1.297 6598
0.297 9.005 1.271 6518
0.298 9.016 1.246 4940
0.298 9.020 1.220 3878
0.310 9.384 1.236 3063
0.310 9.380 1.208 2329
0.314 9.508 1.195 2666
0.314 9.511 1.167 2342
0.314 9.514 1.140 1738
0.314 9.517 1.112 1371
0.314 9.520 1.084 689
0.311 9.420 1.047 400
0.311 9.423 1.019 306
0.078 2.204 1.680 2605
0.078 2.208 1.674 5210
0.078 2.213 1.668 5210
0.077 2.191 1.643 4873
0.077 2.170 1.619 5341
0.080 2.265 1.676 6587
0.080 2.269 1.669 7901
0.080 2.267 1.659 8463
0.080 2.252 1.639 8842
0.080 2.250 1.628 8638
0.081 2.281 1.639 8692
0.081 2.292 1.637 10167
0.082 2.309 1.639 8246
0.083 2.340 1.650 8290
0.083 2.344 1.643 8316
0.083 2.349 1.637 8342
0.083 2.353 1.630 7489
0.084 2.384 1.640 8918
0.084 2.388 1.634 10820
0.085 2.399 1.631 9133
0.085 2.404 1.624 7584
0.085 2.415 1.622 7794
0.087 2.473 1.648 9650
0.088 2.484 1.645 11461
0.088 2.488 1.638 13325
0.088 2.499 1.635 10364
0.089 2.510 1.632 7942
0.089 2.522 1.629 6776
0.089 2.526 1.622 5627
0.089 2.530 1.615 6466
0.090 2.534 1.607 7306
0.090 2.552 1.608 7387
0.091 2.570 1.609 8259
0.091 2.581 1.606 8113
0.095 2.689 1.657 8884
0.095 2.693 1.650 9223
0.095 2.697 1.642 7245
0.094 2.647 1.603 6246
0.096 2.706 1.627 5782
0.096 2.710 1.619 6477
0.096 2.715 1.611 6985
0.097 2.733 1.611 5769
0.099 2.793 1.633 4281
0.099 2.797 1.625 5528
0.099 2.801 1.617 6509
0.099 2.806 1.609 7776
0.099 2.803 1.598 8689
0.099 2.807 1.590 8183
0.100 2.818 1.585 6701
0.101 2.844 1.588 5896
0.103 2.925 1.620 5035
0.103 2.916 1.604 5656
0.102 2.892 1.582 6440
0.102 2.896 1.573 5140
0.103 2.921 1.576 3892
0.104 2.940 1.574 4446
0.104 2.951 1.569 5651
0.105 2.962 1.564 6051
0.108 3.044 1.594 5588
0.107 3.034 1.578 7737
0.108 3.046 1.573 10242
0.109 3.071 1.575 8862
0.109 3.097 1.576 7666
0.111 3.130 1.580 7239
0.111 3.148 1.578 4621
0.111 3.153 1.569 3821
0.112 3.157 1.560 5326
0.113 3.182 1.561 8601
0.114 3.215 1.565 17483
0.114 3.227 1.559 22450
0.114 3.238 1.553 21632
0.115 3.242 1.543 20778
0.115 3.239 1.531 21551
0.115 3.243 1.522 25073
0.115 3.247 1.512 23450
0.115 3.244 1.500 20916
0.115 3.262 1.497 21551
0.115 3.266 1.487 19834
0.115 3.263 1.475 12150
0.123 3.486 1.556 9552
0.123 3.483 1.543 8184
0.123 3.472 1.527 6371
0.123 3.484 1.520 6806
0.124 3.495 1.513 7751
0.127 3.588 1.538 7243
0.127 3.592 1.528 9029
0.128 3.618 1.526 11272
0.128 3.607 1.510 13620
0.127 3.604 1.496 12144
0.132 3.726 1.531 6838
0.131 3.715 1.515 7718
0.134 3.778 1.526 6164
0.134 3.782 1.515 7525
0.134 3.801 1.510 7746
0.135 3.820 1.504 8361
0.135 3.824 1.493 6167
0.138 3.903 1.509 4712
0.136 3.854 1.479 4740
0.136 3.858 1.468 4261
0.141 3.974 1.496 5584
0.140 3.971 1.482 7441
0.141 3.990 1.475 7454
0.141 4.001 1.466 8137
0.142 4.005 1.455 5963
0.143 4.046 1.456 4102
0.146 4.133 1.471 5930
0.146 4.129 1.457 7395
0.151 4.276 1.491 4882
0.151 4.273 1.476 5929
0.152 4.292 1.468 5162
0.152 4.311 1.461 4307
0.152 4.307 1.446 3774
0.156 4.409 1.463 4140
0.156 4.420 1.453 2857
0.158 4.477 1.456 2384
0.158 4.458 1.436 3565
0.162 4.584 1.459 4108
0.162 4.580 1.443 5989
0.162 4.576 1.428 3388
0.165 4.656 1.436 3313
0.164 4.629 1.414 2720
0.167 4.724 1.426 2608
0.167 4.713 1.408 3371
0.167 4.724 1.397 3554
0.173 4.881 1.424 4100
0.173 4.885 1.410 4032
0.177 5.003 1.426 3818
0.178 5.022 1.415 4443
0.178 5.026 1.401 4986
0.178 5.045 1.390 4201
0.180 5.102 1.389 5232
0.182 5.144 1.383 3287
0.186 5.271 1.398 3690
0.186 5.275 1.383 4289
0.187 5.286 1.369 3140
0.197 5.575 1.420 3096
0.198 5.594 1.408 3847
0.194 5.497 1.369 4826
0.199 5.632 1.382 4390
0.200 5.643 1.368 5245
0.200 5.655 1.353 2717
0.206 5.821 1.371 2553
0.205 5.801 1.350 3460
0.209 5.913 1.355 3104
0.210 5.940 1.343 3461
0.210 5.943 1.326 3047
0.225 6.350 1.389 2798
0.224 6.346 1.369 2908
0.224 6.326 1.346 2838
0.223 6.306 1.323 3403
0.231 6.543 1.348 3982
0.231 6.523 1.325 4523
0.231 6.542 1.309 3519
0.237 6.709 1.319 2491
0.241 6.806 1.316 2969
0.239 6.755 1.287 2296
0.248 7.008 1.309 2333
0.248 7.027 1.292 2128
0.252 7.132 1.288 1693
0.266 7.534 1.330 1396
0.266 7.529 1.307 1915
0.272 7.697 1.311 2038
0.274 7.747 1.295 1826
0.275 7.782 1.278 1749
0.285 8.067 1.296 2551
0.285 8.071 1.272 3003
0.317 8.975 1.374 3839
0.318 8.987 1.349 5574
0.318 8.990 1.323 6603
0.318 8.993 1.296 7114
0.318 9.005 1.271 6992
0.319 9.016 1.246 5310
0.319 9.019 1.220 4067
0.332 9.383 1.236 3620
0.333 9.410 1.212 2705
0.336 9.508 1.195 2294
0.336 9.511 1.167 1928
0.336 9.514 1.140 1343
0.336 9.517 1.112 1010
0.334 9.456 1.078 643
0.333 9.428 1.048 480
0.333 9.414 1.019 330
0.084 2.203 1.680 2829
0.084 2.208 1.674 5659
0.084 2.212 1.668 5659
0.084 2.223 1.666 4806
0.086 2.267 1.687 4921
0.086 2.265 1.676 5977
0.086 2.269 1.669 7041
0.086 2.267 1.659 7529
0.085 2.252 1.639 7878
0.085 2.250 1.628 7719
0.087 2.280 1.639 7756
0.087 2.291 1.637 9159
0.088 2.309 1.639 7619
0.089 2.340 1.650 8409
0.089 2.344 1.643 8952
0.089 2.342 1.632 9525
0.089 2.346 1.626 8574
0.090 2.377 1.636 9040
0.090 2.381 1.629 11001
0.091 2.392 1.627 9255
0.091 2.410 1.628 7716
0.092 2.414 1.622 8048
0.094 2.466 1.644 9724
0.094 2.477 1.641 11646
0.094 2.488 1.638 13735
0.095 2.492 1.631 10826
0.095 2.510 1.632 8295
0.096 2.521 1.629 7049
0.096 2.526 1.622 5952
0.096 2.530 1.615 6914
0.096 2.534 1.607 7877
0.097 2.552 1.608 7677
0.098 2.570 1.609 8567
0.098 2.574 1.602 8703
0.102 2.688 1.657 8423
0.102 2.693 1.650 8625
0.103 2.704 1.646 7016
0.103 2.722 1.646 5555
0.103 2.706 1.627 5677
0.103 2.710 1.619 6274
0.103 2.721 1.615 7057
0.104 2.733 1.611 6135
0.106 2.792 1.633 4866
0.106 2.797 1.625 5680
0.106 2.801 1.617 6549
0.106 2.805 1.609 7527
0.106 2.803 1.598 8045
0.107 2.814 1.593 7553
0.107 2.825 1.589 6294
0.108 2.843 1.588 6059
0.108 2.848 1.580 4948
0.111 2.915 1.604 4908
0.109 2.884 1.578 5782
0.110 2.895 1.573 4860
0.111 2.921 1.576 4345
0.111 2.932 1.571 5218
0.112 2.943 1.566 6167
0.112 2.955 1.561 6167
0.116 3.044 1.594 5861
0.115 3.034 1.578 8294
0.115 3.038 1.570 11123
0.117 3.078 1.578 8793
0.118 3.104 1.579 8048
0.119 3.137 1.584 7139
0.119 3.148 1.578 5195
0.120 3.159 1.572 5410
0.120 3.164 1.563 6723
0.121 3.189 1.564 10821
0.122 3.215 1.565 20568
0.122 3.227 1.559 25884
0.123 3.238 1.553 24886
0.123 3.242 1.543 24131
0.123 3.239 1.531 26112
0.123 3.243 1.522 31051
0.123 3.247 1.512 29333
0.123 3.244 1.500 26216
0.124 3.255 1.494 26572
0.124 3.266 1.487 24179
0.124 3.263 1.475 16048
0.132 3.479 1.553 9852
0.132 3.483 1.543 9258
0.132 3.472 1.527 6808
0.132 3.484 1.520 6784
0.133 3.495 1.513 8273
0.133 3.514 1.509 8717
0.136 3.584 1.525 9295
0.137 3.610 1.523 10533
0.137 3.607 1.510 13037
0.137 3.603 1.496 12635
0.137 3.615 1.489 7084
0.141 3.707 1.512 7660
0.140 3.697 1.496 6490
0.144 3.790 1.518 7108
0.145 3.808 1.512 8090
0.145 3.820 1.504 9687
0.145 3.824 1.493 7533
0.148 3.902 1.509 5045
0.149 3.914 1.500 3538
0.150 3.962 1.505 3937
0.151 3.989 1.501 5640
0.153 4.045 1.507 6920
0.152 3.997 1.478 6330
0.152 4.001 1.466 7525
0.152 4.005 1.455 5979
0.155 4.076 1.466 4328
0.157 4.132 1.471 5456
0.157 4.129 1.457 6213
0.162 4.276 1.491 4449
0.162 4.280 1.478 5373
0.163 4.291 1.468 5207
0.163 4.303 1.458 4641
0.163 4.299 1.444 4075
0.167 4.409 1.463 3690
0.168 4.420 1.453 3108
0.169 4.462 1.451 3306
0.169 4.466 1.439 4404
0.170 4.484 1.430 3874
0.174 4.579 1.443 5189
0.173 4.568 1.426 3264
0.175 4.625 1.428 3054
0.176 4.629 1.414 2748
0.178 4.694 1.418 2677
0.179 4.705 1.406 3363
0.179 4.724 1.397 3793
0.189 4.987 1.452 3697
0.189 4.991 1.438 3165
0.190 5.010 1.428 4104
0.191 5.022 1.415 6520
0.191 5.025 1.401 6046
0.191 5.021 1.384 4020
0.197 5.186 1.410 4601
0.198 5.228 1.404 3920
0.199 5.247 1.393 3653
0.200 5.282 1.385 4011
0.201 5.293 1.371 2788
0.212 5.574 1.420 2933
0.213 5.601 1.410 3824
0.209 5.497 1.369 4964
0.213 5.624 1.381 4335
0.214 5.635 1.366 4800
0.213 5.615 1.345 2774
0.221 5.820 1.371 2782
0.220 5.800 1.350 3514
0.224 5.905 1.354 3224
0.225 5.939 1.343 3438
0.225 5.943 1.326 3014
0.241 6.350 1.389 2520
0.233 6.151 1.331 2844
0.240 6.318 1.344 2177
0.239 6.298 1.322 3104
0.248 6.535 1.347 3803
0.248 6.523 1.325 4536
0.248 6.542 1.309 3639
0.248 6.545 1.290 2386
0.256 6.759 1.308 3102
0.256 6.755 1.287 2538
0.266 7.015 1.311 2214
0.266 7.011 1.289 2447
0.270 7.124 1.286 1692
0.280 7.377 1.306 1508
0.286 7.529 1.307 2037
0.285 7.516 1.283 2074
0.294 7.747 1.295 1618
0.296 7.789 1.279 1639
0.306 8.066 1.296 2438
0.306 8.070 1.272 2828
0.341 8.974 1.374 3914
0.341 8.986 1.349 5547
0.341 8.989 1.323 6739
0.341 8.993 1.296 7349
0.342 9.004 1.271 7225
0.342 9.007 1.245 5564
0.342 9.010 1.219 4257
0.356 9.375 1.235 4177
0.357 9.401 1.211 2896
0.354 9.334 1.176 2052
0.355 9.353 1.150 1538
0.356 9.371 1.125 1358
0.359 9.453 1.106 1104
0.359 9.455 1.078 1091
0.358 9.442 1.049 703
0.357 9.414 1.019 394
0.088 2.203 1.680 2976
0.089 2.208 1.674 5952
0.089 2.212 1.668 5952
0.089 2.217 1.661 4733
0.091 2.267 1.687 4375
0.091 2.265 1.676 5120
0.091 2.269 1.669 5871
0.091 2.267 1.659 6274
0.090 2.245 1.634 6703
0.090 2.250 1.628 6561
0.091 2.280 1.639 6683
0.092 2.291 1.637 7995
0.093 2.315 1.644 6933
0.094 2.339 1.650 8200
0.094 2.344 1.643 9205
0.094 2.342 1.632 10244
0.094 2.346 1.626 9174
0.095 2.364 1.628 8993
0.095 2.381 1.629 10913
0.096 2.392 1.627 9193
0.097 2.410 1.628 7844
0.097 2.414 1.622 8249
0.099 2.459 1.640 9249
0.099 2.477 1.641 11144
0.100 2.488 1.638 13328
0.100 2.492 1.631 10632
0.101 2.510 1.632 8208
0.101 2.514 1.625 7051
0.101 2.525 1.622 6032
0.101 2.530 1.615 7165
0.102 2.534 1.607 8297
0.102 2.552 1.608 7798
