-0.038 0.946 0.656 9263
-0.038 0.947 0.653 10951
-0.038 0.949 0.651 13118
-0.038 0.950 0.648 14379
-0.038 0.959 0.649 15462
-0.038 0.953 0.643 16406
-0.038 0.955 0.640 16603
-0.038 0.956 0.637 15229
-0.038 0.958 0.635 14202
-0.038 0.959 0.632 12146
-0.065 1.628 0.992 12045
-0.065 1.631 0.987 14245
-0.065 1.633 0.983 15431
-0.065 1.636 0.978 15761
-0.065 1.638 0.973 15357
-0.065 1.640 0.969 14623
-0.066 1.643 0.964 12856
-0.066 1.645 0.959 9013
-0.066 1.648 0.955 6936
-0.066 1.650 0.950 5067
-0.122 3.065 1.659 4297
-0.123 3.069 1.650 6577
-0.123 3.074 1.641 8327
-0.123 3.078 1.632 12183
-0.123 3.075 1.620 15837
-0.123 3.079 1.611 15475
-0.123 3.091 1.606 12502
-0.124 3.109 1.604 10517
-0.124 3.114 1.595 9450
-0.035 0.865 0.521 8516
-0.035 0.873 0.522 11252
-0.035 0.874 0.520 11078
-0.035 0.882 0.521 11591
-0.035 0.869 0.512 14243
-0.035 0.870 0.509 19914
-0.034 0.864 0.504 27930
-0.035 0.865 0.501 33702
-0.035 0.866 0.499 36312
-0.035 0.867 0.497 31821
-0.035 0.868 0.494 22984
-0.035 0.869 0.492 16200
-0.034 0.863 0.486 13340
-0.034 0.864 0.484 13065
-0.035 0.865 0.482 11325
-0.035 0.873 0.482 8289
-0.035 0.882 0.483 6769
-0.036 0.890 0.484 7830
-0.036 0.891 0.481 7818
-0.036 0.892 0.479 5940
-0.036 0.900 0.479 4007
-0.036 0.901 0.477 2334
-0.077 1.925 0.879 2375
-0.077 1.934 0.877 2748
-0.155 3.875 1.626 2787
-0.077 1.938 0.866 2362
-0.156 3.913 1.615 2612
-0.156 3.903 1.598 2196
-0.154 3.848 1.565 2192
-0.153 3.845 1.551 2771
-0.153 3.841 1.537 4342
-0.154 3.853 1.529 4199
-0.155 3.886 1.528 3222
-0.155 3.883 1.515 2687
-0.159 3.991 1.541 5075
-0.159 3.995 1.529 7748
-0.163 4.074 1.544 6010
-0.162 4.071 1.529 6831
-0.162 4.067 1.515 8161
-0.163 4.071 1.503 7911
-0.163 4.083 1.494 6930
-0.083 2.075 0.812 6199
-0.083 2.077 0.806 5378
-0.169 4.237 1.505 5335
-0.169 4.234 1.491 4536
-0.175 4.388 1.527 3691
-0.175 4.385 1.512 5104
-0.177 4.442 1.516 4214
-0.178 4.468 1.510 3963
-0.179 4.488 1.502 5324
-0.180 4.499 1.491 4482
-0.181 4.526 1.485 3107
-0.179 4.492 1.460 3149
-0.183 4.594 1.477 4570
-0.184 4.606 1.466 4414
-0.182 4.572 1.441 2701
-0.189 4.743 1.476 1616
-0.189 4.731 1.458 2474
-0.198 4.948 1.504 3431
-0.198 4.968 1.494 4777
-0.199 4.979 1.481 4221
-0.200 4.998 1.471 2331
-0.203 5.094 1.481 3148
-0.203 5.098 1.466 6409
-0.208 5.201 1.477 5499
-0.209 5.228 1.468 7204
-0.209 5.232 1.453 7479
-0.206 5.167 1.421 7001
-0.208 5.217 1.417 4839
-0.218 5.451 1.458 4450
-0.218 5.455 1.443 4311
-0.223 5.589 1.458 4727
-0.222 5.570 1.436 4130
-0.226 5.658 1.440 3735
-0.229 5.739 1.441 4981
-0.229 5.728 1.421 3736
-0.228 5.716 1.401 3079
-0.235 5.882 1.420 3171
-0.238 5.971 1.422 2366
-0.238 5.967 1.403 2842
-0.246 6.172 1.428 2717
-0.247 6.183 1.412 2794
-0.247 6.194 1.395 2258
-0.253 6.330 1.404 2743
-0.253 6.334 1.386 2645
-0.253 6.345 1.369 3171
-0.265 6.651 1.409 2700
-0.269 6.733 1.404 2383
-0.264 6.620 1.363 2143
-0.264 6.623 1.344 1723
-0.292 7.304 1.447 1588
-0.292 7.308 1.425 2047
-0.302 7.561 1.448 2392
-0.302 7.565 1.426 2963
-0.302 7.561 1.403 2439
-0.313 7.830 1.425 2430
-0.313 7.834 1.402 2372
-0.313 7.845 1.380 1976
-0.319 7.989 1.380 2171
-0.322 8.063 1.367 1748
-0.354 8.857 1.463 1981
-0.354 8.868 1.438 2709
-0.354 8.864 1.411 2621
-0.354 8.860 1.384 3133
-0.354 8.864 1.358 3656
-0.357 8.946 1.343 3731
-0.355 8.887 1.309 3008
-0.355 8.882 1.282 2452
-0.379 9.490 1.333 2022
-0.379 9.493 1.305 1666
-0.379 9.496 1.278 882
-0.379 9.500 1.250 648
-0.379 9.503 1.223 451
-0.038 0.946 0.231 258
-0.038 0.954 0.229 294
-0.037 0.939 0.214 306
-0.037 0.939 0.212 325
-0.145 3.632 -0.270 300
-0.145 3.631 -0.280 300
-0.038 1.008 0.822 2715
-0.086 2.285 1.729 4443
-0.087 2.290 1.723 4443
-0.028 0.736 0.618 4907
-0.028 0.737 0.616 6704
-0.028 0.738 0.614 7607
-0.028 0.740 0.612 8509
-0.086 2.287 1.672 7604
-0.087 2.291 1.665 8682
-0.087 2.296 1.659 9803
-0.028 0.745 0.604 9846
-0.028 0.747 0.602 12347
-0.028 0.748 0.600 16412
-0.028 0.749 0.598 20525
-0.028 0.744 0.591 22850
-0.028 0.745 0.589 23504
-0.028 0.747 0.587 24305
-0.028 0.748 0.585 22152
-0.029 0.756 0.588 19757
-0.028 0.751 0.581 16070
-0.028 0.752 0.579 12348
-0.028 0.753 0.577 10243
-0.029 0.754 0.575 7642
-0.029 0.762 0.577 6390
-0.029 0.764 0.575 5700
-0.029 0.765 0.573 4805
-0.029 0.766 0.571 3595
-0.029 0.767 0.569 2850
-0.100 2.641 1.691 2913
-0.100 2.645 1.684 3755
-0.100 2.650 1.676 4597
-0.101 2.661 1.672 4010
-0.101 2.679 1.673 3837
-0.036 0.953 0.660 3369
-0.101 2.681 1.654 3855
-0.102 2.686 1.646 5399
-0.101 2.683 1.634 5385
-0.102 2.688 1.627 5444
-0.102 2.699 1.623 7308
-0.102 2.703 1.615 9279
-0.103 2.714 1.611 8993
-0.104 2.746 1.619 6617
-0.061 1.626 0.996 8654
-0.062 1.628 0.992 10445
-0.062 1.631 0.987 12847
-0.062 1.633 0.983 14172
-0.062 1.636 0.978 14578
-0.062 1.638 0.973 14551
-0.062 1.641 0.969 14119
-0.062 1.643 0.964 12783
-0.062 1.638 0.956 10399
-0.062 1.648 0.955 9225
-0.062 1.643 0.946 8262
-0.063 1.653 0.945 6366
-0.116 3.069 1.650 5640
-0.116 3.074 1.641 7342
-0.116 3.071 1.629 11406
-0.116 3.075 1.620 15492
-0.116 3.080 1.611 15380
-0.117 3.091 1.606 11609
-0.118 3.110 1.604 8824
-0.118 3.114 1.595 8284
-0.118 3.111 1.583 6905
-0.033 0.873 0.522 7520
-0.033 0.874 0.520 8241
-0.119 3.152 1.569 10188
-0.119 3.149 1.557 9743
-0.119 3.153 1.548 8254
-0.125 3.302 1.604 9516
-0.033 0.872 0.505 10782
-0.033 0.874 0.502 16659
-0.033 0.875 0.500 18432
-0.033 0.876 0.497 18156
-0.033 0.877 0.495 17655
-0.033 0.878 0.493 15286
-0.033 0.879 0.490 12080
-0.034 0.887 0.491 14234
-0.034 0.888 0.488 16864
-0.034 0.889 0.486 12588
-0.034 0.890 0.484 8277
-0.034 0.891 0.481 6584
-0.034 0.892 0.479 4779
-0.034 0.893 0.476 3574
-0.034 0.887 0.471 3141
-0.034 0.888 0.468 3469
-0.034 0.896 0.469 3661
-0.073 1.936 0.871 3035
-0.073 1.939 0.866 3655
-0.073 1.941 0.860 3745
-0.073 1.943 0.855 3248
-0.074 1.945 0.849 2392
-0.146 3.852 1.554 3040
-0.145 3.842 1.537 4588
-0.146 3.853 1.529 4086
-0.148 3.902 1.534 3144
-0.150 3.958 1.541 2886
-0.151 3.984 1.538 5011
-0.151 3.996 1.529 7591
-0.154 4.067 1.541 6015
-0.154 4.064 1.527 6172
-0.154 4.068 1.515 7177
-0.154 4.072 1.503 7527
-0.154 4.083 1.494 6815
-0.155 4.095 1.485 5489
-0.160 4.234 1.518 4574
-0.160 4.238 1.505 5725
-0.160 4.242 1.493 4386
-0.166 4.396 1.529 3261
-0.166 4.393 1.514 4237
-0.167 4.427 1.511 4176
-0.169 4.469 1.510 3511
-0.170 4.488 1.502 4598
-0.170 4.499 1.491 3493
-0.171 4.534 1.487 2477
-0.170 4.492 1.460 2721
-0.174 4.595 1.477 4199
-0.175 4.614 1.468 4133
-0.173 4.572 1.441 2733
-0.173 4.583 1.430 1504
-0.179 4.739 1.460 1866
-0.187 4.949 1.504 3082
-0.188 4.968 1.494 4803
-0.189 4.987 1.483 4516
-0.190 5.022 1.477 2773
-0.193 5.094 1.481 3638
-0.193 5.098 1.466 6637
-0.197 5.202 1.477 5394
-0.198 5.229 1.468 6728
-0.198 5.232 1.453 6741
-0.197 5.206 1.430 6996
-0.197 5.217 1.417 4976
-0.206 5.451 1.458 4080
-0.206 5.447 1.441 3839
-0.209 5.520 1.442 4158
-0.212 5.601 1.444 3805
-0.214 5.651 1.438 3776
-0.217 5.740 1.441 5159
-0.217 5.728 1.421 3880
-0.216 5.709 1.399 3092
-0.222 5.882 1.420 3115
-0.225 5.956 1.418 2427
-0.226 5.967 1.403 2720
-0.233 6.172 1.428 2687
-0.234 6.184 1.412 3265
-0.234 6.187 1.394 2902
-0.239 6.323 1.402 2878
-0.240 6.334 1.386 2853
-0.240 6.345 1.369 3323
-0.240 6.341 1.349 2483
-0.247 6.531 1.366 2004
-0.257 6.792 1.395 1919
-0.255 6.748 1.367 1790
-0.256 6.760 1.348 1506
-0.271 7.153 1.398 1950
-0.286 7.562 1.448 2629
-0.286 7.565 1.426 3238
-0.286 7.554 1.401 2743
-0.296 7.830 1.425 2704
-0.297 7.842 1.403 2704
-0.297 7.846 1.380 2369
-0.302 7.990 1.380 1968
-0.305 8.064 1.367 1591
-0.335 8.858 1.463 2216
-0.335 8.861 1.437 2926
-0.335 8.857 1.410 3044
-0.335 8.861 1.384 3528
-0.335 8.865 1.358 3963
-0.338 8.946 1.343 4281
-0.336 8.887 1.309 3563
-0.336 8.883 1.282 2891
-0.336 8.878 1.255 2085
-0.336 8.881 1.230 1607
-0.336 8.892 1.205 959
-0.359 9.500 1.250 530
-0.359 9.504 1.223 366
-0.036 0.962 0.230 271
-0.036 0.954 0.226 280
-0.036 0.954 0.224 279
-0.036 0.955 0.221 276
-0.036 0.955 0.218 292
-0.137 3.634 -0.259 274
-0.137 3.633 -0.270 403
-0.137 3.632 -0.280 403
-0.036 1.027 0.836 3330
-0.081 2.292 1.734 4262
-0.081 2.297 1.727 4262
-0.081 2.295 1.716 3403
-0.080 2.254 1.678 4072
-0.080 2.271 1.680 5471
-0.081 2.282 1.678 7496
-0.081 2.287 1.672 7406
-0.081 2.291 1.665 7855
-0.081 2.296 1.659 8394
-0.026 0.745 0.604 8265
-0.027 0.753 0.606 8378
-0.027 0.755 0.604 9015
-0.027 0.749 0.598 8899
-0.027 0.751 0.596 7966
-0.027 0.752 0.594 7194
-0.027 0.753 0.592 6415
-0.027 0.755 0.590 6232
-0.027 0.749 0.583 6126
-0.027 0.751 0.581 6354
-0.026 0.745 0.575 6699
-0.027 0.753 0.577 7354
-0.027 0.754 0.575 7823
-0.027 0.762 0.577 7454
-0.027 0.764 0.575 7060
-0.027 0.765 0.573 5411
-0.027 0.766 0.571 3341
-0.095 2.677 1.723 2630
-0.094 2.668 1.707 2889
-0.094 2.646 1.684 3268
-0.094 2.650 1.676 3877
-0.094 2.661 1.672 3480
-0.095 2.686 1.677 3739
-0.095 2.698 1.673 3132
-0.095 2.695 1.661 3112
-0.095 2.686 1.646 3906
-0.034 0.957 0.652 5170
-0.034 0.966 0.653 7769
-0.034 0.967 0.650 9784
-0.034 0.969 0.648 11229
-0.034 0.970 0.645 12231
-0.034 0.972 0.642 12136
-0.034 0.973 0.640 10848
-0.035 0.975 0.637 7813
-0.099 2.794 1.614 7051
-0.058 1.633 0.983 6399
-0.058 1.629 0.974 7352
-0.058 1.631 0.970 9177
-0.058 1.641 0.969 10146
-0.058 1.643 0.964 10649
-0.058 1.646 0.959 11002
-0.058 1.648 0.955 10853
-0.058 1.650 0.950 9828
-0.059 1.653 0.945 7256
-0.059 1.655 0.941 5710
-0.109 3.067 1.638 5542
-0.108 3.064 1.625 9634
-0.109 3.069 1.617 14337
-0.109 3.073 1.608 14865
-0.109 3.091 1.606 11297
-0.110 3.110 1.604 8683
-0.110 3.114 1.595 8641
-0.110 3.104 1.579 8144
-0.110 3.101 1.567 8066
-0.110 3.120 1.565 8925
-0.059 1.680 0.889 10863
-0.060 1.689 0.888 11934
-0.060 1.691 0.883 11949
-0.060 1.694 0.878 10688
-0.031 0.887 0.511 12975
-0.031 0.888 0.509 15744
-0.031 0.889 0.506 17226
-0.032 0.890 0.504 16191
-0.032 0.891 0.501 14334
-0.031 0.885 0.496 16475
-0.031 0.886 0.493 20797
-0.032 0.894 0.494 24951
-0.032 0.895 0.492 26167
-0.032 0.896 0.489 20548
-0.032 0.905 0.490 15149
-0.032 0.906 0.487 10956
-0.032 0.899 0.482 7592
-0.032 0.900 0.479 5481
-0.032 0.894 0.474 3302
-0.068 1.925 0.879 1852
-0.068 1.934 0.877 1850
-0.069 1.937 0.871 2243
-0.069 1.946 0.869 2262
-0.069 1.948 0.863 1806
-0.137 3.859 1.582 1835
-0.138 3.885 1.579 3167
-0.137 3.882 1.565 4091
-0.136 3.849 1.540 5018
-0.136 3.853 1.529 4053
-0.140 3.947 1.550 3073
-0.140 3.958 1.541 3312
-0.141 3.977 1.535 5483
-0.141 3.996 1.529 8172
-0.142 4.000 1.518 6680
-0.144 4.057 1.524 5253
-0.144 4.061 1.512 5682
-0.148 4.184 1.541 7265
-0.074 2.081 0.820 7237
-0.073 2.076 0.812 7760
-0.074 2.078 0.806 7284
-0.074 2.080 0.800 6074
-0.074 2.082 0.794 4850
-0.074 2.083 0.788 3000
-0.153 4.325 1.493 3918
-0.155 4.367 1.492 3928
-0.155 4.371 1.479 3672
-0.154 4.360 1.462 3703
-0.155 4.371 1.452 3004
-0.158 4.451 1.462 2134
-0.158 4.477 1.456 2517
-0.163 4.610 1.481 3955
-0.163 4.614 1.468 3890
-0.162 4.580 1.443 2941
-0.162 4.584 1.430 1621
-0.166 4.702 1.449 1732
-0.172 4.850 1.476 3075
-0.176 4.976 1.496 5006
-0.177 4.988 1.483 5298
-0.178 5.022 1.477 3760
-0.180 5.072 1.475 3996
-0.180 5.091 1.464 6521
-0.180 5.095 1.450 4986
-0.185 5.229 1.468 5741
-0.185 5.233 1.453 5657
-0.184 5.206 1.430 6566
-0.185 5.217 1.417 4687
-0.190 5.367 1.438 3658
-0.190 5.371 1.422 3524
-0.190 5.375 1.407 3765
-0.198 5.602 1.444 3138
-0.201 5.690 1.447 3853
-0.203 5.725 1.438 5166
-0.203 5.729 1.421 3972
-0.202 5.702 1.398 3063
-0.209 5.891 1.422 3266
-0.209 5.902 1.407 2683
-0.211 5.960 1.401 2501
-0.218 6.165 1.426 2696
-0.219 6.184 1.412 3846
-0.219 6.188 1.394 3856
-0.224 6.315 1.401 2988
-0.224 6.335 1.386 2998
-0.225 6.346 1.369 3441
-0.224 6.342 1.349 2527
-0.240 6.773 1.412 1915
-0.240 6.784 1.393 1928
-0.239 6.757 1.368 1850
-0.257 7.251 1.437 1640
-0.253 7.146 1.396 1919
-0.268 7.562 1.448 2753
-0.268 7.558 1.424 3514
-0.267 7.554 1.401 3096
-0.277 7.831 1.425 2940
-0.278 7.843 1.403 2987
-0.278 7.854 1.382 2861
-0.278 7.858 1.359 2331
-0.292 8.252 1.396 1622
-0.314 8.858 1.463 2342
-0.313 8.854 1.436 3010
-0.314 8.858 1.410 3391
-0.314 8.862 1.384 3932
-0.314 8.865 1.358 4255
-0.317 8.947 1.343 4578
-0.314 8.880 1.308 3942
-0.314 8.884 1.282 3224
-0.314 8.879 1.255 2335
-0.314 8.882 1.230 1796
-0.315 8.893 1.205 1098
-0.329 9.297 1.226 537
-0.332 9.387 1.209 414
-0.034 1.027 0.836 6543
-0.034 1.029 0.833 5399
-0.034 1.031 0.830 4162
-0.034 1.033 0.827 4038
-0.034 1.035 0.825 3214
-0.075 2.278 1.685 4732
-0.076 2.283 1.678 6724
-0.076 2.294 1.676 6702
-0.076 2.292 1.665 6941
-0.025 0.744 0.606 8272
-0.025 0.745 0.604 10027
-0.025 0.747 0.602 10985
-0.025 0.748 0.600 12281
-0.025 0.749 0.598 11237
-0.025 0.744 0.591 9308
-0.025 0.745 0.589 7739
-0.025 0.747 0.587 6140
-0.025 0.741 0.581 6145
-0.025 0.756 0.588 6694
-0.025 0.757 0.585 6883
-0.025 0.759 0.583 6717
-0.025 0.767 0.586 6418
-0.025 0.768 0.584 6139
-0.025 0.763 0.577 5738
-0.025 0.764 0.575 5231
-0.025 0.765 0.573 4395
-0.025 0.760 0.567 3033
-0.089 2.671 1.719 2819
-0.088 2.669 1.707 3290
-0.088 2.646 1.684 3308
-0.088 2.644 1.672 3779
-0.088 2.662 1.672 3396
-0.089 2.687 1.677 3698
-0.089 2.698 1.673 3025
-0.031 0.948 0.653 3166
-0.032 0.956 0.655 4660
-0.032 0.957 0.652 6330
-0.032 0.966 0.653 8429
-0.032 0.974 0.654 9627
-0.032 0.969 0.648 9423
-0.032 0.977 0.649 7719
-0.092 2.768 1.630 7065
-0.093 2.800 1.637 6606
-0.093 2.797 1.625 8025
-0.093 2.802 1.617 8636
-0.093 2.806 1.609 6702
-0.094 2.831 1.613 3659
-0.054 1.631 0.970 3565
-0.054 1.634 0.965 4207
-0.054 1.636 0.960 4676
-0.054 1.639 0.956 5190
-0.055 1.648 0.955 5285
-0.099 2.983 1.628 5286
-0.099 2.988 1.620 4726
-0.100 3.027 1.629 3450
-0.101 3.053 1.631 4711
-0.101 3.057 1.622 8208
-0.102 3.069 1.617 12516
-0.102 3.073 1.608 13412
-0.102 3.085 1.602 10020
-0.103 3.110 1.604 7385
-0.056 1.678 0.911 8095
-0.056 1.681 0.907 8744
-0.056 1.683 0.902 9189
-0.103 3.113 1.561 9678
-0.056 1.680 0.889 9804
-0.056 1.682 0.884 10276
-0.056 1.692 0.883 10646
-0.056 1.694 0.878 10327
-0.109 3.292 1.588 9721
-0.029 0.881 0.505 11136
-0.029 0.889 0.506 15752
-0.030 0.890 0.504 17908
-0.030 0.891 0.501 16487
-0.029 0.885 0.496 13323
-0.029 0.886 0.493 11658
-0.029 0.887 0.491 16477
-0.030 0.895 0.492 22523
-0.030 0.897 0.489 21295
-0.030 0.898 0.487 14746
-0.030 0.906 0.487 7783
-0.030 0.907 0.485 5715
-0.030 0.901 0.479 6981
-0.030 0.902 0.477 5874
-0.030 0.903 0.474 4165
-0.030 0.903 0.472 2870
-0.030 0.897 0.466 1936
-0.127 3.821 1.592 1869
-0.065 1.948 0.863 2405
-0.065 1.951 0.858 2862
-0.129 3.893 1.582 3435
-0.128 3.860 1.556 3721
-0.128 3.850 1.540 4756
-0.128 3.854 1.529 3556
-0.130 3.925 1.542 3572
-0.130 3.921 1.528 3608
-0.132 3.985 1.538 5290
-0.132 3.996 1.529 8775
-0.133 4.001 1.518 7661
-0.133 4.019 1.511 5341
-0.138 4.173 1.551 5333
-0.139 4.185 1.541 7507
-0.069 2.081 0.820 8155
-0.069 2.083 0.814 8604
-0.069 2.085 0.809 6905
-0.141 4.269 1.515 5095
-0.142 4.273 1.503 3700
-0.143 4.322 1.505 3578
-0.143 4.326 1.493 4427
-0.146 4.413 1.506 3269
-0.145 4.379 1.482 3549
-0.144 4.360 1.462 3788
-0.145 4.371 1.452 2777
-0.148 4.459 1.464 2611
-0.148 4.478 1.456 3005
-0.153 4.626 1.486 3666
-0.153 4.614 1.468 3535
-0.152 4.580 1.443 2882
-0.156 4.698 1.463 2139
-0.156 4.694 1.447 2157
-0.161 4.843 1.474 3179
-0.165 4.977 1.496 5014
-0.165 4.988 1.483 5822
-0.166 5.023 1.477 4648
-0.168 5.072 1.475 4172
-0.168 5.076 1.460 6215
-0.169 5.095 1.450 5503
-0.173 5.229 1.468 4735
-0.173 5.233 1.453 4743
-0.173 5.206 1.430 5798
-0.170 5.118 1.392 4709
-0.178 5.375 1.440 3610
-0.178 5.371 1.422 3721
-0.178 5.375 1.407 3822
-0.185 5.579 1.438 2918
-0.189 5.698 1.449 3830
-0.190 5.725 1.438 4925
-0.190 5.729 1.421 3832
-0.189 5.694 1.396 3033
-0.195 5.891 1.422 3337
-0.196 5.903 1.407 3074
-0.194 5.868 1.381 2296
-0.204 6.165 1.426 2847
-0.205 6.185 1.412 4098
-0.205 6.188 1.394 4446
-0.205 6.192 1.376 3134
-0.210 6.335 1.386 2869
-0.210 6.339 1.367 3383
-0.210 6.342 1.349 2383
-0.224 6.773 1.412 2032
-0.224 6.769 1.390 1909
-0.224 6.765 1.369 1753
-0.240 7.252 1.437 1676
-0.234 7.068 1.383 2014
-0.251 7.563 1.448 2667
-0.251 7.567 1.426 3507
-0.250 7.555 1.401 3152
-0.260 7.832 1.425 2928
-0.260 7.843 1.403 3039
-0.260 7.855 1.382 3170
-0.260 7.858 1.359 2675
-0.274 8.253 1.396 1900
-0.293 8.851 1.461 2218
-0.293 8.855 1.436 2831
-0.294 8.859 1.410 3364
-0.294 8.862 1.384 3887
-0.294 8.866 1.358 4113
-0.297 8.948 1.343 4519
-0.294 8.881 1.308 3986
-0.294 8.884 1.282 3272
-0.294 8.880 1.255 2373
-0.295 8.891 1.231 1798
-0.308 9.302 1.254 1166
-0.308 9.306 1.227 787
-0.311 9.387 1.209 471
-0.032 0.970 0.230 269
-0.032 0.970 0.228 276
-0.120 3.633 -0.270 344
-0.120 3.632 -0.280 344
-0.032 1.027 0.836 4771
-0.070 2.286 1.729 3740
-0.071 2.290 1.723 3740
-0.023 0.742 0.622 4434
-0.023 0.744 0.620 5873
-0.023 0.745 0.618 7035
-0.023 0.753 0.621 8228
-0.023 0.754 0.619 8587
-0.023 0.756 0.617 8749
-0.023 0.757 0.615 9096
-0.023 0.759 0.613 9853
-0.023 0.760 0.611 11369
-0.023 0.755 0.604 13472
-0.023 0.756 0.602 14575
-0.023 0.751 0.596 14636
-0.023 0.752 0.594 13078
-0.023 0.760 0.596 11915
-0.023 0.761 0.594 10041
-0.024 0.769 0.596 7753
-0.024 0.771 0.594 6074
-0.024 0.772 0.592 4118
-0.024 0.773 0.590 2901
-0.023 0.755 0.575 2328
-0.023 0.763 0.577 2124
-0.024 0.771 0.579 2012
-0.024 0.772 0.577 1766
-0.024 0.766 0.571 1790
-0.082 2.664 1.715 2271
-0.082 2.655 1.699 3022
-0.082 2.646 1.684 3267
-0.081 2.644 1.672 3699
-0.082 2.655 1.668 3323
-0.083 2.680 1.673 3384
-0.083 2.698 1.673 2642
-0.083 2.709 1.669 2392
-0.030 0.963 0.658 2980
-0.084 2.739 1.666 4337
-0.085 2.750 1.662 6453
-0.085 2.769 1.661 6838
-0.086 2.780 1.657 8008
-0.086 2.784 1.649 7224
-0.030 0.979 0.646 6587
-0.086 2.800 1.637 6532
-0.086 2.797 1.625 8124
-0.086 2.795 1.614 9395
-0.086 2.799 1.606 7116
-0.050 1.629 0.974 3759
-0.050 1.632 0.970 4397
-0.051 1.641 0.969 4636
-0.050 1.636 0.960 4568
-0.050 1.639 0.956 4246
-0.090 2.916 1.604 4304
-0.092 2.984 1.628 5175
-0.092 2.995 1.623 4595
-0.093 3.021 1.625 3979
-0.094 3.053 1.631 4329
-0.094 3.051 1.618 6490
-0.094 3.062 1.613 9087
-0.094 3.066 1.604 9610
-0.095 3.085 1.602 7169
-0.095 3.096 1.597 7724
-0.095 3.100 1.588 10716
-0.095 3.097 1.576 11531
-0.096 3.102 1.567 11393
-0.096 3.106 1.558 10230
-0.096 3.117 1.552 9297
-0.096 3.128 1.547 9362
-0.099 3.219 1.577 9502
-0.099 3.230 1.571 8631
-0.101 3.278 1.581 7600
-0.101 3.289 1.575 5890
-0.027 0.882 0.503 6638
-0.027 0.890 0.504 10800
-0.027 0.891 0.501 15929
-0.027 0.892 0.499 22082
-0.028 0.893 0.496 25422
-0.028 0.895 0.494 27186
-0.028 0.896 0.492 26766
-0.028 0.897 0.489 21665
-0.028 0.905 0.490 16972
-0.028 0.906 0.487 13453
-0.028 0.907 0.485 10022
-0.028 0.908 0.482 7486
-0.028 0.909 0.480 4675
-0.060 1.933 0.882 5342
-0.060 1.935 0.877 5314
-0.060 1.937 0.871 4237
-0.060 1.939 0.866 3076
-0.119 3.855 1.593 2624
-0.120 3.882 1.590 3297
-0.120 3.908 1.587 3420
-0.121 3.912 1.576 3512
-0.119 3.857 1.543 4166
-0.121 3.913 1.551 3585
-0.120 3.910 1.537 4162
-0.121 3.914 1.525 4933
-0.123 3.993 1.541 4406
-0.123 3.997 1.529 7722
-0.123 4.001 1.518 7413
-0.124 4.012 1.509 5879
-0.124 4.031 1.502 5989
-0.129 4.185 1.541 7620
-0.064 2.089 0.823 7746
-0.064 2.091 0.817 8560
-0.064 2.093 0.811 7717
-0.064 2.087 0.803 6184
-0.064 2.089 0.797 5289
-0.133 4.322 1.505 4322
-0.133 4.334 1.495 4712
-0.133 4.330 1.480 2913
-0.136 4.402 1.489 3236
-0.134 4.360 1.462 3773
-0.134 4.364 1.450 2487
-0.137 4.459 1.464 3014
-0.138 4.493 1.460 3575
-0.139 4.512 1.452 3647
-0.142 4.600 1.463 3285
-0.141 4.581 1.443 2692
-0.145 4.699 1.463 2461
-0.145 4.695 1.447 2593
-0.149 4.843 1.474 3462
-0.153 4.977 1.496 4803
-0.154 4.989 1.483 5915
-0.155 5.023 1.477 5261
-0.155 5.027 1.463 4602
-0.156 5.077 1.460 5912
-0.157 5.103 1.451 6189
-0.158 5.123 1.441 5348
-0.158 5.134 1.428 5533
-0.158 5.115 1.407 5851
-0.158 5.118 1.392 5138
-0.166 5.383 1.442 3458
-0.166 5.379 1.424 3705
-0.166 5.383 1.409 3841
-0.171 5.564 1.435 3425
-0.172 5.591 1.424 3925
-0.176 5.726 1.438 4241
-0.176 5.730 1.421 3564
-0.175 5.687 1.394 2907
-0.181 5.884 1.420 3268
-0.182 5.895 1.405 3433
-0.181 5.883 1.385 2680
-0.190 6.166 1.426 2843
-0.191 6.185 1.412 4068
-0.191 6.189 1.394 4646
-0.191 6.192 1.376 3488
-0.194 6.305 1.379 2662
-0.195 6.331 1.366 3098
-0.195 6.335 1.347 2201
-0.209 6.774 1.412 2046
-0.209 6.770 1.390 1727
-0.213 6.929 1.399 2027
-0.218 7.065 1.403 1849
-0.218 7.069 1.383 2279
-0.233 7.564 1.448 2403
-0.233 7.567 1.426 3397
-0.233 7.563 1.403 3080
-0.233 7.551 1.378 2758
-0.242 7.852 1.404 2937
-0.242 7.855 1.382 3320
-0.242 7.851 1.358 2902
-0.254 8.254 1.396 2143
-0.273 8.852 1.461 1880
-0.273 8.856 1.436 2386
-0.273 8.859 1.410 3024
-0.273 8.863 1.384 3548
-0.273 8.867 1.358 3728
-0.276 8.956 1.344 4069
-0.274 8.882 1.308 3774
-0.286 9.285 1.334 3380
-0.286 9.289 1.307 2894
-0.286 9.300 1.281 1977
-0.287 9.303 1.254 1569
-0.287 9.306 1.227 1095
-0.287 9.309 1.200 606
-0.287 9.305 1.172 254
-0.112 3.635 -0.259 315
-0.112 3.634 -0.270 439
-0.112 3.632 -0.280 439
-0.029 1.027 0.836 7520
-0.029 1.029 0.833 7944
-0.029 1.032 0.830 8457
-0.030 1.040 0.832 8573
-0.029 1.036 0.825 7475
-0.029 1.038 0.822 6416
-0.065 2.283 1.678 6176
-0.065 2.294 1.676 6160
-0.065 2.298 1.670 6347
-0.021 0.738 0.601 9448
-0.021 0.746 0.604 13337
-0.021 0.747 0.602 16567
-0.021 0.748 0.600 20771
-0.021 0.750 0.598 21134
-0.021 0.744 0.591 19760
-0.021 0.746 0.589 15898
-0.021 0.747 0.587 11870
-0.021 0.748 0.585 10880
-0.021 0.750 0.583 10182
-0.021 0.751 0.581 9861
-0.022 0.759 0.583 9590
-0.022 0.760 0.581 7293
-0.022 0.768 0.584 4918
-0.022 0.776 0.586 3686
-0.022 0.764 0.575 2814
-0.022 0.758 0.569 3078
-0.022 0.760 0.567 2873
-0.022 0.768 0.569 2684
-0.076 2.662 1.703 2587
-0.075 2.660 1.692 2412
-0.075 2.637 1.668 2556
-0.076 2.669 1.676 2417
-0.076 2.687 1.677 2649
-0.027 0.967 0.668 2485
-0.027 0.968 0.665 2877
-0.028 0.970 0.662 3247
-0.078 2.746 1.669 4814
-0.078 2.751 1.662 7352
-0.079 2.769 1.661 7951
-0.079 2.780 1.657 9214
-0.079 2.785 1.649 7654
-0.078 2.761 1.626 6014
-0.080 2.807 1.641 6539
-0.080 2.805 1.629 8021
-0.079 2.795 1.614 9808
-0.079 2.799 1.606 8090
-0.080 2.818 1.605 5047
-0.080 2.829 1.601 3812
-0.080 2.833 1.593 3108
-0.082 2.886 1.610 3841
-0.082 2.898 1.605 5765
-0.083 2.909 1.601 7606
-0.083 2.913 1.592 7348
-0.083 2.911 1.580 4960
-0.086 3.028 1.629 5129
-0.086 3.046 1.627 5062
-0.086 3.044 1.615 5413
-0.087 3.055 1.610 5322
-0.087 3.066 1.604 4945
-0.088 3.092 1.606 6027
-0.088 3.096 1.597 11017
-0.088 3.101 1.588 14692
-0.088 3.105 1.579 15387
-0.088 3.102 1.567 13567
-0.088 3.106 1.558 10438
-0.089 3.125 1.556 9090
-0.089 3.129 1.547 9440
-0.091 3.219 1.577 9561
-0.048 1.701 0.881 8763
-0.048 1.703 0.876 9997
-0.048 1.706 0.872 9503
-0.048 1.708 0.867 8796
-0.049 1.710 0.862 7815
-0.025 0.891 0.501 5918
-0.025 0.893 0.499 7498
-0.025 0.894 0.496 7555
-0.025 0.895 0.494 6529
-0.025 0.888 0.488 6006
-0.025 0.897 0.489 7739
-0.025 0.898 0.487 11720
-0.026 0.906 0.487 13671
-0.026 0.907 0.485 12670
-0.026 0.908 0.482 9982
-0.026 0.909 0.480 6071
-0.102 3.603 1.544 4490
-0.103 3.614 1.536 4459
-0.103 3.619 1.526 3318
-0.103 3.615 1.513 2127
-0.110 3.863 1.595 2678
-0.110 3.875 1.587 2939
-0.111 3.909 1.587 2950
-0.111 3.905 1.573 4321
-0.111 3.910 1.562 5280
-0.111 3.906 1.548 4200
-0.111 3.903 1.534 4664
-0.111 3.907 1.523 5592
-0.111 3.918 1.514 4859
-0.114 4.012 1.534 6006
-0.114 4.001 1.518 5882
-0.114 4.013 1.509 5487
-0.115 4.039 1.505 6538
-0.119 4.185 1.541 7501
-0.059 2.097 0.825 8049
-0.059 2.091 0.817 9019
-0.059 2.093 0.811 8192
-0.059 2.095 0.805 6087
-0.060 2.097 0.799 4384
-0.122 4.315 1.503 4863
-0.123 4.334 1.495 5559
-0.123 4.338 1.482 3560
-0.124 4.387 1.484 3434
-0.124 4.353 1.460 3801
-0.128 4.493 1.489 3564
-0.129 4.535 1.487 3683
-0.128 4.501 1.463 4465
-0.128 4.512 1.452 4629
-0.130 4.592 1.461 3227
-0.130 4.581 1.443 2303
-0.133 4.699 1.463 2544
-0.133 4.687 1.445 2861
-0.137 4.844 1.474 3879
-0.141 4.977 1.496 4166
-0.142 4.989 1.483 5315
-0.143 5.023 1.477 5473
-0.143 5.035 1.465 5227
-0.144 5.069 1.458 5154
-0.145 5.104 1.451 6583
-0.146 5.131 1.443 6947
-0.146 5.142 1.430 6835
-0.145 5.107 1.405 6205
-0.145 5.111 1.391 4765
-0.147 5.176 1.391 3935
-0.153 5.388 1.426 3617
-0.153 5.391 1.410 4208
-0.158 5.572 1.436 3771
-0.158 5.584 1.422 3737
-0.162 5.718 1.436 3272
-0.161 5.660 1.406 3699
-0.161 5.664 1.389 2962
-0.167 5.884 1.420 2973
-0.167 5.896 1.405 3576
-0.167 5.892 1.386 3019
-0.175 6.166 1.426 2707
-0.175 6.178 1.410 3588
-0.176 6.189 1.394 4291
-0.176 6.193 1.376 3686
-0.176 6.204 1.359 2566
-0.179 6.324 1.364 2685
-0.180 6.328 1.346 1977
-0.192 6.782 1.413 1972
-0.196 6.918 1.418 2117
-0.197 6.930 1.399 2467
-0.197 6.949 1.382 2151
-0.201 7.069 1.383 2493
-0.215 7.572 1.449 2105
-0.215 7.576 1.427 3217
-0.215 7.572 1.404 2884
-0.215 7.560 1.379 2574
-0.223 7.852 1.404 2737
-0.223 7.856 1.382 3324
-0.223 7.852 1.358 3052
-0.222 7.840 1.332 2468
-0.225 7.937 1.324 2041
-0.225 7.940 1.301 1850
-0.251 8.860 1.410 2439
-0.263 9.279 1.443 3333
-0.263 9.283 1.416 3800
-0.264 9.286 1.389 3665
-0.263 9.282 1.361 3625
-0.263 9.286 1.334 4095
-0.264 9.289 1.307 3413
-0.264 9.308 1.282 2415
-0.264 9.312 1.255 2123
-0.264 9.307 1.227 1632
-0.264 9.302 1.199 896
-0.264 9.297 1.171 335
-0.028 0.970 0.233 284
-0.028 0.970 0.230 294
-0.028 0.970 0.228 267
-0.103 3.635 -0.259 251
-0.103 3.626 -0.269 330
-0.103 3.625 -0.279 330
-0.027 1.034 0.841 25938
-0.027 1.036 0.838 22855
-0.028 1.038 0.835 19320
-0.028 1.040 0.832 18870
-0.028 1.042 0.829 14596
-0.028 1.038 0.822 10442
-0.061 2.283 1.678 8403
-0.061 2.294 1.676 8381
-0.061 2.299 1.670 8376
-0.020 0.744 0.606 9995
-0.020 0.746 0.604 12101
-0.020 0.747 0.602 13456
-0.020 0.748 0.600 15637
-0.020 0.750 0.598 16063
-0.020 0.744 0.591 15234
-0.020 0.746 0.589 13791
-0.020 0.747 0.587 12257
-0.020 0.748 0.585 11690
-0.020 0.750 0.583 11610
-0.020 0.758 0.585 11014
-0.020 0.759 0.583 10222
-0.020 0.760 0.581 7723
-0.020 0.768 0.584 5195
-0.021 0.776 0.586 4044
-0.020 0.771 0.579 3036
-0.020 0.772 0.577 3633
-0.021 0.773 0.575 4016
-0.021 0.775 0.573 3918
-0.021 0.776 0.571 3422
-0.021 0.777 0.569 2725
-0.071 2.692 1.700 2431
-0.072 2.696 1.693 2857
-0.026 0.965 0.670 3432
-0.026 0.967 0.668 4103
-0.026 0.968 0.665 5106
-0.026 0.970 0.662 6347
-0.026 0.971 0.660 7337
-0.026 0.973 0.657 8968
-0.026 0.981 0.658 9903
-0.026 0.976 0.652 10647
-0.026 0.977 0.649 11393
-0.026 0.979 0.646 11559
-0.026 0.980 0.644 11776
-0.026 0.982 0.641 11268
-0.026 0.983 0.638 10845
-0.026 0.985 0.635 9895
-0.026 0.986 0.633 8161
-0.026 0.988 0.630 7212
-0.026 0.989 0.627 6272
-0.026 0.991 0.625 4857
-0.077 2.905 1.609 7118
-0.077 2.909 1.601 9411
-0.077 2.906 1.589 9299
-0.077 2.911 1.580 6502
-0.081 3.035 1.632 6114
-0.081 3.047 1.627 5889
-0.081 3.051 1.618 4932
-0.081 3.069 1.617 4402
-0.027 1.024 0.610 5418
-0.082 3.092 1.606 8340
-0.082 3.097 1.597 14402
-0.082 3.101 1.588 17405
-0.082 3.105 1.579 18018
-0.083 3.109 1.570 15939
-0.082 3.106 1.558 11849
-0.027 1.034 0.590 11003
-0.083 3.122 1.544 9998
-0.045 1.699 0.886 10322
-0.045 1.701 0.881 14035
-0.045 1.703 0.876 15585
-0.045 1.706 0.872 14557
-0.045 1.708 0.867 13142
-0.045 1.710 0.862 11227
-0.045 1.712 0.857 7657
-0.023 0.885 0.496 5033
-0.024 0.894 0.496 7754
-0.024 0.902 0.497 14013
-0.024 0.903 0.495 22490
-0.024 0.904 0.492 28335
-0.024 0.905 0.490 32519
-0.024 0.906 0.487 33330
-0.024 0.907 0.485 30294
-0.024 0.908 0.482 25690
-0.024 0.909 0.480 17911
-0.024 0.910 0.477 10567
-0.096 3.607 1.533 5715
-0.096 3.619 1.526 4830
-0.096 3.615 1.513 2875
-0.103 3.863 1.595 2943
-0.052 1.951 0.858 2729
-0.103 3.894 1.582 2475
-0.103 3.898 1.570 4163
-0.104 3.902 1.559 5253
-0.104 3.906 1.548 4157
-0.104 3.903 1.534 4178
-0.104 3.915 1.525 4586
-0.104 3.919 1.514 4485
-0.108 4.057 1.550 5249
-0.108 4.083 1.546 5294
-0.108 4.088 1.535 5568
-0.108 4.069 1.515 7033
-0.111 4.186 1.541 7603
-0.111 4.190 1.529 7722
-0.110 4.149 1.502 8326
-0.110 4.145 1.488 5999
-0.056 2.103 0.808 4281
-0.056 2.105 0.802 4181
-0.114 4.307 1.500 5443
-0.115 4.334 1.495 5597
-0.115 4.346 1.485 3796
-0.116 4.357 1.475 3441
-0.116 4.353 1.460 3364
-0.120 4.509 1.493 4121
-0.120 4.528 1.485 4533
-0.120 4.509 1.465 5474
-0.120 4.513 1.452 5548
-0.121 4.562 1.452 3161
-0.122 4.589 1.446 2199
-0.125 4.707 1.465 2588
-0.125 4.695 1.447 2754
-0.129 4.844 1.474 4317
-0.129 4.848 1.460 4124
-0.132 4.989 1.483 4301
-0.133 5.024 1.477 5113
-0.134 5.035 1.465 5424
-0.134 5.062 1.456 4903
-0.135 5.104 1.451 6815
-0.136 5.139 1.445 8522
-0.136 5.142 1.430 8071
-0.136 5.108 1.405 6100
-0.135 5.104 1.389 3883
-0.137 5.176 1.391 4367
-0.143 5.388 1.426 3710
-0.143 5.399 1.412 4837
-0.148 5.572 1.436 3499
-0.148 5.576 1.420 3099
-0.149 5.618 1.413 2642
-0.150 5.645 1.402 4013
-0.150 5.657 1.387 3070
-0.156 5.885 1.420 2590
-0.156 5.896 1.405 3494
-0.157 5.900 1.388 3211
-0.156 5.896 1.369 2596
-0.164 6.178 1.410 2900
-0.164 6.189 1.394 3551
-0.164 6.193 1.376 3509
-0.164 6.197 1.358 2590
-0.175 6.596 1.417 2575
-0.174 6.546 1.388 2086
-0.180 6.790 1.414 1756
-0.184 6.934 1.421 2479
-0.184 6.930 1.399 2575
-0.184 6.949 1.382 2207
-0.188 7.070 1.383 2488
-0.197 7.409 1.421 2214
-0.201 7.576 1.427 2989
-0.201 7.580 1.405 2632
-0.208 7.833 1.425 2239
-0.208 7.853 1.404 2470
-0.208 7.856 1.382 3087
-0.208 7.852 1.358 2937
-0.208 7.840 1.332 2657
-0.208 7.843 1.310 2246
-0.211 7.941 1.301 2074
-0.246 9.268 1.469 2472
-0.246 9.280 1.443 3602
-0.246 9.283 1.416 4051
-0.246 9.287 1.389 3880
-0.246 9.283 1.361 3732
-0.246 9.278 1.333 4088
-0.247 9.290 1.307 3314
-0.247 9.309 1.282 2668
-0.247 9.312 1.255 2661
-0.247 9.307 1.227 2173
-0.247 9.303 1.199 1171
-0.247 9.298 1.171 456
-0.247 9.324 1.147 259
-0.024 1.021 0.831 19373
-0.024 1.023 0.829 20557
-0.025 1.032 0.830 22109
-0.025 1.034 0.827 22536
-0.025 1.036 0.825 21072
-0.025 1.038 0.822 19562
-0.025 1.040 0.819 15402
-0.025 1.042 0.816 11242
-0.055 2.292 1.665 10198
-0.055 2.297 1.659 10204
-0.055 2.308 1.657 10397
-0.055 2.312 1.650 10719
-0.055 2.316 1.644 10254
-0.055 2.321 1.637 9790
-0.055 2.325 1.630 7809
-0.055 2.323 1.619 5872
-0.018 0.760 0.596 4887
-0.018 0.762 0.594 6150
-0.018 0.763 0.592 7164
-0.018 0.758 0.585 7147
-0.018 0.759 0.583 6851
-0.018 0.753 0.577 7057
-0.018 0.761 0.579 7188
-0.018 0.769 0.581 7677
-0.018 0.771 0.579 8407
-0.018 0.772 0.577 7637
-0.018 0.773 0.575 5974
-0.019 0.781 0.577 4612
-0.019 0.783 0.575 3522
-0.019 0.784 0.573 2621
-0.064 2.672 1.688 2429
-0.064 2.683 1.685 2585
-0.064 2.708 1.689 2816
-0.065 2.719 1.685 2861
-0.063 2.655 1.638 3133
-0.063 2.666 1.634 3598
-0.065 2.746 1.669 4339
-0.065 2.751 1.662 6108
-0.066 2.769 1.661 6436
-0.066 2.780 1.657 7153
-0.066 2.785 1.649 6422
-0.023 0.986 0.650 7170
-0.023 0.987 0.647 8666
-0.024 0.989 0.645 9536
-0.024 0.990 0.642 9854
-0.024 0.992 0.639 9794
-0.023 0.986 0.633 8894
-0.024 0.995 0.634 8172
-0.024 0.989 0.627 7210
-0.024 0.991 0.625 5680
-0.069 2.912 1.613 8020
-0.069 2.909 1.601 10547
-0.069 2.907 1.589 10699
-0.069 2.904 1.577 8036
-0.072 3.035 1.632 6368
-0.072 3.040 1.624 6027
-0.073 3.051 1.618 4483
-0.073 3.070 1.617 5106
-0.073 3.081 1.611 7037
-0.073 3.085 1.602 9926
-0.074 3.097 1.597 15214
-0.074 3.101 1.588 17417
-0.074 3.105 1.579 18143
-0.074 3.109 1.570 16307
-0.074 3.106 1.558 11688
-0.040 1.695 0.896 12468
-0.040 1.697 0.891 13939
-0.040 1.699 0.886 13971
-0.040 1.701 0.881 11924
-0.041 1.704 0.876 7898
-0.077 3.218 1.543 5203
-0.077 3.229 1.537 5064
-0.077 3.240 1.531 3912
-0.080 3.368 1.575 3516
-0.080 3.357 1.559 3583
-0.080 3.354 1.546 4202
-0.021 0.902 0.497 3755
-0.021 0.903 0.495 5240
-0.021 0.904 0.492 7000
-0.022 0.905 0.490 9275
-0.022 0.906 0.487 11228
-0.022 0.907 0.485 12649
-0.022 0.908 0.482 13439
-0.022 0.909 0.480 11730
-0.022 0.910 0.477 9359
-0.021 0.904 0.472 7337
-0.086 3.619 1.526 6724
-0.046 1.939 0.866 4523
-0.022 0.907 0.464 4983
-0.022 0.908 0.462 5764
-0.022 0.909 0.459 5913
-0.022 0.909 0.457 4901
-0.093 3.903 1.559 5181
-0.093 3.907 1.548 4123
-0.093 3.903 1.534 3910
-0.093 3.915 1.525 3955
-0.093 3.919 1.514 4090
-0.093 3.915 1.500 4481
-0.097 4.084 1.546 5266
-0.097 4.095 1.537 6135
-0.097 4.084 1.520 7756
-0.097 4.096 1.511 7560
-0.100 4.197 1.532 7381
-0.098 4.141 1.500 7900
-0.050 2.108 0.816 5994
-0.050 2.110 0.810 5935
-0.050 2.112 0.804 5173
-0.103 4.315 1.503 6811
-0.103 4.334 1.495 6378
-0.104 4.353 1.487 4389
-0.104 4.357 1.475 3769
-0.104 4.354 1.460 3248
-0.107 4.517 1.496 4494
-0.107 4.520 1.483 4934
-0.107 4.509 1.465 6008
-0.107 4.513 1.452 5933
-0.108 4.532 1.443 3322
-0.109 4.597 1.448 2620
-0.112 4.730 1.471 2855
-0.115 4.840 1.488 3004
-0.115 4.844 1.474 4716
-0.115 4.856 1.462 4195
-0.119 4.989 1.483 3089
-0.120 5.032 1.479 4342
-0.120 5.035 1.465 5460
-0.120 5.062 1.456 4984
-0.122 5.112 1.453 7059
-0.122 5.139 1.445 9789
-0.122 5.143 1.430 8920
-0.122 5.116 1.407 5957
-0.123 5.173 1.406 4002
-0.123 5.177 1.391 4372
-0.128 5.404 1.430 3987
-0.129 5.407 1.414 5294
-0.129 5.411 1.398 3419
-0.135 5.692 1.447 2307
-0.134 5.642 1.418 2296
-0.134 5.646 1.402 3831
-0.135 5.680 1.393 2898
-0.140 5.885 1.420 2333
-0.140 5.896 1.405 3228
-0.140 5.900 1.388 3081
-0.144 6.059 1.403 2754
-0.147 6.178 1.410 2110
-0.147 6.190 1.394 2596
-0.147 6.194 1.376 3106
-0.151 6.360 1.390 2596
-0.156 6.550 1.408 2757
-0.156 6.554 1.389 2292
-0.157 6.604 1.379 1813
-0.165 6.935 1.421 2673
-0.165 6.930 1.399 2575
-0.163 6.856 1.365 2282
-0.168 7.078 1.384 2361
-0.176 7.409 1.421 2188
-0.180 7.584 1.429 2808
-0.180 7.588 1.407 2454
-0.186 7.834 1.425 2036
-0.187 7.861 1.406 2147
-0.187 7.857 1.382 2666
-0.189 7.954 1.373 2757
-0.186 7.833 1.331 2850
-0.186 7.836 1.308 2407
-0.197 8.270 1.349 2126
-0.220 9.268 1.469 2589
-0.221 9.280 1.443 3611
-0.221 9.284 1.416 4003
-0.221 9.295 1.390 3775
-0.221 9.291 1.362 3482
-0.221 9.279 1.333 3553
-0.221 9.282 1.306 2829
-0.221 9.309 1.282 2892
-0.221 9.305 1.254 3326
-0.221 9.308 1.227 2800
-0.221 9.311 1.200 1527
-0.221 9.306 1.172 704
-0.222 9.317 1.146 495
-0.222 9.336 1.120 406
-0.222 9.347 1.094 285
-0.022 1.015 0.827 8386
-0.022 1.023 0.829 9242
-0.022 1.025 0.826 10194
-0.022 1.027 0.823 10247
-0.022 1.029 0.820 10516
-0.022 1.038 0.822 10788
-0.049 2.283 1.678 11704
-0.049 2.288 1.672 11611
-0.049 2.292 1.665 11184
-0.049 2.297 1.659 10850
-0.049 2.301 1.652 9564
-0.049 2.312 1.650 8288
-0.016 0.755 0.604 7980
-0.016 0.756 0.602 8934
-0.016 0.758 0.600 8930
-0.016 0.759 0.598 8105
-0.016 0.767 0.600 7607
-0.028 1.314 0.950 8517
-0.028 1.309 0.942 9278
-0.016 0.764 0.590 10164
-0.016 0.766 0.588 11132
-0.016 0.767 0.586 11195
-0.016 0.768 0.584 11303
-0.017 0.776 0.586 10433
-0.017 0.778 0.583 9639
-0.017 0.779 0.581 7802
-0.017 0.780 0.579 5215
-0.017 0.781 0.577 3374
-0.017 0.776 0.571 2027
-0.058 2.694 1.712 2026
-0.058 2.699 1.704 2135
-0.057 2.676 1.680 2420
-0.057 2.674 1.669 2788
-0.057 2.678 1.661 3480
-0.057 2.662 1.642 3843
-0.057 2.667 1.634 3581
-0.057 2.664 1.623 3505
-0.059 2.751 1.662 3710
-0.059 2.762 1.658 4264
-0.059 2.774 1.654 4942
-0.059 2.771 1.642 6590
-0.059 2.762 1.626 7667
-0.060 2.808 1.641 8279
-0.060 2.812 1.633 8513
-0.060 2.796 1.614 8215
-0.060 2.807 1.609 7875
-0.060 2.818 1.605 6067
-0.062 2.892 1.634 5103
-0.062 2.904 1.629 5763
-0.062 2.915 1.625 6757
-0.062 2.912 1.613 8772
-0.062 2.910 1.601 10509
-0.062 2.907 1.589 10588
-0.062 2.904 1.577 8410
-0.065 3.028 1.629 6978
-0.065 3.033 1.620 6786
-0.065 3.044 1.615 4919
-0.066 3.070 1.617 5928
-0.066 3.074 1.608 8431
-0.066 3.086 1.602 10628
-0.066 3.090 1.594 14761
-0.066 3.094 1.585 16380
-0.066 3.105 1.579 17232
-0.066 3.110 1.570 15966
-0.066 3.107 1.558 10702
-0.066 3.104 1.546 7717
-0.067 3.115 1.540 7846
-0.067 3.119 1.531 7087
-0.069 3.210 1.561 6615
-0.069 3.214 1.552 6621
-0.069 3.218 1.543 6576
-0.069 3.222 1.534 5980
-0.022 1.050 0.573 4435
-0.022 1.051 0.571 4130
-0.022 1.053 0.568 3168
-0.019 0.901 0.500 3827
-0.019 0.902 0.497 4354
-0.019 0.903 0.495 4864
-0.074 3.462 1.557 5314
-0.019 0.905 0.490 4982
-0.076 3.572 1.579 5283
-0.019 0.907 0.485 5627
-0.019 0.908 0.482 6204
-0.019 0.909 0.480 6171
-0.019 0.910 0.477 6312
-0.077 3.608 1.533 6919
-0.077 3.619 1.526 7382
-0.042 1.947 0.869 8363
-0.042 1.949 0.863 8551
-0.042 1.951 0.858 6668
-0.042 1.961 0.855 4253
-0.083 3.891 1.568 4456
-0.083 3.895 1.556 4989
-0.083 3.907 1.548 3975
-0.084 3.926 1.542 3835
-0.084 3.915 1.525 3762
-0.084 3.912 1.511 4411
-0.083 3.908 1.497 4881
-0.085 3.987 1.512 4702
-0.087 4.088 1.535 6398
-0.087 4.092 1.523 8662
-0.087 4.096 1.511 8626
-0.088 4.115 1.504 7545
-0.088 4.142 1.500 6899
-0.088 4.138 1.485 4822
-0.091 4.247 1.508 3819
-0.091 4.281 1.505 4447
-0.092 4.316 1.503 7399
-0.093 4.335 1.495 6405
-0.093 4.354 1.487 3956
-0.093 4.350 1.472 3504
-0.093 4.354 1.460 3360
-0.096 4.517 1.496 4048
-0.097 4.521 1.483 4724
-0.096 4.509 1.465 6015
-0.097 4.521 1.454 5986
-0.097 4.540 1.446 3439
-0.098 4.605 1.450 2973
-0.101 4.730 1.471 3254
-0.101 4.742 1.460 3684
-0.103 4.845 1.474 4876
-0.104 4.848 1.460 4127
-0.104 4.883 1.454 2625
-0.107 5.024 1.477 3501
-0.108 5.036 1.465 5161
-0.108 5.063 1.456 5103
-0.109 5.112 1.453 6969
-0.110 5.139 1.445 10415
-0.110 5.143 1.430 9397
-0.109 5.116 1.407 6306
-0.110 5.166 1.404 4523
-0.110 5.169 1.389 3970
-0.115 5.404 1.430 4377
-0.115 5.408 1.414 5446
-0.116 5.411 1.398 3522
-0.121 5.685 1.445 2674
-0.122 5.719 1.436 2320
-0.120 5.638 1.400 3261
-0.122 5.696 1.396 2744
-0.126 5.885 1.420 2159
-0.126 5.897 1.405 2964
-0.126 5.908 1.390 2935
-0.126 5.912 1.372 2912
-0.129 6.024 1.378 1902
-0.132 6.190 1.394 1725
-0.132 6.194 1.376 2441
-0.136 6.360 1.390 2801
-0.140 6.551 1.408 2659
-0.140 6.546 1.388 2358
-0.141 6.605 1.379 2008
-0.147 6.865 1.408 2720
-0.147 6.861 1.387 3164
-0.146 6.857 1.365 2541
-0.153 7.141 1.395 2306
-0.158 7.409 1.421 2005
-0.162 7.585 1.429 2593
-0.162 7.596 1.408 2350
-0.167 7.834 1.425 1791
-0.163 7.635 1.369 1796
-0.163 7.631 1.345 2225
-0.170 7.955 1.373 2649
-0.167 7.833 1.331 2984
-0.167 7.829 1.307 2622
-0.177 8.271 1.349 2306
-0.198 9.269 1.469 2517
-0.198 9.281 1.443 3401
-0.198 9.284 1.416 3748
-0.199 9.296 1.390 3523
-0.186 8.695 1.283 3185
-0.198 9.272 1.332 2719
-0.198 9.283 1.306 2248
-0.199 9.310 1.282 3154
-0.199 9.305 1.254 3996
-0.199 9.301 1.226 3383
-0.199 9.304 1.199 1891
-0.199 9.307 1.172 1006
-0.199 9.318 1.146 775
-0.199 9.336 1.120 596
-0.199 9.339 1.093 413
-0.020 1.028 0.836 8736
-0.020 1.030 0.833 7825
-0.020 1.032 0.830 6785
-0.043 2.257 1.689 7486
-0.044 2.261 1.682 8790
-0.044 2.279 1.685 10401
-0.044 2.283 1.678 12824
-0.044 2.294 1.676 12759
-0.044 2.299 1.670 12305
-0.044 2.303 1.663 11851
-0.044 2.301 1.652 9809
-0.044 2.306 1.646 7807
-0.015 0.762 0.608 6963
-0.015 0.756 0.602 9924
-0.015 0.758 0.600 12063
-0.015 0.759 0.598 13052
-0.015 0.760 0.596 13954
-0.015 0.762 0.594 13992
-0.015 0.763 0.592 14246
-0.015 0.764 0.590 14538
-0.015 0.766 0.588 14567
-0.015 0.767 0.586 13108
-0.015 0.775 0.588 11829
-0.015 0.776 0.586 9782
-0.015 0.784 0.588 7755
-0.015 0.786 0.586 6026
-0.015 0.787 0.583 3875
-0.030 1.533 1.032 3197
-0.030 1.543 1.031 3310
-0.030 1.545 1.027 3315
-0.030 1.541 1.019 3216
-0.052 2.683 1.685 3244
-0.052 2.681 1.673 4789
-0.052 2.685 1.665 5248
-0.052 2.710 1.669 4220
-0.053 2.742 1.677 3426
-0.053 2.747 1.669 2812
-0.051 2.668 1.615 3041
-0.052 2.680 1.611 3505
-0.053 2.753 1.642 4665
-0.053 2.764 1.638 7502
-0.053 2.769 1.630 9359
-0.054 2.801 1.637 9095
-0.054 2.812 1.633 8276
-0.054 2.796 1.614 6803
-0.054 2.807 1.609 6409
-0.055 2.853 1.624 5315
-0.056 2.892 1.634 5358
-0.056 2.904 1.629 6404
-0.056 2.908 1.621 7568
-0.056 2.920 1.616 8859
-0.056 2.910 1.601 9140
-0.056 2.900 1.585 9171
-0.056 2.904 1.577 7840
-0.058 3.029 1.629 7630
-0.058 3.026 1.617 7783
-0.059 3.044 1.615 5773
-0.059 3.063 1.613 7102
-0.059 3.074 1.608 9983
-0.059 3.086 1.602 11740
-0.060 3.090 1.594 15074
-0.060 3.094 1.585 15980
-0.060 3.098 1.576 16650
-0.060 3.110 1.570 15104
-0.020 1.040 0.597 10581
-0.020 1.048 0.597 8684
-0.060 3.122 1.544 7375
-0.060 3.119 1.531 7881
-0.062 3.210 1.561 7730
-0.062 3.214 1.552 6247
-0.062 3.218 1.543 5766
-0.020 1.056 0.580 6389
-0.020 1.057 0.577 6767
-0.020 1.059 0.574 5814
-0.020 1.060 0.571 4152
-0.020 1.061 0.568 2706
-0.018 0.909 0.500 1963
-0.068 3.509 1.588 3372
-0.067 3.498 1.572 4885
-0.067 3.495 1.559 4288
-0.069 3.580 1.582 4529
-0.069 3.577 1.569 4401
-0.069 3.574 1.555 3948
-0.069 3.578 1.545 5179
-0.069 3.574 1.532 6672
-0.070 3.615 1.536 6322
-0.070 3.627 1.529 7358
-0.037 1.940 0.866 9015
-0.038 1.949 0.863 9706
-0.038 1.951 0.858 8512
-0.038 1.953 0.852 6039
-0.018 0.910 0.457 4529
-0.075 3.896 1.556 4467
-0.075 3.915 1.551 3869
-0.076 3.948 1.550 4017
-0.076 3.960 1.541 3776
-0.075 3.904 1.509 4005
-0.075 3.908 1.497 4122
-0.076 3.965 1.505 5194
-0.079 4.088 1.535 6304
-0.079 4.092 1.523 8972
-0.079 4.104 1.513 8558
-0.079 4.115 1.504 6897
-0.080 4.127 1.495 5405
-0.080 4.138 1.485 3941
-0.082 4.248 1.508 4221
-0.082 4.274 1.503 4725
-0.083 4.308 1.500 7103
-0.084 4.335 1.495 5606
-0.084 4.346 1.485 2895
-0.084 4.350 1.472 2957
-0.084 4.354 1.460 3378
-0.087 4.532 1.500 3482
-0.087 4.521 1.483 4060
-0.087 4.510 1.465 5185
-0.087 4.521 1.454 5380
-0.087 4.540 1.446 3242
-0.089 4.612 1.452 2910
-0.091 4.730 1.471 3405
-0.091 4.742 1.460 3999
-0.093 4.845 1.474 4813
-0.093 4.849 1.460 3974
-0.094 4.883 1.454 2543
-0.097 5.017 1.475 2794
-0.097 5.044 1.467 4721
-0.098 5.070 1.458 5244
-0.099 5.113 1.453 6817
-0.099 5.132 1.443 10549
-0.099 5.135 1.428 9527
-0.099 5.124 1.409 6687
-0.099 5.158 1.402 4702
-0.104 5.408 1.447 3992
-0.104 5.412 1.432 4574
-0.104 5.408 1.414 5276
-0.109 5.681 1.462 3649
-0.110 5.685 1.445 3040
-0.110 5.720 1.436 2464
-0.110 5.716 1.418 2830
-0.110 5.712 1.399 2744
-0.113 5.885 1.420 2028
-0.114 5.897 1.405 2563
-0.117 6.063 1.423 2675
-0.114 5.927 1.376 3023
-0.116 6.024 1.378 1927
-0.118 6.121 1.379 1729
-0.122 6.357 1.409 1906
-0.123 6.361 1.390 2738
-0.126 6.551 1.408 2400
-0.126 6.554 1.389 2344
-0.127 6.605 1.379 2199
-0.132 6.857 1.406 2994
-0.132 6.861 1.387 3450
-0.132 6.857 1.365 2629
-0.138 7.149 1.396 2400
-0.133 6.895 1.331 2051
-0.146 7.593 1.430 2330
-0.147 7.604 1.409 2201
-0.143 7.444 1.360 1728
-0.147 7.651 1.371 1961
-0.147 7.639 1.347 2317
-0.153 7.955 1.373 2416
-0.151 7.826 1.330 3136
-0.151 7.821 1.306 2913
-0.160 8.279 1.350 2425
-0.167 8.690 1.385 2385
-0.168 8.693 1.360 3530
-0.167 8.689 1.334 3904
-0.167 8.692 1.308 3715
-0.168 8.696 1.283 3752
-0.168 8.699 1.258 3354
-0.168 8.702 1.233 2170
-0.179 9.302 1.281 3553
-0.179 9.306 1.254 4566
-0.179 9.301 1.226 3801
-0.179 9.312 1.200 2187
-0.179 9.307 1.172 1332
-0.180 9.318 1.146 1053
-0.180 9.329 1.120 793
-0.180 9.340 1.093 544
-0.014 1.034 0.841 4148
-0.030 2.242 1.697 7552
-0.030 2.246 1.691 7552
-0.030 2.251 1.684 8765
-0.030 2.262 1.682 10027
-0.030 2.273 1.680 11351
-0.030 2.284 1.678 13507
-0.030 2.288 1.672 13399
-0.030 2.293 1.665 12257
-0.031 2.297 1.659 11223
-0.031 2.301 1.652 9218
-0.030 2.293 1.637 7515
-0.031 2.304 1.635 7878
-0.031 2.315 1.633 8442
-0.017 1.313 0.965 7847
-0.018 1.316 0.962 9282
-0.017 1.312 0.954 9027
-0.018 1.321 0.954 8747
-0.010 0.770 0.596 6972
-0.010 0.771 0.594 8505
-0.010 0.772 0.592 9104
-0.010 0.774 0.590 8104
-0.010 0.775 0.588 7156
-0.018 1.328 0.928 5810
-0.018 1.330 0.924 4904
-0.018 1.333 0.920 3998
-0.018 1.342 0.921 2911
-0.010 0.782 0.577 2458
-0.010 0.783 0.575 2821
-0.010 0.784 0.573 2621
-0.021 1.541 1.019 3729
-0.021 1.544 1.014 4414
-0.036 2.681 1.673 4709
-0.036 2.686 1.665 4868
-0.036 2.711 1.669 3875
-0.036 2.729 1.669 2917
-0.036 2.726 1.658 3168
-0.036 2.717 1.642 3726
-0.037 2.749 1.650 4788
-0.037 2.753 1.642 6304
-0.037 2.758 1.634 9054
-0.037 2.769 1.630 10550
-0.037 2.787 1.630 9604
-0.037 2.799 1.625 8080
-0.037 2.796 1.614 5857
-0.037 2.807 1.609 5321
-0.038 2.846 1.620 4102
-0.038 2.893 1.634 4564
-0.039 2.904 1.629 7099
-0.039 2.908 1.621 9072
-0.039 2.920 1.616 9399
-0.039 2.917 1.604 7916
-0.038 2.893 1.582 7667
-0.039 2.904 1.577 7216
-0.040 3.022 1.625 8111
-0.040 3.026 1.617 8501
-0.040 3.038 1.611 6225
-0.041 3.056 1.610 7296
-0.041 3.067 1.604 10235
-0.041 3.079 1.599 11590
-0.041 3.090 1.594 14200
-0.041 3.094 1.585 14841
-0.041 3.099 1.576 15541
-0.041 3.110 1.570 13601
-0.041 3.114 1.561 7863
-0.014 1.034 0.590 7778
-0.014 1.042 0.591 10417
-0.014 1.051 0.591 13827
-0.014 1.052 0.588 16349
-0.014 1.061 0.589 14354
-0.014 1.062 0.586 9381
-0.014 1.056 0.580 4634
-0.012 0.905 0.510 4117
-0.014 1.052 0.571 4522
-0.012 0.907 0.505 5087
-0.012 0.901 0.500 5351
-0.012 0.909 0.500 5665
-0.012 0.903 0.495 5992
-0.012 0.904 0.492 5818
-0.012 0.905 0.490 5628
-0.026 1.932 0.907 5805
-0.026 1.934 0.902 7163
-0.026 1.936 0.896 7459
-0.026 1.946 0.894 6068
-0.048 3.575 1.532 7314
-0.048 3.579 1.522 5447
-0.048 3.627 1.529 6500
-0.026 1.955 0.871 5987
-0.026 1.964 0.869 5666
-0.026 1.959 0.860 6337
-0.026 1.961 0.855 8479
-0.026 1.963 0.849 8829
-0.026 1.965 0.844 6871
-0.026 1.967 0.838 4037
-0.052 3.897 1.531 3010
-0.052 3.893 1.517 3641
-0.052 3.905 1.509 4536
-0.053 4.006 1.532 3859
-0.053 3.995 1.515 6082
-0.053 3.991 1.501 6987
-0.054 4.093 1.523 9550
-0.055 4.104 1.513 8685
-0.055 4.108 1.502 6697
-0.055 4.120 1.492 4853
-0.056 4.244 1.520 3746
-0.028 2.111 0.810 4809
-0.028 2.113 0.804 6191
-0.057 4.309 1.500 6325
-0.058 4.328 1.493 4768
-0.058 4.339 1.482 2092
-0.058 4.343 1.470 2578
-0.058 4.362 1.462 3280
-0.060 4.548 1.505 2927
-0.061 4.559 1.494 3489
-0.060 4.510 1.465 3935
-0.060 4.522 1.454 4310
-0.062 4.624 1.470 2945
-0.062 4.628 1.457 2871
-0.063 4.731 1.471 3430
-0.063 4.750 1.462 4066
-0.064 4.845 1.474 4609
-0.064 4.841 1.458 3871
-0.065 4.861 1.448 2444
-0.065 4.887 1.440 2677
-0.067 5.059 1.471 4311
-0.067 5.071 1.458 5045
-0.068 5.113 1.453 6625
-0.068 5.125 1.441 10582
-0.068 5.128 1.426 9615
-0.068 5.132 1.411 6943
-0.068 5.143 1.398 4725
-0.072 5.409 1.447 3920
-0.072 5.420 1.433 4549
-0.072 5.416 1.416 4912
-0.075 5.674 1.460 3884
-0.076 5.678 1.444 3476
-0.075 5.635 1.417 2733
-0.076 5.716 1.418 2849
-0.076 5.712 1.399 2726
-0.078 5.878 1.419 2073
-0.078 5.882 1.402 2304
-0.079 5.917 1.391 2400
-0.079 5.936 1.377 3414
-0.079 5.947 1.362 2077
-0.082 6.129 1.381 2018
-0.085 6.358 1.409 1858
-0.085 6.354 1.389 2665
-0.087 6.544 1.407 2185
-0.087 6.555 1.389 2421
-0.088 6.605 1.379 2410
-0.091 6.858 1.406 3157
-0.091 6.862 1.387 3553
-0.091 6.865 1.367 2574
-0.095 7.149 1.396 2458
-0.092 6.896 1.331 2654
-0.094 7.063 1.339 2472
-0.101 7.597 1.408 2018
-0.099 7.445 1.360 1760
-0.102 7.652 1.371 2038
-0.102 7.647 1.348 2366
-0.106 7.956 1.373 2118
-0.104 7.819 1.329 3235
-0.104 7.814 1.305 3230
-0.110 8.287 1.351 2497
-0.115 8.683 1.384 3183
-0.116 8.694 1.360 4501
-0.116 8.690 1.334 4695
-0.116 8.693 1.308 4144
-0.116 8.704 1.284 4205
-0.116 8.700 1.258 4087
-0.116 8.703 1.233 2991
-0.124 9.303 1.281 3927
-0.124 9.307 1.254 4981
-0.124 9.302 1.226 4113
-0.124 9.313 1.200 2436
-0.124 9.308 1.172 1604
-0.124 9.319 1.146 1263
-0.124 9.330 1.120 938
-0.124 9.341 1.093 644
-0.125 9.367 1.069 306
-0.024 2.237 1.703 4535
-0.024 2.242 1.697 9070
-0.024 2.246 1.691 9070
-0.024 2.251 1.684 9721
-0.024 2.262 1.682 10519
-0.024 2.273 1.680 11560
-0.024 2.284 1.678 13385
-0.025 2.288 1.672 13327
-0.025 2.293 1.665 12173
-0.025 2.297 1.659 11078
-0.025 2.302 1.652 9531
-0.025 2.293 1.637 8421
-0.025 2.310 1.639 9539
-0.025 2.315 1.633 11093
-0.025 2.319 1.626 9919
-0.014 1.316 0.962 11426
-0.014 1.318 0.958 13125
-0.014 1.321 0.954 14716
-0.014 1.316 0.946 13789
-0.014 1.319 0.943 13150
-0.008 0.772 0.592 12786
-0.008 0.774 0.590 13982
-0.008 0.775 0.588 15150
-0.008 0.783 0.590 15525
-0.008 0.784 0.588 15582
-0.008 0.786 0.586 14280
-0.008 0.787 0.583 12169
-0.008 0.788 0.581 9885
-0.009 0.796 0.583 7290
-0.008 0.791 0.577 5022
-0.014 1.262 0.853 3442
-0.014 1.264 0.850 2934
-0.029 2.688 1.677 3162
-0.029 2.692 1.669 3515
-0.029 2.704 1.665 4067
-0.029 2.715 1.662 4370
-0.029 2.720 1.654 5592
-0.029 2.717 1.642 6758
-0.029 2.735 1.642 7274
-0.029 2.747 1.638 8389
-0.030 2.758 1.634 9946
-0.030 2.769 1.630 9803
-0.030 2.780 1.626 8212
-0.030 2.785 1.618 6193
-0.030 2.754 1.591 4150
-0.030 2.765 1.587 3609
-0.031 2.902 1.650 3196
-0.031 2.900 1.638 4034
-0.031 2.904 1.629 7494
