-0.679 2.240 1.720 3015
-0.716 2.363 1.799 4199
-0.708 2.337 1.770 4948
-0.707 2.335 1.758 6127
-0.710 2.346 1.756 6363
-0.714 2.357 1.753 6736
-0.715 2.361 1.746 5313
-0.724 2.391 1.756 4958
-0.724 2.389 1.745 5288
-0.727 2.400 1.742 6044
-0.730 2.411 1.739 7082
-0.733 2.422 1.736 6263
-0.737 2.432 1.733 5715
-0.738 2.437 1.726 4222
-0.755 2.492 1.753 3591
-0.766 2.529 1.766 3536
-0.767 2.534 1.759 4022
-0.794 2.622 1.805 4052
-0.793 2.620 1.793 4426
-0.793 2.618 1.781 3952
-0.783 2.584 1.749 4438
-0.782 2.582 1.737 4555
-0.783 2.586 1.729 4717
-0.820 2.708 1.795 4446
-0.821 2.712 1.787 5581
-0.825 2.724 1.782 4991
-0.834 2.754 1.790 4882
-0.840 2.772 1.790 5284
-0.843 2.783 1.786 5658
-0.846 2.794 1.781 5795
-0.852 2.812 1.781 5645
-0.855 2.823 1.776 5081
-0.860 2.841 1.775 6057
-0.862 2.846 1.767 7105
-0.863 2.850 1.758 7043
-0.865 2.855 1.750 5681
-0.864 2.853 1.738 4444
-0.906 2.990 1.804 5554
-0.909 3.001 1.799 8160
-0.914 3.019 1.798 7829
-0.922 3.044 1.800 7980
-0.927 3.062 1.798 8342
-0.927 3.060 1.785 11956
-0.928 3.065 1.776 15363
-0.930 3.069 1.767 14340
-0.931 3.074 1.758 16338
-0.932 3.078 1.748 19144
-0.936 3.090 1.743 17212
-0.939 3.101 1.737 10263
-0.947 3.126 1.738 6926
-0.948 3.130 1.729 7135
-0.949 3.134 1.720 5989
-0.982 3.241 1.762 5151
-0.985 3.252 1.756 5123
-1.019 3.366 1.801 5690
-1.023 3.378 1.794 5957
-1.024 3.382 1.784 5056
-0.999 3.298 1.730 5021
-1.002 3.309 1.724 5159
-1.033 3.410 1.760 7416
-1.040 3.435 1.760 8308
-1.044 3.446 1.753 7877
-1.068 3.527 1.778 6895
-1.069 3.531 1.768 6182
-1.086 3.584 1.779 3813
-1.087 3.589 1.769 3936
-1.116 3.684 1.799 3370
-1.106 3.654 1.772 3971
-1.108 3.658 1.761 4777
-1.111 3.670 1.753 5685
-1.113 3.674 1.742 6849
-1.114 3.679 1.731 5528
-1.151 3.802 1.772 4778
-1.172 3.869 1.788 4909
-1.175 3.881 1.779 7790
-1.172 3.872 1.761 9631
-1.172 3.869 1.747 7079
-1.186 3.916 1.753 3537
-1.194 3.941 1.750 2731
-1.201 3.967 1.747 2547
-1.188 3.922 1.715 3643
-1.191 3.933 1.706 4505
-1.235 4.079 1.750 3656
-1.245 4.112 1.749 3341
-1.245 4.110 1.734 4031
-1.244 4.107 1.719 3343
-1.299 4.289 1.775 4123
-1.298 4.286 1.760 5130
-1.295 4.277 1.741 3648
-1.029 3.397 1.396 3645
-1.032 3.408 1.389 2531
-1.351 4.461 1.766 2733
-1.353 4.466 1.752 3258
-1.352 4.463 1.736 2924
-1.355 4.475 1.725 4906
-1.357 4.479 1.712 6390
-1.360 4.491 1.701 3995
-1.379 4.553 1.707 4278
-1.384 4.571 1.699 4710
-1.410 4.655 1.712 3275
-1.415 4.674 1.703 3724
-1.452 4.794 1.727 3085
-1.436 4.740 1.694 3790
-1.441 4.759 1.684 3740
-1.449 4.785 1.677 2905
-1.453 4.797 1.665 2299
-1.500 4.953 1.699 3811
-1.501 4.957 1.684 4903
-1.503 4.962 1.669 3896
-1.502 4.959 1.651 3266
-1.565 5.166 1.699 3611
-1.564 5.164 1.681 3303
-1.563 5.161 1.663 3359
-1.560 5.150 1.643 2305
-1.638 5.410 1.702 2387
-1.642 5.421 1.688 3180
-1.641 5.418 1.669 3546
-1.675 5.532 1.684 4756
-1.679 5.544 1.669 5246
-1.707 5.636 1.677 5384
-1.708 5.640 1.660 5256
-1.683 5.557 1.619 4460
-1.711 5.649 1.625 4114
-1.783 5.888 1.670 2208
-1.845 6.091 1.704 2341
-1.868 6.169 1.704 2321
-1.870 6.173 1.685 3840
-1.875 6.192 1.670 2951
-1.888 6.233 1.661 2616
-1.974 6.518 1.710 2349
-1.975 6.522 1.690 2624
-1.977 6.527 1.671 2341
-2.009 6.635 1.675 2336
-2.013 6.646 1.657 1990
-2.106 6.954 1.705 1550
-2.107 6.958 1.684 1493
-2.183 7.207 1.717 1537
-2.177 7.189 1.690 1888
-2.183 7.209 1.672 2088
-2.187 7.220 1.652 1721
-2.296 7.581 1.704 1315
-2.297 7.585 1.681 1467
-2.436 8.044 1.749 1340
-2.440 8.055 1.726 1607
-2.432 8.030 1.696 1468
-2.625 8.668 1.793 1541
-2.599 8.583 1.750 1894
-2.603 8.595 1.726 1936
-2.604 8.599 1.699 1358
-2.735 9.029 1.750 1187
-2.632 8.690 1.662 1073
-2.631 8.687 1.634 771
-2.738 9.042 1.667 353
-0.863 2.849 0.184 263
-0.863 2.849 0.176 281
-0.863 2.849 0.167 271
-0.863 2.849 0.158 261
-0.872 2.879 0.133 323
-0.870 2.872 0.124 415
-0.870 2.872 0.116 517
-0.870 2.872 0.107 483
-0.870 2.872 0.098 449
-0.870 2.871 0.090 317
-0.661 2.193 1.764 4612
-0.663 2.198 1.757 9224
-0.664 2.202 1.751 9224
-0.667 2.213 1.749 8936
-0.670 2.223 1.747 9252
-0.672 2.228 1.740 6751
-0.675 2.239 1.738 4261
-0.676 2.243 1.732 4261
-0.676 2.241 1.720 3301
-0.713 2.364 1.799 3905
-0.705 2.338 1.770 4592
-0.704 2.336 1.758 6127
-0.707 2.347 1.756 6471
-0.711 2.358 1.753 6942
-0.712 2.362 1.746 5475
-0.721 2.392 1.756 4759
-0.721 2.390 1.745 5223
-0.724 2.401 1.742 5810
-0.727 2.412 1.739 6751
-0.730 2.422 1.736 6003
-0.736 2.440 1.738 5628
-0.737 2.444 1.730 4228
-0.750 2.487 1.748 3891
-0.763 2.530 1.766 3555
-0.764 2.535 1.759 4243
-0.765 2.539 1.751 3598
-0.788 2.615 1.789 3820
-0.776 2.574 1.753 3989
-0.777 2.578 1.745 5081
-0.779 2.583 1.737 5605
-0.780 2.587 1.729 6130
-0.783 2.598 1.726 4654
-0.820 2.720 1.791 5972
-0.823 2.731 1.786 5353
-0.831 2.755 1.790 5338
-0.834 2.767 1.786 5428
-0.839 2.784 1.786 5253
-0.845 2.802 1.785 5122
-0.848 2.813 1.781 4931
-0.851 2.824 1.776 4245
-0.855 2.836 1.772 5153
-0.858 2.847 1.767 6206
-0.858 2.845 1.755 6546
-0.859 2.849 1.746 5948
-0.860 2.854 1.738 4972
-0.902 2.991 1.804 5100
-0.905 3.003 1.799 7297
-0.911 3.021 1.798 6964
-0.916 3.039 1.796 6664
-0.924 3.063 1.798 6883
-0.923 3.061 1.785 9915
-0.924 3.066 1.776 12822
-0.926 3.070 1.767 11821
-0.927 3.075 1.758 13858
-0.930 3.086 1.752 16677
-0.932 3.091 1.743 15369
-0.937 3.109 1.741 9398
-0.943 3.127 1.738 6339
-0.944 3.131 1.729 6671
-0.947 3.142 1.723 6141
-0.945 3.133 1.707 5233
-1.012 3.356 1.808 5179
-1.015 3.367 1.801 6172
-1.021 3.386 1.798 6785
-1.022 3.390 1.787 6001
-1.024 3.395 1.777 4810
-0.998 3.310 1.724 5347
-1.026 3.404 1.757 6449
-1.036 3.436 1.760 6872
-1.039 3.448 1.753 6571
-1.064 3.528 1.778 7188
-1.065 3.533 1.768 6446
-1.077 3.572 1.773 3243
-1.103 3.660 1.801 3434
-1.111 3.685 1.799 3614
-1.102 3.655 1.772 4124
-1.103 3.659 1.761 4849
-1.107 3.671 1.753 5650
-1.110 3.682 1.745 6924
-1.109 3.680 1.731 5626
-1.145 3.796 1.769 5334
-1.150 3.815 1.764 5778
-1.166 3.868 1.773 7562
-1.168 3.873 1.761 9923
-1.167 3.871 1.747 7701
-1.155 3.833 1.718 3843
-1.184 3.929 1.744 3192
-1.190 3.947 1.738 4136
-1.187 3.938 1.720 5570
-1.186 3.935 1.706 5956
-1.188 3.939 1.694 3911
-1.236 4.100 1.744 3107
-1.239 4.111 1.734 4406
-1.239 4.108 1.719 3774
-1.294 4.291 1.775 3666
-1.293 4.288 1.760 4472
-1.292 4.285 1.744 3130
-1.025 3.398 1.396 2647
-1.269 4.209 1.686 2841
-1.287 4.270 1.695 3125
-1.347 4.468 1.752 3463
-1.346 4.465 1.736 3325
-1.350 4.477 1.725 5016
-1.351 4.481 1.712 6346
-1.354 4.493 1.701 4192
-1.375 4.562 1.710 4612
-1.381 4.580 1.701 5559
-1.384 4.592 1.690 3527
-1.410 4.676 1.703 3496
-1.448 4.803 1.730 3122
-1.432 4.749 1.696 3370
-1.437 4.768 1.686 3688
-1.445 4.794 1.679 3361
-1.449 4.806 1.667 2731
-1.494 4.955 1.699 3510
-1.497 4.966 1.686 4248
-1.496 4.964 1.669 3835
-1.495 4.961 1.651 3368
-1.558 5.168 1.699 3173
-1.557 5.166 1.681 2714
-1.554 5.155 1.661 2833
-1.553 5.152 1.643 1917
-1.632 5.412 1.702 2174
-1.633 5.416 1.686 3103
-1.632 5.413 1.667 3624
-1.671 5.542 1.686 4823
-1.672 5.546 1.669 5375
-1.700 5.638 1.677 5011
-1.701 5.643 1.660 5343
-1.676 5.559 1.619 5238
-1.677 5.563 1.602 3971
-1.776 5.890 1.670 2193
-1.835 6.086 1.702 2853
-1.861 6.171 1.704 2094
-1.862 6.176 1.685 3827
-1.868 6.195 1.670 2819
-1.880 6.236 1.661 2937
-1.966 6.521 1.710 2524
-1.969 6.532 1.692 2882
-1.968 6.529 1.671 2476
-2.001 6.637 1.675 2283
-2.007 6.656 1.658 1956
-2.100 6.964 1.707 1451
-2.163 7.176 1.732 1418
-2.169 7.195 1.714 1644
-2.166 7.185 1.689 2121
-2.174 7.211 1.672 2037
-2.180 7.230 1.653 1631
-2.286 7.584 1.704 1423
-2.277 7.551 1.673 1613
-2.457 8.151 1.770 1377
-2.434 8.073 1.729 1577
-2.523 8.368 1.761 1504
-2.522 8.365 1.735 1894
-2.589 8.586 1.750 1806
-2.592 8.598 1.726 1944
-2.598 8.617 1.702 1398
-2.723 9.033 1.750 1250
-2.621 8.693 1.662 1096
-2.622 8.698 1.635 784
-2.727 9.046 1.667 405
-2.728 9.050 1.640 282
-0.857 2.842 0.184 252
-0.859 2.850 0.176 257
-0.857 2.842 0.167 256
-0.855 2.835 0.158 258
-0.866 2.873 0.133 306
-0.866 2.873 0.124 426
-0.866 2.873 0.116 546
-0.866 2.873 0.107 537
-0.866 2.873 0.098 527
-0.866 2.873 0.090 386
-0.655 2.195 1.764 4085
-0.656 2.200 1.757 8171
-0.657 2.204 1.751 8171
-0.660 2.215 1.749 8111
-0.664 2.225 1.747 8585
-0.665 2.230 1.740 6525
-0.668 2.241 1.738 4504
-0.670 2.245 1.732 4504
-0.669 2.243 1.720 3533
-0.708 2.373 1.803 3706
-0.698 2.340 1.770 4201
-0.697 2.338 1.758 6033
-0.700 2.349 1.756 6506
-0.704 2.360 1.753 7155
-0.705 2.364 1.746 5683
-0.714 2.394 1.756 4680
-0.713 2.392 1.745 5125
-0.717 2.403 1.742 5458
-0.722 2.420 1.744 6288
-0.725 2.431 1.741 5789
-0.730 2.448 1.742 5746
-0.737 2.472 1.747 4644
-0.742 2.489 1.748 4412
-0.746 2.500 1.745 3808
-0.757 2.537 1.759 4509
-0.760 2.548 1.755 4020
-0.765 2.565 1.756 3709
-0.766 2.570 1.748 4806
-0.768 2.574 1.741 5903
-0.771 2.585 1.737 6810
-0.772 2.590 1.729 7719
-0.778 2.607 1.730 5932
-0.814 2.729 1.795 6318
-0.819 2.747 1.794 5773
-0.822 2.758 1.790 5728
-0.824 2.762 1.782 5489
-0.833 2.793 1.790 4792
-0.836 2.805 1.785 4545
-0.840 2.816 1.781 4362
-0.843 2.827 1.776 3634
-0.844 2.831 1.768 4621
-0.848 2.843 1.763 5740
-0.849 2.847 1.755 6386
-0.850 2.852 1.746 6189
-0.854 2.863 1.741 5348
-0.893 2.994 1.804 4872
-0.896 3.005 1.799 6643
-0.900 3.017 1.794 6291
-0.907 3.041 1.796 5565
-0.916 3.073 1.802 5701
-0.914 3.064 1.785 8155
-0.915 3.069 1.776 10577
-0.919 3.080 1.770 9634
-0.916 3.071 1.754 11757
-0.919 3.082 1.748 14547
-0.923 3.094 1.743 13720
-0.928 3.112 1.741 8524
-0.933 3.130 1.738 5672
-0.935 3.134 1.729 6287
-0.938 3.145 1.723 6357
-0.935 3.136 1.707 5595
-1.002 3.359 1.808 5250
-1.005 3.370 1.801 6491
-1.011 3.389 1.798 7408
-1.012 3.393 1.787 6755
-1.013 3.398 1.777 5270
-0.988 3.313 1.724 5267
-1.026 3.442 1.773 5534
-1.030 3.453 1.766 6363
-1.031 3.458 1.756 6102
-1.053 3.531 1.778 7580
-1.054 3.536 1.768 6885
-1.056 3.540 1.757 4000
-1.092 3.663 1.801 3507
-1.100 3.688 1.799 3638
-1.091 3.658 1.772 4169
-1.092 3.663 1.761 4826
-1.098 3.681 1.757 5497
-1.099 3.686 1.745 6848
-1.098 3.683 1.731 5807
-1.133 3.800 1.769 5682
-1.137 3.811 1.761 6786
-1.142 3.830 1.755 8327
-1.156 3.876 1.761 9846
-1.157 3.881 1.750 8191
-1.165 3.907 1.747 4343
-1.171 3.925 1.741 3731
-1.176 3.944 1.735 4832
-1.175 3.941 1.720 7508
-1.177 3.946 1.708 8153
-1.178 3.950 1.697 5140
-1.224 4.103 1.744 2898
-1.227 4.115 1.734 4278
-1.226 4.112 1.719 3639
-1.228 4.117 1.707 3404
-1.231 4.128 1.697 4103
-1.232 4.132 1.685 2971
-1.257 4.215 1.702 2473
-1.256 4.212 1.686 3190
-1.275 4.274 1.695 3768
-1.334 4.472 1.752 3553
-1.331 4.462 1.734 3565
-1.334 4.473 1.723 4846
-1.338 4.485 1.712 5868
-1.341 4.497 1.701 4133
-1.364 4.573 1.712 5109
-1.367 4.585 1.701 6258
-1.371 4.596 1.690 4157
-1.393 4.673 1.700 3424
-1.436 4.814 1.732 3048
-1.420 4.761 1.698 3065
-1.425 4.780 1.689 3723
-1.431 4.798 1.679 3867
-1.437 4.817 1.669 3370
-1.481 4.967 1.701 3126
-1.482 4.971 1.686 3796
-1.482 4.968 1.669 3944
-1.481 4.965 1.651 3296
-1.543 5.173 1.699 2751
-1.542 5.170 1.681 2202
-1.539 5.160 1.661 2384
-1.581 5.303 1.686 2293
-1.585 5.314 1.672 2385
-1.615 5.414 1.684 3052
-1.611 5.403 1.663 3605
-1.654 5.547 1.686 4726
-1.655 5.551 1.669 5166
-1.685 5.651 1.679 4483
-1.684 5.648 1.660 5083
-1.659 5.564 1.619 5874
-1.660 5.568 1.602 4568
-1.684 5.646 1.605 2350
-1.817 6.091 1.702 2981
-1.840 6.169 1.702 2056
-1.846 6.189 1.687 3583
-1.849 6.200 1.670 2484
-1.864 6.249 1.663 2926
-1.863 6.246 1.642 2375
-1.950 6.538 1.692 2819
-1.949 6.535 1.671 2487
-1.983 6.650 1.677 2053
-1.989 6.670 1.660 1900
-1.997 6.696 1.645 1341
-2.142 7.182 1.732 1377
-2.145 7.194 1.712 1732
-2.145 7.191 1.689 2293
-2.153 7.218 1.672 1932
-2.160 7.244 1.655 1576
-2.262 7.583 1.702 1559
-2.254 7.558 1.673 1827
-2.255 7.562 1.650 1511
-2.461 8.252 1.763 1661
-2.496 8.368 1.760 1507
-2.497 8.373 1.735 2208
-2.503 8.392 1.712 1640
-2.569 8.613 1.727 1817
-2.577 8.640 1.705 1382
-2.696 9.041 1.750 1299
-2.595 8.701 1.662 1006
-2.596 8.705 1.635 751
-2.602 8.724 1.612 493
-2.601 8.721 1.584 361
-0.848 2.845 0.158 296
-0.848 2.845 0.150 315
-0.851 2.853 0.141 299
-0.855 2.868 0.133 286
-0.855 2.868 0.124 394
-0.855 2.868 0.116 502
-0.855 2.868 0.107 518
-0.857 2.875 0.098 538
-0.857 2.875 0.090 425
-0.648 2.190 1.759 3480
-0.650 2.195 1.753 6960
-0.677 2.286 1.811 8612
-0.678 2.290 1.804 8227
-0.679 2.295 1.797 7843
-0.662 2.237 1.745 6048
-0.664 2.242 1.738 4515
-0.665 2.246 1.732 4515
-0.664 2.245 1.720 3540
-0.703 2.374 1.803 3707
-0.691 2.335 1.765 4104
-0.692 2.339 1.758 5863
-0.696 2.350 1.756 6439
-0.699 2.361 1.753 7254
-0.700 2.366 1.746 5819
-0.707 2.389 1.752 4691
-0.709 2.394 1.745 4975
-0.714 2.411 1.746 5032
-0.717 2.422 1.744 5696
-0.720 2.432 1.741 5581
-0.727 2.456 1.746 6115
-0.732 2.473 1.747 5250
-0.735 2.484 1.744 4910
-0.739 2.495 1.741 4140
-0.753 2.545 1.763 4745
-0.755 2.549 1.755 4459
-0.760 2.567 1.756 4352
-0.761 2.571 1.748 5528
-0.762 2.576 1.741 6703
-0.766 2.587 1.737 7805
-0.769 2.598 1.733 9091
-0.772 2.609 1.730 6896
-0.808 2.731 1.795 6645
-0.814 2.748 1.794 6183
-0.817 2.760 1.790 6033
-0.818 2.764 1.782 5597
-0.827 2.795 1.790 4376
-0.833 2.813 1.789 4189
-0.836 2.824 1.785 4235
-0.837 2.829 1.776 3546
-0.839 2.833 1.768 4528
-0.842 2.844 1.763 5582
-0.843 2.849 1.755 6320
-0.845 2.853 1.746 6257
-0.848 2.865 1.741 5462
-0.887 2.996 1.804 4860
-0.890 3.007 1.799 6317
-0.893 3.018 1.794 5931
-0.901 3.043 1.796 4818
-0.910 3.075 1.802 4947
-0.906 3.059 1.782 6971
-0.909 3.070 1.776 9046
-0.902 3.048 1.752 8726
-0.908 3.066 1.750 10413
-0.913 3.084 1.748 12754
-0.914 3.089 1.739 12195
-0.920 3.107 1.737 7409
-0.927 3.131 1.738 5062
-0.928 3.136 1.729 6201
-0.932 3.147 1.723 6531
-0.931 3.145 1.710 5742
-0.928 3.136 1.694 5261
-0.998 3.373 1.801 6673
-1.004 3.391 1.798 7828
-1.005 3.396 1.787 7269
-1.008 3.407 1.781 5834
-0.979 3.308 1.720 4883
-1.028 3.471 1.787 5275
-1.033 3.490 1.783 6129
-1.042 3.522 1.786 6319
-1.046 3.533 1.778 8063
-1.047 3.538 1.768 7306
-1.049 3.543 1.757 5067
-1.048 3.540 1.743 4023
-1.051 3.552 1.736 4630
-1.055 3.563 1.728 4316
-1.085 3.665 1.761 4946
-1.088 3.676 1.753 5496
-1.090 3.681 1.742 6681
-1.091 3.685 1.731 5855
-1.125 3.802 1.769 5730
-1.129 3.814 1.761 7344
-1.132 3.825 1.752 8858
-1.148 3.879 1.761 9352
-1.152 3.890 1.753 8515
-1.159 3.916 1.750 6038
-1.163 3.928 1.741 5606
-1.164 3.932 1.729 5910
-1.167 3.944 1.720 8242
-1.169 3.948 1.708 9388
-1.170 3.952 1.697 6587
-1.213 4.099 1.741 2907
-1.219 4.117 1.734 3953
-1.241 4.193 1.749 3614
-1.219 4.119 1.707 3565
-1.223 4.131 1.697 4622
-1.247 4.213 1.714 3198
-1.248 4.218 1.702 2579
-1.258 4.251 1.699 3180
-1.266 4.277 1.695 4159
-1.324 4.474 1.752 3563
-1.322 4.465 1.734 3758
-1.323 4.469 1.720 4571
-1.331 4.495 1.714 5105
-1.364 4.607 1.739 3881
-1.357 4.583 1.715 5351
-1.360 4.595 1.704 6445
-1.363 4.606 1.692 4479
-1.378 4.654 1.693 3585
-1.428 4.824 1.735 2928
-1.429 4.829 1.720 3193
-1.418 4.790 1.691 3682
-1.421 4.801 1.679 4033
-1.429 4.827 1.672 3787
-1.439 4.861 1.666 3096
-1.477 4.988 1.690 3791
-1.471 4.971 1.669 4127
-1.471 4.968 1.651 3147
-1.532 5.176 1.699 2422
-1.533 5.181 1.683 1873
-1.565 5.287 1.698 2887
-1.571 5.306 1.686 2635
-1.574 5.318 1.672 2667
-1.601 5.410 1.681 3017
-1.600 5.407 1.663 3449
-1.645 5.558 1.688 4476
-1.646 5.562 1.671 4623
-1.671 5.647 1.677 4644
-1.673 5.651 1.660 4682
-1.648 5.567 1.619 5600
-1.649 5.571 1.602 4553
-1.672 5.649 1.605 2459
-1.802 6.088 1.700 2819
-1.827 6.173 1.702 2157
-1.833 6.192 1.687 3339
-1.839 6.211 1.672 2262
-1.851 6.253 1.663 2756
-1.848 6.242 1.640 2273
-1.936 6.542 1.692 2580
-1.936 6.539 1.671 2393
-1.972 6.662 1.678 1939
-1.980 6.688 1.663 1961
-1.985 6.707 1.646 1503
-1.991 6.727 1.630 1412
-2.133 7.206 1.714 1782
-2.132 7.203 1.690 2335
-2.133 7.207 1.669 1823
-2.148 7.256 1.656 1477
-2.239 7.566 1.698 1618
-2.239 7.563 1.673 1870
-2.284 7.716 1.680 1547
-2.444 8.257 1.763 1833
-2.441 8.247 1.735 1505
-2.480 8.378 1.735 2302
-2.483 8.390 1.711 1762
-2.553 8.626 1.728 1720
-2.676 9.042 1.777 1394
-2.678 9.046 1.750 1370
-2.577 8.706 1.662 932
-2.578 8.711 1.635 694
-2.682 9.059 1.667 544
-2.585 8.734 1.585 409
-0.845 2.854 0.167 250
-0.845 2.854 0.158 351
-0.845 2.854 0.150 397
-0.847 2.862 0.141 399
-0.849 2.870 0.133 358
-0.847 2.862 0.124 403
-0.847 2.862 0.116 451
-0.849 2.869 0.107 467
-0.849 2.869 0.099 489
-0.852 2.877 0.090 403
-0.854 2.884 0.081 265
-0.661 2.253 1.806 3740
-0.666 2.270 1.808 8062
-0.671 2.287 1.811 9893
-0.672 2.292 1.804 9429
-0.674 2.297 1.797 8966
-0.677 2.307 1.795 6482
-0.658 2.244 1.738 4439
-0.659 2.248 1.732 4439
-0.681 2.321 1.774 3958
-0.693 2.363 1.794 4182
-0.685 2.337 1.765 4810
-0.687 2.341 1.758 5842
-0.690 2.352 1.756 6530
-0.693 2.363 1.753 7538
-0.696 2.374 1.750 6234
-0.701 2.391 1.752 4982
-0.702 2.395 1.745 4981
-0.708 2.413 1.746 4794
-0.711 2.423 1.744 5093
-0.716 2.441 1.745 5633
-0.721 2.458 1.746 6891
-0.726 2.475 1.747 6004
-0.729 2.486 1.744 5586
-0.732 2.497 1.741 4515
-0.747 2.547 1.763 5316
-0.750 2.558 1.760 5294
-0.751 2.562 1.752 5357
-0.755 2.573 1.748 6782
-0.756 2.578 1.741 8211
-0.759 2.589 1.737 9259
-0.762 2.600 1.733 10554
-0.766 2.611 1.730 7946
-0.803 2.739 1.799 6807
-0.807 2.750 1.794 6403
-0.810 2.762 1.790 6225
-0.811 2.766 1.782 5619
-0.818 2.791 1.786 4061
-0.827 2.822 1.793 4032
-0.829 2.826 1.785 4232
-0.828 2.824 1.772 3646
-0.832 2.835 1.768 4480
-0.835 2.846 1.763 5447
-0.836 2.851 1.755 6293
-0.837 2.856 1.746 6284
-0.841 2.867 1.741 5457
-0.879 2.998 1.804 5144
-0.883 3.009 1.799 6293
-0.886 3.021 1.794 5742
-0.891 3.039 1.792 4335
-0.904 3.084 1.805 4368
-0.896 3.055 1.778 6295
-0.889 3.032 1.754 9125
-0.893 3.044 1.749 9045
-0.898 3.062 1.747 9603
-0.903 3.080 1.745 10894
-0.906 3.091 1.739 10585
-0.908 3.095 1.730 6474
-0.929 3.168 1.756 6056
-0.926 3.159 1.739 6579
-0.924 3.150 1.723 6557
-0.955 3.256 1.766 6268
-0.920 3.138 1.694 5577
-0.990 3.375 1.801 6872
-0.995 3.393 1.798 8246
-0.999 3.405 1.791 7829
-1.000 3.410 1.781 6703
-1.013 3.455 1.790 4864
-1.023 3.488 1.793 6112
-1.028 3.506 1.789 7207
-1.034 3.524 1.786 7657
-1.037 3.536 1.778 8859
-1.040 3.548 1.771 8187
-1.042 3.552 1.760 6683
-1.041 3.550 1.746 6084
-1.042 3.554 1.736 6432
-1.046 3.566 1.728 5542
-1.074 3.661 1.758 5252
-1.079 3.679 1.753 5737
-1.080 3.684 1.742 6526
-1.082 3.688 1.731 5822
-1.116 3.805 1.769 5924
-1.117 3.809 1.758 8093
-1.123 3.828 1.752 9498
-1.138 3.882 1.761 8395
-1.144 3.900 1.756 8496
-1.149 3.919 1.750 6934
-1.153 3.931 1.741 6705
-1.156 3.942 1.732 6659
-1.157 3.946 1.720 7554
-1.159 3.951 1.708 7821
-1.160 3.955 1.697 5686
-1.197 4.080 1.732 3210
-1.227 4.184 1.759 3862
-1.231 4.196 1.749 3959
-1.213 4.136 1.712 4237
-1.214 4.141 1.700 5387
-1.237 4.217 1.714 3616
-1.238 4.221 1.702 2752
-1.262 4.304 1.718 3733
-1.257 4.287 1.697 4528
-1.267 4.320 1.695 3593
-1.310 4.468 1.734 3970
-1.309 4.465 1.718 4261
-1.319 4.498 1.714 4019
-1.352 4.611 1.739 4125
-1.347 4.594 1.717 5485
-1.348 4.598 1.704 6499
-1.354 4.617 1.695 4889
-1.366 4.657 1.693 4048
-1.416 4.828 1.735 2700
-1.419 4.840 1.722 3463
-1.406 4.793 1.691 3536
-1.409 4.805 1.679 4052
-1.417 4.831 1.672 4168
-1.424 4.857 1.664 3595
-1.466 4.999 1.693 4220
-1.461 4.982 1.671 4417
-1.460 4.979 1.654 3172
-1.519 5.180 1.699 2131
-1.546 5.272 1.709 2135
-1.552 5.291 1.698 3641
-1.555 5.303 1.684 3088
-1.559 5.314 1.670 3053
-1.562 5.326 1.656 3187
-1.589 5.418 1.665 3191
-1.631 5.562 1.688 3961
-1.632 5.566 1.671 3719
-1.657 5.651 1.677 5201
-1.659 5.655 1.660 4429
-1.636 5.579 1.621 4879
-1.637 5.583 1.604 4198
-1.734 5.911 1.672 2617
-1.780 6.070 1.694 2601
-1.743 5.942 1.642 2533
-1.815 6.189 1.685 3252
-1.812 6.179 1.663 2208
-1.837 6.265 1.664 2430
-1.832 6.247 1.640 1997
-1.825 6.221 1.614 2112
-1.921 6.551 1.672 2146
-1.964 6.696 1.685 2114
-1.965 6.701 1.665 2237
-1.971 6.720 1.648 1893
-1.972 6.724 1.628 1933
-1.971 6.721 1.606 1977
-2.116 7.216 1.692 2403
-2.117 7.220 1.670 1715
-2.130 7.262 1.656 1438
-2.384 8.130 1.813 1740
-2.220 7.568 1.673 1780
-2.265 7.722 1.680 1655
-2.421 8.256 1.762 1935
-2.379 8.111 1.708 1558
-2.457 8.377 1.733 2493
-2.462 8.396 1.711 1896
-2.536 8.647 1.731 1629
-2.654 9.048 1.777 1464
-2.655 9.053 1.750 1424
-2.656 9.057 1.722 912
-2.658 9.062 1.695 712
-2.562 8.736 1.612 619
-2.563 8.740 1.585 471
-0.840 2.864 0.167 311
-0.840 2.864 0.159 426
-0.840 2.864 0.150 479
-0.840 2.864 0.141 481
-0.842 2.872 0.133 446
-0.840 2.864 0.124 409
-0.840 2.864 0.116 388
-0.840 2.864 0.107 364
-0.842 2.871 0.099 339
-0.844 2.879 0.090 298
-0.656 2.255 1.806 4113
-0.661 2.272 1.808 8720
-0.666 2.289 1.811 10441
-0.668 2.293 1.804 9955
-0.669 2.298 1.797 9469
-0.672 2.309 1.795 7132
-0.666 2.288 1.770 5263
-0.668 2.293 1.763 5263
-0.676 2.323 1.774 5053
-0.678 2.327 1.768 5256
-0.681 2.338 1.765 5499
-0.682 2.343 1.758 5800
-0.687 2.360 1.760 6527
-0.690 2.371 1.757 7637
-0.691 2.375 1.750 6456
-0.696 2.392 1.752 5173
-0.698 2.397 1.745 4948
-0.703 2.414 1.746 4698
-0.708 2.431 1.748 4735
-0.711 2.442 1.745 5847
-0.716 2.459 1.746 7596
-0.719 2.470 1.743 6708
-0.724 2.488 1.744 6203
-0.727 2.499 1.741 4719
-0.744 2.555 1.767 5364
-0.745 2.559 1.760 5553
-0.746 2.564 1.752 5742
-0.750 2.575 1.748 7266
-0.751 2.579 1.741 8812
-0.754 2.590 1.737 9806
-0.755 2.595 1.729 11073
-0.759 2.606 1.726 8268
-0.798 2.741 1.799 6594
-0.803 2.759 1.799 6158
-0.804 2.763 1.790 5935
-0.806 2.768 1.782 5379
-0.813 2.792 1.786 3898
-0.822 2.823 1.793 4222
-0.825 2.834 1.789 4690
-0.825 2.832 1.776 4046
-0.828 2.844 1.772 4389
-0.847 2.908 1.798 5154
-0.848 2.912 1.789 6218
-0.851 2.924 1.784 6332
-0.849 2.915 1.768 5396
-0.873 3.000 1.804 5219
-0.877 3.011 1.799 6218
-0.878 3.016 1.790 5590
-0.885 3.040 1.792 4029
-0.898 3.085 1.805 3841
-0.878 3.016 1.756 6132
-0.883 3.034 1.754 9272
-0.885 3.039 1.745 9375
-0.890 3.057 1.743 8888
-0.895 3.075 1.741 8777
-0.898 3.086 1.736 8651
-0.925 3.179 1.773 6395
-0.927 3.183 1.763 8363
-0.926 3.181 1.750 8075
-0.945 3.247 1.772 6439
-0.947 3.251 1.762 6845
-0.944 3.242 1.745 6370
-0.983 3.377 1.801 6675
-0.989 3.395 1.798 8105
-0.992 3.407 1.791 7922
-0.993 3.411 1.781 7220
-1.009 3.464 1.794 5047
-1.020 3.503 1.800 6743
-1.023 3.515 1.793 8023
-1.027 3.527 1.786 8528
-1.030 3.538 1.778 9212
-1.033 3.550 1.771 9007
-1.035 3.554 1.760 7990
-1.034 3.552 1.746 7461
-1.037 3.563 1.739 7557
-1.039 3.568 1.728 6207
-1.066 3.663 1.758 5183
-1.072 3.681 1.753 5641
-1.073 3.686 1.742 6115
-1.074 3.690 1.731 5599
-1.106 3.800 1.766 6048
-1.110 3.812 1.758 8569
-1.115 3.830 1.752 9737
-1.118 3.842 1.744 7620
-1.138 3.910 1.759 7942
-1.144 3.928 1.753 7231
-1.145 3.933 1.741 7243
-1.148 3.944 1.732 7266
-1.150 3.949 1.720 7899
-1.151 3.953 1.708 7828
-1.152 3.958 1.697 5751
-1.189 4.083 1.732 3555
-1.219 4.187 1.759 3667
-1.220 4.191 1.747 4087
-1.207 4.146 1.715 4764
-1.208 4.150 1.702 5640
-1.228 4.219 1.714 3701
-1.252 4.302 1.731 2813
-1.254 4.306 1.718 4011
-1.251 4.297 1.700 4756
-1.258 4.322 1.695 3994
-1.299 4.463 1.731 3927
-1.278 4.389 1.689 4213
-1.281 4.400 1.679 4292
-1.343 4.613 1.739 3796
-1.340 4.603 1.720 5293
-1.342 4.608 1.706 6298
-1.347 4.627 1.697 5206
-1.357 4.660 1.693 4398
-1.360 4.671 1.681 2811
-1.412 4.850 1.725 3359
-1.396 4.796 1.691 3165
-1.400 4.808 1.679 3834
-1.409 4.841 1.674 4242
-1.415 4.860 1.664 3612
-1.456 5.002 1.693 4512
-1.456 4.999 1.675 4718
-1.450 4.982 1.654 3298
-1.490 5.117 1.679 1881
-1.534 5.268 1.707 2340
-1.539 5.287 1.696 3970
-1.545 5.306 1.684 3328
-1.548 5.317 1.670 3304
-1.551 5.329 1.656 3064
-1.617 5.553 1.703 3052
-1.620 5.565 1.688 3518
-1.647 5.657 1.696 3426
-1.646 5.654 1.677 5458
-1.647 5.659 1.660 4526
-1.666 5.722 1.658 4163
-1.719 5.903 1.688 3948
-1.722 5.914 1.672 2993
-1.766 6.066 1.692 2567
-1.729 5.938 1.640 2842
-1.799 6.178 1.682 3205
-1.800 6.183 1.663 2341
-1.827 6.276 1.666 1988
-1.818 6.243 1.638 1630
-1.812 6.225 1.614 2323
-1.908 6.555 1.672 1772
-1.951 6.700 1.685 2408
-1.952 6.705 1.665 2360
-1.958 6.724 1.648 2042
-1.959 6.728 1.628 2284
-1.958 6.725 1.606 2326
-2.100 7.212 1.690 2370
-2.103 7.224 1.670 1575
-2.211 7.594 1.725 1328
-2.203 7.568 1.696 1682
-2.250 7.729 1.705 1642
-2.252 7.733 1.682 1693
-2.405 8.261 1.762 1919
-2.365 8.123 1.709 1651
-2.440 8.382 1.733 2460
-2.444 8.394 1.709 1930
-2.521 8.660 1.732 1568
-2.523 8.664 1.706 1484
-2.637 9.058 1.750 1405
-2.540 8.725 1.663 902
-2.640 9.067 1.695 752
-2.641 9.071 1.667 616
-2.546 8.745 1.585 432
-0.837 2.873 0.176 275
-0.834 2.866 0.167 361
-0.834 2.866 0.159 452
-0.834 2.866 0.150 482
-0.837 2.873 0.141 479
-0.837 2.873 0.133 466
-0.837 2.873 0.124 432
-0.834 2.866 0.116 405
-0.834 2.866 0.107 331
-0.834 2.866 0.099 258
-0.652 2.256 1.806 4433
-0.657 2.273 1.808 9260
-0.661 2.284 1.806 10925
-0.664 2.294 1.804 10346
-0.665 2.299 1.797 9833
-0.668 2.310 1.795 7699
-0.662 2.290 1.770 6100
-0.664 2.294 1.763 6100
-0.672 2.324 1.774 6134
-0.674 2.328 1.768 6688
-0.677 2.339 1.765 6271
-0.680 2.350 1.763 5967
-0.683 2.361 1.760 6689
-0.686 2.372 1.757 7814
-0.689 2.383 1.755 6803
-0.698 2.412 1.765 5458
-0.697 2.411 1.754 5114
-0.700 2.422 1.751 4841
-0.704 2.432 1.748 4602
-0.707 2.443 1.745 6018
-0.712 2.461 1.746 8001
-0.715 2.472 1.743 7046
-0.720 2.489 1.744 6466
-0.725 2.506 1.745 4929
-0.739 2.556 1.767 5841
-0.741 2.560 1.760 6110
-0.742 2.565 1.752 6378
-0.743 2.569 1.744 8017
-0.745 2.574 1.737 9656
-0.748 2.585 1.733 10483
-0.751 2.596 1.729 11582
-0.754 2.607 1.726 8435
-0.795 2.749 1.803 6255
-0.798 2.760 1.799 5893
-0.800 2.765 1.790 5639
-0.776 2.684 1.730 5439
-0.778 2.688 1.722 5600
-0.773 2.673 1.702 4754
-0.818 2.829 1.785 4449
-0.818 2.827 1.772 4039
-0.840 2.905 1.806 4731
-0.842 2.909 1.798 6036
-0.843 2.914 1.789 7274
-0.846 2.925 1.784 7396
-0.849 2.937 1.779 6358
-0.849 2.934 1.767 5481
-0.871 3.013 1.799 6075
-0.873 3.017 1.790 5300
-0.853 2.948 1.740 3746
-0.870 3.006 1.761 3447
-0.873 3.018 1.756 6050
-0.878 3.036 1.754 9227
-0.879 3.040 1.745 9452
-0.881 3.045 1.736 8714
-0.886 3.063 1.734 7507
-0.891 3.081 1.732 7104
-0.920 3.180 1.773 8183
-0.921 3.185 1.763 10507
-0.921 3.183 1.750 9555
-0.940 3.249 1.772 6826
-0.939 3.246 1.759 7826
-0.938 3.244 1.745 8074
-0.946 3.269 1.746 7382
-0.983 3.397 1.798 7733
-0.986 3.409 1.791 7776
-0.987 3.413 1.781 7611
-0.991 3.425 1.774 5392
-1.016 3.512 1.803 7266
-1.017 3.517 1.793 8725
-1.021 3.528 1.786 9149
-1.026 3.547 1.781 9507
-1.027 3.551 1.771 9752
-1.029 3.556 1.760 8971
-1.028 3.553 1.746 8415
-1.031 3.565 1.739 8366
-1.033 3.569 1.728 6680
-1.064 3.679 1.764 4987
-1.065 3.683 1.753 5405
-1.065 3.681 1.739 5714
-1.068 3.692 1.731 5400
-1.100 3.802 1.766 6128
-1.103 3.813 1.758 8955
-1.106 3.825 1.749 9998
-1.110 3.837 1.741 7473
-1.134 3.919 1.762 7044
-1.137 3.930 1.753 7075
-1.138 3.935 1.741 7502
-1.142 3.946 1.732 7777
-1.143 3.951 1.720 7885
-1.144 3.955 1.708 7302
-1.147 3.967 1.699 5361
-1.182 4.085 1.732 3865
-1.175 4.061 1.709 3919
-1.211 4.186 1.744 4176
-1.200 4.148 1.715 5289
-1.203 4.159 1.705 5813
-1.219 4.214 1.712 3411
-1.255 4.340 1.744 2821
-1.246 4.309 1.718 4309
-1.246 4.306 1.703 5058
-1.251 4.325 1.695 4435
-1.254 4.336 1.684 3808
-1.270 4.391 1.689 4267
-1.273 4.402 1.679 4600
-1.337 4.623 1.741 3250
-1.334 4.613 1.722 5063
-1.334 4.610 1.706 6151
-1.339 4.629 1.697 5523
-1.349 4.662 1.693 4673
-1.354 4.681 1.684 3064
-1.404 4.852 1.725 3114
-1.388 4.798 1.691 2775
-1.389 4.803 1.677 3544
-1.403 4.851 1.676 4082
-1.406 4.862 1.664 3439
-1.448 5.005 1.693 4590
-1.447 5.002 1.675 4883
-1.442 4.984 1.654 3366
-1.481 5.120 1.679 2213
-1.525 5.270 1.707 2376
-1.530 5.289 1.696 3975
-1.533 5.301 1.682 3459
-1.537 5.313 1.668 3632
-1.540 5.324 1.654 2906
-1.607 5.556 1.703 3292
-1.608 5.560 1.686 2939
-1.637 5.660 1.696 3670
-1.636 5.657 1.677 5310
-1.638 5.661 1.660 4621
-1.654 5.717 1.656 4086
-1.708 5.906 1.688 4042
-1.712 5.917 1.672 3104
-1.743 6.025 1.681 2574
-1.716 5.933 1.638 3001
-1.786 6.174 1.680 3142
-1.787 6.178 1.661 2414
-1.788 6.183 1.643 1933
-1.794 6.202 1.628 1732
-1.799 6.220 1.612 2537
-1.801 6.225 1.594 1653
-1.939 6.704 1.685 2542
-1.943 6.715 1.667 2405
-1.944 6.720 1.646 2109
-1.945 6.724 1.626 2576
-1.944 6.721 1.604 2593
-2.087 7.216 1.690 2343
-2.091 7.228 1.670 1463
-2.193 7.582 1.722 1399
-2.190 7.572 1.696 1614
-2.237 7.733 1.705 1533
-2.238 7.737 1.682 1740
-2.391 8.265 1.762 1757
-2.351 8.127 1.709 1745
-2.426 8.386 1.733 2334
-2.427 8.390 1.708 1925
-2.485 8.589 1.719 1677
-2.490 8.609 1.695 1584
-2.622 9.063 1.750 1359
-2.525 8.730 1.663 884
-2.624 9.072 1.695 740
-2.625 9.076 1.667 649
-2.531 8.750 1.585 383
-0.834 2.882 0.184 253
-0.832 2.875 0.176 338
-0.832 2.875 0.167 409
-0.829 2.867 0.159 490
-0.829 2.867 0.150 486
-0.829 2.867 0.141 454
-0.832 2.875 0.133 446
-0.832 2.875 0.124 432
-0.832 2.875 0.116 418
-0.832 2.875 0.107 345
-0.832 2.875 0.099 273
-0.647 2.257 1.806 4711
-0.652 2.274 1.808 9694
-0.655 2.285 1.806 11294
-0.658 2.296 1.804 10592
-0.661 2.307 1.802 10053
-0.663 2.312 1.795 8219
-0.659 2.297 1.775 6941
-0.660 2.302 1.768 6941
-0.667 2.325 1.774 7277
-0.668 2.330 1.768 8170
-0.673 2.347 1.770 7161
-0.674 2.352 1.763 6346
-0.679 2.369 1.764 7040
-0.682 2.380 1.762 8170
-0.683 2.384 1.755 7248
-0.692 2.414 1.765 6018
-0.693 2.419 1.758 5625
-0.695 2.423 1.751 5158
-0.692 2.415 1.735 4670
-0.701 2.445 1.745 6345
-0.706 2.462 1.746 8556
-0.709 2.473 1.743 7540
-0.714 2.491 1.744 6903
-0.721 2.514 1.749 5089
-0.733 2.558 1.767 6233
-0.734 2.562 1.760 6579
-0.734 2.560 1.748 6928
-0.737 2.571 1.744 8763
-0.738 2.576 1.737 10601
-0.741 2.587 1.733 11057
-0.745 2.598 1.729 11834
-0.748 2.609 1.726 8396
-0.788 2.751 1.803 5643
-0.792 2.762 1.799 5362
-0.793 2.767 1.790 5096
-0.785 2.738 1.762 5105
-0.773 2.697 1.726 4482
-0.810 2.827 1.793 4461
-0.813 2.838 1.789 4948
-0.813 2.836 1.776 4200
-0.833 2.907 1.806 5411
-0.834 2.911 1.798 6779
-0.836 2.916 1.789 8133
-0.839 2.927 1.784 8268
-0.842 2.939 1.779 7274
-0.842 2.936 1.767 5962
-0.864 3.015 1.799 6006
-0.865 3.019 1.790 4998
-0.846 2.950 1.740 3836
-0.864 3.015 1.765 3435
-0.867 3.026 1.760 6088
-0.871 3.038 1.754 9324
-0.872 3.042 1.745 9390
-0.873 3.047 1.736 8903
-0.878 3.065 1.734 7807
-0.884 3.083 1.732 7132
-0.910 3.176 1.769 9606
-0.914 3.187 1.763 11501
-0.913 3.185 1.750 9706
-0.930 3.244 1.768 7741
-0.929 3.242 1.755 9588
-0.930 3.246 1.745 9870
-0.936 3.264 1.743 8748
-0.943 3.290 1.743 7754
-0.978 3.411 1.791 7594
-0.979 3.416 1.781 8000
-0.976 3.406 1.764 6450
-1.007 3.515 1.803 7673
-1.009 3.519 1.793 9228
-1.012 3.531 1.786 9550
-1.017 3.549 1.781 9638
-1.021 3.561 1.774 10385
-1.020 3.558 1.760 9735
-1.019 3.556 1.746 9168
-1.023 3.567 1.739 8899
-1.024 3.572 1.728 6885
-1.057 3.688 1.768 4960
-1.058 3.693 1.757 5148
-1.086 3.788 1.786 5431
-1.059 3.695 1.731 5134
-1.091 3.805 1.766 6081
-1.094 3.816 1.758 9182
-1.097 3.828 1.749 10193
-1.100 3.839 1.741 7393
-1.124 3.921 1.762 5889
-1.127 3.933 1.753 6473
-1.127 3.930 1.738 7382
-1.132 3.949 1.732 7935
-1.133 3.954 1.720 7571
-1.134 3.958 1.708 6401
-1.138 3.969 1.699 4751
-1.172 4.088 1.732 4087
-1.167 4.071 1.712 4485
-1.201 4.189 1.744 4450
-1.190 4.151 1.715 5666
-1.193 4.162 1.705 5636
-1.200 4.188 1.701 3059
-1.245 4.343 1.744 2840
-1.236 4.312 1.718 4712
-1.237 4.316 1.705 5502
-1.240 4.328 1.695 4896
-1.246 4.346 1.687 4209
-1.259 4.394 1.689 4218
-1.265 4.413 1.681 4802
-1.301 4.540 1.711 3172
-1.323 4.616 1.722 4632
-1.324 4.621 1.709 5984
-1.330 4.639 1.700 5732
-1.339 4.673 1.695 4749
-1.343 4.684 1.684 3357
-1.346 4.696 1.672 2860
-1.351 4.715 1.663 2537
-1.378 4.806 1.677 3236
-1.391 4.854 1.676 3680
-1.397 4.873 1.666 3003
-1.433 5.001 1.690 4570
-1.435 5.005 1.675 4982
-1.434 5.002 1.658 3507
-1.466 5.116 1.676 2555
-1.514 5.281 1.709 2234
-1.515 5.286 1.693 3631
-1.520 5.305 1.682 3393
-1.522 5.309 1.666 3932
-1.525 5.321 1.652 2940
-1.592 5.552 1.701 3640
-1.593 5.557 1.684 2763
-1.623 5.664 1.696 3674
-1.625 5.668 1.679 5012
-1.626 5.673 1.662 4586
-1.636 5.706 1.652 3915
-1.694 5.910 1.688 3822
-1.697 5.922 1.672 2872
-1.726 6.022 1.679 2827
-1.755 6.122 1.685 3061
-1.760 6.141 1.671 3244
-1.772 6.183 1.661 2528
-1.771 6.179 1.641 2422
-1.777 6.198 1.626 2216
-1.782 6.217 1.611 2794
-1.783 6.222 1.592 1886
-1.923 6.708 1.685 2644
-1.926 6.720 1.667 2435
-1.927 6.724 1.646 2101
-1.929 6.729 1.626 2695
-1.928 6.725 1.604 2643
-2.070 7.221 1.690 2216
-2.171 7.576 1.743 1525
-2.175 7.588 1.722 1530
-2.172 7.577 1.696 1641
-2.218 7.738 1.705 1440
-2.219 7.743 1.682 1731
-2.368 8.263 1.760 1606
-2.333 8.140 1.711 1773
-2.405 8.392 1.733 2171
-2.407 8.396 1.708 1948
-2.464 8.595 1.719 1787
-2.469 8.615 1.695 1657
-2.599 9.069 1.750 1262
-2.504 8.736 1.663 804
-2.602 9.078 1.695 717
-2.603 9.082 1.667 666
-2.480 8.651 1.568 459
-0.827 2.884 0.184 286
-0.825 2.877 0.176 364
-0.825 2.877 0.167 428
-0.825 2.877 0.159 492
-0.822 2.869 0.150 475
-0.822 2.869 0.141 424
-0.825 2.877 0.133 400
-0.825 2.877 0.124 399
-0.825 2.877 0.116 398
-0.825 2.877 0.107 341
-0.825 2.877 0.099 285
-0.824 2.876 0.090 251
-0.644 2.258 1.806 4902
-0.647 2.269 1.804 9998
-0.652 2.286 1.806 11493
-0.655 2.297 1.804 10676
-0.658 2.308 1.802 10126
-0.659 2.312 1.795 8608
-0.655 2.298 1.775 7668
-0.657 2.303 1.768 7668
-0.663 2.326 1.774 8273
-0.665 2.331 1.768 9456
-0.669 2.348 1.770 8014
-0.671 2.353 1.763 6774
-0.677 2.376 1.769 7485
-0.679 2.381 1.762 8492
-0.682 2.392 1.759 7685
-0.689 2.415 1.765 6564
-0.692 2.426 1.762 6214
-0.691 2.424 1.751 5484
-0.687 2.410 1.731 4981
-0.697 2.446 1.745 6514
-0.702 2.463 1.746 8712
-0.704 2.468 1.739 7657
-0.709 2.485 1.740 6874
-0.719 2.522 1.754 5239
-0.729 2.559 1.767 6577
-0.729 2.557 1.755 6932
-0.730 2.561 1.748 7301
-0.732 2.566 1.740 9217
-0.733 2.570 1.732 11133
-0.736 2.581 1.729 11329
-0.739 2.592 1.725 11827
-0.742 2.603 1.722 8148
-0.786 2.758 1.807 5183
-0.788 2.763 1.799 5016
-0.789 2.768 1.790 4849
-0.781 2.739 1.762 4948
-0.771 2.704 1.730 4559
-0.821 2.881 1.825 4819
-0.807 2.832 1.785 5059
-0.807 2.830 1.772 4483
-0.829 2.908 1.806 5768
-0.828 2.906 1.794 7309
-0.832 2.917 1.789 8922
-0.835 2.928 1.784 9100
-0.838 2.940 1.779 8088
-0.838 2.938 1.767 6280
-0.860 3.016 1.799 5850
-0.838 2.940 1.745 4702
-0.839 2.945 1.737 3830
-0.868 3.043 1.780 3562
-0.867 3.041 1.767 6347
-0.868 3.046 1.758 9467
-0.868 3.043 1.745 9514
-0.869 3.048 1.736 8856
-0.874 3.066 1.734 7567
-0.897 3.145 1.764 7595
-0.908 3.184 1.773 10791
-0.909 3.188 1.763 12304
-0.910 3.193 1.753 10308
-0.925 3.245 1.768 8460
-0.927 3.250 1.759 10416
-0.926 3.248 1.745 10560
-0.931 3.266 1.743 9440
-0.938 3.291 1.743 7862
-0.973 3.412 1.791 7342
-0.974 3.417 1.781 8194
-0.972 3.408 1.764 7398
-1.006 3.530 1.810 7840
-1.006 3.528 1.796 9392
-1.007 3.532 1.786 9564
-1.012 3.551 1.781 9613
-1.016 3.562 1.774 10858
-1.015 3.560 1.760 10112
-1.014 3.557 1.746 9399
-1.017 3.569 1.739 9033
-1.021 3.580 1.731 6915
-1.054 3.697 1.771 5011
-1.067 3.743 1.778 5219
-1.081 3.790 1.786 5355
-1.086 3.809 1.780 4889
-1.087 3.813 1.769 5931
-1.088 3.818 1.758 9152
-1.092 3.829 1.749 10157
-1.095 3.841 1.741 7231
-1.118 3.923 1.762 4928
-1.122 3.935 1.753 5667
-1.121 3.932 1.738 7375
-1.126 3.951 1.732 8368
-1.128 3.955 1.720 7738
-1.129 3.960 1.708 6213
-1.134 3.978 1.702 4563
-1.166 4.089 1.732 4211
-1.161 4.072 1.712 4799
-1.193 4.184 1.741 4889
-1.186 4.160 1.718 5902
-1.185 4.157 1.702 5165
-1.193 4.183 1.698 2562
-1.241 4.352 1.747 2752
-1.230 4.313 1.718 5139
-1.231 4.318 1.705 5929
-1.234 4.329 1.695 5278
-1.240 4.348 1.687 4521
-1.253 4.396 1.689 4218
-1.259 4.414 1.681 4901
-1.291 4.527 1.706 3344
-1.317 4.618 1.722 4148
-1.318 4.622 1.709 5813
-1.323 4.641 1.700 5674
-1.333 4.675 1.695 4660
-1.338 4.693 1.686 3596
-1.339 4.698 1.672 3233
-1.345 4.717 1.663 2729
-1.369 4.801 1.674 2997
-1.407 4.936 1.702 3828
-1.415 4.962 1.694 3015
-1.426 5.003 1.690 4348
-1.428 5.007 1.675 4813
-1.427 5.004 1.658 3554
-1.459 5.118 1.676 2761
-1.463 5.130 1.663 2174
-1.508 5.288 1.693 3160
-1.513 5.307 1.682 3157
-1.514 5.311 1.666 4116
-1.518 5.323 1.652 3031
-1.582 5.547 1.698 3662
-1.583 5.552 1.682 2886
-1.615 5.666 1.696 3526
-1.617 5.671 1.679 4640
-1.620 5.682 1.664 4440
-1.625 5.701 1.650 3669
-1.686 5.912 1.688 3128
-1.594 5.592 1.585 3144
-1.718 6.024 1.679 2882
-1.746 6.125 1.685 3288
-1.749 6.136 1.669 3527
-1.763 6.185 1.661 2587
-1.762 6.182 1.641 2999
-1.768 6.201 1.626 2805
-1.771 6.213 1.609 3163
-1.772 6.217 1.590 2194
-1.915 6.719 1.687 2607
-1.915 6.715 1.665 2384
-1.916 6.720 1.645 2046
-1.917 6.724 1.625 2647
-1.918 6.728 1.604 2535
-2.060 7.224 1.690 2050
-2.161 7.579 1.743 1536
-2.162 7.583 1.720 1496
-2.219 7.782 1.738 1593
-2.220 7.786 1.714 1401
-2.210 7.753 1.683 1667
-2.214 7.765 1.661 1392
-2.324 8.151 1.712 1740
-2.393 8.395 1.733 1997
-2.395 8.400 1.708 1926
-2.449 8.591 1.717 1697
-2.457 8.618 1.695 1604
-2.458 8.623 1.669 1209
-2.545 8.927 1.696 782
-2.544 8.924 1.668 750
-2.590 9.086 1.667 686
-2.469 8.662 1.569 493
-2.571 9.019 1.600 263
-0.820 2.878 0.184 280
-0.820 2.878 0.176 367
-0.820 2.878 0.167 430
-0.821 2.878 0.159 493
-0.821 2.878 0.150 469
-0.821 2.878 0.141 413
-0.821 2.878 0.133 381
-0.821 2.878 0.124 366
-0.818 2.870 0.116 353
-0.820 2.878 0.107 310
-0.820 2.878 0.099 269
-0.639 2.260 1.806 4959
-0.642 2.270 1.804 10066
-0.647 2.288 1.806 11416
-0.650 2.298 1.804 10490
-0.653 2.309 1.802 9925
-0.654 2.314 1.795 8786
-0.650 2.300 1.775 8212
-0.651 2.304 1.768 8212
-0.658 2.328 1.774 9055
-0.659 2.332 1.768 10464
-0.664 2.350 1.770 8728
-0.667 2.360 1.767 7250
-0.672 2.378 1.769 7926
-0.675 2.389 1.766 8781
-0.676 2.393 1.759 8030
-0.683 2.417 1.765 7050
-0.686 2.428 1.762 6742
-0.687 2.432 1.755 5783
-0.681 2.411 1.731 5168
-0.692 2.448 1.745 6619
-0.695 2.459 1.742 8823
-0.698 2.469 1.739 7830
-0.703 2.487 1.740 7013
-0.719 2.543 1.766 5371
-0.724 2.560 1.767 6822
-0.723 2.558 1.755 7271
-0.724 2.563 1.748 7747
-0.726 2.567 1.740 9739
-0.727 2.572 1.732 11731
-0.730 2.583 1.729 11589
-0.733 2.594 1.725 11736
-0.736 2.605 1.722 7865
-0.750 2.655 1.742 5558
-0.754 2.666 1.738 4645
-0.764 2.704 1.750 5127
-0.767 2.715 1.746 4986
-0.776 2.746 1.754 4423
-0.817 2.889 1.828 4894
-0.818 2.894 1.820 5285
-0.821 2.905 1.815 4673
-0.821 2.903 1.803 6178
-0.822 2.908 1.794 7790
-0.825 2.919 1.789 9379
-0.828 2.930 1.784 9592
-0.833 2.948 1.783 8618
-0.833 2.946 1.771 6469
-0.853 3.018 1.799 5488
-0.832 2.942 1.745 4587
-0.831 2.940 1.733 3854
-0.861 3.045 1.780 4155
-0.862 3.050 1.771 6479
-0.861 3.048 1.758 9211
-0.861 3.045 1.745 9377
-0.860 3.043 1.732 8239
-0.861 3.048 1.723 6561
-0.897 3.174 1.778 8167
-0.900 3.186 1.773 12929
-0.902 3.190 1.763 15039
-0.903 3.195 1.753 12728
-0.920 3.254 1.772 8069
-0.919 3.252 1.759 9275
-0.920 3.256 1.749 9186
-0.924 3.268 1.743 8406
-0.933 3.300 1.746 7638
-0.965 3.415 1.791 6923
-0.966 3.419 1.781 8151
-0.964 3.410 1.764 8072
-1.000 3.539 1.813 7747
-0.998 3.530 1.796 9378
-0.999 3.534 1.786 9396
-1.006 3.560 1.785 9463
-1.007 3.565 1.774 10884
-1.007 3.562 1.760 10071
-1.006 3.560 1.746 9364
-1.011 3.578 1.742 8988
-1.013 3.583 1.731 6900
-1.049 3.713 1.777 5133
-1.059 3.746 1.778 5370
-1.072 3.792 1.786 5141
-1.077 3.811 1.780 4619
-1.078 3.816 1.769 5681
-1.080 3.820 1.758 8937
-1.083 3.832 1.749 9930
-1.086 3.843 1.741 6927
-1.110 3.926 1.762 4476
-1.111 3.930 1.750 5289
-1.112 3.935 1.738 7363
-1.117 3.953 1.732 9041
-1.121 3.965 1.723 8132
-1.120 3.962 1.708 5985
-1.157 4.095 1.748 4364
-1.157 4.092 1.732 4307
-1.152 4.075 1.712 4934
-1.181 4.179 1.738 5278
-1.176 4.162 1.718 6017
-1.176 4.160 1.702 4545
-1.183 4.185 1.698 1976
-1.194 4.226 1.699 2914
-1.220 4.316 1.718 5626
-1.221 4.321 1.705 6366
-1.226 4.339 1.697 5644
-1.230 4.351 1.687 4663
-1.262 4.463 1.713 4218
-1.261 4.461 1.697 4896
-1.286 4.552 1.714 3628
-1.284 4.541 1.695 4252
-1.307 4.625 1.709 5542
-1.311 4.637 1.697 5378
-1.324 4.685 1.698 4412
-1.327 4.696 1.686 3763
-1.329 4.701 1.672 3516
-1.332 4.712 1.660 2867
-1.356 4.797 1.672 2918
-1.396 4.939 1.702 4512
-1.397 4.944 1.687 3702
-1.413 4.999 1.688 3921
-1.416 5.011 1.675 4370
-1.409 4.986 1.651 3515
-1.448 5.122 1.676 2774
-1.455 5.148 1.668 2209
-1.496 5.291 1.693 2475
-1.503 5.318 1.684 2757
-1.502 5.315 1.666 4217
-1.503 5.319 1.650 3211
-1.569 5.551 1.698 3482
-1.570 5.555 1.682 3047
-1.603 5.670 1.696 3263
-1.606 5.682 1.681 4185
-1.607 5.686 1.664 4149
-1.608 5.690 1.646 3351
-1.580 5.591 1.602 3023
-1.579 5.588 1.583 3296
-1.702 6.021 1.677 2822
-1.732 6.129 1.685 3252
-1.733 6.133 1.667 3711
-1.747 6.182 1.659 2589
-1.748 6.186 1.641 3583
-1.754 6.205 1.626 3383
-1.757 6.217 1.609 3490
-1.758 6.221 1.590 2419
-1.900 6.723 1.687 2388
-1.899 6.720 1.665 2223
-1.898 6.717 1.643 1933
-1.902 6.728 1.625 2410
-1.903 6.732 1.604 2248
-2.041 7.221 1.689 1794
-2.146 7.591 1.745 1472
-2.147 7.596 1.722 1493
-2.201 7.787 1.738 1480
-2.204 7.799 1.716 1399
-2.193 7.758 1.683 1651
-2.198 7.778 1.663 1384
-2.305 8.156 1.712 1686
-2.374 8.401 1.733 1835
-2.376 8.405 1.708 1885
-2.430 8.597 1.717 1635
-2.435 8.616 1.694 1552
-2.519 8.913 1.720 1222
-2.521 8.918 1.693 956
-2.522 8.922 1.666 815
-2.570 9.092 1.667 676
-2.473 8.750 1.583 535
-2.551 9.025 1.600 343
-0.814 2.880 0.176 316
-0.814 2.880 0.167 372
-0.814 2.880 0.159 429
-0.814 2.880 0.150 421
-0.814 2.880 0.141 385
-0.814 2.880 0.133 357
-0.814 2.880 0.124 336
-0.814 2.880 0.116 315
-0.814 2.880 0.107 287
-0.814 2.880 0.099 260
-0.636 2.260 1.806 4854
-0.639 2.271 1.804 9818
-0.644 2.288 1.806 10992
-0.647 2.299 1.804 9972
-0.650 2.310 1.802 9406
-0.651 2.315 1.795 8730
-0.647 2.301 1.775 8589
-0.648 2.305 1.768 8589
-0.655 2.329 1.774 9620
-0.658 2.340 1.772 11196
-0.661 2.350 1.770 9268
-0.664 2.361 1.767 7655
-0.669 2.378 1.769 8244
-0.672 2.389 1.766 8981
-0.675 2.400 1.763 8266
-0.680 2.418 1.765 7455
-0.683 2.428 1.762 7195
-0.684 2.433 1.755 6067
-0.678 2.412 1.731 5220
-0.689 2.448 1.745 6720
-0.692 2.459 1.742 8894
-0.695 2.470 1.739 7982
-0.698 2.481 1.736 7152
-0.716 2.544 1.766 5545
-0.720 2.561 1.767 7067
-0.720 2.559 1.755 7511
-0.719 2.557 1.744 7979
-0.722 2.568 1.740 9970
-0.724 2.573 1.732 11970
-0.725 2.577 1.725 11547
-0.728 2.588 1.721 11316
-0.727 2.586 1.709 7427
-0.749 2.663 1.746 5725
-0.748 2.661 1.734 6289
-0.748 2.659 1.722 6918
-0.755 2.683 1.726 6668
-0.758 2.694 1.722 6753
-0.761 2.705 1.718 6368
-0.760 2.703 1.706 5857
-0.758 2.694 1.690 5762
-0.817 2.904 1.803 6233
-0.818 2.909 1.794 7802
-0.820 2.913 1.785 9576
-0.825 2.931 1.784 9731
-0.830 2.949 1.783 8898
-0.829 2.947 1.771 6488
-0.849 3.019 1.799 4991
-0.828 2.943 1.745 4391
-0.856 3.042 1.789 4089
-0.857 3.046 1.780 5457
-0.858 3.051 1.771 7020
-0.859 3.056 1.761 8775
-0.857 3.047 1.745 8647
-0.856 3.044 1.732 7617
-0.886 3.151 1.777 6325
-0.893 3.176 1.778 9390
-0.896 3.187 1.773 15832
-0.898 3.192 1.763 18617
-0.899 3.196 1.753 15690
-0.896 3.187 1.737 8222
-0.917 3.260 1.762 8383
-0.916 3.258 1.749 8712
-0.921 3.276 1.746 8670
-0.927 3.294 1.743 8023
-0.961 3.416 1.791 6384
-0.962 3.420 1.781 7832
-0.958 3.404 1.760 8353
-0.996 3.540 1.813 7248
-0.991 3.524 1.793 8870
-0.993 3.529 1.782 8715
-1.002 3.561 1.785 8924
-1.003 3.566 1.774 10413
-1.002 3.563 1.760 9555
-1.002 3.561 1.746 8886
-1.007 3.579 1.742 8605
-1.010 3.591 1.734 6827
-1.047 3.721 1.780 5145
-1.054 3.747 1.778 5416
-1.067 3.794 1.786 4723
-1.072 3.812 1.780 4214
-1.074 3.817 1.769 5265
-1.075 3.822 1.758 8460
-1.078 3.833 1.749 9430
-1.081 3.845 1.741 6437
-1.091 3.877 1.741 4891
-1.104 3.924 1.747 5230
-1.107 3.936 1.738 7314
-1.114 3.962 1.735 9452
-1.116 3.966 1.723 8276
-1.117 3.971 1.711 5437
-1.152 4.096 1.748 4313
-1.149 4.086 1.730 4482
-1.147 4.076 1.712 5100
-1.176 4.181 1.738 5697
-1.173 4.171 1.720 6310
-1.170 4.161 1.702 3824
-1.212 4.309 1.744 1873
-1.189 4.227 1.699 3250
-1.214 4.318 1.718 6023
-1.216 4.322 1.705 6641
-1.221 4.341 1.697 5840
-1.226 4.360 1.690 4736
-1.254 4.458 1.710 4558
-1.257 4.469 1.699 5610
-1.281 4.553 1.714 3736
-1.278 4.543 1.695 4538
-1.291 4.591 1.696 4985
-1.303 4.631 1.695 4718
-1.320 4.694 1.700 4117
-1.322 4.698 1.686 3760
-1.323 4.702 1.672 3560
-1.326 4.714 1.660 2928
-1.350 4.798 1.672 2906
-1.388 4.934 1.700 4941
-1.389 4.938 1.685 4237
-1.407 5.001 1.688 3316
-1.408 5.005 1.673 3709
-1.403 4.987 1.651 3483
-1.439 5.116 1.674 2540
-1.457 5.179 1.676 2226
-1.458 5.183 1.661 2068
-1.496 5.320 1.684 2212
-1.495 5.317 1.666 3972
-1.495 5.313 1.648 3297
-1.560 5.546 1.696 2992
-1.563 5.557 1.682 2834
-1.560 5.547 1.661 2873
-1.559 5.544 1.642 3774
-1.561 5.548 1.626 4048
-1.562 5.552 1.609 3340
-1.569 5.578 1.598 3414
-1.572 5.590 1.583 3491
-1.661 5.905 1.647 2910
-1.722 6.123 1.683 3113
-1.726 6.135 1.667 3940
-1.737 6.176 1.658 2878
-1.741 6.188 1.641 3999
-1.744 6.200 1.624 3837
-1.747 6.211 1.607 3786
-1.750 6.223 1.590 2593
-1.898 6.748 1.692 2071
-1.899 6.752 1.672 2091
-1.888 6.711 1.641 1843
-1.891 6.723 1.623 2060
-1.894 6.735 1.604 1919
-2.030 7.216 1.687 1578
-2.134 7.586 1.743 1541
-2.135 7.591 1.720 1639
-2.136 7.595 1.698 1591
-2.197 7.809 1.717 1330
-2.183 7.761 1.683 1552
-2.189 7.780 1.663 1351
-2.295 8.159 1.712 1556
-2.364 8.403 1.733 1693
-2.365 8.408 1.708 1816
-2.419 8.600 1.717 1414
-2.503 8.897 1.744 1509
-2.508 8.917 1.720 1323
-2.509 8.921 1.693 1099
-2.508 8.918 1.665 860
-2.463 8.757 1.610 660
-2.462 8.753 1.583 708
-2.539 9.028 1.600 420
-0.810 2.881 0.167 293
-0.810 2.881 0.159 337
-0.810 2.881 0.150 351
-0.810 2.881 0.141 354
-0.810 2.881 0.133 344
-0.810 2.881 0.124 317
-0.808 2.873 0.116 294
-0.810 2.881 0.107 257
-0.630 2.262 1.806 4600
-0.633 2.273 1.804 9299
-0.638 2.290 1.806 10315
-0.641 2.301 1.804 9230
-0.644 2.312 1.802 8670
-0.645 2.316 1.795 8479
-0.642 2.302 1.775 8796
-0.643 2.307 1.768 8796
-0.649 2.330 1.774 9922
-0.652 2.341 1.772 11591
-0.655 2.352 1.770 9591
-0.662 2.375 1.776 8048
-0.665 2.386 1.773 8464
-0.666 2.391 1.766 9058
-0.669 2.402 1.763 8408
-0.674 2.419 1.765 7750
-0.677 2.430 1.762 7473
-0.678 2.435 1.755 6171
-0.673 2.414 1.731 4966
-0.683 2.450 1.745 6547
-0.686 2.461 1.742 8574
-0.689 2.472 1.739 7819
-0.690 2.476 1.731 7086
-0.709 2.545 1.766 5484
-0.714 2.563 1.767 7092
-0.714 2.561 1.755 7452
-0.713 2.559 1.744 7883
-0.716 2.570 1.740 9751
-0.717 2.575 1.732 11671
-0.719 2.579 1.725 11162
-0.720 2.584 1.717 10652
-0.721 2.588 1.709 7182
-0.730 2.619 1.718 3842
-0.733 2.630 1.714 4487
-0.741 2.660 1.722 6151
-0.748 2.685 1.726 7151
-0.751 2.696 1.722 7130
-0.747 2.680 1.702 5632
-0.807 2.897 1.820 5280
-0.784 2.815 1.761 5249
-0.810 2.906 1.803 6280
-0.809 2.904 1.790 8212
-0.812 2.915 1.785 9723
-0.817 2.933 1.784 9749
-0.822 2.951 1.783 8961
-0.824 2.956 1.774 6500
-0.840 3.014 1.796 4583
-0.824 2.958 1.753 4346
-0.850 3.051 1.792 4670
-0.849 3.048 1.780 6773
-0.853 3.060 1.774 7908
-0.852 3.058 1.761 9008
-0.851 3.055 1.749 8409
-0.849 3.046 1.732 6933
-0.877 3.146 1.774 6232
-0.887 3.185 1.782 10187
-0.889 3.189 1.773 16844
-0.890 3.194 1.763 19310
-0.891 3.198 1.753 16421
-0.891 3.196 1.740 8196
-0.909 3.262 1.762 8269
-0.908 3.260 1.749 8558
-0.912 3.271 1.743 8707
-0.919 3.296 1.743 7178
-0.952 3.418 1.791 5898
-0.954 3.423 1.781 7417
-0.949 3.407 1.760 8523
-0.964 3.460 1.773 7378
-0.967 3.471 1.766 8908
-0.984 3.531 1.782 7808
-0.995 3.571 1.788 8067
-0.996 3.575 1.777 9431
-0.994 3.566 1.760 8578
-0.993 3.563 1.746 7999
-0.998 3.582 1.742 7886
-1.001 3.593 1.734 6852
-1.018 3.654 1.749 5037
-1.043 3.743 1.775 5386
-1.058 3.796 1.786 4175
-1.063 3.815 1.780 3669
-1.064 3.820 1.769 4714
-1.066 3.824 1.758 7788
-1.069 3.836 1.749 8767
-1.074 3.854 1.744 5977
-1.083 3.887 1.744 5462
-1.092 3.920 1.744 5327
-1.098 3.939 1.738 7155
-1.105 3.964 1.735 9600
-1.106 3.969 1.723 8354
-1.107 3.973 1.711 5156
-1.140 4.092 1.745 4041
-1.135 4.075 1.724 4495
-1.137 4.079 1.712 5007
-1.164 4.177 1.736 5976
-1.165 4.181 1.723 6782
-1.164 4.178 1.708 3687
-1.192 4.276 1.730 2277
-1.203 4.316 1.731 3657
-1.204 4.321 1.718 6240
-1.207 4.332 1.708 6617
-1.212 4.351 1.700 5822
-1.216 4.363 1.690 4516
-1.243 4.461 1.710 4793
-1.246 4.472 1.699 6024
-1.249 4.484 1.688 3797
-1.269 4.553 1.697 4551
-1.278 4.587 1.694 4939
-1.281 4.598 1.682 4769
-1.309 4.697 1.700 3712
-1.310 4.701 1.686 3576
-1.311 4.706 1.672 3331
-1.314 4.717 1.660 2829
-1.338 4.802 1.672 2906
-1.376 4.937 1.700 5129
-1.377 4.941 1.685 4482
