-0.758 2.882 1.724 6232
-0.760 2.886 1.715 6797
-0.759 2.884 1.703 5687
-0.782 2.969 1.739 5518
-0.790 3.001 1.745 6420
-0.793 3.012 1.739 7349
-0.792 3.010 1.727 7019
-0.799 3.035 1.729 6807
-0.800 3.039 1.720 6864
-0.799 3.037 1.707 6706
-0.818 3.110 1.734 7730
-0.821 3.121 1.728 9678
-0.823 3.126 1.719 8413
-0.826 3.137 1.713 7683
-0.825 3.134 1.700 6651
-0.824 3.132 1.688 5446
-0.865 3.288 1.754 6568
-0.856 3.251 1.724 10798
-0.857 3.256 1.714 13856
-0.858 3.260 1.704 11864
-0.866 3.292 1.708 6563
-0.869 3.303 1.702 4787
-0.871 3.308 1.692 5574
-0.897 3.410 1.728 7267
-0.904 3.435 1.728 7714
-0.909 3.453 1.724 7118
-0.910 3.458 1.714 6724
-0.917 3.483 1.713 5445
-0.940 3.572 1.741 3717
-0.941 3.576 1.731 4728
-0.942 3.581 1.720 5891
-0.945 3.592 1.712 5059
-0.971 3.688 1.742 4336
-0.963 3.658 1.716 4721
-0.992 3.768 1.751 4171
-0.993 3.772 1.739 3888
-0.994 3.777 1.728 3702
-0.993 3.774 1.714 3546
-1.009 3.835 1.727 3800
-1.039 3.946 1.760 3988
-1.040 3.951 1.748 5619
-1.041 3.956 1.736 5836
-1.042 3.960 1.724 7766
-1.045 3.972 1.715 9716
-1.046 3.976 1.703 8388
-1.050 3.988 1.694 5995
-1.056 4.014 1.691 5586
-1.080 4.104 1.712 6284
-1.083 4.115 1.703 5605
-1.094 4.156 1.704 8106
-1.095 4.160 1.692 9178
-1.100 4.179 1.685 8878
-1.101 4.183 1.672 6737
-1.112 4.224 1.673 5516
-1.109 4.214 1.655 5144
-1.106 4.203 1.638 3986
-1.149 4.367 1.682 3584
-1.156 4.393 1.677 4064
-1.152 4.375 1.656 4158
-1.155 4.387 1.645 3462
-1.184 4.500 1.670 3593
-1.170 4.446 1.637 5332
-1.194 4.538 1.653 6180
-1.194 4.535 1.637 6191
-1.193 4.532 1.621 4346
-1.228 4.667 1.650 4096
-1.228 4.664 1.634 3540
-1.233 4.683 1.625 3130
-1.253 4.760 1.634 3206
-1.254 4.765 1.620 4270
-1.255 4.769 1.606 3409
-1.256 4.773 1.591 2728
-1.292 4.909 1.617 3065
-1.299 4.935 1.609 3777
-1.302 4.947 1.597 3099
-1.309 4.973 1.589 3512
-1.335 5.073 1.602 3122
-1.330 5.055 1.580 2532
-1.345 5.111 1.580 2908
-1.350 5.129 1.569 4673
-1.351 5.133 1.553 3965
-1.430 5.433 1.619 2756
-1.447 5.497 1.619 4581
-1.452 5.516 1.607 4424
-1.459 5.542 1.596 7272
-1.458 5.539 1.578 6935
-1.453 5.520 1.555 3982
-1.472 5.591 1.556 4298
-1.471 5.588 1.537 3948
-1.536 5.837 1.582 4684
-1.537 5.841 1.564 3852
-1.570 5.965 1.576 3903
-1.571 5.969 1.558 4165
-1.582 6.010 1.549 2830
-1.667 6.335 1.606 2818
-1.678 6.377 1.596 3385
-1.693 6.433 1.589 2512
-1.791 6.804 1.651 1528
-1.786 6.785 1.626 1687
-1.793 6.812 1.611 2123
-1.794 6.816 1.590 3292
-1.793 6.813 1.568 3135
-1.794 6.817 1.548 2185
-1.934 7.346 1.635 1979
-1.939 7.366 1.616 2192
-2.092 7.949 1.709 2312
-2.095 7.961 1.687 2412
-2.094 7.957 1.662 2631
-2.113 8.029 1.651 3287
-2.114 8.034 1.626 3761
-2.115 8.038 1.602 2575
-2.117 8.042 1.578 2355
-2.118 8.046 1.554 2652
-2.119 8.050 1.530 2069
-2.263 8.598 1.599 1962
-2.262 8.594 1.572 1710
-2.351 8.931 1.601 1400
-2.352 8.935 1.574 1616
-2.355 8.947 1.548 1339
-2.410 9.155 1.553 1075
-2.367 8.992 1.500 702
-2.390 9.079 1.486 322
-0.590 2.258 1.773 3120
-0.591 2.263 1.766 6240
-0.592 2.267 1.759 6240
-0.596 2.284 1.762 5121
-0.601 2.301 1.764 4684
-0.600 2.300 1.753 5514
-0.602 2.304 1.746 6421
-0.603 2.309 1.739 6421
-0.606 2.320 1.737 8270
-0.610 2.337 1.739 10716
-0.611 2.341 1.732 10244
-0.612 2.346 1.725 9771
-0.624 2.389 1.744 8900
-0.626 2.400 1.742 10160
-0.626 2.398 1.730 10862
-0.625 2.396 1.719 12184
-0.627 2.400 1.712 12332
-0.626 2.398 1.701 9441
-0.629 2.409 1.698 6484
-0.630 2.413 1.691 6400
-0.633 2.424 1.688 6352
-0.656 2.513 1.735 5951
-0.656 2.511 1.724 6124
-0.655 2.509 1.712 6461
-0.653 2.500 1.696 7087
-0.657 2.518 1.697 6529
-0.660 2.529 1.694 6270
-0.677 2.592 1.723 6939
-0.676 2.590 1.712 7880
-0.682 2.614 1.716 7549
-0.687 2.632 1.716 8854
-0.690 2.643 1.713 10187
-0.693 2.654 1.709 11632
-0.692 2.652 1.697 8926
-0.693 2.656 1.689 6300
-0.698 2.674 1.689 4974
-0.704 2.698 1.693 5830
-0.706 2.702 1.685 7038
-0.707 2.707 1.677 5552
-0.746 2.858 1.754 4727
-0.747 2.863 1.745 6251
-0.749 2.867 1.737 7775
-0.748 2.865 1.724 6914
-0.751 2.876 1.720 6188
-0.754 2.888 1.715 6494
-0.753 2.885 1.703 5592
-0.776 2.971 1.739 5492
-0.784 3.002 1.745 6029
-0.787 3.014 1.739 6885
-0.786 3.012 1.727 6639
-0.793 3.036 1.729 6424
-0.794 3.041 1.720 6652
-0.791 3.032 1.704 6734
-0.812 3.111 1.734 7638
-0.815 3.123 1.728 9475
-0.816 3.127 1.719 8426
-0.821 3.145 1.717 8111
-0.819 3.136 1.700 6901
-0.818 3.134 1.688 5582
-0.859 3.290 1.754 7089
-0.849 3.253 1.724 10547
-0.850 3.257 1.714 13395
-0.852 3.262 1.704 11471
-0.860 3.294 1.708 6653
-0.865 3.312 1.705 4885
-0.866 3.317 1.695 5461
-0.891 3.411 1.728 7340
-0.895 3.430 1.725 7626
-0.900 3.448 1.721 6226
-0.903 3.460 1.714 5527
-0.912 3.492 1.716 4702
-0.935 3.581 1.744 3824
-0.936 3.585 1.734 4533
-0.937 3.590 1.723 5660
-0.938 3.594 1.712 5280
-0.965 3.697 1.745 4021
-0.955 3.659 1.716 4460
-0.984 3.770 1.751 3839
-0.985 3.774 1.739 4035
-0.985 3.772 1.725 4268
-0.986 3.776 1.714 3768
-0.985 3.774 1.700 3451
-1.031 3.949 1.760 3952
-1.032 3.953 1.748 5620
-1.033 3.958 1.736 5555
-1.034 3.962 1.724 7006
-1.036 3.967 1.712 9028
-1.039 3.978 1.703 7897
-1.042 3.990 1.694 5841
-1.048 4.016 1.691 6100
-1.048 4.013 1.676 6741
-1.075 4.118 1.703 6306
-1.086 4.158 1.704 8445
-1.087 4.162 1.692 9875
-1.092 4.181 1.685 9762
-1.093 4.185 1.672 7267
-1.101 4.219 1.671 4981
-1.101 4.216 1.655 4464
-1.138 4.357 1.692 4002
-1.143 4.376 1.685 3963
-1.147 4.395 1.677 4576
-1.145 4.385 1.659 4556
-1.146 4.389 1.645 3541
-1.149 4.401 1.635 3166
-1.161 4.449 1.637 5262
-1.185 4.540 1.653 6100
-1.185 4.537 1.637 5877
-1.182 4.527 1.619 3995
-1.221 4.677 1.653 3854
-1.222 4.681 1.639 3264
-1.225 4.693 1.627 2805
-1.243 4.763 1.634 3075
-1.245 4.767 1.620 4270
-1.246 4.771 1.606 3606
-1.247 4.775 1.591 2816
-1.284 4.919 1.620 3100
-1.289 4.938 1.609 4238
-1.292 4.949 1.597 3270
-1.305 4.998 1.595 3615
-1.312 5.024 1.587 3260
-1.322 5.065 1.582 2809
-1.333 5.106 1.578 2956
-1.340 5.132 1.569 4079
-1.341 5.136 1.553 3589
-1.388 5.318 1.587 2924
-1.438 5.507 1.621 4472
-1.441 5.519 1.607 4441
-1.446 5.537 1.594 7698
-1.447 5.542 1.578 7642
-1.444 5.531 1.557 4237
-1.462 5.602 1.558 4311
-1.460 5.591 1.537 3382
-1.525 5.840 1.582 4970
-1.526 5.844 1.564 3707
-1.527 5.848 1.547 3400
-1.561 5.979 1.560 3753
-1.570 6.013 1.549 2744
-1.626 6.226 1.580 2723
-1.668 6.387 1.597 3276
-1.678 6.429 1.587 2516
-1.664 6.373 1.554 1519
-1.772 6.789 1.626 1882
-1.777 6.808 1.609 2216
-1.780 6.820 1.590 3299
-1.780 6.816 1.568 3144
-1.781 6.820 1.548 2357
-1.784 6.832 1.529 1923
-1.924 7.369 1.616 2155
-2.076 7.953 1.709 2126
-2.081 7.972 1.688 2242
-2.081 7.969 1.663 2587
-2.097 8.034 1.651 3280
-2.096 8.030 1.625 3803
-2.096 8.027 1.600 2882
-2.099 8.039 1.577 2870
-2.102 8.050 1.554 3027
-2.101 8.047 1.529 2186
-2.248 8.610 1.600 1622
-2.332 8.931 1.627 1496
-2.331 8.928 1.599 1354
-2.332 8.932 1.573 1659
-2.335 8.944 1.547 1352
-2.354 9.016 1.531 1174
-2.353 9.012 1.503 774
-2.370 9.077 1.485 426
-0.584 2.259 1.773 2398
-0.585 2.264 1.766 4796
-0.587 2.269 1.759 4796
-0.591 2.286 1.762 4141
-0.597 2.309 1.769 4098
-0.595 2.301 1.753 4963
-0.594 2.299 1.742 5985
-0.596 2.304 1.735 5985
-0.600 2.321 1.737 7956
-0.603 2.332 1.734 10537
-0.606 2.343 1.732 10209
-0.607 2.347 1.725 9920
-0.618 2.390 1.744 8526
-0.621 2.401 1.742 9847
-0.620 2.399 1.730 10909
-0.620 2.397 1.719 12683
-0.619 2.395 1.708 12869
-0.620 2.400 1.701 9956
-0.622 2.404 1.693 7004
-0.623 2.408 1.686 6358
-0.651 2.516 1.747 6040
-0.650 2.514 1.735 5740
-0.650 2.512 1.724 5727
-0.649 2.510 1.712 6272
-0.647 2.502 1.696 7005
-0.651 2.519 1.697 6504
-0.671 2.596 1.735 6411
-0.669 2.587 1.719 6903
-0.670 2.592 1.712 7760
-0.675 2.609 1.712 6801
-0.683 2.640 1.720 7220
-0.684 2.644 1.713 8755
-0.687 2.656 1.709 10345
-0.686 2.653 1.697 8159
-0.687 2.658 1.689 6029
-0.693 2.682 1.693 5197
-0.698 2.700 1.693 6560
-0.699 2.704 1.685 7613
-0.702 2.715 1.681 5948
-0.741 2.867 1.758 4785
-0.741 2.865 1.745 6313
-0.742 2.869 1.737 7858
-0.741 2.867 1.724 6895
-0.744 2.878 1.720 5712
-0.747 2.889 1.715 5610
-0.746 2.887 1.703 5078
-0.767 2.966 1.735 5507
-0.775 2.998 1.741 5571
-0.780 3.016 1.739 6387
-0.779 3.013 1.727 6322
-0.782 3.025 1.722 6131
-0.785 3.036 1.716 6615
-0.784 3.034 1.704 6910
-0.807 3.120 1.737 7536
-0.808 3.125 1.728 9219
-0.811 3.136 1.722 8547
-0.814 3.147 1.717 8662
-0.813 3.145 1.704 7359
-0.811 3.135 1.688 5888
-0.851 3.292 1.754 7526
-0.841 3.255 1.724 10106
-0.843 3.259 1.714 12683
-0.844 3.264 1.704 10912
-0.854 3.303 1.711 6782
-0.857 3.314 1.705 5134
-0.858 3.319 1.695 5309
-0.883 3.414 1.728 7100
-0.887 3.432 1.725 7247
-0.890 3.443 1.718 5687
-0.893 3.455 1.711 4933
-0.923 3.571 1.752 4572
-0.926 3.583 1.744 4093
-0.927 3.587 1.734 4483
-0.929 3.592 1.723 5592
-0.930 3.596 1.712 5739
-0.935 3.615 1.708 4462
-0.947 3.662 1.716 4187
-0.972 3.758 1.745 3779
-0.975 3.770 1.736 4618
-0.976 3.774 1.725 5436
-0.977 3.779 1.714 4782
-0.976 3.776 1.700 4024
-0.979 3.787 1.692 3861
-1.023 3.956 1.748 5364
-0.992 3.839 1.686 6000
-1.025 3.965 1.724 6117
-1.026 3.969 1.712 8143
-1.029 3.981 1.703 7324
-1.032 3.992 1.694 5716
-1.039 4.018 1.691 6444
-1.038 4.015 1.676 7138
-1.065 4.120 1.703 6858
-1.068 4.132 1.693 8632
-1.077 4.165 1.692 10172
-1.082 4.184 1.685 10208
-1.081 4.181 1.670 7641
-1.086 4.200 1.663 4548
-1.087 4.204 1.650 3951
-1.129 4.367 1.695 4178
-1.134 4.386 1.687 4653
-1.137 4.398 1.677 5400
-1.136 4.395 1.661 5207
-1.135 4.392 1.645 3699
-1.138 4.403 1.635 3340
-1.141 4.415 1.624 5867
-1.142 4.419 1.611 7115
-1.172 4.533 1.634 5770
-1.171 4.530 1.619 3770
-1.210 4.680 1.653 3695
-1.213 4.691 1.641 2980
-1.189 4.600 1.597 2586
-1.232 4.766 1.634 2847
-1.233 4.770 1.620 4248
-1.234 4.774 1.606 3875
-1.235 4.778 1.591 2896
-1.274 4.929 1.622 3283
-1.277 4.941 1.609 4691
-1.278 4.945 1.595 3449
-1.295 5.008 1.597 3722
-1.298 5.020 1.585 3414
-1.314 5.083 1.587 3128
-1.321 5.109 1.578 3169
-1.324 5.120 1.564 3488
-1.376 5.324 1.605 3612
-1.376 5.321 1.587 3087
-1.425 5.510 1.621 4094
-1.430 5.529 1.609 4151
-1.434 5.548 1.596 7596
-1.434 5.545 1.578 7804
-1.446 5.594 1.573 4317
-1.449 5.605 1.558 4109
-1.508 5.832 1.598 3335
-1.509 5.837 1.580 5065
-1.495 5.781 1.548 3448
-1.559 6.031 1.590 3111
-1.556 6.020 1.569 3652
-1.556 6.017 1.549 2511
-1.611 6.230 1.580 2557
-1.656 6.406 1.601 3123
-1.661 6.425 1.585 2662
-1.658 6.414 1.563 1753
-1.756 6.793 1.626 2010
-1.761 6.812 1.609 2261
-1.764 6.824 1.590 3189
-1.763 6.821 1.568 2925
-1.764 6.825 1.548 2361
-1.765 6.829 1.527 2247
-1.906 7.374 1.616 2093
-1.874 7.250 1.569 2135
-2.074 8.022 1.697 2094
-2.062 7.974 1.663 2393
-2.076 8.031 1.649 3237
-2.077 8.035 1.625 3753
-2.075 8.024 1.598 3282
-2.080 8.044 1.577 3353
-2.081 8.048 1.553 3317
-2.205 8.528 1.611 2498
-2.206 8.532 1.586 1665
-2.310 8.937 1.627 1468
-2.310 8.934 1.599 1359
-2.309 8.930 1.571 1659
-2.368 9.161 1.581 1367
-2.334 9.029 1.532 1476
-2.335 9.033 1.505 997
-2.346 9.075 1.483 540
-0.580 2.254 1.768 1864
-0.582 2.258 1.761 3729
-0.583 2.263 1.755 3729
-0.584 2.267 1.748 3445
-0.595 2.310 1.769 3593
-0.591 2.295 1.748 4502
-0.592 2.300 1.742 5645
-0.594 2.304 1.735 5645
-0.598 2.322 1.737 7506
-0.601 2.333 1.734 10146
-0.602 2.337 1.728 9924
-0.605 2.348 1.725 9791
-0.608 2.359 1.723 8477
-0.619 2.402 1.742 9286
-0.618 2.400 1.730 10585
-0.616 2.391 1.715 12787
-0.617 2.396 1.708 12912
-0.617 2.394 1.696 10147
-0.618 2.398 1.689 7365
-0.620 2.409 1.686 6280
-0.648 2.517 1.747 5631
-0.648 2.515 1.735 5203
-0.647 2.513 1.724 5056
-0.647 2.511 1.712 5763
-0.646 2.509 1.701 6544
-0.649 2.520 1.697 6146
-0.669 2.596 1.735 6316
-0.666 2.588 1.719 6611
-0.666 2.586 1.707 7369
-0.670 2.603 1.708 6117
-0.680 2.641 1.720 5670
-0.681 2.645 1.713 7319
-0.684 2.656 1.709 8979
-0.684 2.654 1.697 7306
-0.685 2.658 1.689 5645
-0.693 2.689 1.697 5315
-0.696 2.700 1.693 6969
-0.697 2.705 1.685 7825
-0.699 2.716 1.681 6050
-0.704 2.734 1.681 4760
-0.738 2.865 1.745 6007
-0.739 2.870 1.737 7484
-0.740 2.874 1.728 6445
-0.719 2.791 1.671 5186
-0.746 2.897 1.719 4551
-0.761 2.955 1.740 4950
-0.764 2.967 1.735 5370
-0.772 2.998 1.741 5093
-0.775 3.010 1.736 5886
-0.776 3.014 1.727 6000
-0.779 3.025 1.722 5917
-0.782 3.037 1.716 6588
-0.782 3.034 1.704 6985
-0.804 3.121 1.737 7074
-0.805 3.125 1.728 8532
-0.808 3.137 1.722 8285
-0.811 3.148 1.717 8804
-0.812 3.152 1.707 7677
-0.818 3.178 1.708 6322
-0.848 3.292 1.754 7465
-0.838 3.256 1.724 9294
-0.838 3.253 1.711 11586
-0.841 3.264 1.704 10070
-0.853 3.310 1.715 6979
-0.856 3.322 1.708 5308
-0.857 3.326 1.698 4987
-0.879 3.414 1.728 6700
-0.882 3.426 1.721 6564
-0.885 3.437 1.714 5101
-0.885 3.435 1.701 4891
-0.918 3.565 1.749 5039
-0.923 3.584 1.744 4396
-0.926 3.595 1.737 4342
-0.925 3.593 1.723 5135
-0.927 3.597 1.712 5687
-0.931 3.616 1.708 4890
-0.962 3.733 1.746 4243
-0.941 3.653 1.699 3998
-0.971 3.771 1.736 5200
-0.972 3.775 1.725 6340
-0.973 3.780 1.714 5731
-0.973 3.777 1.700 4621
-0.976 3.788 1.692 4300
-0.982 3.814 1.689 6058
-0.989 3.840 1.686 6246
-1.020 3.958 1.721 5319
-1.023 3.970 1.712 7221
-1.025 3.982 1.703 6748
-1.005 3.900 1.658 5724
-1.035 4.019 1.691 6258
-1.034 4.016 1.676 6882
-1.060 4.114 1.700 7320
-1.063 4.126 1.691 9174
-1.069 4.152 1.687 9827
-1.078 4.185 1.685 9602
-1.077 4.182 1.670 7213
-1.082 4.201 1.663 4209
-1.083 4.205 1.650 4016
-1.084 4.209 1.638 4641
-1.130 4.387 1.687 5171
-1.131 4.392 1.674 5976
-1.130 4.389 1.659 5583
-1.131 4.393 1.645 3837
-1.134 4.404 1.635 3475
-1.136 4.409 1.622 6021
-1.138 4.420 1.611 7600
-1.166 4.526 1.632 5481
-1.165 4.523 1.616 3426
-1.208 4.688 1.655 3367
-1.192 4.627 1.620 3060
-1.191 4.624 1.604 2878
-1.228 4.767 1.634 2532
-1.229 4.771 1.620 4080
-1.230 4.775 1.606 3953
-1.229 4.772 1.589 2951
-1.272 4.938 1.624 3347
-1.273 4.942 1.609 4881
-1.274 4.946 1.595 3391
-1.292 5.017 1.599 3639
-1.293 5.021 1.585 3309
-1.313 5.099 1.591 3305
-1.316 5.110 1.578 3295
-1.317 5.114 1.562 3224
-1.372 5.326 1.605 3818
-1.373 5.330 1.589 3167
-1.420 5.512 1.621 3618
-1.424 5.531 1.609 3666
-1.429 5.550 1.596 7070
-1.429 5.546 1.578 7419
-1.441 5.595 1.573 4309
-1.444 5.606 1.558 3618
-1.503 5.834 1.598 3306
-1.502 5.830 1.578 4738
-1.489 5.782 1.548 3223
-1.556 6.040 1.592 3353
-1.553 6.029 1.571 3733
-1.552 6.026 1.551 2242
-1.601 6.217 1.576 2283
-1.652 6.415 1.603 2971
-1.653 6.419 1.583 2696
-1.652 6.416 1.563 1962
-1.750 6.795 1.626 1950
-1.751 6.799 1.606 2259
-1.758 6.826 1.590 2907
-1.755 6.815 1.567 2588
-1.756 6.819 1.546 2245
-1.759 6.830 1.527 2447
-1.900 7.376 1.616 1814
-1.868 7.252 1.569 2212
-2.065 8.017 1.696 1898
-2.056 7.983 1.664 2152
-2.069 8.033 1.649 3026
-2.070 8.037 1.625 3534
-2.067 8.026 1.598 3417
-2.072 8.045 1.577 3502
-2.073 8.049 1.553 3297
-2.197 8.530 1.611 2691
-2.198 8.534 1.586 1790
-2.304 8.947 1.629 1445
-2.300 8.928 1.598 1315
-2.301 8.932 1.571 1573
-2.360 9.163 1.581 1381
-2.328 9.039 1.533 1688
-2.331 9.050 1.507 1210
-2.338 9.077 1.483 651
-2.364 9.179 1.471 269
-0.462 1.792 0.334 261
-0.573 2.249 1.763 1504
-0.574 2.254 1.757 3009
-0.575 2.258 1.750 3009
-0.586 2.300 1.771 3062
-0.589 2.311 1.769 3376
-0.580 2.278 1.735 4546
-0.581 2.283 1.728 5883
-0.582 2.287 1.721 5883
-0.590 2.317 1.732 7237
-0.594 2.334 1.734 9875
-0.595 2.339 1.728 9812
-0.598 2.350 1.725 9769
-0.601 2.360 1.723 8541
-0.612 2.403 1.742 8764
-0.608 2.389 1.722 10452
-0.609 2.393 1.715 12938
-0.610 2.397 1.708 12987
-0.610 2.395 1.696 10460
-0.611 2.400 1.689 7850
-0.612 2.404 1.682 6388
-0.641 2.519 1.747 5002
-0.639 2.510 1.731 4537
-0.639 2.508 1.719 4299
-0.640 2.513 1.712 5171
-0.641 2.517 1.705 6042
-0.644 2.528 1.701 5737
-0.662 2.598 1.735 6025
-0.659 2.590 1.719 6134
-0.659 2.587 1.707 6810
-0.663 2.605 1.708 5557
-0.666 2.616 1.704 4650
-0.676 2.654 1.717 5954
-0.675 2.651 1.705 7727
-0.676 2.656 1.697 6480
-0.677 2.660 1.689 5233
-0.685 2.691 1.697 5463
-0.688 2.702 1.693 7404
-0.689 2.707 1.685 8083
-0.692 2.718 1.681 6139
-0.696 2.735 1.681 4600
-0.732 2.874 1.749 5560
-0.731 2.872 1.737 6784
-0.732 2.876 1.728 5719
-0.711 2.793 1.671 5179
-0.752 2.953 1.749 5359
-0.753 2.957 1.740 5372
-0.754 2.962 1.731 5386
-0.762 2.994 1.737 4630
-0.767 3.012 1.736 5432
-0.768 3.016 1.727 5781
-0.771 3.028 1.722 5825
-0.774 3.039 1.716 6700
-0.773 3.036 1.704 7177
-0.795 3.123 1.737 6408
-0.796 3.128 1.728 7609
-0.799 3.139 1.722 7904
-0.802 3.150 1.717 9003
-0.805 3.162 1.711 8226
-0.810 3.180 1.708 6949
-0.839 3.295 1.754 7146
-0.829 3.258 1.724 8468
-0.829 3.255 1.711 10614
-0.832 3.267 1.704 9320
-0.845 3.320 1.718 7286
-0.846 3.324 1.708 5542
-0.848 3.329 1.698 4787
-0.870 3.417 1.728 6854
-0.873 3.428 1.721 6433
-0.874 3.433 1.711 4528
-0.873 3.430 1.698 4316
-0.908 3.568 1.749 5207
-0.913 3.586 1.744 4672
-0.916 3.598 1.737 4229
-0.915 3.595 1.723 4573
-0.918 3.607 1.715 5391
-0.921 3.618 1.708 5055
-0.949 3.729 1.743 4318
-0.931 3.655 1.699 4530
-0.961 3.773 1.736 5661
-0.962 3.778 1.725 7056
-0.963 3.782 1.714 6544
-0.962 3.780 1.700 5186
-0.965 3.791 1.692 4860
-0.972 3.817 1.689 7304
-0.977 3.835 1.684 6540
-1.007 3.954 1.718 4548
-1.012 3.973 1.712 6234
-1.013 3.977 1.701 6156
-0.996 3.910 1.660 6900
-1.024 4.022 1.691 5777
-1.021 4.012 1.673 6263
-1.045 4.102 1.695 7590
-1.047 4.114 1.685 9866
-1.049 4.118 1.673 10339
-1.068 4.195 1.688 8420
-1.066 4.185 1.670 6388
-1.068 4.196 1.660 4084
-1.073 4.215 1.653 4973
-1.074 4.219 1.640 6018
-1.118 4.390 1.687 5448
-1.119 4.395 1.674 6353
-1.118 4.392 1.659 5904
-1.119 4.396 1.645 3837
-1.122 4.408 1.635 3375
-1.123 4.412 1.622 5759
-1.124 4.416 1.609 7464
-1.127 4.427 1.598 5127
-1.151 4.519 1.614 3158
-1.176 4.618 1.631 3652
-1.177 4.623 1.618 3744
-1.180 4.634 1.606 3432
-1.181 4.638 1.592 2609
-1.216 4.774 1.620 3814
-1.217 4.779 1.606 3997
-1.220 4.790 1.594 3073
-1.258 4.941 1.624 3291
-1.259 4.946 1.609 4845
-1.260 4.950 1.595 3232
-1.278 5.020 1.599 3504
-1.279 5.024 1.585 3070
-1.303 5.117 1.595 3479
-1.304 5.121 1.580 3312
-1.303 5.118 1.562 2953
-1.357 5.329 1.605 3941
-1.358 5.333 1.589 3501
-1.393 5.471 1.609 3377
-1.392 5.468 1.591 3905
-1.414 5.554 1.596 6292
-1.415 5.558 1.580 6670
-1.424 5.591 1.571 4161
-1.427 5.603 1.556 3316
-1.458 5.726 1.569 3553
-1.482 5.820 1.574 4110
-1.473 5.786 1.548 2915
-1.539 6.044 1.592 3340
-1.538 6.041 1.572 3777
-1.539 6.045 1.554 2129
-1.584 6.221 1.576 1948
-1.635 6.420 1.603 2726
-1.636 6.424 1.583 2657
-1.635 6.420 1.563 2021
-1.609 6.319 1.520 1897
-1.730 6.796 1.604 2271
-1.735 6.815 1.587 2574
-1.733 6.804 1.563 2319
-1.735 6.816 1.545 2054
-1.742 6.843 1.529 2541
-1.847 7.253 1.590 2023
-1.848 7.257 1.569 2191
-1.895 7.442 1.582 1953
-2.042 8.019 1.670 1818
-2.045 8.031 1.648 2756
-2.046 8.035 1.624 3220
-2.047 8.040 1.600 3354
-2.050 8.051 1.577 3498
-2.051 8.055 1.553 3109
-2.173 8.536 1.611 2726
-2.174 8.540 1.586 1825
-2.285 8.976 1.632 1429
-2.275 8.934 1.598 1166
-2.274 8.931 1.570 1362
-2.335 9.170 1.581 1335
-2.303 9.045 1.533 1909
-2.306 9.057 1.507 1437
-2.311 9.076 1.482 699
-2.339 9.186 1.471 285
-0.457 1.793 0.339 258
-0.457 1.794 0.334 270
-0.555 2.200 1.727 1444
-0.556 2.205 1.720 2889
-0.557 2.209 1.714 2889
-0.559 2.214 1.707 3011
-0.583 2.313 1.769 3416
-0.575 2.279 1.735 4838
-0.575 2.278 1.724 6457
-0.576 2.282 1.717 6457
-0.585 2.318 1.732 7112
-0.588 2.329 1.730 9689
-0.590 2.340 1.728 9791
-0.591 2.344 1.721 9900
-0.594 2.355 1.718 8752
-0.607 2.405 1.742 8159
-0.601 2.383 1.717 10374
-0.604 2.394 1.715 12788
-0.604 2.392 1.703 12827
-0.605 2.397 1.696 10482
-0.606 2.401 1.689 8061
-0.607 2.406 1.682 6356
-0.608 2.410 1.675 4652
-0.609 2.414 1.668 3736
-0.633 2.510 1.719 3499
-0.634 2.514 1.712 4518
-0.635 2.519 1.705 5538
-0.638 2.530 1.701 5297
-0.656 2.600 1.735 5557
-0.657 2.604 1.727 5551
-0.651 2.582 1.703 6129
-0.656 2.600 1.704 5059
-0.659 2.611 1.700 4244
-0.663 2.629 1.701 5037
-0.668 2.646 1.701 6688
-0.669 2.651 1.693 5754
-0.671 2.662 1.689 4790
-0.679 2.693 1.697 5482
-0.684 2.710 1.697 7708
-0.685 2.715 1.689 8208
-0.686 2.719 1.681 6072
-0.690 2.737 1.681 4338
-0.727 2.882 1.753 4984
-0.727 2.880 1.741 5929
-0.701 2.777 1.671 5301
-0.703 2.788 1.667 5142
-0.744 2.948 1.745 6004
-0.745 2.952 1.736 5714
-0.746 2.957 1.728 5424
-0.745 2.955 1.715 4530
-0.760 3.013 1.736 5097
-0.760 3.011 1.723 5710
-0.764 3.029 1.722 5834
-0.767 3.041 1.716 6825
-0.766 3.038 1.704 7358
-0.769 3.049 1.698 6410
-0.789 3.129 1.728 6464
-0.792 3.141 1.722 7313
-0.795 3.152 1.717 9070
-0.796 3.156 1.707 8821
-0.794 3.147 1.691 7740
-0.833 3.304 1.757 6544
-0.833 3.301 1.744 7755
-0.822 3.257 1.711 8873
-0.823 3.262 1.701 8033
-0.840 3.329 1.722 7216
-0.839 3.326 1.708 5575
-0.842 3.337 1.702 4603
-0.862 3.419 1.728 7150
-0.864 3.423 1.718 6714
-0.865 3.428 1.708 3892
-0.898 3.558 1.756 3158
-0.901 3.570 1.749 5138
-0.905 3.588 1.744 4843
-0.908 3.600 1.737 4044
-0.908 3.597 1.723 3947
-0.910 3.609 1.715 4852
-0.912 3.613 1.705 4903
-0.913 3.618 1.694 4365
-0.924 3.665 1.702 4944
-0.952 3.775 1.736 5773
-0.954 3.780 1.725 7382
-0.955 3.784 1.714 7041
-0.954 3.782 1.700 5600
-0.957 3.793 1.692 5260
-0.962 3.812 1.686 8039
-0.966 3.830 1.681 6742
-0.993 3.935 1.710 4040
-1.001 3.968 1.710 5284
-0.984 3.901 1.669 6665
-0.987 3.912 1.660 7664
-1.010 4.003 1.683 5258
-1.011 4.007 1.671 5353
-1.034 4.098 1.692 8050
-1.037 4.109 1.682 10392
-1.040 4.121 1.673 10423
-1.055 4.183 1.682 7009
-1.056 4.187 1.670 5456
-1.059 4.199 1.660 4000
-1.064 4.217 1.653 6109
-1.067 4.229 1.643 7440
-1.108 4.393 1.687 5254
-1.109 4.397 1.674 6205
-1.109 4.394 1.659 5716
-1.110 4.398 1.645 3624
-1.113 4.410 1.635 3095
-1.114 4.414 1.622 4958
-1.115 4.418 1.609 6551
-1.142 4.525 1.630 4764
-1.131 4.485 1.602 3015
-1.166 4.621 1.631 3999
-1.167 4.625 1.618 4158
-1.170 4.637 1.606 3839
-1.173 4.648 1.595 2833
-1.203 4.770 1.618 3543
-1.206 4.781 1.606 3923
-1.213 4.808 1.598 3264
-1.247 4.944 1.624 3130
-1.248 4.948 1.609 4683
-1.248 4.945 1.593 3032
-1.267 5.023 1.599 3318
-1.270 5.035 1.587 2749
-1.292 5.120 1.595 3415
-1.293 5.124 1.580 3099
-1.340 5.313 1.617 2692
-1.345 5.332 1.605 3780
-1.346 5.336 1.589 3897
-1.375 5.452 1.603 3675
-1.380 5.471 1.591 4244
-1.402 5.557 1.596 5334
-1.403 5.561 1.580 5688
-1.411 5.595 1.571 3867
-1.412 5.599 1.554 3297
-1.447 5.737 1.571 3619
-1.458 5.778 1.563 4202
-1.457 5.775 1.544 2884
-1.524 6.040 1.590 2970
-1.525 6.044 1.572 3603
-1.530 6.063 1.558 2414
-1.557 6.172 1.564 2055
-1.620 6.423 1.603 2373
-1.618 6.412 1.580 2345
-1.611 6.387 1.554 1918
-1.597 6.330 1.522 2137
-1.715 6.800 1.604 2153
-1.717 6.804 1.584 2284
-1.714 6.793 1.560 2169
-1.825 7.234 1.631 2263
-1.727 6.846 1.529 2439
-1.831 7.257 1.590 2263
-1.832 7.261 1.569 2119
-1.880 7.454 1.584 1963
-2.024 8.024 1.670 1482
-2.027 8.036 1.648 2356
-2.028 8.040 1.624 2842
-2.029 8.044 1.600 3140
-2.032 8.056 1.577 3166
-2.033 8.060 1.553 2695
-2.155 8.541 1.611 2526
-2.156 8.545 1.586 1712
-2.269 8.996 1.635 1451
-2.202 8.727 1.563 1120
-2.314 9.171 1.608 1178
-2.315 9.175 1.581 1253
-2.283 9.050 1.533 2015
-2.286 9.062 1.507 1594
-2.291 9.081 1.482 716
-2.319 9.191 1.471 276
-0.453 1.795 0.334 258
-0.549 2.195 1.722 1578
-0.550 2.200 1.715 3157
-0.551 2.204 1.709 3157
-0.554 2.215 1.707 3583
-0.556 2.226 1.705 4085
-0.568 2.274 1.730 5257
-0.570 2.279 1.724 7193
-0.571 2.283 1.717 7193
-0.580 2.320 1.732 7207
-0.582 2.330 1.730 9844
-0.585 2.341 1.728 10014
-0.586 2.346 1.721 10263
-0.589 2.357 1.718 9115
-0.592 2.367 1.716 8229
-0.596 2.385 1.717 10300
-0.597 2.389 1.710 12581
-0.598 2.394 1.703 12588
-0.599 2.398 1.696 10386
-0.600 2.403 1.689 8177
-0.602 2.407 1.682 6263
-0.601 2.405 1.671 4417
-0.604 2.416 1.668 3477
-0.646 2.583 1.766 3034
-0.629 2.516 1.712 3750
-0.630 2.520 1.705 4788
-0.633 2.531 1.701 4655
-0.650 2.601 1.735 5055
-0.651 2.606 1.727 4963
-0.644 2.577 1.699 5423
-0.650 2.601 1.704 4686
-0.653 2.612 1.700 4220
-0.656 2.623 1.697 4866
-0.660 2.641 1.697 6063
-0.661 2.645 1.689 5244
-0.664 2.656 1.685 4371
-0.673 2.694 1.697 5481
-0.678 2.712 1.697 8171
-0.679 2.716 1.689 8626
-0.682 2.727 1.685 6260
-0.686 2.745 1.684 4393
-0.689 2.756 1.680 4688
-0.690 2.761 1.672 5127
-0.694 2.778 1.671 5732
-0.696 2.783 1.663 5326
-0.735 2.943 1.741 6613
-0.737 2.947 1.733 6061
-0.738 2.952 1.724 5509
-0.739 2.956 1.715 4700
-0.752 3.008 1.732 4879
-0.753 3.013 1.723 5713
-0.756 3.024 1.718 5848
-0.760 3.042 1.716 6904
-0.760 3.040 1.704 7587
-0.763 3.051 1.698 6949
-0.764 3.055 1.689 5876
-0.785 3.142 1.722 6577
-0.788 3.154 1.717 9242
-0.789 3.158 1.707 9830
-0.787 3.149 1.691 9452
-0.788 3.153 1.682 6540
-0.829 3.317 1.751 6990
-0.813 3.252 1.707 7265
-0.814 3.256 1.698 7034
-0.832 3.330 1.722 6755
-0.832 3.328 1.708 5259
-0.835 3.339 1.702 4297
-0.853 3.414 1.725 6800
-0.856 3.425 1.718 6633
-0.838 3.352 1.672 3944
-0.885 3.539 1.746 3353
-0.893 3.572 1.749 4875
-0.896 3.583 1.741 4990
-0.898 3.595 1.734 3811
-0.900 3.599 1.723 3132
-0.903 3.611 1.715 3982
-0.902 3.608 1.702 4551
-0.905 3.620 1.694 4543
-0.916 3.667 1.702 5116
-0.916 3.664 1.688 5731
-0.945 3.782 1.725 7220
-0.946 3.786 1.714 7102
-0.946 3.784 1.700 5694
-0.947 3.788 1.689 5297
-0.953 3.814 1.686 8076
-0.954 3.818 1.675 6953
-0.977 3.908 1.698 4326
-0.974 3.898 1.681 6293
-0.975 3.903 1.669 7834
-0.977 3.907 1.658 7983
-0.979 3.919 1.649 4999
-1.022 4.088 1.701 4860
-1.025 4.100 1.692 8245
-1.026 4.104 1.680 10513
-1.031 4.123 1.673 9820
-1.033 4.135 1.663 5991
-1.045 4.182 1.667 4840
-1.050 4.201 1.660 4022
-1.055 4.220 1.653 7320
-1.058 4.231 1.643 8940
-1.062 4.250 1.635 5861
-1.098 4.392 1.672 5515
-1.099 4.397 1.659 5103
-1.104 4.415 1.651 3421
-1.076 4.303 1.597 2873
-1.120 4.482 1.644 4073
-1.127 4.508 1.638 5361
-1.132 4.527 1.630 4375
-1.147 4.590 1.635 3194
-1.156 4.624 1.631 4333
-1.158 4.635 1.620 4525
-1.161 4.647 1.608 4181
-1.166 4.665 1.599 3352
-1.191 4.765 1.615 3068
-1.190 4.762 1.599 3670
-1.210 4.840 1.607 3375
-1.236 4.947 1.624 2882
-1.237 4.951 1.609 4514
-1.246 4.985 1.603 3158
-1.225 4.900 1.563 3201
-1.263 5.052 1.591 2645
-1.280 5.123 1.595 3094
-1.283 5.134 1.582 2638
-1.329 5.316 1.617 2382
-1.335 5.343 1.607 3371
-1.335 5.339 1.589 4072
-1.336 5.343 1.573 4507
-1.363 5.452 1.585 4954
-1.360 5.441 1.565 5350
-1.361 5.445 1.549 5365
-1.366 5.464 1.536 4194
-1.368 5.475 1.522 3285
-1.435 5.740 1.571 3862
-1.443 5.774 1.562 4635
-1.444 5.778 1.544 3270
-1.511 6.044 1.590 2224
-1.513 6.055 1.574 3117
-1.516 6.067 1.558 2887
-1.519 6.078 1.542 2239
-1.552 6.210 1.553 2041
-1.596 6.386 1.573 1923
-1.588 6.353 1.546 1986
-1.585 6.341 1.524 2336
-1.701 6.804 1.604 1896
-1.728 6.913 1.606 1976
-1.729 6.917 1.586 2205
-1.809 7.238 1.631 2446
-1.814 7.257 1.612 2699
-1.815 7.261 1.590 2386
-1.816 7.265 1.569 2005
-1.862 7.450 1.582 1806
-1.925 7.703 1.608 1513
-2.008 8.032 1.646 1835
-2.011 8.044 1.624 2329
-2.012 8.048 1.600 2791
-2.015 8.060 1.577 2629
-2.112 8.450 1.621 2340
-2.113 8.454 1.596 2287
-2.137 8.549 1.586 1535
-2.128 8.516 1.554 1509
-2.129 8.520 1.528 1145
-2.293 9.176 1.608 1090
-2.294 9.180 1.581 1134
-2.263 9.055 1.533 2023
-2.264 9.059 1.506 1634
-2.269 9.078 1.481 691
-2.285 9.143 1.463 265
-0.543 2.197 1.722 1851
-0.544 2.201 1.715 3703
-0.546 2.206 1.709 3703
-0.548 2.216 1.707 4270
-0.551 2.227 1.705 5089
-0.561 2.269 1.726 5704
-0.564 2.280 1.724 7760
-0.565 2.285 1.717 7760
-0.574 2.321 1.732 7398
-0.577 2.332 1.730 10039
-0.579 2.343 1.728 10290
-0.581 2.347 1.721 10673
-0.583 2.358 1.718 9441
-0.586 2.369 1.716 8356
-0.590 2.386 1.717 9998
-0.591 2.391 1.710 12042
-0.592 2.395 1.703 11982
-0.594 2.400 1.696 9924
-0.595 2.404 1.689 7925
-0.596 2.408 1.682 5969
-0.595 2.406 1.671 4169
-0.596 2.411 1.664 3294
-0.638 2.578 1.761 3280
-0.637 2.576 1.750 3244
-0.625 2.528 1.709 3921
-0.626 2.533 1.701 3898
-0.644 2.603 1.735 4541
-0.645 2.607 1.727 4410
-0.638 2.579 1.699 4866
-0.644 2.603 1.704 4462
-0.647 2.614 1.700 4465
-0.649 2.625 1.697 5044
-0.652 2.636 1.693 5878
-0.655 2.647 1.689 4984
-0.656 2.651 1.681 4005
-0.668 2.702 1.701 5461
-0.673 2.720 1.701 8586
-0.674 2.725 1.693 9161
-0.677 2.736 1.689 6797
-0.686 2.774 1.700 5285
-0.684 2.765 1.684 5613
-0.685 2.769 1.676 5964
-0.686 2.773 1.668 6392
-0.720 2.913 1.735 5734
-0.725 2.931 1.734 6989
-0.728 2.942 1.729 6106
-0.731 2.953 1.724 5367
-0.730 2.951 1.711 4770
-0.721 2.915 1.681 5652
-0.746 3.015 1.723 5648
-0.747 3.019 1.714 5771
-0.751 3.037 1.713 6930
-0.752 3.042 1.704 7812
-0.757 3.060 1.702 7383
-0.758 3.064 1.693 6553
-0.751 3.034 1.666 6815
-0.781 3.156 1.717 9461
-0.780 3.153 1.704 11058
-0.779 3.151 1.691 11465
-0.780 3.155 1.682 8132
-0.823 3.326 1.754 6311
-0.805 3.254 1.707 6532
-0.804 3.251 1.694 6756
-0.805 3.256 1.685 6094
-0.824 3.330 1.708 4623
-0.826 3.341 1.702 3928
-0.840 3.395 1.715 6709
-0.846 3.420 1.715 6044
-0.870 3.516 1.747 4332
-0.874 3.534 1.743 4069
-0.882 3.567 1.745 4455
-0.887 3.585 1.741 4946
-0.890 3.597 1.734 3811
-0.872 3.524 1.688 3202
-0.894 3.613 1.715 3543
-0.895 3.618 1.705 4321
-0.896 3.622 1.694 4434
-0.907 3.669 1.702 4613
-0.909 3.673 1.691 5339
-0.938 3.791 1.728 6650
-0.937 3.789 1.714 6727
-0.936 3.786 1.700 5518
-0.938 3.790 1.689 5120
-0.942 3.809 1.683 7253
-0.943 3.813 1.672 6610
-0.966 3.904 1.695 4579
-0.965 3.901 1.681 7058
-0.964 3.898 1.666 8290
-0.967 3.910 1.658 7636
-0.970 3.921 1.649 4659
-1.008 4.076 1.696 5403
-1.013 4.095 1.689 8124
-1.016 4.107 1.680 9938
-1.020 4.125 1.673 8657
-1.032 4.173 1.677 5596
-1.035 4.185 1.667 5017
-1.040 4.204 1.660 4364
-1.044 4.222 1.653 8175
-1.047 4.234 1.643 9828
-1.052 4.253 1.635 6364
-1.087 4.395 1.672 4424
-1.088 4.399 1.659 4229
-1.066 4.309 1.613 3385
-1.065 4.306 1.597 2921
-1.109 4.485 1.644 4044
-1.114 4.504 1.636 4816
-1.121 4.530 1.630 3792
-1.138 4.600 1.638 3371
-1.146 4.634 1.634 4663
-1.147 4.638 1.620 4795
-1.152 4.657 1.611 4267
-1.157 4.676 1.602 3727
-1.167 4.716 1.599 2850
-1.173 4.743 1.592 3747
-1.201 4.857 1.612 3339
-1.226 4.957 1.626 2627
-1.227 4.961 1.612 4393
-1.234 4.988 1.603 3467
-1.213 4.903 1.563 3641
-1.250 5.055 1.591 2757
-1.268 5.126 1.595 2547
-1.273 5.145 1.584 2041
-1.288 5.208 1.585 2480
-1.324 5.353 1.609 2690
-1.321 5.343 1.589 3697
-1.322 5.347 1.573 5118
-1.349 5.455 1.585 5291
-1.347 5.444 1.565 5486
-1.349 5.455 1.550 5650
-1.352 5.467 1.536 4862
-1.355 5.478 1.522 3840
-1.424 5.758 1.575 3831
-1.429 5.777 1.562 5186
-1.430 5.781 1.544 3845
-1.444 5.838 1.540 2338
-1.500 6.066 1.576 2610
-1.501 6.070 1.558 3082
-1.504 6.082 1.542 2667
-1.535 6.206 1.551 2346
-1.534 6.202 1.531 2154
-1.572 6.356 1.546 2043
-1.571 6.353 1.525 2393
-1.712 6.921 1.629 1610
-1.651 6.677 1.555 2100
-1.712 6.922 1.586 2308
-1.793 7.250 1.632 2367
-1.796 7.261 1.612 2882
-1.799 7.273 1.592 2452
-1.798 7.270 1.569 1833
-1.844 7.455 1.582 1545
-1.905 7.701 1.606 1663
-1.896 7.667 1.576 2076
-1.899 7.679 1.555 1926
-2.048 8.280 1.641 2629
-1.995 8.065 1.577 2032
-2.091 8.455 1.621 2810
-2.092 8.460 1.596 2538
-2.105 8.509 1.578 1444
-2.108 8.521 1.554 1602
-2.180 8.813 1.576 1299
-2.185 8.832 1.552 1245
-2.189 8.851 1.528 1241
-2.241 9.061 1.533 1812
-2.242 9.064 1.506 1489
-2.245 9.076 1.480 622
-2.263 9.148 1.463 283
-0.539 2.198 1.722 2091
-0.540 2.202 1.715 4182
-0.541 2.207 1.709 4182
-0.544 2.218 1.707 4865
-0.546 2.228 1.705 5900
-0.557 2.271 1.726 6009
-0.558 2.275 1.719 8094
-0.559 2.280 1.712 8094
-0.569 2.322 1.732 7609
-0.572 2.333 1.730 10246
-0.575 2.344 1.728 10512
-0.577 2.355 1.725 10969
-0.578 2.359 1.718 9589
-0.581 2.370 1.716 8286
-0.584 2.381 1.713 9599
-0.586 2.392 1.710 11243
-0.586 2.390 1.699 11140
-0.587 2.394 1.692 9250
-0.590 2.405 1.689 7433
-0.591 2.410 1.682 5566
-0.590 2.407 1.671 3847
-0.591 2.412 1.664 3171
-0.629 2.566 1.753 3645
-0.630 2.571 1.745 3242
-0.620 2.529 1.709 3117
-0.637 2.599 1.743 3432
-0.638 2.604 1.735 4132
-0.640 2.608 1.727 3988
-0.633 2.580 1.699 4473
-0.640 2.611 1.708 4278
-0.641 2.615 1.700 4579
-0.644 2.626 1.697 5144
-0.647 2.637 1.693 5786
-0.648 2.642 1.685 4845
-0.650 2.653 1.681 3707
-0.666 2.717 1.709 5531
-0.667 2.722 1.701 9010
-0.670 2.733 1.697 9814
-0.674 2.751 1.696 7811
-0.680 2.775 1.700 7233
-0.680 2.773 1.688 7034
-0.679 2.770 1.676 7058
-0.682 2.782 1.671 7181
-0.710 2.894 1.724 6854
-0.714 2.912 1.723 7524
-0.722 2.944 1.729 5919
-0.725 2.955 1.724 5026
-0.714 2.912 1.689 5356
-0.715 2.916 1.681 6216
-0.716 2.921 1.672 5863
-0.739 3.014 1.711 5748
-0.743 3.032 1.709 6860
-0.744 3.036 1.700 7906
-0.751 3.061 1.702 7576
-0.752 3.066 1.693 6897
-0.743 3.029 1.662 7091
-0.774 3.157 1.717 9603
-0.774 3.155 1.704 12189
-0.773 3.152 1.691 13128
-0.774 3.157 1.682 9697
-0.816 3.327 1.754 5611
-0.797 3.249 1.704 6362
-0.798 3.253 1.694 6616
-0.799 3.258 1.685 5846
-0.798 3.255 1.672 4333
-0.830 3.385 1.722 4065
-0.831 3.389 1.712 7216
-0.827 3.373 1.692 6174
-0.862 3.517 1.747 4794
-0.865 3.529 1.740 4502
-0.875 3.569 1.745 4124
-0.881 3.594 1.744 4892
-0.862 3.514 1.696 4813
-0.866 3.533 1.692 3941
-0.886 3.615 1.715 3324
-0.887 3.619 1.705 3867
-0.889 3.624 1.694 3979
-0.902 3.678 1.705 3786
-0.927 3.782 1.736 4391
-0.930 3.793 1.728 5892
-0.929 3.791 1.714 5994
-0.927 3.781 1.697 5159
-0.926 3.778 1.683 5030
-0.931 3.797 1.677 6252
-0.935 3.815 1.672 5863
-0.949 3.870 1.681 4769
-0.957 3.903 1.681 7146
-0.956 3.900 1.666 8021
-0.957 3.904 1.655 6760
-0.980 3.995 1.677 4412
-1.000 4.078 1.696 5933
-1.005 4.097 1.689 7669
-1.007 4.109 1.680 8797
-1.012 4.128 1.673 7235
-1.026 4.182 1.680 5646
-1.027 4.187 1.667 5362
-1.029 4.198 1.657 4884
-1.034 4.217 1.650 8559
-1.039 4.236 1.643 9935
-1.043 4.255 1.635 6276
-1.076 4.390 1.669 3273
-1.077 4.394 1.656 3331
-1.057 4.311 1.613 3212
-1.099 4.483 1.657 2989
-1.100 4.487 1.644 3913
-1.105 4.506 1.636 4309
-1.111 4.532 1.630 3515
-1.130 4.610 1.640 3374
-1.137 4.636 1.634 5051
-1.138 4.640 1.620 5111
-1.142 4.659 1.611 4371
-1.147 4.678 1.602 3687
-1.157 4.719 1.599 3119
-1.162 4.738 1.590 4043
-1.164 4.749 1.578 3213
-1.216 4.960 1.626 2586
-1.219 4.971 1.614 4243
-1.225 4.998 1.606 3610
-1.203 4.906 1.563 3784
-1.238 5.050 1.589 2853
-1.256 5.121 1.593 2007
-1.278 5.214 1.603 2132
-1.279 5.218 1.587 2914
-1.277 5.207 1.568 2328
-1.307 5.330 1.585 3013
-1.312 5.349 1.573 5147
-1.338 5.458 1.585 5344
-1.337 5.454 1.567 5518
-1.338 5.458 1.550 5812
-1.343 5.477 1.538 5231
-1.344 5.481 1.522 4144
-1.414 5.769 1.577 3719
-1.417 5.780 1.562 5453
-1.420 5.792 1.546 4168
-1.432 5.841 1.540 2415
-1.490 6.077 1.578 2139
-1.489 6.073 1.558 2895
-1.492 6.085 1.542 2781
-1.521 6.201 1.549 2630
-1.520 6.198 1.529 2584
-1.519 6.194 1.509 1998
-1.560 6.364 1.527 2340
-1.637 6.676 1.575 1516
-1.638 6.680 1.555 2291
-1.698 6.925 1.586 2266
-1.801 7.344 1.651 2482
-1.783 7.272 1.614 2746
-1.784 7.277 1.592 2351
-1.783 7.273 1.569 1710
-1.888 7.700 1.629 1356
-1.882 7.674 1.601 1757
-1.881 7.671 1.576 2334
-2.028 8.273 1.664 1939
-2.029 8.277 1.640 2974
-2.073 8.455 1.646 2150
-2.074 8.460 1.621 2942
-2.075 8.464 1.596 2525
-2.080 8.483 1.573 1407
-2.088 8.517 1.553 1545
-2.166 8.833 1.578 1541
-2.170 8.852 1.554 1500
-2.171 8.856 1.528 1442
-2.223 9.065 1.533 1551
-2.222 9.061 1.505 1245
-2.221 9.058 1.477 541
-2.244 9.153 1.463 293
-0.533 2.199 1.722 2395
-0.534 2.204 1.715 4790
-0.535 2.208 1.709 4790
-0.538 2.219 1.707 5673
-0.541 2.230 1.705 6933
-0.549 2.266 1.721 6582
-0.552 2.277 1.719 8640
-0.553 2.281 1.712 8640
-0.563 2.324 1.732 8007
-0.566 2.334 1.730 10692
-0.569 2.345 1.728 10966
-0.571 2.356 1.725 11519
-0.572 2.361 1.718 9892
-0.575 2.372 1.716 8310
-0.578 2.383 1.713 9258
-0.580 2.393 1.710 10414
-0.580 2.391 1.699 10382
-0.581 2.396 1.692 8582
-0.583 2.407 1.689 6882
-0.585 2.411 1.682 5206
-0.584 2.409 1.671 3658
-0.617 2.544 1.748 3623
-0.619 2.555 1.745 4274
-0.622 2.566 1.741 3351
-0.626 2.583 1.742 2606
-0.631 2.601 1.743 3202
-0.632 2.606 1.735 3829
-0.631 2.604 1.723 3741
-0.626 2.582 1.699 4421
-0.633 2.612 1.708 4284
-0.636 2.624 1.704 4849
-0.637 2.628 1.697 5416
-0.638 2.632 1.689 5983
-0.639 2.637 1.681 4934
-0.663 2.734 1.729 4137
-0.662 2.732 1.717 6128
-0.662 2.730 1.705 9838
-0.665 2.741 1.701 11020
-0.669 2.759 1.700 9828
-0.672 2.770 1.696 9889
-0.673 2.775 1.688 9233
-0.672 2.772 1.676 8596
-0.675 2.783 1.671 8360
-0.700 2.889 1.720 8007
-0.705 2.907 1.719 8466
-0.704 2.905 1.706 6679
-0.705 2.909 1.698 4904
-0.706 2.914 1.689 6083
-0.707 2.918 1.681 6788
-0.708 2.922 1.672 6314
-0.723 2.981 1.692 6302
-0.732 3.020 1.702 6793
-0.737 3.038 1.700 7840
-0.743 3.063 1.702 7559
-0.744 3.068 1.693 7129
-0.735 3.031 1.662 7524
-0.764 3.152 1.713 10076
-0.764 3.150 1.700 13722
-0.765 3.154 1.691 15147
-0.766 3.159 1.682 11792
-0.770 3.177 1.679 6549
-0.783 3.230 1.694 6862
-0.787 3.248 1.691 6724
-0.790 3.260 1.685 5750
-0.788 3.250 1.668 4546
-0.821 3.387 1.722 4997
-0.822 3.392 1.712 8382
-0.822 3.389 1.698 6687
-0.853 3.520 1.747 4895
-0.848 3.496 1.724 4698
-0.847 3.494 1.710 3971
-0.872 3.597 1.744 4800
-0.853 3.517 1.696 6020
-0.857 3.535 1.692 4293
-0.879 3.624 1.719 3094
-0.878 3.622 1.705 3345
-0.879 3.626 1.694 3750
-0.892 3.680 1.705 3405
-0.916 3.777 1.733 4033
-0.920 3.796 1.728 4939
-0.918 3.786 1.711 5048
-0.915 3.776 1.694 4938
-0.917 3.780 1.683 5740
-0.919 3.792 1.674 6150
-0.926 3.818 1.672 5026
-0.939 3.872 1.681 5220
-0.947 3.905 1.681 6682
-0.946 3.902 1.666 7018
-0.945 3.900 1.652 5416
-0.969 3.997 1.677 4804
-0.989 4.081 1.696 6333
-0.992 4.093 1.686 6992
-0.997 4.111 1.680 7023
-1.001 4.130 1.673 5522
-1.016 4.192 1.682 5856
-1.016 4.190 1.667 5836
-1.017 4.194 1.655 5697
-1.023 4.220 1.650 8828
-1.026 4.231 1.640 9671
-1.034 4.265 1.638 5696
-1.044 4.305 1.638 2953
-1.045 4.310 1.625 2372
-1.042 4.299 1.608 3181
-1.088 4.486 1.657 3231
-1.087 4.483 1.642 3740
-1.093 4.509 1.636 3789
-1.099 4.535 1.630 3497
-1.118 4.613 1.640 3229
-1.125 4.639 1.634 5478
-1.127 4.651 1.622 5682
-1.128 4.655 1.608 4479
-1.135 4.681 1.602 3362
-1.145 4.722 1.599 3429
-1.148 4.733 1.587 4726
-1.150 4.745 1.576 3861
-1.205 4.970 1.629 2534
-1.206 4.974 1.614 3830
-1.212 5.001 1.606 3601
-1.190 4.909 1.563 3847
-1.225 5.053 1.589 2671
-1.264 5.213 1.618 2106
-1.265 5.217 1.603 2471
-1.268 5.229 1.589 3244
-1.263 5.211 1.568 2447
-1.289 5.319 1.581 2253
-1.298 5.353 1.573 4799
-1.302 5.372 1.561 5054
-1.325 5.465 1.569 5363
-1.326 5.469 1.552 5565
-1.329 5.481 1.538 5237
-1.330 5.485 1.522 4125
-1.401 5.780 1.579 3513
-1.404 5.791 1.563 5536
-1.405 5.795 1.546 4404
-1.410 5.814 1.532 2604
-1.474 6.081 1.578 1710
-1.472 6.070 1.556 2351
-1.476 6.089 1.542 2620
-1.481 6.108 1.527 2848
-1.504 6.202 1.529 2734
-1.503 6.198 1.509 1980
-1.546 6.375 1.528 2359
-1.545 6.371 1.508 1677
-1.620 6.684 1.555 2427
-1.680 6.929 1.586 2120
-1.781 7.348 1.651 2913
-1.783 7.353 1.629 3116
-1.767 7.289 1.593 2234
-1.764 7.278 1.569 1653
-1.830 7.546 1.599 1365
-1.860 7.672 1.599 1927
-1.861 7.676 1.576 2311
-2.007 8.278 1.664 2089
-2.008 8.282 1.640 3208
-2.049 8.453 1.645 2403
-2.052 8.465 1.621 3022
-2.053 8.469 1.596 2454
-2.056 8.481 1.572 1327
-2.140 8.827 1.603 1470
-2.145 8.846 1.579 1890
-2.147 8.858 1.554 1853
-2.148 8.862 1.528 1659
-2.194 9.048 1.530 1337
-2.194 9.052 1.503 1010
-2.232 9.208 1.498 460
-2.220 9.159 1.463 303
-0.528 2.200 1.722 2592
-0.529 2.205 1.715 5184
-0.530 2.209 1.709 5184
-0.535 2.226 1.712 6221
-0.536 2.231 1.705 7589
-0.544 2.267 1.721 6911
-0.547 2.278 1.719 8865
-0.548 2.282 1.712 8865
-0.558 2.325 1.732 8150
-0.561 2.336 1.730 10806
-0.563 2.347 1.728 11030
-0.566 2.357 1.725 11587
-0.567 2.362 1.718 9789
-0.570 2.373 1.716 8048
-0.572 2.384 1.713 8684
-0.573 2.388 1.706 9436
-0.575 2.393 1.699 9416
-0.576 2.397 1.692 7736
-0.578 2.408 1.689 6138
-0.578 2.406 1.678 4770
-0.607 2.527 1.747 4153
-0.609 2.538 1.744 4314
-0.612 2.549 1.740 4665
-0.615 2.561 1.737 3373
-0.622 2.591 1.746 2506
-0.625 2.602 1.743 3006
-0.626 2.607 1.735 3511
-0.621 2.585 1.711 3601
-0.620 2.583 1.699 4447
-0.628 2.614 1.708 4247
-0.630 2.625 1.704 4984
-0.631 2.629 1.697 5573
-0.632 2.634 1.689 6162
-0.633 2.638 1.681 5044
-0.657 2.736 1.729 4564
-0.656 2.734 1.717 6625
-0.656 2.731 1.705 10460
-0.659 2.743 1.701 12057
-0.663 2.760 1.700 11481
-0.665 2.772 1.696 11933
-0.667 2.776 1.688 10828
-0.668 2.780 1.680 9722
-0.669 2.785 1.671 9020
-0.694 2.891 1.720 8487
-0.697 2.902 1.715 8899
-0.696 2.900 1.703 7155
-0.697 2.904 1.694 5498
-0.698 2.908 1.686 6484
-0.701 2.920 1.681 7041
-0.702 2.924 1.672 6491
-0.716 2.983 1.692 6846
-0.719 2.994 1.687 7191
-0.727 3.026 1.693 7536
-0.736 3.065 1.702 7233
-0.734 3.056 1.686 7182
-0.728 3.032 1.662 7791
-0.757 3.154 1.713 10318
-0.757 3.152 1.700 14681
-0.758 3.156 1.691 16291
-0.759 3.160 1.682 13133
-0.763 3.179 1.679 8331
-0.771 3.211 1.683 8192
-0.777 3.236 1.684 6991
-0.780 3.247 1.678 5561
-0.779 3.245 1.665 4856
-0.814 3.389 1.722 5600
-0.815 3.393 1.712 8961
-0.816 3.398 1.702 6892
-0.846 3.522 1.747 4700
-0.840 3.498 1.724 4720
-0.841 3.502 1.713 4222
-0.842 3.507 1.703 5263
-0.845 3.518 1.696 6574
-0.849 3.537 1.692 4389
-0.871 3.626 1.719 3056
-0.872 3.631 1.708 3166
-0.871 3.628 1.694 3698
-0.879 3.661 1.696 3477
-0.904 3.765 1.727 4396
-0.907 3.776 1.719 4355
-0.906 3.774 1.705 4346
-0.907 3.778 1.694 4970
-0.908 3.782 1.683 6607
-0.911 3.794 1.674 6815
-0.915 3.813 1.669 4836
-0.930 3.874 1.681 5270
-0.936 3.900 1.678 5703
-0.936 3.897 1.664 5618
-0.961 4.002 1.692 4618
-0.962 4.007 1.680 5106
-0.980 4.083 1.696 6468
-0.981 4.088 1.684 6411
-0.988 4.114 1.680 5208
-1.003 4.176 1.689 4103
-1.007 4.195 1.682 5844
-1.006 4.192 1.667 6146
-1.004 4.182 1.649 6660
-1.012 4.215 1.648 8987
-1.015 4.226 1.638 9053
-1.028 4.282 1.643 5042
-1.034 4.308 1.638 3189
-1.035 4.312 1.625 2279
-1.031 4.294 1.605 3120
-1.079 4.496 1.660 3391
-1.075 4.478 1.639 3599
-1.085 4.519 1.638 3340
-1.090 4.538 1.630 3555
-1.094 4.556 1.621 3400
-1.114 4.641 1.634 5527
-1.119 4.660 1.625 5995
-1.113 4.635 1.601 4557
-1.137 4.735 1.618 2776
-1.134 4.724 1.599 3523
-1.137 4.736 1.587 5393
-1.140 4.747 1.576 4426
-1.192 4.966 1.626 2459
-1.197 4.985 1.616 3214
-1.177 4.900 1.575 3482
-1.179 4.911 1.563 3799
-1.193 4.967 1.563 2988
-1.251 5.209 1.616 2352
-1.253 5.220 1.603 2779
-1.256 5.232 1.589 3499
-1.255 5.228 1.572 2621
-1.247 5.195 1.546 1857
-1.288 5.363 1.575 4226
-1.290 5.375 1.561 5242
-1.313 5.468 1.569 4849
-1.314 5.472 1.552 4991
-1.317 5.483 1.538 4808
-1.318 5.487 1.522 3884
-1.390 5.790 1.581 3341
-1.391 5.795 1.563 5391
-1.392 5.799 1.546 4286
-1.397 5.818 1.532 2451
-1.398 5.821 1.515 1482
-1.440 5.998 1.538 2113
-1.445 6.017 1.524 2443
-1.467 6.111 1.527 2968
-1.490 6.205 1.529 2469
-1.498 6.239 1.517 1849
-1.532 6.378 1.528 2352
-1.531 6.375 1.508 1942
-1.606 6.688 1.555 2429
-1.665 6.933 1.586 1860
-1.765 7.352 1.651 3129
-1.766 7.356 1.629 3251
-1.751 7.293 1.593 2055
-1.748 7.282 1.569 1590
-1.813 7.550 1.599 1555
-1.843 7.676 1.599 1951
-1.844 7.680 1.576 2057
-1.987 8.275 1.663 2048
-1.990 8.287 1.640 3100
-2.029 8.450 1.643 2349
-2.032 8.462 1.620 2725
-2.035 8.474 1.596 2053
-2.019 8.409 1.559 1303
-2.122 8.839 1.605 1652
-2.127 8.858 1.581 2127
-2.128 8.862 1.554 1951
-2.129 8.866 1.528 1600
-2.165 9.015 1.524 1312
-2.211 9.209 1.526 845
-2.212 9.213 1.498 505
-2.213 9.217 1.471 287
-0.525 2.208 1.727 2827
-0.526 2.212 1.720 5654
-0.527 2.217 1.714 5654
-0.529 2.228 1.712 6947
-0.530 2.232 1.705 8371
-0.537 2.262 1.717 7447
-0.542 2.279 1.719 9316
-0.543 2.283 1.712 9316
-0.547 2.301 1.715 8329
-0.555 2.337 1.730 10877
-0.558 2.348 1.728 11008
-0.560 2.359 1.725 11539
-0.562 2.363 1.718 9559
-0.564 2.374 1.716 7686
-0.567 2.385 1.713 7994
-0.568 2.390 1.706 8343
-0.569 2.394 1.699 8273
-0.570 2.398 1.692 6750
-0.571 2.403 1.685 5298
-0.597 2.511 1.746 5163
-0.599 2.522 1.743 5787
-0.602 2.533 1.740 5339
-0.605 2.544 1.736 5152
-0.607 2.555 1.733 3455
-0.616 2.593 1.746 2531
-0.617 2.597 1.739 2877
-0.618 2.602 1.731 3224
-0.615 2.587 1.711 3858
-0.614 2.584 1.699 4831
-0.618 2.602 1.700 4523
-0.624 2.626 1.704 5308
-0.625 2.631 1.697 5938
-0.626 2.635 1.689 6569
-0.626 2.633 1.677 5336
-0.649 2.731 1.725 5201
-0.650 2.735 1.717 7479
-0.651 2.740 1.709 11633
-0.652 2.744 1.701 13509
-0.656 2.762 1.700 13520
-0.659 2.773 1.696 14484
-0.660 2.778 1.688 12865
-0.661 2.782 1.680 11246
-0.662 2.786 1.671 9798
-0.687 2.892 1.720 8533
-0.690 2.904 1.715 8940
-0.689 2.901 1.703 7554
-0.689 2.899 1.690 6330
-0.691 2.910 1.686 6957
-0.694 2.921 1.681 7251
-0.713 3.001 1.712 6730
-0.711 2.992 1.696 7735
-0.712 2.996 1.687 8010
-0.716 3.014 1.686 7633
-0.721 3.032 1.684 7162
-0.723 3.043 1.678 7733
-0.723 3.041 1.666 8359
-0.748 3.149 1.710 10618
-0.749 3.153 1.700 15448
-0.750 3.158 1.691 17033
-0.751 3.162 1.682 14251
-0.754 3.173 1.676 10131
-0.760 3.199 1.677 10064
-0.761 3.203 1.667 8215
-0.770 3.242 1.674 6095
-0.771 3.247 1.665 5570
-0.807 3.398 1.725 5943
-0.807 3.395 1.712 9311
-0.808 3.400 1.702 7282
-0.837 3.523 1.747 4390
-0.833 3.507 1.727 4617
-0.833 3.504 1.713 4377
-0.834 3.509 1.703 5736
-0.836 3.520 1.696 7169
-0.841 3.539 1.692 4705
-0.862 3.628 1.719 3391
-0.861 3.626 1.705 3476
-0.863 3.630 1.694 4066
-0.894 3.762 1.738 4618
-0.895 3.767 1.727 5482
-0.894 3.764 1.713 4792
-0.892 3.754 1.696 4258
-0.897 3.773 1.691 5271
-0.901 3.792 1.686 7914
-0.904 3.803 1.677 8301
-0.905 3.808 1.666 5693
-0.923 3.884 1.684 4911
-0.924 3.888 1.672 4394
-0.940 3.957 1.686 4157
-0.953 4.012 1.694 4576
-0.953 4.009 1.680 5532
-0.971 4.085 1.696 6958
-0.970 4.083 1.681 6150
-0.973 4.094 1.671 3640
-0.994 4.185 1.692 3858
-0.997 4.197 1.682 5317
-0.995 4.187 1.664 6201
-0.994 4.184 1.649 7885
-1.000 4.210 1.645 9083
-1.003 4.221 1.635 8187
-1.020 4.291 1.646 5077
-1.024 4.310 1.638 3555
-1.049 4.416 1.661 3224
-1.052 4.428 1.651 3095
-1.072 4.513 1.665 4099
-1.073 4.517 1.652 3584
-1.053 4.433 1.609 3500
-1.079 4.540 1.630 3609
-1.083 4.559 1.621 3815
-1.102 4.637 1.631 5160
-1.108 4.663 1.625 6194
-1.098 4.623 1.597 4877
-1.124 4.730 1.616 3283
-1.123 4.727 1.599 4015
-1.126 4.739 1.587 5992
-1.129 4.750 1.576 4962
-1.154 4.857 1.593 2821
-1.166 4.906 1.592 2971
-1.165 4.903 1.575 3812
-1.185 4.988 1.584 4264
-1.184 4.985 1.567 3451
-1.238 5.212 1.616 2498
-1.241 5.223 1.603 2991
-1.244 5.235 1.589 3647
-1.245 5.239 1.574 2883
-1.240 5.221 1.552 1572
-1.279 5.381 1.579 3478
-1.280 5.385 1.563 4950
-1.302 5.479 1.571 3782
-1.283 5.400 1.533 4008
-1.284 5.404 1.517 4647
-1.351 5.685 1.571 4355
-1.377 5.794 1.581 3191
-1.378 5.798 1.563 4940
-1.380 5.809 1.548 3712
-1.383 5.821 1.532 1799
-1.427 6.005 1.558 1723
-1.426 6.001 1.538 2678
-1.431 6.020 1.524 2695
-1.455 6.122 1.529 2823
-1.479 6.224 1.532 1958
-1.489 6.265 1.522 2203
-1.515 6.375 1.527 2524
-1.516 6.378 1.508 2219
-1.588 6.684 1.553 2548
-1.587 6.680 1.532 2042
-1.748 7.356 1.651 3130
-1.747 7.353 1.627 3068
-1.736 7.304 1.595 1707
-1.731 7.286 1.569 1562
-1.795 7.555 1.599 1783
-1.796 7.559 1.576 1886
-1.826 7.684 1.576 1501
-1.965 8.272 1.662 1888
-1.970 8.291 1.640 2556
-2.007 8.447 1.642 2258
-2.012 8.467 1.620 2172
-2.011 8.463 1.593 1570
-1.999 8.414 1.559 1404
-2.103 8.851 1.606 1707
-2.104 8.856 1.579 2077
-2.107 8.867 1.554 1762
-2.142 9.016 1.551 1400
-2.143 9.020 1.524 1258
-2.189 9.214 1.526 911
-2.174 9.150 1.488 564
-2.166 9.115 1.455 310
-0.519 2.209 1.727 2831
-0.520 2.214 1.720 5663
-0.521 2.218 1.714 5663
-0.523 2.229 1.712 6990
-0.524 2.234 1.705 8368
-0.533 2.270 1.721 7493
-0.535 2.280 1.719 9334
-0.536 2.285 1.712 9334
-0.540 2.302 1.715 8259
-0.549 2.338 1.730 10458
-0.552 2.349 1.728 10523
-0.554 2.360 1.725 10987
-0.555 2.365 1.718 8971
-0.559 2.382 1.720 7144
-0.560 2.387 1.713 7241
-0.561 2.391 1.706 7339
-0.561 2.389 1.695 7278
-0.562 2.393 1.688 5967
-0.587 2.502 1.749 5561
-0.590 2.513 1.746 5928
-0.593 2.524 1.743 6560
-0.594 2.528 1.735 5785
-0.598 2.546 1.736 5217
-0.599 2.551 1.729 3439
-0.609 2.594 1.746 2498
-0.610 2.599 1.739 2765
-0.610 2.597 1.727 3082
-0.608 2.588 1.711 4000
-0.607 2.586 1.699 5053
-0.611 2.604 1.700 4763
-0.617 2.628 1.704 5451
-0.618 2.633 1.697 6087
-0.619 2.637 1.689 6724
-0.619 2.635 1.677 5476
-0.642 2.733 1.725 5443
-0.643 2.737 1.717 7825
-0.644 2.741 1.709 12113
-0.645 2.746 1.701 14020
-0.649 2.764 1.700 14165
-0.652 2.775 1.696 15364
-0.653 2.779 1.688 13516
-0.654 2.784 1.680 11667
-0.655 2.788 1.671 9710
-0.679 2.894 1.720 7887
-0.682 2.905 1.715 8316
-0.682 2.903 1.703 7309
