1.027 2.866 1.487 7754
1.036 2.890 1.488 11749
1.037 2.894 1.479 13466
1.041 2.904 1.473 11678
1.049 2.928 1.474 7669
1.029 2.870 1.436 4693
1.050 2.929 1.453 5702
1.061 2.960 1.456 8452
1.064 2.970 1.450 9647
1.066 2.974 1.441 7790
1.070 2.984 1.435 6612
1.076 3.001 1.432 6116
1.082 3.019 1.429 4920
1.093 3.050 1.432 4864
1.132 3.157 1.467 4749
1.133 3.161 1.457 6840
1.112 3.102 1.421 7921
1.113 3.106 1.412 9261
1.119 3.123 1.408 10129
1.123 3.133 1.401 10314
1.144 3.193 1.414 6415
1.153 3.217 1.413 8216
1.159 3.234 1.409 6661
1.193 3.329 1.435 4252
1.192 3.325 1.422 4562
1.193 3.329 1.412 5434
1.192 3.325 1.399 5118
1.231 3.434 1.429 4693
1.232 3.437 1.418 6358
1.226 3.420 1.400 7787
1.229 3.430 1.392 6223
1.238 3.455 1.390 4737
1.267 3.536 1.407 3538
1.268 3.539 1.396 3566
1.267 3.536 1.383 3605
1.271 3.546 1.375 5111
1.272 3.550 1.364 6342
1.273 3.553 1.353 5020
1.302 3.634 1.369 4925
1.309 3.652 1.363 5298
1.313 3.662 1.354 5119
1.329 3.708 1.357 7198
1.333 3.719 1.348 5953
1.372 3.829 1.371 5837
1.373 3.832 1.360 5479
1.375 3.836 1.348 5189
1.391 3.882 1.350 5146
1.395 3.892 1.340 4122
1.401 3.910 1.333 3144
1.472 4.106 1.380 4434
1.475 4.117 1.369 3795
1.487 4.149 1.365 2761
1.498 4.181 1.361 4012
1.505 4.199 1.353 6518
1.498 4.181 1.334 5089
1.492 4.162 1.315 3222
1.542 4.302 1.340 2928
1.548 4.320 1.331 5924
1.557 4.345 1.324 6424
1.558 4.348 1.311 8209
1.559 4.351 1.297 8955
1.566 4.369 1.288 6008
1.608 4.488 1.305 5314
1.610 4.491 1.291 6263
1.611 4.494 1.277 6900
1.617 4.512 1.267 5432
1.626 4.537 1.259 4206
1.674 4.670 1.277 4098
1.675 4.673 1.263 4663
1.673 4.669 1.247 5361
1.669 4.658 1.229 4532
1.736 4.843 1.257 4430
1.731 4.831 1.239 5995
1.730 4.827 1.222 5232
1.731 4.830 1.208 3739
1.771 4.942 1.217 4316
1.840 5.135 1.243 4621
1.836 5.123 1.224 4631
1.837 5.126 1.208 4779
1.841 5.137 1.194 3911
1.947 5.432 1.238 2843
1.951 5.443 1.223 4201
1.954 5.453 1.208 4434
1.958 5.463 1.192 3509
2.006 5.598 1.201 2717
1.999 5.579 1.180 4262
2.027 5.655 1.176 4010
2.030 5.665 1.160 5112
2.031 5.668 1.143 3906
2.072 5.781 1.144 3101
2.073 5.784 1.127 4060
2.082 5.809 1.113 4611
2.085 5.819 1.096 3531
2.276 6.352 1.164 2926
2.217 6.185 1.118 3377
2.215 6.180 1.098 3407
2.213 6.175 1.078 2904
2.320 6.473 1.103 2998
2.313 6.454 1.080 3020
2.314 6.456 1.060 2605
2.471 6.895 1.101 2427
2.430 6.779 1.064 2452
2.491 6.951 1.066 2926
2.500 6.976 1.047 2950
2.554 7.127 1.045 2831
2.521 7.033 1.011 2586
2.585 7.213 1.011 2431
2.615 7.297 0.998 2909
2.619 7.306 0.977 2865
2.622 7.316 0.955 2121
2.681 7.481 0.950 2160
3.038 8.477 1.032 2601
3.036 8.472 1.006 2347
3.072 8.571 0.989 1706
3.070 8.566 0.962 2262
3.073 8.576 0.936 2287
3.082 8.600 0.912 2343
3.086 8.610 0.886 2187
3.046 8.500 0.850 2158
3.047 8.502 0.824 1853
3.117 8.697 0.813 1296
3.115 8.692 0.785 1109
3.065 8.552 0.748 954
3.063 8.546 0.721 944
3.066 8.555 0.696 661
3.141 8.765 0.682 365
0.791 2.207 0.140 341
0.791 2.207 0.133 463
0.791 2.207 0.126 688
0.794 2.214 0.120 1226
0.794 2.214 0.113 1569
0.794 2.214 0.106 1916
0.794 2.214 0.099 2263
0.793 2.214 0.093 2513
0.793 2.214 0.086 2723
0.793 2.214 0.079 2733
0.793 2.214 0.073 2543
0.793 2.213 0.066 2302
0.793 2.213 0.059 1969
0.793 2.213 0.052 1635
0.793 2.213 0.046 1283
0.793 2.212 0.039 931
0.793 2.212 0.032 667
1.099 3.068 -0.019 521
1.097 3.060 -0.028 444
1.096 3.059 -0.038 331
1.312 3.660 -0.208 268
1.312 3.659 -0.219 291
1.311 3.658 -0.230 291
1.311 3.657 -0.241 259
1.495 4.173 -0.335 297
1.495 4.171 -0.347 347
1.495 4.170 -0.360 398
1.494 4.169 -0.373 398
0.664 1.838 1.500 3774
0.666 1.841 1.495 7549
0.672 1.857 1.498 6928
0.675 1.867 1.497 7094
0.676 1.871 1.492 7094
0.682 1.887 1.495 6083
0.712 1.970 1.548 7250
0.714 1.974 1.542 6842
0.717 1.984 1.540 6596
0.719 1.988 1.534 6596
0.740 2.047 1.568 6050
0.744 2.057 1.567 7359
0.748 2.067 1.565 9373
0.751 2.078 1.563 11942
0.750 2.075 1.552 13100
0.752 2.079 1.546 14319
0.751 2.077 1.535 12020
0.750 2.074 1.525 10466
0.754 2.084 1.523 8255
0.769 2.126 1.542 8341
0.770 2.130 1.535 7857
0.774 2.140 1.533 8309
0.775 2.144 1.527 9279
0.783 2.166 1.533 9707
0.787 2.177 1.530 11159
0.786 2.174 1.520 12629
0.787 2.178 1.513 14273
0.786 2.175 1.502 12928
0.790 2.185 1.500 9808
0.794 2.195 1.497 8463
0.807 2.231 1.511 13692
0.806 2.229 1.500 17617
0.809 2.239 1.497 17968
0.813 2.249 1.494 19207
0.817 2.259 1.491 17567
0.818 2.263 1.485 16015
0.822 2.273 1.482 13756
0.825 2.283 1.479 11928
0.831 2.300 1.479 8504
0.838 2.316 1.480 5192
0.839 2.320 1.473 4653
0.885 2.448 1.539 4442
0.896 2.478 1.546 5584
0.900 2.488 1.542 6074
0.903 2.498 1.539 6783
0.905 2.502 1.531 6094
0.918 2.539 1.542 6626
0.922 2.549 1.538 9459
0.923 2.553 1.530 9942
0.922 2.550 1.519 8449
0.923 2.554 1.511 6453
0.925 2.558 1.503 7247
0.926 2.562 1.495 7579
0.932 2.579 1.495 6655
0.941 2.602 1.498 5557
0.969 2.679 1.528 5971
0.977 2.703 1.531 6286
0.981 2.714 1.526 7864
0.983 2.718 1.518 8549
0.984 2.721 1.510 9199
0.990 2.739 1.508 8913
0.999 2.762 1.510 10904
1.000 2.766 1.502 11067
0.999 2.763 1.490 9887
0.998 2.760 1.478 9027
1.011 2.798 1.486 6573
1.023 2.828 1.491 5015
1.024 2.832 1.482 4897
1.038 2.870 1.490 7199
1.044 2.887 1.488 11696
1.045 2.891 1.479 13783
1.046 2.894 1.470 12303
1.035 2.864 1.445 8187
1.037 2.867 1.436 5068
1.058 2.926 1.453 5270
1.069 2.957 1.456 8903
1.073 2.967 1.450 10441
1.074 2.971 1.441 8318
1.078 2.981 1.435 6557
1.087 3.005 1.435 5789
1.098 3.036 1.438 5138
1.102 3.047 1.432 5192
1.140 3.154 1.467 5101
1.142 3.158 1.457 7945
1.145 3.168 1.450 8336
1.122 3.102 1.412 8686
1.131 3.127 1.411 9211
1.132 3.130 1.401 9420
1.163 3.217 1.426 7540
1.162 3.214 1.413 9054
1.168 3.231 1.409 6931
1.202 3.325 1.435 3829
1.201 3.322 1.422 5188
1.202 3.325 1.412 6674
1.201 3.322 1.399 6379
1.240 3.430 1.429 4500
1.244 3.441 1.421 6644
1.240 3.430 1.405 7338
1.244 3.441 1.397 5902
1.253 3.465 1.395 5490
1.259 3.483 1.389 4008
1.278 3.536 1.396 4310
1.287 3.560 1.393 4361
1.283 3.550 1.377 5491
1.285 3.553 1.366 6129
1.306 3.613 1.375 5495
1.313 3.631 1.369 4496
1.319 3.648 1.363 5564
1.323 3.659 1.354 5963
1.337 3.697 1.355 7964
1.343 3.715 1.348 6689
1.383 3.825 1.371 5074
1.382 3.821 1.357 4377
1.398 3.867 1.359 4477
1.402 3.878 1.350 5480
1.401 3.874 1.336 5032
1.399 3.870 1.322 3747
1.481 4.095 1.378 4397
1.484 4.106 1.367 4070
1.493 4.130 1.361 3289
1.513 4.184 1.363 3900
1.514 4.187 1.351 6554
1.515 4.191 1.338 5225
1.511 4.180 1.321 2502
1.554 4.298 1.340 3092
1.560 4.316 1.331 5932
1.569 4.340 1.324 6307
1.571 4.344 1.311 7294
1.572 4.347 1.297 8993
1.575 4.357 1.286 6899
1.621 4.483 1.305 5177
1.622 4.486 1.291 5705
1.623 4.490 1.277 5875
1.630 4.507 1.267 4890
1.641 4.539 1.261 4765
1.684 4.658 1.275 3901
1.688 4.669 1.263 4642
1.686 4.665 1.247 5329
1.680 4.646 1.227 4450
1.752 4.845 1.259 4411
1.745 4.826 1.239 5734
1.741 4.815 1.221 5581
1.744 4.825 1.208 4084
1.753 4.850 1.198 4124
1.855 5.130 1.243 4337
1.851 5.118 1.224 4334
1.852 5.121 1.208 4670
1.858 5.139 1.196 4054
1.959 5.419 1.237 2811
1.966 5.437 1.223 3543
1.983 5.484 1.215 3842
1.973 5.458 1.192 3404
2.025 5.600 1.202 2864
2.028 5.610 1.186 3910
2.043 5.649 1.176 4133
2.049 5.667 1.161 4864
2.087 5.772 1.162 3961
2.088 5.775 1.144 4566
2.089 5.778 1.127 5013
2.095 5.795 1.111 4735
2.102 5.813 1.096 3621
2.297 6.353 1.166 2855
2.234 6.179 1.118 3231
2.230 6.167 1.097 3630
2.231 6.169 1.078 3224
2.338 6.467 1.103 2822
2.339 6.469 1.083 2449
2.396 6.627 1.085 2149
2.488 6.880 1.100 2445
2.448 6.772 1.064 2193
2.508 6.937 1.065 2373
2.490 6.888 1.037 2617
2.574 7.119 1.045 2800
2.599 7.188 1.031 2756
2.605 7.206 1.011 2904
2.636 7.289 0.998 2905
2.639 7.299 0.977 2866
2.771 7.664 0.995 2313
2.772 7.666 0.971 2119
3.062 8.469 1.032 2882
3.060 8.464 1.006 2463
3.053 8.444 0.977 1679
3.102 8.580 0.964 2028
3.106 8.589 0.938 2144
3.112 8.606 0.913 2448
3.115 8.616 0.887 2463
3.068 8.484 0.849 2325
3.068 8.486 0.823 1859
3.136 8.674 0.811 1395
3.137 8.675 0.785 1159
3.084 8.529 0.747 837
3.084 8.530 0.721 822
3.160 8.740 0.708 577
3.163 8.749 0.682 381
0.983 2.718 0.189 341
0.983 2.718 0.181 381
0.983 2.718 0.173 404
0.983 2.718 0.165 407
0.986 2.726 0.156 379
0.986 2.726 0.148 341
0.986 2.726 0.140 308
0.800 2.212 0.133 266
0.800 2.212 0.126 472
0.800 2.212 0.120 945
0.800 2.212 0.113 1213
0.800 2.212 0.106 1416
0.800 2.212 0.099 1620
0.851 2.353 0.090 1852
0.851 2.353 0.082 2168
0.848 2.345 0.076 2421
0.851 2.353 0.068 2484
0.851 2.352 0.061 2549
0.850 2.352 0.054 2423
0.850 2.352 0.047 2296
0.850 2.352 0.040 1973
0.847 2.344 0.033 1667
0.847 2.344 0.026 1281
0.850 2.351 0.018 911
0.850 2.350 0.011 627
0.847 2.343 0.004 350
0.861 2.381 -0.092 293
0.861 2.380 -0.100 349
0.858 2.372 -0.106 352
0.860 2.379 -0.114 324
0.860 2.378 -0.121 299
0.789 2.182 -0.133 272
0.789 2.181 -0.139 378
0.670 1.836 1.500 4102
0.672 1.839 1.495 8205
0.675 1.849 1.494 7162
0.681 1.865 1.497 6916
0.682 1.869 1.492 6916
0.717 1.964 1.554 6730
0.719 1.968 1.548 8444
0.722 1.978 1.546 7956
0.726 1.988 1.545 7543
0.727 1.992 1.539 7543
0.742 2.033 1.559 5444
0.748 2.049 1.562 5936
0.752 2.059 1.560 7543
0.758 2.075 1.563 9741
0.757 2.073 1.552 11062
0.758 2.077 1.546 12446
0.757 2.074 1.535 11127
0.757 2.072 1.525 10397
0.760 2.082 1.523 8150
0.773 2.117 1.538 6886
0.774 2.121 1.531 6636
0.778 2.131 1.529 7214
0.780 2.135 1.522 8137
0.790 2.164 1.533 8540
0.794 2.174 1.530 10064
0.793 2.172 1.520 10731
0.794 2.175 1.513 11699
0.793 2.173 1.502 10758
0.797 2.183 1.500 8735
0.815 2.231 1.521 10108
0.814 2.229 1.511 16225
0.815 2.232 1.504 19757
0.817 2.236 1.497 19859
0.820 2.246 1.494 20639
0.824 2.256 1.491 19245
0.825 2.260 1.485 18263
0.829 2.270 1.482 14971
0.833 2.280 1.479 11903
0.836 2.291 1.476 7596
0.885 2.424 1.546 4802
0.887 2.428 1.538 4944
0.893 2.445 1.539 5301
0.904 2.475 1.546 6603
0.910 2.492 1.546 6207
0.914 2.502 1.542 6314
0.915 2.506 1.535 5219
0.931 2.549 1.549 6585
0.930 2.546 1.538 9196
0.931 2.550 1.530 9494
0.930 2.547 1.519 8196
0.932 2.551 1.511 6430
0.931 2.548 1.500 7871
0.932 2.552 1.492 8563
0.938 2.569 1.491 7596
0.949 2.599 1.498 6243
0.977 2.676 1.528 6736
0.984 2.693 1.527 7033
0.990 2.711 1.526 8082
0.991 2.714 1.518 8354
0.993 2.718 1.510 9715
0.999 2.735 1.508 10474
1.008 2.759 1.510 11282
1.011 2.770 1.505 10624
1.010 2.767 1.493 8752
1.007 2.757 1.478 7995
1.020 2.794 1.486 6116
1.032 2.825 1.491 4855
1.033 2.829 1.482 4632
1.047 2.866 1.490 6607
1.053 2.884 1.488 11502
1.054 2.887 1.479 13903
1.056 2.891 1.470 12873
1.047 2.867 1.448 8865
1.043 2.857 1.433 5578
1.072 2.936 1.459 5555
1.081 2.960 1.459 8952
1.085 2.971 1.453 10782
1.086 2.974 1.444 8789
1.100 3.012 1.450 7141
1.101 3.016 1.441 5927
1.110 3.040 1.441 6050
1.111 3.043 1.432 5825
1.150 3.150 1.467 5221
1.152 3.154 1.457 8542
1.156 3.165 1.450 8854
1.129 3.092 1.409 8100
1.143 3.130 1.414 8408
1.142 3.127 1.401 8739
1.171 3.206 1.423 8904
1.172 3.210 1.413 9763
1.176 3.220 1.406 7008
1.180 3.231 1.399 3434
1.209 3.311 1.419 5853
1.213 3.322 1.412 8092
1.214 3.325 1.402 8093
1.213 3.321 1.389 5682
1.255 3.437 1.421 6618
1.256 3.440 1.411 8264
1.263 3.458 1.405 7143
1.264 3.461 1.395 6393
1.268 3.472 1.387 4996
1.290 3.532 1.396 5299
1.299 3.556 1.393 5921
1.300 3.560 1.382 6345
1.299 3.556 1.369 6223
1.315 3.602 1.373 6226
1.322 3.619 1.367 4636
1.336 3.658 1.368 6752
1.342 3.676 1.361 7156
1.349 3.693 1.355 8086
1.355 3.711 1.348 6800
1.393 3.813 1.369 4090
1.396 3.824 1.360 3172
1.413 3.870 1.362 4475
1.414 3.873 1.350 5973
1.413 3.869 1.336 6305
1.412 3.866 1.322 4859
1.491 4.083 1.375 4778
1.492 4.087 1.363 4498
1.504 4.119 1.359 3638
1.523 4.172 1.361 3875
1.527 4.183 1.351 6573
1.529 4.186 1.338 5546
1.530 4.189 1.325 2756
1.568 4.293 1.340 3719
1.571 4.303 1.329 6288
1.581 4.328 1.322 7058
1.584 4.339 1.311 7139
1.588 4.349 1.299 8971
1.589 4.352 1.286 7725
1.577 4.319 1.263 4961
1.639 4.489 1.293 4823
1.638 4.484 1.277 4720
1.655 4.531 1.275 4830
1.656 4.534 1.261 5958
1.659 4.544 1.249 4142
1.703 4.663 1.263 4768
1.701 4.659 1.247 5212
1.694 4.640 1.227 4403
1.772 4.854 1.262 4358
1.755 4.806 1.236 5490
1.753 4.802 1.219 5924
1.757 4.812 1.206 4426
1.772 4.851 1.199 4392
1.871 5.124 1.243 3696
1.867 5.112 1.224 3805
1.871 5.123 1.210 4248
1.877 5.140 1.197 3942
1.977 5.413 1.237 2635
1.935 5.299 1.197 3012
2.003 5.485 1.216 3647
2.001 5.480 1.198 3180
2.042 5.593 1.202 2967
2.049 5.611 1.188 3919
2.061 5.643 1.176 3986
2.102 5.756 1.179 4417
2.105 5.766 1.162 5185
2.109 5.776 1.146 6166
2.107 5.771 1.127 6074
2.111 5.781 1.110 4851
2.120 5.806 1.096 3521
2.322 6.360 1.168 2877
2.256 6.179 1.119 3130
2.249 6.159 1.097 3952
2.250 6.162 1.078 3588
2.361 6.466 1.104 2470
2.362 6.469 1.084 2198
2.409 6.597 1.082 1993
2.507 6.865 1.099 2510
2.513 6.882 1.080 2092
2.401 6.575 1.017 1961
2.596 7.109 1.067 2385
2.599 7.119 1.046 2701
2.622 7.180 1.031 3304
2.628 7.197 1.011 3398
2.796 7.658 1.043 3009
2.660 7.283 0.976 2867
2.798 7.663 0.996 2700
2.796 7.658 0.971 2438
3.086 8.452 1.032 2980
3.090 8.461 1.006 2359
3.134 8.582 0.992 1542
3.137 8.592 0.966 2090
3.141 8.602 0.940 2428
3.142 8.604 0.914 2827
3.145 8.613 0.888 3048
3.095 8.474 0.849 2533
3.147 8.617 0.835 2055
3.155 8.641 0.810 1669
3.159 8.651 0.784 1312
3.154 8.637 0.756 952
3.152 8.632 0.729 814
3.153 8.633 0.702 706
3.150 8.627 0.675 450
0.987 2.704 0.296 288
0.991 2.714 0.214 331
0.991 2.715 0.206 414
0.991 2.715 0.198 508
0.991 2.715 0.189 683
0.994 2.722 0.181 765
0.991 2.715 0.173 804
0.991 2.715 0.165 838
0.992 2.715 0.156 813
0.994 2.723 0.148 729
0.992 2.715 0.140 664
0.992 2.715 0.131 554
0.807 2.210 0.126 544
0.810 2.217 0.119 702
0.810 2.217 0.113 788
0.810 2.217 0.106 929
0.856 2.343 0.097 1252
0.858 2.350 0.090 1413
0.856 2.343 0.083 1435
0.807 2.209 0.079 1501
0.807 2.209 0.073 1472
0.806 2.209 0.066 1353
0.806 2.208 0.059 1124
0.806 2.208 0.052 895
1.118 3.062 0.009 680
1.118 3.062 -0.001 607
1.118 3.062 -0.010 534
1.118 3.061 -0.019 416
1.115 3.053 -0.028 307
0.869 2.380 -0.071 276
0.869 2.379 -0.078 398
0.869 2.379 -0.085 520
0.868 2.378 -0.092 587
0.868 2.377 -0.100 655
0.865 2.369 -0.106 657
0.868 2.376 -0.114 611
0.867 2.375 -0.121 568
0.867 2.375 -0.128 457
0.867 2.374 -0.136 346
1.101 3.016 -0.221 295
1.098 3.007 -0.229 351
0.793 2.172 -0.132 464
0.793 2.171 -0.138 611
0.674 1.834 1.500 4019
0.676 1.838 1.495 8039
0.682 1.854 1.498 6925
0.687 1.870 1.502 6713
0.689 1.873 1.496 6713
0.722 1.962 1.554 7417
0.725 1.972 1.552 9362
0.727 1.976 1.546 8859
0.730 1.986 1.545 8376
0.732 1.990 1.539 8376
0.733 1.994 1.533 5650
0.748 2.035 1.553 5013
0.756 2.057 1.560 5951
0.762 2.073 1.563 7758
0.762 2.071 1.552 9204
0.763 2.075 1.546 10699
0.762 2.073 1.535 10240
0.761 2.070 1.525 10172
0.765 2.080 1.523 7999
0.769 2.090 1.521 6396
0.772 2.100 1.518 6113
0.778 2.117 1.521 6356
0.784 2.133 1.522 6935
0.795 2.162 1.533 7434
0.799 2.172 1.530 8995
0.800 2.176 1.524 9200
0.799 2.174 1.513 9655
0.801 2.177 1.506 9126
0.814 2.213 1.520 8263
0.820 2.229 1.521 11872
0.821 2.233 1.515 17951
0.820 2.231 1.504 20958
0.824 2.241 1.501 20894
0.825 2.244 1.494 21183
0.829 2.255 1.491 20013
0.830 2.258 1.485 19476
0.834 2.268 1.482 15502
0.835 2.272 1.475 11620
0.839 2.282 1.472 6947
0.891 2.422 1.546 5220
0.892 2.426 1.538 5488
0.898 2.443 1.539 6087
0.907 2.466 1.542 7588
0.913 2.483 1.542 6610
0.919 2.500 1.542 6136
0.923 2.510 1.539 4860
0.937 2.547 1.549 6845
0.936 2.544 1.538 9265
0.935 2.542 1.527 9372
0.936 2.545 1.519 8095
0.935 2.543 1.507 6581
0.936 2.546 1.500 8351
0.938 2.550 1.492 9339
0.941 2.560 1.488 8425
0.953 2.591 1.494 6728
0.983 2.674 1.528 6755
0.990 2.691 1.527 7279
0.996 2.708 1.526 8343
0.997 2.712 1.518 8607
0.999 2.716 1.510 10278
1.005 2.733 1.508 11433
1.014 2.757 1.510 11454
1.018 2.767 1.505 10316
1.019 2.771 1.496 8067
1.010 2.748 1.475 7263
1.024 2.785 1.483 5751
1.040 2.830 1.494 4790
1.042 2.833 1.485 4457
1.056 2.871 1.493 6158
1.059 2.881 1.488 11106
1.061 2.885 1.479 13685
1.060 2.882 1.467 13044
1.056 2.872 1.452 9411
1.055 2.869 1.440 5645
1.079 2.934 1.459 6201
1.087 2.958 1.459 8813
1.091 2.968 1.453 10749
1.098 2.985 1.450 9152
1.107 3.010 1.450 7622
1.110 3.020 1.444 6065
1.117 3.037 1.441 6738
1.118 3.041 1.432 6187
1.119 3.044 1.422 5424
1.156 3.145 1.454 8386
1.160 3.155 1.448 8458
1.133 3.083 1.406 7497
1.150 3.128 1.414 7720
1.146 3.117 1.399 8300
1.178 3.204 1.423 9511
1.179 3.207 1.413 9769
1.186 3.225 1.409 6656
1.192 3.242 1.405 3307
1.216 3.308 1.419 6229
1.220 3.319 1.412 8988
1.222 3.322 1.402 9383
1.220 3.319 1.389 6563
1.265 3.441 1.424 6300
1.267 3.445 1.413 9256
1.270 3.455 1.405 8202
1.274 3.466 1.397 6663
1.276 3.469 1.387 5254
1.297 3.529 1.396 5629
1.306 3.553 1.393 6758
1.308 3.557 1.382 6771
1.309 3.560 1.371 6295
1.323 3.599 1.373 6264
1.330 3.616 1.367 4951
1.344 3.655 1.368 7743
1.350 3.673 1.361 7844
1.357 3.690 1.355 7518
1.363 3.708 1.348 6256
1.367 3.718 1.339 3782
1.410 3.835 1.364 2946
1.422 3.867 1.362 4478
1.423 3.870 1.350 6222
1.419 3.859 1.333 7006
1.420 3.862 1.322 5445
1.497 4.073 1.373 4570
1.501 4.083 1.363 4369
1.513 4.115 1.359 3400
1.533 4.169 1.361 3843
1.537 4.179 1.351 6419
1.540 4.190 1.340 5616
1.550 4.214 1.333 3111
1.572 4.275 1.336 3969
1.581 4.300 1.329 6172
1.590 4.325 1.322 7704
1.591 4.328 1.309 6790
1.598 4.346 1.299 8249
1.596 4.342 1.284 8002
1.587 4.316 1.263 5435
1.654 4.499 1.297 4190
1.666 4.531 1.290 4001
1.667 4.534 1.276 5235
1.668 4.538 1.263 6696
1.670 4.541 1.249 5011
1.713 4.660 1.263 4732
1.712 4.655 1.247 4663
1.702 4.629 1.226 4246
1.783 4.850 1.262 4303
1.766 4.802 1.236 5253
1.764 4.798 1.219 5706
1.768 4.808 1.206 4430
1.782 4.847 1.199 4374
1.791 4.872 1.189 3514
1.878 5.108 1.224 3251
1.885 5.126 1.212 3669
1.891 5.143 1.199 3556
1.989 5.409 1.237 2375
2.014 5.477 1.233 2671
2.015 5.480 1.216 3243
2.013 5.476 1.198 2818
2.055 5.589 1.202 2920
2.061 5.606 1.188 4048
2.070 5.631 1.175 4019
2.114 5.751 1.179 4743
2.118 5.761 1.162 5831
2.122 5.771 1.146 7049
2.120 5.767 1.127 6612
2.121 5.769 1.109 4886
2.133 5.801 1.096 3246
2.342 6.369 1.170 3003
2.273 6.181 1.120 3158
2.263 6.154 1.097 4197
2.264 6.157 1.078 3793
2.267 6.167 1.060 2125
2.379 6.471 1.085 2027
2.415 6.569 1.079 2043
2.519 6.852 1.098 2620
2.404 6.538 1.033 2310
2.416 6.570 1.017 1975
2.612 7.103 1.067 2401
2.632 7.157 1.051 2883
2.638 7.174 1.031 3586
2.644 7.191 1.011 3601
2.813 7.652 1.043 3133
2.814 7.654 1.019 2935
2.815 7.656 0.996 2812
2.813 7.651 0.971 2523
3.105 8.445 1.032 2874
3.109 8.455 1.006 2149
2.933 7.976 0.932 1705
3.159 8.592 0.967 2257
3.160 8.595 0.940 2703
3.161 8.597 0.914 3096
3.164 8.606 0.888 3470
3.165 8.608 0.861 2950
3.166 8.610 0.835 2414
3.169 8.620 0.809 1942
3.175 8.636 0.783 1515
3.171 8.623 0.755 1201
3.171 8.625 0.729 1060
3.172 8.626 0.702 903
0.996 2.709 0.305 644
0.993 2.702 0.296 551
0.993 2.702 0.288 419
0.994 2.702 0.280 348
0.994 2.703 0.272 282
0.997 2.712 0.222 337
0.997 2.712 0.214 533
0.997 2.712 0.206 638
0.997 2.713 0.198 731
0.997 2.713 0.189 910
0.997 2.713 0.181 996
0.997 2.713 0.173 1058
0.998 2.713 0.165 1134
0.998 2.713 0.156 1125
0.998 2.713 0.148 1030
0.998 2.713 0.140 956
0.815 2.215 0.133 929
0.812 2.208 0.126 1233
0.812 2.208 0.120 1803
0.812 2.208 0.113 2052
0.812 2.208 0.106 2050
0.864 2.349 0.097 2500
0.864 2.349 0.090 2864
0.863 2.348 0.082 3021
0.861 2.341 0.076 3159
0.863 2.348 0.068 3069
0.863 2.348 0.061 3012
0.863 2.348 0.054 2776
0.860 2.340 0.047 2543
0.860 2.340 0.040 2246
0.860 2.339 0.033 1948
0.860 2.339 0.026 1576
0.863 2.346 0.018 1215
0.860 2.338 0.012 903
0.860 2.338 0.004 602
0.860 2.338 -0.003 423
0.869 2.365 -0.048 276
0.872 2.372 -0.056 427
0.872 2.371 -0.063 626
0.874 2.378 -0.071 829
0.874 2.377 -0.078 959
0.874 2.377 -0.085 1089
0.874 2.376 -0.092 1139
0.873 2.375 -0.100 1189
0.873 2.375 -0.107 1189
0.873 2.374 -0.114 1055
0.873 2.373 -0.121 921
0.872 2.373 -0.128 711
0.872 2.372 -0.136 501
1.105 3.006 -0.220 408
1.105 3.005 -0.229 452
0.798 2.170 -0.132 478
0.798 2.170 -0.138 603
0.683 1.838 1.505 4228
0.684 1.842 1.499 8457
0.688 1.851 1.498 7193
0.694 1.867 1.502 6821
0.695 1.871 1.496 6821
0.730 1.966 1.558 8473
0.732 1.970 1.552 10732
0.733 1.974 1.546 10174
0.737 1.984 1.545 9647
0.738 1.988 1.539 9647
0.740 1.992 1.533 6856
0.750 2.020 1.544 5016
0.759 2.042 1.552 4401
0.767 2.065 1.558 5406
0.766 2.062 1.548 7030
0.767 2.066 1.542 8717
0.769 2.070 1.535 9094
0.768 2.068 1.525 9713
0.772 2.078 1.523 7661
0.775 2.088 1.521 5982
0.779 2.098 1.518 5822
0.783 2.108 1.516 5883
0.787 2.118 1.514 5770
0.804 2.166 1.537 6371
0.806 2.170 1.530 7981
0.807 2.173 1.524 7839
0.804 2.165 1.509 7885
0.808 2.175 1.506 7984
0.823 2.217 1.524 9907
0.827 2.227 1.521 13911
0.828 2.231 1.515 19946
0.830 2.234 1.508 22263
0.831 2.238 1.501 22045
0.833 2.242 1.494 21826
0.834 2.245 1.487 20896
0.838 2.256 1.485 20822
0.839 2.259 1.478 16149
0.843 2.269 1.475 11583
0.842 2.267 1.464 6993
0.899 2.419 1.546 5838
0.900 2.423 1.538 6350
0.906 2.440 1.539 7138
0.915 2.463 1.542 8808
0.919 2.474 1.539 7453
0.925 2.491 1.539 6351
0.936 2.521 1.546 5435
0.942 2.537 1.546 7845
0.944 2.541 1.538 10114
0.943 2.539 1.527 10045
0.942 2.536 1.515 8693
0.941 2.533 1.504 7321
0.942 2.537 1.496 9340
0.946 2.547 1.492 10523
0.950 2.557 1.488 9684
0.959 2.581 1.491 7636
0.967 2.604 1.493 7096
0.998 2.688 1.527 7351
1.005 2.705 1.526 8754
1.009 2.716 1.521 9209
1.010 2.719 1.513 11011
1.014 2.730 1.508 12343
1.020 2.747 1.507 11858
1.027 2.764 1.505 10337
1.028 2.768 1.496 7744
1.019 2.745 1.475 6684
1.033 2.782 1.483 5561
1.050 2.826 1.494 4846
1.051 2.830 1.485 4387
1.065 2.867 1.493 5825
1.069 2.878 1.488 10732
1.070 2.881 1.479 13470
1.069 2.878 1.467 13400
1.068 2.875 1.455 10041
1.084 2.920 1.465 6618
1.091 2.937 1.462 6968
1.100 2.961 1.462 8715
1.106 2.978 1.460 10760
1.113 2.995 1.457 10204
1.114 2.999 1.447 8241
1.120 3.016 1.444 6123
1.127 3.034 1.441 7484
1.131 3.044 1.435 6565
1.129 3.041 1.422 5475
1.167 3.141 1.454 7840
1.170 3.151 1.448 7451
1.141 3.072 1.403 6879
1.147 3.089 1.399 7498
1.151 3.100 1.393 8363
1.189 3.200 1.423 9391
1.190 3.204 1.413 9046
1.199 3.228 1.412 5878
1.216 3.273 1.418 3543
1.227 3.304 1.419 6680
1.234 3.322 1.415 10025
1.232 3.318 1.402 10946
1.231 3.315 1.389 7620
1.277 3.437 1.424 5895
1.278 3.441 1.413 10247
1.284 3.458 1.408 9193
1.286 3.461 1.397 6630
1.287 3.465 1.387 5232
1.309 3.525 1.396 5899
1.316 3.542 1.391 7565
1.319 3.552 1.382 7177
1.321 3.556 1.371 6466
1.330 3.580 1.368 5712
1.342 3.612 1.367 5215
1.359 3.658 1.370 8568
1.362 3.668 1.361 8257
1.366 3.679 1.352 6484
1.373 3.696 1.346 5085
1.419 3.820 1.374 3821
1.425 3.837 1.367 3634
1.434 3.862 1.362 4476
1.436 3.865 1.350 6253
1.432 3.855 1.333 7420
1.433 3.858 1.322 5738
1.508 4.061 1.371 4249
1.512 4.071 1.361 4118
1.527 4.110 1.359 2895
1.546 4.164 1.361 3884
1.550 4.174 1.351 6329
1.554 4.185 1.340 5778
1.566 4.216 1.335 3650
1.583 4.263 1.334 3939
1.595 4.295 1.329 5570
1.604 4.320 1.322 7933
1.606 4.323 1.309 6668
1.609 4.333 1.297 7075
1.608 4.329 1.282 7559
1.601 4.311 1.263 5045
1.677 4.515 1.302 4136
1.684 4.533 1.292 4688
1.682 4.529 1.276 5231
1.683 4.532 1.263 6600
1.684 4.535 1.249 5578
1.737 4.676 1.268 5036
1.724 4.642 1.245 4279
1.715 4.617 1.224 4117
1.802 4.851 1.264 4042
1.781 4.796 1.236 5232
1.780 4.792 1.219 5391
1.784 4.802 1.206 4281
1.801 4.849 1.201 4253
1.810 4.874 1.191 3452
1.841 4.956 1.193 3182
1.904 5.127 1.213 2722
1.916 5.159 1.203 2962
1.917 5.162 1.187 2283
2.032 5.471 1.233 2298
2.033 5.474 1.216 2617
2.075 5.586 1.221 2423
2.076 5.589 1.204 3008
2.080 5.599 1.188 4386
2.083 5.609 1.172 4644
2.133 5.744 1.179 4906
2.137 5.754 1.162 6127
2.141 5.764 1.146 7473
2.139 5.760 1.127 6914
2.137 5.755 1.108 4891
2.152 5.794 1.096 2859
2.295 6.178 1.140 3250
2.296 6.181 1.121 3530
2.283 6.147 1.097 4590
2.284 6.150 1.078 4102
2.288 6.159 1.060 2470
2.403 6.471 1.086 1793
2.432 6.547 1.077 2244
2.539 6.836 1.097 2959
2.425 6.530 1.033 2632
2.437 6.562 1.017 2068
2.635 7.094 1.067 2374
2.655 7.148 1.051 3082
2.661 7.166 1.031 3713
2.668 7.183 1.011 3607
2.693 7.251 0.996 3038
2.697 7.261 0.975 2884
2.840 7.647 0.996 2668
2.800 7.539 0.960 2528
3.133 8.435 1.032 2556
2.958 7.964 0.957 2190
2.959 7.966 0.932 2095
3.187 8.582 0.967 2474
3.188 8.584 0.940 2967
3.192 8.594 0.914 3305
3.193 8.596 0.888 3748
3.193 8.598 0.861 3272
3.194 8.600 0.835 2711
3.197 8.609 0.809 2188
3.204 8.626 0.783 1704
3.199 8.613 0.755 1401
3.199 8.614 0.729 1251
1.005 2.705 0.313 1307
1.005 2.705 0.305 1310
1.005 2.706 0.297 1130
1.002 2.699 0.288 730
1.005 2.707 0.280 489
1.005 2.707 0.272 339
1.006 2.708 0.239 284
1.006 2.708 0.231 380
1.006 2.709 0.222 520
1.006 2.709 0.214 786
1.006 2.709 0.206 912
1.006 2.709 0.198 999
1.006 2.709 0.189 1125
1.006 2.710 0.181 1163
1.006 2.710 0.173 1117
1.006 2.710 0.165 1051
1.006 2.710 0.156 1002
1.006 2.710 0.148 940
1.006 2.710 0.140 909
1.006 2.710 0.131 837
1.006 2.710 0.123 669
0.816 2.198 0.120 722
0.819 2.205 0.113 1067
0.819 2.205 0.106 1644
0.816 2.197 0.100 2221
0.819 2.205 0.093 2710
0.819 2.205 0.086 3084
0.819 2.204 0.079 2952
0.816 2.197 0.073 2368
0.816 2.197 0.066 1780
0.871 2.345 0.054 1673
0.871 2.345 0.047 1633
0.871 2.344 0.040 1431
0.868 2.337 0.033 1244
0.870 2.344 0.025 996
0.870 2.343 0.018 763
0.870 2.343 0.011 553
0.867 2.335 0.004 351
0.708 1.905 0.024 343
0.705 1.897 0.019 399
0.705 1.897 0.013 452
0.704 1.897 0.007 437
0.707 1.904 0.001 422
0.880 2.370 -0.041 539
0.880 2.369 -0.048 759
0.882 2.376 -0.056 995
0.882 2.376 -0.063 1178
0.882 2.375 -0.071 1361
0.882 2.374 -0.078 1392
0.882 2.374 -0.085 1423
0.881 2.373 -0.092 1345
0.881 2.373 -0.100 1266
0.881 2.372 -0.107 1266
0.881 2.371 -0.114 1054
0.883 2.378 -0.122 849
0.883 2.377 -0.129 632
1.115 3.003 -0.211 520
1.115 3.002 -0.220 585
1.115 3.001 -0.229 650
0.808 2.175 -0.133 520
0.808 2.174 -0.139 655
0.687 1.836 1.505 3977
0.689 1.840 1.499 7954
0.695 1.856 1.503 6877
0.701 1.872 1.507 6680
0.732 1.954 1.560 6926
0.735 1.964 1.558 9110
0.737 1.968 1.552 11461
0.738 1.972 1.546 10947
0.742 1.982 1.545 10459
0.743 1.986 1.539 10459
0.745 1.990 1.533 7826
0.751 2.006 1.536 5883
0.755 2.016 1.534 4754
0.756 2.019 1.528 3643
0.771 2.060 1.548 5070
0.773 2.064 1.542 6643
0.772 2.062 1.531 7645
0.773 2.066 1.525 8688
0.777 2.076 1.523 6920
0.781 2.086 1.521 5386
0.785 2.096 1.518 5440
0.786 2.100 1.512 5490
0.790 2.110 1.510 4907
0.810 2.164 1.537 5507
0.811 2.168 1.530 6887
0.813 2.171 1.524 6645
0.810 2.162 1.509 6579
0.823 2.198 1.523 7943
0.829 2.214 1.524 10983
0.833 2.225 1.521 15077
0.834 2.228 1.515 20799
0.836 2.232 1.508 22684
0.837 2.236 1.501 22101
0.838 2.240 1.494 21518
0.840 2.243 1.487 21020
0.844 2.253 1.485 21194
0.845 2.257 1.478 16322
0.846 2.261 1.471 11451
0.845 2.258 1.460 7557
0.907 2.423 1.550 6251
0.906 2.421 1.538 6943
0.913 2.438 1.539 7802
0.919 2.454 1.539 9421
0.923 2.465 1.535 8052
0.927 2.475 1.531 6742
0.916 2.446 1.505 6454
0.947 2.528 1.542 8976
0.950 2.539 1.538 11157
0.949 2.536 1.527 11059
0.946 2.527 1.511 9607
0.942 2.517 1.497 8421
0.949 2.534 1.496 10202
0.953 2.544 1.492 11469
0.956 2.555 1.488 10761
0.963 2.572 1.487 8809
0.972 2.595 1.490 7770
0.971 2.592 1.478 6903
1.014 2.709 1.530 8718
1.016 2.713 1.521 9586
1.017 2.717 1.513 11263
1.021 2.727 1.508 12549
1.027 2.744 1.507 11879
1.031 2.755 1.502 10303
1.035 2.765 1.496 7583
1.027 2.742 1.475 6142
1.040 2.779 1.483 5415
1.057 2.823 1.494 4779
1.058 2.827 1.485 4220
1.072 2.865 1.493 5451
1.076 2.875 1.488 10216
1.075 2.872 1.476 13191
1.077 2.876 1.467 13343
1.078 2.879 1.458 10275
1.092 2.917 1.465 7830
1.098 2.934 1.462 7400
1.110 2.965 1.466 8412
1.116 2.982 1.463 10587
1.120 2.993 1.457 10694
1.122 2.996 1.447 8423
1.097 2.931 1.408 6057
1.135 3.031 1.441 7833
1.139 3.041 1.435 6641
1.140 3.045 1.425 5363
1.170 3.124 1.448 7089
1.137 3.038 1.401 6371
1.146 3.062 1.400 6406
1.153 3.079 1.397 7937
1.159 3.097 1.393 8428
1.194 3.190 1.420 8592
1.196 3.193 1.410 7722
1.223 3.266 1.428 5314
1.224 3.270 1.418 3745
1.238 3.308 1.422 6857
1.248 3.332 1.420 10936
1.249 3.336 1.410 12051
1.237 3.305 1.386 8234
1.285 3.434 1.424 5526
1.289 3.444 1.416 10463
1.293 3.455 1.408 9259
1.297 3.465 1.400 6376
1.299 3.469 1.389 5034
1.318 3.521 1.396 5948
1.325 3.539 1.391 7751
1.329 3.549 1.382 7178
1.327 3.545 1.369 6360
1.331 3.556 1.360 5368
1.348 3.601 1.364 5042
1.368 3.654 1.370 8507
1.372 3.665 1.361 8305
1.376 3.675 1.352 5545
1.382 3.692 1.346 3719
1.431 3.823 1.376 4129
1.435 3.834 1.367 4183
1.437 3.837 1.355 4529
1.443 3.855 1.348 5847
1.442 3.851 1.333 7133
1.446 3.861 1.324 5492
1.516 4.050 1.369 3581
1.520 4.060 1.359 3808
1.535 4.099 1.357 2584
1.560 4.167 1.363 3779
1.561 4.170 1.351 5958
1.568 4.188 1.342 5758
1.580 4.220 1.337 4253
1.589 4.244 1.330 4012
1.606 4.291 1.329 4647
1.616 4.315 1.322 7214
1.617 4.319 1.309 7026
1.618 4.322 1.295 6646
1.616 4.318 1.280 6102
1.612 4.306 1.263 3841
1.692 4.518 1.304 4479
1.695 4.529 1.292 5058
1.694 4.525 1.276 4789
1.698 4.535 1.264 6009
1.696 4.531 1.249 5584
1.749 4.671 1.268 5143
1.736 4.638 1.245 3764
1.727 4.612 1.224 3953
1.817 4.854 1.266 3644
1.794 4.792 1.236 5153
1.792 4.788 1.219 4619
1.796 4.798 1.206 3803
1.814 4.844 1.201 3954
1.855 4.956 1.210 3685
1.857 4.959 1.194 3438
1.928 5.151 1.219 2246
1.935 5.168 1.206 2531
1.933 5.164 1.189 2050
2.013 5.378 1.216 2502
2.015 5.381 1.199 2228
2.092 5.588 1.222 2528
2.093 5.591 1.205 2956
2.094 5.594 1.188 4478
2.095 5.597 1.171 5490
2.094 5.592 1.152 4945
2.152 5.749 1.162 5742
2.156 5.759 1.146 7005
2.154 5.754 1.127 6446
2.152 5.749 1.108 4509
2.302 6.148 1.156 3600
2.311 6.172 1.140 3807
2.312 6.175 1.121 4093
2.299 6.141 1.097 4996
2.303 6.151 1.079 4444
2.315 6.183 1.064 3123
2.321 6.200 1.047 2296
2.336 6.239 1.033 2740
2.554 6.822 1.096 3370
2.555 6.825 1.075 3007
2.440 6.518 1.012 2181
2.651 7.080 1.066 2198
2.674 7.141 1.051 3091
2.680 7.159 1.031 3498
2.686 7.176 1.011 3219
2.712 7.244 0.996 2936
2.713 7.247 0.974 2780
2.819 7.529 0.983 2590
2.820 7.531 0.960 2374
3.155 8.426 1.032 2146
2.979 7.956 0.957 2303
2.980 7.959 0.932 2263
3.210 8.574 0.967 2476
3.211 8.576 0.940 2984
3.214 8.585 0.914 3287
3.162 8.447 0.876 3761
3.216 8.589 0.861 3333
3.216 8.591 0.835 2819
3.220 8.601 0.809 2287
3.223 8.610 0.782 1781
1.014 2.709 0.330 1488
1.014 2.709 0.322 1670
1.012 2.702 0.313 1714
1.012 2.703 0.305 1680
1.012 2.703 0.297 1376
1.012 2.703 0.289 813
1.015 2.711 0.281 531
1.015 2.712 0.272 430
1.013 2.705 0.264 258
1.013 2.706 0.239 420
1.013 2.706 0.231 570
1.013 2.706 0.222 728
1.013 2.706 0.214 1071
1.013 2.706 0.206 1256
1.013 2.707 0.198 1407
1.013 2.707 0.189 1608
1.013 2.707 0.181 1659
1.013 2.707 0.173 1571
1.013 2.707 0.165 1312
1.013 2.707 0.156 1096
1.014 2.707 0.148 824
1.011 2.700 0.140 607
0.825 2.203 0.133 700
0.825 2.203 0.126 925
0.825 2.203 0.120 1351
0.825 2.203 0.113 1553
0.825 2.203 0.106 1612
0.877 2.344 0.097 1701
0.880 2.351 0.089 1973
0.877 2.343 0.082 2065
0.877 2.343 0.075 2128
0.877 2.343 0.068 1941
0.877 2.343 0.061 1754
0.824 2.202 0.059 1610
0.824 2.201 0.052 1475
0.824 2.201 0.046 1154
0.824 2.201 0.039 833
0.874 2.334 0.026 756
0.876 2.341 0.018 693
0.876 2.341 0.011 598
0.713 1.904 0.030 666
0.710 1.896 0.024 762
0.710 1.896 0.019 749
0.710 1.895 0.013 740
0.712 1.902 0.007 640
0.712 1.902 0.001 544
0.886 2.367 -0.041 598
0.889 2.374 -0.049 758
0.889 2.374 -0.056 923
0.888 2.373 -0.063 967
0.891 2.380 -0.071 1030
0.891 2.379 -0.079 903
0.888 2.371 -0.085 778
0.890 2.378 -0.093 656
0.893 2.385 -0.101 556
0.893 2.384 -0.108 556
0.892 2.384 -0.116 576
0.889 2.376 -0.122 603
0.889 2.375 -0.129 573
0.889 2.374 -0.137 543
1.126 3.007 -0.221 537
1.125 3.006 -0.230 658
0.811 2.166 -0.132 491
0.810 2.165 -0.138 661
0.693 1.834 1.505 3792
0.695 1.838 1.499 7585
0.703 1.860 1.508 6708
0.706 1.869 1.507 6664
0.738 1.952 1.560 7693
0.741 1.962 1.558 9830
0.743 1.966 1.552 12130
0.744 1.970 1.546 11754
0.748 1.980 1.545 11378
0.750 1.983 1.539 11378
0.753 1.993 1.537 9097
0.757 2.003 1.536 7648
0.759 2.007 1.530 6124
0.760 2.011 1.523 4601
0.768 2.033 1.530 4013
0.777 2.056 1.537 4853
0.778 2.060 1.531 6219
0.780 2.063 1.525 7586
0.784 2.073 1.523 6210
0.801 2.121 1.546 5731
0.801 2.118 1.535 5412
0.788 2.085 1.504 5028
0.820 2.170 1.552 4447
0.822 2.174 1.545 5180
0.821 2.171 1.534 5950
0.822 2.175 1.528 5751
0.816 2.160 1.509 5673
0.832 2.202 1.527 8341
0.836 2.212 1.524 11999
0.840 2.222 1.521 16068
0.841 2.226 1.515 21259
0.843 2.229 1.508 22547
0.844 2.233 1.501 21646
0.845 2.237 1.494 20746
0.847 2.241 1.487 20814
0.851 2.251 1.485 21262
0.852 2.254 1.478 16412
0.853 2.258 1.471 11561
0.852 2.255 1.460 8455
0.915 2.421 1.550 6559
0.914 2.418 1.538 7452
0.920 2.435 1.539 8377
0.926 2.452 1.539 9912
0.928 2.455 1.531 8713
0.927 2.453 1.520 7664
0.926 2.450 1.509 7755
0.954 2.526 1.542 10749
0.956 2.529 1.534 12920
0.957 2.533 1.527 12763
0.954 2.524 1.511 11353
0.953 2.521 1.500 9918
0.957 2.531 1.496 11566
0.960 2.542 1.492 12717
0.967 2.558 1.491 12222
0.971 2.569 1.487 10442
0.975 2.579 1.483 9008
0.979 2.589 1.478 8543
1.023 2.706 1.530 8319
1.024 2.710 1.521 9705
1.025 2.714 1.513 11316
1.029 2.724 1.508 12199
1.036 2.741 1.507 11515
1.040 2.752 1.502 10345
1.044 2.762 1.496 7711
1.048 2.772 1.491 6291
1.049 2.776 1.483 5411
1.063 2.813 1.491 4493
1.067 2.824 1.485 4128
1.081 2.861 1.493 5004
1.083 2.865 1.484 9663
1.081 2.862 1.472 12860
1.085 2.872 1.467 13071
1.089 2.883 1.461 10203
1.101 2.913 1.465 8372
1.110 2.937 1.465 7693
1.122 2.968 1.469 7895
1.128 2.985 1.466 10186
1.130 2.989 1.457 10719
1.128 2.986 1.444 8304
1.109 2.935 1.411 6809
1.144 3.027 1.441 7878
1.151 3.044 1.438 6634
1.149 3.041 1.425 5147
1.174 3.107 1.442 6933
1.152 3.048 1.407 5952
1.156 3.058 1.400 7185
1.160 3.069 1.394 8575
1.169 3.093 1.393 8520
1.194 3.159 1.409 7918
1.195 3.162 1.399 7306
1.230 3.256 1.426 5696
1.226 3.245 1.410 4329
1.254 3.318 1.428 7028
1.261 3.336 1.423 12055
1.262 3.339 1.412 13084
1.247 3.301 1.386 8770
1.299 3.437 1.426 5447
1.300 3.440 1.416 10541
1.304 3.451 1.408 9145
1.311 3.468 1.402 6454
1.312 3.472 1.392 5191
1.329 3.517 1.396 5798
1.336 3.534 1.391 7530
1.329 3.517 1.372 7478
1.330 3.520 1.361 6791
1.340 3.545 1.358 5662
1.349 3.569 1.354 5904
1.358 3.593 1.351 7983
1.381 3.653 1.359 8335
1.382 3.657 1.347 5587
1.442 3.815 1.388 3048
1.443 3.819 1.376 4170
1.444 3.822 1.364 4470
1.448 3.833 1.355 4342
1.452 3.843 1.345 4770
1.456 3.853 1.336 6123
1.457 3.857 1.324 4867
1.475 3.903 1.325 2804
1.527 4.041 1.354 3376
1.537 4.066 1.348 2971
1.538 4.069 1.336 4000
1.536 4.065 1.321 6899
1.535 4.061 1.306 6764
1.582 4.186 1.329 4470
1.580 4.182 1.314 4798
1.620 4.286 1.329 4345
1.632 4.317 1.324 6296
1.630 4.314 1.309 7585
1.629 4.310 1.294 6445
1.633 4.320 1.282 4402
1.658 4.388 1.286 3684
1.667 4.412 1.278 4719
1.707 4.516 1.290 5096
1.711 4.527 1.278 4011
1.717 4.544 1.268 4819
1.724 4.562 1.258 4818
1.763 4.666 1.268 5586
1.778 4.705 1.262 3413
1.782 4.715 1.250 3770
1.802 4.769 1.247 3803
1.809 4.786 1.236 5113
1.810 4.789 1.221 3865
1.822 4.821 1.213 3210
1.834 4.853 1.204 3511
1.871 4.950 1.210 3871
1.872 4.953 1.194 3512
1.917 5.072 1.204 2736
1.956 5.177 1.209 2409
2.026 5.362 1.231 2292
2.030 5.372 1.216 3374
2.031 5.375 1.199 2913
2.109 5.582 1.222 2418
2.069 5.475 1.184 2635
2.112 5.587 1.188 4330
2.113 5.590 1.171 6366
2.111 5.586 1.152 5695
2.170 5.742 1.162 4722
2.174 5.752 1.146 5749
2.172 5.747 1.127 5263
2.314 6.123 1.172 4379
2.318 6.133 1.155 4988
2.330 6.165 1.140 4709
2.334 6.175 1.123 4991
2.321 6.141 1.098 5547
2.330 6.166 1.082 4962
2.337 6.183 1.065 4189
2.343 6.200 1.048 3718
2.352 6.225 1.032 4154
2.575 6.814 1.096 3977
2.576 6.817 1.075 3770
2.463 6.518 1.013 2374
2.486 6.579 1.001 1942
2.693 7.126 1.050 2922
2.699 7.143 1.030 2998
2.709 7.167 1.011 2518
2.735 7.236 0.996 2761
2.735 7.238 0.974 2613
2.842 7.520 0.983 2350
2.999 7.935 1.005 2326
3.000 7.938 0.981 2059
3.001 7.940 0.956 2388
3.001 7.942 0.931 2402
3.236 8.564 0.967 2276
3.237 8.566 0.940 2747
3.188 8.435 0.902 3144
3.189 8.437 0.876 3723
3.242 8.580 0.861 2994
3.240 8.574 0.834 2529
3.247 8.591 0.809 2056
3.253 8.607 0.783 1609
1.025 2.713 0.331 1897
1.023 2.706 0.322 2309
1.020 2.699 0.313 2564
1.020 2.699 0.305 2386
1.020 2.700 0.297 1783
1.023 2.708 0.289 991
1.023 2.708 0.281 648
1.024 2.709 0.272 581
1.024 2.709 0.264 427
1.021 2.702 0.256 344
1.021 2.702 0.247 440
1.021 2.702 0.239 822
1.021 2.703 0.231 1108
1.021 2.703 0.222 1411
1.022 2.703 0.214 2057
1.022 2.703 0.206 2400
1.022 2.703 0.198 2731
1.022 2.704 0.189 3314
1.025 2.711 0.181 3576
1.022 2.704 0.173 3623
1.022 2.704 0.165 3499
1.022 2.704 0.156 3227
1.025 2.711 0.148 2730
1.022 2.704 0.140 2316
1.022 2.704 0.131 1829
0.837 2.215 0.126 1130
0.837 2.215 0.119 1840
0.837 2.215 0.113 2259
0.834 2.208 0.106 2495
0.834 2.208 0.099 2753
0.834 2.207 0.093 2434
0.834 2.207 0.086 1920
0.884 2.340 0.075 1604
0.884 2.340 0.068 1694
0.884 2.340 0.061 1785
0.884 2.340 0.054 1672
0.884 2.340 0.047 1559
0.881 2.332 0.040 1342
0.881 2.332 0.033 1140
0.881 2.331 0.026 942
0.881 2.331 0.019 744
0.719 1.902 0.036 879
0.719 1.901 0.030 1089
0.718 1.901 0.024 1287
0.716 1.893 0.019 1377
0.715 1.893 0.013 1482
0.718 1.900 0.007 1423
0.718 1.900 0.001 1361
0.718 1.899 -0.005 1156
0.718 1.899 -0.011 954
0.720 1.906 -0.017 753
0.893 2.363 -0.063 805
0.893 2.363 -0.070 859
0.893 2.362 -0.077 907
0.892 2.361 -0.084 956
0.895 2.368 -0.092 1002
0.895 2.367 -0.100 1054
0.894 2.367 -0.107 1054
0.894 2.366 -0.114 950
0.897 2.373 -0.122 851
0.894 2.365 -0.128 686
0.893 2.364 -0.136 526
0.829 2.194 -0.122 455
0.829 2.193 -0.129 563
0.829 2.192 -0.136 671
0.828 2.192 -0.142 929
0.701 1.845 1.514 3256
0.702 1.849 1.509 6513
0.706 1.858 1.508 6393
0.739 1.947 1.566 6779
0.741 1.951 1.560 8130
0.745 1.961 1.558 9972
0.746 1.965 1.552 11961
0.748 1.968 1.546 11814
0.749 1.972 1.540 11668
0.750 1.976 1.534 11668
0.757 1.992 1.537 9847
0.760 2.002 1.536 8942
0.762 2.006 1.530 7097
0.763 2.010 1.523 5251
0.762 2.007 1.513 4188
0.780 2.054 1.537 3795
0.784 2.064 1.535 5230
0.785 2.068 1.529 6694
0.789 2.078 1.527 5617
0.805 2.120 1.546 5947
0.806 2.123 1.540 5428
0.789 2.077 1.499 4829
0.821 2.162 1.548 4964
0.825 2.172 1.545 5115
0.829 2.183 1.543 5366
0.828 2.180 1.532 5228
0.817 2.152 1.505 5207
0.836 2.200 1.527 8452
0.839 2.210 1.524 12192
0.843 2.221 1.521 16066
0.845 2.224 1.515 20580
0.846 2.228 1.508 21306
0.848 2.232 1.501 20273
0.847 2.229 1.490 19496
0.850 2.239 1.487 19880
0.854 2.249 1.485 20583
0.856 2.253 1.478 16003
0.855 2.250 1.467 11464
0.856 2.254 1.460 8870
0.919 2.419 1.550 6463
0.918 2.416 1.538 7486
0.924 2.433 1.539 8368
0.930 2.450 1.539 9756
0.929 2.447 1.527 8825
0.931 2.451 1.520 8070
0.952 2.507 1.542 8506
0.956 2.517 1.538 12054
0.960 2.528 1.534 14252
0.959 2.525 1.523 14125
0.958 2.522 1.511 12578
0.957 2.519 1.500 10946
0.961 2.530 1.496 12380
0.967 2.547 1.495 13402
0.971 2.557 1.491 13244
0.975 2.567 1.487 11509
0.979 2.577 1.483 9851
0.980 2.581 1.475 9706
1.027 2.704 1.530 7395
1.026 2.701 1.518 9333
1.027 2.705 1.510 10927
1.034 2.722 1.508 11352
1.040 2.739 1.507 10709
1.044 2.750 1.502 10123
1.048 2.760 1.496 7874
1.050 2.764 1.488 6570
1.051 2.768 1.480 5479
1.063 2.798 1.484 4234
1.069 2.815 1.482 4190
1.076 2.832 1.480 4633
1.087 2.863 1.484 9111
1.086 2.860 1.472 12382
1.090 2.870 1.467 12326
1.094 2.881 1.461 9541
1.106 2.912 1.465 7839
1.115 2.936 1.465 7491
1.119 2.946 1.459 7334
1.133 2.984 1.466 9445
1.135 2.987 1.457 10083
1.128 2.970 1.438 8282
1.116 2.940 1.414 7389
1.149 3.025 1.441 7805
1.156 3.043 1.438 6641
1.173 3.087 1.446 4978
1.176 3.098 1.440 7116
1.173 3.088 1.424 6580
1.163 3.063 1.403 7924
1.165 3.067 1.394 8617
1.174 3.091 1.393 8186
1.194 3.143 1.403 7840
1.198 3.153 1.396 7999
1.233 3.247 1.423 6521
1.232 3.243 1.410 5182
1.262 3.323 1.430 7021
1.266 3.333 1.423 12099
1.267 3.337 1.412 13039
1.253 3.299 1.386 8739
1.307 3.441 1.429 5301
1.306 3.438 1.416 9305
1.307 3.441 1.405 8237
1.319 3.473 1.405 6663
1.318 3.469 1.392 5627
1.335 3.515 1.396 5567
1.341 3.532 1.391 6956
1.335 3.515 1.372 7667
1.336 3.518 1.361 6755
1.351 3.556 1.363 6218
1.357 3.574 1.357 7411
1.361 3.584 1.348 8389
1.389 3.658 1.361 7906
1.388 3.654 1.347 5930
1.394 3.672 1.341 2825
1.449 3.816 1.376 3799
1.448 3.813 1.362 4334
1.452 3.823 1.353 3838
1.456 3.834 1.343 3390
1.463 3.851 1.336 4862
1.466 3.861 1.326 4251
1.481 3.900 1.325 2646
1.531 4.032 1.352 3038
1.543 4.063 1.348 3177
1.544 4.067 1.336 4311
1.543 4.063 1.321 7143
1.541 4.059 1.306 7084
1.589 4.183 1.329 4689
1.587 4.180 1.314 5802
1.627 4.283 1.329 5244
1.639 4.315 1.324 6162
1.640 4.318 1.311 7485
1.638 4.314 1.295 6179
1.642 4.324 1.284 4770
1.660 4.371 1.282 4448
1.675 4.410 1.278 5194
1.679 4.420 1.266 5217
1.715 4.517 1.276 3495
1.736 4.570 1.275 4063
1.740 4.580 1.263 4881
1.774 4.670 1.270 6366
1.775 4.673 1.255 4639
1.787 4.705 1.248 3962
1.807 4.759 1.245 4344
1.814 4.776 1.234 4993
1.820 4.793 1.222 3395
1.874 4.934 1.239 2702
1.875 4.937 1.223 3021
1.882 4.954 1.211 3609
1.883 4.957 1.196 3468
1.925 5.069 1.204 3734
1.951 5.137 1.202 2917
2.035 5.358 1.231 2373
2.039 5.368 1.216 3828
2.040 5.371 1.199 3223
2.058 5.418 1.191 2244
2.078 5.472 1.184 2911
2.082 5.482 1.169 4406
2.122 5.587 1.171 6474
2.120 5.582 1.152 5687
2.168 5.709 1.157 3679
2.183 5.748 1.146 4071
2.181 5.744 1.127 3808
2.324 6.119 1.172 5285
2.328 6.129 1.155 5866
2.340 6.161 1.140 5287
2.344 6.171 1.123 5530
2.342 6.167 1.102 5771
2.346 6.177 1.084 5541
2.350 6.186 1.066 4911
2.356 6.204 1.049 4902
2.363 6.221 1.032 5203
2.363 6.223 1.013 4687
2.587 6.813 1.075 4433
2.588 6.815 1.054 2832
2.494 6.568 1.000 1861
2.705 7.121 1.050 2607
2.705 7.124 1.028 2463
2.824 7.435 1.044 2463
2.744 7.224 0.996 2530
2.834 7.462 1.000 2704
3.011 7.928 1.030 2398
3.012 7.930 1.005 2391
3.013 7.933 0.981 2059
3.014 7.935 0.956 2291
3.014 7.937 0.931 2366
3.206 8.440 0.955 2074
3.201 8.428 0.928 2373
3.204 8.437 0.902 2965
3.202 8.432 0.876 3419
3.256 8.574 0.861 2517
3.254 8.569 0.834 2159
3.291 8.667 0.815 1768
1.029 2.711 0.339 1544
1.030 2.711 0.331 1987
1.030 2.712 0.323 2486
1.027 2.705 0.314 2857
1.027 2.705 0.306 2825
1.025 2.698 0.297 2187
1.028 2.706 0.289 1124
1.033 2.721 0.282 706
1.028 2.707 0.272 643
1.028 2.707 0.264 508
1.031 2.715 0.256 421
1.026 2.700 0.247 560
1.026 2.701 0.239 1000
1.026 2.701 0.231 1277
1.026 2.701 0.222 1635
1.026 2.701 0.214 2374
1.026 2.702 0.206 2756
1.026 2.702 0.198 3109
1.026 2.702 0.189 3796
1.026 2.702 0.181 4129
1.026 2.702 0.173 4289
1.026 2.702 0.165 4388
1.026 2.702 0.156 4228
1.026 2.702 0.148 3776
1.026 2.702 0.140 3422
1.026 2.702 0.131 2865
1.026 2.702 0.123 1879
1.026 2.702 0.115 1352
1.026 2.702 0.107 893
0.841 2.214 0.106 794
0.841 2.214 0.099 1128
0.841 2.213 0.092 1422
0.841 2.213 0.086 1692
0.841 2.213 0.079 1853
0.838 2.206 0.072 1899
0.838 2.205 0.066 1731
0.888 2.338 0.054 1348
0.888 2.338 0.047 1356
0.885 2.330 0.040 1234
0.885 2.330 0.033 1129
0.885 2.330 0.026 968
0.722 1.901 0.041 912
0.725 1.908 0.035 1173
0.722 1.900 0.030 1502
0.722 1.900 0.024 1819
0.719 1.892 0.019 2060
0.719 1.892 0.013 2328
0.718 1.892 0.007 2369
0.721 1.899 0.001 2416
0.718 1.891 -0.004 2215
0.721 1.898 -0.011 1999
0.721 1.897 -0.016 1625
0.720 1.897 -0.022 1230
0.720 1.896 -0.028 910
0.899 2.368 -0.078 871
0.899 2.367 -0.085 875
0.899 2.367 -0.092 847
0.901 2.373 -0.100 825
0.901 2.373 -0.108 825
0.901 2.372 -0.115 744
0.901 2.371 -0.122 663
0.900 2.371 -0.129 597
0.833 2.193 -0.116 658
0.833 2.193 -0.122 658
0.830 2.185 -0.128 699
0.829 2.184 -0.135 755
0.751 1.977 -0.114 966
0.699 1.818 1.496 3157
0.700 1.822 1.490 6314
0.741 1.928 1.563 6270
0.747 1.944 1.566 7653
0.749 1.948 1.560 8929
0.750 1.952 1.554 10188
0.754 1.962 1.552 11526
0.755 1.965 1.546 11643
0.759 1.975 1.545 11877
0.761 1.979 1.539 11877
0.764 1.989 1.537 10710
0.768 1.999 1.536 10388
0.770 2.003 1.530 8143
0.769 2.001 1.519 5988
0.766 1.992 1.504 4848
0.767 1.996 1.498 3776
0.797 2.074 1.544 5064
0.801 2.084 1.542 6536
0.809 2.106 1.548 5780
0.813 2.116 1.546 6137
0.817 2.126 1.544 5608
0.823 2.143 1.546 5579
0.827 2.153 1.543 5830
0.831 2.163 1.541 5058
0.840 2.186 1.547 5128
0.839 2.183 1.536 4942
0.826 2.149 1.505 5432
0.844 2.197 1.527 8372
0.848 2.207 1.524 11957
0.852 2.217 1.521 15588
0.854 2.221 1.515 19241
0.855 2.225 1.508 19299
0.856 2.228 1.501 18293
0.855 2.226 1.490 17937
0.857 2.229 1.484 18662
0.861 2.240 1.481 20005
0.862 2.243 1.474 15669
0.863 2.247 1.467 11333
0.865 2.250 1.460 9149
0.864 2.248 1.449 6533
0.927 2.413 1.538 7336
0.934 2.430 1.539 8083
0.940 2.446 1.539 9268
0.944 2.457 1.535 8480
0.941 2.447 1.520 7856
0.962 2.503 1.542 9153
0.966 2.514 1.538 13321
0.970 2.524 1.534 15595
0.969 2.521 1.523 15461
0.968 2.518 1.511 13675
0.969 2.522 1.504 11842
0.973 2.532 1.500 13078
0.977 2.543 1.495 14118
0.981 2.553 1.491 14272
0.985 2.563 1.487 12491
0.986 2.567 1.479 10556
0.990 2.577 1.475 10811
1.002 2.607 1.481 7405
1.037 2.697 1.518 8922
1.038 2.701 1.510 10382
1.045 2.718 1.508 10116
1.051 2.735 1.507 9641
1.055 2.746 1.502 9869
1.057 2.749 1.493 8365
1.061 2.760 1.488 7140
1.062 2.763 1.480 6103
1.061 2.760 1.468 4791
1.062 2.764 1.459 5414
1.084 2.821 1.477 5330
1.093 2.845 1.478 8610
1.095 2.849 1.469 11742
1.099 2.859 1.464 11376
1.105 2.876 1.461 8320
1.117 2.907 1.465 6566
1.126 2.931 1.465 6945
1.128 2.935 1.456 7150
1.145 2.979 1.466 8049
1.146 2.983 1.457 8639
1.137 2.959 1.435 8180
1.131 2.942 1.417 8077
1.148 2.987 1.426 8047
1.170 3.045 1.441 6868
1.158 3.014 1.417 4948
1.189 3.093 1.440 6968
1.182 3.076 1.421 7657
1.176 3.059 1.403 8542
1.179 3.069 1.397 8393
1.186 3.086 1.393 7535
1.206 3.138 1.403 7798
1.213 3.155 1.399 8921
1.248 3.249 1.426 7935
1.245 3.238 1.410 6478
1.275 3.318 1.430 6596
1.279 3.328 1.423 11255
1.280 3.332 1.412 12077
1.266 3.294 1.386 8464
1.321 3.436 1.429 5418
1.319 3.433 1.416 7862
1.321 3.436 1.405 6908
1.335 3.475 1.408 6359
1.331 3.464 1.392 5582
1.349 3.510 1.396 5448
1.353 3.520 1.388 6480
1.349 3.509 1.372 7486
1.347 3.506 1.359 6520
1.370 3.565 1.368 7845
1.371 3.568 1.357 8859
1.375 3.579 1.348 8686
1.404 3.653 1.361 7728
1.405 3.656 1.350 6594
1.420 3.694 1.350 4005
1.462 3.804 1.374 3184
1.460 3.800 1.360 4290
1.462 3.803 1.348 3862
1.452 3.778 1.327 2643
1.480 3.852 1.338 4091
1.490 3.877 1.333 4168
1.494 3.887 1.323 2997
1.490 3.876 1.307 2856
1.556 4.050 1.346 3048
1.560 4.060 1.336 4237
1.559 4.057 1.321 6826
1.557 4.053 1.306 6692
1.605 4.177 1.329 4367
1.601 4.166 1.312 6328
1.641 4.269 1.327 6267
1.656 4.308 1.324 6861
1.657 4.311 1.311 7535
1.658 4.315 1.297 7009
1.659 4.318 1.284 7137
1.666 4.335 1.275 5342
1.684 4.381 1.272 5527
1.693 4.406 1.264 5222
1.736 4.517 1.278 3474
1.759 4.578 1.279 3857
1.791 4.660 1.284 5778
1.792 4.663 1.270 7534
1.796 4.673 1.257 6140
1.803 4.691 1.246 4388
1.826 4.751 1.245 4273
1.830 4.762 1.232 4230
1.842 4.793 1.224 2966
1.893 4.927 1.239 2627
1.892 4.922 1.222 2634
1.901 4.947 1.211 3059
1.944 5.059 1.219 3585
1.945 5.061 1.204 4363
1.969 5.122 1.200 3930
1.972 5.132 1.186 2731
2.060 5.360 1.216 3937
2.075 5.400 1.206 3283
2.079 5.410 1.191 2748
2.100 5.464 1.184 3193
2.104 5.474 1.169 4450
2.144 5.578 1.171 5939
2.145 5.581 1.153 5163
2.182 5.679 1.153 3760
2.304 5.995 1.191 2965
2.344 6.100 1.190 3375
2.348 6.110 1.172 5820
2.352 6.120 1.155 6372
2.361 6.145 1.139 5624
2.365 6.155 1.121 5847
2.369 6.165 1.103 6097
2.370 6.167 1.084 5958
2.377 6.184 1.067 5590
2.383 6.202 1.050 6229
2.387 6.211 1.032 6151
2.388 6.214 1.013 5198
2.614 6.802 1.075 5035
2.615 6.805 1.054 3394
2.616 6.807 1.033 2313
2.614 6.802 1.011 2298
2.725 7.091 1.026 2316
2.853 7.424 1.044 2334
2.857 7.434 1.022 2547
2.861 7.443 1.000 2866
2.861 7.446 0.977 2315
3.043 7.918 1.005 2288
3.038 7.906 0.979 1976
3.045 7.923 0.956 2057
3.046 7.925 0.931 2186
3.315 8.626 0.975 2252
3.316 8.629 0.948 2757
3.238 8.425 0.902 2663
3.236 8.419 0.876 2955
3.321 8.642 0.868 2234
3.325 8.652 0.842 2415
3.328 8.661 0.815 2308
3.340 8.692 0.791 1916
1.043 2.714 0.332 1819
1.041 2.708 0.323 2537
1.038 2.701 0.314 3042
1.038 2.701 0.306 2838
1.038 2.702 0.297 2010
1.038 2.702 0.289 959
1.047 2.725 0.282 581
1.042 2.710 0.273 525
