1.088 2.965 1.462 7663
1.092 2.976 1.456 9469
1.101 3.000 1.457 8803
1.104 3.010 1.450 7648
1.108 3.021 1.444 5714
1.115 3.038 1.441 6571
1.116 3.042 1.432 7187
1.117 3.045 1.422 6280
1.157 3.152 1.457 8577
1.158 3.156 1.448 8959
1.164 3.173 1.444 6946
1.150 3.135 1.417 6872
1.149 3.132 1.404 7387
1.201 3.274 1.451 5474
1.190 3.243 1.427 7990
1.191 3.246 1.417 8148
1.195 3.257 1.410 5684
1.217 3.316 1.422 7386
1.218 3.320 1.412 10705
1.219 3.323 1.402 10701
1.221 3.327 1.392 7130
1.263 3.442 1.424 7211
1.267 3.453 1.416 10040
1.271 3.463 1.408 7944
1.269 3.460 1.395 4936
1.281 3.491 1.394 3927
1.295 3.530 1.396 6207
1.299 3.540 1.388 6826
1.303 3.551 1.380 5846
1.307 3.561 1.371 5523
1.316 3.586 1.368 5329
1.327 3.617 1.367 4247
1.341 3.656 1.368 7846
1.340 3.652 1.354 7741
1.357 3.698 1.357 7181
1.363 3.716 1.350 6059
1.370 3.733 1.344 3562
1.407 3.836 1.364 3151
1.422 3.875 1.364 5169
1.420 3.871 1.350 7049
1.416 3.860 1.333 8232
1.415 3.856 1.319 6390
1.495 4.074 1.373 3201
1.493 4.070 1.359 2889
1.479 4.030 1.333 2256
1.532 4.177 1.363 3704
1.534 4.180 1.351 6588
1.538 4.191 1.340 5420
1.544 4.208 1.331 3093
1.574 4.291 1.340 4905
1.578 4.301 1.329 6932
1.584 4.319 1.320 7884
1.588 4.329 1.309 7554
1.592 4.339 1.297 8948
1.591 4.335 1.282 8108
1.584 4.317 1.263 5809
1.643 4.479 1.291 5768
1.652 4.504 1.283 5345
1.661 4.528 1.275 5379
1.665 4.539 1.263 6353
1.666 4.542 1.249 4961
1.710 4.661 1.263 4318
1.706 4.649 1.245 3796
1.699 4.631 1.226 3818
1.780 4.851 1.262 4778
1.762 4.803 1.236 6122
1.761 4.799 1.219 6141
1.765 4.809 1.206 4124
1.782 4.856 1.201 4607
1.791 4.881 1.191 3827
1.872 5.102 1.223 3803
1.876 5.112 1.208 5141
1.887 5.144 1.199 5132
1.894 5.162 1.186 5684
1.892 5.158 1.169 4632
1.893 5.160 1.153 3726
2.010 5.477 1.198 3473
2.005 5.466 1.178 3111
2.057 5.608 1.188 3801
2.109 5.750 1.196 4252
2.113 5.760 1.180 5973
2.114 5.763 1.162 5203
2.118 5.773 1.146 5763
2.119 5.775 1.128 8686
2.120 5.778 1.110 7009
2.124 5.788 1.094 3649
2.337 6.371 1.170 3153
2.258 6.153 1.116 3137
2.259 6.156 1.097 3410
2.260 6.159 1.078 2590
2.371 6.463 1.104 2513
2.378 6.480 1.086 2337
2.378 6.483 1.066 1723
2.523 6.876 1.101 2510
2.526 6.886 1.081 2279
2.411 6.571 1.017 2465
2.604 7.097 1.066 2553
2.627 7.159 1.051 2853
2.633 7.176 1.031 3448
2.639 7.193 1.011 3348
2.805 7.646 1.042 3022
2.806 7.649 1.018 2744
2.807 7.651 0.995 2660
2.811 7.661 0.972 2546
2.812 7.663 0.948 2364
2.810 7.658 0.924 1683
3.161 8.614 0.996 1331
3.153 8.595 0.967 2113
3.151 8.589 0.940 2667
3.158 8.606 0.914 3157
3.158 8.608 0.888 3638
3.159 8.610 0.861 3614
3.160 8.612 0.835 3648
3.161 8.614 0.808 2790
3.161 8.616 0.781 1465
3.165 8.625 0.755 857
3.171 8.642 0.730 716
3.217 8.769 0.711 631
3.215 8.764 0.684 526
0.683 1.845 1.510 3970
0.684 1.849 1.504 7940
0.685 1.852 1.498 6875
0.693 1.874 1.507 6090
0.695 1.878 1.501 6090
0.716 1.937 1.536 5665
0.718 1.940 1.530 7476
0.719 1.944 1.524 8398
0.723 1.954 1.523 9466
0.724 1.958 1.517 8688
0.728 1.968 1.515 7193
0.729 1.972 1.509 6288
0.761 2.056 1.560 6716
0.764 2.066 1.558 8000
0.766 2.070 1.552 8844
0.765 2.067 1.542 9782
0.766 2.071 1.535 9320
0.765 2.069 1.525 9015
0.769 2.079 1.523 7484
0.782 2.114 1.538 7876
0.781 2.111 1.527 7788
0.780 2.109 1.516 8006
0.782 2.113 1.510 7123
0.790 2.135 1.516 5312
0.803 2.171 1.530 6313
0.804 2.174 1.524 6940
0.804 2.172 1.513 7679
0.807 2.182 1.510 7946
0.820 2.218 1.524 8839
0.824 2.228 1.521 14099
0.826 2.232 1.515 21269
0.827 2.235 1.508 23439
0.828 2.239 1.501 20579
0.827 2.236 1.490 17968
0.831 2.246 1.487 16996
0.835 2.257 1.485 16816
0.836 2.260 1.478 13649
0.840 2.270 1.475 10694
0.841 2.274 1.468 7189
0.895 2.420 1.546 5624
0.897 2.424 1.538 6903
0.901 2.435 1.535 8687
0.907 2.451 1.535 10325
0.911 2.462 1.531 8357
0.915 2.472 1.527 6620
0.909 2.456 1.509 5347
0.939 2.539 1.546 7442
0.941 2.542 1.538 9611
0.942 2.546 1.530 9594
0.941 2.544 1.519 8358
0.940 2.541 1.507 7060
0.941 2.544 1.500 9056
0.945 2.555 1.495 10341
0.947 2.558 1.488 9316
0.950 2.569 1.483 6323
0.989 2.672 1.528 6566
0.992 2.683 1.524 7792
0.999 2.700 1.523 9165
1.003 2.710 1.518 9494
1.004 2.714 1.510 11356
1.010 2.731 1.508 12125
1.019 2.755 1.510 12157
1.023 2.765 1.505 10777
1.024 2.769 1.496 8224
1.016 2.746 1.475 6480
1.032 2.790 1.486 5468
1.044 2.821 1.491 4897
1.045 2.824 1.482 4217
1.034 2.794 1.457 5192
1.063 2.872 1.484 8191
1.062 2.869 1.472 11469
1.060 2.866 1.460 11593
1.059 2.863 1.448 8584
1.055 2.853 1.433 4852
1.090 2.945 1.465 5885
1.098 2.969 1.466 7727
1.102 2.980 1.460 9744
1.109 2.997 1.457 9658
1.113 3.007 1.450 8103
1.119 3.025 1.447 5888
1.123 3.035 1.441 7242
1.127 3.046 1.435 7265
1.125 3.042 1.422 6101
1.165 3.149 1.457 8206
1.166 3.153 1.448 8278
1.173 3.170 1.444 6346
1.159 3.132 1.417 6269
1.155 3.122 1.401 7249
1.174 3.174 1.412 5924
1.199 3.240 1.427 7557
1.202 3.250 1.420 7341
1.206 3.261 1.413 5178
1.226 3.313 1.422 7489
1.230 3.323 1.415 11170
1.228 3.320 1.402 11491
1.229 3.323 1.392 7656
1.275 3.446 1.426 7237
1.276 3.449 1.416 10656
1.280 3.460 1.408 8081
1.281 3.463 1.397 3992
1.295 3.502 1.400 3681
1.305 3.526 1.396 6350
1.308 3.537 1.388 7256
1.312 3.547 1.380 5762
1.316 3.558 1.371 5501
1.323 3.575 1.365 5405
1.337 3.614 1.367 4794
1.354 3.659 1.370 8543
1.358 3.670 1.361 7827
1.367 3.694 1.357 6147
1.373 3.712 1.350 5120
1.417 3.829 1.376 3560
1.418 3.832 1.364 3847
1.432 3.871 1.364 4929
1.433 3.874 1.352 6793
1.427 3.856 1.333 8321
1.428 3.860 1.322 6618
1.503 4.063 1.371 3121
1.504 4.066 1.359 3303
1.503 4.062 1.344 2449
1.544 4.173 1.363 3839
1.545 4.176 1.351 6315
1.552 4.194 1.342 5476
1.558 4.211 1.333 3497
1.580 4.272 1.336 4668
1.590 4.297 1.329 6115
1.596 4.314 1.320 8058
1.597 4.318 1.307 7505
1.601 4.328 1.295 7615
1.600 4.324 1.280 7442
1.595 4.313 1.263 5557
1.666 4.503 1.299 5206
1.673 4.521 1.289 5948
1.674 4.524 1.275 5800
1.677 4.534 1.263 6730
1.679 4.537 1.249 5601
1.725 4.663 1.265 4670
1.721 4.652 1.247 3793
1.711 4.626 1.226 3582
1.796 4.854 1.264 4642
1.775 4.799 1.236 6056
1.774 4.794 1.219 5789
1.778 4.805 1.206 4035
1.797 4.858 1.203 4872
1.804 4.876 1.191 3862
1.883 5.090 1.221 3267
1.887 5.100 1.207 4101
1.904 5.147 1.200 3645
1.908 5.157 1.186 4351
1.909 5.160 1.170 3519
2.026 5.476 1.216 3111
2.014 5.443 1.192 3107
2.020 5.460 1.178 3040
2.073 5.602 1.188 4013
2.125 5.744 1.196 3981
2.126 5.747 1.179 5879
2.130 5.757 1.162 5384
2.134 5.767 1.146 5948
2.135 5.770 1.128 8463
2.136 5.772 1.110 6814
2.139 5.782 1.094 3311
2.357 6.372 1.172 3191
2.277 6.155 1.117 3556
2.275 6.150 1.097 3490
2.273 6.145 1.076 2238
2.394 6.471 1.106 1972
2.398 6.481 1.087 2138
2.521 6.815 1.115 1855
2.533 6.847 1.098 2644
2.542 6.872 1.080 2239
2.431 6.572 1.018 2685
2.623 7.090 1.066 2544
2.646 7.152 1.051 2969
2.650 7.162 1.030 3480
2.659 7.186 1.011 3314
2.826 7.639 1.042 3141
2.827 7.641 1.018 2798
2.828 7.643 0.995 2615
2.831 7.653 0.972 2402
2.832 7.655 0.948 2255
2.830 7.650 0.924 1644
2.946 7.963 0.931 1321
3.177 8.586 0.967 2165
3.177 8.588 0.940 2749
3.181 8.598 0.914 3257
3.182 8.600 0.888 3871
3.182 8.602 0.861 3908
3.183 8.604 0.835 3871
3.184 8.606 0.808 3015
3.184 8.608 0.781 1670
3.188 8.617 0.755 1034
3.191 8.626 0.729 859
3.189 8.620 0.702 723
3.239 8.755 0.684 463
0.687 1.843 1.510 4105
0.689 1.847 1.504 8211
0.692 1.857 1.503 7179
0.694 1.860 1.497 6240
0.695 1.864 1.492 6240
0.724 1.941 1.540 5852
0.723 1.939 1.530 7452
0.726 1.948 1.529 8274
0.728 1.952 1.523 9334
0.732 1.962 1.521 8547
0.735 1.972 1.520 6735
0.734 1.970 1.509 5583
0.766 2.054 1.560 5026
0.769 2.064 1.558 5708
0.769 2.061 1.548 6619
0.770 2.065 1.542 7530
0.769 2.063 1.531 7569
0.771 2.067 1.525 7610
0.777 2.083 1.527 7174
0.787 2.112 1.538 8006
0.784 2.103 1.523 8132
0.783 2.101 1.512 8442
0.785 2.104 1.506 7197
0.788 2.114 1.503 4749
0.811 2.175 1.534 5563
0.812 2.179 1.528 5488
0.814 2.183 1.521 5413
0.820 2.199 1.523 7502
0.826 2.216 1.524 10392
0.830 2.226 1.521 15690
0.834 2.236 1.519 22416
0.835 2.240 1.512 24120
0.834 2.237 1.501 20884
0.833 2.234 1.490 18110
0.837 2.244 1.487 17468
0.841 2.254 1.485 17729
0.842 2.258 1.478 14075
0.843 2.262 1.471 10421
0.845 2.265 1.464 7672
0.902 2.418 1.546 6057
0.903 2.422 1.538 7466
0.907 2.432 1.535 9483
0.913 2.449 1.535 11311
0.915 2.453 1.527 9620
0.916 2.457 1.520 7928
0.915 2.454 1.509 7124
0.943 2.530 1.542 9050
0.947 2.540 1.538 11142
0.946 2.537 1.527 10933
0.945 2.535 1.515 9194
0.939 2.519 1.497 7896
0.948 2.542 1.500 9842
0.949 2.546 1.492 11304
0.953 2.556 1.488 10594
0.957 2.566 1.483 7747
0.968 2.597 1.490 6224
0.999 2.680 1.524 7260
1.008 2.704 1.526 9449
1.012 2.714 1.521 10334
1.013 2.718 1.513 12171
1.017 2.729 1.508 13054
1.024 2.746 1.507 12434
1.028 2.756 1.502 10924
1.032 2.767 1.496 8254
1.033 2.770 1.488 6479
1.039 2.787 1.486 5424
1.053 2.825 1.494 4897
1.055 2.828 1.485 4177
1.043 2.798 1.461 4971
1.065 2.856 1.478 8213
1.066 2.860 1.469 11703
1.068 2.863 1.460 11480
1.069 2.867 1.452 8212
1.091 2.925 1.468 5652
1.097 2.942 1.465 6663
1.109 2.973 1.469 7599
1.112 2.984 1.463 10053
1.116 2.994 1.457 10639
1.118 2.998 1.447 8591
1.124 3.015 1.444 5862
1.131 3.032 1.441 7812
1.134 3.043 1.435 7373
1.136 3.046 1.425 5794
1.168 3.132 1.451 7682
1.174 3.150 1.448 7101
1.140 3.057 1.397 6624
1.146 3.074 1.394 7101
1.155 3.098 1.393 7758
1.180 3.164 1.409 6524
1.217 3.264 1.438 7426
1.213 3.254 1.423 6666
1.215 3.258 1.413 4773
1.234 3.310 1.422 7698
1.238 3.320 1.415 11575
1.237 3.317 1.402 12222
1.235 3.313 1.389 8286
1.283 3.442 1.426 7038
1.285 3.446 1.416 10754
1.291 3.463 1.411 8102
1.295 3.474 1.402 4771
1.304 3.498 1.400 4578
1.313 3.523 1.396 6176
1.317 3.533 1.388 7202
1.316 3.530 1.375 5865
1.320 3.540 1.366 5557
1.324 3.550 1.358 5776
1.346 3.610 1.367 4799
1.363 3.656 1.370 8894
1.367 3.666 1.361 8035
1.374 3.684 1.355 4866
1.385 3.716 1.353 3560
1.424 3.818 1.374 4551
1.427 3.829 1.364 4539
1.442 3.867 1.364 4557
1.443 3.871 1.352 6182
1.436 3.853 1.333 7814
1.438 3.856 1.322 6382
1.434 3.845 1.305 2932
1.512 4.055 1.356 3399
1.513 4.058 1.344 2544
1.554 4.169 1.363 4007
1.556 4.172 1.351 6015
1.562 4.190 1.342 5583
1.574 4.222 1.337 4039
1.586 4.254 1.332 4493
1.601 4.293 1.329 4715
1.610 4.317 1.322 7418
1.608 4.314 1.307 7871
1.609 4.317 1.294 6983
1.611 4.320 1.280 6055
1.606 4.309 1.263 4289
1.683 4.513 1.302 5488
1.687 4.524 1.290 7071
1.688 4.527 1.276 6189
1.694 4.544 1.266 7002
1.690 4.533 1.249 6079
1.734 4.652 1.263 4963
1.733 4.648 1.247 4103
1.737 4.658 1.234 3660
1.808 4.849 1.264 4313
1.788 4.794 1.236 6183
1.786 4.790 1.219 5085
1.806 4.844 1.216 3729
1.812 4.861 1.204 5066
1.819 4.879 1.192 3873
1.842 4.940 1.190 2850
1.897 5.088 1.205 3210
1.931 5.178 1.208 2507
1.924 5.159 1.187 2821
1.922 5.155 1.170 2439
2.010 5.391 1.200 2766
2.025 5.430 1.191 2403
2.083 5.586 1.204 2782
2.087 5.597 1.188 4228
2.091 5.607 1.172 4905
2.141 5.741 1.179 5434
2.142 5.744 1.161 5238
2.145 5.754 1.144 5923
2.146 5.757 1.127 7732
2.147 5.760 1.109 6300
2.151 5.770 1.092 2982
2.248 6.029 1.116 3371
2.295 6.156 1.118 4378
2.291 6.144 1.097 3863
2.322 6.227 1.090 3536
2.317 6.215 1.069 3170
2.316 6.210 1.048 2906
2.325 6.235 1.032 3031
2.545 6.826 1.096 3279
2.549 6.836 1.076 2597
2.448 6.566 1.018 2991
2.454 6.583 1.000 2869
2.664 7.145 1.051 3041
2.668 7.155 1.030 3312
2.677 7.179 1.011 3030
2.843 7.624 1.041 3001
2.844 7.626 1.018 2585
2.965 7.953 1.031 2546
2.964 7.948 1.005 2452
2.852 7.648 0.948 2104
3.147 8.440 1.006 1764
3.153 8.457 0.982 1941
3.198 8.578 0.967 2163
3.199 8.580 0.940 2788
3.203 8.590 0.914 3286
3.203 8.592 0.888 3993
3.204 8.594 0.861 4039
3.205 8.596 0.835 3907
3.206 8.598 0.808 3102
3.209 8.607 0.782 1821
3.212 8.616 0.756 1155
3.213 8.618 0.729 950
3.211 8.612 0.702 804
3.211 8.613 0.675 497
0.692 1.848 1.514 4087
0.693 1.852 1.509 8174
0.695 1.856 1.503 7161
0.699 1.865 1.502 6278
0.700 1.869 1.496 6278
0.726 1.940 1.540 5854
0.726 1.938 1.530 7032
0.729 1.947 1.529 7805
0.733 1.957 1.527 8851
0.737 1.967 1.526 8173
0.740 1.977 1.524 6312
0.740 1.975 1.514 4899
0.769 2.053 1.560 4021
0.770 2.057 1.554 4318
0.769 2.054 1.543 5017
0.768 2.052 1.533 5915
0.770 2.056 1.527 6089
0.774 2.066 1.525 6310
0.780 2.082 1.527 6820
0.790 2.111 1.538 8070
0.787 2.102 1.523 8255
0.784 2.093 1.508 8466
0.785 2.097 1.502 7073
0.813 2.170 1.541 4663
0.814 2.174 1.534 5451
0.818 2.184 1.532 4958
0.822 2.194 1.529 4669
0.825 2.204 1.527 7785
0.829 2.214 1.524 11344
0.833 2.224 1.521 16416
0.837 2.235 1.519 22437
0.838 2.238 1.512 23719
0.837 2.236 1.501 20322
0.836 2.233 1.490 17603
0.840 2.243 1.487 17345
0.844 2.253 1.485 17921
0.845 2.257 1.478 14089
0.847 2.261 1.471 10257
0.845 2.258 1.460 7987
0.905 2.417 1.546 6274
0.906 2.421 1.538 7733
0.913 2.437 1.539 9771
0.917 2.448 1.535 11613
0.918 2.452 1.527 10264
0.919 2.455 1.520 8915
0.921 2.459 1.512 8312
0.947 2.528 1.542 10429
0.948 2.532 1.534 12544
0.950 2.536 1.527 12214
0.946 2.527 1.511 10360
0.943 2.517 1.497 9159
0.949 2.534 1.496 10754
0.953 2.544 1.492 12103
0.957 2.555 1.488 11695
0.961 2.565 1.483 9247
0.967 2.582 1.483 7267
0.971 2.592 1.478 6918
1.014 2.709 1.530 9064
1.016 2.713 1.521 10425
1.017 2.717 1.513 12254
1.021 2.727 1.508 13002
1.028 2.744 1.507 12213
1.032 2.755 1.502 10985
1.035 2.765 1.496 8425
1.037 2.769 1.488 6718
1.043 2.786 1.486 5366
1.057 2.823 1.494 4609
1.059 2.827 1.485 4133
1.052 2.810 1.467 4754
1.069 2.855 1.478 8139
1.070 2.858 1.469 11381
1.072 2.862 1.460 10764
1.076 2.872 1.455 7464
1.095 2.923 1.468 6150
1.101 2.941 1.465 7015
1.113 2.972 1.469 7389
1.119 2.989 1.466 10060
1.121 2.992 1.457 10875
1.122 2.996 1.447 8615
1.128 3.013 1.444 5663
1.135 3.031 1.441 7935
1.139 3.041 1.435 7105
1.171 3.127 1.461 5399
1.167 3.117 1.445 7347
1.140 3.045 1.404 6161
1.147 3.062 1.400 7378
1.150 3.072 1.394 8158
1.160 3.096 1.393 8128
1.182 3.155 1.406 6917
1.222 3.263 1.438 7394
1.218 3.252 1.423 6468
1.217 3.249 1.410 4762
1.241 3.315 1.425 7570
1.248 3.332 1.420 11541
1.241 3.315 1.402 12063
1.240 3.311 1.389 8376
1.288 3.441 1.426 6200
1.292 3.451 1.419 9988
1.296 3.462 1.411 8176
1.300 3.472 1.402 6294
1.307 3.489 1.397 5487
1.319 3.521 1.396 5854
1.322 3.531 1.388 6849
1.318 3.521 1.372 6418
1.320 3.524 1.361 6183
1.329 3.549 1.358 6263
1.335 3.566 1.352 5306
1.371 3.661 1.372 8345
1.372 3.664 1.361 7836
1.374 3.668 1.350 4180
1.399 3.735 1.360 2972
1.429 3.816 1.374 4877
1.430 3.819 1.362 4861
1.447 3.865 1.364 4246
1.449 3.869 1.352 5174
1.442 3.851 1.333 6687
1.443 3.854 1.322 5570
1.436 3.836 1.303 2746
1.515 4.046 1.354 3311
1.519 4.056 1.344 2710
1.560 4.167 1.363 4139
1.524 4.070 1.321 6136
1.523 4.066 1.306 6207
1.583 4.227 1.339 4275
1.589 4.244 1.330 4707
1.607 4.290 1.329 3881
1.616 4.315 1.322 6170
1.617 4.318 1.309 7910
1.613 4.307 1.292 6672
1.617 4.318 1.280 4175
1.650 4.407 1.290 3736
1.692 4.518 1.304 5436
1.693 4.521 1.290 7139
1.694 4.524 1.276 5578
1.704 4.549 1.268 6099
1.707 4.559 1.256 5957
1.733 4.628 1.258 4660
1.742 4.652 1.249 3924
1.757 4.691 1.243 5130
1.758 4.694 1.228 3965
1.794 4.792 1.236 5991
1.795 4.795 1.221 4137
1.816 4.848 1.217 3589
1.819 4.859 1.204 4991
1.826 4.876 1.192 3709
1.849 4.937 1.190 2927
1.902 5.078 1.204 3220
1.941 5.183 1.209 2522
1.931 5.157 1.187 2267
2.014 5.378 1.216 2605
2.015 5.381 1.199 3001
2.013 5.376 1.181 2092
2.050 5.474 1.183 2899
2.054 5.484 1.167 4313
2.096 5.597 1.171 5669
2.097 5.599 1.153 4973
2.150 5.741 1.161 4627
2.154 5.751 1.144 5293
2.155 5.754 1.127 6550
2.156 5.756 1.109 5380
2.327 6.213 1.167 3060
2.325 6.209 1.146 4043
2.315 6.182 1.123 5022
2.322 6.199 1.106 4871
2.331 6.224 1.090 4874
2.326 6.212 1.069 4533
2.327 6.214 1.049 4277
2.334 6.232 1.032 4414
2.555 6.822 1.096 3957
2.556 6.825 1.075 3374
2.457 6.562 1.018 3133
2.464 6.579 1.000 3049
2.671 7.134 1.050 3000
2.675 7.144 1.029 2997
2.858 7.632 1.067 2598
2.854 7.620 1.041 2569
2.794 7.460 0.999 2418
2.977 7.949 1.031 2784
2.975 7.944 1.005 2711
2.976 7.947 0.981 1994
3.159 8.436 1.006 2133
3.163 8.446 0.981 2434
3.166 8.455 0.955 2373
3.211 8.576 0.940 2594
3.215 8.585 0.914 3041
3.216 8.587 0.888 3742
3.216 8.589 0.861 3810
3.217 8.591 0.835 3652
3.218 8.593 0.808 2937
3.221 8.602 0.782 1804
3.225 8.611 0.756 1202
3.225 8.613 0.729 1003
3.226 8.615 0.702 844
3.224 8.609 0.675 504
0.698 1.846 1.514 3990
0.699 1.850 1.509 7980
0.703 1.860 1.508 7207
0.704 1.863 1.502 6481
0.740 1.958 1.564 6716
0.735 1.944 1.545 5910
0.731 1.935 1.530 6539
0.735 1.945 1.529 7251
0.741 1.961 1.532 8418
0.745 1.971 1.530 8028
0.749 1.981 1.528 6213
0.753 1.991 1.527 4480
0.773 2.044 1.556 3721
0.776 2.054 1.554 3701
0.773 2.046 1.539 4001
0.772 2.043 1.529 4756
0.774 2.047 1.522 4903
0.777 2.057 1.520 5102
0.793 2.098 1.540 6623
0.794 2.102 1.533 8158
0.791 2.093 1.518 8356
0.788 2.085 1.504 8680
0.792 2.095 1.502 7069
0.819 2.167 1.541 5420
0.823 2.178 1.539 5863
0.827 2.188 1.536 5102
0.831 2.198 1.534 4624
0.835 2.208 1.531 8174
0.836 2.212 1.524 12091
0.840 2.222 1.521 16871
0.844 2.232 1.519 21978
0.845 2.236 1.512 22696
0.844 2.233 1.501 19345
0.843 2.230 1.490 16800
0.847 2.241 1.487 17036
0.851 2.251 1.485 17918
0.852 2.254 1.478 14048
0.853 2.258 1.471 10178
0.852 2.255 1.460 8353
0.854 2.259 1.453 6515
0.914 2.418 1.538 7802
0.920 2.435 1.539 9699
0.924 2.445 1.535 11404
0.926 2.449 1.527 10378
0.927 2.453 1.520 9352
0.928 2.456 1.512 9011
0.952 2.519 1.538 11939
0.956 2.529 1.534 14135
0.955 2.527 1.523 13735
0.954 2.524 1.511 11989
0.953 2.521 1.500 10641
0.957 2.531 1.496 11835
0.961 2.541 1.492 12792
0.967 2.558 1.491 12807
0.971 2.569 1.487 10756
0.975 2.579 1.483 8638
0.979 2.589 1.478 8601
1.023 2.706 1.530 8199
1.024 2.710 1.521 10112
1.026 2.714 1.513 11951
1.030 2.724 1.508 12465
1.036 2.741 1.507 11619
1.040 2.751 1.502 10887
1.041 2.755 1.493 8770
1.045 2.766 1.488 7284
1.049 2.776 1.483 5504
1.061 2.807 1.487 4131
1.065 2.817 1.482 4204
1.061 2.807 1.467 4983
1.075 2.845 1.475 7983
1.079 2.855 1.469 10660
1.080 2.859 1.460 9669
1.084 2.869 1.455 6339
1.104 2.920 1.468 6128
1.110 2.937 1.465 7181
1.124 2.975 1.472 7081
1.128 2.985 1.466 9589
1.130 2.989 1.457 10513
1.126 2.979 1.441 8480
1.117 2.955 1.420 6888
1.144 3.027 1.441 8255
1.148 3.038 1.435 7308
1.175 3.110 1.455 5156
1.174 3.106 1.442 7524
1.168 3.089 1.424 6633
1.159 3.065 1.403 7698
1.160 3.069 1.394 7994
1.169 3.093 1.393 7750
1.189 3.145 1.403 7363
1.195 3.162 1.399 8035
1.228 3.249 1.423 6932
1.227 3.245 1.410 5393
1.257 3.325 1.430 7220
1.261 3.336 1.423 11222
1.259 3.332 1.410 11429
1.245 3.294 1.383 8359
1.299 3.437 1.426 5309
1.303 3.447 1.419 8741
1.304 3.451 1.408 7810
1.311 3.468 1.402 7418
1.315 3.478 1.394 6462
1.329 3.517 1.396 5339
1.336 3.534 1.391 6135
1.327 3.510 1.370 6776
1.330 3.520 1.361 6679
1.342 3.552 1.360 6642
1.349 3.569 1.354 6585
1.382 3.657 1.372 7696
1.383 3.660 1.361 7637
1.385 3.664 1.350 4608
1.426 3.773 1.374 2807
1.438 3.805 1.371 4682
1.442 3.815 1.362 4811
1.459 3.861 1.364 3919
1.466 3.878 1.357 3883
1.459 3.860 1.338 5188
1.455 3.850 1.322 4543
1.448 3.831 1.303 2512
1.525 4.034 1.352 3168
1.529 4.044 1.342 3017
1.573 4.162 1.363 4341
1.536 4.065 1.321 6549
1.535 4.061 1.306 6791
1.596 4.222 1.339 4173
1.581 4.182 1.314 5331
1.617 4.278 1.327 4680
1.632 4.317 1.324 5481
1.630 4.313 1.309 7418
1.629 4.309 1.294 6211
1.638 4.334 1.286 3907
1.653 4.373 1.282 4173
1.706 4.513 1.304 4822
1.707 4.516 1.290 6508
1.708 4.519 1.276 4726
1.726 4.566 1.273 5019
1.732 4.583 1.263 5779
1.736 4.593 1.250 4851
1.767 4.676 1.255 4894
1.771 4.686 1.243 7279
1.772 4.689 1.228 5525
1.809 4.786 1.236 5747
1.810 4.789 1.221 3502
1.830 4.843 1.217 3044
1.837 4.860 1.206 4345
1.871 4.950 1.210 3319
1.875 4.960 1.196 3099
1.917 5.072 1.204 3588
1.943 5.140 1.202 3266
1.944 5.143 1.186 2533
2.033 5.379 1.217 2960
2.029 5.367 1.198 3321
2.032 5.378 1.182 2166
2.069 5.475 1.184 3069
2.070 5.478 1.167 4554
2.113 5.590 1.171 6184
2.114 5.593 1.153 5273
2.165 5.727 1.160 3705
2.171 5.744 1.144 4138
2.172 5.747 1.127 4941
2.173 5.750 1.109 4206
2.346 6.206 1.167 4069
2.344 6.202 1.146 5019
2.339 6.190 1.125 6027
2.343 6.200 1.107 6237
2.350 6.217 1.090 6074
2.345 6.205 1.069 5831
2.349 6.215 1.050 5806
2.353 6.225 1.032 5911
2.354 6.227 1.013 5086
2.576 6.817 1.075 4159
2.477 6.555 1.018 3215
2.481 6.565 0.999 3087
2.690 7.118 1.049 2833
2.691 7.121 1.027 2602
2.812 7.440 1.044 2349
2.810 7.435 1.020 2534
2.819 7.459 1.000 2672
3.001 7.940 1.031 2889
2.999 7.935 1.005 2838
2.994 7.923 0.979 2081
3.185 8.426 1.006 2333
3.188 8.436 0.981 2663
3.192 8.446 0.955 2458
3.190 8.440 0.929 2369
3.194 8.450 0.903 2789
3.242 8.577 0.888 3317
3.243 8.579 0.861 3420
3.243 8.581 0.835 3260
3.244 8.583 0.808 2646
3.248 8.592 0.782 1663
3.254 8.609 0.756 1157
3.257 8.618 0.730 987
3.255 8.612 0.703 822
3.253 8.606 0.676 475
0.705 1.850 1.519 3834
0.707 1.854 1.513 7668
0.708 1.857 1.508 6968
0.742 1.946 1.566 6816
0.746 1.956 1.564 7293
0.747 1.960 1.558 6321
0.726 1.903 1.507 6018
0.750 1.967 1.546 6844
0.752 1.971 1.540 8339
0.753 1.975 1.534 8339
0.757 1.985 1.533 6337
0.763 2.001 1.536 4565
0.779 2.042 1.556 3931
0.785 2.058 1.558 3821
0.774 2.031 1.530 3470
0.774 2.029 1.520 4022
0.773 2.026 1.509 4398
0.774 2.030 1.503 4915
0.802 2.102 1.544 6439
0.796 2.087 1.525 8098
0.793 2.078 1.510 8265
0.792 2.076 1.499 8620
0.795 2.086 1.497 6968
0.826 2.165 1.541 6341
0.827 2.169 1.534 6631
0.836 2.192 1.540 5433
0.840 2.202 1.538 4794
0.841 2.206 1.531 8413
0.842 2.209 1.524 12391
0.846 2.219 1.521 16814
0.850 2.230 1.519 20783
0.852 2.233 1.512 20837
0.851 2.231 1.501 17737
0.850 2.228 1.490 15467
0.853 2.238 1.487 16396
0.855 2.242 1.481 17805
0.856 2.245 1.474 13961
0.858 2.249 1.467 10118
0.859 2.253 1.460 8509
0.858 2.250 1.449 6825
0.921 2.415 1.538 7496
0.927 2.432 1.539 9162
0.931 2.442 1.535 10669
0.933 2.446 1.527 9849
0.934 2.450 1.520 9028
0.953 2.499 1.539 9054
0.959 2.516 1.538 13152
0.963 2.526 1.534 15438
0.962 2.524 1.523 15116
0.961 2.521 1.511 13363
0.960 2.518 1.500 11826
0.967 2.535 1.500 12736
0.971 2.545 1.495 13606
0.975 2.556 1.491 13993
0.978 2.566 1.487 12068
0.980 2.569 1.479 9758
0.986 2.586 1.478 10161
0.998 2.617 1.484 7581
1.030 2.700 1.518 9601
1.031 2.704 1.510 11362
1.038 2.721 1.508 11459
1.044 2.738 1.507 10708
1.048 2.748 1.502 10689
1.049 2.752 1.493 9298
1.051 2.756 1.485 7881
1.055 2.766 1.480 5985
1.064 2.790 1.481 4076
1.068 2.800 1.476 4823
1.074 2.817 1.474 5545
1.081 2.835 1.471 7593
1.087 2.852 1.469 9441
1.089 2.855 1.460 8234
1.093 2.866 1.455 4834
1.115 2.924 1.471 5479
1.119 2.934 1.465 6977
1.120 2.938 1.456 6754
1.137 2.982 1.466 8497
1.136 2.979 1.454 9402
1.132 2.969 1.438 8384
1.126 2.952 1.420 8036
1.137 2.983 1.423 8196
1.149 3.014 1.426 6946
1.151 3.017 1.417 5065
1.181 3.096 1.440 7548
1.177 3.086 1.424 7847
1.168 3.062 1.403 8721
1.169 3.065 1.394 8403
1.175 3.083 1.390 7500
1.198 3.141 1.403 7595
1.204 3.158 1.399 9328
1.237 3.245 1.423 8111
1.236 3.242 1.410 6568
1.264 3.314 1.428 6513
1.271 3.332 1.423 10176
1.272 3.335 1.412 10385
1.255 3.290 1.383 7939
1.312 3.440 1.429 4547
1.313 3.443 1.419 6740
1.314 3.447 1.408 6860
1.318 3.457 1.400 8110
1.322 3.468 1.392 7367
1.340 3.513 1.396 4995
1.349 3.537 1.393 5784
1.334 3.499 1.367 7191
1.338 3.509 1.359 6653
1.361 3.569 1.368 7592
1.362 3.572 1.357 8148
1.366 3.582 1.348 7917
1.397 3.663 1.363 7376
1.398 3.667 1.352 5459
1.408 3.691 1.348 3936
1.447 3.793 1.369 4105
1.450 3.804 1.360 4677
1.457 3.821 1.353 3674
1.491 3.910 1.368 2893
1.476 3.870 1.342 4256
1.483 3.888 1.335 4153
1.495 3.919 1.332 3072
1.534 4.022 1.350 3215
1.538 4.033 1.340 3259
1.585 4.157 1.363 4407
1.548 4.061 1.321 6139
1.547 4.057 1.306 6402
1.594 4.181 1.329 3892
1.593 4.177 1.314 5751
1.630 4.274 1.327 6249
1.647 4.320 1.326 5578
1.646 4.316 1.311 6716
1.650 4.326 1.299 6389
1.651 4.329 1.286 5811
1.663 4.361 1.280 5026
1.667 4.371 1.269 4811
1.720 4.511 1.290 5838
1.721 4.514 1.276 3919
1.745 4.575 1.277 4348
1.748 4.585 1.265 5536
1.747 4.581 1.249 4861
1.781 4.671 1.255 6539
1.785 4.681 1.243 9325
1.786 4.684 1.228 7101
1.820 4.774 1.234 4869
1.827 4.791 1.222 2781
1.919 5.033 1.262 2824
1.851 4.855 1.206 3361
1.886 4.945 1.210 2952
1.931 5.064 1.219 3638
1.932 5.066 1.204 4170
1.955 5.127 1.200 3904
1.959 5.138 1.186 2742
2.046 5.366 1.216 3074
2.036 5.340 1.193 3558
2.046 5.364 1.181 2179
2.085 5.469 1.184 3243
2.087 5.472 1.167 4760
2.132 5.591 1.172 6106
2.130 5.587 1.153 5038
2.170 5.692 1.154 3305
2.191 5.745 1.146 2600
2.326 6.099 1.189 3211
2.363 6.196 1.186 3186
2.364 6.199 1.167 4746
2.362 6.195 1.146 5722
2.358 6.183 1.125 6920
2.361 6.193 1.107 7256
2.365 6.203 1.089 6769
2.366 6.205 1.070 6712
2.367 6.208 1.050 7142
2.371 6.218 1.032 7164
2.372 6.220 1.013 5969
2.597 6.809 1.075 4811
2.497 6.548 1.018 3191
2.500 6.557 0.999 2999
2.709 7.103 1.048 2632
2.707 7.098 1.026 2771
2.831 7.424 1.043 2330
2.832 7.426 1.020 2607
2.841 7.451 1.000 2805
3.022 7.924 1.030 2826
3.020 7.919 1.004 2789
3.015 7.906 0.978 2119
3.212 8.424 1.007 2245
3.213 8.426 0.981 2516
3.293 8.635 0.975 2341
3.294 8.637 0.948 2779
3.219 8.440 0.903 2548
3.217 8.435 0.876 2654
3.265 8.562 0.861 2840
3.300 8.653 0.841 2839
3.272 8.581 0.809 2219
3.273 8.583 0.782 1373
3.285 8.614 0.757 1015
3.288 8.623 0.731 906
3.286 8.617 0.704 735
3.281 8.604 0.676 409
0.711 1.848 1.519 3544
0.713 1.852 1.513 7089
0.746 1.940 1.572 6924
0.748 1.944 1.566 7264
0.752 1.954 1.564 7580
0.756 1.963 1.563 6720
0.773 2.010 1.588 6081
0.761 1.977 1.555 7434
0.765 1.987 1.554 8983
0.766 1.991 1.548 8983
0.770 2.001 1.546 6943
0.772 2.005 1.540 4953
0.785 2.039 1.556 4129
0.791 2.056 1.558 3949
0.793 2.060 1.552 3476
0.777 2.020 1.516 3528
0.779 2.024 1.509 4312
0.780 2.028 1.503 5095
0.810 2.106 1.548 6331
0.800 2.079 1.521 7797
0.799 2.076 1.510 7964
0.798 2.074 1.499 8384
0.828 2.152 1.543 7087
0.830 2.156 1.537 7073
0.834 2.166 1.534 7161
0.842 2.189 1.540 5555
0.851 2.212 1.546 4986
0.848 2.203 1.531 8215
0.849 2.207 1.524 12085
0.853 2.217 1.521 16139
0.855 2.221 1.515 19020
0.858 2.231 1.512 18492
0.857 2.228 1.501 15793
0.854 2.219 1.486 14180
0.858 2.229 1.484 15604
0.862 2.239 1.481 17579
0.863 2.243 1.474 13724
0.867 2.253 1.471 9892
0.866 2.250 1.460 8331
0.865 2.247 1.449 6692
0.928 2.412 1.538 6937
0.935 2.429 1.539 8386
0.941 2.446 1.539 9734
0.943 2.450 1.531 8890
0.947 2.460 1.527 8064
0.961 2.496 1.539 9123
0.967 2.513 1.538 13726
0.969 2.517 1.531 16133
0.970 2.521 1.523 15723
0.969 2.518 1.511 13933
0.970 2.522 1.504 12432
0.974 2.532 1.500 13016
0.981 2.549 1.499 13802
0.985 2.559 1.495 14468
0.986 2.563 1.487 12632
0.988 2.566 1.479 10265
0.997 2.590 1.482 11149
1.003 2.607 1.481 8735
1.035 2.690 1.514 8991
1.039 2.701 1.510 10525
1.043 2.711 1.505 10152
1.052 2.735 1.507 9651
1.056 2.745 1.502 10395
1.055 2.742 1.490 9847
1.057 2.746 1.481 8537
1.061 2.756 1.476 6781
1.062 2.760 1.468 5648
1.066 2.770 1.463 6938
1.073 2.787 1.461 6813
1.090 2.831 1.471 7125
1.094 2.842 1.466 8275
1.095 2.845 1.457 7018
1.094 2.842 1.445 3819
1.126 2.927 1.474 5133
1.125 2.924 1.462 7034
1.127 2.927 1.453 6955
1.146 2.979 1.466 7203
1.145 2.975 1.454 7977
1.139 2.959 1.435 7815
1.132 2.942 1.417 8583
1.144 2.972 1.420 8796
1.166 3.031 1.435 7400
1.160 3.014 1.417 5101
1.190 3.093 1.440 7109
1.184 3.075 1.421 8078
1.180 3.065 1.406 8392
1.181 3.069 1.397 7294
1.185 3.079 1.390 6110
1.207 3.138 1.403 7419
1.214 3.155 1.399 10067
1.247 3.241 1.423 9185
1.243 3.231 1.407 7720
1.274 3.311 1.428 5760
1.283 3.335 1.425 8574
1.279 3.324 1.410 8857
1.267 3.293 1.386 7124
1.322 3.436 1.429 3834
1.326 3.446 1.421 4960
1.333 3.464 1.416 5786
1.329 3.453 1.400 7735
1.333 3.464 1.392 7102
1.350 3.509 1.396 4624
1.362 3.540 1.396 5553
1.345 3.495 1.367 7140
1.379 3.582 1.386 6803
1.377 3.579 1.373 8583
1.376 3.575 1.359 8566
1.380 3.585 1.351 7861
1.411 3.666 1.366 7330
1.415 3.676 1.357 6222
1.419 3.687 1.348 4997
1.417 3.683 1.334 4362
1.459 3.792 1.357 4679
1.466 3.810 1.350 4251
1.465 3.806 1.336 2767
1.490 3.873 1.345 4031
1.500 3.897 1.339 4542
1.509 3.922 1.334 3586
1.511 3.925 1.322 3405
1.547 4.021 1.338 2980
1.598 4.152 1.363 4125
1.558 4.049 1.319 5661
1.559 4.052 1.306 5712
1.607 4.176 1.329 3729
1.606 4.172 1.314 5696
1.643 4.269 1.327 6639
1.658 4.308 1.324 6155
1.659 4.311 1.311 6755
1.663 4.321 1.299 6952
1.664 4.324 1.286 7366
1.671 4.342 1.276 5429
1.680 4.366 1.269 5445
1.737 4.513 1.292 4765
1.738 4.516 1.278 3559
1.764 4.584 1.281 4162
1.765 4.587 1.266 5405
1.797 4.669 1.272 5126
1.795 4.665 1.255 8142
1.796 4.668 1.241 10877
1.800 4.678 1.228 8220
1.829 4.754 1.231 4322
1.817 4.720 1.208 2762
1.929 5.012 1.258 2883
1.869 4.856 1.207 2575
1.901 4.939 1.210 2793
1.946 5.058 1.219 3830
1.947 5.061 1.204 4031
1.971 5.121 1.200 4321
1.975 5.132 1.186 3117
2.060 5.352 1.214 3084
2.052 5.333 1.193 3621
2.084 5.416 1.192 2588
2.102 5.463 1.184 3021
2.103 5.465 1.167 4224
2.149 5.585 1.172 5655
2.147 5.580 1.153 4690
2.182 5.670 1.152 3497
2.340 6.081 1.206 2273
2.344 6.091 1.189 3245
2.382 6.189 1.186 3369
2.380 6.185 1.166 4939
2.381 6.187 1.146 5872
2.379 6.183 1.126 7106
2.383 6.193 1.108 7491
2.384 6.195 1.089 6751
2.385 6.198 1.070 6840
2.386 6.201 1.050 7635
2.387 6.203 1.031 7609
2.388 6.205 1.012 6177
2.617 6.801 1.075 5146
2.615 6.796 1.053 3245
2.520 6.550 0.999 2699
2.727 7.087 1.048 2369
2.726 7.082 1.025 3119
2.854 7.415 1.043 2172
2.854 7.418 1.020 2537
2.861 7.435 0.999 2742
3.046 7.915 1.030 2611
3.044 7.910 1.004 2585
3.033 7.883 0.977 2109
3.020 7.848 0.948 2387
3.239 8.417 0.981 2129
3.316 8.618 0.974 2617
3.320 8.627 0.948 3142
3.321 8.629 0.921 2801
3.324 8.639 0.895 2583
3.325 8.641 0.868 2907
3.329 8.650 0.842 3151
3.330 8.652 0.815 2516
3.336 8.669 0.789 1512
3.314 8.611 0.758 936
3.317 8.620 0.732 898
3.315 8.615 0.704 708
3.313 8.609 0.677 370
0.749 1.930 1.583 3794
0.751 1.934 1.578 7589
0.752 1.938 1.572 7584
0.754 1.941 1.566 7593
0.758 1.951 1.564 7754
0.761 1.961 1.563 7239
0.779 2.008 1.588 7248
0.779 2.005 1.578 8741
0.775 1.997 1.563 10681
0.777 2.001 1.557 10681
0.778 2.005 1.551 8223
0.780 2.009 1.544 5765
0.781 2.013 1.538 4424
0.797 2.053 1.558 3906
0.801 2.063 1.556 4146
0.805 2.073 1.554 4491
0.806 2.077 1.548 5169
0.791 2.038 1.512 5986
0.805 2.072 1.527 6563
0.804 2.070 1.516 7520
0.803 2.067 1.506 7771
0.804 2.071 1.499 8092
0.832 2.144 1.539 8036
0.834 2.148 1.533 7768
0.838 2.158 1.530 7604
0.849 2.187 1.540 5502
0.855 2.203 1.542 5105
0.857 2.207 1.535 7873
0.856 2.204 1.524 11435
0.860 2.214 1.521 15172
0.861 2.218 1.515 17144
0.865 2.228 1.512 16074
0.864 2.226 1.501 13823
0.858 2.210 1.482 13167
0.862 2.220 1.480 14991
0.866 2.230 1.477 17433
0.870 2.240 1.474 13475
0.874 2.250 1.471 9621
0.873 2.247 1.460 8004
0.871 2.245 1.449 6272
0.935 2.410 1.538 6225
0.942 2.426 1.539 7446
0.948 2.443 1.539 8720
0.952 2.453 1.535 7771
0.959 2.470 1.535 7039
0.971 2.500 1.542 8840
0.975 2.510 1.538 13940
0.976 2.514 1.531 16612
0.977 2.518 1.523 15918
0.976 2.515 1.511 13955
0.978 2.519 1.504 12454
0.982 2.529 1.500 12939
0.988 2.546 1.499 13968
0.992 2.556 1.495 14896
0.994 2.560 1.487 12902
0.995 2.564 1.479 10419
1.007 2.594 1.485 12109
1.008 2.597 1.477 10065
1.043 2.687 1.514 9051
1.045 2.691 1.506 10120
1.051 2.708 1.505 9169
1.060 2.732 1.507 8792
1.065 2.742 1.502 10280
1.063 2.739 1.490 10601
1.065 2.743 1.481 9515
1.069 2.753 1.476 7913
1.070 2.757 1.468 7798
1.074 2.767 1.463 9914
1.078 2.777 1.457 9456
1.095 2.821 1.468 6771
1.097 2.825 1.459 7420
1.101 2.835 1.454 6643
1.102 2.839 1.445 3930
1.135 2.924 1.474 4835
1.131 2.914 1.459 7601
1.122 2.890 1.438 7820
1.123 2.894 1.429 6996
1.143 2.945 1.441 6719
1.142 2.942 1.429 7121
1.141 2.938 1.417 9196
1.153 2.969 1.420 9561
1.173 3.020 1.432 7955
1.169 3.010 1.417 5560
1.199 3.089 1.440 6251
1.190 3.065 1.418 7412
1.189 3.062 1.406 7643
1.190 3.065 1.397 6238
1.191 3.069 1.387 5033
1.217 3.134 1.403 7131
1.226 3.158 1.402 10727
1.254 3.231 1.420 10008
1.256 3.234 1.410 8919
1.254 3.231 1.397 6777
1.293 3.331 1.425 6874
1.286 3.314 1.407 7431
1.285 3.310 1.394 6588
1.297 3.341 1.395 4727
1.342 3.456 1.426 3947
1.343 3.460 1.416 4766
1.339 3.449 1.400 6278
1.343 3.460 1.392 5921
1.363 3.512 1.399 5075
1.373 3.536 1.396 5711
1.355 3.491 1.367 6729
1.386 3.571 1.384 7122
1.385 3.567 1.370 8931
1.386 3.571 1.359 8440
1.412 3.637 1.370 7781
1.419 3.655 1.363 7559
1.428 3.679 1.359 6560
1.430 3.683 1.348 5616
1.431 3.686 1.337 5014
1.471 3.788 1.357 4669
1.480 3.812 1.353 5149
1.481 3.816 1.341 4301
1.488 3.833 1.333 4694
1.520 3.914 1.346 4856
1.521 3.918 1.334 4064
1.522 3.921 1.322 3657
1.595 4.109 1.365 2584
1.607 4.140 1.361 3685
1.567 4.037 1.317 5389
1.568 4.040 1.304 5042
1.620 4.172 1.329 4413
1.618 4.168 1.314 5364
1.655 4.264 1.327 7106
1.665 4.288 1.320 7586
1.669 4.299 1.309 7762
1.673 4.309 1.297 7545
1.674 4.312 1.284 8313
1.681 4.330 1.275 6070
1.693 4.361 1.269 5695
1.697 4.372 1.257 4833
1.695 4.367 1.242 3510
1.778 4.579 1.281 4235
1.779 4.582 1.266 5514
1.811 4.664 1.272 5264
1.809 4.660 1.255 9359
1.810 4.663 1.241 11993
1.814 4.673 1.228 9136
1.815 4.676 1.214 5189
1.822 4.693 1.203 3019
1.938 4.992 1.255 3034
1.945 5.010 1.243 2729
1.918 4.940 1.211 2625
1.961 5.052 1.219 3588
1.965 5.062 1.205 3449
1.986 5.116 1.200 4546
1.990 5.126 1.186 3448
2.064 5.317 1.208 2907
2.096 5.400 1.208 3580
2.097 5.403 1.191 2746
2.118 5.456 1.184 2465
2.119 5.459 1.167 3525
2.166 5.578 1.172 4855
2.167 5.581 1.155 4305
2.196 5.657 1.150 3923
2.203 5.674 1.135 2599
2.359 6.077 1.188 3212
2.400 6.182 1.186 3135
2.398 6.178 1.166 4627
2.399 6.180 1.146 5457
2.398 6.176 1.126 6745
2.401 6.186 1.108 7052
2.402 6.188 1.089 6186
2.466 6.352 1.094 6801
2.404 6.193 1.050 7405
2.405 6.196 1.031 7410
2.406 6.198 1.012 5924
2.635 6.786 1.074 5259
2.635 6.789 1.053 3575
2.636 6.791 1.032 2494
2.637 6.794 1.011 2477
2.746 7.074 1.025 3431
2.747 7.077 1.003 2625
2.876 7.409 1.020 2310
2.883 7.426 0.999 2528
3.069 7.906 1.030 2229
3.064 7.893 1.004 2287
3.045 7.844 0.973 2214
3.043 7.839 0.948 2588
3.341 8.605 1.001 1950
3.342 8.608 0.974 2777
3.343 8.610 0.947 3361
3.346 8.619 0.921 3044
3.347 8.622 0.894 2679
3.351 8.631 0.868 2930
3.354 8.640 0.842 3357
3.358 8.649 0.815 2832
3.364 8.666 0.790 1893
3.371 8.682 0.764 1058
3.374 8.692 0.737 829
3.343 8.612 0.705 648
3.353 8.636 0.679 339
0.755 1.927 1.583 4185
0.757 1.931 1.578 8371
0.758 1.935 1.572 8161
0.762 1.945 1.570 7791
0.763 1.949 1.564 7817
0.767 1.959 1.563 7780
0.783 1.999 1.584 8823
0.785 2.003 1.578 10789
0.784 2.001 1.567 12986
0.785 2.005 1.561 12986
0.787 2.009 1.555 10034
0.786 2.006 1.544 7089
0.790 2.016 1.543 5275
0.803 2.051 1.558 3817
0.807 2.061 1.556 5221
0.809 2.065 1.550 6648
0.808 2.062 1.540 7384
0.809 2.066 1.533 8157
0.806 2.058 1.518 7829
0.807 2.061 1.512 7558
0.809 2.065 1.506 7680
0.835 2.131 1.542 8097
0.836 2.135 1.535 8903
0.838 2.139 1.529 8467
0.842 2.149 1.526 8065
0.841 2.146 1.515 6843
0.837 2.137 1.501 6177
0.863 2.204 1.535 7201
0.862 2.202 1.524 10222
0.864 2.205 1.517 13683
0.868 2.215 1.515 14860
0.869 2.219 1.508 13447
0.866 2.210 1.493 12130
0.862 2.201 1.478 12567
0.866 2.211 1.476 14695
0.873 2.228 1.477 17436
0.874 2.231 1.470 13164
0.880 2.248 1.471 9042
0.877 2.238 1.456 7461
0.878 2.242 1.449 5544
0.925 2.362 1.511 5607
0.952 2.430 1.542 6220
0.958 2.447 1.542 7515
0.965 2.463 1.542 6448
0.933 2.383 1.486 5996
0.978 2.497 1.542 8103
0.982 2.507 1.538 13573
0.984 2.511 1.531 16424
0.983 2.508 1.519 15463
0.984 2.512 1.511 13358
0.988 2.522 1.507 11963
0.992 2.533 1.503 12457
0.999 2.549 1.503 13901
1.000 2.553 1.495 14883
1.002 2.557 1.487 12899
1.013 2.587 1.493 11013
1.015 2.591 1.485 13066
1.016 2.594 1.477 11753
1.049 2.677 1.511 9688
1.053 2.688 1.506 10202
1.057 2.698 1.501 8402
1.071 2.735 1.510 7965
1.073 2.739 1.502 10123
1.072 2.736 1.490 11163
1.073 2.739 1.481 10088
1.077 2.750 1.476 9035
1.079 2.753 1.468 10317
1.083 2.764 1.463 13065
1.084 2.767 1.454 12509
1.088 2.778 1.449 7831
1.103 2.815 1.456 7150
1.104 2.818 1.448 7005
1.111 2.835 1.445 4315
1.136 2.900 1.465 4827
1.137 2.903 1.456 8267
1.131 2.887 1.438 9084
1.132 2.890 1.429 8432
1.144 2.921 1.432 7314
1.146 2.924 1.423 7524
1.150 2.935 1.417 9600
1.164 2.972 1.423 9768
1.179 3.010 1.429 8950
1.178 3.007 1.417 6632
1.211 3.092 1.442 5019
1.199 3.061 1.418 6225
1.198 3.058 1.406 6572
1.199 3.061 1.397 5110
1.241 3.168 1.430 4524
1.234 3.151 1.412 6973
1.238 3.161 1.405 10971
1.250 3.192 1.406 11124
1.265 3.230 1.410 10098
1.267 3.234 1.400 8930
1.271 3.244 1.393 6834
1.297 3.310 1.407 6350
1.301 3.320 1.400 6710
1.307 3.337 1.395 6501
1.314 3.355 1.390 4519
1.318 3.365 1.382 4026
1.341 3.424 1.392 4020
1.362 3.476 1.400 4953
1.371 3.501 1.396 6083
1.378 3.518 1.391 5883
1.388 3.542 1.387 5747
1.395 3.560 1.381 6500
1.396 3.563 1.370 7992
1.400 3.574 1.362 7703
1.407 3.591 1.355 7966
1.430 3.650 1.363 7063
1.440 3.675 1.359 5998
1.441 3.678 1.348 5626
1.439 3.674 1.334 5238
1.482 3.783 1.357 4607
1.492 3.808 1.353 6037
1.493 3.811 1.341 5476
1.500 3.829 1.333 5426
1.534 3.917 1.348 5353
1.536 3.920 1.336 4452
1.540 3.930 1.326 3926
1.546 3.948 1.318 2912
1.617 4.128 1.359 3379
1.574 4.018 1.313 5194
1.578 4.028 1.302 4515
1.635 4.174 1.331 5060
1.642 4.191 1.322 5192
1.671 4.266 1.329 8938
1.672 4.269 1.316 12272
1.679 4.286 1.307 10981
1.680 4.290 1.294 9935
1.687 4.307 1.284 9444
1.691 4.317 1.273 6724
1.704 4.349 1.267 5283
1.710 4.366 1.257 4447
1.748 4.463 1.267 3150
1.791 4.573 1.281 3940
1.793 4.576 1.266 4842
1.825 4.658 1.272 5309
1.823 4.654 1.255 10274
1.824 4.657 1.241 12350
1.828 4.668 1.228 9390
1.832 4.678 1.216 5769
1.887 4.818 1.232 3186
1.883 4.806 1.214 4127
1.949 4.975 1.236 2787
1.933 4.935 1.211 2847
1.977 5.046 1.219 2888
1.983 5.063 1.207 2926
2.002 5.110 1.200 4695
2.006 5.120 1.186 3570
2.069 5.282 1.202 3114
2.113 5.393 1.208 3567
2.105 5.374 1.187 2930
2.101 5.363 1.167 2058
2.187 5.583 1.192 2462
2.185 5.579 1.173 3813
2.187 5.582 1.156 4132
2.210 5.643 1.149 4388
2.220 5.667 1.135 3149
2.349 5.997 1.175 3475
2.359 6.022 1.160 3665
2.357 6.017 1.140 3936
2.418 6.173 1.146 4501
2.419 6.176 1.127 5758
2.420 6.178 1.108 5947
2.487 6.349 1.115 5222
2.482 6.337 1.093 7832
2.483 6.339 1.073 7993
2.424 6.189 1.031 6260
2.425 6.191 1.012 4965
2.655 6.778 1.074 5018
2.656 6.781 1.053 3752
2.657 6.783 1.032 2649
2.661 6.793 1.012 2487
2.768 7.066 1.025 3670
2.769 7.068 1.003 3128
2.773 7.078 0.981 2386
2.776 7.088 0.960 2771
2.780 7.097 0.939 2179
3.195 8.155 1.033 1962
3.196 8.158 1.008 2190
3.067 7.830 0.948 2581
2.970 7.582 0.899 2134
3.368 8.597 0.974 2753
3.369 8.600 0.947 3454
3.372 8.609 0.921 3204
3.373 8.611 0.894 2644
3.377 8.621 0.868 2732
3.383 8.637 0.842 3367
3.390 8.654 0.817 3056
3.394 8.663 0.790 2212
3.397 8.672 0.764 1238
3.401 8.681 0.737 929
3.398 8.675 0.710 704
3.382 8.633 0.680 406
0.758 1.926 1.583 4364
0.759 1.930 1.578 8728
0.761 1.934 1.572 8372
0.765 1.944 1.570 7812
0.766 1.948 1.564 7702
0.770 1.958 1.563 8042
0.786 1.998 1.584 10018
0.785 1.996 1.573 12295
0.787 2.000 1.567 14705
0.788 2.004 1.561 14705
0.790 2.007 1.555 11562
0.791 2.011 1.549 8419
0.793 2.015 1.543 6155
0.790 2.007 1.528 3998
0.808 2.053 1.552 6189
0.810 2.057 1.546 8548
0.811 2.061 1.540 9415
0.810 2.059 1.529 10372
0.809 2.056 1.518 9106
0.808 2.054 1.508 7928
0.810 2.058 1.502 7704
0.838 2.130 1.542 8493
0.840 2.134 1.535 9274
0.841 2.137 1.529 8746
0.843 2.141 1.522 8218
0.842 2.139 1.511 7998
0.841 2.136 1.501 8020
0.842 2.140 1.494 8389
0.866 2.200 1.524 8899
0.867 2.204 1.517 12101
0.869 2.208 1.511 12763
0.870 2.212 1.504 11509
0.867 2.202 1.489 11341
0.863 2.193 1.474 12328
0.867 2.203 1.472 14493
0.873 2.220 1.473 17281
0.875 2.223 1.466 13013
0.876 2.227 1.459 8745
0.878 2.231 1.452 6972
0.925 2.350 1.515 6011
0.926 2.354 1.508 6272
0.928 2.357 1.500 6234
0.965 2.452 1.546 6478
0.936 2.378 1.493 6273
0.937 2.381 1.486 6542
0.979 2.489 1.539 7245
0.983 2.499 1.535 12727
0.988 2.510 1.531 15492
0.986 2.507 1.519 14417
0.988 2.511 1.511 12146
0.992 2.521 1.507 10923
0.996 2.531 1.503 11534
1.003 2.548 1.503 13307
1.004 2.552 1.495 14267
1.008 2.562 1.491 12497
1.017 2.585 1.493 11201
1.019 2.589 1.485 13422
1.020 2.593 1.477 12891
1.053 2.676 1.511 10169
1.057 2.686 1.506 10330
1.061 2.696 1.501 8164
1.073 2.727 1.507 7514
1.074 2.731 1.498 10026
1.076 2.734 1.490 11622
1.077 2.738 1.481 10487
1.079 2.741 1.473 9817
1.083 2.752 1.468 12029
1.084 2.755 1.459 14626
1.086 2.759 1.451 13977
1.090 2.769 1.445 8779
1.107 2.813 1.456 6643
1.108 2.817 1.448 6957
1.120 2.847 1.452 5017
1.140 2.898 1.465 5221
1.139 2.895 1.453 8790
1.135 2.885 1.438 9825
1.137 2.889 1.429 9337
1.146 2.912 1.429 8347
1.150 2.923 1.423 7995
1.154 2.933 1.417 9465
1.174 2.984 1.429 9934
1.184 3.008 1.429 9596
1.182 3.005 1.417 7425
1.184 3.008 1.407 5055
1.201 3.053 1.415 4960
1.203 3.056 1.406 5621
1.207 3.067 1.399 4594
1.238 3.146 1.421 5006
1.239 3.149 1.412 6967
1.246 3.166 1.408 10606
1.255 3.190 1.406 11240
1.270 3.228 1.410 10521
1.274 3.239 1.403 10604
1.276 3.242 1.393 8082
1.302 3.308 1.407 5991
1.308 3.325 1.402 7190
1.312 3.335 1.395 7655
1.311 3.332 1.382 5449
1.323 3.363 1.382 4634
1.330 3.380 1.377 4094
1.370 3.481 1.402 4953
1.377 3.499 1.396 6837
1.386 3.523 1.393 6153
1.390 3.533 1.385 5446
1.392 3.537 1.374 6059
1.396 3.547 1.365 7011
1.405 3.571 1.362 6532
1.415 3.596 1.358 7498
1.438 3.655 1.366 6212
1.445 3.673 1.359 5134
1.444 3.669 1.346 5249
1.442 3.665 1.332 5194
1.493 3.795 1.362 4294
1.497 3.806 1.353 6121
1.499 3.809 1.341 5690
1.506 3.826 1.333 5514
1.540 3.914 1.348 5439
1.542 3.918 1.336 4760
1.548 3.935 1.328 4525
1.555 3.952 1.320 3773
1.621 4.119 1.357 3549
1.580 4.016 1.313 5050
1.640 4.168 1.344 4410
1.641 4.171 1.331 5227
1.648 4.189 1.322 5258
1.678 4.263 1.329 10687
1.679 4.266 1.316 16185
1.683 4.277 1.305 14254
1.684 4.280 1.292 13243
1.688 4.290 1.280 11876
1.695 4.308 1.271 7264
1.736 4.411 1.284 5978
1.731 4.400 1.266 4303
1.749 4.446 1.264 3635
1.787 4.542 1.273 3820
1.802 4.581 1.268 4013
1.832 4.656 1.272 5055
1.830 4.652 1.255 10131
1.831 4.655 1.241 11571
1.835 4.665 1.228 8562
1.839 4.675 1.216 5643
1.892 4.807 1.231 3417
1.890 4.803 1.214 4791
1.888 4.799 1.198 2913
1.938 4.924 1.210 2786
1.981 5.036 1.218 2083
1.997 5.075 1.210 3092
2.006 5.099 1.199 4734
2.013 5.117 1.186 3443
2.080 5.286 1.204 3186
2.124 5.397 1.209 3181
2.114 5.371 1.187 2717
2.109 5.360 1.167 2019
2.199 5.587 1.193 2161
2.194 5.576 1.173 2839
2.224 5.651 1.169 4057
2.222 5.646 1.150 4645
2.229 5.664 1.135 3506
2.361 6.001 1.176 3850
2.365 6.011 1.159 4266
2.369 6.021 1.141 4559
2.370 6.024 1.122 3872
2.429 6.172 1.127 4655
2.430 6.175 1.108 4754
2.494 6.338 1.114 4932
2.492 6.333 1.093 7999
2.493 6.336 1.073 8312
2.494 6.338 1.053 5340
2.435 6.187 1.012 3766
2.668 6.781 1.075 4586
2.666 6.777 1.053 3673
2.667 6.779 1.032 2625
2.775 7.052 1.046 2531
2.779 7.062 1.025 3753
2.780 7.064 1.003 3398
2.976 7.564 1.040 2880
2.977 7.567 1.017 3303
2.978 7.569 0.993 2836
2.976 7.564 0.969 2025
2.977 7.566 0.945 2375
2.981 7.576 0.922 3117
2.982 7.578 0.899 2935
2.983 7.580 0.875 2615
3.385 8.602 0.948 3303
3.386 8.604 0.921 3128
3.386 8.606 0.894 2402
3.390 8.616 0.868 2293
3.400 8.640 0.843 3132
3.406 8.656 0.817 3035
3.410 8.665 0.791 2283
3.410 8.667 0.764 1248
3.411 8.669 0.737 937
3.412 8.670 0.710 741
3.395 8.628 0.680 371
0.764 1.924 1.583 4543
0.765 1.928 1.578 9087
0.767 1.932 1.572 8568
0.771 1.942 1.570 7867
0.772 1.945 1.564 7667
0.786 1.980 1.581 8411
0.792 1.996 1.584 11351
0.791 1.993 1.573 13978
0.793 1.997 1.567 16656
0.794 2.001 1.561 16656
0.796 2.005 1.555 13423
0.798 2.009 1.549 10189
0.799 2.013 1.543 7481
0.796 2.004 1.528 4947
0.812 2.045 1.548 7604
0.813 2.049 1.542 10745
0.815 2.052 1.535 11889
0.816 2.056 1.529 13033
0.815 2.054 1.518 10895
0.814 2.051 1.508 8789
0.843 2.123 1.548 8025
0.845 2.127 1.542 8878
0.846 2.131 1.535 9528
0.845 2.129 1.524 8926
0.842 2.120 1.510 8427
0.848 2.136 1.511 9201
0.850 2.140 1.505 10184
0.851 2.144 1.498 10127
0.870 2.191 1.520 7825
0.874 2.201 1.517 10454
0.875 2.205 1.511 10995
0.872 2.196 1.496 10540
0.868 2.187 1.481 11455
0.867 2.184 1.470 12667
0.874 2.201 1.472 14616
0.878 2.211 1.469 17243
0.879 2.214 1.462 13038
0.881 2.218 1.455 8834
0.882 2.221 1.448 6528
0.932 2.347 1.515 6853
0.933 2.351 1.508 6830
0.935 2.355 1.500 6739
0.939 2.365 1.497 6815
0.943 2.375 1.493 6871
0.944 2.379 1.486 6907
0.984 2.480 1.535 6492
0.991 2.496 1.535 11525
0.995 2.507 1.531 14113
0.994 2.504 1.519 12993
0.996 2.508 1.511 10586
1.000 2.518 1.507 9430
1.006 2.535 1.507 10382
1.013 2.551 1.506 12474
1.014 2.555 1.498 13309
1.016 2.559 1.491 12030
1.025 2.582 1.493 11409
1.024 2.579 1.482 13807
1.028 2.590 1.477 14085
1.061 2.673 1.511 10801
1.063 2.676 1.503 10943
1.064 2.680 1.494 8847
1.079 2.717 1.503 6875
1.083 2.727 1.498 9238
1.082 2.724 1.486 11275
1.083 2.728 1.478 10940
1.087 2.738 1.473 11206
1.089 2.742 1.464 14190
1.093 2.752 1.459 16256
1.094 2.756 1.451 14995
1.095 2.759 1.442 9519
1.113 2.803 1.453 6484
1.120 2.820 1.451 7096
1.132 2.851 1.455 6054
1.147 2.888 1.462 5782
1.145 2.885 1.450 9084
1.144 2.882 1.438 10292
1.148 2.892 1.432 10099
1.155 2.909 1.429 9659
1.159 2.919 1.423 8778
1.174 2.957 1.429 9349
1.186 2.987 1.432 9981
1.190 2.998 1.426 10383
1.191 3.001 1.417 8856
1.190 2.998 1.404 6042
1.235 3.111 1.442 4426
1.231 3.100 1.426 5380
1.232 3.104 1.417 6554
1.234 3.107 1.407 6921
1.251 3.152 1.414 6770
1.258 3.169 1.410 9718
1.268 3.193 1.409 10809
1.280 3.224 1.410 10599
1.284 3.235 1.403 12250
1.288 3.245 1.396 9207
1.323 3.331 1.418 6528
1.321 3.328 1.405 7945
1.323 3.331 1.395 8646
1.321 3.328 1.382 6430
1.336 3.366 1.384 5603
1.340 3.376 1.377 5089
1.378 3.470 1.400 5325
1.385 3.487 1.394 7258
1.397 3.519 1.393 6532
1.401 3.529 1.385 5347
1.400 3.526 1.371 5251
1.404 3.536 1.363 5802
1.419 3.574 1.364 5828
1.423 3.584 1.355 7268
1.455 3.665 1.371 5288
1.459 3.675 1.362 3990
1.455 3.665 1.346 4348
1.453 3.661 1.332 4500
1.508 3.798 1.364 4290
1.509 3.801 1.353 5960
1.510 3.804 1.341 5364
1.554 3.913 1.363 5594
1.555 3.917 1.350 5388
1.556 3.920 1.338 5432
1.560 3.930 1.328 5671
1.567 3.948 1.320 4741
1.636 4.121 1.359 4015
1.592 4.011 1.313 4651
1.653 4.163 1.344 4486
1.657 4.173 1.333 4786
1.695 4.269 1.347 5175
1.690 4.258 1.329 11805
1.692 4.261 1.316 18786
1.696 4.272 1.305 16623
1.697 4.275 1.292 16180
1.698 4.278 1.278 14819
1.705 4.295 1.269 8066
1.752 4.413 1.286 6607
1.753 4.416 1.272 4967
1.760 4.433 1.262 3515
1.795 4.522 1.270 4336
1.816 4.575 1.268 3116
1.846 4.650 1.272 4604
1.844 4.646 1.255 9112
1.846 4.649 1.241 9933
1.850 4.659 1.228 7209
1.854 4.669 1.216 5024
1.903 4.794 1.229 3378
1.905 4.797 1.214 4756
1.903 4.793 1.198 2996
1.953 4.918 1.210 2735
1.971 4.965 1.204 1566
2.015 5.076 1.212 3453
2.019 5.086 1.197 4760
2.092 5.269 1.219 3701
2.099 5.287 1.205 3208
2.140 5.391 1.209 2732
2.130 5.365 1.187 2405
2.125 5.353 1.167 1853
2.135 5.378 1.155 2163
2.139 5.388 1.139 3053
2.241 5.644 1.169 4202
2.239 5.640 1.150 4734
2.249 5.664 1.137 3866
2.382 6.001 1.177 4185
2.384 6.004 1.159 4833
2.388 6.014 1.141 5215
2.397 6.038 1.126 4846
2.407 6.063 1.111 4961
2.405 6.058 1.091 4868
2.403 6.053 1.071 4749
2.511 6.325 1.093 7728
2.512 6.328 1.073 8045
2.513 6.331 1.053 5046
2.688 6.771 1.096 2969
2.689 6.773 1.075 4033
2.687 6.768 1.053 3476
2.688 6.771 1.032 2467
2.799 7.051 1.047 2525
2.800 7.053 1.025 3652
2.804 7.063 1.003 3474
2.999 7.555 1.040 3547
3.000 7.558 1.017 4160
3.001 7.560 0.993 3700
2.999 7.555 0.969 2689
3.000 7.557 0.945 2941
3.004 7.567 0.922 3921
3.005 7.569 0.899 3710
3.006 7.571 0.875 3267
3.411 8.592 0.948 3125
3.412 8.594 0.921 2983
3.413 8.596 0.894 2121
3.384 8.524 0.861 2181
3.432 8.644 0.844 2867
3.432 8.646 0.817 2892
3.436 8.655 0.791 2244
3.437 8.657 0.764 1180
3.434 8.651 0.736 828
3.435 8.652 0.709 650
3.526 8.882 0.697 337
0.771 1.921 1.583 4592
0.772 1.925 1.578 9184
0.774 1.929 1.572 8565
0.778 1.939 1.570 7816
0.779 1.943 1.564 7588
0.793 1.977 1.581 8750
0.799 1.993 1.584 12038
0.801 1.997 1.578 14856
0.800 1.994 1.567 17677
0.802 1.998 1.561 17677
0.803 2.002 1.555 14585
0.805 2.006 1.549 11493
0.806 2.010 1.543 8572
0.803 2.001 1.528 5888
0.819 2.042 1.548 8658
