-0.307 2.541 1.661 10854
-0.307 2.545 1.654 9863
-0.310 2.563 1.655 9307
-0.311 2.574 1.651 8251
-0.313 2.592 1.652 7887
-0.314 2.603 1.648 7300
-0.316 2.614 1.645 6801
-0.320 2.653 1.657 5709
-0.324 2.684 1.665 5952
-0.326 2.696 1.662 5884
-0.327 2.707 1.658 5400
-0.328 2.711 1.650 4135
-0.329 2.722 1.646 5744
-0.329 2.727 1.638 7376
-0.330 2.731 1.630 7715
-0.332 2.749 1.630 6563
-0.333 2.760 1.626 4476
-0.345 2.855 1.667 5528
-0.346 2.866 1.662 6309
-0.348 2.877 1.658 6213
-0.348 2.882 1.650 6136
-0.349 2.886 1.641 5226
-0.360 2.981 1.681 5343
-0.361 2.992 1.676 5020
-0.362 2.997 1.667 7125
-0.365 3.022 1.669 8294
-0.367 3.041 1.668 8968
-0.368 3.045 1.659 7819
-0.373 3.085 1.668 9739
-0.373 3.089 1.659 13238
-0.375 3.100 1.654 14308
-0.375 3.105 1.645 10871
-0.373 3.088 1.625 7269
-0.374 3.092 1.616 6838
-0.382 3.160 1.638 8969
-0.381 3.150 1.622 10308
-0.379 3.141 1.606 7501
-0.388 3.216 1.631 7125
-0.388 3.213 1.618 5581
-0.390 3.225 1.612 4278
-0.394 3.265 1.619 4048
-0.408 3.376 1.659 6494
-0.408 3.381 1.649 10666
-0.410 3.392 1.643 12433
-0.410 3.396 1.633 10508
-0.412 3.408 1.626 6727
-0.420 3.477 1.645 5293
-0.411 3.402 1.600 3741
-0.443 3.666 1.703 2446
-0.429 3.548 1.640 3302
-0.433 3.581 1.642 5279
-0.434 3.593 1.634 5567
-0.434 3.590 1.621 5232
-0.434 3.594 1.610 4653
-0.456 3.773 1.672 5287
-0.458 3.792 1.667 4699
-0.458 3.789 1.653 3246
-0.450 3.728 1.616 3456
-0.476 3.937 1.686 4587
-0.475 3.934 1.672 6439
-0.475 3.931 1.658 6148
-0.472 3.906 1.635 4675
-0.471 3.903 1.621 4249
-0.477 3.951 1.626 4120
-0.480 3.970 1.621 4256
-0.483 3.997 1.617 2548
-0.489 4.045 1.622 3303
-0.490 4.057 1.613 5562
-0.491 4.068 1.604 6129
-0.495 4.095 1.600 4096
-0.504 4.173 1.615 6433
-0.505 4.177 1.603 7203
-0.495 4.100 1.562 6753
-0.502 4.156 1.568 4345
-0.508 4.205 1.571 3409
-0.508 4.209 1.559 3116
-0.521 4.310 1.580 2947
-0.519 4.299 1.562 4895
-0.520 4.303 1.550 5373
-0.534 4.419 1.574 5524
-0.535 4.431 1.564 5393
-0.526 4.353 1.524 4710
-0.528 4.372 1.517 3809
-0.548 4.533 1.554 3689
-0.547 4.530 1.538 3674
-0.560 4.639 1.557 3899
-0.554 4.583 1.526 3635
-0.556 4.602 1.517 2809
-0.568 4.704 1.533 2608
-0.578 4.783 1.541 3290
-0.579 4.795 1.530 3079
-0.586 4.852 1.531 3574
-0.587 4.863 1.519 3001
-0.601 4.973 1.535 3511
-0.600 4.970 1.519 3195
-0.597 4.943 1.496 3081
-0.611 5.061 1.512 3644
-0.611 5.057 1.496 3692
-0.649 5.373 1.564 2717
-0.650 5.377 1.549 2873
-0.638 5.282 1.507 2509
-0.650 5.377 1.516 3902
-0.650 5.381 1.500 5074
-0.640 5.301 1.463 3716
-0.671 5.557 1.510 3640
-0.671 5.553 1.492 4463
-0.670 5.549 1.474 2972
-0.690 5.714 1.497 4016
-0.691 5.718 1.480 4243
-0.695 5.752 1.470 3624
-0.718 5.940 1.496 4738
-0.719 5.952 1.481 3178
-0.727 6.017 1.477 2204
-0.725 5.998 1.454 1971
-0.753 6.232 1.487 2839
-0.751 6.220 1.466 3380
-0.752 6.224 1.447 1849
-0.782 6.474 1.481 2932
-0.783 6.478 1.462 2732
-0.788 6.520 1.451 2437
-0.807 6.678 1.463 2070
-0.828 6.852 1.477 2506
-0.828 6.856 1.457 2558
-0.867 7.176 1.497 2323
-0.868 7.188 1.477 2201
-0.867 7.176 1.454 2371
-0.868 7.188 1.434 2547
-0.870 7.199 1.414 2528
-0.929 7.691 1.479 1352
-0.910 7.532 1.429 1908
-0.929 7.690 1.433 1820
-0.929 7.694 1.410 1969
-1.006 8.326 1.491 3031
-1.007 8.338 1.467 4050
-1.009 8.349 1.444 3196
-1.048 8.672 1.469 1515
-1.120 9.274 1.534 2061
-1.120 9.270 1.506 2999
-1.120 9.274 1.479 2594
-1.122 9.286 1.453 2208
-1.123 9.297 1.427 2440
-1.125 9.309 1.401 2460
-1.127 9.328 1.376 2158
-1.127 9.332 1.348 1705
-1.128 9.335 1.321 1042
-1.129 9.346 1.295 615
-1.128 9.342 1.266 571
-1.130 9.353 1.240 367
-0.263 2.235 1.713 3897
-0.264 2.239 1.706 7795
-0.264 2.244 1.700 7795
-0.265 2.255 1.698 7896
-0.266 2.259 1.691 8083
-0.267 2.264 1.685 7266
-0.268 2.275 1.683 6561
-0.268 2.279 1.676 6561
-0.270 2.290 1.674 7649
-0.271 2.301 1.672 8965
-0.272 2.312 1.670 11795
-0.273 2.316 1.663 14942
-0.274 2.327 1.661 12214
-0.275 2.338 1.659 9826
-0.276 2.343 1.652 7569
-0.276 2.347 1.645 5312
-0.277 2.351 1.639 4952
-0.280 2.376 1.645 5755
-0.282 2.393 1.646 7293
-0.283 2.404 1.644 6678
-0.284 2.415 1.641 6125
-0.284 2.413 1.630 4559
-0.300 2.551 1.707 5213
-0.299 2.542 1.691 5950
-0.299 2.540 1.680 7337
-0.299 2.537 1.668 9463
-0.299 2.542 1.661 11728
-0.300 2.546 1.654 10606
-0.301 2.557 1.650 9777
-0.303 2.575 1.651 7924
-0.305 2.593 1.652 6804
-0.307 2.604 1.648 6282
-0.308 2.615 1.645 5842
-0.313 2.661 1.661 4693
-0.315 2.679 1.661 6021
-0.317 2.697 1.662 6447
-0.319 2.708 1.658 5842
-0.319 2.712 1.650 4519
-0.320 2.717 1.642 6197
-0.321 2.728 1.638 7959
-0.322 2.732 1.630 7880
-0.324 2.750 1.630 6476
-0.327 2.775 1.633 4403
-0.336 2.856 1.667 4797
-0.338 2.874 1.666 5545
-0.339 2.878 1.658 5814
-0.340 2.890 1.653 6173
-0.350 2.971 1.686 5628
-0.351 2.982 1.681 5334
-0.352 2.993 1.676 4675
-0.354 3.005 1.671 6624
-0.356 3.023 1.669 7876
-0.358 3.042 1.668 8319
-0.359 3.046 1.659 7568
-0.363 3.086 1.668 9969
-0.364 3.090 1.659 14108
-0.365 3.102 1.654 14954
-0.366 3.106 1.645 11183
-0.364 3.089 1.625 7466
-0.365 3.100 1.620 7597
-0.370 3.140 1.628 10659
-0.370 3.144 1.619 12507
-0.370 3.142 1.606 9409
-0.379 3.217 1.631 6570
-0.379 3.221 1.622 5698
-0.380 3.226 1.612 4826
-0.381 3.237 1.606 3909
-0.398 3.377 1.659 6438
-0.398 3.382 1.649 10752
-0.399 3.393 1.643 12235
-0.400 3.398 1.633 9902
-0.401 3.409 1.626 5941
-0.409 3.478 1.645 5052
-0.402 3.410 1.603 3520
-0.422 3.588 1.669 2285
-0.408 3.462 1.602 3353
-0.421 3.575 1.639 4602
-0.424 3.601 1.637 5161
-0.424 3.598 1.624 5733
-0.423 3.595 1.610 4981
-0.443 3.760 1.666 5170
-0.443 3.764 1.655 4123
-0.444 3.768 1.644 3169
-0.440 3.736 1.619 3838
-0.463 3.931 1.684 4398
-0.463 3.935 1.672 6090
-0.461 3.918 1.652 6744
-0.460 3.907 1.635 6289
-0.460 3.904 1.621 5718
-0.464 3.945 1.624 4880
-0.467 3.964 1.618 4213
-0.460 3.910 1.584 2410
-0.476 4.047 1.622 3519
-0.478 4.058 1.613 5719
-0.478 4.062 1.601 5780
-0.480 4.074 1.592 3821
-0.491 4.175 1.615 6357
-0.492 4.179 1.603 7188
-0.483 4.101 1.562 7818
-0.482 4.091 1.545 4681
-0.494 4.199 1.569 3480
-0.497 4.218 1.562 3431
-0.498 4.229 1.552 3398
-0.505 4.286 1.557 5182
-0.506 4.297 1.547 5778
-0.510 4.331 1.545 5407
-0.521 4.425 1.561 6228
-0.522 4.437 1.551 6106
-0.523 4.441 1.538 4543
-0.525 4.460 1.530 4175
-0.526 4.464 1.517 3492
-0.546 4.641 1.557 3626
-0.541 4.592 1.528 3597
-0.542 4.604 1.517 3228
-0.554 4.706 1.533 2823
-0.554 4.702 1.517 3565
-0.566 4.804 1.532 2743
-0.571 4.854 1.531 4073
-0.573 4.865 1.519 3593
-0.586 4.975 1.535 3103
-0.582 4.941 1.510 2990
-0.581 4.938 1.494 3174
-0.597 5.070 1.515 3329
-0.596 5.059 1.496 3773
-0.632 5.367 1.562 2935
-0.632 5.371 1.547 3682
-0.631 5.360 1.527 2566
-0.623 5.295 1.494 2294
-0.625 5.307 1.480 3198
-0.637 5.410 1.490 3289
-0.634 5.383 1.467 4226
-0.654 5.555 1.492 5122
-0.654 5.551 1.474 3708
-0.672 5.708 1.495 4266
-0.673 5.720 1.480 3698
-0.677 5.754 1.470 3407
-0.689 5.850 1.475 4474
-0.689 5.854 1.458 3075
-0.710 6.034 1.480 2847
-0.722 6.130 1.483 2043
-0.734 6.234 1.487 2940
-0.733 6.223 1.466 3812
-0.733 6.226 1.447 2024
-0.762 6.469 1.479 2694
-0.762 6.473 1.460 2470
-0.786 6.677 1.482 2226
-0.792 6.727 1.472 2461
-0.786 6.677 1.442 1947
-0.808 6.866 1.458 2206
-0.844 7.171 1.495 2332
-0.846 7.183 1.476 2060
-0.844 7.171 1.452 2410
-0.846 7.190 1.434 2846
-0.848 7.202 1.414 2679
-0.905 7.686 1.478 1984
-0.887 7.534 1.429 2429
-0.905 7.685 1.431 2387
-0.906 7.697 1.410 2308
-0.981 8.329 1.491 3153
-0.982 8.341 1.467 4323
-0.983 8.352 1.444 3425
-1.040 8.830 1.493 1528
-1.092 9.277 1.534 2119
-1.092 9.274 1.506 3140
-1.092 9.278 1.479 2445
-1.094 9.289 1.453 2047
-1.097 9.316 1.429 2538
-1.098 9.328 1.403 2652
-1.099 9.339 1.377 2406
-1.100 9.343 1.349 1892
-1.099 9.338 1.321 1152
-1.101 9.350 1.295 672
-1.101 9.353 1.267 585
-1.101 9.356 1.240 388
-0.257 2.235 1.713 3317
-0.258 2.240 1.706 6634
-0.258 2.244 1.700 6634
-0.259 2.249 1.693 6892
-0.259 2.253 1.687 7150
-0.261 2.264 1.685 6214
-0.262 2.275 1.683 5537
-0.263 2.280 1.676 5537
-0.264 2.291 1.674 6819
-0.265 2.302 1.672 8215
-0.266 2.313 1.670 11108
-0.267 2.317 1.663 14280
-0.268 2.328 1.661 11782
-0.269 2.339 1.659 9597
-0.270 2.343 1.652 7254
-0.270 2.341 1.641 5044
-0.270 2.346 1.634 4700
-0.274 2.376 1.645 5647
-0.276 2.394 1.646 7149
-0.277 2.405 1.644 6474
-0.277 2.409 1.637 5848
-0.291 2.527 1.702 4518
-0.294 2.551 1.707 5165
-0.293 2.543 1.691 5846
-0.293 2.540 1.680 7209
-0.292 2.538 1.668 9578
-0.293 2.543 1.661 11980
-0.293 2.547 1.654 10803
-0.295 2.558 1.650 9865
-0.297 2.576 1.651 7412
-0.299 2.594 1.652 5745
-0.300 2.605 1.648 5240
-0.301 2.616 1.645 4816
-0.307 2.668 1.665 3973
-0.309 2.679 1.661 6108
-0.310 2.691 1.658 6927
-0.311 2.702 1.654 6152
-0.312 2.706 1.646 4819
-0.313 2.717 1.642 6375
-0.314 2.729 1.638 8129
-0.315 2.733 1.630 7734
-0.318 2.758 1.634 6221
-0.321 2.790 1.641 4745
-0.328 2.850 1.663 4119
-0.331 2.875 1.666 4719
-0.332 2.886 1.662 5277
-0.334 2.897 1.657 5975
-0.342 2.971 1.686 5707
-0.344 2.990 1.684 5057
-0.346 3.001 1.679 4205
-0.346 3.006 1.671 6036
-0.348 3.024 1.669 7211
-0.350 3.043 1.668 7405
-0.351 3.047 1.659 7187
-0.355 3.080 1.664 9950
-0.356 3.091 1.659 14414
-0.357 3.102 1.654 14963
-0.358 3.107 1.645 11045
-0.356 3.090 1.625 7333
-0.358 3.108 1.623 8038
-0.361 3.134 1.624 12003
-0.361 3.138 1.615 14001
-0.362 3.143 1.606 10566
-0.371 3.218 1.631 6317
-0.371 3.222 1.622 5844
-0.372 3.227 1.612 5194
-0.373 3.238 1.606 4108
-0.388 3.371 1.656 6282
-0.390 3.383 1.649 10472
-0.390 3.387 1.639 11871
-0.391 3.399 1.633 9174
-0.399 3.468 1.652 5233
-0.401 3.479 1.645 4589
-0.394 3.419 1.607 3354
-0.416 3.611 1.678 3020
-0.399 3.463 1.602 3648
-0.400 3.475 1.595 4124
-0.415 3.602 1.637 4736
-0.414 3.599 1.624 5947
-0.427 3.705 1.656 5524
-0.433 3.761 1.666 5308
-0.434 3.765 1.655 4196
-0.434 3.770 1.644 3348
-0.430 3.737 1.619 3778
-0.452 3.924 1.681 3908
-0.452 3.929 1.669 5533
-0.451 3.919 1.652 7204
-0.450 3.908 1.635 7365
-0.451 3.913 1.624 6616
-0.454 3.939 1.621 5600
-0.455 3.951 1.612 4277
-0.450 3.911 1.584 2901
-0.468 4.063 1.628 3670
-0.467 4.052 1.610 5587
-0.466 4.049 1.596 5797
-0.468 4.061 1.587 4132
-0.481 4.176 1.615 6146
-0.474 4.113 1.579 7428
-0.472 4.103 1.562 7981
-0.471 4.092 1.545 5045
-0.484 4.200 1.569 3437
-0.486 4.219 1.562 3362
-0.488 4.238 1.555 4070
-0.492 4.272 1.552 5668
-0.494 4.291 1.545 5937
-0.498 4.325 1.542 5242
-0.501 4.352 1.537 6361
-0.510 4.431 1.549 6988
-0.511 4.435 1.536 5552
-0.513 4.454 1.528 4681
-0.514 4.465 1.517 3591
-0.535 4.642 1.557 3041
-0.530 4.601 1.530 3354
-0.531 4.613 1.519 3352
-0.541 4.699 1.530 2774
-0.542 4.703 1.517 3704
-0.542 4.707 1.503 2852
-0.559 4.855 1.531 4241
-0.560 4.859 1.517 3828
-0.573 4.977 1.535 2557
-0.568 4.935 1.508 2871
-0.568 4.931 1.491 3169
-0.583 5.064 1.512 3122
-0.583 5.061 1.496 3690
-0.618 5.369 1.562 3141
-0.618 5.365 1.545 4239
-0.610 5.293 1.509 3506
-0.609 5.289 1.492 3155
-0.611 5.309 1.480 3453
-0.620 5.381 1.482 3242
-0.621 5.393 1.468 4676
-0.640 5.557 1.492 5127
-0.639 5.553 1.474 3954
-0.658 5.710 1.495 4379
-0.659 5.722 1.480 3353
-0.674 5.856 1.494 3451
-0.675 5.860 1.477 4525
-0.675 5.863 1.460 2987
-0.695 6.036 1.480 3554
-0.694 6.025 1.459 2184
-0.718 6.236 1.487 2856
-0.717 6.224 1.466 3817
-0.717 6.228 1.447 2022
-0.744 6.463 1.478 2421
-0.746 6.475 1.460 2203
-0.769 6.679 1.482 2220
-0.775 6.729 1.472 2802
-0.775 6.733 1.452 2191
-0.770 6.683 1.422 2205
-0.825 7.165 1.494 2185
-0.827 7.185 1.476 1865
-0.826 7.173 1.452 2300
-0.828 7.192 1.434 2846
-0.830 7.204 1.414 2593
-0.884 7.680 1.476 2338
-0.868 7.537 1.429 2789
-0.885 7.688 1.431 2760
-0.887 7.699 1.410 2442
-0.960 8.339 1.492 3106
-0.961 8.343 1.467 4308
-0.961 8.347 1.443 3435
-1.017 8.833 1.493 1581
-1.069 9.280 1.534 2015
-1.068 9.276 1.506 2978
-1.069 9.280 1.479 2088
-1.019 8.848 1.390 2100
-1.075 9.335 1.431 2585
-1.075 9.338 1.404 2776
-1.077 9.350 1.378 2552
-1.076 9.346 1.349 1900
-1.076 9.341 1.321 1143
-1.077 9.352 1.295 679
-1.077 9.356 1.267 577
-1.078 9.359 1.240 399
-0.249 2.223 1.703 2804
-0.249 2.228 1.697 5609
-0.250 2.232 1.691 5609
-0.251 2.243 1.689 5933
-0.252 2.248 1.682 6348
-0.253 2.259 1.680 5070
-0.256 2.283 1.687 4475
-0.256 2.287 1.681 4475
-0.257 2.292 1.674 5796
-0.258 2.303 1.672 7181
-0.259 2.313 1.670 10138
-0.260 2.324 1.668 13330
-0.261 2.329 1.661 11158
-0.265 2.366 1.676 9641
-0.265 2.371 1.670 7017
-0.271 2.421 1.693 4927
-0.272 2.426 1.686 4880
-0.266 2.377 1.645 5790
-0.268 2.395 1.646 7013
-0.269 2.399 1.640 6193
-0.280 2.503 1.696 5777
-0.283 2.528 1.702 4824
-0.286 2.552 1.707 5308
-0.285 2.543 1.691 5895
-0.284 2.535 1.676 7250
-0.284 2.539 1.668 9779
-0.285 2.543 1.661 12307
-0.285 2.548 1.654 11033
-0.287 2.559 1.650 9959
-0.288 2.570 1.647 6865
-0.291 2.595 1.652 4523
-0.292 2.606 1.648 3935
-0.293 2.617 1.645 3481
-0.299 2.669 1.665 3371
-0.300 2.680 1.661 6345
-0.300 2.678 1.650 7880
-0.302 2.696 1.650 6637
-0.302 2.700 1.642 5247
-0.304 2.712 1.638 6607
-0.306 2.730 1.638 8354
-0.306 2.734 1.630 7593
-0.310 2.766 1.638 6002
-0.313 2.791 1.641 5190
-0.315 2.809 1.641 4009
-0.322 2.876 1.666 3733
-0.323 2.887 1.662 4677
-0.325 2.898 1.657 5732
-0.333 2.972 1.686 5663
-0.335 2.991 1.684 4757
-0.328 2.933 1.643 4696
-0.330 2.944 1.638 5746
-0.331 2.955 1.633 7630
-0.331 2.960 1.625 8251
-0.332 2.964 1.616 7294
-0.345 3.081 1.664 10193
-0.345 3.085 1.655 14886
-0.348 3.104 1.654 14984
-0.349 3.115 1.648 10870
-0.347 3.098 1.629 7106
-0.351 3.131 1.633 8698
-0.351 3.135 1.624 13373
-0.352 3.139 1.615 15417
-0.352 3.144 1.606 11666
-0.361 3.226 1.634 6313
-0.361 3.224 1.622 5997
-0.361 3.228 1.612 5744
-0.367 3.275 1.623 5041
-0.378 3.372 1.656 6053
-0.378 3.377 1.646 10192
-0.379 3.388 1.639 11445
-0.381 3.400 1.633 8466
-0.389 3.476 1.655 4809
-0.400 3.574 1.686 3846
-0.403 3.600 1.685 3565
-0.405 3.619 1.681 3615
-0.389 3.472 1.605 3765
-0.389 3.476 1.595 4075
-0.405 3.618 1.643 4515
-0.405 3.615 1.630 6316
-0.415 3.707 1.656 6950
-0.421 3.762 1.666 5781
-0.422 3.767 1.655 4531
-0.423 3.778 1.647 3851
-0.420 3.746 1.622 3664
-0.437 3.904 1.672 3450
-0.439 3.916 1.663 5252
-0.438 3.913 1.649 7845
-0.438 3.910 1.635 8612
-0.438 3.914 1.624 7474
-0.442 3.948 1.624 6557
-0.441 3.937 1.607 4690
-0.439 3.920 1.587 3699
-0.456 4.071 1.630 3971
-0.453 4.046 1.608 5235
-0.454 4.050 1.596 6320
-0.454 4.055 1.584 5218
-0.468 4.177 1.615 5760
-0.461 4.115 1.579 7390
-0.460 4.104 1.562 7649
-0.458 4.093 1.545 5186
-0.471 4.202 1.569 3594
-0.474 4.228 1.564 3390
-0.476 4.247 1.557 5281
-0.476 4.251 1.545 6902
-0.479 4.278 1.540 5910
-0.486 4.342 1.547 4894
-0.488 4.353 1.537 6450
-0.496 4.432 1.549 7811
-0.497 4.436 1.536 6619
-0.499 4.455 1.528 5516
-0.500 4.467 1.517 3817
-0.501 4.471 1.504 2448
-0.515 4.603 1.530 2894
-0.517 4.614 1.519 3227
-0.525 4.686 1.526 2633
-0.527 4.705 1.517 3818
-0.527 4.709 1.503 3037
-0.543 4.849 1.529 4195
-0.544 4.861 1.517 3817
-0.558 4.978 1.535 2223
-0.552 4.929 1.506 2619
-0.552 4.926 1.489 3046
-0.555 4.952 1.481 3077
-0.556 4.964 1.469 3580
-0.601 5.371 1.562 3460
-0.601 5.367 1.545 4840
-0.593 5.295 1.509 4855
-0.593 5.291 1.492 4500
-0.594 5.303 1.478 4254
-0.601 5.368 1.478 4689
-0.605 5.402 1.470 5480
-0.623 5.559 1.492 4631
-0.621 5.547 1.472 3893
-0.640 5.712 1.495 4345
-0.641 5.724 1.480 2830
-0.656 5.858 1.494 3347
-0.656 5.862 1.477 4151
-0.676 6.034 1.498 3351
-0.676 6.038 1.480 4505
-0.678 6.050 1.464 2740
-0.699 6.238 1.487 2723
-0.697 6.227 1.466 3649
-0.697 6.223 1.446 2001
-0.721 6.435 1.471 2064
-0.724 6.469 1.459 1882
-0.750 6.697 1.485 2137
-0.754 6.731 1.472 3122
-0.753 6.728 1.451 2621
-0.750 6.693 1.424 2515
-0.803 7.168 1.494 2031
-0.811 7.241 1.486 1753
-0.813 7.261 1.468 2261
-0.806 7.195 1.434 2599
-0.807 7.206 1.414 2314
-0.860 7.683 1.476 2638
-0.843 7.532 1.427 3086
-0.861 7.691 1.431 3190
-0.841 7.508 1.378 2750
-0.934 8.342 1.492 2914
-0.935 8.346 1.467 4047
-0.935 8.350 1.443 3265
-0.990 8.844 1.494 1623
-1.041 9.291 1.535 1927
-1.038 9.272 1.505 2749
-0.991 8.848 1.416 1953
-0.991 8.851 1.390 2220
-1.046 9.338 1.431 2697
-1.047 9.349 1.405 2992
-1.048 9.361 1.379 2697
-1.048 9.357 1.350 1828
-1.046 9.345 1.321 1072
-1.049 9.364 1.296 653
-1.049 9.367 1.268 532
-1.048 9.362 1.240 391
-0.238 2.192 1.680 2772
-0.238 2.197 1.674 5544
-0.239 2.201 1.668 5544
-0.241 2.225 1.675 5465
-0.243 2.242 1.678 5793
-0.244 2.253 1.676 4236
-0.248 2.284 1.687 3644
-0.248 2.288 1.681 3644
-0.249 2.292 1.674 4727
-0.250 2.303 1.672 5883
-0.251 2.314 1.670 8663
-0.252 2.325 1.668 11734
-0.253 2.336 1.666 9928
-0.258 2.380 1.685 10144
-0.258 2.378 1.674 7444
-0.263 2.422 1.693 5234
-0.262 2.420 1.682 5206
-0.267 2.464 1.701 5933
-0.268 2.475 1.698 7327
-0.270 2.493 1.699 6338
-0.271 2.504 1.696 6169
-0.273 2.522 1.697 4928
-0.277 2.553 1.707 5249
-0.276 2.544 1.691 5788
-0.275 2.536 1.676 7105
-0.275 2.540 1.668 9571
-0.275 2.538 1.657 12113
-0.276 2.549 1.654 10688
-0.278 2.560 1.650 9499
-0.279 2.571 1.647 6207
-0.281 2.596 1.652 3549
-0.283 2.607 1.648 2814
-0.285 2.625 1.649 2375
-0.289 2.663 1.661 2994
-0.289 2.668 1.654 6489
-0.290 2.672 1.646 8497
-0.289 2.670 1.634 7023
-0.289 2.667 1.623 5986
-0.294 2.713 1.638 6616
-0.295 2.724 1.634 8237
-0.296 2.735 1.630 7220
-0.301 2.774 1.641 5858
-0.303 2.792 1.641 5502
-0.305 2.810 1.641 4514
-0.306 2.821 1.636 3527
-0.315 2.902 1.669 4121
-0.320 2.948 1.683 5507
-0.322 2.974 1.686 5359
-0.317 2.922 1.648 4887
-0.318 2.934 1.643 5446
-0.319 2.945 1.638 6786
-0.320 2.956 1.633 9013
-0.321 2.961 1.625 9483
-0.321 2.965 1.616 7910
-0.334 3.082 1.664 10095
-0.335 3.086 1.655 14637
-0.337 3.105 1.654 14380
-0.338 3.116 1.648 10470
-0.348 3.213 1.684 7181
-0.340 3.132 1.633 9069
-0.340 3.136 1.624 13800
-0.340 3.141 1.615 15674
-0.341 3.145 1.606 11847
-0.350 3.228 1.634 6525
-0.350 3.232 1.625 6194
-0.351 3.236 1.616 6301
-0.356 3.283 1.626 6150
-0.363 3.345 1.643 6398
-0.366 3.378 1.646 9639
-0.367 3.390 1.639 10786
-0.369 3.401 1.633 7763
-0.379 3.492 1.661 4380
-0.388 3.576 1.686 3820
-0.390 3.602 1.685 3504
-0.393 3.621 1.681 3723
-0.377 3.480 1.608 3799
-0.378 3.485 1.598 3725
-0.396 3.656 1.659 4844
-0.400 3.689 1.660 7429
-0.401 3.701 1.653 8096
-0.402 3.713 1.645 5986
-0.408 3.768 1.655 4676
-0.411 3.787 1.650 4275
-0.413 3.806 1.645 4326
-0.419 3.869 1.657 3924
-0.423 3.903 1.658 5115
-0.424 3.914 1.649 8156
-0.424 3.911 1.635 9231
-0.424 3.916 1.624 7714
-0.428 3.949 1.624 7116
-0.426 3.932 1.604 5068
-0.425 3.921 1.587 4266
-0.442 4.073 1.630 4083
-0.438 4.040 1.605 4559
-0.438 4.045 1.593 6260
-0.441 4.064 1.587 6023
-0.453 4.179 1.615 5306
-0.452 4.168 1.598 6837
-0.445 4.106 1.562 6676
-0.453 4.177 1.573 5310
-0.455 4.196 1.566 3717
-0.458 4.222 1.562 3620
-0.460 4.241 1.555 6381
-0.461 4.253 1.545 7824
-0.462 4.264 1.535 5986
-0.472 4.351 1.550 4592
-0.473 4.362 1.539 6160
-0.481 4.434 1.549 7721
-0.481 4.438 1.536 7028
-0.483 4.457 1.528 6363
-0.484 4.468 1.517 4193
-0.485 4.472 1.504 2445
-0.499 4.604 1.530 2462
-0.500 4.608 1.517 2911
-0.507 4.680 1.524 2471
-0.509 4.699 1.515 3757
-0.511 4.711 1.503 3164
-0.526 4.851 1.529 3768
-0.526 4.855 1.515 3381
-0.539 4.973 1.533 2184
-0.535 4.931 1.506 2566
-0.534 4.928 1.489 2753
-0.538 4.962 1.483 3178
-0.538 4.966 1.469 3887
-0.554 5.114 1.493 3404
-0.581 5.362 1.543 4688
-0.574 5.297 1.509 5606
-0.574 5.293 1.492 5479
-0.575 5.305 1.478 5068
-0.582 5.370 1.478 6070
-0.586 5.404 1.470 5666
-0.585 5.400 1.453 4109
-0.620 5.718 1.513 3543
-0.620 5.722 1.497 3975
-0.621 5.726 1.480 2315
-0.624 5.753 1.469 3055
-0.636 5.864 1.477 3416
-0.654 6.037 1.498 3947
-0.655 6.041 1.480 5177
-0.656 6.052 1.464 3250
-0.676 6.233 1.485 2442
-0.675 6.229 1.466 3245
-0.674 6.218 1.444 1985
-0.698 6.437 1.471 1813
-0.702 6.472 1.459 1539
-0.728 6.715 1.488 1987
-0.731 6.742 1.473 3228
-0.730 6.730 1.451 2785
-0.726 6.695 1.424 2633
-0.775 7.148 1.490 1977
-0.784 7.229 1.483 1757
-0.787 7.264 1.468 2138
-0.780 7.198 1.434 2074
-0.782 7.217 1.416 1848
-0.832 7.678 1.475 2780
-0.817 7.535 1.427 3086
-0.833 7.686 1.430 3401
-0.814 7.511 1.378 3263
-0.815 7.514 1.356 3045
-0.905 8.350 1.467 3534
-0.906 8.353 1.443 2896
-0.959 8.847 1.494 1578
-1.008 9.295 1.535 1705
-1.005 9.268 1.504 2356
-0.960 8.851 1.416 1887
-0.960 8.855 1.390 2167
-1.014 9.349 1.432 2555
-1.014 9.353 1.405 2930
-1.015 9.365 1.379 2636
-1.016 9.368 1.351 1662
-1.013 9.348 1.321 894
-1.016 9.375 1.297 607
-1.017 9.378 1.269 471
-1.015 9.366 1.240 310
-0.230 2.193 1.680 3106
-0.230 2.198 1.674 6213
-0.231 2.202 1.668 6213
-0.232 2.219 1.671 5838
-0.233 2.230 1.669 5980
-0.235 2.241 1.667 4095
-0.239 2.284 1.687 3386
-0.240 2.289 1.681 3386
-0.241 2.300 1.679 3648
-0.241 2.304 1.672 3990
-0.243 2.322 1.674 6597
-0.245 2.339 1.677 9650
-0.249 2.377 1.692 9915
-0.250 2.388 1.689 11544
-0.250 2.386 1.678 8888
-0.249 2.383 1.667 6439
-0.250 2.388 1.660 6433
-0.258 2.465 1.701 6230
-0.259 2.476 1.698 7865
-0.261 2.494 1.699 6857
-0.262 2.505 1.696 6592
-0.264 2.523 1.697 5061
-0.267 2.554 1.707 5195
-0.267 2.552 1.695 5757
-0.266 2.537 1.676 7001
-0.265 2.534 1.664 9276
-0.266 2.539 1.657 11586
-0.267 2.550 1.654 9900
-0.268 2.561 1.650 8535
-0.269 2.572 1.647 5508
-0.271 2.590 1.648 2919
-0.271 2.588 1.636 2266
-0.286 2.735 1.713 1869
-0.278 2.658 1.657 2890
-0.279 2.662 1.650 6854
-0.279 2.666 1.642 9062
-0.280 2.671 1.634 7811
-0.279 2.668 1.623 6772
-0.283 2.707 1.634 6632
-0.285 2.725 1.634 8007
-0.286 2.736 1.630 6692
-0.291 2.782 1.645 5708
-0.292 2.793 1.641 5714
-0.295 2.818 1.644 5089
-0.296 2.829 1.640 4573
-0.306 2.924 1.680 3805
-0.308 2.942 1.679 5190
-0.311 2.975 1.686 4834
-0.307 2.930 1.651 5275
-0.307 2.935 1.643 6568
-0.308 2.946 1.638 8358
-0.310 2.958 1.633 11032
-0.310 2.962 1.625 11350
-0.310 2.966 1.616 8938
-0.323 3.083 1.664 9680
-0.323 3.087 1.655 13839
-0.325 3.106 1.654 13183
-0.326 3.117 1.648 9749
-0.336 3.214 1.684 7065
-0.328 3.133 1.633 9047
-0.328 3.138 1.624 13424
-0.329 3.142 1.615 14989
-0.329 3.146 1.606 11365
-0.339 3.236 1.638 6686
-0.340 3.247 1.632 6724
-0.341 3.259 1.625 7868
-0.343 3.278 1.623 7732
-0.350 3.339 1.639 7169
-0.353 3.372 1.643 9265
-0.355 3.391 1.639 10297
-0.355 3.395 1.630 7251
-0.367 3.508 1.668 4178
-0.354 3.382 1.601 3980
-0.364 3.480 1.632 3975
-0.367 3.506 1.631 4896
-0.368 3.511 1.621 4409
-0.378 3.609 1.651 3588
-0.383 3.657 1.659 6541
-0.385 3.676 1.654 8862
-0.388 3.702 1.653 9264
-0.388 3.707 1.642 7114
-0.387 3.697 1.625 5435
-0.387 3.701 1.615 4920
-0.398 3.800 1.642 5352
-0.405 3.870 1.657 4315
-0.406 3.882 1.649 5812
-0.409 3.908 1.646 8544
-0.409 3.906 1.632 9700
-0.410 3.917 1.624 7514
-0.414 3.951 1.624 7269
-0.410 3.918 1.598 5809
-0.411 3.923 1.587 4790
-0.415 3.964 1.589 4443
-0.427 4.079 1.619 3824
-0.424 4.054 1.596 5654
-0.426 4.073 1.590 6715
-0.428 4.092 1.583 5372
-0.437 4.177 1.600 6471
-0.437 4.174 1.585 6658
-0.437 4.171 1.571 6386
-0.437 4.175 1.559 4491
-0.441 4.216 1.559 4558
-0.444 4.243 1.555 7821
-0.445 4.247 1.542 8557
-0.446 4.259 1.532 5947
-0.456 4.360 1.552 4436
-0.458 4.372 1.542 5334
-0.464 4.428 1.546 6532
-0.466 4.455 1.540 7030
-0.468 4.466 1.530 7284
-0.468 4.470 1.517 4877
-0.468 4.474 1.504 2818
-0.481 4.599 1.528 2926
-0.483 4.610 1.517 2848
-0.489 4.675 1.521 2625
-0.491 4.694 1.512 3731
-0.495 4.728 1.508 3357
-0.507 4.845 1.527 3220
-0.508 4.849 1.513 2593
-0.519 4.959 1.529 2798
-0.516 4.933 1.506 2974
-0.523 4.998 1.508 2584
-0.520 4.971 1.485 3390
-0.520 4.968 1.469 3933
-0.536 5.116 1.493 3127
-0.553 5.280 1.521 4476
-0.554 5.291 1.507 5706
-0.555 5.303 1.494 6051
-0.562 5.368 1.494 6593
-0.562 5.372 1.478 7218
-0.566 5.406 1.470 5079
-0.566 5.410 1.455 3322
-0.600 5.728 1.515 3417
-0.600 5.732 1.498 3642
-0.602 5.751 1.485 2095
-0.602 5.755 1.469 2776
-0.613 5.859 1.475 2525
-0.631 6.031 1.496 4366
-0.632 6.035 1.479 5664
-0.632 6.039 1.461 3763
-0.651 6.220 1.482 2284
-0.652 6.232 1.466 2753
-0.651 6.220 1.444 1932
-0.675 6.447 1.473 1478
-0.679 6.490 1.462 1423
-0.683 6.524 1.449 2181
-0.707 6.752 1.475 3406
-0.705 6.733 1.451 2864
-0.701 6.698 1.424 2665
-0.748 7.150 1.490 2093
-0.756 7.224 1.482 1900
-0.726 6.933 1.406 1872
-0.761 7.270 1.447 1690
-0.803 7.669 1.496 1655
-0.803 7.673 1.474 2824
-0.804 7.677 1.451 2999
-0.804 7.681 1.429 3447
-0.787 7.514 1.378 3827
-0.787 7.517 1.356 3769
-0.787 7.521 1.334 3141
-0.805 7.688 1.338 2779
-0.804 7.683 1.314 1967
-0.956 9.135 1.511 1641
-0.970 9.264 1.503 1821
-0.927 8.854 1.416 1717
-0.927 8.858 1.390 2003
-0.979 9.353 1.432 2377
-0.980 9.365 1.406 2763
-0.981 9.368 1.379 2391
-0.982 9.380 1.352 1445
-0.982 9.383 1.325 715
-0.983 9.394 1.299 551
-0.983 9.390 1.270 391
-0.594 5.679 -0.373 269
-0.594 5.677 -0.389 329
-0.594 5.676 -0.406 300
-0.593 5.666 -0.422 273
-0.586 5.595 -0.497 258
-0.225 2.194 1.680 3264
-0.225 2.198 1.674 6529
-0.226 2.202 1.668 6529
-0.227 2.213 1.666 6148
-0.228 2.224 1.664 6066
-0.229 2.235 1.662 4213
-0.234 2.278 1.683 3534
-0.234 2.283 1.676 3534
-0.237 2.307 1.683 3163
-0.238 2.318 1.681 3157
-0.241 2.348 1.692 5848
-0.242 2.360 1.690 9222
-0.244 2.377 1.692 10425
-0.245 2.388 1.689 12289
-0.245 2.393 1.683 9863
-0.245 2.391 1.671 7719
-0.245 2.388 1.660 7693
-0.245 2.386 1.649 6558
-0.254 2.477 1.698 7854
-0.256 2.495 1.699 6863
-0.257 2.506 1.696 6556
-0.259 2.524 1.697 4944
-0.262 2.555 1.707 4925
-0.262 2.553 1.695 5596
-0.260 2.537 1.676 6814
-0.260 2.535 1.664 8705
-0.260 2.539 1.657 10634
-0.261 2.544 1.650 8787
-0.263 2.562 1.650 7226
-0.263 2.566 1.643 4976
-0.265 2.584 1.644 2807
-0.263 2.568 1.624 2674
-0.264 2.572 1.617 2690
-0.272 2.651 1.653 2884
-0.273 2.663 1.650 6894
-0.273 2.667 1.642 9018
-0.273 2.664 1.630 7870
-0.274 2.669 1.623 6849
-0.278 2.707 1.634 6409
-0.279 2.719 1.630 7557
-0.280 2.730 1.626 6164
-0.285 2.782 1.645 5387
-0.286 2.794 1.641 5587
-0.289 2.819 1.644 5359
-0.291 2.837 1.644 5175
-0.291 2.834 1.632 3803
-0.301 2.936 1.676 4940
-0.304 2.969 1.682 4375
-0.301 2.931 1.651 5358
-0.301 2.935 1.643 7075
-0.302 2.947 1.638 9071
-0.303 2.958 1.633 11995
-0.304 2.963 1.625 12303
-0.304 2.967 1.616 9542
-0.315 3.077 1.661 8885
-0.317 3.088 1.655 12564
-0.319 3.107 1.654 11793
-0.320 3.118 1.648 8867
-0.330 3.215 1.684 6738
-0.321 3.134 1.633 8424
-0.322 3.138 1.624 12129
-0.321 3.135 1.612 13349
-0.323 3.147 1.606 10180
-0.332 3.237 1.638 6431
-0.333 3.248 1.632 7034
-0.334 3.260 1.625 8894
-0.336 3.278 1.623 8477
-0.340 3.318 1.630 7829
-0.345 3.366 1.640 8830
-0.348 3.392 1.639 9673
-0.349 3.403 1.633 6757
-0.360 3.508 1.668 4162
-0.360 3.513 1.658 4174
-0.359 3.503 1.641 4754
-0.360 3.507 1.631 5698
-0.361 3.519 1.624 4974
-0.369 3.603 1.648 4077
-0.375 3.658 1.659 7585
-0.377 3.677 1.654 9470
-0.380 3.703 1.653 9454
-0.380 3.708 1.642 7605
-0.379 3.697 1.625 6326
-0.380 3.702 1.615 5871
-0.390 3.801 1.642 5845
-0.392 3.820 1.637 4713
-0.398 3.883 1.649 5980
-0.401 3.909 1.646 8602
-0.400 3.906 1.632 9572
-0.401 3.911 1.621 7170
-0.405 3.952 1.624 6755
-0.401 3.912 1.595 6407
-0.402 3.923 1.587 4757
-0.407 3.972 1.592 4410
-0.408 3.984 1.583 3605
-0.417 4.069 1.601 4896
-0.418 4.073 1.590 6641
-0.420 4.092 1.583 5718
-0.428 4.178 1.600 6052
-0.427 4.168 1.583 6911
-0.427 4.164 1.568 7190
-0.428 4.176 1.559 5200
-0.432 4.217 1.559 5250
-0.434 4.236 1.552 8391
-0.436 4.248 1.542 8503
-0.437 4.260 1.532 5581
-0.447 4.361 1.552 4249
-0.448 4.372 1.542 4281
-0.455 4.437 1.549 5049
-0.458 4.471 1.545 6968
-0.459 4.475 1.532 7608
-0.459 4.479 1.519 5339
-0.460 4.483 1.506 3260
-0.472 4.607 1.530 3739
-0.474 4.619 1.519 3422
-0.479 4.668 1.519 3218
-0.480 4.680 1.508 3924
-0.486 4.737 1.510 3505
-0.496 4.839 1.525 3045
-0.507 4.949 1.541 2318
-0.508 4.953 1.527 3107
-0.506 4.934 1.506 3198
-0.512 4.991 1.506 2971
-0.511 4.980 1.488 3564
-0.509 4.969 1.469 3575
-0.541 5.277 1.536 2802
-0.541 5.273 1.519 4722
-0.542 5.285 1.505 5238
-0.545 5.312 1.496 5858
-0.550 5.362 1.492 7205
-0.551 5.373 1.478 7235
-0.554 5.408 1.470 4207
-0.564 5.503 1.477 3443
-0.588 5.737 1.517 3288
-0.589 5.741 1.500 3570
-0.590 5.752 1.485 2086
-0.589 5.749 1.467 2371
-0.618 6.029 1.514 2406
-0.618 6.033 1.496 4283
-0.619 6.037 1.479 5655
-0.619 6.040 1.461 3970
-0.621 6.060 1.447 2228
-0.638 6.225 1.464 2443
-0.638 6.221 1.444 1887
-0.637 6.217 1.425 1406
-0.667 6.507 1.465 1534
-0.669 6.526 1.449 2294
-0.692 6.754 1.475 3384
-0.694 6.765 1.457 2720
-0.687 6.699 1.424 2471
-0.732 7.144 1.488 2140
-0.709 6.916 1.424 2006
-0.710 6.927 1.405 2241
-0.746 7.280 1.448 1603
-0.786 7.663 1.495 1669
-0.786 7.667 1.472 2831
-0.786 7.671 1.450 2954
-0.787 7.675 1.428 3342
-0.771 7.515 1.378 4021
-0.771 7.519 1.356 3968
-0.770 7.515 1.333 3248
-0.788 7.682 1.337 3069
-0.788 7.685 1.314 2299
-0.937 9.137 1.511 1804
-0.939 9.157 1.486 1530
-0.908 8.856 1.416 1466
-0.908 8.860 1.390 1770
-0.959 9.355 1.432 2224
-0.960 9.367 1.406 2574
-0.961 9.378 1.380 2121
-0.963 9.397 1.354 1344
-0.965 9.409 1.328 766
-0.965 9.412 1.300 544
-0.964 9.408 1.272 336
-0.598 5.831 -0.114 266
-0.597 5.823 -0.131 308
-0.596 5.814 -0.147 351
-0.596 5.813 -0.164 328
-0.595 5.804 -0.181 308
-0.582 5.680 -0.373 320
-0.582 5.678 -0.389 391
-0.582 5.677 -0.406 356
-0.582 5.675 -0.422 321
-0.580 5.658 -0.437 263
-0.576 5.613 -0.482 250
-0.574 5.596 -0.497 300
-0.218 2.194 1.680 3563
-0.218 2.199 1.674 7126
-0.219 2.203 1.668 7126
-0.220 2.214 1.666 6696
-0.221 2.225 1.664 6387
-0.221 2.229 1.658 4565
-0.227 2.286 1.687 4248
-0.227 2.290 1.681 4248
-0.230 2.314 1.688 3567
-0.232 2.338 1.694 3896
-0.234 2.356 1.697 6614
-0.235 2.367 1.694 9960
-0.236 2.378 1.692 11531
-0.237 2.389 1.689 13678
-0.237 2.393 1.683 11538
-0.237 2.391 1.671 9742
-0.237 2.389 1.660 9712
-0.237 2.394 1.653 7397
-0.246 2.478 1.698 7882
-0.247 2.489 1.695 6942
-0.249 2.507 1.696 6598
-0.250 2.524 1.697 4899
-0.254 2.556 1.707 4619
-0.253 2.547 1.691 5588
-0.252 2.545 1.680 6879
-0.252 2.536 1.664 8116
-0.251 2.533 1.653 9529
-0.252 2.544 1.650 7457
-0.253 2.549 1.642 5464
-0.253 2.553 1.635 4643
-0.254 2.558 1.628 3822
-0.254 2.562 1.620 3960
-0.255 2.573 1.617 4190
-0.256 2.584 1.614 3864
-0.264 2.657 1.646 7000
-0.265 2.668 1.642 8779
-0.264 2.665 1.630 7692
-0.265 2.670 1.623 6622
-0.268 2.701 1.630 6153
-0.270 2.719 1.630 6991
-0.270 2.724 1.623 5620
-0.275 2.776 1.641 5061
-0.277 2.795 1.641 5435
-0.280 2.827 1.648 5840
-0.282 2.838 1.644 5883
-0.282 2.842 1.636 4166
-0.291 2.937 1.676 4852
-0.291 2.935 1.663 4015
-0.291 2.932 1.651 5453
-0.292 2.943 1.647 7481
-0.293 2.955 1.642 9821
-0.294 2.966 1.637 13022
-0.295 2.971 1.628 13579
-0.295 2.975 1.620 10602
-0.303 3.057 1.650 7897
-0.306 3.089 1.655 10644
-0.308 3.108 1.654 9797
-0.309 3.119 1.648 7582
-0.318 3.209 1.681 6480
-0.317 3.192 1.661 8004
-0.311 3.139 1.624 10090
-0.311 3.137 1.612 11020
-0.312 3.148 1.606 8459
-0.322 3.245 1.641 6118
-0.323 3.256 1.635 7889
-0.323 3.261 1.625 10348
-0.325 3.272 1.619 9518
-0.329 3.320 1.630 8948
-0.333 3.353 1.633 8820
-0.337 3.393 1.639 9220
-0.338 3.412 1.636 6698
-0.347 3.502 1.665 4308
-0.348 3.507 1.654 4983
-0.347 3.497 1.638 5786
-0.347 3.501 1.628 6694
-0.350 3.527 1.627 5821
-0.357 3.604 1.648 4637
-0.363 3.659 1.659 8641
-0.364 3.671 1.651 9826
-0.367 3.704 1.653 9319
-0.366 3.694 1.636 8143
-0.366 3.691 1.622 7415
-0.367 3.696 1.612 7050
-0.377 3.802 1.642 6140
-0.378 3.814 1.634 5222
-0.385 3.884 1.649 5930
-0.388 3.911 1.646 8426
-0.387 3.900 1.629 9190
-0.387 3.905 1.618 7108
-0.388 3.909 1.607 6953
-0.388 3.913 1.595 7415
-0.389 3.917 1.584 4477
-0.396 3.988 1.597 4104
-0.397 4.000 1.589 3960
-0.404 4.071 1.601 4195
-0.404 4.075 1.590 6193
-0.406 4.094 1.583 6254
-0.408 4.113 1.576 6368
-0.413 4.162 1.580 7392
-0.412 4.158 1.566 8278
-0.414 4.177 1.559 5980
-0.418 4.211 1.557 6139
-0.420 4.238 1.552 9005
-0.422 4.249 1.542 8063
-0.423 4.261 1.532 5118
-0.433 4.362 1.552 4213
-0.432 4.359 1.537 3814
-0.445 4.491 1.565 4341
-0.444 4.480 1.548 6982
-0.444 4.476 1.532 7939
-0.444 4.480 1.519 5972
-0.445 4.484 1.506 3967
-0.457 4.609 1.530 4752
-0.458 4.620 1.519 4692
-0.463 4.670 1.519 4313
-0.465 4.689 1.510 4378
-0.471 4.753 1.514 3829
-0.473 4.772 1.505 3491
-0.490 4.935 1.537 2460
-0.491 4.947 1.524 3300
-0.487 4.905 1.497 3595
-0.495 4.993 1.506 3207
-0.494 4.982 1.488 3678
-0.494 4.978 1.471 2909
-0.523 5.271 1.534 3013
-0.523 5.275 1.519 4787
-0.525 5.294 1.507 5300
-0.527 5.314 1.496 5711
-0.531 5.356 1.490 7222
-0.532 5.367 1.476 6637
-0.546 5.501 1.493 4526
-0.546 5.505 1.477 3870
-0.549 5.532 1.467 3625
-0.570 5.743 1.500 3248
-0.576 5.808 1.498 2367
-0.578 5.827 1.485 1884
-0.598 6.031 1.514 2216
-0.599 6.035 1.496 3826
-0.599 6.039 1.479 5395
-0.599 6.042 1.461 4143
-0.600 6.046 1.444 2446
-0.618 6.227 1.464 2120
-0.617 6.216 1.443 1799
-0.617 6.219 1.425 1558
-0.645 6.501 1.464 1840
-0.648 6.528 1.449 2270
-0.671 6.764 1.477 3213
-0.671 6.767 1.457 2545
-0.650 6.555 1.395 1924
-0.709 7.147 1.488 2192
-0.686 6.918 1.424 2251
-0.687 6.930 1.405 2520
-0.745 7.507 1.489 1916
-0.745 7.511 1.467 1884
-0.760 7.662 1.471 2908
-0.760 7.666 1.449 2877
-0.745 7.514 1.400 3281
-0.746 7.518 1.378 4199
-0.745 7.514 1.355 4019
-0.760 7.657 1.355 3344
-0.762 7.684 1.337 3222
-0.763 7.688 1.314 2536
-0.907 9.140 1.511 2041
-0.909 9.167 1.488 1854
-0.911 9.187 1.463 1550
-0.910 9.175 1.434 1629
-0.910 9.171 1.406 1985
-0.929 9.362 1.405 2247
-0.930 9.373 1.379 1750
-0.932 9.400 1.354 1213
-0.933 9.404 1.327 847
-0.935 9.423 1.301 533
-0.934 9.418 1.273 256
-0.579 5.834 -0.097 299
-0.579 5.833 -0.114 419
-0.578 5.825 -0.131 483
-0.578 5.824 -0.148 550
-0.577 5.815 -0.164 507
-0.576 5.806 -0.181 473
-0.577 5.813 -0.198 379
-0.577 5.812 -0.215 290
-0.564 5.685 -0.340 306
-0.564 5.683 -0.356 306
-0.564 5.682 -0.373 394
-0.564 5.688 -0.390 481
-0.563 5.679 -0.406 446
-0.563 5.677 -0.422 411
-0.562 5.668 -0.438 316
-0.557 5.615 -0.482 274
-0.555 5.598 -0.497 329
-0.213 2.201 1.685 3569
-0.213 2.206 1.679 7139
-0.214 2.210 1.672 7139
-0.214 2.215 1.666 6714
-0.214 2.219 1.660 6290
-0.216 2.230 1.658 4652
-0.221 2.286 1.687 4822
-0.221 2.291 1.681 4822
-0.224 2.321 1.692 4811
-0.225 2.332 1.690 5568
-0.228 2.356 1.697 7390
-0.229 2.367 1.694 10455
-0.230 2.378 1.692 12149
-0.231 2.390 1.689 14344
-0.231 2.387 1.678 12496
-0.231 2.392 1.671 11058
-0.231 2.390 1.660 11048
-0.231 2.394 1.653 8126
-0.240 2.478 1.698 7556
-0.241 2.489 1.695 6772
-0.242 2.501 1.692 6395
-0.243 2.518 1.693 4785
-0.246 2.543 1.699 4128
-0.246 2.547 1.691 5497
-0.246 2.545 1.680 6886
-0.244 2.530 1.660 7441
-0.245 2.534 1.653 8341
-0.245 2.538 1.646 6297
-0.246 2.543 1.638 4253
-0.246 2.547 1.631 4591
-0.247 2.551 1.624 4930
-0.248 2.563 1.620 5147
-0.249 2.574 1.617 5527
-0.250 2.585 1.614 5036
-0.257 2.657 1.646 6824
-0.257 2.662 1.638 8197
-0.258 2.666 1.630 7061
-0.258 2.670 1.623 5926
-0.261 2.702 1.630 5552
-0.262 2.713 1.627 6204
-0.263 2.718 1.619 4981
-0.268 2.777 1.641 4740
-0.270 2.795 1.641 5125
-0.274 2.834 1.652 6015
-0.275 2.846 1.647 6147
-0.275 2.843 1.636 4314
-0.284 2.938 1.676 4684
-0.284 2.935 1.663 4002
-0.283 2.933 1.651 5450
-0.285 2.944 1.647 7475
-0.286 2.956 1.642 9765
-0.287 2.967 1.637 13327
-0.287 2.971 1.628 14221
-0.288 2.976 1.620 11407
-0.289 2.987 1.615 7370
-0.299 3.090 1.655 8470
-0.301 3.116 1.657 7740
-0.302 3.127 1.652 6171
-0.310 3.209 1.681 6093
-0.309 3.193 1.661 8067
-0.310 3.204 1.655 9620
-0.311 3.216 1.649 9188
-0.312 3.227 1.643 7142
-0.314 3.253 1.644 5919
-0.315 3.264 1.638 8695
-0.315 3.262 1.625 11097
-0.316 3.273 1.619 9964
-0.321 3.320 1.630 9579
-0.323 3.346 1.630 9265
-0.329 3.401 1.643 9166
-0.330 3.412 1.636 6910
-0.328 3.395 1.617 4393
-0.338 3.500 1.651 5589
-0.337 3.490 1.635 6351
-0.338 3.495 1.625 7252
-0.342 3.535 1.630 6353
-0.350 3.619 1.654 4935
-0.354 3.660 1.659 9172
-0.355 3.672 1.651 9561
-0.358 3.705 1.653 8587
-0.357 3.695 1.636 8226
-0.357 3.692 1.622 7958
-0.357 3.696 1.612 7690
-0.356 3.686 1.595 6567
-0.369 3.815 1.634 5419
-0.371 3.834 1.629 5814
-0.377 3.904 1.643 7720
-0.377 3.901 1.629 8344
-0.377 3.906 1.618 7026
-0.377 3.903 1.604 7779
-0.378 3.907 1.593 8333
-0.378 3.911 1.581 4452
-0.388 4.011 1.606 4651
-0.388 4.015 1.594 5484
-0.389 4.027 1.585 5379
-0.394 4.076 1.590 5808
-0.396 4.095 1.583 6593
-0.398 4.114 1.576 6909
-0.400 4.140 1.572 8017
-0.402 4.159 1.566 8908
-0.404 4.178 1.559 6289
-0.407 4.212 1.557 6381
-0.409 4.231 1.550 8796
-0.410 4.243 1.540 6945
-0.423 4.374 1.570 4428
-0.422 4.363 1.552 4140
-0.421 4.360 1.537 3959
-0.434 4.492 1.565 4091
-0.434 4.488 1.550 6632
-0.433 4.485 1.535 7889
-0.434 4.489 1.522 6431
-0.433 4.485 1.506 4578
-0.446 4.617 1.532 4960
-0.447 4.621 1.519 5567
-0.453 4.686 1.524 5467
-0.454 4.697 1.512 4878
-0.459 4.747 1.512 3990
-0.461 4.774 1.505 3901
-0.465 4.808 1.500 2681
-0.477 4.933 1.520 3256
-0.474 4.907 1.497 3753
-0.482 4.987 1.504 3192
-0.482 4.991 1.490 3526
-0.483 4.994 1.475 2292
-0.502 5.196 1.514 2843
-0.512 5.299 1.525 4741
-0.513 5.303 1.509 5972
-0.512 5.300 1.492 6282
-0.514 5.319 1.480 6305
-0.514 5.323 1.465 6772
-0.513 5.311 1.446 5300
-0.532 5.506 1.477 3856
-0.534 5.526 1.465 3827
-0.535 5.537 1.451 3226
-0.562 5.817 1.500 2632
-0.540 5.591 1.429 1999
-0.584 6.040 1.516 1887
-0.583 6.036 1.496 3196
-0.584 6.040 1.479 4977
-0.584 6.044 1.461 4103
-0.584 6.048 1.444 2506
-0.586 6.059 1.428 1777
-0.601 6.217 1.443 1645
-0.626 6.476 1.478 1704
-0.628 6.495 1.462 2055
-0.638 6.599 1.463 2288
-0.654 6.765 1.477 2858
-0.654 6.769 1.457 2253
-0.634 6.556 1.395 2293
-0.690 7.141 1.487 2048
-0.670 6.928 1.425 2182
-0.670 6.931 1.405 2522
-0.726 7.509 1.489 2230
-0.726 7.513 1.467 2358
-0.740 7.656 1.470 2771
-0.725 7.505 1.420 2717
-0.726 7.516 1.400 3417
-0.727 7.520 1.378 4081
-0.727 7.523 1.356 3785
-0.741 7.667 1.357 3150
-0.743 7.686 1.337 2961
-0.743 7.689 1.314 2457
-0.884 9.150 1.512 2097
-0.886 9.170 1.488 1991
-0.888 9.189 1.463 1750
-0.888 9.185 1.435 1829
-0.887 9.181 1.407 2165
-0.905 9.364 1.405 1940
-0.905 9.368 1.378 1491
-0.908 9.395 1.353 1061
-0.909 9.406 1.327 930
-0.911 9.425 1.301 585
-0.582 6.021 0.193 259
-0.066 0.679 0.127 250
-0.066 0.679 0.125 252
-0.564 5.835 -0.097 401
-0.564 5.835 -0.114 561
-0.563 5.826 -0.131 645
-0.563 5.825 -0.148 732
-0.562 5.816 -0.164 670
-0.561 5.808 -0.181 618
-0.562 5.815 -0.198 502
-0.562 5.814 -0.215 389
-0.562 5.813 -0.232 269
-0.550 5.695 -0.324 258
-0.550 5.694 -0.341 335
-0.550 5.692 -0.357 335
-0.550 5.691 -0.374 433
-0.550 5.689 -0.390 531
-0.550 5.688 -0.407 493
-0.550 5.686 -0.423 455
-0.548 5.669 -0.438 344
-0.545 5.636 -0.451 266
-0.545 5.634 -0.468 266
-0.543 5.617 -0.482 285
-0.542 5.607 -0.498 329
-0.206 2.202 1.685 3666
-0.206 2.206 1.679 7332
-0.207 2.211 1.672 7332
-0.207 2.215 1.666 6785
-0.208 2.220 1.660 6239
-0.213 2.282 1.694 4947
-0.215 2.300 1.696 5564
-0.215 2.304 1.690 5564
-0.217 2.315 1.688 6681
-0.218 2.326 1.686 8041
-0.219 2.344 1.688 8932
-0.221 2.368 1.694 11492
-0.222 2.379 1.692 13143
-0.224 2.390 1.689 15270
-0.223 2.388 1.678 13698
-0.223 2.386 1.667 12467
-0.224 2.390 1.660 12443
-0.224 2.395 1.653 9188
-0.232 2.479 1.698 7152
-0.233 2.490 1.695 6633
-0.234 2.501 1.692 6365
-0.235 2.512 1.689 4799
-0.237 2.537 1.694 4070
-0.238 2.542 1.687 5601
-0.238 2.546 1.680 7132
-0.237 2.530 1.660 6965
-0.236 2.528 1.649 7414
-0.237 2.532 1.641 5633
-0.237 2.530 1.630 3896
-0.238 2.541 1.627 4914
-0.239 2.552 1.624 6056
-0.240 2.563 1.620 6413
-0.241 2.574 1.617 7096
-0.242 2.585 1.614 6496
-0.248 2.651 1.642 6548
-0.249 2.662 1.638 7407
-0.249 2.667 1.630 6119
-0.250 2.671 1.623 4832
-0.253 2.703 1.630 4658
-0.254 2.714 1.627 5106
-0.254 2.718 1.619 4168
-0.260 2.778 1.641 4576
-0.261 2.796 1.641 4842
-0.265 2.835 1.652 6094
-0.266 2.846 1.647 6258
-0.266 2.844 1.636 4516
-0.274 2.932 1.672 4413
-0.275 2.936 1.663 3965
-0.274 2.934 1.651 5527
-0.275 2.945 1.647 7457
-0.277 2.963 1.645 9733
-0.278 2.968 1.637 13781
-0.278 2.972 1.628 15263
-0.278 2.976 1.620 12794
-0.279 2.988 1.615 9187
-0.280 2.999 1.610 8154
-0.280 2.996 1.597 6971
-0.292 3.128 1.652 4738
-0.300 3.210 1.681 5525
-0.299 3.201 1.664 7894
-0.300 3.205 1.655 10101
-0.300 3.209 1.646 9840
-0.301 3.214 1.637 6918
-0.307 3.282 1.658 6229
-0.305 3.265 1.638 9743
-0.305 3.262 1.625 11773
-0.306 3.274 1.619 10301
-0.311 3.321 1.630 9833
-0.313 3.347 1.630 9917
-0.318 3.402 1.643 9240
-0.319 3.413 1.636 7104
-0.320 3.418 1.626 4962
-0.327 3.494 1.648 6041
-0.325 3.477 1.629 6678
-0.326 3.489 1.622 7712
-0.331 3.536 1.630 6650
-0.340 3.635 1.660 5606
-0.342 3.661 1.659 9436
-0.343 3.666 1.648 8890
-0.346 3.699 1.650 7410
-0.346 3.696 1.636 8032
-0.346 3.701 1.625 8382
-0.346 3.705 1.615 8141
-0.345 3.687 1.595 7068
-0.357 3.816 1.634 5162
-0.359 3.835 1.629 5351
-0.365 3.898 1.641 6597
-0.365 3.902 1.629 6951
-0.365 3.899 1.615 6640
-0.364 3.896 1.601 8459
-0.365 3.901 1.590 9179
-0.364 3.897 1.576 5390
-0.375 4.012 1.606 5790
-0.376 4.024 1.597 7733
-0.377 4.028 1.585 7793
-0.380 4.062 1.584 5953
-0.383 4.096 1.583 6842
-0.384 4.108 1.574 7531
-0.387 4.134 1.570 8623
-0.388 4.153 1.563 9401
-0.391 4.180 1.559 6298
-0.394 4.214 1.557 6024
-0.396 4.233 1.550 8082
-0.396 4.237 1.537 5661
-0.410 4.383 1.572 4054
-0.398 4.252 1.515 4750
-0.408 4.361 1.537 4289
-0.410 4.380 1.529 3765
-0.420 4.490 1.550 5826
-0.420 4.486 1.535 7453
-0.420 4.490 1.522 6597
-0.420 4.494 1.509 5173
-0.432 4.619 1.532 4668
-0.432 4.623 1.519 6010
-0.439 4.695 1.526 6635
-0.440 4.706 1.515 5579
-0.443 4.741 1.510 3921
-0.446 4.767 1.503 4101
-0.446 4.771 1.489 3144
-0.456 4.874 1.503 3223
-0.458 4.901 1.495 3740
-0.466 4.988 1.504 3195
-0.468 5.000 1.492 3435
-0.469 5.011 1.479 2193
-0.485 5.190 1.512 3288
-0.496 5.309 1.527 5444
-0.496 5.305 1.509 7026
-0.495 5.294 1.490 7639
-0.495 5.298 1.475 6985
-0.497 5.317 1.463 7851
-0.498 5.328 1.449 6291
-0.516 5.516 1.479 3917
-0.516 5.520 1.463 3706
-0.519 5.546 1.453 3070
-0.522 5.581 1.444 2755
-0.522 5.585 1.427 2340
-0.543 5.804 1.461 1645
-0.565 6.046 1.498 2588
-0.565 6.042 1.479 4454
-0.565 6.046 1.461 3831
-0.567 6.065 1.447 2370
-0.574 6.138 1.444 1900
-0.574 6.142 1.426 1527
-0.606 6.485 1.479 1929
-0.607 6.489 1.460 2263
-0.618 6.609 1.465 2344
-0.634 6.775 1.478 2334
-0.614 6.570 1.417 2371
-0.613 6.558 1.395 2506
-0.666 7.127 1.484 1782
-0.677 7.240 1.483 1946
-0.649 6.941 1.406 2338
-0.702 7.511 1.489 2359
-0.703 7.523 1.468 2709
-0.704 7.526 1.446 2852
-0.702 7.507 1.420 2947
-0.703 7.518 1.400 3476
-0.703 7.522 1.378 3760
-0.704 7.526 1.356 3350
-0.717 7.669 1.357 2620
-0.719 7.688 1.337 2381
-0.719 7.684 1.313 2098
-0.856 9.153 1.512 2041
-0.858 9.180 1.489 2120
-0.860 9.192 1.463 1969
-0.860 9.196 1.436 1995
-0.859 9.184 1.407 2272
-0.860 9.195 1.382 1716
-0.875 9.355 1.376 1285
-0.877 9.382 1.351 889
-0.882 9.432 1.330 915
-0.882 9.428 1.301 615
-0.563 6.023 0.228 275
-0.564 6.031 0.210 356
-0.563 6.023 0.193 389
-0.562 6.007 0.175 359
-0.562 6.007 0.158 300
-0.063 0.679 0.130 272
-0.063 0.679 0.128 294
-0.063 0.679 0.127 308
-0.063 0.679 0.125 304
-0.063 0.679 0.123 281
-0.549 5.869 -0.081 321
-0.546 5.837 -0.097 513
-0.546 5.836 -0.114 717
-0.545 5.828 -0.131 822
-0.545 5.827 -0.148 935
-0.544 5.818 -0.164 845
-0.544 5.817 -0.181 772
-0.544 5.816 -0.198 626
-0.544 5.815 -0.215 480
-0.544 5.814 -0.232 334
-0.543 5.802 -0.299 273
-0.542 5.793 -0.315 303
-0.533 5.697 -0.324 269
-0.533 5.696 -0.341 347
-0.532 5.694 -0.357 347
-0.532 5.693 -0.374 438
-0.532 5.691 -0.390 529
-0.532 5.690 -0.407 488
-0.532 5.688 -0.423 447
-0.530 5.671 -0.438 345
-0.528 5.645 -0.452 269
-0.528 5.644 -0.468 269
-0.526 5.626 -0.483 279
-0.525 5.617 -0.499 306
-0.200 2.202 1.685 3475
-0.200 2.207 1.679 6951
-0.201 2.211 1.672 6951
-0.201 2.216 1.666 6382
-0.202 2.220 1.660 5813
-0.208 2.289 1.699 5286
-0.209 2.307 1.701 6416
-0.210 2.311 1.694 6416
-0.210 2.316 1.688 8165
-0.211 2.327 1.686 10032
-0.213 2.345 1.688 10379
-0.215 2.369 1.694 12117
-0.216 2.380 1.692 13536
-0.217 2.391 1.689 15445
-0.217 2.389 1.678 14075
-0.217 2.387 1.667 12988
-0.217 2.391 1.660 12931
-0.217 2.395 1.653 9771
-0.217 2.393 1.642 6777
-0.225 2.484 1.691 6378
-0.226 2.495 1.688 6338
-0.227 2.500 1.681 5022
-0.230 2.531 1.690 4194
-0.230 2.535 1.683 5691
-0.231 2.547 1.680 7247
-0.229 2.524 1.656 6646
-0.229 2.522 1.645 6862
-0.229 2.520 1.633 5684
-0.229 2.524 1.626 4554
-0.230 2.535 1.623 5402
-0.232 2.553 1.624 6638
-0.233 2.564 1.620 7178
-0.234 2.582 1.621 8318
-0.235 2.593 1.617 7657
-0.240 2.645 1.638 6028
-0.242 2.663 1.638 6348
-0.242 2.667 1.630 4913
-0.250 2.754 1.669 3653
-0.245 2.704 1.630 3651
-0.246 2.715 1.627 3950
-0.252 2.781 1.653 3891
-0.252 2.779 1.641 4570
-0.253 2.790 1.637 4707
-0.257 2.836 1.652 5959
-0.258 2.847 1.647 6095
-0.256 2.817 1.621 4794
-0.266 2.933 1.672 4067
-0.265 2.923 1.656 3794
-0.263 2.892 1.629 5707
-0.267 2.946 1.647 7490
-0.269 2.964 1.645 9539
-0.269 2.969 1.637 13845
-0.270 2.973 1.628 15819
-0.270 2.977 1.620 13765
-0.271 2.989 1.615 10548
-0.272 2.993 1.606 9273
-0.272 2.997 1.597 7921
-0.272 3.001 1.589 4783
-0.291 3.204 1.677 4821
-0.291 3.201 1.664 7297
-0.290 3.199 1.652 9957
-0.291 3.203 1.643 10086
-0.291 3.207 1.633 7672
-0.298 3.283 1.658 6013
-0.296 3.266 1.638 10079
-0.296 3.263 1.625 11741
-0.297 3.268 1.616 10166
-0.302 3.329 1.633 9508
-0.303 3.341 1.626 9984
-0.310 3.410 1.646 9171
-0.310 3.414 1.636 7255
-0.311 3.426 1.629 5564
-0.317 3.495 1.648 6068
-0.315 3.471 1.625 6699
-0.316 3.482 1.619 7706
-0.321 3.537 1.630 6519
-0.330 3.636 1.660 6187
-0.332 3.655 1.656 9058
-0.333 3.667 1.648 7791
-0.335 3.686 1.644 6149
-0.336 3.697 1.636 7505
-0.336 3.702 1.625 8436
-0.336 3.706 1.615 8222
-0.334 3.681 1.592 7127
-0.337 3.714 1.593 5060
-0.348 3.836 1.629 4568
-0.353 3.892 1.638 5267
-0.354 3.896 1.627 5457
-0.353 3.893 1.612 5830
-0.354 3.897 1.601 8226
-0.353 3.894 1.587 9418
-0.354 3.898 1.576 6259
-0.364 4.013 1.606 6390
-0.365 4.025 1.597 8975
-0.366 4.029 1.585 9339
-0.368 4.056 1.582 6488
-0.371 4.090 1.580 6795
-0.373 4.109 1.574 7710
-0.375 4.135 1.570 8563
-0.376 4.147 1.560 9217
-0.379 4.181 1.559 6086
-0.383 4.215 1.557 5418
-0.384 4.234 1.550 7017
-0.384 4.230 1.535 4752
-0.398 4.384 1.572 3494
-0.385 4.246 1.513 4882
-0.397 4.370 1.539 4391
-0.400 4.404 1.536 4542
-0.408 4.491 1.550 4737
-0.407 4.487 1.535 6600
-0.408 4.491 1.522 6302
-0.408 4.495 1.509 5472
-0.408 4.499 1.496 3926
-0.420 4.624 1.519 5694
-0.427 4.704 1.528 7262
-0.427 4.708 1.515 5975
-0.430 4.742 1.510 3611
-0.432 4.761 1.500 3904
-0.433 4.772 1.489 3365
-0.443 4.883 1.505 2825
-0.445 4.902 1.495 3608
-0.452 4.982 1.502 3370
-0.455 5.008 1.494 3739
-0.456 5.020 1.481 2438
-0.471 5.192 1.512 3444
-0.482 5.310 1.527 5913
-0.481 5.299 1.507 7765
-0.481 5.295 1.490 8210
-0.480 5.291 1.473 7711
-0.483 5.318 1.463 8296
-0.484 5.337 1.451 6814
-0.501 5.525 1.481 3532
-0.501 5.521 1.463 3313
-0.503 5.540 1.451 2982
-0.507 5.590 1.446 2935
-0.516 5.686 1.451 2355
-0.527 5.805 1.461 1895
-0.528 5.816 1.446 2921
-0.549 6.051 1.480 3973
-0.549 6.047 1.461 3288
-0.551 6.074 1.449 1995
-0.576 6.340 1.487 2146
-0.558 6.143 1.426 1619
-0.589 6.487 1.479 1903
-0.590 6.498 1.462 2199
-0.600 6.610 1.465 2252
-0.599 6.599 1.443 2154
-0.598 6.587 1.420 2335
-0.595 6.560 1.395 2357
-0.626 6.897 1.439 1494
-0.657 7.241 1.483 1631
-0.630 6.943 1.406 2076
-0.682 7.513 1.489 2095
-0.683 7.525 1.468 2644
-0.683 7.528 1.446 2916
-0.682 7.517 1.422 2856
-0.683 7.520 1.400 3234
-0.683 7.524 1.378 3252
-0.683 7.527 1.356 2812
-0.696 7.671 1.357 1916
-0.697 7.682 1.336 1727
-0.698 7.686 1.313 1669
-0.831 9.155 1.512 1807
-0.834 9.182 1.489 2046
-0.835 9.202 1.464 2050
-0.836 9.206 1.437 2061
-0.835 9.194 1.408 2266
-0.836 9.205 1.383 1732
-0.849 9.357 1.376 1178
-0.850 9.361 1.348 836
-0.859 9.458 1.333 961
-0.859 9.462 1.305 612
-0.551 6.073 0.423 251
-0.551 6.075 0.388 253
-0.551 6.075 0.370 260
-0.551 6.068 0.352 265
-0.551 6.069 0.334 266
-0.552 6.077 0.317 267
-0.552 6.078 0.299 251
-0.550 6.055 0.264 274
-0.548 6.039 0.246 314
-0.547 6.024 0.228 386
-0.548 6.032 0.210 489
-0.548 6.032 0.193 510
-0.545 6.009 0.175 459
-0.545 6.009 0.158 386
-0.545 6.001 0.140 315
-0.062 0.679 0.132 289
-0.062 0.679 0.130 311
-0.062 0.679 0.128 328
-0.062 0.679 0.127 333
-0.062 0.679 0.125 323
-0.062 0.679 0.123 293
-0.539 5.935 -0.049 287
-0.530 5.840 -0.063 279
-0.533 5.871 -0.081 357
-0.530 5.839 -0.097 573
-0.530 5.838 -0.114 811
