1.770 1.994 1.468 15540
1.773 1.997 1.461 15418
1.780 2.005 1.457 13607
1.778 2.002 1.445 13285
1.780 2.005 1.438 11224
1.783 2.008 1.430 9366
1.833 2.064 1.457 8565
1.797 2.024 1.422 7419
1.814 2.043 1.424 7160
1.850 2.083 1.440 6399
1.828 2.059 1.415 8358
1.826 2.057 1.404 9797
1.862 2.097 1.419 12552
1.864 2.100 1.411 15345
1.867 2.103 1.403 12920
1.864 2.100 1.392 7115
1.805 2.033 1.342 6365
1.812 2.041 1.337 6228
1.819 2.049 1.333 5117
1.821 2.051 1.325 4083
1.819 2.048 1.314 2890
1.806 2.035 1.296 3009
2.026 2.282 1.429 4496
2.024 2.279 1.418 5117
1.794 2.020 1.261 5919
1.796 2.023 1.253 8640
1.793 2.020 1.242 9531
1.800 2.028 1.237 9787
1.802 2.030 1.230 9897
1.804 2.032 1.222 8278
2.177 2.452 1.439 7161
2.180 2.455 1.430 7668
2.182 2.458 1.420 8829
2.184 2.460 1.411 7851
2.192 2.469 1.404 8474
2.199 2.477 1.398 11690
2.202 2.480 1.388 15430
2.204 2.482 1.378 18340
2.211 2.491 1.372 15245
2.219 2.499 1.365 11179
2.236 2.518 1.364 8799
2.253 2.538 1.362 5784
2.260 2.546 1.355 5977
2.268 2.554 1.348 6054
2.280 2.568 1.343 4715
2.302 2.593 1.344 5446
2.309 2.601 1.337 6984
2.312 2.604 1.327 5481
2.324 2.617 1.322 5033
2.346 2.642 1.322 6381
2.358 2.656 1.317 7759
2.375 2.675 1.314 6220
2.388 2.689 1.309 4742
2.415 2.720 1.311 4766
2.422 2.728 1.303 4693
2.505 2.821 1.331 5543
2.437 2.744 1.287 5256
2.504 2.820 1.307 3731
2.501 2.817 1.294 3782
2.529 2.848 1.294 4044
2.536 2.856 1.286 4249
2.629 2.961 1.316 4985
2.596 2.924 1.289 5749
2.643 2.977 1.298 7818
2.656 2.991 1.291 9835
2.663 2.999 1.281 7896
2.670 3.007 1.272 8202
2.688 3.027 1.267 8205
2.710 3.052 1.264 8967
2.712 3.055 1.252 8264
2.735 3.080 1.248 7770
2.742 3.088 1.238 5563
2.785 3.136 1.243 3387
2.848 3.207 1.255 3274
2.850 3.210 1.243 3280
2.888 3.252 1.244 5094
2.879 3.243 1.228 4341
2.861 3.223 1.207 3881
2.945 3.317 1.225 6094
2.983 3.359 1.226 6521
2.995 3.373 1.217 7631
2.977 3.353 1.196 11761
2.989 3.366 1.187 16647
3.001 3.380 1.178 12337
3.008 3.388 1.166 7208
3.000 3.379 1.150 10087
2.997 3.375 1.135 8932
2.999 3.378 1.122 4438
3.011 3.391 1.112 3366
3.177 3.579 1.152 3124
3.179 3.581 1.138 3595
3.181 3.583 1.125 2479
3.132 3.527 1.095 2139
3.432 3.866 1.172 3093
3.439 3.874 1.159 4470
3.462 3.899 1.150 3630
3.459 3.896 1.133 3538
3.455 3.892 1.117 5291
3.463 3.900 1.103 6760
3.464 3.902 1.088 7060
3.466 3.904 1.073 6368
3.468 3.906 1.058 7411
3.470 3.908 1.043 11077
3.466 3.904 1.026 12925
3.463 3.900 1.010 13322
3.465 3.902 0.995 12326
3.466 3.904 0.980 9311
3.473 3.912 0.966 5564
3.838 4.323 1.037 4225
3.897 4.389 1.033 4285
3.899 4.391 1.016 6163
3.900 4.393 0.999 7716
3.902 4.395 0.982 5442
3.909 4.402 0.966 3402
3.916 4.410 0.950 3928
3.917 4.412 0.933 4748
3.919 4.414 0.916 4590
4.155 4.679 0.945 3124
4.161 4.687 0.928 2208
4.497 5.065 0.972 3319
4.493 5.061 0.951 4319
4.484 5.051 0.930 3648
4.559 5.135 0.923 2517
4.581 5.160 0.907 2421
4.311 4.856 0.842 1655
5.023 5.658 0.937 1679
4.983 5.612 0.908 1680
4.953 5.579 0.882 1983
4.949 5.574 0.860 2047
5.228 5.888 0.877 2525
5.224 5.884 0.854 4322
5.220 5.880 0.830 5513
5.400 6.082 0.830 4957
5.396 6.077 0.806 6032
5.397 6.079 0.783 4905
5.403 6.086 0.760 3985
5.420 6.105 0.738 4218
5.427 6.112 0.715 4546
5.423 6.107 0.690 4315
5.418 6.103 0.666 3493
5.425 6.110 0.643 2809
6.097 6.867 0.679 2481
6.098 6.868 0.653 2266
0.793 0.893 0.200 2501
0.793 0.893 0.197 5000
0.793 0.893 0.194 7386
0.793 0.893 0.190 8897
0.793 0.893 0.187 10320
0.793 0.893 0.184 11086
0.793 0.894 0.180 10960
0.793 0.894 0.177 10159
0.793 0.894 0.174 8195
0.794 0.894 0.170 6148
0.794 0.894 0.167 4865
0.794 0.894 0.164 3346
0.794 0.894 0.160 1711
0.794 0.894 0.157 1016
0.799 0.900 0.154 587
0.799 0.900 0.150 314
0.799 0.900 0.147 353
0.799 0.900 0.144 323
0.794 0.894 0.140 297
0.794 0.894 0.137 265
0.924 1.041 0.082 416
0.924 1.041 0.078 635
0.924 1.041 0.074 969
0.924 1.041 0.070 1304
0.924 1.041 0.066 1702
0.924 1.040 0.062 2101
0.918 1.034 0.059 2318
0.918 1.034 0.055 2572
0.918 1.034 0.051 2465
0.918 1.034 0.047 2358
0.918 1.034 0.043 2154
0.917 1.033 0.039 1859
0.917 1.033 0.036 1563
0.917 1.033 0.032 1358
0.917 1.033 0.028 1163
0.922 1.038 0.023 989
0.922 1.038 0.019 748
0.916 1.032 0.016 516
0.916 1.032 0.012 384
1.175 1.323 -0.061 275
1.301 1.454 1.517 3326
1.303 1.457 1.512 6652
1.310 1.465 1.511 6150
1.365 1.526 1.560 6555
1.367 1.529 1.555 6541
1.383 1.546 1.562 9727
1.394 1.559 1.566 14271
1.406 1.572 1.569 15271
1.409 1.575 1.563 17053
1.411 1.578 1.557 17053
1.414 1.581 1.551 15760
1.417 1.584 1.545 14467
1.424 1.592 1.543 13224
1.431 1.600 1.541 12479
1.434 1.603 1.535 10780
1.432 1.601 1.525 9093
1.435 1.604 1.519 6600
1.420 1.588 1.495 4589
1.493 1.670 1.558 3821
1.500 1.678 1.556 4510
1.499 1.676 1.545 4324
1.502 1.679 1.539 4072
1.504 1.682 1.532 4029
1.502 1.680 1.522 5192
1.505 1.683 1.515 6008
1.539 1.721 1.538 6320
1.546 1.729 1.536 8416
1.545 1.727 1.525 9693
1.547 1.730 1.518 10730
1.545 1.728 1.508 10361
1.548 1.731 1.501 8511
1.555 1.739 1.499 6770
1.558 1.742 1.492 4663
1.542 1.725 1.469 2661
1.600 1.789 1.510 3407
1.607 1.797 1.508 4476
1.610 1.800 1.501 4322
1.617 1.808 1.498 4193
1.619 1.811 1.491 5715
1.617 1.808 1.480 6446
1.620 1.811 1.473 5753
1.627 1.819 1.470 4545
1.639 1.833 1.471 3828
1.711 1.913 1.521 5267
1.714 1.916 1.514 7968
1.716 1.919 1.506 8462
1.691 1.891 1.476 6404
1.680 1.878 1.458 6062
1.748 1.954 1.503 8884
1.750 1.957 1.495 14781
1.758 1.965 1.491 17314
1.760 1.968 1.484 15806
1.767 1.976 1.480 13042
1.775 1.984 1.476 11862
1.777 1.987 1.468 13720
1.780 1.990 1.461 14086
1.787 1.998 1.457 12725
1.790 2.001 1.449 13709
1.788 1.999 1.438 12793
1.842 2.060 1.468 11538
1.840 2.057 1.457 11538
1.838 2.055 1.446 9801
1.826 2.042 1.427 8372
1.857 2.077 1.440 7298
1.855 2.074 1.429 9493
1.838 2.055 1.407 10517
1.865 2.085 1.416 12318
1.867 2.088 1.408 15177
1.870 2.090 1.400 13028
1.872 2.093 1.392 7064
1.817 2.031 1.345 6211
1.819 2.034 1.337 6660
1.826 2.042 1.333 5888
1.829 2.045 1.325 4802
1.831 2.047 1.317 3342
1.906 2.131 1.356 3171
2.034 2.274 1.429 4213
2.037 2.277 1.421 4677
1.801 2.014 1.261 5395
1.803 2.016 1.253 8138
1.805 2.019 1.245 8897
1.808 2.021 1.237 8900
1.810 2.023 1.230 8811
1.812 2.026 1.222 7463
2.186 2.444 1.439 7024
2.188 2.447 1.430 7283
2.191 2.450 1.420 8063
2.193 2.452 1.411 7293
2.201 2.461 1.404 7990
2.208 2.469 1.398 10534
2.211 2.472 1.388 13748
2.218 2.480 1.381 16394
2.220 2.483 1.372 13773
2.228 2.491 1.365 11106
2.245 2.510 1.364 8516
2.267 2.535 1.365 4899
2.270 2.538 1.355 5393
2.282 2.551 1.351 6043
2.289 2.559 1.343 4921
2.341 2.618 1.360 5660
2.324 2.598 1.339 7025
2.321 2.595 1.327 4944
2.358 2.637 1.335 4395
2.361 2.639 1.325 6179
2.373 2.653 1.319 7890
2.385 2.667 1.314 6848
2.397 2.681 1.309 5299
2.425 2.711 1.311 4981
2.442 2.731 1.308 4285
2.515 2.812 1.331 5432
2.447 2.736 1.287 5531
2.509 2.806 1.304 5006
2.512 2.808 1.294 5430
2.534 2.833 1.292 5437
2.546 2.847 1.286 5585
2.554 2.855 1.277 5121
2.596 2.903 1.284 5517
2.609 2.917 1.277 6839
2.672 2.987 1.293 9474
2.674 2.990 1.281 7903
2.681 2.998 1.272 8862
2.693 3.012 1.265 8945
2.721 3.042 1.264 9812
2.728 3.051 1.254 8719
2.751 3.076 1.250 8618
2.753 3.078 1.238 6278
2.816 3.149 1.251 3770
2.864 3.203 1.257 3112
2.856 3.194 1.241 3043
2.899 3.242 1.244 4525
2.896 3.238 1.230 3797
2.955 3.304 1.238 3616
2.957 3.306 1.225 5428
3.000 3.354 1.228 6219
3.012 3.368 1.218 7728
2.984 3.336 1.194 10605
3.001 3.356 1.187 14969
3.019 3.375 1.179 11705
3.031 3.389 1.170 7434
3.012 3.368 1.150 8781
3.004 3.359 1.133 7494
3.150 3.522 1.168 4210
3.183 3.559 1.164 3371
3.195 3.573 1.154 3361
3.197 3.575 1.140 3539
3.194 3.571 1.125 2490
3.346 3.741 1.157 2063
3.353 3.749 1.144 3040
3.443 3.850 1.156 3881
3.455 3.863 1.144 3215
3.473 3.883 1.133 3578
3.470 3.879 1.117 4963
3.471 3.881 1.102 6517
3.473 3.884 1.087 6596
3.480 3.891 1.073 6956
3.482 3.893 1.058 9819
3.484 3.895 1.043 12258
3.486 3.897 1.028 11935
3.477 3.888 1.010 12295
3.479 3.889 0.995 11944
3.480 3.891 0.980 9096
3.487 3.899 0.966 5682
3.849 4.303 1.035 4693
3.913 4.375 1.033 3688
3.915 4.377 1.016 5409
3.916 4.379 0.999 6946
3.918 4.381 0.982 4890
3.920 4.382 0.965 2848
3.926 4.390 0.949 3354
3.933 4.398 0.933 4153
3.935 4.399 0.916 3868
4.177 4.670 0.946 3728
4.173 4.666 0.927 2535
4.526 5.060 0.974 3151
4.512 5.044 0.951 3901
4.503 5.034 0.930 3270
4.562 5.101 0.920 2515
4.317 4.827 0.859 2046
4.969 5.556 0.947 1588
4.970 5.557 0.925 1479
4.998 5.588 0.908 1788
4.973 5.561 0.882 2010
4.969 5.556 0.860 2069
5.113 5.716 0.858 2554
5.245 5.865 0.854 3749
5.242 5.861 0.830 5091
5.422 6.062 0.830 4924
5.423 6.063 0.807 5841
5.424 6.065 0.783 4767
5.426 6.066 0.760 4206
5.443 6.085 0.738 4746
5.449 6.092 0.715 4986
5.445 6.088 0.690 4683
5.441 6.083 0.666 3787
5.447 6.090 0.643 3041
6.127 6.851 0.680 2494
0.801 0.896 0.204 2448
0.796 0.890 0.200 4246
0.796 0.890 0.197 7699
0.796 0.890 0.194 10677
0.796 0.890 0.190 12476
0.796 0.890 0.187 14034
0.797 0.891 0.184 14528
0.797 0.891 0.180 14102
0.797 0.891 0.177 12980
0.797 0.891 0.174 10383
0.797 0.891 0.170 7758
0.797 0.891 0.167 6142
0.797 0.891 0.164 4250
0.797 0.891 0.160 2255
0.797 0.891 0.157 1415
0.797 0.891 0.154 821
0.797 0.891 0.150 331
0.802 0.897 0.147 263
0.802 0.897 0.144 259
0.797 0.891 0.140 267
0.934 1.044 0.089 386
0.934 1.044 0.085 595
0.933 1.044 0.081 909
0.928 1.038 0.078 1227
0.933 1.043 0.074 1486
0.933 1.043 0.070 1749
0.933 1.043 0.066 1805
0.933 1.043 0.062 1843
0.927 1.037 0.058 1660
0.927 1.037 0.054 1477
0.927 1.037 0.051 1110
0.932 1.042 0.046 752
0.932 1.042 0.042 651
0.932 1.042 0.038 539
0.926 1.036 0.035 573
0.926 1.035 0.031 632
0.926 1.035 0.027 602
0.926 1.035 0.023 571
0.925 1.035 0.019 461
0.925 1.034 0.016 351
0.920 1.028 0.012 252
1.182 1.321 -0.035 309
1.187 1.327 -0.041 353
1.186 1.326 -0.046 528
1.186 1.326 -0.051 654
1.185 1.325 -0.056 813
1.185 1.325 -0.061 1255
1.304 1.451 1.517 3683
1.307 1.454 1.512 7367
1.314 1.462 1.511 7068
1.321 1.470 1.510 6862
1.323 1.473 1.504 6862
1.391 1.548 1.567 9631
1.398 1.556 1.566 14756
1.409 1.569 1.569 16324
1.412 1.572 1.563 18330
1.415 1.575 1.557 18330
1.418 1.578 1.551 17291
1.420 1.581 1.545 16251
1.427 1.589 1.543 15068
1.435 1.597 1.541 14328
1.437 1.600 1.535 11940
1.440 1.603 1.529 9553
1.438 1.601 1.519 6729
1.423 1.584 1.495 4791
1.501 1.671 1.562 3503
1.509 1.679 1.560 4414
1.507 1.677 1.550 4121
1.510 1.681 1.543 4057
1.526 1.698 1.549 4357
1.511 1.682 1.526 5279
1.513 1.685 1.520 6118
1.539 1.713 1.534 6335
1.550 1.726 1.536 8021
1.548 1.724 1.525 9026
1.551 1.727 1.518 9909
1.549 1.725 1.508 9692
1.552 1.728 1.501 7940
1.559 1.736 1.499 6290
1.562 1.739 1.492 4547
1.601 1.782 1.517 3415
1.604 1.785 1.510 4565
1.611 1.793 1.508 5747
1.613 1.796 1.501 5055
1.616 1.799 1.494 4362
1.619 1.802 1.487 4630
1.621 1.805 1.480 4802
1.624 1.808 1.473 4705
1.640 1.826 1.478 4027
1.652 1.839 1.478 4288
1.715 1.909 1.521 5397
1.718 1.912 1.514 7802
1.725 1.920 1.510 8138
1.733 1.929 1.506 6214
1.679 1.869 1.454 6083
1.752 1.950 1.503 8824
1.755 1.953 1.495 14609
1.762 1.961 1.491 17225
1.764 1.964 1.484 15529
1.767 1.967 1.476 11822
1.770 1.970 1.469 9810
1.782 1.983 1.468 11505
1.784 1.986 1.461 12492
1.777 1.979 1.446 11893
1.794 1.997 1.449 13917
1.797 2.000 1.441 13904
1.847 2.056 1.468 13293
1.845 2.053 1.457 14091
1.838 2.046 1.442 13086
1.831 2.038 1.427 9969
1.838 2.046 1.423 8141
1.859 2.070 1.429 10299
1.843 2.051 1.407 10735
1.869 2.081 1.416 12119
1.867 2.078 1.405 14991
1.869 2.081 1.397 13009
1.872 2.084 1.389 7042
1.821 2.027 1.345 5904
1.824 2.030 1.337 6839
1.831 2.038 1.333 6372
1.833 2.041 1.325 5200
1.840 2.048 1.320 3565
1.910 2.127 1.356 3053
2.044 2.275 1.433 3898
2.042 2.273 1.421 4087
2.049 2.281 1.415 4830
1.813 2.018 1.256 7154
1.810 2.015 1.245 7744
1.812 2.017 1.237 7564
1.814 2.019 1.230 7324
1.811 2.016 1.219 6201
2.191 2.439 1.439 6804
2.194 2.442 1.430 6747
2.196 2.445 1.420 6919
2.199 2.448 1.411 6407
2.201 2.450 1.401 7189
2.209 2.459 1.395 8813
2.216 2.467 1.388 11236
2.223 2.475 1.381 13614
2.226 2.478 1.372 11972
2.233 2.486 1.365 10884
2.245 2.500 1.361 8493
2.248 2.502 1.351 4335
2.275 2.533 1.355 5101
2.287 2.546 1.351 6012
2.295 2.554 1.343 5123
2.347 2.613 1.360 6495
2.334 2.599 1.342 7659
2.332 2.596 1.329 4883
2.364 2.632 1.335 3962
2.366 2.634 1.325 5681
2.379 2.648 1.319 7813
2.391 2.662 1.314 7596
2.403 2.675 1.309 6320
2.436 2.711 1.313 5172
2.448 2.725 1.308 4142
2.521 2.806 1.331 5452
2.453 2.730 1.287 5819
2.510 2.794 1.302 5787
2.518 2.803 1.294 6560
2.540 2.828 1.292 6457
2.553 2.841 1.286 6659
2.560 2.850 1.277 5938
2.592 2.886 1.280 5260
2.610 2.905 1.275 6250
2.678 2.981 1.293 9404
2.680 2.984 1.281 7895
2.688 2.992 1.272 8908
2.705 3.011 1.267 8964
2.728 3.036 1.264 9619
2.740 3.050 1.256 8111
2.758 3.070 1.250 8387
2.755 3.066 1.236 6233
2.828 3.148 1.253 3792
2.846 3.168 1.247 3758
2.853 3.176 1.237 4321
2.840 3.161 1.218 4450
2.837 3.158 1.204 3846
2.962 3.297 1.238 3472
2.964 3.300 1.225 4473
3.013 3.353 1.230 6084
3.020 3.362 1.218 8294
2.991 3.329 1.194 9158
3.014 3.355 1.189 12798
3.031 3.374 1.181 11182
3.043 3.388 1.172 7734
3.025 3.367 1.151 6640
3.011 3.352 1.133 5800
3.163 3.521 1.170 4895
3.191 3.552 1.164 3731
3.203 3.566 1.154 3887
3.205 3.568 1.140 3343
3.326 3.703 1.163 2297
3.354 3.734 1.157 2539
3.361 3.742 1.144 4007
3.446 3.836 1.154 4158
3.453 3.844 1.141 4049
3.476 3.870 1.132 3807
3.478 3.872 1.117 4129
3.480 3.874 1.102 6007
3.482 3.876 1.087 6447
3.484 3.878 1.072 7771
3.491 3.886 1.058 12114
3.493 3.888 1.043 13140
3.494 3.890 1.028 10563
3.486 3.880 1.010 10551
3.487 3.882 0.995 11027
3.484 3.878 0.979 8539
3.491 3.885 0.965 5387
3.853 4.289 1.034 5169
3.854 4.291 1.017 3492
3.924 4.368 1.016 4502
3.921 4.364 0.998 6006
3.922 4.366 0.981 4315
4.165 4.636 1.015 2929
3.915 4.358 0.945 3133
3.932 4.377 0.931 3596
4.196 4.671 0.966 3653
4.187 4.661 0.946 4130
4.183 4.657 0.927 2714
4.547 5.062 0.976 2946
4.538 5.052 0.954 3377
4.545 5.060 0.936 2841
4.563 5.079 0.919 2559
4.327 4.817 0.859 1973
4.981 5.545 0.947 1480
4.535 5.049 0.854 1478
5.010 5.577 0.908 1833
4.559 5.075 0.818 1950
4.560 5.076 0.798 2163
5.125 5.705 0.858 2555
5.121 5.701 0.835 3489
5.249 5.843 0.830 4597
5.440 6.056 0.831 4704
5.436 6.052 0.807 5465
5.438 6.053 0.783 4529
5.444 6.060 0.760 4267
5.456 6.073 0.738 4945
5.462 6.080 0.715 5098
5.458 6.076 0.690 4728
5.454 6.071 0.666 3810
6.120 6.813 0.704 3334
6.142 6.837 0.680 2469
0.803 0.894 0.204 3625
0.798 0.888 0.200 5916
0.798 0.888 0.197 10006
0.798 0.888 0.194 13289
0.798 0.889 0.190 15236
0.798 0.889 0.187 16856
0.798 0.889 0.184 17184
0.799 0.889 0.180 16616
0.799 0.889 0.177 15324
0.799 0.889 0.174 12339
0.799 0.889 0.170 9325
0.799 0.889 0.167 7454
0.799 0.889 0.164 5232
0.794 0.883 0.160 2894
0.799 0.889 0.157 1889
0.799 0.889 0.154 1148
0.799 0.889 0.150 441
0.936 1.042 0.085 366
0.930 1.036 0.082 602
0.930 1.036 0.078 850
0.930 1.035 0.074 991
0.930 1.035 0.070 1132
0.925 1.029 0.067 985
0.925 1.029 0.063 846
0.924 1.029 0.059 978
0.924 1.029 0.055 1111
0.924 1.029 0.051 1513
0.924 1.028 0.047 1916
0.924 1.028 0.043 2175
0.929 1.034 0.039 2333
0.929 1.034 0.035 2091
0.923 1.028 0.032 1949
0.928 1.033 0.027 1691
0.928 1.033 0.023 1434
0.928 1.033 0.019 1108
0.927 1.032 0.016 782
0.927 1.032 0.012 564
0.927 1.032 0.008 330
0.921 1.026 0.005 307
1.311 1.454 1.522 4164
1.313 1.457 1.516 8329
1.316 1.460 1.511 8161
1.323 1.468 1.510 8221
1.326 1.471 1.504 8221
1.398 1.551 1.572 9825
1.405 1.559 1.570 15614
1.412 1.566 1.569 17543
1.415 1.570 1.563 19783
1.417 1.573 1.557 19783
1.420 1.576 1.551 18897
1.423 1.579 1.545 18011
1.430 1.587 1.543 16875
1.437 1.595 1.541 16126
1.440 1.598 1.535 13103
1.443 1.601 1.529 10079
1.441 1.599 1.519 7182
1.430 1.587 1.500 5071
1.446 1.605 1.506 4055
1.511 1.677 1.560 4565
1.519 1.685 1.558 4187
1.526 1.693 1.556 4623
1.529 1.696 1.549 5225
1.527 1.694 1.539 5487
1.516 1.682 1.520 6286
1.541 1.710 1.534 6414
1.553 1.723 1.536 7587
1.556 1.726 1.529 8348
1.554 1.724 1.518 9063
1.552 1.722 1.508 8982
1.555 1.725 1.501 7345
1.562 1.733 1.499 5787
1.565 1.736 1.492 4432
1.604 1.779 1.517 4487
1.606 1.782 1.510 5656
1.609 1.785 1.504 6824
1.616 1.793 1.501 5828
1.619 1.796 1.494 4848
1.617 1.794 1.483 4207
1.624 1.802 1.480 4064
1.636 1.815 1.481 4870
1.653 1.834 1.485 4766
1.660 1.842 1.482 5186
1.718 1.906 1.521 5277
1.726 1.915 1.517 7343
1.728 1.918 1.510 7554
1.740 1.931 1.510 6116
1.682 1.866 1.454 6258
1.755 1.947 1.503 8587
1.758 1.950 1.495 14224
1.765 1.958 1.491 16902
1.768 1.961 1.484 15204
1.770 1.964 1.476 10775
1.768 1.962 1.465 8077
1.780 1.975 1.465 9172
1.788 1.983 1.461 10680
1.828 2.028 1.481 12117
1.826 2.026 1.470 14256
1.824 2.023 1.459 15452
1.850 2.053 1.468 14485
1.843 2.045 1.454 16647
1.841 2.043 1.442 16751
1.839 2.040 1.431 12334
1.841 2.043 1.423 9713
1.848 2.051 1.419 11040
1.851 2.054 1.411 10923
1.868 2.072 1.413 12328
1.870 2.075 1.405 15208
1.873 2.078 1.397 13255
1.870 2.075 1.385 7210
1.825 2.024 1.345 5431
1.832 2.032 1.340 6718
1.834 2.035 1.333 6524
1.836 2.038 1.325 5323
1.844 2.045 1.320 3618
2.040 2.264 1.438 3319
2.043 2.267 1.429 3691
1.914 2.123 1.337 4022
1.911 2.121 1.325 4499
1.816 2.015 1.256 5861
1.813 2.012 1.245 6101
1.815 2.014 1.237 5831
1.817 2.016 1.230 5506
2.094 2.324 1.389 4820
2.195 2.436 1.439 6652
2.198 2.438 1.430 6266
2.200 2.441 1.420 5631
2.203 2.444 1.411 5442
2.195 2.436 1.396 6309
2.213 2.455 1.395 6660
2.220 2.463 1.388 8057
2.227 2.471 1.381 10054
2.230 2.474 1.372 10037
2.237 2.482 1.365 10733
2.245 2.490 1.358 8749
2.247 2.493 1.348 4957
2.274 2.523 1.352 5058
2.297 2.548 1.353 5954
2.304 2.556 1.346 5461
2.351 2.609 1.360 7225
2.339 2.595 1.342 8567
2.341 2.597 1.332 5325
2.363 2.622 1.332 3693
2.376 2.636 1.327 5279
2.383 2.644 1.319 8007
2.395 2.658 1.314 8732
2.408 2.671 1.309 7743
2.445 2.713 1.316 5347
2.458 2.727 1.310 4163
2.455 2.724 1.297 5505
2.457 2.726 1.287 6298
2.515 2.790 1.302 6153
2.522 2.799 1.294 7191
2.540 2.818 1.290 7080
2.552 2.832 1.283 7474
2.559 2.840 1.275 6541
2.597 2.882 1.280 4865
2.610 2.895 1.273 5761
2.683 2.977 1.293 9447
2.685 2.979 1.281 7175
2.693 2.987 1.272 7138
2.710 3.007 1.267 7978
2.733 3.032 1.264 8814
2.740 3.040 1.254 6993
2.763 3.065 1.250 7113
2.760 3.062 1.236 5718
2.854 3.167 1.261 3520
2.846 3.158 1.245 5562
2.848 3.160 1.233 6497
2.850 3.162 1.220 5492
2.842 3.153 1.204 3941
2.854 3.167 1.196 3855
2.970 3.295 1.225 3478
3.023 3.354 1.232 5882
3.025 3.357 1.218 8580
3.027 3.359 1.205 8043
3.024 3.355 1.191 10564
3.042 3.375 1.183 10914
3.049 3.383 1.172 7682
3.046 3.379 1.157 4512
3.182 3.531 1.188 4515
3.174 3.522 1.171 5673
3.192 3.541 1.163 4701
3.204 3.555 1.152 4907
3.206 3.557 1.138 3250
3.332 3.697 1.163 2444
3.355 3.723 1.155 3002
3.362 3.730 1.142 4747
3.453 3.831 1.154 4494
3.465 3.844 1.142 5212
3.482 3.864 1.132 4320
3.453 3.831 1.108 3208
3.481 3.862 1.100 5394
3.483 3.864 1.085 6780
3.490 3.872 1.072 8606
3.497 3.880 1.058 13902
3.499 3.882 1.043 13624
3.495 3.878 1.026 9019
3.492 3.874 1.010 8877
3.488 3.870 0.994 10069
3.490 3.872 0.979 7861
3.847 4.269 1.048 5355
3.854 4.277 1.033 5716
3.861 4.284 1.017 4389
3.863 4.286 1.001 4248
3.928 4.358 0.998 5037
3.924 4.354 0.980 3876
4.172 4.629 1.015 3523
3.917 4.346 0.944 3411
3.929 4.359 0.929 3357
4.209 4.670 0.967 4224
4.195 4.654 0.946 4292
4.254 4.720 0.939 3094
4.556 5.054 0.976 2661
4.557 5.056 0.956 2897
4.564 5.064 0.937 2690
4.571 5.071 0.919 2568
4.562 5.061 0.897 1939
4.537 5.034 0.873 1813
4.544 5.041 0.854 1945
5.019 5.569 0.908 1841
4.567 5.068 0.818 2062
4.569 5.069 0.798 2195
5.129 5.691 0.857 2524
5.131 5.693 0.835 3466
5.259 5.835 0.830 3971
5.450 6.047 0.831 4368
5.446 6.043 0.807 4904
5.447 6.044 0.783 4120
5.454 6.051 0.760 4152
5.466 6.064 0.738 4894
5.472 6.072 0.715 4941
5.468 6.067 0.690 4537
6.130 6.802 0.731 4190
6.126 6.797 0.704 3714
0.799 0.887 0.207 3253
0.805 0.893 0.204 4754
0.799 0.887 0.200 7392
0.800 0.887 0.197 11930
0.800 0.887 0.194 15447
0.800 0.887 0.190 17577
0.800 0.887 0.187 19394
0.800 0.888 0.184 19786
0.800 0.888 0.180 19212
0.800 0.888 0.177 17815
0.800 0.888 0.174 14499
0.800 0.888 0.170 11109
0.800 0.888 0.167 8966
0.800 0.888 0.164 6359
0.795 0.882 0.160 3640
0.795 0.882 0.157 2426
0.800 0.888 0.154 1517
0.800 0.888 0.150 625
0.800 0.888 0.147 344
0.927 1.028 0.086 344
0.927 1.028 0.082 589
0.927 1.028 0.078 835
0.932 1.034 0.074 1060
0.932 1.034 0.070 1299
0.926 1.028 0.067 1419
0.926 1.028 0.063 1556
0.926 1.027 0.059 1575
0.926 1.027 0.055 1594
0.926 1.027 0.051 1463
0.931 1.033 0.047 1334
0.931 1.033 0.043 1132
0.936 1.038 0.038 910
0.936 1.038 0.034 758
0.935 1.038 0.030 643
0.935 1.038 0.027 600
0.935 1.037 0.023 558
0.935 1.037 0.019 450
0.934 1.037 0.015 343
0.929 1.031 0.012 259
1.207 1.339 -0.049 302
1.201 1.333 -0.053 342
1.201 1.333 -0.058 568
1.195 1.326 -0.062 1056
1.316 1.449 1.522 4668
1.318 1.452 1.516 9336
1.325 1.460 1.515 9277
1.332 1.468 1.514 9460
1.335 1.471 1.509 9460
1.407 1.550 1.576 10264
1.410 1.554 1.570 16411
1.417 1.561 1.569 18659
1.420 1.565 1.563 21117
1.423 1.568 1.557 21117
1.426 1.571 1.551 20245
1.429 1.574 1.545 19372
1.436 1.582 1.543 18262
1.443 1.590 1.541 17461
1.446 1.593 1.535 13914
1.448 1.596 1.529 10368
1.451 1.599 1.523 7822
1.445 1.592 1.508 5409
1.456 1.605 1.511 5210
1.468 1.617 1.513 5372
1.525 1.680 1.558 4478
1.532 1.688 1.556 5140
1.535 1.691 1.549 5944
1.537 1.694 1.543 5973
1.527 1.682 1.524 6263
1.534 1.690 1.522 6427
1.555 1.713 1.532 7031
1.562 1.721 1.529 7613
1.560 1.719 1.518 8193
1.558 1.717 1.508 8274
1.561 1.720 1.501 6756
1.568 1.728 1.499 5288
1.612 1.776 1.528 5141
1.615 1.779 1.521 5288
1.613 1.777 1.510 6363
1.615 1.780 1.504 7469
1.618 1.783 1.497 6376
1.625 1.791 1.494 5291
1.628 1.794 1.487 4481
1.640 1.807 1.488 4759
1.647 1.815 1.485 6278
1.659 1.828 1.485 5895
1.671 1.841 1.486 6082
1.725 1.900 1.521 4904
1.732 1.909 1.517 6554
1.735 1.911 1.510 6539
1.747 1.925 1.510 5787
1.689 1.861 1.454 6512
1.757 1.936 1.499 8306
1.765 1.944 1.495 13626
1.772 1.952 1.491 16308
1.770 1.950 1.480 14844
1.772 1.953 1.473 10287
1.756 1.935 1.451 7275
1.782 1.964 1.461 7105
1.828 2.014 1.486 9135
1.835 2.022 1.481 12719
1.833 2.019 1.470 15106
1.831 2.017 1.459 16690
1.838 2.025 1.454 15789
1.846 2.033 1.450 18635
1.848 2.036 1.442 19896
1.846 2.034 1.431 14935
1.848 2.036 1.423 11421
1.856 2.044 1.419 11398
1.868 2.058 1.417 10796
1.870 2.061 1.409 12453
1.873 2.063 1.401 15343
1.875 2.066 1.393 13413
1.878 2.069 1.385 7549
1.837 2.023 1.348 4755
1.839 2.026 1.340 6112
1.841 2.028 1.333 6128
1.844 2.031 1.325 4998
1.851 2.039 1.320 3387
2.039 2.246 1.432 4378
2.041 2.249 1.423 4670
1.921 2.117 1.337 5533
1.919 2.114 1.325 6601
1.921 2.116 1.317 6108
1.825 2.011 1.248 4324
1.822 2.008 1.237 3953
1.825 2.010 1.230 3614
2.108 2.322 1.392 5117
2.110 2.325 1.383 6550
2.201 2.425 1.427 6037
2.209 2.433 1.420 4610
2.211 2.436 1.411 4679
2.204 2.428 1.396 5551
2.211 2.436 1.389 4696
2.229 2.455 1.388 4382
2.231 2.458 1.378 6023
2.234 2.461 1.369 8256
2.246 2.474 1.365 10789
2.248 2.477 1.355 9067
2.251 2.480 1.346 5827
2.283 2.515 1.352 4966
2.306 2.540 1.353 5779
2.308 2.543 1.343 5839
2.360 2.600 1.360 7408
2.353 2.592 1.345 8916
2.355 2.595 1.334 5515
1.940 2.137 1.111 3171
2.390 2.633 1.330 4709
2.397 2.641 1.322 8039
2.405 2.649 1.314 9475
2.417 2.663 1.309 8905
2.435 2.682 1.306 5512
2.472 2.724 1.313 4446
2.470 2.721 1.300 5785
2.467 2.717 1.287 6702
2.525 2.781 1.302 6072
2.537 2.795 1.296 7285
2.550 2.809 1.290 7160
2.562 2.823 1.283 7610
2.569 2.831 1.275 6556
2.612 2.878 1.282 4628
2.620 2.886 1.273 5428
2.694 2.967 1.293 9583
2.686 2.959 1.277 7076
2.708 2.984 1.274 5058
2.731 3.009 1.271 7220
2.738 3.017 1.261 8035
2.740 3.019 1.250 6332
2.768 3.050 1.248 5530
2.776 3.058 1.238 5251
2.834 3.122 1.249 4826
2.847 3.136 1.241 7209
2.854 3.144 1.231 8419
2.851 3.141 1.216 5957
2.853 3.143 1.204 3912
2.860 3.151 1.194 4989
2.883 3.176 1.189 3538
3.035 3.344 1.232 5715
3.042 3.352 1.220 8227
3.044 3.354 1.207 7338
3.052 3.362 1.196 8929
3.054 3.364 1.183 10144
3.061 3.372 1.172 6678
3.182 3.506 1.199 3764
3.200 3.525 1.190 5793
3.192 3.516 1.173 6620
3.204 3.530 1.163 6108
3.211 3.538 1.151 6357
3.213 3.540 1.137 4252
3.335 3.674 1.160 2492
3.353 3.693 1.150 3259
3.375 3.719 1.142 4963
3.466 3.818 1.154 4637
3.479 3.832 1.142 6219
3.491 3.846 1.130 5158
3.404 3.750 1.090 3746
3.495 3.850 1.100 4884
3.497 3.852 1.085 7346
3.504 3.860 1.072 9082
3.506 3.862 1.056 14389
3.507 3.864 1.041 13315
3.504 3.860 1.025 8362
3.500 3.856 1.009 8207
3.502 3.858 0.994 9207
3.504 3.860 0.979 7008
3.863 4.255 1.048 6469
3.870 4.263 1.033 6213
3.877 4.271 1.017 5203
3.878 4.273 1.001 5493
3.875 4.269 0.983 4342
3.929 4.328 0.978 3737
4.189 4.615 1.015 3906
3.932 4.332 0.944 3664
4.250 4.682 0.991 3700
4.252 4.684 0.972 4956
4.264 4.697 0.956 5046
4.271 4.705 0.939 3511
4.177 4.602 0.903 2922
4.258 4.691 0.899 2776
4.582 5.048 0.937 2548
4.361 4.805 0.880 2518
4.310 4.748 0.852 2092
4.555 5.018 0.873 2170
4.561 5.025 0.854 2277
4.573 5.038 0.836 1800
4.585 5.051 0.818 1982
4.587 5.053 0.798 2070
5.149 5.673 0.857 2527
5.151 5.674 0.835 3402
5.279 5.816 0.830 3370
5.472 6.028 0.831 3887
5.468 6.023 0.807 4213
5.469 6.025 0.783 3553
5.475 6.032 0.760 3749
5.487 6.045 0.738 4444
5.494 6.052 0.715 4388
5.489 6.047 0.690 4004
6.154 6.780 0.731 4641
6.150 6.775 0.704 4054
0.802 0.884 0.207 3808
0.808 0.890 0.204 5401
0.803 0.884 0.200 8140
0.803 0.884 0.197 12857
0.803 0.884 0.194 16524
0.803 0.884 0.190 18830
0.803 0.885 0.187 20897
0.803 0.885 0.184 21476
0.803 0.885 0.180 20948
0.803 0.885 0.177 19481
0.803 0.885 0.174 15887
0.803 0.885 0.170 12209
0.803 0.885 0.167 9887
0.803 0.885 0.164 7028
0.798 0.879 0.160 4107
0.798 0.879 0.157 2778
0.804 0.885 0.154 1761
0.798 0.879 0.150 802
0.804 0.885 0.147 482
0.804 0.885 0.144 319
0.925 1.019 0.082 310
0.925 1.019 0.079 398
0.936 1.031 0.074 596
0.935 1.031 0.070 821
0.935 1.030 0.066 1102
0.935 1.030 0.062 1383
0.935 1.030 0.058 1615
0.935 1.030 0.054 1848
0.935 1.030 0.051 1824
0.934 1.029 0.047 1800
0.934 1.029 0.043 1531
0.934 1.029 0.039 1220
0.934 1.029 0.035 833
0.923 1.017 0.032 507
0.928 1.023 0.028 401
0.928 1.022 0.024 297
0.928 1.022 0.020 252
1.197 1.319 -0.031 285
1.197 1.318 -0.036 447
1.202 1.324 -0.042 568
1.201 1.323 -0.047 915
1.196 1.317 -0.051 1145
1.195 1.317 -0.056 1598
1.195 1.316 -0.061 2731
1.320 1.446 1.522 5071
1.322 1.449 1.516 10143
1.329 1.457 1.515 10171
1.336 1.464 1.514 10468
1.339 1.467 1.509 10468
1.412 1.547 1.576 10609
1.414 1.550 1.570 16844
1.422 1.558 1.569 19324
1.424 1.561 1.563 21943
1.427 1.564 1.557 21943
1.430 1.567 1.551 20952
1.437 1.575 1.549 20039
1.440 1.578 1.543 18833
1.447 1.586 1.541 17920
1.450 1.589 1.535 14049
1.453 1.592 1.529 10178
1.455 1.595 1.523 8283
1.458 1.598 1.517 6389
1.465 1.606 1.515 6382
1.472 1.613 1.513 6601
1.480 1.621 1.511 4734
1.536 1.683 1.556 5486
1.539 1.686 1.549 6408
1.542 1.689 1.543 6243
1.540 1.688 1.532 6113
1.529 1.676 1.513 6388
1.559 1.708 1.532 6313
1.566 1.716 1.529 6819
1.565 1.714 1.518 7407
1.558 1.707 1.504 7766
1.565 1.715 1.501 6264
1.614 1.768 1.535 5561
1.621 1.777 1.532 5667
1.624 1.780 1.525 5823
1.618 1.772 1.510 6594
1.620 1.775 1.504 7559
1.623 1.778 1.497 6511
1.626 1.781 1.490 5463
1.633 1.789 1.487 4852
1.649 1.807 1.492 6034
1.657 1.815 1.489 7725
1.664 1.823 1.485 6862
1.676 1.837 1.486 6691
1.674 1.834 1.475 5023
1.738 1.904 1.517 5544
1.745 1.912 1.514 5364
1.687 1.848 1.458 5482
1.694 1.856 1.454 6703
1.758 1.926 1.495 8131
1.770 1.939 1.495 13034
1.772 1.942 1.488 15790
1.775 1.945 1.480 14871
1.773 1.943 1.469 10779
1.766 1.935 1.454 7988
1.769 1.938 1.447 6319
1.833 2.009 1.486 9120
1.841 2.017 1.481 12693
1.838 2.014 1.470 15137
1.836 2.012 1.459 17000
1.844 2.020 1.454 16279
1.851 2.028 1.450 19480
1.854 2.031 1.442 22027
1.851 2.029 1.431 17241
1.854 2.031 1.423 13086
1.856 2.034 1.415 11586
1.873 2.053 1.417 10232
1.876 2.055 1.409 12057
1.878 2.058 1.401 14627
1.881 2.061 1.393 12880
1.878 2.058 1.382 7651
2.007 2.200 1.459 5232
2.010 2.202 1.450 6491
2.017 2.211 1.445 6560
2.025 2.219 1.440 4863
2.037 2.232 1.437 3728
2.040 2.235 1.429 5508
2.042 2.238 1.420 6268
1.922 2.106 1.334 6714
1.924 2.109 1.325 8219
1.927 2.111 1.317 7662
1.929 2.114 1.309 5393
2.099 2.300 1.404 4058
2.111 2.314 1.401 4017
2.119 2.322 1.395 6008
2.121 2.324 1.386 7175
2.188 2.398 1.415 6367
2.156 2.362 1.385 5154
2.218 2.430 1.411 4428
2.210 2.422 1.396 4985
2.213 2.425 1.386 3520
2.220 2.433 1.380 2034
2.233 2.447 1.376 3035
2.245 2.460 1.372 7074
2.253 2.468 1.365 10848
2.255 2.471 1.355 8891
2.257 2.474 1.346 6037
2.285 2.504 1.350 4727
2.312 2.534 1.353 5479
2.315 2.536 1.343 6242
2.372 2.600 1.363 7818
2.360 2.586 1.345 9732
2.362 2.588 1.334 6353
1.935 2.121 1.106 3363
2.407 2.638 1.335 4505
2.404 2.635 1.322 7794
2.412 2.643 1.314 9307
2.424 2.656 1.309 8802
2.437 2.670 1.303 5463
2.485 2.723 1.315 4600
2.482 2.720 1.302 6089
2.474 2.711 1.287 6947
2.532 2.775 1.302 5587
2.545 2.788 1.296 6954
2.557 2.802 1.290 6654
2.570 2.816 1.283 6895
2.577 2.824 1.275 5990
2.625 2.877 1.284 4812
2.628 2.879 1.273 5248
2.701 2.960 1.293 9377
2.693 2.951 1.277 7555
2.742 3.004 1.285 4149
2.744 3.007 1.273 6958
2.746 3.009 1.261 7343
2.749 3.012 1.250 5769
2.843 3.116 1.275 4663
2.830 3.101 1.257 5846
2.843 3.115 1.249 7127
2.850 3.123 1.239 8281
2.857 3.131 1.229 9522
2.859 3.133 1.216 7246
2.862 3.135 1.204 4958
2.874 3.149 1.196 5895
2.938 3.219 1.206 4110
3.008 3.296 1.218 5365
2.989 3.275 1.198 7446
3.064 3.357 1.211 7022
3.071 3.365 1.200 8448
3.068 3.362 1.185 8974
3.065 3.358 1.170 5357
3.197 3.503 1.200 5064
3.209 3.517 1.190 7156
3.206 3.513 1.175 7535
3.208 3.515 1.161 7487
3.215 3.523 1.149 7704
3.217 3.526 1.135 5596
3.219 3.528 1.121 3056
3.336 3.656 1.143 3783
3.359 3.681 1.134 4588
3.482 3.815 1.156 4402
3.494 3.829 1.144 6570
3.501 3.836 1.130 5887
3.419 3.747 1.092 4098
3.505 3.841 1.100 5865
3.507 3.843 1.085 7893
3.509 3.845 1.070 9140
3.516 3.852 1.056 13655
3.518 3.854 1.041 12279
3.514 3.851 1.025 8268
3.511 3.847 1.009 8366
3.512 3.849 0.994 8430
3.509 3.845 0.977 6179
3.869 4.239 1.047 7270
3.876 4.247 1.032 6533
3.888 4.260 1.017 5693
3.890 4.262 1.001 6203
3.881 4.252 0.982 4756
4.025 4.410 0.996 4147
4.027 4.412 0.978 4585
4.198 4.599 0.996 4087
4.183 4.584 0.975 4541
4.264 4.673 0.972 5447
4.277 4.686 0.956 5563
4.283 4.694 0.939 3715
4.190 4.591 0.903 3773
4.191 4.592 0.885 3173
4.283 4.693 0.883 2516
4.374 4.793 0.880 2408
4.323 4.737 0.852 2150
4.568 5.005 0.873 2306
4.570 5.007 0.853 2368
5.219 5.718 0.933 1753
5.151 5.644 0.900 1835
5.179 5.675 0.882 1880
5.165 5.659 0.857 2419
5.171 5.666 0.836 3195
5.226 5.726 0.821 3335
5.227 5.728 0.798 3569
5.484 6.009 0.807 3551
5.235 5.736 0.754 3561
5.492 6.017 0.760 3123
5.503 6.030 0.738 3727
5.510 6.037 0.715 3600
6.171 6.762 0.758 3441
6.172 6.763 0.731 5003
6.168 6.759 0.704 4274
0.805 0.882 0.207 3869
0.810 0.888 0.204 5423
0.805 0.882 0.200 8062
0.805 0.882 0.197 12769
0.805 0.882 0.194 16543
0.805 0.882 0.190 18991
0.805 0.882 0.187 21330
0.805 0.883 0.184 22153
0.805 0.883 0.180 21670
0.806 0.883 0.177 20146
0.806 0.883 0.174 16332
0.800 0.877 0.170 12479
0.806 0.883 0.167 10032
0.806 0.883 0.164 7059
0.801 0.877 0.160 4126
0.801 0.877 0.157 2817
0.806 0.883 0.154 1798
0.801 0.877 0.150 861
0.806 0.883 0.147 540
0.806 0.883 0.144 390
0.806 0.883 0.140 309
0.806 0.883 0.137 277
0.933 1.022 0.067 305
0.933 1.022 0.063 432
0.932 1.022 0.059 578
0.932 1.022 0.055 724
0.937 1.027 0.051 732
0.937 1.027 0.047 749
0.937 1.027 0.043 623
0.942 1.032 0.038 486
0.942 1.032 0.034 345
1.201 1.315 -0.031 376
1.200 1.315 -0.036 550
1.200 1.315 -0.041 613
1.199 1.314 -0.046 874
1.199 1.314 -0.051 1071
1.199 1.314 -0.056 1396
1.198 1.313 -0.061 2321
1.326 1.449 1.527 5434
1.329 1.452 1.521 10868
1.336 1.460 1.520 10836
1.338 1.463 1.514 11172
1.341 1.465 1.509 11172
1.414 1.545 1.576 10804
1.416 1.548 1.570 17023
1.424 1.556 1.569 19664
1.426 1.559 1.563 22395
1.429 1.562 1.557 22395
1.432 1.565 1.551 21228
1.439 1.573 1.549 20258
1.442 1.576 1.543 18899
1.449 1.584 1.541 17845
1.452 1.587 1.535 13778
1.455 1.590 1.529 9711
1.462 1.598 1.527 8593
1.465 1.601 1.521 7489
1.467 1.604 1.515 7472
1.475 1.611 1.513 7655
1.482 1.619 1.511 5367
1.534 1.676 1.552 5708
1.541 1.684 1.549 6631
1.544 1.687 1.543 6346
1.547 1.690 1.536 6062
1.527 1.669 1.509 6682
1.530 1.672 1.503 6719
1.519 1.660 1.484 6142
1.567 1.712 1.518 6837
1.560 1.705 1.504 7579
1.563 1.708 1.497 6071
1.616 1.766 1.535 5856
1.624 1.774 1.532 5949
1.631 1.782 1.529 6061
1.620 1.770 1.510 6481
1.618 1.768 1.500 7371
1.625 1.776 1.497 6394
1.628 1.779 1.490 5494
1.640 1.792 1.491 5181
1.657 1.810 1.496 7195
1.659 1.813 1.489 9068
1.667 1.821 1.485 7762
1.678 1.834 1.486 7136
1.676 1.832 1.475 5125
1.735 1.896 1.514 4482
1.677 1.833 1.457 4763
1.689 1.846 1.458 5621
1.696 1.854 1.454 6948
1.760 1.924 1.495 8107
1.768 1.932 1.491 12683
1.775 1.940 1.488 15457
1.773 1.937 1.476 15128
1.771 1.935 1.465 12241
1.769 1.933 1.454 9259
1.771 1.936 1.447 6632
1.841 2.011 1.489 8916
1.843 2.014 1.481 12117
1.841 2.012 1.470 14507
1.839 2.010 1.459 16681
1.842 2.012 1.451 16250
1.849 2.021 1.447 19715
1.851 2.023 1.439 23487
1.854 2.026 1.431 19290
1.857 2.029 1.423 14787
1.859 2.032 1.415 11962
1.871 2.045 1.414 9527
1.879 2.053 1.409 11329
1.881 2.056 1.401 13545
1.884 2.058 1.393 12079
1.881 2.056 1.382 7599
2.010 2.197 1.459 6225
2.013 2.200 1.450 7815
2.015 2.203 1.442 7897
2.023 2.211 1.436 5793
2.040 2.229 1.437 4222
2.043 2.232 1.429 6433
2.045 2.235 1.420 7785
1.925 2.104 1.334 7516
1.927 2.106 1.325 9315
1.930 2.109 1.317 8765
1.932 2.111 1.309 6308
2.097 2.292 1.401 5220
2.114 2.311 1.401 4900
2.122 2.319 1.395 6865
2.124 2.322 1.386 7661
2.191 2.395 1.415 6913
2.154 2.354 1.382 6859
2.152 2.351 1.370 5959
2.144 2.343 1.355 5042
2.221 2.427 1.389 3770
2.234 2.441 1.385 3329
2.246 2.454 1.381 3786
2.248 2.457 1.372 7384
2.261 2.471 1.368 11014
2.263 2.473 1.358 8450
2.261 2.471 1.346 5704
2.268 2.479 1.339 4569
2.316 2.531 1.353 4947
2.318 2.533 1.343 6460
2.376 2.596 1.363 7568
2.363 2.582 1.345 9537
2.366 2.585 1.334 6338
1.923 2.102 1.098 3835
2.416 2.640 1.337 4571
2.413 2.637 1.324 7034
2.415 2.640 1.314 8253
2.428 2.653 1.309 7749
2.440 2.667 1.303 5052
2.488 2.719 1.315 4521
2.491 2.722 1.304 6201
2.483 2.713 1.289 7096
2.536 2.771 1.302 5025
2.554 2.791 1.298 6690
2.561 2.799 1.290 6045
2.573 2.812 1.283 5679
2.586 2.826 1.277 5281
2.629 2.873 1.284 5338
2.626 2.870 1.271 5161
2.700 2.951 1.291 8811
2.692 2.942 1.275 7812
2.746 3.001 1.285 4304
2.748 3.003 1.273 6688
2.745 3.000 1.259 6624
2.753 3.008 1.250 4947
2.827 3.089 1.267 5072
2.834 3.097 1.257 7502
2.842 3.105 1.247 8897
2.849 3.113 1.237 9069
2.856 3.121 1.227 9984
2.858 3.124 1.215 9234
2.866 3.132 1.204 6743
2.930 3.202 1.215 7122
2.948 3.221 1.208 4920
2.960 3.235 1.200 4973
3.056 3.339 1.220 6308
3.068 3.353 1.211 6301
3.076 3.361 1.200 7719
3.072 3.358 1.185 7549
3.194 3.491 1.212 5232
3.207 3.504 1.202 6225
3.209 3.507 1.188 8287
3.211 3.509 1.175 8320
3.213 3.511 1.161 8642
3.220 3.519 1.149 8598
3.222 3.521 1.135 6460
3.219 3.518 1.120 3749
3.341 3.651 1.143 4612
3.343 3.653 1.128 5159
3.487 3.810 1.156 3880
3.499 3.824 1.144 6426
3.512 3.837 1.132 6392
3.519 3.845 1.118 5099
3.515 3.842 1.102 7069
3.517 3.844 1.087 8258
3.514 3.840 1.070 8649
3.521 3.848 1.056 11767
3.518 3.844 1.040 10680
3.514 3.840 1.024 8253
3.516 3.842 1.009 8463
3.512 3.838 0.992 7667
3.514 3.840 0.977 5415
3.874 4.234 1.047 7722
3.881 4.242 1.032 6647
3.894 4.255 1.017 5857
3.895 4.257 1.001 6398
3.887 4.247 0.982 4802
4.031 4.405 0.996 4871
4.033 4.407 0.978 5353
4.198 4.588 0.995 4947
4.189 4.578 0.975 6671
4.271 4.667 0.972 5729
4.283 4.680 0.956 5848
4.194 4.584 0.921 4584
4.196 4.585 0.903 4887
4.197 4.587 0.885 4334
4.204 4.594 0.868 3212
4.375 4.781 0.879 2198
4.329 4.731 0.852 2101
4.575 4.999 0.873 2320
4.576 5.001 0.853 2321
5.226 5.711 0.933 1717
5.159 5.637 0.900 1814
5.187 5.668 0.882 1892
5.172 5.652 0.857 2340
5.179 5.659 0.836 3028
5.233 5.719 0.821 3475
5.235 5.721 0.798 3776
5.241 5.728 0.776 3685
5.243 5.729 0.754 3651
5.244 5.730 0.731 2665
5.511 6.023 0.738 2975
5.518 6.030 0.715 2770
6.180 6.754 0.758 3544
6.181 6.755 0.731 5249
6.177 6.750 0.704 4401
0.806 0.881 0.207 3572
0.811 0.887 0.204 5004
0.806 0.881 0.200 7498
0.806 0.881 0.197 12270
0.806 0.881 0.194 16346
0.806 0.881 0.190 19039
0.806 0.881 0.187 21733
0.807 0.881 0.184 22819
0.807 0.882 0.180 22342
0.807 0.882 0.177 20758
0.807 0.882 0.174 16696
0.802 0.876 0.170 12722
0.802 0.876 0.167 10089
0.807 0.882 0.164 7005
0.802 0.876 0.160 4085
0.802 0.876 0.157 2787
0.807 0.882 0.154 1760
0.802 0.876 0.150 844
0.807 0.882 0.147 532
0.807 0.882 0.144 394
0.807 0.882 0.140 315
0.807 0.882 0.137 279
0.940 1.027 0.078 283
0.940 1.027 0.074 366
0.945 1.033 0.070 449
0.939 1.027 0.066 490
0.939 1.026 0.062 532
0.939 1.026 0.058 507
0.939 1.026 0.054 482
0.939 1.026 0.051 429
0.944 1.032 0.046 383
0.944 1.031 0.042 362
0.944 1.031 0.038 328
0.943 1.031 0.034 268
1.207 1.319 -0.047 369
1.206 1.318 -0.052 480
1.200 1.312 -0.056 703
1.200 1.311 -0.061 1195
1.330 1.445 1.527 5657
1.333 1.448 1.521 11314
1.340 1.455 1.520 11281
1.347 1.463 1.519 11566
1.350 1.466 1.513 11566
1.418 1.540 1.576 10774
1.421 1.544 1.570 16847
1.428 1.551 1.569 19582
1.431 1.554 1.563 22382
1.434 1.558 1.557 22382
1.437 1.561 1.551 21031
1.444 1.568 1.549 19988
1.447 1.571 1.543 18481
1.454 1.579 1.541 17274
1.457 1.582 1.535 13144
1.464 1.590 1.533 9056
1.467 1.593 1.527 8776
1.470 1.596 1.521 8496
1.477 1.604 1.519 8424
1.484 1.612 1.517 8532
1.487 1.615 1.511 5949
1.539 1.672 1.552 5633
1.542 1.675 1.545 6541
1.549 1.683 1.543 6247
1.552 1.686 1.536 5966
1.527 1.659 1.505 7334
1.530 1.662 1.498 7601
1.524 1.655 1.484 7241
1.558 1.693 1.506 6822
1.566 1.701 1.504 7705
1.568 1.703 1.497 6194
1.626 1.766 1.539 5926
1.629 1.769 1.532 5966
1.636 1.777 1.529 6088
1.625 1.765 1.510 6127
1.623 1.763 1.500 6997
1.631 1.771 1.497 6114
1.633 1.774 1.490 5448
1.645 1.787 1.491 5426
1.662 1.805 1.496 8152
1.665 1.808 1.489 10251
1.672 1.816 1.485 8608
1.679 1.824 1.482 7559
1.682 1.827 1.475 5296
1.680 1.825 1.464 4019
1.683 1.827 1.457 5058
1.695 1.841 1.458 5905
1.702 1.849 1.454 7312
1.761 1.913 1.492 8224
1.774 1.926 1.491 12579
1.781 1.934 1.488 15206
1.779 1.932 1.476 15808
1.777 1.930 1.465 13839
1.779 1.933 1.458 10674
1.777 1.930 1.447 7214
1.847 2.006 1.489 8490
1.849 2.009 1.481 10970
1.847 2.006 1.470 13228
1.826 1.983 1.445 16747
1.828 1.986 1.437 16871
1.855 2.015 1.447 19472
1.858 2.018 1.439 24285
1.860 2.020 1.431 20959
1.858 2.018 1.420 16709
1.860 2.021 1.412 12660
1.873 2.034 1.411 8823
1.885 2.047 1.409 10214
1.887 2.050 1.401 12074
1.890 2.053 1.393 11005
1.892 2.055 1.385 7475
2.017 2.191 1.459 6922
2.020 2.194 1.450 8788
2.022 2.196 1.442 8991
2.030 2.204 1.436 6680
2.047 2.223 1.437 4487
2.050 2.226 1.429 6993
2.052 2.229 1.420 8991
2.055 2.232 1.411 8583
1.934 2.100 1.325 9796
1.936 2.103 1.317 9306
1.938 2.105 1.309 6851
2.094 2.275 1.395 6578
2.122 2.304 1.401 5765
2.129 2.312 1.395 8224
2.136 2.320 1.389 9127
2.164 2.350 1.394 7602
2.161 2.347 1.382 7950
2.154 2.339 1.367 7110
2.151 2.336 1.355 5932
2.234 2.426 1.392 4789
2.246 2.439 1.388 5681
2.254 2.448 1.381 6268
2.261 2.456 1.375 8793
2.268 2.464 1.368 11129
2.276 2.472 1.361 7881
2.324 2.524 1.376 5599
2.271 2.466 1.336 4633
2.298 2.496 1.340 4418
2.326 2.526 1.343 6306
2.389 2.595 1.365 7497
2.371 2.575 1.345 9328
2.373 2.578 1.334 6228
1.919 2.085 1.093 4362
2.429 2.638 1.340 4748
2.421 2.630 1.324 5709
2.423 2.632 1.314 6472
2.446 2.657 1.314 6272
2.454 2.665 1.306 4542
2.497 2.712 1.315 4090
2.499 2.714 1.304 6137
2.496 2.711 1.291 7206
2.539 2.758 1.300 4605
2.562 2.783 1.298 6554
2.564 2.785 1.287 5664
2.577 2.799 1.281 4346
2.595 2.818 1.277 4501
2.638 2.865 1.284 5874
2.630 2.856 1.268 4980
2.709 2.943 1.291 7824
2.701 2.934 1.275 7514
2.703 2.936 1.263 4707
2.752 2.989 1.271 6119
2.744 2.980 1.255 5929
2.741 2.977 1.241 4025
2.836 3.081 1.267 5548
2.849 3.094 1.259 8400
2.851 3.097 1.247 9853
2.853 3.099 1.235 9864
2.855 3.101 1.223 10781
2.863 3.109 1.213 11273
2.875 3.123 1.204 8150
2.935 3.187 1.213 7503
2.895 3.144 1.185 4975
2.965 3.220 1.198 5129
2.977 3.234 1.189 5457
3.079 3.344 1.211 5399
3.091 3.357 1.201 6426
3.088 3.354 1.187 5795
3.205 3.481 1.212 5123
3.218 3.495 1.202 6751
3.220 3.497 1.188 8998
3.222 3.499 1.175 8793
3.224 3.501 1.161 9270
3.231 3.509 1.149 8823
3.233 3.511 1.135 6635
3.235 3.513 1.121 4304
3.347 3.635 1.141 5373
3.354 3.643 1.128 6083
3.356 3.645 1.114 3641
3.511 3.813 1.144 5766
3.523 3.827 1.132 6478
3.531 3.835 1.118 6163
3.532 3.837 1.103 7940
3.529 3.833 1.087 8478
3.526 3.829 1.070 7703
3.527 3.831 1.055 9220
3.524 3.827 1.039 8916
3.520 3.824 1.022 8016
3.528 3.831 1.009 8056
3.524 3.827 0.992 6777
3.885 4.220 1.064 5174
3.887 4.222 1.047 7832
3.889 4.224 1.030 6503
3.907 4.243 1.017 5649
3.908 4.245 1.001 6095
4.037 4.385 1.012 5206
4.044 4.393 0.996 5374
4.046 4.395 0.978 5880
4.212 4.575 0.995 6306
4.203 4.565 0.975 9247
4.205 4.567 0.957 7317
4.297 4.667 0.956 5758
4.208 4.571 0.921 5744
4.210 4.572 0.903 6095
4.211 4.574 0.885 5642
4.213 4.576 0.867 4506
4.220 4.583 0.850 2990
4.349 4.723 0.853 2033
4.590 4.985 0.873 2249
4.591 4.987 0.853 2231
5.238 5.689 0.932 1631
5.176 5.621 0.900 1736
5.204 5.652 0.882 1875
5.189 5.636 0.857 2209
5.196 5.644 0.836 2813
5.251 5.703 0.821 3560
5.252 5.705 0.798 3943
5.259 5.712 0.776 3972
5.260 5.713 0.754 3705
5.261 5.714 0.731 2404
5.530 6.006 0.738 2304
6.082 6.606 0.772 2334
6.201 6.735 0.758 3501
6.202 6.736 0.731 5370
6.203 6.737 0.704 4496
6.199 6.733 0.677 3054
0.814 0.884 0.204 4243
0.809 0.878 0.200 6702
0.809 0.879 0.197 11635
0.809 0.879 0.194 15938
0.809 0.879 0.190 18730
0.809 0.879 0.187 21594
0.809 0.879 0.184 22724
0.804 0.873 0.180 22247
0.809 0.879 0.177 20560
0.810 0.879 0.174 16369
0.804 0.873 0.170 12459
0.804 0.874 0.167 9823
0.804 0.874 0.163 6673
0.804 0.874 0.160 3849
0.804 0.874 0.157 2588
0.810 0.880 0.154 1575
0.804 0.874 0.150 712
0.810 0.880 0.147 427
0.815 0.885 0.144 307
0.943 1.024 0.066 289
0.942 1.024 0.062 349
0.942 1.023 0.058 346
0.942 1.023 0.054 344
0.947 1.029 0.050 330
0.947 1.029 0.046 322
0.947 1.028 0.042 339
0.947 1.028 0.038 342
0.946 1.028 0.034 291
0.941 1.022 0.031 263
1.206 1.310 -0.036 357
1.206 1.309 -0.041 419
1.205 1.309 -0.046 645
1.205 1.309 -0.051 810
1.205 1.308 -0.056 1118
1.204 1.308 -0.061 1891
1.335 1.441 1.527 5736
1.337 1.444 1.521 11473
1.344 1.451 1.520 11387
1.352 1.459 1.519 11688
1.354 1.462 1.513 11688
1.423 1.536 1.576 10573
1.426 1.539 1.570 16392
1.433 1.547 1.569 19164
1.436 1.550 1.563 21969
1.439 1.553 1.557 21969
1.441 1.556 1.551 20451
1.449 1.564 1.549 19338
1.451 1.567 1.543 17684
1.459 1.575 1.541 16307
1.462 1.578 1.535 12248
1.469 1.586 1.533 8252
1.472 1.589 1.527 8706
1.474 1.592 1.521 9161
1.482 1.600 1.519 9074
1.489 1.607 1.517 9089
1.492 1.610 1.511 6360
1.544 1.667 1.552 5373
1.551 1.675 1.549 6221
1.554 1.678 1.543 6041
1.530 1.652 1.511 6191
1.528 1.650 1.501 8255
1.531 1.652 1.494 8587
1.533 1.655 1.488 8229
1.559 1.683 1.502 7156
1.571 1.696 1.504 8011
1.573 1.699 1.497 6464
1.632 1.762 1.539 5827
1.639 1.770 1.536 5817
1.642 1.773 1.529 5927
1.631 1.760 1.510 5666
1.624 1.753 1.496 6585
1.631 1.761 1.493 5852
1.639 1.769 1.490 5411
1.651 1.782 1.491 5573
1.667 1.800 1.496 8911
1.670 1.803 1.489 11265
1.673 1.806 1.482 9518
1.685 1.819 1.482 8113
1.687 1.822 1.475 5791
1.690 1.825 1.468 4390
1.688 1.822 1.457 5383
1.700 1.836 1.458 6227
1.707 1.843 1.454 7637
1.767 1.908 1.492 8521
1.774 1.916 1.488 12652
1.782 1.924 1.484 15307
1.780 1.922 1.473 16566
1.782 1.924 1.465 15051
1.785 1.927 1.458 11745
1.788 1.930 1.450 7933
1.848 1.995 1.486 8070
1.855 2.003 1.481 9690
1.848 1.996 1.467 11766
1.837 1.983 1.448 17052
1.839 1.986 1.440 18114
1.856 2.004 1.443 19375
1.864 2.012 1.439 24441
1.861 2.010 1.427 22280
1.859 2.007 1.416 18347
1.862 2.010 1.408 13752
1.874 2.023 1.407 8513
1.891 2.042 1.409 8936
1.893 2.044 1.401 10369
1.896 2.047 1.393 9784
1.898 2.050 1.385 7286
2.024 2.185 1.459 7473
2.026 2.188 1.450 9506
2.029 2.190 1.442 9832
2.031 2.193 1.433 7501
2.049 2.212 1.434 4696
2.056 2.220 1.429 7518
2.054 2.217 1.417 10253
2.056 2.220 1.408 10079
1.940 2.094 1.325 9579
1.942 2.097 1.317 9180
2.094 2.260 1.400 7726
2.091 2.258 1.389 7867
2.128 2.298 1.401 6780
2.141 2.311 1.398 10306
2.143 2.314 1.389 11132
2.156 2.328 1.386 9161
2.168 2.341 1.382 9001
2.161 2.333 1.367 7814
2.163 2.335 1.358 6048
2.246 2.425 1.395 5794
2.258 2.438 1.391 7451
2.266 2.446 1.384 8409
2.268 2.449 1.375 10143
2.276 2.457 1.368 11032
2.283 2.465 1.361 7266
2.331 2.517 1.376 5244
2.278 2.459 1.336 4368
2.290 2.473 1.332 4505
2.338 2.525 1.346 5819
2.402 2.593 1.368 7335
2.379 2.568 1.345 8735
2.381 2.571 1.334 5705
2.434 2.628 1.350 5095
2.437 2.631 1.340 4944
2.439 2.633 1.329 4177
2.477 2.674 1.337 5068
2.459 2.655 1.316 5587
2.461 2.658 1.306 4283
2.443 2.638 1.286 3869
2.502 2.701 1.302 5881
2.504 2.704 1.291 7063
2.542 2.745 1.297 4386
2.570 2.775 1.298 6505
2.567 2.772 1.285 5854
2.580 2.786 1.279 3537
2.660 2.871 1.302 4396
2.641 2.852 1.282 6377
2.633 2.843 1.266 4765
2.713 2.929 1.288 6756
2.710 2.926 1.275 6731
2.717 2.934 1.265 4708
2.751 2.970 1.267 5453
2.737 2.955 1.249 5447
2.734 2.952 1.235 3738
2.845 3.072 1.267 5398
2.858 3.086 1.259 8164
2.860 3.088 1.247 9714
2.857 3.085 1.233 10395
2.859 3.087 1.221 11860
2.867 3.095 1.211 12572
2.885 3.114 1.204 8594
2.944 3.179 1.213 7093
2.904 3.136 1.185 4837
2.974 3.211 1.198 5008
3.071 3.315 1.218 5111
3.094 3.340 1.213 4579
3.101 3.348 1.201 5091
3.119 3.367 1.194 4379
3.173 3.426 1.198 4996
3.228 3.485 1.202 6707
3.230 3.487 1.188 9256
3.232 3.490 1.175 8906
3.234 3.492 1.161 9278
3.236 3.494 1.147 8410
3.238 3.496 1.133 6067
3.245 3.504 1.121 4496
3.358 3.625 1.141 5994
3.360 3.628 1.127 6902
3.367 3.635 1.114 3727
3.527 3.808 1.145 4819
3.540 3.822 1.133 6142
3.542 3.824 1.118 6706
3.544 3.826 1.103 8435
3.546 3.828 1.088 8687
3.542 3.824 1.072 6723
3.539 3.821 1.055 6754
3.535 3.817 1.039 7530
3.532 3.813 1.022 7428
3.534 3.815 1.007 6985
3.535 3.817 0.992 5664
3.898 4.209 1.064 5217
3.900 4.210 1.047 7566
3.902 4.212 1.030 6095
3.925 4.237 1.019 5080
3.921 4.233 1.001 5319
4.050 4.373 1.012 5285
4.057 4.381 0.996 5516
4.059 4.383 0.978 6005
4.221 4.557 0.994 8135
4.217 4.553 0.975 11974
4.219 4.555 0.957 9904
4.226 4.562 0.940 6914
4.222 4.558 0.921 6904
4.223 4.560 0.903 7209
4.225 4.561 0.885 6895
4.232 4.569 0.868 5792
4.233 4.570 0.850 3899
4.475 4.832 0.871 2179
4.605 4.972 0.873 2118
4.606 4.973 0.853 2140
5.255 5.674 0.932 1556
5.198 5.612 0.901 1643
4.990 5.388 0.849 1805
5.206 5.621 0.857 2115
5.213 5.628 0.836 2658
5.268 5.687 0.821 3577
5.269 5.689 0.798 4024
5.270 5.690 0.776 4130
5.277 5.697 0.754 3656
5.273 5.693 0.731 2265
5.607 6.053 0.744 1974
6.101 6.588 0.772 2314
6.221 6.716 0.758 3387
6.222 6.718 0.731 5385
6.223 6.719 0.704 4602
6.219 6.714 0.677 3145
0.817 0.882 0.204 3708
0.811 0.876 0.200 6188
0.811 0.876 0.197 11052
0.812 0.876 0.194 15225
0.812 0.876 0.190 17849
0.812 0.876 0.187 20504
0.812 0.877 0.184 21245
0.807 0.871 0.180 20687
0.807 0.871 0.177 18798
0.807 0.871 0.173 14712
0.807 0.871 0.170 11041
0.807 0.871 0.167 8611
0.807 0.871 0.163 5699
0.807 0.871 0.160 3168
0.807 0.871 0.157 2055
0.812 0.877 0.154 1185
0.812 0.877 0.150 495
0.812 0.877 0.147 303
0.818 0.883 0.144 258
1.188 1.283 0.086 286
1.183 1.277 0.082 319
1.183 1.277 0.077 320
1.183 1.277 0.072 292
0.930 1.004 0.083 252
0.930 1.004 0.079 257
1.214 1.311 -0.047 373
1.209 1.305 -0.051 459
1.208 1.305 -0.056 545
1.208 1.304 -0.061 830
1.338 1.438 1.527 5688
1.341 1.441 1.521 11376
1.348 1.448 1.520 11210
1.359 1.461 1.524 11551
1.362 1.464 1.518 11551
1.426 1.533 1.576 10249
1.434 1.541 1.575 15704
1.437 1.544 1.569 18471
1.439 1.547 1.563 21238
1.442 1.550 1.557 21238
1.445 1.553 1.551 19567
1.452 1.561 1.549 18386
1.455 1.564 1.543 16524
1.462 1.572 1.541 14891
