0.233 2.736 1.607 5133
0.234 2.747 1.603 4665
0.235 2.758 1.599 4330
0.234 2.749 1.583 5790
0.235 2.760 1.579 7660
0.236 2.771 1.575 8233
0.242 2.838 1.600 7669
0.242 2.842 1.592 8430
0.243 2.853 1.587 6722
0.245 2.872 1.586 6407
0.245 2.876 1.578 7549
0.245 2.880 1.570 8091
0.247 2.898 1.569 7408
0.248 2.917 1.567 6453
0.250 2.942 1.569 8140
0.254 2.989 1.582 11877
0.255 3.000 1.577 12286
0.256 3.011 1.571 13065
0.257 3.022 1.566 13126
0.258 3.027 1.558 9560
0.268 3.145 1.603 7504
0.259 3.042 1.543 10085
0.260 3.053 1.538 11915
0.261 3.064 1.533 7965
0.262 3.083 1.530 5026
0.273 3.209 1.577 5291
0.273 3.206 1.565 5437
0.270 3.174 1.539 5671
0.275 3.229 1.553 5635
0.276 3.240 1.546 6675
0.277 3.251 1.540 8095
0.278 3.262 1.534 6678
0.279 3.274 1.528 5200
0.279 3.278 1.518 5577
0.282 3.311 1.521 6810
0.283 3.322 1.515 8073
0.283 3.326 1.505 5668
0.293 3.439 1.541 7747
0.293 3.443 1.531 8776
0.290 3.411 1.506 9446
0.291 3.422 1.499 7152
0.298 3.499 1.519 7610
0.298 3.496 1.506 7083
0.297 3.485 1.490 5668
0.298 3.497 1.483 5423
0.299 3.508 1.475 6589
0.300 3.519 1.468 5343
0.313 3.671 1.514 6304
0.314 3.689 1.509 5872
0.315 3.701 1.501 5651
0.314 3.690 1.485 7672
0.316 3.709 1.480 9984
0.317 3.720 1.472 9304
0.331 3.887 1.520 6465
0.331 3.884 1.506 5015
0.330 3.880 1.492 3761
0.332 3.899 1.486 2917
0.337 3.955 1.493 3423
0.335 3.929 1.471 5571
0.335 3.933 1.460 5910
0.340 3.997 1.469 4265
0.341 4.008 1.460 4271
0.341 4.004 1.446 4839
0.351 4.121 1.471 6572
0.351 4.117 1.457 6435
0.354 4.158 1.457 5855
0.354 4.162 1.445 5555
0.354 4.158 1.430 3864
0.362 4.252 1.447 4270
0.362 4.249 1.432 4885
0.374 4.388 1.461 3318
0.371 4.354 1.437 3567
0.372 4.366 1.427 4433
0.384 4.506 1.454 5704
0.383 4.502 1.439 4172
0.383 4.498 1.424 4074
0.385 4.517 1.415 5190
0.386 4.536 1.406 4371
0.392 4.608 1.412 3769
0.400 4.695 1.422 4385
0.399 4.691 1.406 3781
0.398 4.680 1.389 3544
0.421 4.950 1.446 3870
0.421 4.946 1.430 5447
0.418 4.912 1.406 6666
0.420 4.938 1.397 6245
0.422 4.957 1.387 6408
0.422 4.953 1.371 5719
0.422 4.957 1.356 5037
0.424 4.976 1.346 3922
0.448 5.263 1.400 3939
0.449 5.274 1.387 5373
0.449 5.278 1.371 4707
0.452 5.312 1.363 3970
0.467 5.485 1.387 3101
0.468 5.496 1.372 3841
0.472 5.538 1.365 4054
0.473 5.549 1.351 4649
0.476 5.592 1.343 2953
0.490 5.749 1.360 2724
0.491 5.768 1.346 2030
0.498 5.849 1.346 1963
0.499 5.860 1.330 2272
0.519 6.096 1.360 2070
0.523 6.138 1.350 2261
0.524 6.157 1.335 3047
0.522 6.129 1.312 3671
0.522 6.125 1.292 4478
0.546 6.415 1.328 2636
0.550 6.457 1.317 2813
0.550 6.461 1.298 3206
0.558 6.557 1.296 2513
0.578 6.794 1.317 2768
0.578 6.789 1.296 1969
0.621 7.298 1.362 2345
0.622 7.302 1.341 3352
0.623 7.313 1.321 3122
0.624 7.324 1.301 2235
0.638 7.491 1.305 2822
0.634 7.448 1.276 3976
0.633 7.436 1.252 3634
0.662 7.774 1.280 3190
0.662 7.778 1.257 2495
0.661 7.765 1.232 2287
0.695 8.159 1.264 2664
0.692 8.131 1.236 2679
0.693 8.134 1.212 2135
0.752 8.834 1.279 2496
0.752 8.837 1.253 3085
0.753 8.840 1.228 3266
0.753 8.843 1.202 2663
0.778 9.136 1.210 2092
0.779 9.147 1.185 2317
0.778 9.142 1.157 1973
0.777 9.129 1.129 1295
0.808 9.485 1.140 1116
0.807 9.480 1.111 912
0.779 9.146 1.050 517
0.780 9.156 1.024 327
0.194 2.216 1.694 2613
0.194 2.220 1.688 5227
0.195 2.225 1.682 5227
0.196 2.236 1.680 6029
0.197 2.247 1.678 6900
0.198 2.264 1.680 8794
0.199 2.275 1.678 11068
0.199 2.273 1.667 11574
0.199 2.271 1.657 11647
0.200 2.282 1.654 11140
0.201 2.293 1.652 9444
0.202 2.304 1.650 8331
0.203 2.315 1.648 10339
0.204 2.326 1.646 13011
0.205 2.337 1.643 13331
0.205 2.341 1.637 13819
0.205 2.339 1.626 13486
0.205 2.343 1.619 13624
0.206 2.354 1.617 14037
0.206 2.358 1.610 12461
0.208 2.376 1.612 11523
0.209 2.387 1.609 8588
0.212 2.418 1.619 7379
0.212 2.422 1.612 6438
0.212 2.427 1.605 5496
0.217 2.478 1.627 5917
0.218 2.489 1.624 7382
0.217 2.480 1.609 7014
0.217 2.477 1.597 7317
0.218 2.488 1.594 6142
0.219 2.499 1.591 5298
0.219 2.503 1.584 3874
0.226 2.583 1.621 3845
0.226 2.587 1.614 4245
0.227 2.591 1.606 4409
0.228 2.602 1.603 4300
0.236 2.696 1.646 4633
0.236 2.700 1.638 5521
0.236 2.697 1.627 6726
0.237 2.702 1.619 8073
0.237 2.706 1.611 7723
0.238 2.717 1.607 5661
0.239 2.728 1.603 4202
0.240 2.740 1.599 3904
0.244 2.792 1.617 4251
0.241 2.748 1.583 5829
0.241 2.752 1.575 7943
0.242 2.763 1.571 8165
0.248 2.837 1.600 7090
0.249 2.842 1.592 7918
0.249 2.846 1.584 6612
0.251 2.864 1.583 6377
0.251 2.868 1.574 7485
0.252 2.879 1.570 7934
0.254 2.898 1.569 6832
0.255 2.909 1.564 5714
0.263 3.005 1.601 7537
0.262 2.988 1.582 11296
0.263 2.999 1.577 11732
0.264 3.011 1.571 11863
0.265 3.022 1.566 11763
0.265 3.026 1.558 8754
0.275 3.144 1.603 7790
0.266 3.041 1.543 9175
0.267 3.053 1.538 10565
0.268 3.057 1.529 7095
0.269 3.068 1.524 4669
0.281 3.208 1.577 4830
0.281 3.205 1.565 4861
0.278 3.181 1.542 5079
0.283 3.228 1.553 5966
0.283 3.232 1.543 6486
0.285 3.250 1.540 6909
0.286 3.262 1.534 5698
0.287 3.273 1.528 4767
0.288 3.284 1.521 5311
0.290 3.310 1.521 6528
0.291 3.321 1.515 7773
0.291 3.325 1.505 5675
0.302 3.446 1.544 7315
0.296 3.377 1.504 7852
0.298 3.403 1.503 8650
0.300 3.429 1.502 7220
0.304 3.477 1.510 6749
0.305 3.488 1.503 6698
0.306 3.492 1.493 5677
0.306 3.496 1.483 5608
0.307 3.507 1.475 7039
0.308 3.518 1.468 6214
0.322 3.677 1.517 5910
0.324 3.696 1.512 6447
0.323 3.692 1.498 6342
0.324 3.696 1.488 8029
0.325 3.715 1.483 11008
0.326 3.726 1.475 10143
0.340 3.886 1.520 5760
0.340 3.883 1.506 4060
0.339 3.872 1.490 3378
0.340 3.883 1.481 2648
0.344 3.932 1.485 2548
0.343 3.921 1.469 4730
0.344 3.925 1.457 5198
0.352 4.026 1.479 4479
0.352 4.022 1.465 4292
0.351 4.003 1.446 4512
0.360 4.112 1.469 6832
0.360 4.109 1.454 6898
0.365 4.165 1.459 5884
0.365 4.169 1.447 5354
0.363 4.150 1.428 3623
0.372 4.252 1.447 4059
0.372 4.248 1.432 4982
0.371 4.236 1.415 2953
0.380 4.346 1.435 3863
0.381 4.357 1.424 4947
0.394 4.505 1.454 4695
0.380 4.342 1.392 3638
0.394 4.497 1.424 3300
0.395 4.516 1.415 4109
0.406 4.634 1.434 4089
0.404 4.614 1.414 4200
0.411 4.694 1.422 4158
0.411 4.698 1.408 3527
0.410 4.686 1.391 3327
0.427 4.873 1.426 3748
0.429 4.899 1.418 5586
0.430 4.911 1.406 7643
0.431 4.922 1.393 7272
0.433 4.949 1.385 6326
0.434 4.952 1.371 5363
0.434 4.956 1.356 4484
0.447 5.105 1.378 3450
0.461 5.262 1.400 3245
0.462 5.273 1.387 4975
0.462 5.277 1.371 5220
0.465 5.311 1.363 4973
0.480 5.484 1.387 3799
0.480 5.487 1.371 4503
0.484 5.529 1.363 4182
0.486 5.548 1.351 4711
0.489 5.590 1.343 3079
0.501 5.717 1.353 2775
0.502 5.736 1.340 1945
0.513 5.855 1.347 2043
0.512 5.851 1.329 2798
0.511 5.839 1.309 2440
0.536 6.121 1.347 1976
0.546 6.233 1.351 2773
0.536 6.120 1.310 3323
0.536 6.124 1.292 4278
0.536 6.127 1.274 2411
0.575 6.565 1.337 2446
0.566 6.459 1.298 2812
0.573 6.548 1.294 2727
0.595 6.792 1.317 2824
0.573 6.547 1.255 1958
0.639 7.297 1.362 2483
0.639 7.300 1.341 3673
0.640 7.312 1.321 3263
0.640 7.315 1.299 2294
0.656 7.490 1.305 2786
0.651 7.439 1.275 3753
0.651 7.434 1.252 3847
0.650 7.430 1.229 3124
0.680 7.768 1.256 2411
0.680 7.772 1.234 2294
0.714 8.157 1.264 2891
0.712 8.129 1.236 2623
0.711 8.125 1.211 2241
0.740 8.456 1.230 1496
0.774 8.835 1.253 2137
0.774 8.838 1.228 2454
0.774 8.841 1.202 2055
0.799 9.126 1.209 1617
0.800 9.137 1.184 1786
0.800 9.132 1.156 1685
0.799 9.128 1.129 1251
0.830 9.483 1.140 1121
0.830 9.478 1.111 994
0.829 9.473 1.083 658
0.831 9.492 1.057 389
0.200 2.215 1.694 2820
0.200 2.220 1.688 5640
0.201 2.224 1.682 5640
0.202 2.235 1.680 6191
0.203 2.253 1.682 6970
0.204 2.264 1.680 9252
0.205 2.275 1.678 11753
0.205 2.273 1.667 12155
0.206 2.277 1.661 11849
0.206 2.281 1.654 11054
0.207 2.292 1.652 9762
0.208 2.303 1.650 8929
0.209 2.314 1.648 11056
0.210 2.325 1.646 13835
0.210 2.330 1.639 14272
0.211 2.341 1.637 14901
0.211 2.338 1.626 14478
0.211 2.343 1.619 14495
0.212 2.354 1.617 14777
0.213 2.358 1.610 13088
0.214 2.369 1.607 11748
0.215 2.380 1.605 8603
0.219 2.424 1.623 6687
0.219 2.428 1.616 6170
0.220 2.433 1.609 5653
0.227 2.518 1.652 6028
0.225 2.488 1.624 6796
0.224 2.479 1.609 6463
0.224 2.477 1.597 6857
0.224 2.481 1.590 6058
0.226 2.499 1.591 5721
0.226 2.503 1.584 4312
0.234 2.589 1.625 3822
0.234 2.593 1.617 4055
0.234 2.591 1.606 3629
0.242 2.684 1.650 3834
0.244 2.702 1.650 4545
0.244 2.706 1.642 5094
0.243 2.697 1.627 5864
0.244 2.701 1.619 6933
0.244 2.705 1.611 6671
0.245 2.710 1.603 4974
0.246 2.721 1.599 3560
0.245 2.718 1.588 3877
0.253 2.799 1.621 4323
0.248 2.747 1.583 6329
0.248 2.752 1.575 8294
0.249 2.763 1.571 8159
0.256 2.837 1.600 6241
0.256 2.841 1.592 6966
0.257 2.845 1.584 6164
0.258 2.856 1.579 6164
0.259 2.868 1.574 7262
0.259 2.872 1.566 7613
0.261 2.890 1.565 6011
0.271 3.007 1.613 5824
0.271 3.004 1.601 7600
0.270 2.994 1.585 10265
0.270 2.991 1.573 10763
0.272 3.010 1.571 10188
0.273 3.028 1.570 10124
0.274 3.032 1.561 7783
0.284 3.151 1.606 7833
0.284 3.148 1.594 8645
0.275 3.045 1.535 8782
0.276 3.056 1.529 6405
0.277 3.067 1.524 5096
0.278 3.085 1.521 5145
0.281 3.111 1.522 4474
0.290 3.216 1.559 5201
0.291 3.220 1.549 6627
0.292 3.231 1.543 6642
0.293 3.242 1.537 5834
0.294 3.261 1.534 4673
0.295 3.272 1.528 4063
0.297 3.291 1.525 4647
0.299 3.317 1.524 6073
0.300 3.321 1.515 7401
0.300 3.325 1.505 6054
0.311 3.445 1.544 6864
0.305 3.376 1.504 7904
0.306 3.395 1.500 7794
0.310 3.435 1.505 7040
0.311 3.447 1.498 6674
0.314 3.480 1.500 6166
0.315 3.491 1.493 5378
0.315 3.495 1.483 5441
0.316 3.506 1.475 7461
0.318 3.525 1.471 7512
0.320 3.544 1.466 5972
0.333 3.688 1.509 7229
0.333 3.692 1.498 7361
0.334 3.696 1.488 8619
0.335 3.714 1.483 11984
0.336 3.726 1.475 10818
0.338 3.744 1.469 5871
0.338 3.748 1.458 3793
0.349 3.864 1.487 3765
0.350 3.875 1.478 3335
0.349 3.871 1.465 2673
0.352 3.897 1.461 3827
0.353 3.916 1.455 4387
0.364 4.032 1.481 4893
0.363 4.021 1.465 4650
0.372 4.122 1.485 4162
0.370 4.104 1.466 7052
0.370 4.100 1.452 7618
0.378 4.186 1.466 6160
0.377 4.183 1.452 5217
0.379 4.202 1.445 3357
0.382 4.236 1.442 4500
0.383 4.239 1.430 5149
0.384 4.251 1.420 3076
0.392 4.345 1.435 4139
0.393 4.356 1.424 5732
0.393 4.352 1.409 4691
0.392 4.341 1.392 4109
0.406 4.496 1.424 2561
0.409 4.530 1.419 3125
0.419 4.640 1.436 4387
0.416 4.606 1.412 4502
0.415 4.594 1.395 4564
0.425 4.704 1.411 3898
0.424 4.700 1.395 3518
0.441 4.887 1.430 4170
0.441 4.891 1.416 6209
0.442 4.902 1.404 8364
0.443 4.906 1.389 8365
0.444 4.917 1.377 6486
0.448 4.966 1.374 5170
0.448 4.962 1.358 4269
0.447 4.958 1.342 3332
0.460 5.100 1.361 2993
0.475 5.264 1.385 4366
0.476 5.276 1.371 5554
0.479 5.310 1.363 5646
0.495 5.482 1.387 4332
0.495 5.486 1.371 5169
0.498 5.520 1.362 4297
0.499 5.532 1.347 4720
0.505 5.597 1.345 3209
0.516 5.716 1.353 2695
0.517 5.727 1.338 2115
0.529 5.862 1.349 2026
0.528 5.850 1.329 3316
0.527 5.838 1.309 3247
0.528 5.849 1.293 2166
0.562 6.231 1.351 2523
0.552 6.111 1.309 2828
0.553 6.122 1.292 3867
0.553 6.126 1.274 2289
0.592 6.563 1.337 2103
0.581 6.435 1.294 2566
0.580 6.430 1.274 2865
0.590 6.542 1.274 2529
0.591 6.546 1.255 1979
0.658 7.287 1.361 2510
0.659 7.299 1.341 3768
0.659 7.302 1.319 3257
0.660 7.313 1.299 2293
0.677 7.496 1.306 2676
0.671 7.437 1.275 3386
0.671 7.432 1.252 3920
0.670 7.428 1.229 3411
0.701 7.766 1.256 2248
0.736 8.152 1.288 2288
0.736 8.156 1.264 2943
0.734 8.128 1.236 2326
0.732 8.107 1.209 2305
0.731 8.102 1.185 1585
0.797 8.833 1.253 1384
0.805 8.914 1.237 1713
0.800 8.863 1.205 1516
0.852 9.437 1.246 1517
0.851 9.433 1.218 1369
0.823 9.122 1.155 1596
0.824 9.125 1.129 1274
0.854 9.465 1.138 1232
0.854 9.460 1.110 1231
0.855 9.471 1.083 885
0.856 9.489 1.057 523
0.850 9.414 1.022 353
0.205 2.208 1.690 2961
0.205 2.213 1.683 5922
0.206 2.217 1.677 5922
0.207 2.235 1.680 6100
0.209 2.252 1.682 6821
0.210 2.263 1.680 9305
0.211 2.274 1.678 11917
0.211 2.272 1.667 12172
0.211 2.276 1.661 11512
0.212 2.281 1.654 10488
0.213 2.292 1.652 9606
0.214 2.303 1.650 9026
0.215 2.314 1.648 11141
0.216 2.325 1.646 13838
0.216 2.329 1.639 14360
0.217 2.340 1.637 15060
0.217 2.338 1.626 14592
0.217 2.342 1.619 14512
0.218 2.346 1.612 14721
0.219 2.357 1.610 13005
0.220 2.368 1.607 11476
0.220 2.372 1.601 8492
0.225 2.430 1.627 6541
0.226 2.435 1.620 6136
0.233 2.513 1.659 5927
0.234 2.524 1.656 6409
0.235 2.535 1.653 7011
0.230 2.479 1.609 5814
0.230 2.476 1.597 6236
0.231 2.487 1.594 5892
0.232 2.498 1.591 6006
0.232 2.502 1.584 4753
0.241 2.595 1.629 3714
0.240 2.592 1.617 3876
0.248 2.672 1.654 3160
0.248 2.676 1.646 4257
0.251 2.701 1.650 4498
0.251 2.706 1.642 4763
0.251 2.703 1.630 4906
0.250 2.701 1.619 5394
0.251 2.705 1.611 5324
0.251 2.709 1.603 4394
0.252 2.713 1.596 3534
0.253 2.724 1.592 4210
0.254 2.736 1.587 4929
0.254 2.740 1.580 6858
0.255 2.751 1.575 8289
0.256 2.762 1.571 7841
0.257 2.766 1.563 6174
0.263 2.840 1.592 5711
0.264 2.845 1.584 5403
0.264 2.849 1.575 5907
0.265 2.860 1.571 6756
0.266 2.871 1.566 7120
0.278 2.995 1.618 5268
0.278 2.999 1.610 6555
0.279 3.004 1.601 7539
0.278 2.994 1.585 8879
0.278 2.998 1.577 9328
0.279 3.009 1.571 8269
0.281 3.035 1.573 8440
0.281 3.032 1.561 6716
0.292 3.150 1.606 7383
0.293 3.154 1.597 8167
0.282 3.044 1.535 6986
0.284 3.062 1.533 6467
0.285 3.074 1.527 6349
0.286 3.085 1.521 6037
0.288 3.103 1.519 4731
0.298 3.208 1.555 5624
0.299 3.219 1.549 7481
0.299 3.223 1.540 7173
0.299 3.227 1.531 5595
0.302 3.260 1.534 4033
0.303 3.264 1.525 3329
0.307 3.305 1.531 3774
0.308 3.316 1.524 5430
0.308 3.320 1.515 6973
0.308 3.324 1.505 6548
0.309 3.335 1.499 7159
0.312 3.368 1.501 8207
0.314 3.387 1.497 7270
0.319 3.435 1.505 6877
0.320 3.446 1.498 6565
0.321 3.464 1.494 5558
0.324 3.490 1.493 4671
0.324 3.494 1.483 4928
0.325 3.506 1.475 7814
0.327 3.524 1.471 8686
0.329 3.543 1.466 7066
0.342 3.687 1.509 7826
0.342 3.691 1.498 8023
0.343 3.695 1.488 8761
0.344 3.713 1.483 12207
0.345 3.725 1.475 10966
0.347 3.743 1.469 6273
0.348 3.755 1.461 4187
0.358 3.863 1.487 4558
0.359 3.867 1.476 4551
0.358 3.863 1.462 3912
0.359 3.874 1.453 4366
0.362 3.900 1.450 4317
0.374 4.031 1.481 4748
0.372 4.013 1.462 4600
0.382 4.121 1.485 3722
0.380 4.095 1.464 6855
0.380 4.092 1.449 7967
0.390 4.200 1.471 6287
0.389 4.197 1.457 5041
0.392 4.223 1.452 4271
0.392 4.227 1.439 5179
0.393 4.238 1.430 4973
0.395 4.257 1.422 3050
0.403 4.344 1.435 4421
0.404 4.355 1.424 6620
0.404 4.351 1.409 4998
0.403 4.340 1.392 4196
0.404 4.351 1.382 2947
0.422 4.552 1.426 2801
0.430 4.639 1.436 4244
0.427 4.605 1.412 4398
0.426 4.593 1.395 4730
0.436 4.696 1.408 4259
0.435 4.692 1.393 3971
0.454 4.893 1.432 4536
0.454 4.890 1.416 6485
0.454 4.893 1.402 8450
0.454 4.897 1.388 9200
0.455 4.901 1.373 7302
0.461 4.973 1.376 4986
0.461 4.969 1.360 4267
0.459 4.949 1.340 3169
0.471 5.083 1.357 3201
0.487 5.255 1.383 3991
0.490 5.282 1.373 5688
0.492 5.309 1.363 5817
0.508 5.481 1.387 4363
0.508 5.477 1.369 5303
0.511 5.511 1.360 4150
0.512 5.523 1.346 4713
0.513 5.526 1.330 3360
0.531 5.722 1.355 2473
0.531 5.726 1.338 2271
0.531 5.722 1.320 1997
0.542 5.841 1.327 3416
0.541 5.837 1.309 3710
0.542 5.840 1.292 2381
0.578 6.230 1.351 2150
0.566 6.102 1.307 2337
0.567 6.113 1.291 3237
0.587 6.326 1.312 2304
0.587 6.329 1.294 2295
0.607 6.542 1.313 2534
0.597 6.437 1.275 3028
0.606 6.533 1.272 2479
0.607 6.544 1.255 1901
0.675 7.278 1.359 2588
0.676 7.289 1.339 3659
0.677 7.300 1.319 3013
0.677 7.304 1.298 2156
0.695 7.494 1.306 2388
0.690 7.435 1.275 2936
0.689 7.423 1.251 3828
0.689 7.426 1.229 3473
0.705 7.601 1.232 2187
0.756 8.150 1.288 2279
0.756 8.154 1.264 2740
0.753 8.118 1.235 1973
0.751 8.098 1.208 2346
0.751 8.101 1.185 1827
0.757 8.166 1.169 1348
0.827 8.912 1.237 1753
0.826 8.908 1.210 1526
0.875 9.435 1.246 1595
0.875 9.431 1.218 1356
0.845 9.113 1.154 1574
0.846 9.115 1.128 1241
0.876 9.448 1.136 1499
0.877 9.458 1.110 1472
0.878 9.461 1.082 1018
0.872 9.401 1.048 712
0.872 9.404 1.021 593
0.872 9.398 0.993 382
0.872 9.401 0.965 283
0.881 9.500 0.918 260
0.210 2.195 1.680 3225
0.210 2.200 1.674 6450
0.210 2.204 1.668 6450
0.213 2.228 1.675 5908
0.216 2.258 1.687 6606
0.216 2.263 1.680 9155
0.217 2.274 1.678 11816
0.217 2.278 1.672 11879
0.218 2.282 1.665 10786
0.218 2.287 1.659 9631
0.219 2.291 1.652 9098
0.220 2.302 1.650 8747
0.221 2.313 1.648 10781
0.222 2.324 1.646 13306
0.222 2.328 1.639 13880
0.223 2.339 1.637 14616
0.223 2.337 1.626 14145
0.224 2.341 1.619 13995
0.224 2.346 1.612 14156
0.225 2.357 1.610 12516
0.225 2.361 1.603 11003
0.226 2.365 1.596 8317
0.233 2.436 1.631 7187
0.233 2.441 1.624 6485
0.240 2.512 1.659 6817
0.241 2.523 1.656 6895
0.242 2.534 1.653 7318
0.243 2.545 1.650 5919
0.236 2.475 1.597 5555
0.238 2.493 1.598 5797
0.238 2.497 1.591 6246
0.239 2.502 1.584 5257
0.248 2.594 1.629 3619
0.248 2.599 1.621 3772
0.255 2.671 1.654 3330
0.255 2.676 1.646 4579
0.257 2.694 1.646 4539
0.258 2.705 1.642 4637
0.258 2.702 1.630 4034
0.258 2.707 1.623 3577
0.259 2.711 1.615 3703
0.259 2.715 1.607 3969
0.260 2.726 1.603 4121
0.261 2.731 1.595 5144
0.261 2.735 1.587 6167
0.261 2.739 1.580 7507
0.263 2.750 1.575 8150
0.264 2.761 1.571 7415
0.264 2.766 1.563 6177
0.264 2.770 1.555 4939
0.267 2.802 1.562 4469
0.271 2.841 1.572 5381
0.272 2.845 1.564 6162
0.273 2.856 1.559 6614
0.285 2.987 1.615 6028
0.286 2.999 1.610 7231
0.287 3.003 1.601 7269
0.286 2.993 1.585 7202
0.286 2.997 1.577 7571
0.287 3.008 1.571 6305
0.290 3.034 1.573 6713
0.291 3.045 1.568 5827
0.301 3.149 1.606 6381
0.301 3.153 1.597 7189
0.301 3.158 1.588 6528
0.294 3.076 1.539 8501
0.293 3.073 1.527 8253
0.294 3.084 1.521 6978
0.298 3.117 1.526 4890
0.305 3.200 1.552 6553
0.307 3.211 1.546 8624
0.307 3.215 1.537 8148
0.308 3.226 1.531 6226
0.311 3.259 1.534 4242
0.314 3.292 1.537 3272
0.317 3.318 1.537 3214
0.318 3.330 1.531 4826
0.318 3.326 1.518 6551
0.317 3.323 1.505 7399
0.318 3.334 1.499 8398
0.321 3.360 1.498 8716
0.322 3.371 1.491 7323
0.328 3.441 1.508 6186
0.329 3.445 1.498 5801
0.331 3.464 1.494 4861
0.333 3.490 1.493 3864
0.334 3.501 1.486 4613
0.335 3.512 1.478 8754
0.336 3.523 1.471 9929
0.338 3.542 1.466 8195
0.352 3.686 1.509 8390
0.352 3.690 1.498 8532
0.353 3.701 1.491 8713
0.354 3.712 1.483 11989
0.355 3.724 1.475 10909
0.357 3.742 1.469 6543
0.359 3.761 1.464 4567
0.369 3.862 1.487 5611
0.369 3.866 1.476 6206
0.369 3.862 1.462 5589
0.369 3.866 1.451 5620
0.371 3.885 1.445 4955
0.378 3.963 1.459 4691
0.382 4.004 1.460 4562
0.393 4.113 1.483 3269
0.390 4.087 1.461 6129
0.390 4.083 1.447 7749
0.401 4.199 1.471 5817
0.402 4.211 1.462 4999
0.402 4.215 1.449 4912
0.403 4.218 1.437 5401
0.404 4.230 1.427 4316
0.410 4.294 1.433 3266
0.415 4.343 1.435 4873
0.416 4.354 1.424 7459
0.415 4.350 1.409 5403
0.426 4.460 1.428 3921
0.416 4.358 1.384 3069
0.434 4.551 1.426 2627
0.443 4.645 1.438 3676
0.440 4.611 1.414 4019
0.439 4.600 1.397 4752
0.447 4.687 1.406 4804
0.447 4.683 1.391 5097
0.468 4.900 1.434 4732
0.467 4.888 1.416 6270
0.466 4.884 1.400 7996
0.467 4.888 1.386 9878
0.467 4.892 1.371 8886
0.466 4.880 1.353 5348
0.474 4.968 1.360 3981
0.471 4.933 1.336 3166
0.485 5.082 1.357 3510
0.504 5.285 1.390 3972
0.504 5.281 1.373 5678
0.507 5.307 1.363 5432
0.509 5.334 1.353 4200
0.523 5.476 1.369 4930
0.521 5.456 1.348 4281
0.526 5.514 1.344 4807
0.528 5.532 1.331 3731
0.529 5.544 1.317 2693
0.543 5.694 1.332 2594
0.545 5.712 1.318 2476
0.557 5.832 1.326 3261
0.556 5.827 1.307 3924
0.557 5.838 1.292 2596
0.588 6.159 1.337 2229
0.590 6.186 1.323 2417
0.583 6.104 1.289 2625
0.603 6.316 1.311 2083
0.603 6.320 1.292 2269
0.622 6.517 1.309 2660
0.616 6.450 1.278 3485
0.620 6.500 1.267 2799
0.622 6.511 1.249 1926
0.694 7.268 1.358 2724
0.694 7.272 1.337 3507
0.696 7.291 1.318 2706
0.697 7.302 1.298 2001
0.698 7.313 1.278 1987
0.709 7.426 1.274 2518
0.708 7.421 1.251 3640
0.709 7.424 1.229 3441
0.725 7.599 1.232 2372
0.732 7.664 1.219 2468
0.778 8.152 1.264 2273
0.774 8.108 1.234 1665
0.773 8.096 1.208 2257
0.773 8.099 1.185 2017
0.808 8.461 1.207 1512
0.850 8.902 1.236 1729
0.850 8.905 1.210 1592
0.900 9.425 1.245 1644
0.893 9.350 1.209 1584
0.894 9.361 1.183 1744
0.898 9.411 1.160 1638
0.900 9.430 1.135 1967
0.901 9.440 1.108 1711
0.899 9.419 1.078 1147
0.897 9.399 1.048 1216
0.897 9.393 1.020 948
0.898 9.404 0.993 583
0.898 9.406 0.966 458
0.898 9.409 0.939 315
0.907 9.497 0.918 366
0.907 9.499 0.891 330
0.907 9.502 0.863 263
0.218 2.188 1.676 3614
0.219 2.192 1.669 7229
0.219 2.197 1.663 7229
0.218 2.188 1.648 6256
0.217 2.180 1.632 6014
0.226 2.262 1.680 8319
0.227 2.273 1.678 10809
0.227 2.277 1.672 10738
0.228 2.281 1.665 9400
0.229 2.292 1.663 8164
0.229 2.297 1.657 7886
0.230 2.301 1.650 7608
0.231 2.312 1.648 9435
0.232 2.323 1.646 11655
0.232 2.328 1.639 12254
0.233 2.338 1.637 12995
0.233 2.336 1.626 12619
0.233 2.340 1.619 12465
0.234 2.345 1.612 12548
0.234 2.349 1.606 11311
0.235 2.360 1.603 10301
0.236 2.364 1.596 8030
0.244 2.449 1.640 8346
0.246 2.466 1.641 7376
0.250 2.504 1.655 7828
0.252 2.522 1.656 7284
0.253 2.533 1.653 7348
0.254 2.544 1.650 5975
0.248 2.488 1.606 4833
0.249 2.492 1.598 5546
0.249 2.496 1.591 6259
0.249 2.501 1.584 5612
0.251 2.512 1.581 3837
0.260 2.604 1.625 3754
0.264 2.643 1.638 3699
0.267 2.674 1.646 4493
0.269 2.693 1.646 4494
0.269 2.697 1.638 4528
0.269 2.701 1.630 3574
0.262 2.630 1.580 2969
0.262 2.627 1.569 2545
0.272 2.728 1.615 3695
0.272 2.725 1.603 4810
0.272 2.730 1.595 6011
0.273 2.734 1.587 7212
0.274 2.745 1.583 7911
0.274 2.749 1.575 7891
0.275 2.760 1.571 7154
0.276 2.764 1.563 6425
0.276 2.769 1.555 5696
0.278 2.787 1.555 5187
0.280 2.812 1.557 5229
0.282 2.830 1.556 5861
0.284 2.848 1.555 6444
0.298 2.986 1.615 5989
0.298 2.990 1.606 7164
0.300 3.009 1.604 6665
0.301 3.020 1.599 5922
0.298 2.989 1.573 6398
0.298 2.986 1.561 5731
0.295 2.962 1.539 5783
0.304 3.044 1.568 5681
0.305 3.062 1.566 5877
0.307 3.074 1.560 6519
0.307 3.078 1.551 9250
0.307 3.082 1.543 11523
0.307 3.079 1.530 10372
0.308 3.083 1.521 7692
0.316 3.166 1.548 6784
0.318 3.191 1.549 7990
0.319 3.203 1.543 9712
0.320 3.207 1.534 9113
0.321 3.218 1.528 7008
0.326 3.265 1.537 5118
0.328 3.291 1.537 4785
0.329 3.302 1.531 4267
0.331 3.314 1.524 4573
0.331 3.318 1.515 6067
0.331 3.314 1.502 8470
0.332 3.333 1.499 9607
0.335 3.359 1.498 9820
0.335 3.355 1.485 8595
0.336 3.367 1.479 5769
0.338 3.392 1.478 4975
0.338 3.389 1.465 4717
0.348 3.488 1.493 3561
0.353 3.536 1.500 4900
0.351 3.518 1.481 9798
0.352 3.529 1.474 10822
0.353 3.540 1.466 9096
0.354 3.552 1.459 8848
0.368 3.688 1.498 8484
0.369 3.700 1.491 8086
0.371 3.718 1.485 11101
0.371 3.722 1.475 10619
0.374 3.748 1.472 6645
0.376 3.767 1.466 4874
0.385 3.860 1.487 6126
0.385 3.864 1.476 7959
0.386 3.868 1.465 7561
0.387 3.879 1.456 6282
0.387 3.883 1.445 6080
0.395 3.961 1.459 6162
0.397 3.980 1.452 4800
0.399 3.999 1.446 2937
0.407 4.078 1.459 5012
0.406 4.074 1.444 7235
0.407 4.078 1.433 5321
0.420 4.209 1.462 4719
0.420 4.205 1.447 5111
0.420 4.209 1.435 4850
0.421 4.220 1.425 3226
0.429 4.300 1.436 3844
0.433 4.341 1.435 5125
0.434 4.352 1.424 7469
0.433 4.341 1.407 5281
0.445 4.466 1.430 4177
0.448 4.492 1.424 3351
0.453 4.541 1.424 2356
0.463 4.643 1.438 2505
0.460 4.609 1.414 3392
0.459 4.605 1.399 5014
0.466 4.670 1.402 5202
0.467 4.681 1.391 6284
0.489 4.898 1.434 4487
0.488 4.894 1.418 5852
0.486 4.875 1.398 7898
0.487 4.878 1.384 10644
0.488 4.890 1.371 10752
0.487 4.886 1.355 6938
0.492 4.927 1.351 4312
0.491 4.923 1.334 3419
0.506 5.072 1.355 3747
0.527 5.283 1.390 4309
0.527 5.278 1.373 5121
0.529 5.305 1.363 4316
0.533 5.347 1.356 4173
0.543 5.443 1.362 4150
0.541 5.423 1.341 4517
0.550 5.511 1.344 4775
0.552 5.530 1.331 4064
0.554 5.549 1.318 3193
0.569 5.699 1.333 2907
0.570 5.710 1.318 2882
0.580 5.814 1.322 3142
0.580 5.817 1.305 4132
0.581 5.828 1.290 2964
0.615 6.164 1.338 3348
0.615 6.167 1.320 3549
0.615 6.163 1.301 2515
0.630 6.314 1.311 1824
0.646 6.480 1.322 2526
0.647 6.483 1.303 3461
0.645 6.463 1.280 3934
0.647 6.490 1.266 3441
0.649 6.509 1.249 2083
0.693 6.947 1.304 2768
0.724 7.261 1.335 3322
0.725 7.272 1.316 2436
0.679 6.809 1.220 1815
0.729 7.310 1.278 1698
0.739 7.407 1.271 2296
0.740 7.418 1.251 3355
0.740 7.421 1.229 3171
0.758 7.596 1.232 2307
0.764 7.661 1.219 2733
0.765 7.664 1.197 2356
0.844 8.464 1.283 1660
0.807 8.092 1.208 1963
0.807 8.087 1.184 2041
0.844 8.458 1.207 1753
0.845 8.469 1.183 1833
0.938 9.402 1.271 1671
0.940 9.421 1.245 1549
0.932 9.338 1.208 1762
0.934 9.365 1.183 2096
0.938 9.407 1.160 2696
0.939 9.418 1.134 2980
0.940 9.421 1.106 2329
0.938 9.408 1.077 1745
0.937 9.395 1.048 1875
0.937 9.389 1.020 1540
0.938 9.400 0.993 1040
0.939 9.410 0.967 837
0.939 9.412 0.939 595
0.947 9.493 0.918 370
0.947 9.496 0.891 389
0.947 9.490 0.862 346
0.945 9.468 0.833 262
0.566 5.676 -0.506 261
0.225 2.181 1.671 3746
0.226 2.185 1.665 7492
0.226 2.189 1.659 7492
0.226 2.187 1.648 7098
0.226 2.185 1.637 7099
0.234 2.261 1.680 7354
0.234 2.265 1.674 9554
0.235 2.276 1.672 9401
0.236 2.287 1.670 8155
0.237 2.292 1.663 6987
0.237 2.296 1.657 6696
0.238 2.300 1.650 6405
0.239 2.311 1.648 8017
0.240 2.322 1.646 9971
0.240 2.327 1.639 10558
0.241 2.338 1.637 11272
0.241 2.335 1.626 10985
0.242 2.340 1.619 10844
0.242 2.344 1.612 10864
0.243 2.348 1.606 10133
0.244 2.359 1.603 9538
0.243 2.357 1.592 7561
0.253 2.448 1.640 8698
0.255 2.465 1.641 7625
0.259 2.503 1.655 8288
0.260 2.514 1.652 7350
0.262 2.532 1.653 7182
0.263 2.543 1.650 5773
0.264 2.555 1.646 4453
0.257 2.491 1.598 5084
0.258 2.496 1.591 5884
0.258 2.500 1.584 5466
0.260 2.518 1.585 4149
0.270 2.610 1.629 3736
0.270 2.615 1.622 3861
0.266 2.571 1.587 4369
0.278 2.692 1.646 4223
0.278 2.696 1.638 4368
0.278 2.693 1.627 3785
0.277 2.677 1.607 3409
0.271 2.626 1.569 2717
0.282 2.734 1.619 3483
0.281 2.724 1.603 4785
0.282 2.729 1.595 6037
0.282 2.733 1.587 7290
0.283 2.744 1.583 7700
0.284 2.748 1.575 7519
0.285 2.759 1.571 6971
0.285 2.763 1.563 6487
0.286 2.768 1.555 6002
0.288 2.786 1.555 5541
0.290 2.804 1.554 5437
0.292 2.829 1.556 5671
0.293 2.840 1.552 6248
0.295 2.858 1.551 5654
0.309 2.989 1.606 6770
0.311 3.008 1.604 6240
0.312 3.019 1.599 5587
0.308 2.981 1.570 6391
0.306 2.964 1.551 7020
0.307 2.968 1.542 7082
0.314 3.043 1.568 5844
0.317 3.068 1.569 6795
0.317 3.072 1.560 8214
0.318 3.077 1.551 11120
0.318 3.081 1.543 12809
0.318 3.078 1.530 11045
0.318 3.082 1.521 7658
0.328 3.172 1.552 7747
0.329 3.190 1.549 8488
0.331 3.201 1.543 9832
0.331 3.206 1.534 9284
0.332 3.217 1.528 7140
0.337 3.264 1.537 5509
0.340 3.290 1.537 5594
0.340 3.294 1.528 5064
0.342 3.312 1.524 4499
0.342 3.309 1.512 5703
0.342 3.313 1.502 8886
0.343 3.324 1.496 9829
0.347 3.357 1.498 9972
0.346 3.354 1.485 8990
0.348 3.365 1.479 6142
0.349 3.384 1.475 4761
0.350 3.388 1.465 4556
0.350 3.392 1.455 3426
0.365 3.535 1.500 5264
0.364 3.524 1.484 10256
0.364 3.528 1.474 10812
0.366 3.547 1.469 9161
0.367 3.550 1.459 9029
0.382 3.694 1.501 8178
0.383 3.706 1.493 7501
0.384 3.717 1.485 10186
0.384 3.714 1.472 10247
0.388 3.754 1.474 6599
0.394 3.818 1.485 5766
0.399 3.859 1.487 6362
0.399 3.863 1.476 9024
0.399 3.866 1.465 9458
0.401 3.878 1.456 6862
0.406 3.934 1.463 6969
0.408 3.952 1.456 6587
0.411 3.979 1.452 4564
0.413 3.997 1.446 2935
0.419 4.061 1.454 4307
0.421 4.072 1.444 6630
0.421 4.076 1.433 5177
0.434 4.200 1.459 4518
0.433 4.196 1.445 5015
0.435 4.208 1.435 4119
0.444 4.294 1.448 2643
0.445 4.306 1.438 4096
0.448 4.339 1.435 4953
0.449 4.351 1.424 6766
0.448 4.339 1.407 4790
0.462 4.472 1.432 4208
0.464 4.490 1.424 3541
0.453 4.388 1.380 2292
0.466 4.513 1.402 2074
0.476 4.608 1.414 3124
0.475 4.604 1.399 5110
0.481 4.653 1.398 5339
0.483 4.672 1.389 6903
0.484 4.683 1.377 4247
0.505 4.892 1.418 5512
0.503 4.873 1.398 8104
0.504 4.877 1.384 10555
0.505 4.888 1.371 10968
0.504 4.884 1.355 7853
0.507 4.910 1.347 4124
0.535 5.182 1.398 3483
0.536 5.185 1.383 3880
0.545 5.281 1.390 4503
0.545 5.277 1.373 4651
0.549 5.311 1.365 3502
0.553 5.353 1.358 4069
0.557 5.395 1.351 3980
0.559 5.414 1.339 4463
0.568 5.502 1.342 4656
0.572 5.536 1.333 4056
0.574 5.555 1.320 3581
0.589 5.705 1.335 2997
0.590 5.708 1.318 2908
0.599 5.804 1.321 3348
0.601 5.815 1.305 4478
0.603 5.834 1.292 3395
0.636 6.162 1.338 3956
0.637 6.165 1.320 4228
0.636 6.161 1.301 2759
0.653 6.319 1.312 1796
0.669 6.477 1.322 2790
0.669 6.481 1.303 3616
0.667 6.461 1.280 3890
0.669 6.480 1.264 3437
0.705 6.825 1.304 2351
0.717 6.944 1.304 2811
0.718 6.948 1.284 3169
0.719 6.959 1.265 2218
0.703 6.806 1.220 1758
0.736 7.129 1.250 1709
0.765 7.404 1.271 2153
0.766 7.415 1.251 3037
0.766 7.418 1.229 2898
0.785 7.601 1.234 2107
0.791 7.659 1.219 2661
0.791 7.662 1.197 2198
0.874 8.461 1.283 1628
0.875 8.472 1.259 1968
0.835 8.085 1.184 1923
0.873 8.455 1.207 1877
0.874 8.466 1.183 1955
0.971 9.399 1.271 1857
0.965 9.347 1.237 1747
0.965 9.343 1.209 1861
0.968 9.369 1.184 2112
0.971 9.404 1.160 2961
0.972 9.414 1.134 3151
0.973 9.417 1.106 2412
0.971 9.397 1.076 1914
0.970 9.391 1.048 2106
0.969 9.386 1.020 1766
0.971 9.396 0.993 1255
0.971 9.399 0.966 959
0.972 9.409 0.939 685
0.979 9.482 0.918 384
0.980 9.484 0.890 405
0.979 9.479 0.862 375
0.978 9.473 0.833 288
0.232 2.173 1.667 4025
0.232 2.178 1.660 8050
0.233 2.182 1.654 8050
0.233 2.187 1.648 8350
0.233 2.185 1.637 8766
0.238 2.234 1.662 6916
0.241 2.265 1.674 8357
0.243 2.282 1.676 8030
0.244 2.286 1.670 6916
0.245 2.297 1.668 5892
0.245 2.295 1.657 5353
0.244 2.293 1.646 4932
0.246 2.311 1.648 6288
0.248 2.322 1.646 8001
0.248 2.326 1.639 8566
0.249 2.337 1.637 9269
0.249 2.335 1.626 9096
0.249 2.339 1.619 8980
0.249 2.337 1.608 8920
0.250 2.347 1.606 8930
0.251 2.358 1.603 9062
0.251 2.356 1.592 7320
0.261 2.447 1.640 9120
0.263 2.471 1.645 7986
0.267 2.503 1.655 8935
0.268 2.514 1.652 7721
0.270 2.531 1.653 7188
0.271 2.543 1.650 5620
0.272 2.554 1.646 4279
0.266 2.490 1.598 4580
0.266 2.495 1.591 5430
0.266 2.499 1.584 5302
0.268 2.517 1.585 4703
0.270 2.534 1.586 4134
0.273 2.559 1.590 4639
0.274 2.570 1.587 5473
0.275 2.581 1.583 5074
0.276 2.592 1.580 4727
0.286 2.686 1.623 4299
0.286 2.683 1.611 4417
0.287 2.694 1.607 3276
0.288 2.705 1.603 3414
0.289 2.710 1.596 4618
0.291 2.728 1.595 5775
0.291 2.732 1.587 7069
0.292 2.736 1.580 7285
0.293 2.747 1.575 7300
0.295 2.765 1.575 7255
0.295 2.769 1.567 6996
0.296 2.774 1.559 6737
0.298 2.792 1.558 6229
0.299 2.803 1.554 5838
0.299 2.807 1.546 5705
0.303 2.839 1.552 6087
0.305 2.864 1.554 5903
0.319 2.988 1.606 6327
0.321 3.007 1.604 5923
0.322 3.018 1.599 5526
0.316 2.965 1.563 7328
0.316 2.963 1.551 8747
0.316 2.967 1.542 8520
0.325 3.049 1.571 6367
0.327 3.067 1.569 8171
0.327 3.071 1.560 10200
0.328 3.075 1.551 13175
0.328 3.080 1.543 14168
0.328 3.076 1.530 11733
0.328 3.081 1.521 7497
0.338 3.171 1.552 8532
0.340 3.189 1.549 8781
0.341 3.200 1.543 9839
0.342 3.204 1.534 9299
0.343 3.216 1.528 7195
0.349 3.270 1.540 5896
0.351 3.289 1.537 6376
0.351 3.293 1.528 5972
0.352 3.304 1.521 4894
0.353 3.308 1.512 6114
0.352 3.305 1.499 9913
0.354 3.323 1.496 10297
0.357 3.349 1.495 10031
0.358 3.360 1.488 9179
0.359 3.364 1.479 6321
0.360 3.375 1.472 4567
0.360 3.379 1.462 4358
0.370 3.471 1.487 3439
0.377 3.534 1.500 5603
0.376 3.530 1.487 10840
0.378 3.541 1.480 10923
0.379 3.553 1.472 9450
0.379 3.556 1.462 9246
0.394 3.693 1.501 7990
0.395 3.704 1.493 7157
0.395 3.708 1.483 9375
0.395 3.705 1.469 10199
0.401 3.761 1.477 6772
0.407 3.816 1.485 6154
0.410 3.850 1.484 7011
0.411 3.854 1.473 10333
0.412 3.865 1.465 11389
0.414 3.884 1.459 8098
0.419 3.932 1.463 7917
0.420 3.944 1.454 6991
0.424 3.977 1.452 4008
0.427 4.004 1.448 3361
0.435 4.082 1.461 4273
0.435 4.079 1.447 6544
0.434 4.075 1.433 5086
0.446 4.184 1.454 4674
0.446 4.187 1.442 4986
0.451 4.229 1.442 3436
0.456 4.278 1.444 2718
0.459 4.304 1.438 4116
0.462 4.330 1.432 4604
0.464 4.349 1.424 5500
0.462 4.330 1.405 4002
0.477 4.478 1.435 4256
0.479 4.496 1.426 3669
0.481 4.508 1.415 2614
0.481 4.511 1.402 2767
0.490 4.598 1.412 3283
0.491 4.602 1.399 5433
0.495 4.644 1.396 5430
0.499 4.678 1.391 7317
0.499 4.681 1.377 4928
0.520 4.875 1.414 5056
0.519 4.864 1.396 8449
0.519 4.867 1.382 9910
0.520 4.879 1.369 10531
0.520 4.875 1.353 8762
0.550 5.161 1.410 4346
0.552 5.180 1.398 4190
0.552 5.176 1.381 4742
0.552 5.179 1.366 5194
0.562 5.275 1.373 4159
0.570 5.347 1.374 3099
0.571 5.359 1.360 3994
0.575 5.393 1.351 3980
0.576 5.404 1.337 4390
0.586 5.500 1.342 4682
0.589 5.526 1.331 4007
0.590 5.537 1.317 3793
0.589 5.525 1.297 3258
0.608 5.706 1.318 2929
0.619 5.802 1.321 3768
0.620 5.813 1.305 5175
0.622 5.832 1.292 4226
0.657 6.160 1.338 4463
0.657 6.163 1.320 4834
0.657 6.159 1.301 3024
0.673 6.317 1.312 1942
0.690 6.475 1.322 2885
0.691 6.479 1.303 3501
0.689 6.466 1.282 3508
0.691 6.478 1.264 3169
0.727 6.822 1.304 2735
0.718 6.732 1.269 3275
0.740 6.945 1.284 3131
0.742 6.956 1.265 2284
0.758 7.107 1.268 1773
0.760 7.126 1.250 1930
0.771 7.230 1.245 2219
0.790 7.413 1.251 2789
0.791 7.416 1.229 2546
0.814 7.637 1.239 1977
0.816 7.656 1.219 2569
0.816 7.651 1.196 1993
0.903 8.466 1.284 1579
0.904 8.477 1.260 2174
0.902 8.464 1.233 1998
0.901 8.452 1.207 2173
0.902 8.463 1.183 2161
1.001 9.388 1.270 2021
0.997 9.352 1.238 2096
0.997 9.347 1.210 2089
0.999 9.374 1.185 2364
1.002 9.400 1.160 3154
1.003 9.403 1.133 3200
1.003 9.406 1.106 2443
1.001 9.393 1.076 2040
1.000 9.380 1.048 2360
1.000 9.383 1.020 2083
1.001 9.393 0.993 1429
1.002 9.396 0.966 1001
1.002 9.398 0.939 643
1.011 9.479 0.918 337
1.011 9.481 0.890 447
1.010 9.475 0.862 460
1.010 9.477 0.834 350
0.717 6.722 -0.527 263
0.717 6.720 -0.547 339
0.716 6.718 -0.567 415
0.716 6.716 -0.586 481
0.716 6.714 -0.606 547
0.716 6.712 -0.625 547
0.715 6.710 -0.645 273
0.237 2.173 1.667 4175
0.238 2.177 1.660 8351
0.238 2.182 1.654 8351
0.239 2.186 1.648 9180
0.238 2.184 1.637 10024
0.240 2.201 1.640 7645
0.244 2.238 1.656 7623
0.249 2.281 1.676 6552
0.250 2.286 1.670 5575
0.251 2.297 1.668 4830
0.250 2.295 1.657 3972
0.250 2.292 1.646 3487
0.252 2.310 1.648 4466
0.253 2.321 1.646 5935
0.255 2.332 1.643 6457
0.255 2.336 1.637 7149
0.255 2.334 1.626 7079
0.255 2.332 1.615 7126
0.255 2.336 1.608 7126
0.256 2.347 1.606 7682
0.257 2.358 1.603 8704
0.258 2.362 1.596 7107
0.267 2.446 1.640 9111
0.270 2.471 1.645 7973
0.272 2.495 1.651 9072
0.274 2.513 1.652 7718
0.276 2.524 1.649 6970
0.277 2.535 1.646 5300
0.279 2.553 1.646 3975
0.271 2.483 1.594 4073
0.272 2.487 1.587 4910
0.273 2.498 1.584 5001
0.275 2.523 1.589 5221
0.277 2.534 1.586 5013
0.279 2.558 1.590 5318
0.280 2.569 1.587 6318
0.282 2.580 1.583 5845
0.282 2.585 1.576 5390
0.292 2.678 1.619 4646
0.293 2.682 1.611 5007
0.294 2.693 1.607 3837
0.295 2.705 1.603 3488
0.295 2.702 1.592 4279
0.298 2.727 1.595 5063
0.298 2.731 1.587 6322
0.299 2.735 1.580 6555
0.301 2.753 1.579 7033
0.302 2.765 1.575 7709
0.303 2.776 1.571 7609
0.304 2.787 1.566 7520
0.305 2.798 1.562 6926
0.306 2.802 1.554 6148
0.306 2.806 1.546 5854
0.310 2.838 1.552 5900
0.313 2.871 1.558 6141
0.316 2.896 1.560 6211
0.327 2.999 1.601 5529
0.322 2.953 1.568 6380
0.324 2.965 1.563 8419
0.323 2.962 1.551 9967
0.324 2.966 1.542 9466
0.333 3.048 1.571 6783
0.335 3.066 1.569 9061
0.335 3.071 1.560 11378
0.336 3.075 1.551 14166
0.336 3.079 1.543 14556
0.337 3.083 1.534 11718
0.346 3.166 1.561 7106
0.347 3.177 1.555 8621
0.349 3.195 1.552 8467
0.349 3.199 1.543 9313
0.350 3.204 1.534 8745
0.351 3.215 1.528 6820
0.357 3.269 1.540 5799
0.359 3.288 1.537 6467
0.359 3.292 1.528 6212
0.360 3.296 1.518 5339
0.360 3.300 1.509 6834
0.361 3.304 1.499 10748
0.363 3.322 1.496 10285
0.366 3.348 1.495 9664
0.367 3.359 1.488 8890
0.368 3.371 1.482 5939
0.378 3.462 1.507 4402
0.378 3.466 1.497 4626
0.379 3.470 1.487 3911
0.386 3.533 1.500 5588
0.386 3.537 1.490 10927
0.387 3.548 1.482 11002
0.389 3.559 1.475 9681
0.388 3.556 1.462 9121
0.404 3.699 1.504 7872
0.404 3.703 1.493 6959
0.405 3.707 1.483 8685
0.404 3.704 1.469 10011
0.410 3.760 1.477 6849
0.415 3.800 1.480 6053
0.420 3.849 1.484 6116
0.421 3.860 1.476 10253
0.422 3.864 1.465 12000
0.424 3.883 1.459 8707
0.428 3.924 1.460 8257
0.430 3.943 1.454 6996
0.437 3.999 1.460 3902
0.437 4.002 1.448 3847
0.446 4.081 1.461 4809
0.445 4.077 1.447 6860
0.445 4.074 1.433 5093
0.455 4.167 1.450 5282
0.453 4.149 1.430 5316
0.463 4.243 1.447 3413
0.466 4.269 1.441 2912
0.470 4.303 1.438 3710
0.473 4.329 1.432 3968
0.475 4.356 1.427 4132
0.472 4.322 1.403 3251
0.489 4.476 1.435 4014
0.491 4.495 1.426 3538
0.493 4.514 1.417 2947
0.492 4.510 1.402 3481
0.502 4.597 1.412 3430
0.502 4.601 1.399 5424
0.502 4.597 1.383 5210
0.511 4.677 1.391 6930
0.511 4.680 1.377 4828
0.525 4.805 1.396 5312
0.530 4.855 1.394 8234
0.530 4.858 1.380 8692
0.532 4.870 1.367 9613
0.532 4.873 1.353 9110
0.532 4.869 1.337 4818
0.565 5.178 1.398 4757
0.565 5.174 1.381 5515
0.566 5.186 1.368 5744
0.575 5.266 1.371 3665
0.584 5.354 1.376 3400
0.585 5.357 1.360 3857
0.589 5.391 1.351 3742
0.590 5.403 1.337 4175
0.599 5.491 1.340 4499
0.603 5.525 1.331 3806
0.604 5.536 1.317 4036
0.603 5.524 1.297 3508
0.632 5.789 1.336 2890
0.633 5.800 1.321 4186
0.635 5.819 1.307 5905
0.636 5.830 1.292 4901
0.672 6.158 1.338 4667
0.673 6.161 1.320 5212
0.674 6.173 1.304 3188
0.695 6.369 1.322 2288
0.707 6.473 1.322 2677
0.707 6.477 1.303 3133
0.707 6.472 1.283 2867
0.706 6.468 1.263 2696
0.745 6.820 1.304 2780
0.735 6.731 1.269 3437
0.759 6.951 1.285 2962
0.759 6.954 1.265 2238
0.773 7.082 1.265 1841
0.777 7.116 1.249 2138
0.788 7.221 1.244 2594
0.809 7.411 1.251 2574
0.809 7.414 1.229 2177
0.852 7.806 1.264 1914
0.879 8.051 1.276 2154
0.879 8.055 1.252 1888
0.909 8.331 1.266 1620
0.925 8.474 1.260 2275
0.924 8.462 1.233 2284
0.922 8.450 1.207 2348
0.924 8.460 1.183 2234
1.024 9.378 1.269 2084
1.021 9.350 1.238 2148
1.020 9.345 1.210 2112
1.023 9.371 1.185 2417
1.025 9.390 1.160 3315
1.026 9.401 1.133 3401
1.026 9.396 1.105 2725
1.025 9.391 1.076 2584
1.025 9.386 1.048 2954
1.024 9.380 1.020 2527
1.025 9.391 0.993 1596
1.025 9.385 0.965 1026
1.025 9.388 0.938 757
1.029 9.429 0.914 437
1.034 9.471 0.889 383
1.034 9.473 0.862 346
1.034 9.475 0.834 263
0.243 2.166 1.662 4384
0.244 2.170 1.656 8768
0.244 2.175 1.649 8768
0.244 2.179 1.643 10068
0.246 2.190 1.642 11439
0.247 2.201 1.640 8926
0.250 2.231 1.651 7730
0.251 2.235 1.645 6323
0.249 2.220 1.625 4688
0.250 2.224 1.619 4688
0.251 2.235 1.617 3726
0.253 2.252 1.619 3042
0.261 2.329 1.661 2673
0.261 2.327 1.650 3589
0.262 2.338 1.648 4261
0.263 2.342 1.641 4973
0.263 2.340 1.630 5045
0.261 2.324 1.610 5471
0.261 2.328 1.604 5471
0.264 2.353 1.610 6881
0.265 2.364 1.607 8767
0.266 2.368 1.601 7212
0.274 2.439 1.636 9014
0.277 2.470 1.645 7734
0.280 2.494 1.651 8872
0.281 2.505 1.648 7539
0.283 2.523 1.649 6766
0.284 2.534 1.646 4972
0.287 2.559 1.650 3709
0.279 2.482 1.594 3656
0.279 2.486 1.587 4356
0.282 2.511 1.592 4814
0.283 2.522 1.589 5880
0.284 2.533 1.586 5959
0.286 2.551 1.586 6087
0.288 2.569 1.587 7137
0.289 2.580 1.583 6559
0.290 2.584 1.576 6036
0.300 2.677 1.619 4907
0.302 2.688 1.615 5360
0.303 2.699 1.611 4324
0.300 2.669 1.584 3510
0.302 2.687 1.584 3981
0.305 2.719 1.592 4156
0.306 2.730 1.587 5045
0.307 2.734 1.580 5481
0.309 2.752 1.579 6820
0.311 2.771 1.579 8601
0.312 2.782 1.574 8604
0.313 2.793 1.570 8681
0.319 2.846 1.587 7836
0.318 2.836 1.572 6361
0.315 2.805 1.546 5793
0.319 2.844 1.555 5817
0.326 2.905 1.576 6846
0.326 2.902 1.564 7050
0.328 2.927 1.566 5801
0.331 2.952 1.568 7290
0.332 2.957 1.559 9474
0.332 2.961 1.551 11010
0.333 2.972 1.546 10475
0.340 3.033 1.564 7120
0.344 3.065 1.569 9496
0.344 3.070 1.560 11838
0.345 3.074 1.551 14192
0.346 3.085 1.546 14202
0.346 3.082 1.534 11001
0.356 3.172 1.564 6542
0.356 3.176 1.555 7793
0.359 3.202 1.555 7756
0.360 3.206 1.546 8763
0.360 3.210 1.537 8075
0.361 3.221 1.531 6304
0.368 3.275 1.544 5354
0.369 3.287 1.537 6075
0.369 3.291 1.528 6022
0.370 3.295 1.518 5880
0.369 3.292 1.506 7924
0.370 3.296 1.496 11340
0.373 3.321 1.496 10249
0.376 3.347 1.495 9442
0.377 3.358 1.488 8300
0.378 3.369 1.482 5470
0.388 3.454 1.504 5447
0.388 3.458 1.494 5543
0.389 3.469 1.487 3998
0.398 3.546 1.506 5447
0.398 3.543 1.493 10792
0.399 3.554 1.485 11379
0.401 3.573 1.480 10504
0.400 3.562 1.465 8592
0.415 3.698 1.504 8049
0.415 3.702 1.493 7191
0.416 3.706 1.483 8197
0.415 3.703 1.469 9666
0.415 3.699 1.456 6826
0.423 3.770 1.469 6178
0.431 3.840 1.482 4091
0.433 3.859 1.476 9396
0.434 3.870 1.467 12179
0.436 3.881 1.459 9055
0.438 3.908 1.455 8058
0.441 3.934 1.451 6395
0.451 4.020 1.467 4222
0.451 4.016 1.453 4174
0.457 4.072 1.459 5494
0.457 4.076 1.447 7124
0.457 4.072 1.433 5030
0.467 4.159 1.447 6182
0.466 4.155 1.433 6220
0.476 4.241 1.447 3586
0.478 4.260 1.439 3160
0.478 4.264 1.426 3252
0.486 4.335 1.435 3012
0.490 4.369 1.431 2947
0.496 4.418 1.432 2526
0.502 4.475 1.435 3502
0.504 4.494 1.426 3096
0.506 4.513 1.417 3132
0.507 4.516 1.404 4076
0.507 4.520 1.391 3398
0.515 4.592 1.397 5104
0.515 4.588 1.381 5296
0.525 4.675 1.391 5725
0.538 4.793 1.408 4200
0.539 4.804 1.396 7755
0.541 4.823 1.386 7767
0.544 4.849 1.378 6980
0.546 4.868 1.367 8385
0.547 4.872 1.353 8937
0.545 4.860 1.335 5527
0.580 5.169 1.396 5185
0.580 5.173 1.381 6393
0.582 5.184 1.368 6522
0.584 5.203 1.357 3991
0.601 5.359 1.377 3644
0.602 5.363 1.362 3715
0.605 5.390 1.351 3457
0.605 5.393 1.336 4041
0.615 5.481 1.339 4155
0.620 5.523 1.331 3382
0.620 5.526 1.315 4198
0.619 5.514 1.296 3651
0.649 5.780 1.334 3386
0.651 5.798 1.321 4484
0.653 5.817 1.307 6453
0.654 5.828 1.292 5367
0.691 6.156 1.338 4818
0.692 6.167 1.322 5553
0.693 6.178 1.305 3375
0.714 6.360 1.321 2265
0.727 6.479 1.324 2179
0.727 6.482 1.305 2479
0.711 6.339 1.260 2388
0.723 6.443 1.259 2120
0.754 6.717 1.287 2799
0.754 6.721 1.267 3259
0.780 6.949 1.285 2646
0.780 6.952 1.265 2076
0.793 7.064 1.262 2085
0.809 7.207 1.263 2320
0.810 7.218 1.244 2826
0.814 7.253 1.227 2460
0.815 7.264 1.207 1959
0.877 7.812 1.265 1815
0.903 8.049 1.276 1917
0.903 8.052 1.252 1820
0.934 8.320 1.265 1809
0.951 8.472 1.260 2176
0.949 8.459 1.233 2409
0.948 8.447 1.207 2395
0.949 8.458 1.183 2210
1.051 9.367 1.268 2352
1.050 9.354 1.239 3072
1.049 9.350 1.211 2813
1.052 9.376 1.186 2658
1.053 9.387 1.160 3310
1.055 9.398 1.133 3338
1.054 9.393 1.105 2768
1.052 9.380 1.076 2554
1.052 9.375 1.048 2644
1.052 9.377 1.020 2048
1.052 9.380 0.993 1373
1.053 9.382 0.965 1127
1.054 9.392 0.939 858
1.057 9.418 0.913 587
1.058 9.428 0.886 322
0.753 6.712 -0.586 276
0.753 6.710 -0.606 308
0.753 6.708 -0.625 308
0.248 2.165 1.662 4406
0.248 2.170 1.656 8813
0.249 2.174 1.649 8813
0.249 2.178 1.643 10369
0.250 2.189 1.642 12038
0.252 2.200 1.640 9487
0.254 2.217 1.642 7750
0.255 2.228 1.641 6521
0.255 2.232 1.634 5238
0.255 2.230 1.623 5217
0.256 2.241 1.621 4098
0.258 2.258 1.624 3185
0.269 2.354 1.679 2328
0.269 2.352 1.668 2702
0.269 2.350 1.656 3249
0.269 2.355 1.650 3864
0.268 2.346 1.634 3960
0.268 2.343 1.623 4516
0.269 2.354 1.621 4626
0.270 2.359 1.614 6815
0.271 2.370 1.612 9081
0.272 2.381 1.609 7533
0.279 2.438 1.636 8745
0.282 2.469 1.645 7173
0.285 2.494 1.651 8117
0.286 2.505 1.648 6979
0.289 2.523 1.649 6285
0.289 2.527 1.641 4630
0.293 2.558 1.650 3467
0.283 2.475 1.590 3430
0.284 2.479 1.583 4020
0.287 2.510 1.592 4711
0.288 2.521 1.589 6188
0.290 2.532 1.586 6493
0.292 2.550 1.586 6500
0.294 2.568 1.587 7449
0.294 2.572 1.579 6798
0.295 2.583 1.576 6209
0.305 2.670 1.615 4899
0.308 2.695 1.619 5305
0.309 2.706 1.615 4417
0.305 2.669 1.584 3717
0.306 2.680 1.580 3953
0.310 2.712 1.588 3714
0.311 2.723 1.584 3982
0.312 2.727 1.576 4547
0.316 2.759 1.583 6556
0.318 2.777 1.582 9116
0.318 2.781 1.574 9187
0.319 2.792 1.570 9344
0.325 2.845 1.587 8256
0.326 2.849 1.579 6827
0.321 2.805 1.546 5566
0.330 2.886 1.577 5894
0.333 2.911 1.579 7230
0.333 2.915 1.571 7455
0.335 2.926 1.566 6340
0.338 2.952 1.568 7545
0.338 2.956 1.559 9662
0.339 2.960 1.551 11155
0.340 2.971 1.546 10826
0.346 3.025 1.561 7121
0.351 3.065 1.569 9130
0.351 3.069 1.560 11253
0.351 3.073 1.551 13081
0.353 3.084 1.546 12910
0.352 3.081 1.534 9731
0.363 3.178 1.567 5562
0.364 3.182 1.558 6375
0.367 3.208 1.559 7038
0.367 3.212 1.549 8295
0.368 3.216 1.540 7545
0.368 3.220 1.531 5853
0.365 3.188 1.506 4781
0.376 3.286 1.537 5313
0.376 3.290 1.528 5500
0.376 3.287 1.515 6130
0.376 3.284 1.503 8630
0.377 3.295 1.496 11785
0.380 3.320 1.496 10444
0.383 3.346 1.495 9290
0.384 3.357 1.488 7568
0.385 3.369 1.482 5151
0.394 3.446 1.501 6155
0.395 3.449 1.491 5967
0.389 3.402 1.461 4130
0.405 3.545 1.506 5532
0.405 3.542 1.493 10421
0.407 3.560 1.488 11506
0.409 3.579 1.483 10899
0.408 3.568 1.467 7758
0.424 3.705 1.507 7936
0.423 3.701 1.493 7384
0.423 3.698 1.480 7977
0.423 3.702 1.469 9198
0.423 3.698 1.456 6572
0.431 3.769 1.469 5869
0.431 3.765 1.455 3870
0.442 3.865 1.478 7974
0.443 3.869 1.467 11545
0.445 3.888 1.461 8938
0.446 3.899 1.452 7838
0.458 4.007 1.476 6279
0.460 4.019 1.467 4439
0.459 4.015 1.453 4446
0.466 4.071 1.459 5728
0.466 4.075 1.447 7085
0.465 4.064 1.430 5000
0.475 4.150 1.445 6477
0.475 4.154 1.433 6513
0.475 4.158 1.421 3602
0.486 4.251 1.437 3145
0.487 4.255 1.424 3322
0.490 4.282 1.419 2911
0.501 4.383 1.436 2635
0.503 4.402 1.427 2362
0.511 4.466 1.432 3015
0.513 4.485 1.424 2767
0.516 4.511 1.417 3042
0.516 4.515 1.404 4155
0.516 4.511 1.389 3258
0.525 4.591 1.397 4437
0.525 4.587 1.381 4833
0.535 4.681 1.393 4620
0.548 4.791 1.408 4865
0.549 4.803 1.396 8490
0.551 4.814 1.384 7685
0.551 4.818 1.370 5774
0.557 4.867 1.367 7116
0.557 4.870 1.353 8442
0.555 4.851 1.333 5900
0.591 5.168 1.396 5087
0.591 5.171 1.381 6520
0.594 5.190 1.370 6454
0.595 5.201 1.357 4400
0.613 5.358 1.377 3718
0.614 5.369 1.364 3580
0.615 5.381 1.350 3119
0.617 5.392 1.336 3890
0.627 5.480 1.339 3915
0.629 5.499 1.326 2983
0.631 5.517 1.313 3974
0.631 5.513 1.296 3441
0.661 5.778 1.334 3669
0.663 5.797 1.321 4450
0.665 5.816 1.307 6397
0.666 5.827 1.292 5151
0.704 6.155 1.338 4519
0.705 6.166 1.322 5355
0.706 6.177 1.305 3202
0.726 6.350 1.319 2108
0.741 6.477 1.324 1681
0.741 6.481 1.305 1984
0.725 6.337 1.260 2229
0.763 6.674 1.300 1896
0.768 6.716 1.287 2604
0.768 6.719 1.267 2895
0.795 6.947 1.285 2415
0.808 7.067 1.284 2089
0.807 7.055 1.261 2221
0.824 7.206 1.263 2541
0.825 7.217 1.244 2915
0.829 7.251 1.227 2462
0.831 7.262 1.207 1953
0.830 7.257 1.185 1582
0.895 7.829 1.245 1675
0.905 7.910 1.233 1886
0.951 8.318 1.265 1808
0.953 8.337 1.243 1906
0.967 8.457 1.233 2272
0.966 8.445 1.207 2242
0.967 8.456 1.183 2060
1.049 9.169 1.245 2535
1.070 9.352 1.239 3620
1.069 9.347 1.211 3272
1.072 9.374 1.186 2976
1.073 9.385 1.160 3397
1.075 9.395 1.133 3306
1.074 9.390 1.105 2784
1.072 9.370 1.075 2318
1.072 9.372 1.048 2153
1.072 9.375 1.020 1775
1.074 9.393 0.994 1411
1.074 9.388 0.966 1194
1.074 9.390 0.939 863
1.075 9.400 0.912 374
1.080 9.442 0.887 270
1.080 9.444 0.860 253
0.767 6.711 -0.586 287
0.766 6.701 -0.605 330
0.766 6.699 -0.624 330
0.255 2.164 1.662 4531
0.256 2.169 1.656 9062
0.256 2.173 1.649 9062
0.257 2.178 1.643 10901
0.258 2.188 1.642 12890
0.259 2.199 1.640 10228
0.260 2.210 1.638 8101
0.262 2.221 1.636 6918
0.263 2.232 1.634 5854
0.263 2.236 1.628 5972
0.265 2.253 1.630 4879
0.268 2.277 1.637 4383
0.274 2.327 1.661 3286
0.276 2.345 1.663 3498
0.278 2.356 1.661 3694
0.278 2.360 1.654 3896
0.279 2.365 1.647 4106
0.278 2.356 1.632 4907
0.278 2.360 1.625 5380
0.279 2.371 1.623 7825
0.280 2.375 1.616 10277
0.281 2.386 1.613 8586
0.286 2.431 1.631 8547
0.289 2.455 1.637 6401
0.294 2.493 1.651 6721
0.295 2.504 1.648 5946
0.297 2.522 1.649 5472
0.298 2.526 1.641 4282
0.300 2.551 1.646 3304
0.291 2.474 1.590 3413
0.291 2.471 1.579 3861
0.296 2.516 1.596 4759
0.297 2.520 1.589 6615
0.298 2.531 1.586 7207
0.300 2.549 1.586 7071
0.302 2.567 1.587 7822
0.303 2.571 1.579 7093
0.304 2.582 1.576 6376
0.314 2.662 1.611 5119
0.318 2.700 1.623 5104
0.319 2.705 1.615 4496
0.315 2.674 1.588 4171
0.318 2.699 1.592 4426
0.319 2.710 1.588 3926
0.321 2.722 1.584 3512
0.322 2.733 1.580 4034
0.327 2.779 1.594 6729
0.327 2.776 1.582 9822
0.328 2.787 1.578 9864
0.329 2.791 1.570 10008
0.335 2.844 1.587 8466
0.336 2.855 1.583 7462
0.339 2.873 1.582 5884
0.340 2.885 1.577 6293
0.343 2.910 1.579 7484
0.343 2.914 1.571 7876
0.345 2.925 1.566 6725
0.348 2.951 1.568 7512
0.349 2.962 1.563 9528
0.349 2.959 1.551 10910
0.350 2.970 1.546 10901
0.351 2.981 1.541 7041
