1.873 4.452 1.247 7187
1.895 4.505 1.245 4662
1.929 4.586 1.250 5014
1.937 4.603 1.239 5144
1.992 4.735 1.255 5428
1.993 4.738 1.241 5893
1.991 4.733 1.224 4188
1.990 4.729 1.208 2644
2.066 4.911 1.233 3469
2.067 4.914 1.218 3253
2.092 4.974 1.215 4158
2.085 4.955 1.195 5599
2.080 4.944 1.176 5114
2.150 5.111 1.195 4081
2.161 5.135 1.183 4302
2.246 5.339 1.208 3618
2.247 5.342 1.191 2781
2.288 5.438 1.192 2882
2.292 5.448 1.177 3941
2.299 5.465 1.162 4703
2.303 5.475 1.147 5446
2.302 5.471 1.128 4966
2.375 5.646 1.142 3915
2.380 5.656 1.125 3331
2.438 5.796 1.131 4478
2.439 5.798 1.113 6410
2.450 5.822 1.099 4401
2.569 6.106 1.126 4427
2.570 6.109 1.107 4443
2.577 6.126 1.090 4424
2.581 6.136 1.072 3370
2.759 6.558 1.115 2429
2.769 6.582 1.098 3274
2.630 6.252 1.030 2533
2.856 6.790 1.085 2890
2.854 6.785 1.063 2233
2.944 6.997 1.070 2848
2.945 7.000 1.048 3304
2.949 7.009 1.026 2802
2.990 7.106 1.016 2927
2.991 7.108 0.994 2678
3.037 7.219 0.984 2682
3.038 7.222 0.962 2294
3.109 7.391 0.957 1625
3.535 8.402 1.043 2175
3.539 8.412 1.018 3616
3.540 8.414 0.991 3982
3.538 8.409 0.964 4903
3.539 8.412 0.938 6093
3.540 8.414 0.911 6486
3.541 8.416 0.885 6350
3.551 8.439 0.860 6242
3.554 8.449 0.834 6660
3.555 8.450 0.807 6421
3.553 8.445 0.780 4321
3.547 8.432 0.753 2216
3.548 8.434 0.726 1870
3.546 8.428 0.699 1486
3.543 8.422 0.672 862
3.624 8.613 0.657 600
3.621 8.607 0.629 432
3.622 8.608 0.602 320
3.653 8.684 0.551 263
3.654 8.685 0.524 259
3.644 8.661 0.305 282
3.644 8.662 0.277 374
3.610 8.582 0.249 538
3.617 8.597 0.222 731
3.623 8.612 0.195 782
3.641 8.655 0.168 763
3.623 8.612 0.141 862
3.620 8.604 0.114 1064
3.614 8.590 0.087 1065
3.598 8.553 0.060 1234
3.595 8.545 0.033 1300
3.592 8.538 0.007 1295
3.592 8.537 -0.020 1227
3.589 8.530 -0.047 1100
3.588 8.529 -0.074 977
3.588 8.529 -0.101 761
3.471 8.251 -0.119 584
3.471 8.250 -0.145 509
3.357 7.979 -0.161 571
3.403 8.088 -0.190 598
3.402 8.087 -0.216 664
3.396 8.071 -0.240 749
3.392 8.063 -0.266 870
3.395 8.069 -0.291 712
3.403 8.090 -0.318 648
3.366 8.001 -0.338 580
3.271 7.774 -0.349 617
3.273 7.780 -0.374 610
3.273 7.779 -0.398 611
3.266 7.762 -0.422 614
3.262 7.754 -0.446 651
3.261 7.752 -0.470 649
3.258 7.743 -0.494 669
3.248 7.720 -0.516 814
3.241 7.703 -0.539 690
3.240 7.701 -0.564 589
3.135 7.452 -0.564 413
3.134 7.450 -0.588 418
3.127 7.434 -0.610 375
3.114 7.403 -0.630 417
3.114 7.401 -0.653 417
3.113 7.398 -0.677 423
3.109 7.389 -0.699 431
3.095 7.358 -0.719 407
3.088 7.341 -0.740 505
3.087 7.338 -0.764 505
3.086 7.336 -0.787 252
0.812 1.911 1.588 7276
0.813 1.915 1.582 14552
0.815 1.919 1.576 13314
0.817 1.923 1.570 10289
0.818 1.927 1.564 8503
0.822 1.936 1.563 6539
0.827 1.946 1.561 4888
0.836 1.968 1.569 6459
0.843 1.984 1.572 9401
0.844 1.988 1.566 9401
0.846 1.992 1.559 14002
0.845 1.989 1.549 18696
0.852 2.005 1.552 17290
0.856 2.015 1.550 16812
0.855 2.013 1.539 14082
0.851 2.004 1.524 11639
0.861 2.027 1.531 13274
0.862 2.030 1.525 15207
0.864 2.034 1.518 12233
0.868 2.044 1.516 9357
0.869 2.047 1.510 8790
0.879 2.070 1.516 8312
0.886 2.086 1.518 8340
0.895 2.108 1.524 7047
0.905 2.130 1.530 7412
0.909 2.140 1.528 9609
0.913 2.150 1.525 11943
0.907 2.135 1.506 12293
0.908 2.139 1.500 11298
0.913 2.149 1.497 9406
0.919 2.165 1.499 9465
0.926 2.181 1.500 10362
0.928 2.185 1.493 10548
0.929 2.188 1.486 10734
0.928 2.186 1.476 8350
0.967 2.278 1.524 8278
0.969 2.282 1.517 7362
0.968 2.279 1.506 6512
0.972 2.289 1.503 6796
0.976 2.299 1.499 7766
0.981 2.309 1.496 8921
0.985 2.319 1.493 7773
1.024 2.412 1.539 6968
1.023 2.410 1.527 10145
1.025 2.413 1.520 13518
1.029 2.423 1.516 14380
1.031 2.427 1.509 13666
1.030 2.424 1.497 11881
1.034 2.434 1.494 10294
1.035 2.438 1.486 6356
1.031 2.429 1.471 3865
1.041 2.452 1.474 3846
1.090 2.566 1.528 3995
1.061 2.498 1.481 4709
1.068 2.515 1.480 8008
1.075 2.531 1.479 9408
1.076 2.535 1.471 7806
1.078 2.538 1.463 5832
1.113 2.621 1.497 5087
1.114 2.624 1.489 6175
1.116 2.628 1.481 6484
1.117 2.631 1.473 11113
1.119 2.635 1.464 15431
1.123 2.645 1.459 17024
1.128 2.655 1.455 13404
1.152 2.712 1.473 10634
1.156 2.722 1.468 11407
1.155 2.719 1.456 9579
1.167 2.749 1.461 9970
1.160 2.733 1.442 11748
1.168 2.749 1.440 9614
1.172 2.759 1.435 8799
1.202 2.830 1.458 14860
1.200 2.827 1.446 14625
1.199 2.823 1.434 8901
1.206 2.840 1.431 4500
1.236 2.911 1.453 4327
1.235 2.908 1.441 5406
1.228 2.891 1.423 8034
1.226 2.888 1.411 8581
1.268 2.985 1.444 9189
1.249 2.942 1.414 8639
1.245 2.932 1.399 6705
1.295 3.050 1.440 10853
1.294 3.047 1.427 13586
1.301 3.064 1.423 12813
1.308 3.081 1.420 9920
1.318 3.105 1.419 7679
1.320 3.108 1.409 5143
1.347 3.173 1.424 5921
1.349 3.176 1.414 8376
1.350 3.180 1.405 11101
1.355 3.190 1.397 8144
1.397 3.289 1.425 4890
1.398 3.292 1.415 4770
1.400 3.296 1.405 6175
1.384 3.258 1.379 6790
1.435 3.378 1.413 7371
1.436 3.382 1.403 5774
1.420 3.344 1.377 4735
1.436 3.381 1.379 6406
1.440 3.392 1.371 7327
1.439 3.388 1.358 5527
1.467 3.454 1.370 4388
1.477 3.478 1.366 5012
1.522 3.585 1.392 4137
1.518 3.574 1.376 7856
1.516 3.571 1.363 11276
1.515 3.567 1.349 8443
1.510 3.556 1.333 4264
1.562 3.678 1.362 3799
1.525 3.590 1.320 2995
1.615 3.803 1.378 4409
1.613 3.799 1.364 5388
1.603 3.774 1.343 6426
1.604 3.778 1.331 7342
1.603 3.774 1.317 4894
1.643 3.868 1.334 3354
1.656 3.899 1.330 3624
1.675 3.945 1.331 4433
1.688 3.976 1.327 4183
1.732 4.077 1.344 6888
1.757 4.137 1.348 6656
1.758 4.140 1.335 6584
1.801 4.242 1.351 5869
1.803 4.245 1.337 9268
1.804 4.248 1.324 10301
1.811 4.266 1.315 8697
1.813 4.269 1.301 12677
1.811 4.265 1.286 14708
1.812 4.268 1.273 12757
1.823 4.292 1.265 9349
1.833 4.316 1.257 6023
1.882 4.433 1.273 6670
1.884 4.436 1.259 10596
1.894 4.460 1.250 8112
1.907 4.491 1.243 4908
1.939 4.565 1.247 3720
1.937 4.561 1.231 3410
2.008 4.728 1.255 5372
2.009 4.731 1.241 6072
2.007 4.727 1.224 4017
2.081 4.901 1.248 2410
2.082 4.904 1.233 3871
2.084 4.907 1.218 3324
2.106 4.959 1.213 3274
2.101 4.948 1.195 4947
2.099 4.944 1.177 4281
2.131 5.018 1.177 4105
2.178 5.128 1.183 4539
2.176 5.124 1.166 4817
2.177 5.127 1.150 3510
2.306 5.430 1.192 2990
2.313 5.448 1.178 4026
2.318 5.458 1.162 4752
2.322 5.467 1.147 5356
2.320 5.463 1.128 4840
2.394 5.638 1.142 4506
2.399 5.648 1.125 4095
2.458 5.787 1.131 4959
2.459 5.790 1.113 6408
2.472 5.821 1.100 4573
2.590 6.098 1.126 4400
2.591 6.100 1.107 4406
2.598 6.117 1.090 4484
2.602 6.127 1.072 3651
2.606 6.137 1.054 2378
2.791 6.573 1.098 2898
2.762 6.503 1.067 2674
2.879 6.780 1.085 3122
2.880 6.782 1.064 2645
2.900 6.828 1.048 2619
2.968 6.990 1.048 2774
2.972 7.000 1.026 2574
3.013 7.096 1.016 2798
3.017 7.106 0.995 2778
3.018 7.108 0.972 2693
3.019 7.110 0.950 2382
3.131 7.373 0.957 1761
3.141 7.397 0.936 2411
3.567 8.400 1.018 3785
3.565 8.395 0.991 4521
3.566 8.397 0.964 5372
3.567 8.400 0.938 6247
3.568 8.402 0.911 6852
3.569 8.404 0.885 7111
3.576 8.420 0.859 6522
3.580 8.429 0.833 6614
3.580 8.431 0.807 6480
3.578 8.426 0.780 4669
3.573 8.413 0.752 2853
3.573 8.414 0.725 2424
3.574 8.416 0.699 1958
3.572 8.410 0.672 1080
3.578 8.426 0.646 396
3.681 8.668 0.634 387
3.678 8.662 0.606 362
3.679 8.663 0.578 310
3.679 8.664 0.551 277
3.670 8.641 0.332 357
3.673 8.649 0.305 444
3.670 8.642 0.277 534
3.649 8.592 0.249 761
3.649 8.592 0.222 1080
3.652 8.599 0.195 1259
3.664 8.629 0.168 1219
3.664 8.629 0.141 1329
3.664 8.629 0.114 1439
3.652 8.599 0.087 1385
3.649 8.592 0.060 1459
3.621 8.526 0.033 1287
3.565 8.395 0.009 1382
3.620 8.525 -0.020 1292
3.617 8.518 -0.047 1062
3.614 8.510 -0.074 852
3.614 8.509 -0.101 674
3.499 8.239 -0.119 721
3.384 7.969 -0.136 689
3.384 7.968 -0.161 767
3.430 8.076 -0.190 780
3.429 8.075 -0.216 863
3.423 8.060 -0.240 981
3.419 8.052 -0.266 1142
3.422 8.058 -0.291 948
3.431 8.078 -0.318 877
3.300 7.772 -0.325 763
3.297 7.763 -0.349 832
3.296 7.762 -0.374 814
3.299 7.767 -0.398 805
3.292 7.751 -0.422 810
3.288 7.743 -0.446 860
3.287 7.741 -0.470 860
3.284 7.732 -0.494 893
3.274 7.709 -0.516 1077
3.267 7.692 -0.539 907
3.266 7.690 -0.564 778
3.160 7.442 -0.564 559
3.159 7.440 -0.588 562
3.152 7.423 -0.610 512
3.142 7.399 -0.631 550
3.141 7.397 -0.654 550
3.137 7.388 -0.677 567
3.133 7.378 -0.699 588
3.120 7.347 -0.719 586
3.116 7.338 -0.741 728
3.115 7.335 -0.764 728
3.114 7.333 -0.788 364
0.816 1.909 1.588 7562
0.818 1.913 1.582 15125
0.820 1.917 1.576 13691
0.821 1.921 1.570 10289
0.823 1.925 1.564 8320
0.827 1.934 1.563 6292
0.831 1.944 1.561 4555
0.843 1.972 1.573 5942
0.847 1.982 1.572 9023
0.849 1.986 1.566 9023
0.851 1.990 1.559 13262
0.852 1.993 1.553 17500
0.857 2.003 1.552 16105
0.861 2.013 1.550 15590
0.862 2.017 1.543 12774
0.856 2.002 1.524 10718
0.866 2.024 1.531 11441
0.867 2.028 1.525 12925
0.871 2.038 1.523 10684
0.865 2.023 1.504 8570
0.877 2.051 1.514 8477
0.884 2.067 1.516 8592
0.894 2.090 1.522 9115
0.900 2.106 1.524 7792
0.905 2.116 1.522 7614
0.912 2.132 1.524 9595
0.916 2.142 1.521 11876
0.912 2.133 1.506 12562
0.914 2.137 1.500 11640
0.915 2.140 1.493 9758
0.925 2.163 1.499 10672
0.929 2.173 1.496 12612
0.931 2.176 1.489 12713
0.929 2.174 1.478 12832
0.931 2.177 1.472 9988
0.973 2.275 1.524 8613
0.972 2.273 1.513 7587
0.973 2.277 1.506 6664
0.975 2.280 1.499 7187
0.979 2.290 1.496 7800
0.984 2.300 1.492 8442
0.988 2.310 1.489 7138
1.030 2.410 1.539 7035
1.029 2.407 1.527 10359
1.031 2.411 1.520 13806
1.035 2.421 1.516 14651
1.037 2.425 1.509 13036
1.038 2.428 1.501 10282
1.040 2.432 1.494 9425
1.044 2.442 1.490 6308
1.046 2.446 1.482 4053
1.050 2.456 1.478 4086
1.096 2.563 1.528 4130
1.067 2.495 1.481 4745
1.074 2.512 1.480 6999
1.081 2.528 1.479 8274
1.086 2.539 1.475 6936
1.090 2.549 1.470 6152
1.094 2.559 1.466 5970
1.096 2.562 1.458 5498
1.151 2.691 1.515 5568
1.124 2.629 1.473 9803
1.126 2.632 1.464 13777
1.127 2.636 1.456 15547
1.131 2.646 1.451 12459
1.164 2.722 1.480 11360
1.165 2.726 1.471 12283
1.173 2.742 1.469 9433
1.174 2.746 1.461 8487
1.170 2.736 1.445 10252
1.174 2.746 1.440 9342
1.179 2.757 1.435 9602
1.206 2.820 1.455 15897
1.205 2.817 1.443 16358
1.206 2.820 1.434 9693
1.210 2.831 1.428 4305
1.218 2.847 1.426 3641
1.239 2.898 1.438 5683
1.235 2.888 1.423 8708
1.236 2.891 1.414 8709
1.272 2.976 1.441 8360
1.254 2.932 1.411 9381
1.255 2.935 1.402 7483
1.303 3.047 1.440 9432
1.301 3.043 1.427 11978
1.309 3.060 1.423 11158
1.316 3.077 1.420 9206
1.323 3.094 1.416 7432
1.322 3.091 1.403 4850
1.352 3.163 1.422 5565
1.351 3.159 1.409 8716
1.355 3.169 1.402 11522
1.360 3.180 1.395 8378
1.405 3.285 1.425 4998
1.406 3.289 1.415 5317
1.408 3.292 1.405 6164
1.392 3.255 1.379 6604
1.443 3.375 1.413 7385
1.444 3.378 1.403 5864
1.431 3.347 1.379 5729
1.444 3.378 1.379 6457
1.449 3.388 1.371 7829
1.447 3.384 1.358 6129
1.460 3.415 1.357 3908
1.482 3.467 1.364 4226
1.525 3.567 1.387 4365
1.527 3.570 1.376 8222
1.525 3.567 1.363 11947
1.524 3.563 1.349 8792
1.570 3.671 1.374 4428
1.574 3.681 1.364 3577
1.537 3.594 1.323 3660
1.627 3.806 1.380 4028
1.623 3.795 1.364 5527
1.615 3.777 1.345 6982
1.617 3.781 1.333 7629
1.618 3.784 1.322 4504
1.652 3.864 1.334 3526
1.666 3.895 1.330 3938
1.685 3.940 1.331 4988
1.698 3.972 1.327 4825
1.742 4.073 1.344 6817
1.764 4.125 1.346 7362
1.768 4.136 1.335 7405
1.773 4.146 1.324 5676
1.810 4.234 1.335 7777
1.815 4.244 1.324 8702
1.822 4.261 1.315 7218
1.823 4.264 1.301 10775
1.822 4.260 1.286 11892
1.823 4.263 1.273 9724
1.833 4.288 1.265 7976
1.844 4.312 1.257 5408
1.893 4.428 1.273 6351
1.895 4.431 1.259 10484
1.905 4.455 1.250 8435
1.915 4.480 1.242 5134
1.959 4.582 1.252 2892
1.964 4.592 1.239 2718
2.020 4.723 1.255 5021
2.018 4.719 1.239 5984
2.019 4.722 1.224 4059
2.093 4.896 1.248 2511
2.095 4.898 1.233 4295
2.096 4.901 1.218 3704
2.115 4.947 1.212 2527
2.111 4.936 1.193 4097
2.145 5.017 1.194 4042
2.143 5.013 1.177 4608
2.191 5.123 1.183 4412
2.189 5.118 1.166 5195
2.190 5.121 1.150 3919
2.317 5.418 1.191 2915
2.281 5.334 1.157 3992
2.331 5.452 1.162 4442
2.332 5.455 1.145 4881
2.334 5.457 1.128 4470
2.408 5.632 1.142 4531
2.413 5.642 1.125 4549
2.475 5.788 1.133 5122
2.473 5.784 1.113 5966
2.487 5.815 1.100 4449
2.605 6.091 1.126 4279
2.606 6.094 1.107 4200
2.613 6.111 1.090 4231
2.614 6.113 1.071 3523
2.621 6.130 1.054 2262
2.777 6.493 1.087 2610
2.778 6.496 1.067 2547
2.896 6.773 1.085 3106
2.900 6.782 1.065 2761
2.914 6.814 1.047 2712
2.989 6.990 1.048 2207
2.993 6.999 1.027 2308
3.031 7.088 1.016 2659
3.035 7.098 0.995 2941
3.036 7.100 0.972 3030
3.034 7.095 0.949 2643
3.149 7.365 0.957 1912
3.160 7.389 0.936 2546
3.585 8.384 1.017 3487
3.586 8.386 0.991 4381
3.587 8.389 0.964 5167
3.585 8.383 0.937 5879
3.589 8.393 0.911 6484
3.590 8.395 0.885 6785
3.591 8.397 0.858 6205
3.598 8.413 0.833 6049
3.601 8.422 0.807 5715
3.599 8.417 0.780 4086
3.594 8.404 0.752 2691
3.594 8.406 0.725 2261
3.595 8.407 0.699 1869
3.592 8.401 0.672 1014
3.596 8.410 0.646 391
3.634 8.499 0.624 284
3.635 8.500 0.597 258
3.691 8.632 0.332 497
3.695 8.640 0.305 625
3.692 8.633 0.277 746
3.673 8.590 0.249 984
3.673 8.590 0.222 1367
3.673 8.590 0.195 1510
3.689 8.627 0.168 1322
3.686 8.619 0.141 1503
3.683 8.612 0.114 1692
3.673 8.590 0.087 1659
3.670 8.583 0.060 1747
3.642 8.517 0.033 1708
3.642 8.517 0.007 1732
3.639 8.509 -0.020 1615
3.638 8.509 -0.047 1424
3.638 8.508 -0.074 1233
3.638 8.507 -0.101 962
3.519 8.230 -0.119 801
3.404 7.960 -0.136 776
3.404 7.960 -0.161 877
3.450 8.068 -0.190 898
3.449 8.067 -0.216 1015
3.443 8.051 -0.240 1138
3.439 8.043 -0.266 1328
3.442 8.049 -0.291 1088
3.413 7.983 -0.313 1005
3.413 7.981 -0.338 891
3.316 7.755 -0.349 938
3.319 7.761 -0.374 914
3.318 7.759 -0.398 900
3.311 7.743 -0.422 918
3.307 7.734 -0.446 990
3.307 7.733 -0.470 990
3.303 7.724 -0.494 1025
3.293 7.700 -0.516 1243
3.286 7.684 -0.539 1051
3.285 7.682 -0.564 901
3.281 7.673 -0.587 629
3.175 7.425 -0.587 634
3.171 7.415 -0.610 606
3.161 7.392 -0.631 679
3.160 7.390 -0.654 679
3.156 7.380 -0.677 705
3.152 7.371 -0.699 738
3.138 7.339 -0.719 735
3.134 7.330 -0.741 901
3.133 7.327 -0.764 901
3.132 7.325 -0.788 450
0.820 1.901 1.583 7827
0.821 1.905 1.578 15654
0.825 1.915 1.576 13935
0.827 1.918 1.570 10195
0.829 1.922 1.564 8092
0.830 1.926 1.558 5959
0.837 1.942 1.561 4195
0.852 1.976 1.578 5883
0.853 1.979 1.572 8665
0.855 1.983 1.566 8665
0.857 1.987 1.559 12390
0.858 1.991 1.553 16116
0.863 2.001 1.552 14589
0.867 2.011 1.550 13971
0.868 2.014 1.543 11389
0.862 2.000 1.524 9563
0.872 2.022 1.531 9655
0.873 2.026 1.525 10502
0.877 2.035 1.523 9066
0.871 2.021 1.504 7776
0.883 2.049 1.514 8026
0.893 2.071 1.521 8727
0.900 2.087 1.522 9727
0.907 2.103 1.524 8453
0.911 2.113 1.522 8137
0.915 2.123 1.520 9903
0.922 2.139 1.521 12073
0.918 2.130 1.506 12830
0.917 2.128 1.496 11745
0.922 2.138 1.493 9793
0.929 2.154 1.495 11619
0.935 2.170 1.496 14519
0.934 2.167 1.485 14673
0.936 2.171 1.478 14917
0.935 2.168 1.468 11696
0.931 2.159 1.453 8667
0.938 2.175 1.454 7640
0.942 2.185 1.451 6769
0.982 2.277 1.499 7381
0.986 2.287 1.496 7800
0.990 2.297 1.492 7908
1.036 2.403 1.546 6993
1.038 2.407 1.539 6877
1.036 2.404 1.527 10264
1.038 2.408 1.520 13691
1.042 2.418 1.516 14556
1.047 2.428 1.512 12486
1.051 2.438 1.508 9193
1.050 2.435 1.497 8801
1.051 2.439 1.490 6456
1.053 2.442 1.482 4432
1.060 2.459 1.482 4413
1.070 2.482 1.485 4639
1.072 2.486 1.477 4982
1.076 2.496 1.473 5897
1.089 2.525 1.479 6737
1.096 2.542 1.478 6629
1.097 2.545 1.470 7371
1.102 2.556 1.466 7084
1.106 2.566 1.461 5600
1.159 2.687 1.515 5792
1.132 2.625 1.473 8285
1.133 2.629 1.464 11656
1.135 2.632 1.456 13572
1.136 2.636 1.448 11378
1.172 2.719 1.480 11507
1.176 2.729 1.474 12483
1.178 2.732 1.466 9188
1.180 2.736 1.457 6884
1.178 2.733 1.445 8693
1.183 2.743 1.440 9350
1.190 2.760 1.438 10346
1.211 2.810 1.452 15805
1.213 2.813 1.443 16690
1.214 2.817 1.434 10010
1.227 2.847 1.438 5142
1.229 2.850 1.429 5314
1.245 2.887 1.435 6514
1.246 2.891 1.426 9347
1.248 2.894 1.417 9119
1.258 2.918 1.417 9031
1.262 2.928 1.411 10450
1.264 2.931 1.402 8432
1.312 3.043 1.440 7940
1.313 3.046 1.430 10216
1.318 3.057 1.423 9631
1.325 3.074 1.420 8696
1.329 3.084 1.413 7243
1.328 3.080 1.400 4662
1.356 3.145 1.416 5060
1.354 3.142 1.403 8830
1.359 3.152 1.396 11204
1.363 3.162 1.389 8148
1.350 3.131 1.366 5683
1.416 3.285 1.415 5983
1.418 3.288 1.405 6205
1.404 3.257 1.381 6078
1.453 3.370 1.413 7289
1.449 3.360 1.397 6108
1.441 3.343 1.379 6966
1.446 3.353 1.371 6228
1.459 3.384 1.371 7838
1.460 3.387 1.360 6431
1.471 3.411 1.357 4091
1.517 3.518 1.384 4196
1.530 3.549 1.383 5230
1.534 3.559 1.374 8615
1.536 3.562 1.363 12217
1.537 3.566 1.352 9023
1.580 3.666 1.374 4677
1.546 3.586 1.334 4176
1.547 3.589 1.323 4627
1.603 3.717 1.353 3591
1.634 3.790 1.364 5734
1.629 3.780 1.348 7762
1.628 3.776 1.333 7961
1.632 3.786 1.324 4425
1.664 3.859 1.334 3567
1.677 3.890 1.330 3883
1.700 3.942 1.333 5021
1.707 3.960 1.325 5245
1.772 4.110 1.357 6378
1.776 4.120 1.346 7554
1.781 4.130 1.335 7348
1.785 4.141 1.324 5441
1.823 4.228 1.335 7640
1.827 4.238 1.324 7682
1.835 4.256 1.315 5086
1.836 4.259 1.301 8497
1.834 4.255 1.286 10093
1.836 4.258 1.273 7582
1.846 4.282 1.265 5919
1.878 4.356 1.270 5564
1.897 4.401 1.267 6261
1.905 4.418 1.257 10112
1.918 4.450 1.250 8111
1.926 4.467 1.240 5119
1.979 4.590 1.255 3735
1.983 4.600 1.243 4114
2.034 4.717 1.255 4664
2.032 4.713 1.239 5926
2.036 4.723 1.226 4538
2.108 4.889 1.248 2801
2.109 4.892 1.233 4730
2.110 4.895 1.218 4700
2.109 4.891 1.201 3317
2.119 4.915 1.190 3667
2.160 5.011 1.194 4140
2.161 5.013 1.178 4922
2.169 5.031 1.166 5023
2.207 5.119 1.167 5008
2.202 5.107 1.148 3856
2.333 5.411 1.191 2706
2.297 5.328 1.157 4052
2.301 5.337 1.142 4342
2.352 5.455 1.147 4148
2.353 5.457 1.129 4032
2.425 5.625 1.142 4081
2.432 5.642 1.127 4804
2.502 5.803 1.136 5253
2.493 5.784 1.114 5253
2.507 5.815 1.101 4260
2.623 6.084 1.126 4118
2.624 6.086 1.107 4026
2.631 6.103 1.090 3907
2.632 6.106 1.071 3254
2.643 6.130 1.055 2093
2.693 6.247 1.052 2263
2.800 6.495 1.068 2376
2.919 6.771 1.086 3033
2.923 6.781 1.066 2761
2.934 6.805 1.047 2751
2.935 6.808 1.026 2030
3.014 6.990 1.027 2182
3.052 7.079 1.016 2145
3.056 7.089 0.995 2640
3.057 7.091 0.972 2895
3.055 7.086 0.949 2510
3.165 7.341 0.955 2172
3.179 7.373 0.935 2574
3.610 8.373 1.017 2947
3.611 8.376 0.991 3902
3.609 8.371 0.963 4724
3.610 8.373 0.937 5397
3.614 8.382 0.911 6018
3.615 8.384 0.885 6267
3.615 8.386 0.858 5364
3.616 8.388 0.832 4883
3.623 8.404 0.806 4422
3.624 8.406 0.780 3203
3.619 8.393 0.752 2049
3.616 8.388 0.725 1661
3.617 8.389 0.698 1516
3.617 8.391 0.672 947
3.746 8.690 0.663 465
3.737 8.669 0.635 343
3.735 8.663 0.607 284
3.710 8.606 0.359 311
3.717 8.621 0.332 632
3.717 8.622 0.305 824
3.717 8.622 0.277 868
3.695 8.572 0.249 1135
3.699 8.579 0.222 1494
3.699 8.579 0.195 1634
3.714 8.616 0.168 1570
3.714 8.616 0.141 1785
3.711 8.608 0.114 2016
3.702 8.587 0.087 1835
3.699 8.579 0.060 1868
3.667 8.506 0.033 1947
3.667 8.506 0.007 1961
3.667 8.505 -0.020 1806
3.664 8.498 -0.047 1498
3.660 8.490 -0.074 1209
3.660 8.489 -0.101 957
3.544 8.220 -0.119 840
3.428 7.950 -0.136 846
3.424 7.942 -0.160 974
3.474 8.058 -0.190 989
3.473 8.057 -0.216 1096
3.467 8.041 -0.240 1245
3.463 8.033 -0.266 1461
3.466 8.039 -0.291 1195
3.440 7.980 -0.313 1107
3.437 7.971 -0.338 971
3.339 7.745 -0.349 1025
3.338 7.744 -0.374 1006
3.341 7.749 -0.398 998
3.334 7.733 -0.422 1019
3.330 7.725 -0.446 1101
3.330 7.723 -0.470 1099
3.323 7.707 -0.493 1139
3.316 7.691 -0.516 1387
3.309 7.674 -0.539 1170
3.308 7.672 -0.564 1000
3.201 7.424 -0.564 737
3.200 7.422 -0.588 752
3.193 7.406 -0.610 698
3.180 7.375 -0.630 770
3.179 7.373 -0.653 770
3.178 7.371 -0.677 791
3.174 7.361 -0.699 822
3.160 7.330 -0.719 843
3.156 7.321 -0.741 1037
3.155 7.318 -0.764 1037
3.154 7.316 -0.788 518
0.825 1.898 1.583 8043
0.827 1.902 1.578 16086
0.831 1.912 1.576 14060
0.833 1.916 1.570 10101
0.834 1.920 1.564 7939
0.836 1.924 1.558 5685
0.843 1.939 1.561 3913
0.857 1.973 1.578 5963
0.862 1.983 1.576 8321
0.863 1.987 1.570 8321
0.862 1.985 1.559 11397
0.864 1.988 1.553 14505
0.868 1.998 1.552 12780
0.873 2.008 1.550 11917
0.874 2.012 1.543 9700
0.865 1.991 1.520 8220
0.877 2.019 1.531 7617
0.882 2.029 1.529 7783
0.883 2.033 1.523 7276
0.877 2.018 1.504 6999
0.889 2.046 1.514 7461
0.901 2.075 1.525 8872
0.906 2.084 1.522 10174
0.910 2.094 1.520 9070
0.917 2.110 1.522 8710
0.921 2.120 1.520 10392
0.926 2.130 1.517 12474
0.925 2.128 1.506 13025
0.923 2.125 1.496 11671
0.928 2.135 1.493 9565
0.935 2.151 1.495 12268
0.942 2.167 1.496 15987
0.941 2.165 1.485 16321
0.939 2.162 1.474 16833
0.938 2.159 1.464 13325
0.937 2.156 1.453 10278
0.941 2.166 1.450 8589
0.946 2.176 1.447 7327
0.988 2.274 1.499 7333
0.993 2.284 1.496 7452
0.997 2.294 1.492 7102
1.043 2.400 1.546 6798
1.044 2.404 1.539 6551
1.046 2.407 1.531 9803
1.048 2.411 1.524 13056
1.052 2.421 1.520 14113
1.056 2.431 1.516 12119
1.061 2.441 1.512 8987
1.060 2.439 1.501 8500
1.058 2.436 1.490 6716
1.063 2.446 1.486 4921
1.070 2.462 1.485 4910
1.077 2.479 1.485 5811
1.082 2.489 1.481 5834
1.083 2.493 1.473 5314
1.113 2.561 1.500 5122
1.103 2.539 1.478 6686
1.108 2.549 1.474 9005
1.112 2.559 1.469 8476
1.116 2.569 1.465 6326
1.163 2.677 1.511 5554
1.136 2.615 1.469 6643
1.138 2.619 1.461 9175
1.140 2.622 1.453 11072
1.141 2.626 1.445 9856
1.183 2.722 1.483 10947
1.184 2.725 1.474 11941
1.186 2.729 1.466 8739
1.187 2.732 1.457 5825
1.189 2.736 1.449 7855
1.193 2.746 1.443 9752
1.198 2.756 1.438 10963
1.219 2.806 1.452 14460
1.221 2.810 1.443 15277
1.225 2.820 1.437 9880
1.236 2.843 1.438 7254
1.240 2.854 1.432 7284
1.253 2.884 1.435 7573
1.255 2.887 1.426 9739
1.256 2.891 1.417 9961
1.263 2.908 1.414 10655
1.271 2.924 1.411 11641
1.272 2.928 1.402 9459
1.324 3.046 1.442 6673
1.322 3.043 1.430 8523
1.327 3.053 1.423 8334
1.337 3.076 1.422 7995
1.335 3.073 1.410 6576
1.363 3.138 1.426 4217
1.362 3.134 1.413 5512
1.360 3.131 1.401 9294
1.368 3.148 1.396 10719
1.366 3.144 1.384 8079
1.359 3.127 1.366 6200
1.423 3.274 1.412 6571
1.427 3.284 1.405 6123
1.458 3.356 1.421 6020
1.460 3.359 1.411 7347
1.455 3.349 1.395 6994
1.451 3.339 1.379 8055
1.452 3.342 1.369 6171
1.469 3.380 1.371 7199
1.470 3.383 1.360 6156
1.483 3.414 1.360 4060
1.530 3.520 1.386 6023
1.534 3.531 1.378 7522
1.545 3.555 1.374 9251
1.546 3.558 1.363 11983
1.550 3.568 1.354 8690
1.573 3.620 1.359 5063
1.556 3.581 1.334 4694
1.558 3.585 1.323 5399
1.616 3.720 1.355 4063
1.645 3.786 1.364 5732
1.640 3.775 1.348 7946
1.642 3.778 1.336 7646
1.658 3.816 1.335 4487
1.675 3.854 1.334 3537
1.685 3.878 1.328 3760
1.717 3.951 1.338 4573
1.718 3.955 1.325 5099
1.787 4.112 1.359 5904
1.788 4.115 1.346 7200
1.793 4.125 1.335 6954
1.797 4.135 1.324 4735
1.835 4.223 1.335 8038
1.836 4.226 1.322 7907
1.841 4.236 1.311 3755
1.845 4.246 1.299 6405
1.844 4.242 1.284 8804
1.848 4.253 1.273 5996
1.889 4.347 1.284 4446
1.893 4.357 1.272 5985
1.910 4.396 1.267 6277
1.918 4.413 1.257 8714
1.931 4.444 1.250 6868
1.935 4.454 1.238 5024
1.992 4.585 1.255 4888
1.993 4.588 1.241 5293
1.998 4.598 1.228 4790
2.045 4.707 1.239 5756
2.053 4.724 1.227 5335
2.063 4.748 1.217 4033
2.123 4.886 1.233 5242
2.124 4.889 1.218 6044
2.123 4.885 1.201 5278
2.127 4.895 1.187 4895
2.131 4.905 1.173 5307
2.176 5.007 1.178 5137
2.180 5.017 1.164 5258
2.184 5.027 1.150 4509
2.217 5.101 1.148 3465
2.345 5.397 1.190 2364
2.312 5.321 1.157 3791
2.313 5.324 1.141 4315
2.386 5.491 1.155 3511
2.368 5.451 1.129 3784
2.444 5.625 1.143 3406
2.452 5.642 1.128 4987
2.521 5.803 1.138 5318
2.523 5.805 1.119 4507
2.527 5.815 1.102 3914
2.640 6.076 1.126 3895
2.641 6.079 1.107 3820
2.646 6.088 1.089 3603
2.647 6.091 1.070 3055
2.663 6.129 1.056 1960
2.743 6.312 1.063 2022
2.822 6.494 1.069 2265
2.939 6.763 1.086 2806
2.943 6.773 1.066 2600
2.950 6.790 1.046 2697
2.945 6.777 1.023 2197
3.037 6.989 1.028 2050
3.038 6.991 1.006 1748
3.036 6.986 0.983 1895
3.071 7.068 0.971 2286
3.063 7.049 0.946 2055
3.183 7.325 0.954 2445
3.193 7.349 0.933 2525
3.634 8.363 1.017 2330
3.635 8.365 0.991 3184
3.633 8.360 0.963 3949
3.634 8.362 0.937 4588
3.635 8.364 0.910 5354
3.639 8.374 0.885 5668
3.640 8.376 0.858 4311
3.637 8.370 0.831 3472
3.644 8.387 0.806 3179
3.648 8.396 0.780 2712
3.643 8.383 0.752 1988
3.643 8.384 0.725 1578
3.644 8.386 0.699 1543
3.645 8.387 0.672 1145
3.642 8.382 0.645 560
3.636 8.368 0.618 358
3.728 8.580 0.385 252
3.732 8.588 0.358 390
3.735 8.596 0.331 719
3.739 8.604 0.304 918
3.736 8.597 0.277 965
3.723 8.568 0.249 1197
3.723 8.568 0.222 1537
3.723 8.569 0.195 1614
3.739 8.605 0.168 1432
3.736 8.598 0.141 1764
3.733 8.590 0.114 2104
3.730 8.583 0.087 1854
3.695 8.503 0.060 1987
3.695 8.503 0.033 2195
3.692 8.495 0.007 2173
3.691 8.495 -0.020 1928
3.688 8.487 -0.047 1460
3.685 8.479 -0.074 1045
3.618 8.326 -0.096 929
3.618 8.326 -0.123 899
3.450 7.940 -0.136 887
3.450 7.940 -0.161 1019
3.497 8.048 -0.190 1035
3.497 8.047 -0.216 1156
3.490 8.031 -0.240 1307
3.486 8.023 -0.266 1542
3.486 8.022 -0.291 1253
3.463 7.970 -0.313 1179
3.459 7.961 -0.338 1029
3.361 7.735 -0.349 1069
3.361 7.734 -0.374 1055
3.363 7.740 -0.398 1052
3.356 7.724 -0.422 1069
3.352 7.715 -0.446 1145
3.352 7.713 -0.470 1144
3.345 7.697 -0.493 1203
3.338 7.681 -0.516 1476
3.334 7.672 -0.540 1244
3.330 7.663 -0.564 1059
3.222 7.415 -0.564 770
3.218 7.406 -0.587 753
3.211 7.390 -0.609 753
3.204 7.373 -0.631 851
3.203 7.371 -0.654 851
3.199 7.362 -0.677 860
3.195 7.352 -0.699 885
3.181 7.321 -0.719 939
3.177 7.311 -0.741 1159
3.176 7.309 -0.764 1159
3.175 7.307 -0.788 579
0.830 1.896 1.583 8045
0.832 1.900 1.578 16090
0.836 1.910 1.576 13891
0.838 1.914 1.570 9974
0.839 1.918 1.564 7900
0.843 1.927 1.563 5469
0.861 1.967 1.584 4155
0.862 1.971 1.578 5953
0.867 1.981 1.576 7832
0.868 1.985 1.570 7832
0.867 1.982 1.559 10275
0.869 1.986 1.553 12798
0.873 1.996 1.552 10923
0.878 2.006 1.550 9791
0.879 2.010 1.543 7991
0.870 1.989 1.520 6771
0.885 2.023 1.535 5767
0.887 2.027 1.529 5422
0.889 2.031 1.523 5626
0.912 2.083 1.550 6194
0.894 2.044 1.514 6700
0.910 2.078 1.529 8791
0.911 2.082 1.522 10141
0.915 2.092 1.520 9283
0.920 2.102 1.518 8973
0.924 2.112 1.515 10604
0.931 2.128 1.517 12632
0.930 2.125 1.506 12883
0.929 2.123 1.496 11199
0.933 2.132 1.493 9006
0.943 2.155 1.499 12362
0.945 2.158 1.492 16646
0.943 2.156 1.481 17101
0.945 2.159 1.474 17866
0.944 2.157 1.464 14318
0.943 2.154 1.453 11238
0.944 2.157 1.446 9136
0.951 2.174 1.447 7475
0.994 2.272 1.499 6873
0.999 2.282 1.496 6556
1.003 2.292 1.492 5945
1.049 2.397 1.546 6433
1.051 2.401 1.539 6045
1.052 2.405 1.531 9014
1.054 2.408 1.524 11983
1.058 2.418 1.520 13189
1.066 2.435 1.520 11681
1.067 2.439 1.512 8887
1.060 2.423 1.494 8385
1.062 2.427 1.486 6967
1.069 2.443 1.486 5419
1.082 2.473 1.492 5712
1.086 2.483 1.488 7258
1.088 2.486 1.481 7297
1.092 2.496 1.476 5670
1.114 2.545 1.493 4773
1.110 2.536 1.478 6947
1.114 2.546 1.474 10064
1.121 2.563 1.473 9597
1.126 2.573 1.468 7445
1.130 2.583 1.464 6042
1.138 2.599 1.462 5902
1.142 2.609 1.458 7447
1.143 2.613 1.449 8942
1.145 2.616 1.441 8313
1.190 2.719 1.483 9584
1.191 2.722 1.474 10520
1.193 2.726 1.466 7832
1.194 2.729 1.457 6383
1.196 2.733 1.449 9330
1.200 2.743 1.443 10712
1.208 2.760 1.441 11209
1.224 2.796 1.448 12281
1.228 2.807 1.443 12614
1.238 2.830 1.443 9512
1.246 2.847 1.441 8916
1.247 2.850 1.432 8519
1.261 2.881 1.435 8314
1.265 2.891 1.429 9626
1.267 2.894 1.420 10741
1.271 2.904 1.414 12082
1.275 2.914 1.408 12606
1.283 2.931 1.405 10378
1.331 3.042 1.442 5839
1.330 3.039 1.430 7451
1.334 3.049 1.423 7558
1.345 3.073 1.422 7248
1.358 3.104 1.424 6015
1.371 3.134 1.426 5643
1.367 3.124 1.410 6194
1.366 3.120 1.398 9248
1.373 3.137 1.393 9768
1.368 3.127 1.378 7604
1.427 3.260 1.420 6757
1.431 3.270 1.412 6684
1.439 3.287 1.408 5778
1.467 3.352 1.421 6181
1.468 3.355 1.411 7292
1.461 3.338 1.392 7666
1.459 3.335 1.379 8506
1.461 3.338 1.369 6013
1.477 3.376 1.371 6479
1.482 3.386 1.363 5667
1.507 3.444 1.372 4110
1.539 3.516 1.386 7516
1.540 3.520 1.375 9585
1.551 3.544 1.371 9883
1.558 3.561 1.365 11322
1.563 3.571 1.356 7963
1.582 3.616 1.359 5633
1.578 3.605 1.343 4923
1.567 3.581 1.323 5647
1.626 3.716 1.355 4166
1.655 3.781 1.364 5526
1.650 3.771 1.348 7280
1.652 3.774 1.336 6654
1.668 3.812 1.335 4191
1.731 3.954 1.367 3473
1.695 3.874 1.328 3861
1.736 3.968 1.344 4134
1.729 3.950 1.325 4465
1.797 4.107 1.359 5207
1.799 4.110 1.346 6370
1.803 4.121 1.335 6117
1.845 4.215 1.349 4833
1.846 4.218 1.335 8937
1.847 4.221 1.322 8840
1.849 4.224 1.309 3978
1.853 4.235 1.297 5755
1.854 4.238 1.284 8677
1.859 4.248 1.273 6117
1.900 4.342 1.284 4610
1.905 4.352 1.272 5613
1.921 4.391 1.267 6402
1.929 4.408 1.257 7503
1.943 4.439 1.250 5514
1.947 4.449 1.238 4831
2.004 4.579 1.255 5181
2.005 4.582 1.241 5592
2.010 4.592 1.228 4608
2.061 4.709 1.241 5415
2.065 4.719 1.227 5995
2.076 4.743 1.217 5021
2.136 4.881 1.233 5728
2.137 4.884 1.218 7452
2.135 4.879 1.201 7723
2.136 4.882 1.185 7407
2.141 4.892 1.171 7754
2.145 4.902 1.157 7171
2.146 4.905 1.142 5649
2.194 5.014 1.148 4188
2.227 5.088 1.147 2929
2.218 5.069 1.126 2246
2.326 5.315 1.157 3349
2.327 5.318 1.141 4070
2.328 5.320 1.124 3715
2.383 5.444 1.129 3809
2.406 5.497 1.121 3187
2.466 5.636 1.128 4933
2.471 5.646 1.111 5076
2.544 5.813 1.122 3965
2.545 5.816 1.103 3419
2.656 6.069 1.126 3493
2.654 6.065 1.106 3560
2.658 6.074 1.088 3399
2.659 6.077 1.069 3117
2.686 6.137 1.058 2128
2.762 6.312 1.064 2148
2.842 6.494 1.070 2295
2.843 6.496 1.050 2720
2.960 6.765 1.066 2328
2.965 6.775 1.045 2376
2.959 6.763 1.022 2275
3.058 6.988 1.029 1994
3.062 6.998 1.008 1901
3.063 7.000 0.986 1930
3.071 7.017 0.965 2236
3.201 7.315 0.977 2164
3.202 7.317 0.954 2525
3.209 7.333 0.933 2438
3.226 7.372 0.913 1879
3.657 8.356 0.991 2390
3.654 8.351 0.963 3022
3.655 8.353 0.937 3567
3.656 8.355 0.910 4334
3.660 8.364 0.885 4900
3.658 8.359 0.857 3799
3.659 8.361 0.831 3092
3.663 8.370 0.805 2599
3.670 8.386 0.780 2373
3.794 8.670 0.774 1869
3.795 8.672 0.746 1686
3.796 8.673 0.719 1350
3.796 8.675 0.691 795
3.797 8.676 0.664 396
3.715 8.489 0.626 344
3.754 8.578 0.386 323
3.754 8.578 0.358 455
3.754 8.579 0.331 778
3.758 8.587 0.304 981
3.752 8.573 0.277 1024
3.745 8.558 0.249 1213
3.745 8.559 0.222 1360
3.701 8.457 0.195 1394
3.701 8.458 0.168 1360
3.755 8.581 0.141 1744
3.755 8.581 0.114 2236
3.749 8.566 0.087 1975
3.745 8.559 0.060 1806
3.714 8.486 0.033 1687
3.713 8.486 0.007 1857
3.713 8.485 -0.020 1700
3.707 8.470 -0.047 1322
3.703 8.463 -0.074 1021
3.640 8.317 -0.096 851
3.639 8.316 -0.123 832
3.471 7.931 -0.136 869
3.467 7.923 -0.160 1012
3.518 8.038 -0.190 1003
3.517 8.038 -0.216 1113
3.511 8.022 -0.240 1271
3.507 8.014 -0.266 1509
3.506 8.013 -0.291 1223
3.484 7.961 -0.313 1152
3.483 7.960 -0.339 1002
3.381 7.727 -0.349 1068
3.381 7.725 -0.374 1051
3.383 7.731 -0.398 1045
3.376 7.715 -0.422 1066
3.372 7.706 -0.446 1147
3.372 7.705 -0.470 1147
3.365 7.689 -0.493 1201
3.358 7.672 -0.516 1472
3.354 7.663 -0.540 1234
3.350 7.654 -0.564 1038
3.241 7.407 -0.564 774
3.237 7.398 -0.587 763
3.230 7.381 -0.609 779
3.223 7.365 -0.631 897
3.222 7.363 -0.654 897
3.218 7.353 -0.677 894
3.214 7.344 -0.699 907
3.200 7.313 -0.719 956
3.196 7.303 -0.741 1171
3.195 7.301 -0.764 1171
3.194 7.298 -0.788 585
0.834 1.895 1.583 7923
0.836 1.898 1.578 15847
0.837 1.902 1.572 13646
0.842 1.912 1.570 9832
0.843 1.916 1.564 7906
0.848 1.926 1.563 5249
0.865 1.965 1.584 4455
0.869 1.975 1.582 5782
0.871 1.979 1.576 7148
0.873 1.983 1.570 7148
0.872 1.980 1.559 9132
0.874 1.984 1.553 11193
0.878 1.994 1.552 9234
0.882 2.004 1.550 7835
0.884 2.008 1.543 6495
0.872 1.981 1.516 5657
0.890 2.021 1.535 4410
0.894 2.031 1.533 3719
0.896 2.035 1.527 4384
0.916 2.081 1.550 5871
0.915 2.079 1.540 6421
0.914 2.076 1.529 8596
0.916 2.080 1.522 9903
0.920 2.090 1.520 9271
0.924 2.100 1.518 9085
0.929 2.110 1.515 10522
0.936 2.126 1.517 12425
0.935 2.123 1.506 12385
0.934 2.121 1.496 10450
0.938 2.130 1.493 8278
0.953 2.165 1.507 12180
0.949 2.156 1.492 16723
0.948 2.154 1.481 17299
0.947 2.151 1.470 18178
0.949 2.155 1.464 14732
0.947 2.152 1.453 11720
0.949 2.155 1.446 9449
0.956 2.171 1.447 7452
0.999 2.270 1.499 6091
1.037 2.356 1.542 5866
1.039 2.359 1.534 5565
1.054 2.395 1.546 5956
1.059 2.405 1.542 5467
1.060 2.409 1.535 8042
1.062 2.412 1.527 10618
1.066 2.422 1.524 11954
1.071 2.433 1.520 11079
1.075 2.443 1.516 8692
1.063 2.414 1.490 8559
1.067 2.424 1.486 7184
1.075 2.441 1.486 5828
1.090 2.477 1.496 6604
1.092 2.480 1.488 8846
1.096 2.490 1.484 9212
1.101 2.500 1.480 7011
1.117 2.536 1.490 5182
1.115 2.533 1.478 7185
1.120 2.543 1.474 10427
1.130 2.567 1.476 10286
1.134 2.577 1.472 8676
1.136 2.580 1.464 7506
1.137 2.584 1.456 6577
1.142 2.594 1.451 6935
1.146 2.604 1.446 7755
1.148 2.607 1.438 6984
1.196 2.716 1.483 7644
1.194 2.713 1.471 8559
1.199 2.723 1.466 6802
1.200 2.727 1.457 7767
1.205 2.737 1.452 11904
1.206 2.740 1.443 11853
1.214 2.757 1.441 11286
1.221 2.774 1.439 10286
1.234 2.804 1.443 9844
1.248 2.834 1.447 9082
1.252 2.844 1.441 9694
1.251 2.841 1.429 8825
1.267 2.878 1.435 8634
1.271 2.888 1.429 9373
1.273 2.891 1.420 11098
1.274 2.895 1.411 13089
1.282 2.912 1.408 13251
1.289 2.928 1.405 11121
1.300 2.952 1.404 5938
1.340 3.043 1.433 6776
1.341 3.046 1.423 6929
1.334 3.030 1.405 6409
1.374 3.121 1.433 6187
1.378 3.131 1.426 6601
1.374 3.121 1.410 6558
1.372 3.117 1.398 8914
1.377 3.128 1.391 8740
1.375 3.124 1.378 6762
1.431 3.250 1.417 6988
1.435 3.260 1.410 6291
1.449 3.291 1.410 5332
1.471 3.342 1.418 6201
1.476 3.352 1.411 6995
1.462 3.321 1.387 7902
1.467 3.332 1.379 8256
1.468 3.335 1.369 5814
1.488 3.379 1.373 5942
1.492 3.389 1.365 5441
1.557 3.537 1.407 4395
1.547 3.513 1.386 8410
1.548 3.516 1.375 10987
1.559 3.540 1.371 10399
1.566 3.557 1.365 10325
1.571 3.567 1.356 7222
1.590 3.612 1.359 5812
1.634 3.712 1.381 5588
1.575 3.577 1.323 5487
1.649 3.747 1.367 4356
1.663 3.778 1.364 5386
1.661 3.774 1.350 6314
1.660 3.770 1.336 5283
1.729 3.926 1.373 3855
1.739 3.951 1.367 3494
1.701 3.863 1.326 4330
1.751 3.978 1.348 4246
1.756 3.988 1.338 3913
1.769 4.019 1.334 4877
1.808 4.106 1.346 5145
1.812 4.117 1.335 5027
1.857 4.218 1.351 5326
1.858 4.221 1.337 9964
1.857 4.217 1.322 9988
1.858 4.220 1.309 5391
1.859 4.223 1.295 6280
1.861 4.227 1.282 9219
1.868 4.244 1.273 7557
1.879 4.268 1.265 5412
1.914 4.348 1.272 4717
1.934 4.394 1.269 6457
1.939 4.404 1.257 6881
1.940 4.407 1.243 4570
1.960 4.452 1.240 4629
2.014 4.575 1.255 4866
2.015 4.578 1.241 5156
2.017 4.581 1.227 4028
2.071 4.704 1.241 5027
2.075 4.714 1.227 6207
2.083 4.731 1.216 5557
2.147 4.876 1.233 6127
2.148 4.879 1.218 8505
2.146 4.875 1.201 9879
2.147 4.877 1.185 9878
2.152 4.887 1.171 10142
2.156 4.897 1.157 9233
2.157 4.900 1.142 7420
2.158 4.903 1.127 4939
2.159 4.905 1.111 2847
2.230 5.065 1.126 2213
2.338 5.310 1.157 2768
2.339 5.312 1.141 3665
2.340 5.315 1.124 3759
2.395 5.439 1.129 3715
2.408 5.470 1.117 3082
2.482 5.638 1.129 4506
2.486 5.647 1.113 4932
2.557 5.807 1.122 3371
2.558 5.810 1.103 2809
2.713 6.164 1.143 3095
2.667 6.059 1.106 3372
2.668 6.061 1.087 3405
2.673 6.071 1.069 3396
2.724 6.188 1.067 2554
2.776 6.306 1.064 2304
2.856 6.488 1.070 2334
2.857 6.490 1.050 2946
2.858 6.492 1.029 2307
2.973 6.754 1.043 2076
2.971 6.749 1.021 2187
3.077 6.989 1.030 1884
3.081 6.998 1.009 2031
3.085 7.008 0.988 2084
3.086 7.010 0.965 2294
3.090 7.019 0.944 2242
3.218 7.310 0.954 2431
3.225 7.326 0.933 2272
3.233 7.343 0.911 1581
3.570 8.110 0.966 1705
3.568 8.105 0.940 2247
3.671 8.338 0.936 2696
3.675 8.347 0.910 3272
3.679 8.356 0.885 3724
3.676 8.351 0.857 2904
3.808 8.649 0.856 2580
3.812 8.658 0.829 2316
3.812 8.660 0.801 2108
3.813 8.662 0.774 2062
3.811 8.656 0.746 2061
3.811 8.658 0.718 1720
3.812 8.659 0.691 1036
3.816 8.668 0.664 513
3.743 8.503 0.627 420
3.744 8.504 0.600 303
3.772 8.569 0.413 274
3.773 8.570 0.386 395
3.773 8.570 0.358 516
3.773 8.571 0.331 827
3.777 8.578 0.304 1020
3.774 8.572 0.277 1059
3.764 8.550 0.249 1197
3.767 8.558 0.222 1296
3.723 8.456 0.195 1279
3.720 8.449 0.168 1440
3.774 8.573 0.141 1518
3.771 8.565 0.114 1999
3.768 8.558 0.087 1858
3.767 8.558 0.060 1758
3.767 8.557 0.032 1318
3.732 8.477 0.007 1375
3.732 8.477 -0.020 1275
3.729 8.469 -0.047 1104
3.725 8.462 -0.074 985
3.722 8.454 -0.100 815
3.658 8.308 -0.123 788
3.488 7.924 -0.136 811
3.485 7.916 -0.160 955
3.535 8.031 -0.190 934
3.535 8.030 -0.216 1030
3.528 8.014 -0.240 1166
3.525 8.006 -0.266 1384
3.524 8.005 -0.291 1125
3.501 7.953 -0.313 1083
3.498 7.945 -0.338 949
3.398 7.719 -0.349 1002
3.398 7.718 -0.374 991
3.442 7.818 -0.405 1098
3.393 7.708 -0.422 1009
3.386 7.692 -0.445 1088
3.389 7.697 -0.470 1087
3.382 7.681 -0.493 1140
3.374 7.665 -0.516 1394
3.367 7.649 -0.539 1164
3.366 7.647 -0.564 975
3.258 7.400 -0.564 740
3.336 7.578 -0.606 720
3.246 7.374 -0.609 766
3.239 7.358 -0.631 884
3.238 7.355 -0.654 884
3.234 7.346 -0.677 856
3.230 7.337 -0.699 858
3.216 7.306 -0.719 966
3.212 7.296 -0.741 1183
3.211 7.294 -0.764 1183
3.210 7.291 -0.788 591
0.844 1.890 1.583 7815
0.846 1.894 1.578 15631
0.847 1.898 1.572 13517
0.852 1.908 1.570 9788
0.853 1.911 1.564 8014
0.863 1.933 1.572 5084
0.878 1.967 1.588 4777
0.880 1.970 1.582 5563
0.881 1.974 1.576 6350
0.883 1.978 1.570 6350
0.882 1.976 1.559 7989
0.881 1.974 1.549 9806
0.883 1.977 1.543 7830
0.893 1.999 1.550 5908
0.894 2.003 1.543 5095
0.880 1.970 1.511 4663
0.881 1.974 1.505 3600
0.907 2.032 1.538 2780
0.925 2.073 1.557 3776
0.927 2.076 1.550 5463
0.926 2.074 1.540 6121
0.925 2.072 1.529 8341
0.926 2.075 1.522 9568
0.931 2.085 1.520 9200
0.935 2.095 1.518 9189
0.940 2.105 1.515 10258
0.950 2.127 1.521 11995
0.948 2.124 1.510 11680
0.947 2.122 1.500 9544
0.966 2.163 1.517 7848
0.964 2.160 1.507 12057
0.963 2.158 1.496 16546
0.959 2.149 1.481 17142
0.958 2.146 1.470 18182
0.957 2.143 1.460 14868
0.958 2.147 1.453 11967
0.960 2.150 1.446 9617
0.964 2.160 1.444 7413
0.963 2.157 1.433 5154
1.046 2.344 1.538 6315
1.048 2.348 1.531 5702
1.036 2.320 1.504 5660
1.040 2.330 1.501 5868
1.076 2.410 1.539 6795
1.077 2.413 1.531 8807
1.082 2.423 1.527 10184
1.084 2.427 1.520 10119
1.085 2.431 1.512 8415
1.075 2.409 1.490 8819
1.080 2.419 1.486 7295
1.087 2.435 1.486 6195
1.106 2.477 1.500 7694
1.108 2.481 1.492 11005
1.109 2.485 1.484 11740
1.117 2.501 1.483 9130
1.127 2.524 1.486 5900
1.128 2.528 1.478 7178
1.133 2.538 1.474 10163
1.143 2.561 1.476 10853
1.148 2.571 1.472 9829
1.149 2.574 1.464 9168
1.151 2.578 1.456 8202
1.155 2.588 1.451 7942
1.160 2.598 1.446 7953
1.170 2.621 1.448 6317
1.192 2.670 1.463 5951
1.206 2.700 1.468 6348
1.213 2.717 1.466 6437
1.217 2.727 1.461 10623
1.219 2.731 1.452 15096
1.224 2.741 1.447 13259
1.225 2.744 1.438 11308
1.230 2.754 1.433 9225
1.246 2.791 1.440 8180
1.262 2.828 1.447 8902
1.273 2.851 1.447 10039
1.280 2.868 1.444 9024
1.285 2.878 1.438 8886
1.286 2.881 1.429 8976
1.291 2.891 1.423 11256
1.289 2.888 1.411 13943
1.297 2.905 1.408 13759
1.304 2.922 1.405 11748
1.315 2.945 1.404 7243
1.355 3.036 1.433 6196
1.357 3.039 1.423 6352
1.334 2.989 1.391 5861
1.390 3.114 1.433 5947
1.395 3.124 1.426 7091
1.390 3.114 1.410 6791
1.389 3.110 1.398 8781
1.393 3.120 1.391 8049
1.398 3.131 1.384 5811
1.448 3.242 1.417 7110
1.452 3.253 1.410 5622
1.466 3.283 1.410 5102
1.473 3.300 1.405 6641
1.472 3.297 1.392 7437
1.476 3.307 1.384 7696
1.484 3.324 1.379 7184
1.485 3.327 1.369 5541
1.502 3.365 1.371 5734
1.513 3.389 1.368 5426
1.523 3.412 1.365 4840
1.565 3.505 1.386 8789
1.569 3.515 1.378 11876
1.577 3.532 1.371 10944
1.581 3.542 1.363 9240
1.589 3.559 1.356 6420
1.609 3.604 1.359 5764
1.654 3.704 1.381 7104
1.658 3.714 1.371 5843
1.669 3.738 1.367 5385
1.680 3.762 1.362 5545
1.681 3.765 1.350 5290
1.720 3.852 1.365 5163
1.724 3.862 1.355 4071
1.726 3.865 1.343 3540
1.721 3.854 1.326 4570
1.775 3.976 1.350 4095
1.786 4.000 1.344 4198
1.787 4.003 1.332 5249
1.829 4.097 1.346 3919
1.843 4.128 1.341 4200
1.882 4.215 1.353 5707
1.880 4.211 1.337 10731
1.878 4.208 1.322 10591
1.880 4.211 1.309 6697
1.884 4.221 1.297 7028
1.886 4.224 1.284 10195
1.890 4.234 1.273 9574
1.901 4.258 1.265 6734
1.959 4.387 1.285 4104
1.960 4.391 1.271 6653
1.958 4.386 1.255 7330
1.956 4.382 1.240 5349
1.983 4.442 1.240 4301
2.031 4.550 1.252 4149
2.042 4.574 1.243 4293
2.094 4.690 1.255 3619
2.095 4.693 1.241 4389
2.100 4.703 1.227 5866
2.107 4.720 1.216 5622
2.172 4.865 1.233 6270
2.173 4.868 1.218 9155
2.171 4.863 1.201 11861
2.172 4.866 1.185 12579
2.177 4.876 1.171 12750
2.181 4.886 1.157 11347
2.182 4.889 1.142 9415
2.187 4.898 1.128 6393
2.188 4.901 1.112 3576
2.189 4.904 1.097 2248
2.467 5.525 1.202 2521
2.369 5.307 1.142 3157
2.367 5.303 1.124 3810
2.423 5.427 1.129 3580
2.430 5.444 1.115 2826
2.517 5.639 1.132 3832
2.515 5.634 1.113 4418
2.520 5.644 1.096 3204
2.521 5.647 1.078 2551
2.745 6.149 1.143 3236
2.695 6.038 1.105 3297
2.703 6.055 1.088 3571
2.704 6.057 1.069 3753
2.766 6.196 1.070 3337
2.809 6.291 1.064 2483
2.893 6.480 1.071 2434
2.891 6.475 1.050 3110
2.889 6.470 1.028 2302
3.005 6.731 1.042 1916
3.003 6.726 1.020 2119
3.030 6.786 1.006 1935
3.117 6.982 1.009 2355
3.121 6.992 0.988 2311
3.122 6.994 0.965 2337
3.127 7.003 0.944 2308
3.256 7.293 0.954 2157
3.260 7.302 0.932 2027
3.598 8.060 0.989 2170
3.602 8.069 0.964 1994
3.610 8.086 0.940 2349
3.608 8.081 0.913 2557
3.605 8.076 0.887 2418
3.597 8.056 0.859 2732
3.597 8.058 0.834 2760
3.852 8.629 0.856 2877
3.853 8.631 0.828 2573
3.680 8.243 0.771 2070
3.858 8.642 0.774 1647
3.859 8.643 0.746 1498
3.856 8.638 0.718 1255
3.857 8.639 0.691 752
3.861 8.648 0.664 366
3.594 8.050 0.602 282
3.817 8.549 0.413 258
3.817 8.550 0.386 392
3.817 8.551 0.358 545
3.818 8.551 0.331 922
3.818 8.552 0.304 1147
3.815 8.545 0.277 1264
3.812 8.538 0.250 1417
3.812 8.538 0.222 1293
3.770 8.444 0.195 1179
3.767 8.437 0.168 1287
3.818 8.553 0.141 1296
3.815 8.546 0.114 1701
3.815 8.546 0.087 1609
3.812 8.538 0.060 1546
3.815 8.545 0.032 1140
3.773 8.451 0.007 1032
3.773 8.450 -0.020 937
3.705 8.298 -0.044 747
3.756 8.413 -0.073 618
3.701 8.290 -0.096 644
3.701 8.289 -0.123 683
3.529 7.906 -0.136 724
3.529 7.905 -0.161 853
3.577 8.012 -0.190 806
3.577 8.011 -0.216 896
3.570 7.996 -0.240 1014
3.566 7.988 -0.266 1214
3.565 7.987 -0.291 986
3.542 7.935 -0.313 958
3.539 7.926 -0.338 831
3.438 7.701 -0.349 905
3.438 7.700 -0.374 888
3.440 7.706 -0.398 876
3.430 7.683 -0.421 898
3.426 7.674 -0.445 971
3.428 7.680 -0.470 968
3.421 7.664 -0.493 1024
3.411 7.640 -0.516 1260
3.407 7.631 -0.539 1050
3.406 7.629 -0.564 871
3.293 7.375 -0.564 641
3.375 7.561 -0.606 645
3.281 7.350 -0.608 723
3.277 7.341 -0.631 862
3.276 7.339 -0.654 862
3.272 7.329 -0.677 818
3.265 7.313 -0.698 813
3.251 7.282 -0.718 951
3.247 7.272 -0.740 1154
3.246 7.270 -0.764 1154
3.244 7.267 -0.787 577
0.846 1.882 1.579 7389
0.848 1.886 1.573 14779
0.852 1.896 1.572 12783
0.857 1.905 1.570 9338
0.856 1.903 1.560 7761
0.868 1.931 1.572 4854
0.883 1.964 1.588 4837
0.885 1.968 1.582 5209
0.884 1.966 1.572 5620
0.885 1.970 1.566 5620
0.884 1.968 1.555 7076
0.883 1.965 1.544 8768
0.885 1.969 1.538 6951
0.887 1.973 1.532 5134
0.905 2.013 1.552 4457
0.912 2.029 1.554 4408
0.914 2.032 1.548 3683
0.918 2.042 1.546 3040
0.928 2.064 1.553 3710
0.935 2.080 1.555 5002
0.931 2.072 1.540 5723
0.930 2.069 1.529 7821
0.932 2.073 1.522 8900
0.936 2.083 1.520 8707
0.941 2.093 1.518 8817
0.948 2.109 1.520 9593
0.958 2.131 1.525 11236
0.954 2.122 1.510 10714
0.953 2.119 1.500 8579
0.971 2.160 1.517 7423
0.970 2.158 1.507 11522
0.969 2.155 1.496 15726
0.965 2.146 1.481 16216
0.964 2.144 1.470 17263
0.962 2.141 1.460 14182
0.964 2.144 1.453 11464
0.966 2.148 1.446 9191
0.970 2.158 1.444 6981
1.045 2.325 1.538 5383
1.052 2.341 1.538 6550
1.054 2.345 1.531 5755
1.042 2.317 1.504 5834
1.046 2.327 1.501 6491
1.048 2.331 1.493 6416
1.084 2.410 1.531 7192
1.088 2.421 1.527 8645
1.090 2.424 1.520 9092
1.080 2.402 1.497 8439
1.079 2.400 1.486 8816
1.083 2.410 1.482 7153
1.093 2.432 1.486 6248
1.112 2.474 1.500 8428
1.114 2.478 1.492 12364
1.116 2.482 1.484 13329
1.123 2.498 1.483 10549
1.128 2.508 1.479 6348
1.135 2.525 1.478 6731
1.142 2.541 1.477 9346
1.153 2.564 1.480 10781
1.154 2.568 1.472 10102
1.156 2.571 1.464 10043
1.157 2.575 1.456 9461
1.162 2.585 1.451 9132
1.166 2.595 1.446 8923
1.195 2.657 1.468 7810
1.196 2.661 1.460 6813
1.198 2.664 1.451 6079
1.217 2.707 1.463 6280
1.224 2.724 1.461 12556
1.226 2.727 1.452 16691
1.231 2.738 1.447 13783
1.232 2.741 1.438 11070
1.237 2.751 1.433 8748
1.253 2.788 1.440 8679
1.270 2.824 1.447 8964
1.283 2.854 1.450 9957
1.291 2.871 1.447 9271
1.292 2.875 1.438 8859
1.297 2.885 1.432 8523
1.298 2.888 1.423 10843
1.300 2.891 1.414 13751
1.301 2.895 1.405 13561
1.315 2.925 1.408 11661
1.322 2.942 1.404 7944
1.363 3.032 1.433 5704
1.335 2.969 1.394 5909
1.339 2.979 1.388 5259
1.398 3.110 1.433 5358
1.403 3.120 1.426 6840
1.398 3.110 1.410 6647
1.397 3.107 1.398 8839
1.401 3.117 1.391 7885
1.454 3.235 1.428 6103
1.456 3.239 1.417 6856
1.464 3.256 1.412 5019
1.474 3.279 1.410 4741
1.482 3.296 1.405 6650
1.480 3.293 1.392 7335
1.485 3.303 1.384 6605
1.492 3.320 1.379 5754
1.494 3.323 1.369 5088
1.502 3.340 1.363 5783
1.525 3.391 1.370 5413
1.535 3.415 1.367 5480
1.574 3.501 1.386 8389
1.578 3.511 1.378 11567
1.586 3.528 1.371 10847
1.591 3.538 1.363 8303
1.598 3.555 1.356 5607
1.665 3.703 1.395 5911
1.663 3.700 1.381 7938
1.668 3.710 1.371 6427
1.678 3.734 1.367 6038
1.689 3.758 1.362 5828
1.694 3.768 1.352 4672
1.729 3.847 1.365 5492
1.731 3.851 1.353 4709
1.732 3.854 1.340 3704
1.731 3.850 1.326 4460
1.735 3.860 1.316 4013
1.796 3.995 1.344 4038
1.797 3.999 1.332 4956
1.802 4.009 1.321 3424
1.854 4.123 1.341 3656
1.893 4.210 1.353 5423
1.891 4.207 1.337 10100
1.889 4.203 1.322 9300
1.894 4.213 1.311 6681
1.898 4.223 1.299 7156
1.897 4.219 1.284 10138
1.904 4.236 1.275 10485
1.915 4.260 1.267 7102
1.973 4.389 1.287 4654
1.971 4.385 1.271 6693
1.966 4.374 1.253 8136
1.961 4.363 1.236 6610
1.969 4.380 1.226 4531
2.040 4.538 1.250 3670
2.054 4.569 1.243 3552
2.106 4.685 1.255 3437
2.104 4.681 1.239 3752
2.115 4.705 1.229 5177
2.119 4.715 1.216 5188
2.184 4.859 1.233 6008
2.186 4.862 1.218 8974
2.184 4.858 1.201 12307
2.185 4.861 1.185 13580
2.189 4.870 1.171 13777
2.194 4.880 1.157 12007
2.195 4.883 1.142 10156
2.199 4.893 1.128 7094
2.201 4.895 1.112 3912
2.202 4.898 1.097 2598
2.481 5.519 1.202 2481
2.469 5.493 1.179 2820
2.384 5.304 1.125 3647
2.433 5.413 1.128 3498
2.537 5.644 1.152 2996
2.532 5.632 1.132 3465
2.530 5.628 1.113 3743
2.534 5.638 1.096 3118
2.535 5.640 1.078 2670
2.761 6.142 1.143 3128
2.711 6.031 1.105 3328
2.719 6.048 1.088 3665
2.723 6.057 1.070 3863
2.785 6.196 1.071 3889
2.793 6.212 1.053 2919
2.910 6.472 1.071 2518
2.907 6.468 1.050 3076
2.905 6.463 1.028 2182
3.019 6.716 1.041 1724
3.020 6.719 1.020 1957
3.050 6.785 1.007 2132
3.138 6.981 1.010 2691
3.143 6.991 0.988 2609
3.144 6.993 0.966 2477
3.148 7.002 0.945 2466
3.152 7.012 0.923 2099
3.618 8.048 1.014 1994
3.619 8.051 0.989 2592
3.620 8.053 0.963 2322
3.602 8.012 0.933 2436
3.599 8.007 0.907 2713
3.607 8.023 0.883 2625
3.617 8.047 0.859 3105
3.621 8.056 0.834 3018
3.622 8.058 0.809 2505
3.879 8.628 0.829 2222
3.701 8.234 0.771 2177
3.877 8.625 0.773 1798
3.875 8.619 0.745 2075
3.875 8.621 0.718 1844
3.876 8.622 0.690 1124
3.880 8.631 0.663 467
3.608 8.026 0.601 320
3.835 8.532 0.413 272
3.839 8.540 0.386 403
3.839 8.541 0.358 561
3.840 8.541 0.331 943
3.840 8.542 0.304 1167
3.837 8.535 0.277 1299
3.837 8.535 0.250 1441
3.834 8.528 0.222 1259
3.834 8.528 0.195 1111
3.837 8.536 0.168 1154
3.837 8.536 0.141 1303
3.837 8.536 0.114 1452
3.837 8.536 0.087 1346
3.837 8.535 0.059 1239
3.837 8.535 0.032 1010
3.795 8.441 0.007 864
3.837 8.535 -0.022 894
3.791 8.433 -0.047 676
3.791 8.432 -0.074 509
3.722 8.280 -0.096 533
3.722 8.280 -0.123 572
3.550 7.896 -0.136 612
3.546 7.888 -0.160 721
3.598 8.003 -0.190 662
3.597 8.002 -0.216 747
3.590 7.987 -0.240 864
3.587 7.978 -0.266 1047
3.586 7.977 -0.291 851
3.563 7.926 -0.313 830
3.562 7.924 -0.339 715
3.458 7.692 -0.349 756
3.457 7.691 -0.374 746
3.460 7.697 -0.398 741
3.450 7.674 -0.421 767
3.446 7.665 -0.445 838
3.448 7.671 -0.470 833
3.441 7.655 -0.493 893
3.434 7.639 -0.516 1098
3.430 7.630 -0.540 913
3.426 7.621 -0.564 755
3.315 7.374 -0.564 585
