-1.547 4.715 1.665 4270
-1.595 4.863 1.697 6006
-1.599 4.874 1.685 5308
-1.603 4.886 1.672 3446
-1.614 4.919 1.666 3044
-1.622 4.945 1.658 3028
-1.654 5.043 1.672 2858
-1.663 5.069 1.663 2541
-1.669 5.087 1.652 2716
-1.668 5.084 1.634 1740
-1.724 5.255 1.668 2488
-1.794 5.469 1.713 2986
-1.796 5.474 1.696 4900
-1.795 5.471 1.678 4710
-1.777 5.417 1.645 5365
-1.783 5.436 1.632 5324
-1.785 5.440 1.616 4671
-1.800 5.487 1.611 3940
-1.802 5.492 1.594 4372
-1.805 5.503 1.579 4218
-1.299 3.959 1.159 3399
-1.300 3.962 1.147 5804
-1.301 3.965 1.135 5064
-1.302 3.967 1.123 4423
-2.004 6.108 1.641 3995
-2.008 6.119 1.624 2904
-2.129 6.490 1.694 2461
-2.068 6.304 1.629 1901
-2.065 6.293 1.606 1643
-2.162 6.591 1.655 1866
-2.166 6.602 1.636 1801
-2.353 7.173 1.744 1741
-2.338 7.126 1.711 2455
-2.337 7.123 1.687 3025
-2.462 7.503 1.747 2042
-2.458 7.493 1.720 2652
-2.460 7.497 1.698 2323
-2.507 7.642 1.704 2181
-2.518 7.675 1.686 2132
-2.520 7.680 1.663 1892
-1.361 4.149 0.945 1924
-1.364 4.159 0.934 2027
-1.365 4.161 0.921 1980
-1.366 4.163 0.908 2070
-1.298 3.958 0.857 1330
-1.297 3.952 0.844 1398
-1.297 3.954 0.832 1515
-1.300 3.964 0.821 1566
-1.301 3.966 0.809 1239
-1.304 3.975 0.799 743
-1.305 3.977 0.787 353
-0.529 1.614 0.338 321
-0.530 1.614 0.333 380
-0.532 1.622 0.330 389
-0.532 1.623 0.325 352
-0.530 1.616 0.319 282
-0.276 0.840 0.075 278
-0.276 0.840 0.072 333
-0.278 0.847 0.069 355
-0.275 0.840 0.067 378
-0.275 0.840 0.065 373
-0.275 0.839 0.062 379
-0.275 0.839 0.060 358
-0.278 0.846 0.057 336
-0.275 0.839 0.055 292
-0.275 0.838 0.053 250
-0.729 2.232 1.806 4031
-0.734 2.249 1.808 8233
-0.740 2.266 1.811 10021
-0.741 2.270 1.804 9240
-0.743 2.275 1.797 8459
-0.742 2.274 1.786 8570
-0.744 2.278 1.779 8894
-0.745 2.283 1.772 8894
-0.747 2.287 1.765 9355
-0.750 2.298 1.763 10090
-0.754 2.309 1.761 8352
-0.761 2.332 1.767 7446
-0.769 2.355 1.773 8644
-0.772 2.366 1.771 10014
-0.774 2.370 1.763 9765
-0.777 2.381 1.761 9168
-0.777 2.379 1.749 8890
-0.778 2.384 1.742 6428
-0.786 2.407 1.748 4611
-0.792 2.424 1.749 5390
-0.801 2.454 1.759 7397
-0.803 2.458 1.752 7233
-0.804 2.463 1.744 7069
-0.801 2.455 1.728 5170
-0.834 2.555 1.784 5888
-0.825 2.527 1.755 6230
-0.825 2.525 1.744 7734
-0.826 2.530 1.736 11105
-0.830 2.541 1.732 14597
-0.831 2.545 1.725 13734
-0.835 2.556 1.721 13105
-0.838 2.567 1.718 8473
-0.888 2.720 1.803 5234
-0.845 2.588 1.710 4462
-0.864 2.645 1.734 5421
-0.867 2.656 1.730 6151
-0.869 2.660 1.722 5789
-0.872 2.671 1.718 4646
-0.912 2.793 1.781 5950
-0.914 2.798 1.772 8188
-0.917 2.809 1.768 8264
-0.921 2.820 1.763 8489
-0.937 2.870 1.781 8492
-0.943 2.888 1.780 8696
-0.953 2.919 1.787 10086
-0.957 2.930 1.782 9530
-0.956 2.928 1.769 8617
-0.955 2.926 1.757 6236
-0.953 2.917 1.740 4035
-0.952 2.915 1.728 4016
-0.984 3.013 1.771 3985
-0.983 3.011 1.758 6915
-0.982 3.008 1.745 9059
-0.986 3.020 1.740 8003
-0.992 3.037 1.738 5214
-1.022 3.129 1.775 5300
-1.025 3.140 1.769 7418
-1.027 3.145 1.759 9560
-1.026 3.143 1.746 9045
-1.028 3.147 1.737 6373
-1.049 3.212 1.759 7444
-1.050 3.217 1.749 9411
-1.054 3.228 1.743 9843
-1.062 3.253 1.743 8569
-1.075 3.291 1.750 8305
-1.078 3.303 1.744 8825
-1.098 3.362 1.760 9870
-1.110 3.400 1.767 8941
-1.116 3.419 1.763 9872
-1.120 3.430 1.756 7789
-1.124 3.441 1.749 4531
-1.125 3.446 1.738 3158
-1.149 3.519 1.760 4247
-1.153 3.530 1.753 5634
-1.156 3.542 1.745 5039
-1.176 3.601 1.760 4096
-1.204 3.689 1.786 4659
-1.208 3.700 1.778 5189
-1.216 3.725 1.776 4358
-1.229 3.765 1.780 4152
-1.231 3.769 1.769 4683
-1.232 3.774 1.758 7241
-1.236 3.785 1.749 9147
-1.240 3.797 1.741 7429
-1.266 3.878 1.762 5604
-1.270 3.889 1.753 6375
-1.267 3.880 1.735 7779
-1.273 3.898 1.729 9572
-1.277 3.910 1.720 10661
-1.278 3.914 1.708 7340
-1.284 3.932 1.702 4580
-1.315 4.028 1.727 4406
-1.317 4.033 1.715 6342
-1.320 4.044 1.705 6124
-1.347 4.126 1.723 5882
-1.346 4.123 1.708 5190
-1.378 4.220 1.730 3570
-1.391 4.259 1.731 3220
-1.390 4.257 1.715 5894
-1.394 4.268 1.705 7885
-1.404 4.301 1.703 8255
-1.408 4.312 1.692 6191
-1.433 4.388 1.705 4332
-1.436 4.399 1.694 4421
-1.470 4.503 1.716 4109
-1.474 4.515 1.705 4307
-1.476 4.519 1.691 5318
-1.475 4.516 1.675 4503
-1.504 4.606 1.691 3744
-1.510 4.625 1.681 2922
-1.512 4.629 1.667 3072
-1.534 4.698 1.675 3228
-1.540 4.717 1.665 4262
-1.588 4.865 1.697 6198
-1.590 4.869 1.682 5305
-1.596 4.888 1.672 3174
-1.607 4.921 1.666 2850
-1.611 4.932 1.654 3038
-1.647 5.045 1.672 2754
-1.656 5.071 1.663 2079
-1.664 5.097 1.654 2483
-1.661 5.086 1.634 1778
-1.714 5.250 1.666 2692
-1.709 5.232 1.644 2827
-1.786 5.469 1.694 5070
-1.787 5.473 1.678 5503
-1.770 5.419 1.645 5998
-1.776 5.438 1.632 5712
-1.777 5.442 1.616 5067
-1.790 5.483 1.609 4576
-1.794 5.494 1.594 5394
-1.798 5.505 1.579 4431
-1.291 3.953 1.157 3065
-1.294 3.964 1.147 4972
-1.293 3.959 1.133 4710
-1.294 3.962 1.121 4576
-1.995 6.111 1.641 4227
-1.997 6.115 1.622 2820
-2.120 6.493 1.694 2272
-2.059 6.307 1.629 1877
-2.053 6.289 1.604 1775
-2.081 6.373 1.604 1665
-1.276 3.907 1.020 1708
-2.343 7.176 1.744 1648
-2.328 7.129 1.711 1908
-2.327 7.126 1.687 2377
-2.451 7.506 1.747 2097
-2.448 7.496 1.720 2631
-2.449 7.500 1.698 2253
-2.494 7.638 1.702 2251
-2.505 7.672 1.685 1975
-2.511 7.691 1.664 1487
-1.353 4.144 0.943 2172
-1.356 4.153 0.932 2501
-1.357 4.156 0.920 2022
-1.287 3.943 0.867 1652
-1.615 4.946 1.039 1576
-1.616 4.948 1.024 2194
-1.617 4.951 1.009 1645
-1.295 3.966 0.821 1024
-1.295 3.967 0.809 770
-1.296 3.969 0.797 914
-1.297 3.971 0.785 734
-1.297 3.973 0.773 369
-0.530 1.622 0.339 309
-0.527 1.615 0.333 373
-0.530 1.623 0.330 392
-0.530 1.623 0.325 348
-0.528 1.616 0.319 270
-0.272 0.833 0.078 251
-0.274 0.841 0.075 323
-0.274 0.840 0.072 376
-0.274 0.840 0.070 397
-0.274 0.840 0.067 426
-0.274 0.840 0.065 427
-0.274 0.840 0.062 438
-0.277 0.847 0.059 416
-0.276 0.847 0.057 393
-0.274 0.839 0.055 340
-0.274 0.839 0.053 292
-0.722 2.234 1.806 3854
-0.724 2.239 1.799 7709
-0.733 2.268 1.811 9122
-0.735 2.273 1.804 8367
-0.736 2.277 1.797 7612
-0.736 2.276 1.786 7753
-0.735 2.274 1.775 8137
-0.737 2.279 1.768 8137
-0.740 2.289 1.765 8450
-0.746 2.306 1.768 9226
-0.749 2.317 1.765 7875
-0.759 2.346 1.776 8000
-0.762 2.357 1.773 9104
-0.766 2.368 1.771 10496
-0.767 2.372 1.763 10275
-0.771 2.383 1.761 9576
-0.770 2.381 1.749 9136
-0.771 2.386 1.742 6330
-0.781 2.416 1.752 4376
-0.795 2.458 1.771 5270
-0.794 2.456 1.759 7336
-0.796 2.461 1.752 7053
-0.795 2.459 1.740 6775
-0.794 2.457 1.728 5441
-0.827 2.557 1.784 5754
-0.818 2.530 1.755 6241
-0.817 2.528 1.744 7776
-0.819 2.532 1.736 11050
-0.822 2.543 1.732 14466
-0.824 2.548 1.725 13364
-0.827 2.558 1.721 12350
-0.829 2.563 1.714 7923
-0.878 2.716 1.799 4873
-0.852 2.636 1.738 4305
-0.856 2.647 1.734 5980
-0.857 2.652 1.726 6379
-0.861 2.663 1.722 5743
-0.864 2.674 1.718 4696
-0.904 2.796 1.781 5973
-0.908 2.807 1.776 8427
-0.909 2.811 1.768 9117
-0.913 2.822 1.763 9827
-0.910 2.814 1.747 9070
-0.935 2.891 1.780 8709
-0.947 2.928 1.791 10134
-0.948 2.933 1.782 9640
-0.948 2.931 1.769 8764
-0.947 2.929 1.757 6456
-0.942 2.913 1.737 4469
-0.943 2.918 1.728 4612
-0.977 3.022 1.774 4257
-0.974 3.013 1.758 6495
-0.974 3.011 1.745 8688
-0.975 3.016 1.736 7850
-0.976 3.020 1.727 5181
-1.013 3.132 1.775 4831
-1.016 3.143 1.769 7248
-1.018 3.148 1.759 9690
-1.017 3.146 1.746 9664
-1.019 3.150 1.737 7235
-1.040 3.215 1.759 6103
-1.041 3.220 1.749 8162
-1.045 3.231 1.743 9042
-1.053 3.256 1.743 8392
-1.065 3.294 1.750 8649
-1.069 3.306 1.744 9077
-1.086 3.358 1.757 9379
-1.100 3.404 1.767 8836
-1.106 3.422 1.763 9866
-1.110 3.433 1.756 7773
-1.114 3.444 1.749 4245
-1.088 3.366 1.700 2784
-1.139 3.522 1.760 3854
-1.142 3.534 1.753 5106
-1.146 3.545 1.745 4364
-1.163 3.598 1.757 3947
-1.167 3.609 1.749 4412
-1.197 3.704 1.778 4726
-1.201 3.715 1.770 3845
-1.191 3.685 1.744 3782
-1.193 3.689 1.732 4401
-1.224 3.784 1.761 6383
-1.225 3.789 1.749 8453
-1.229 3.800 1.741 7310
-1.239 3.833 1.741 5814
-1.259 3.893 1.753 5660
-1.256 3.883 1.735 7169
-1.264 3.909 1.732 9469
-1.265 3.913 1.720 10749
-1.267 3.918 1.708 7298
-1.273 3.936 1.702 4894
-1.301 4.025 1.724 4504
-1.303 4.029 1.712 6502
-1.306 4.041 1.702 6176
-1.338 4.137 1.726 5874
-1.334 4.127 1.708 5023
-1.363 4.216 1.728 3710
-1.372 4.242 1.723 3220
-1.378 4.261 1.715 6035
-1.381 4.272 1.705 7792
-1.390 4.298 1.700 7842
-1.396 4.316 1.692 5319
-1.420 4.392 1.705 4622
-1.424 4.403 1.694 5050
-1.457 4.508 1.716 4425
-1.461 4.519 1.705 4842
-1.463 4.523 1.691 5881
-1.462 4.521 1.675 4942
-1.495 4.625 1.695 2872
-1.508 4.665 1.693 2691
-1.477 4.569 1.646 3539
-1.504 4.652 1.658 2980
-1.527 4.721 1.665 4088
-1.574 4.869 1.697 5994
-1.576 4.874 1.682 4842
-1.566 4.842 1.656 2460
-1.593 4.926 1.666 2567
-1.596 4.937 1.654 2966
-1.600 4.948 1.641 2595
-1.606 4.967 1.630 1870
-1.649 5.102 1.654 2235
-1.646 5.091 1.634 1965
-1.697 5.248 1.664 3029
-1.696 5.245 1.646 3356
-1.770 5.474 1.694 4971
-1.769 5.471 1.676 5989
-1.756 5.432 1.647 5860
-1.762 5.450 1.634 5738
-1.761 5.447 1.616 5264
-1.763 5.451 1.599 5426
-1.778 5.499 1.594 6368
-1.782 5.511 1.579 4428
-1.279 3.957 1.157 2439
-1.280 3.960 1.145 3820
-1.281 3.963 1.133 4229
-1.280 3.958 1.119 4396
-1.978 6.117 1.641 4410
-1.981 6.128 1.624 2677
-2.104 6.507 1.696 1998
-1.991 6.158 1.592 1888
-2.073 6.412 1.632 1562
-2.063 6.379 1.604 1890
-2.164 6.693 1.655 1876
-2.170 6.712 1.638 1736
-2.193 6.782 1.632 1466
-2.306 7.133 1.687 1712
-2.427 7.506 1.745 2143
-2.426 7.503 1.720 2654
-2.427 7.507 1.698 2127
-2.472 7.645 1.702 2260
-2.483 7.679 1.685 1734
-1.336 4.131 0.953 2951
-1.339 4.140 0.942 4499
-1.342 4.150 0.931 4892
-1.345 4.160 0.920 3880
-1.343 4.154 0.906 2209
-1.603 4.958 1.040 2740
-1.604 4.960 1.025 2319
-1.280 3.960 0.832 980
-1.279 3.954 0.819 1072
-1.277 3.949 0.806 918
-1.275 3.943 0.792 524
-1.612 4.987 0.952 351
-1.611 4.982 0.936 298
-0.522 1.616 0.338 294
-0.523 1.616 0.333 336
-0.525 1.624 0.330 351
-0.525 1.625 0.325 313
-0.523 1.618 0.319 255
-0.270 0.834 0.078 279
-0.272 0.841 0.075 360
-0.272 0.841 0.072 419
-0.272 0.841 0.070 443
-0.272 0.841 0.067 477
-0.272 0.841 0.065 476
-0.272 0.840 0.062 486
-0.274 0.848 0.059 461
-0.274 0.848 0.057 436
-0.272 0.840 0.055 378
-0.271 0.840 0.053 326
-0.271 0.839 0.050 272
-0.266 0.824 0.045 250
-0.700 2.174 1.759 3794
-0.701 2.179 1.753 7589
-0.728 2.263 1.806 8193
-0.732 2.274 1.804 7386
-0.735 2.284 1.802 6715
-0.733 2.277 1.786 6877
-0.732 2.275 1.775 7410
-0.734 2.280 1.768 7410
-0.737 2.290 1.765 7468
-0.743 2.307 1.768 8337
-0.750 2.330 1.774 7511
-0.756 2.347 1.776 8461
-0.759 2.358 1.773 9499
-0.763 2.369 1.771 10969
-0.764 2.373 1.763 10801
-0.767 2.384 1.761 10047
-0.767 2.382 1.749 9502
-0.768 2.387 1.742 6476
-0.778 2.417 1.752 4213
-0.792 2.459 1.771 5226
-0.793 2.464 1.763 7209
-0.792 2.462 1.752 6808
-0.792 2.460 1.740 6448
-0.789 2.452 1.724 5699
-0.823 2.558 1.784 5592
-0.815 2.531 1.755 6301
-0.814 2.529 1.744 7780
-0.815 2.533 1.736 10882
-0.819 2.544 1.732 14134
-0.820 2.549 1.725 12830
-0.822 2.553 1.717 11527
-0.823 2.557 1.709 7479
-0.868 2.698 1.787 4785
-0.851 2.644 1.742 4533
-0.852 2.648 1.734 6347
-0.854 2.653 1.726 6439
-0.857 2.664 1.722 5532
-0.861 2.675 1.718 4704
-0.900 2.797 1.781 5897
-0.904 2.808 1.776 8542
-0.905 2.813 1.768 9805
-0.907 2.817 1.759 11068
-0.904 2.808 1.743 10407
-0.931 2.892 1.780 8463
-0.943 2.930 1.791 9751
-0.944 2.934 1.782 9312
-0.944 2.932 1.769 8507
-0.943 2.930 1.757 6622
-0.938 2.915 1.737 5025
-0.940 2.919 1.728 5232
-0.947 2.943 1.730 4921
-0.968 3.008 1.754 6268
-0.968 3.006 1.741 8206
-0.969 3.010 1.732 7710
-0.970 3.015 1.723 5443
-1.009 3.133 1.775 4410
-1.012 3.145 1.769 7173
-1.011 3.142 1.756 10154
-1.013 3.147 1.746 10652
-1.014 3.151 1.737 8401
-1.033 3.210 1.755 4820
-1.037 3.221 1.749 6632
-1.040 3.233 1.743 8007
-1.048 3.257 1.743 8107
-1.061 3.296 1.750 8859
-1.062 3.300 1.740 9306
-1.081 3.359 1.757 8649
-1.096 3.405 1.767 8297
-1.102 3.423 1.763 9451
-1.106 3.435 1.756 7578
-1.109 3.446 1.749 4233
-1.086 3.375 1.703 3091
-1.136 3.531 1.763 3504
-1.129 3.507 1.740 4786
-1.133 3.519 1.733 4154
-1.150 3.572 1.744 4092
-1.162 3.611 1.749 5579
-1.166 3.622 1.741 5734
-1.181 3.668 1.749 3764
-1.184 3.679 1.741 4217
-1.188 3.691 1.732 4886
-1.219 3.786 1.761 5502
-1.220 3.790 1.749 7473
-1.226 3.809 1.744 7015
-1.234 3.834 1.741 6065
-1.254 3.895 1.753 5251
-1.253 3.892 1.738 6583
-1.259 3.910 1.732 9059
-1.260 3.915 1.720 10434
-1.264 3.926 1.711 6908
-1.267 3.938 1.702 4907
-1.285 3.991 1.710 4753
-1.295 4.024 1.709 6441
-1.299 4.035 1.700 5911
-1.332 4.139 1.726 5931
-1.331 4.136 1.711 5356
-1.355 4.211 1.725 3680
-1.364 4.237 1.720 3197
-1.372 4.262 1.715 5939
-1.376 4.274 1.705 7340
-1.384 4.300 1.700 6893
-1.392 4.325 1.695 4038
-1.414 4.394 1.705 4955
-1.418 4.405 1.694 5430
-1.452 4.509 1.716 4525
-1.455 4.521 1.705 5297
-1.457 4.525 1.691 6463
-1.456 4.522 1.675 5263
-1.452 4.512 1.656 2774
-1.465 4.552 1.655 3305
-1.471 4.571 1.646 4103
-1.496 4.647 1.656 2834
-1.518 4.716 1.663 3874
-1.568 4.871 1.697 5324
-1.569 4.876 1.682 3932
-1.555 4.830 1.652 3001
-1.556 4.834 1.637 2077
-1.590 4.939 1.654 2854
-1.591 4.943 1.639 2509
-1.651 5.128 1.679 2132
-1.643 5.104 1.654 2158
-1.642 5.101 1.637 2319
-1.690 5.250 1.664 3124
-1.689 5.247 1.646 3709
-1.760 5.469 1.692 4743
-1.762 5.473 1.676 6270
-1.751 5.441 1.649 4826
-1.762 5.475 1.640 5312
-1.764 5.479 1.624 5272
-1.765 5.483 1.607 5822
-1.771 5.502 1.594 6982
-1.774 5.513 1.579 4098
-1.270 3.944 1.153 2936
-1.270 3.947 1.141 3731
-1.274 3.957 1.131 3637
-1.968 6.115 1.659 4057
-1.970 6.119 1.641 4592
-1.973 6.131 1.624 2545
-2.100 6.524 1.699 1933
-2.030 6.308 1.627 1852
-2.055 6.385 1.625 1814
-2.054 6.382 1.604 1928
-2.155 6.696 1.655 2094
-2.161 6.714 1.638 1930
-2.239 6.955 1.670 1523
-2.247 6.981 1.653 1641
-2.412 7.494 1.742 2273
-2.414 7.499 1.719 2738
-2.415 7.503 1.696 2012
-1.333 4.143 0.981 2283
-1.334 4.145 0.968 4525
-1.330 4.132 0.953 4508
-1.328 4.127 0.939 2917
-1.339 4.159 0.932 3138
-1.337 4.154 0.918 4413
-1.335 4.149 0.904 3221
-1.604 4.982 1.044 1176
-1.597 4.962 1.025 1250
-1.596 4.957 1.009 1949
-1.594 4.952 0.992 1861
-1.597 4.962 0.979 1131
-1.605 4.987 0.967 753
-1.270 3.947 0.780 649
-1.271 3.948 0.769 465
-0.521 1.617 0.333 281
-0.523 1.625 0.330 294
-0.523 1.626 0.325 254
-0.269 0.834 0.078 290
-0.271 0.842 0.075 370
-0.271 0.842 0.072 428
-0.271 0.841 0.070 456
-0.271 0.841 0.067 497
-0.271 0.841 0.065 505
-0.271 0.841 0.062 523
-0.273 0.848 0.059 496
-0.273 0.848 0.057 470
-0.270 0.840 0.055 408
-0.270 0.840 0.053 352
-0.270 0.840 0.050 295
-0.265 0.824 0.045 264
-0.693 2.176 1.759 3996
-0.695 2.181 1.753 7993
-0.696 2.185 1.746 7993
-0.696 2.184 1.735 6675
-0.728 2.287 1.802 5735
-0.724 2.273 1.781 6010
-0.726 2.277 1.775 6695
-0.727 2.282 1.768 6695
-0.732 2.299 1.770 6497
-0.738 2.316 1.772 7374
-0.745 2.339 1.778 7332
-0.749 2.350 1.776 8747
-0.752 2.360 1.773 9765
-0.755 2.371 1.771 11360
-0.757 2.376 1.763 11271
-0.758 2.380 1.756 10553
-0.760 2.385 1.749 9942
-0.759 2.383 1.738 6812
-0.771 2.419 1.752 4046
-0.782 2.455 1.766 5075
-0.786 2.466 1.763 6995
-0.785 2.464 1.752 6478
-0.784 2.462 1.740 6056
-0.782 2.454 1.724 5886
-0.783 2.458 1.717 5854
-0.807 2.533 1.755 6263
-0.806 2.531 1.744 7696
-0.808 2.536 1.736 10590
-0.811 2.547 1.732 13617
-0.813 2.551 1.725 12167
-0.814 2.555 1.717 10717
-0.816 2.560 1.709 7001
-0.860 2.700 1.787 4791
-0.845 2.653 1.746 4837
-0.845 2.651 1.734 6482
-0.846 2.655 1.726 6271
-0.849 2.666 1.722 5185
-0.855 2.684 1.722 4736
-0.892 2.800 1.781 5754
-0.895 2.811 1.776 8496
-0.897 2.815 1.768 10330
-0.896 2.813 1.755 12193
-0.896 2.811 1.743 11610
-0.899 2.822 1.738 8451
-0.934 2.933 1.791 8943
-0.936 2.937 1.782 8611
-0.935 2.935 1.769 7921
-0.937 2.940 1.760 6759
-0.929 2.917 1.737 5602
-0.931 2.922 1.728 5785
-0.941 2.953 1.734 5610
-0.957 3.004 1.750 6274
-0.959 3.009 1.741 7682
-0.960 3.013 1.732 7537
-0.959 3.011 1.720 5802
-0.978 3.069 1.739 4390
-1.001 3.141 1.765 6745
-1.002 3.145 1.756 10200
-1.001 3.143 1.743 11182
-1.005 3.154 1.737 9157
-1.013 3.179 1.738 5586
-1.027 3.224 1.749 5027
-1.029 3.229 1.739 6782
-1.043 3.274 1.750 7616
-1.051 3.299 1.750 8770
-1.052 3.303 1.740 9274
-1.069 3.356 1.754 7869
-1.086 3.408 1.767 7638
-1.092 3.426 1.763 8961
-1.095 3.438 1.756 7111
-1.103 3.463 1.755 4587
-1.083 3.399 1.713 3643
-1.086 3.410 1.706 3847
-1.116 3.504 1.737 4270
-1.133 3.557 1.748 4062
-1.139 3.575 1.744 5126
-1.151 3.614 1.749 6435
-1.155 3.625 1.741 6636
-1.161 3.644 1.736 4271
-1.173 3.683 1.741 4468
-1.175 3.687 1.729 5125
-1.210 3.796 1.764 4591
-1.209 3.794 1.749 6343
-1.217 3.819 1.747 6774
-1.220 3.831 1.738 6224
-1.242 3.898 1.753 4826
-1.243 3.903 1.741 5933
-1.247 3.914 1.732 8407
-1.248 3.919 1.720 9790
-1.252 3.930 1.711 6420
-1.256 3.941 1.702 4711
-1.271 3.988 1.707 5226
-1.281 4.021 1.706 6350
-1.285 4.032 1.697 5447
-1.320 4.143 1.726 5905
-1.319 4.140 1.711 5724
-1.325 4.158 1.703 3556
-1.349 4.234 1.718 3038
-1.359 4.267 1.715 5680
-1.363 4.278 1.705 6648
-1.369 4.297 1.697 5631
-1.395 4.379 1.713 3810
-1.399 4.391 1.702 5246
-1.405 4.409 1.694 5473
-1.438 4.514 1.716 4398
-1.442 4.525 1.705 5564
-1.443 4.530 1.691 6802
-1.442 4.527 1.675 5487
-1.444 4.531 1.661 3297
-1.452 4.557 1.655 4137
-1.458 4.575 1.646 4604
-1.466 4.601 1.639 2800
-1.504 4.721 1.663 3647
-1.554 4.876 1.697 4275
-1.543 4.844 1.671 3120
-1.542 4.841 1.654 3449
-1.544 4.846 1.639 2542
-1.573 4.937 1.651 2387
-1.632 5.122 1.692 2248
-1.635 5.133 1.679 2417
-1.595 5.007 1.624 2205
-1.629 5.113 1.639 2670
-1.672 5.248 1.662 3086
-1.673 5.252 1.646 3733
-1.742 5.467 1.690 4521
-1.745 5.479 1.676 6139
-1.745 5.476 1.657 4186
-1.748 5.487 1.642 5842
-1.750 5.491 1.626 6434
-1.751 5.495 1.609 6681
-1.752 5.499 1.592 7254
-1.756 5.511 1.578 3492
-1.255 3.941 1.151 4585
-1.256 3.943 1.139 5297
-1.260 3.954 1.129 4516
-1.950 6.121 1.659 4005
-1.951 6.125 1.641 4758
-1.955 6.136 1.624 2603
-1.966 6.170 1.612 2085
-2.019 6.336 1.632 2036
-2.034 6.384 1.623 2059
-2.132 6.690 1.674 2111
-2.133 6.695 1.653 2274
-2.144 6.728 1.639 2033
-2.267 7.116 1.704 1620
-2.276 7.143 1.687 1720
-2.390 7.502 1.742 2351
-2.391 7.506 1.719 2707
-2.393 7.510 1.696 1815
-1.319 4.139 0.979 2580
-1.317 4.134 0.965 2468
-1.318 4.136 0.953 2079
-1.319 4.139 0.940 2231
-1.322 4.148 0.929 2356
-1.320 4.143 0.915 2892
-1.318 4.138 0.901 2456
-1.584 4.972 1.041 1545
-1.585 4.975 1.026 2077
-1.586 4.977 1.011 2140
-1.586 4.979 0.996 1408
-1.585 4.974 0.980 631
-1.638 5.140 0.992 445
-1.638 5.143 0.977 344
-0.266 0.835 0.078 289
-0.268 0.843 0.075 367
-0.268 0.842 0.072 431
-0.271 0.850 0.069 467
-0.268 0.842 0.067 503
-0.268 0.842 0.065 510
-0.268 0.842 0.062 530
-0.270 0.849 0.059 507
-0.270 0.849 0.057 482
-0.268 0.841 0.055 417
-0.268 0.841 0.053 357
-0.268 0.840 0.050 298
-0.688 2.178 1.759 4148
-0.689 2.183 1.753 8297
-0.691 2.187 1.746 8297
-0.690 2.185 1.735 6994
-0.692 2.190 1.729 5817
-0.718 2.274 1.781 5212
-0.718 2.273 1.770 6035
-0.719 2.277 1.763 6035
-0.725 2.294 1.765 5553
-0.734 2.324 1.776 6375
-0.739 2.341 1.778 7130
-0.743 2.352 1.776 8798
-0.746 2.362 1.773 9863
-0.749 2.373 1.771 11650
-0.751 2.378 1.763 11672
-0.752 2.382 1.756 11094
-0.754 2.387 1.749 10459
-0.753 2.385 1.738 7382
-0.753 2.383 1.726 4298
-0.776 2.457 1.766 4792
-0.779 2.468 1.763 6590
-0.779 2.466 1.752 6029
-0.766 2.426 1.715 5895
-0.776 2.456 1.724 6005
-0.777 2.460 1.717 6395
-0.801 2.535 1.755 6048
-0.800 2.533 1.744 7424
-0.801 2.538 1.736 10097
-0.805 2.549 1.732 12858
-0.806 2.553 1.725 11346
-0.808 2.557 1.717 9834
-0.807 2.555 1.705 6513
-0.851 2.696 1.783 4675
-0.838 2.655 1.746 5116
-0.838 2.653 1.734 6441
-0.839 2.658 1.726 5925
-0.841 2.662 1.718 4782
-0.848 2.686 1.722 4823
-0.885 2.802 1.781 5584
-0.888 2.813 1.776 8361
-0.888 2.811 1.764 10755
-0.887 2.809 1.752 13383
-0.888 2.813 1.743 12679
-0.890 2.818 1.735 9067
-0.927 2.935 1.791 7743
-0.928 2.939 1.782 7585
-0.930 2.944 1.773 7072
-0.929 2.942 1.760 6894
-0.926 2.933 1.744 6304
-0.949 3.004 1.772 6359
-0.935 2.962 1.737 6192
-0.950 3.007 1.750 6211
-0.951 3.011 1.741 6899
-0.950 3.009 1.729 7292
-0.952 3.013 1.720 6155
-0.968 3.065 1.736 5220
-0.988 3.130 1.758 5990
-0.992 3.141 1.752 9501
-0.993 3.146 1.743 10903
-0.997 3.157 1.737 9279
-1.005 3.182 1.738 6287
-1.006 3.186 1.728 4388
-1.012 3.204 1.726 5652
-1.039 3.290 1.757 7198
-1.041 3.295 1.747 8464
-1.044 3.306 1.740 9046
-1.058 3.352 1.750 7052
-1.079 3.418 1.770 6567
-1.083 3.429 1.763 7548
-1.087 3.441 1.756 6075
-1.094 3.466 1.755 4962
-1.076 3.408 1.716 4291
-1.080 3.419 1.709 4889
-1.105 3.500 1.734 4912
-1.100 3.483 1.713 4825
-1.130 3.578 1.744 6429
-1.140 3.610 1.746 6840
-1.146 3.628 1.741 6917
-1.149 3.640 1.733 4548
-1.164 3.686 1.741 4471
-1.165 3.690 1.729 5125
-1.165 3.688 1.715 4495
-1.201 3.804 1.752 5175
-1.207 3.822 1.747 6526
-1.211 3.834 1.738 6422
-1.206 3.817 1.718 4964
-1.233 3.906 1.741 5014
-1.237 3.917 1.732 7302
-1.239 3.922 1.720 8702
-1.244 3.940 1.714 5765
-1.261 3.994 1.722 4456
-1.260 3.991 1.707 5521
-1.266 4.010 1.701 6342
-1.274 4.035 1.697 4812
-1.305 4.132 1.720 5764
-1.308 4.143 1.711 5945
-1.314 4.162 1.703 3707
-1.352 4.280 1.734 3044
-1.348 4.270 1.715 5251
-1.352 4.281 1.705 5743
-1.356 4.293 1.695 4515
-1.382 4.376 1.710 4258
-1.385 4.387 1.700 5368
-1.394 4.413 1.694 5200
-1.427 4.517 1.716 4378
-1.430 4.529 1.705 5989
-1.432 4.533 1.691 7189
-1.431 4.530 1.675 5651
-1.434 4.542 1.664 3875
-1.440 4.560 1.655 4871
-1.446 4.579 1.646 4929
-1.452 4.598 1.637 2816
-1.487 4.710 1.658 3449
-1.498 4.743 1.653 3823
-1.524 4.827 1.664 3125
-1.530 4.845 1.654 3746
-1.534 4.857 1.642 2985
-1.604 5.078 1.694 1968
-1.619 5.126 1.692 2535
-1.622 5.137 1.679 2634
-1.583 5.011 1.624 2443
-1.616 5.117 1.639 2844
-1.617 5.121 1.623 2683
-1.710 5.416 1.692 3391
-1.716 5.435 1.680 4620
-1.729 5.476 1.674 5850
-1.728 5.473 1.655 4567
-1.732 5.484 1.640 6544
-1.733 5.488 1.624 7075
-1.737 5.500 1.609 7026
-1.738 5.504 1.592 6992
-1.247 3.948 1.165 3137
-1.245 3.944 1.151 3145
-1.246 3.947 1.139 2303
-1.250 3.957 1.129 3082
-1.248 3.952 1.115 4122
-1.936 6.130 1.641 4807
-1.942 6.149 1.626 2657
-1.950 6.175 1.612 2118
-2.005 6.348 1.634 2205
-2.015 6.382 1.621 2099
-2.115 6.696 1.674 2178
-2.116 6.700 1.653 2263
-2.127 6.734 1.639 1940
-2.249 7.122 1.704 2073
-2.255 7.141 1.686 2322
-2.266 7.175 1.670 2535
-2.372 7.512 1.719 2615
-1.298 4.111 0.986 1978
-1.299 4.113 0.973 2458
-1.304 4.130 0.964 2616
-1.305 4.132 0.951 2957
-1.308 4.142 0.940 3197
-1.304 4.129 0.925 2789
-1.300 4.117 0.910 2328
-1.578 4.996 1.061 1147
-1.574 4.983 1.043 1517
-1.575 4.986 1.028 1467
-1.578 4.996 1.014 1577
-1.578 4.998 0.999 1457
-1.582 5.008 0.985 1038
-1.627 5.152 0.993 755
-1.625 5.147 0.977 712
-1.629 5.157 0.962 605
-1.629 5.159 0.947 438
-1.630 5.161 0.931 296
-0.264 0.836 0.078 287
-0.266 0.843 0.075 371
-0.266 0.843 0.072 427
-0.266 0.843 0.070 447
-0.266 0.843 0.067 482
-0.266 0.843 0.065 494
-0.266 0.842 0.062 515
-0.268 0.850 0.059 496
-0.268 0.849 0.057 477
-0.266 0.842 0.055 419
-0.266 0.841 0.053 368
-0.266 0.841 0.050 306
-0.685 2.179 1.759 4251
-0.686 2.184 1.753 8502
-0.688 2.188 1.746 8502
-0.689 2.193 1.740 7272
-0.688 2.191 1.729 6126
-0.690 2.195 1.722 4471
-0.715 2.274 1.770 5506
-0.716 2.278 1.763 5506
-0.719 2.289 1.761 4791
-0.731 2.325 1.776 5427
-0.736 2.342 1.778 6765
-0.739 2.353 1.776 8666
-0.743 2.363 1.773 9844
-0.748 2.380 1.775 11870
-0.748 2.379 1.763 12003
-0.749 2.383 1.756 11614
-0.750 2.388 1.749 10982
-0.750 2.386 1.738 8044
-0.749 2.384 1.726 5111
-0.773 2.458 1.766 4378
-0.776 2.469 1.763 5998
-0.773 2.461 1.747 5517
-0.763 2.427 1.715 6200
-0.770 2.451 1.720 6084
-0.774 2.461 1.717 6819
-0.775 2.466 1.709 5715
-0.796 2.534 1.744 6968
-0.798 2.539 1.736 9434
-0.801 2.550 1.732 11920
-0.801 2.548 1.721 10447
-0.802 2.552 1.713 8994
-0.803 2.557 1.705 6010
-0.835 2.658 1.758 4761
-0.835 2.656 1.746 5321
-0.834 2.654 1.734 6234
-0.836 2.659 1.726 5415
-0.843 2.683 1.730 4447
-0.865 2.753 1.762 4933
-0.871 2.770 1.761 5429
-0.884 2.814 1.776 7989
-0.884 2.812 1.764 10930
-0.881 2.804 1.748 14220
-0.885 2.815 1.743 13377
-0.886 2.819 1.735 9555
-0.896 2.850 1.741 7737
-0.899 2.861 1.737 6691
-0.926 2.945 1.773 6257
-0.927 2.950 1.764 7042
-0.926 2.948 1.752 7216
-0.942 2.999 1.769 7062
-0.931 2.963 1.737 6631
-0.945 3.008 1.750 5931
-0.945 3.006 1.738 5869
-0.946 3.010 1.729 6855
-0.947 3.015 1.720 6461
-0.964 3.066 1.736 6737
-0.967 3.077 1.730 6550
-0.988 3.143 1.752 8990
-0.989 3.147 1.743 10642
-0.997 3.172 1.744 9435
-1.002 3.190 1.741 6897
-1.002 3.188 1.728 4945
-1.005 3.199 1.722 5968
-1.034 3.292 1.757 6811
-1.036 3.296 1.747 8169
-1.039 3.308 1.740 8845
-1.041 3.312 1.730 7018
-1.075 3.419 1.770 5772
-1.078 3.431 1.763 6530
-1.082 3.442 1.756 5297
-1.092 3.474 1.759 5395
-1.074 3.417 1.719 4869
-1.077 3.428 1.712 5746
-1.092 3.474 1.721 5014
-1.121 3.568 1.752 5435
-1.125 3.579 1.744 7595
-1.131 3.598 1.739 6977
-1.141 3.630 1.741 6590
-1.147 3.648 1.736 4599
-1.157 3.681 1.737 4336
-1.158 3.685 1.726 4876
-1.159 3.689 1.715 4667
-1.200 3.820 1.758 4195
-1.202 3.824 1.747 6251
-1.205 3.836 1.738 6511
-1.200 3.819 1.718 5490
-1.202 3.823 1.706 4674
-1.229 3.912 1.729 6291
-1.235 3.931 1.723 7661
-1.239 3.942 1.714 5185
-1.256 3.996 1.722 4304
-1.255 3.993 1.707 5473
-1.256 3.997 1.695 6177
-1.293 4.115 1.727 4755
-1.299 4.134 1.720 5540
-1.300 4.138 1.708 5738
-1.306 4.156 1.701 3682
-1.346 4.282 1.734 3270
-1.320 4.201 1.689 4856
-1.344 4.276 1.703 4787
-1.347 4.288 1.692 4002
-1.371 4.363 1.705 5185
-1.377 4.382 1.697 5373
-1.387 4.415 1.694 4602
-1.420 4.519 1.716 4295
-1.424 4.531 1.705 6209
-1.425 4.535 1.691 7278
-1.424 4.532 1.675 5604
-1.430 4.551 1.666 4355
-1.434 4.562 1.655 5313
-1.440 4.581 1.646 4971
-1.446 4.600 1.637 2957
-1.476 4.698 1.653 3321
-1.491 4.745 1.653 3538
-1.517 4.829 1.664 3151
-1.526 4.855 1.656 3829
-1.527 4.859 1.642 3190
-1.597 5.080 1.694 2078
-1.607 5.114 1.687 2568
-1.615 5.140 1.679 2702
-1.573 5.006 1.622 2485
-1.609 5.119 1.639 2814
-1.610 5.123 1.623 2851
-1.705 5.426 1.694 3430
-1.709 5.437 1.680 5197
-1.719 5.471 1.671 5492
-1.716 5.461 1.651 5653
-1.722 5.479 1.638 7332
-1.726 5.491 1.624 7235
-1.727 5.495 1.607 6594
-1.730 5.506 1.592 6017
-1.729 5.503 1.574 2805
-1.235 3.931 1.147 2235
-1.916 6.098 1.691 2101
-1.925 6.124 1.678 2580
-1.926 6.128 1.659 3826
-1.927 6.133 1.641 4585
-1.933 6.151 1.626 2728
-1.944 6.185 1.614 2244
-2.005 6.381 1.641 2259
-2.057 6.547 1.659 2147
-2.103 6.691 1.672 2140
-2.104 6.696 1.652 2211
-2.117 6.737 1.639 1643
-2.239 7.125 1.704 2566
-2.243 7.137 1.684 3148
-2.253 7.171 1.669 2938
-2.362 7.515 1.719 2615
-2.366 7.527 1.698 1673
-2.411 7.672 1.704 1464
-1.291 4.110 0.959 1529
-1.292 4.112 0.947 3032
-1.300 4.136 0.939 4727
-1.303 4.146 0.928 5091
-1.301 4.141 0.914 4209
-1.297 4.128 0.899 2668
-1.571 5.001 1.046 1648
-1.575 5.011 1.032 1697
-1.575 5.013 1.017 1699
-1.574 5.008 1.000 1430
-1.619 5.152 1.009 1222
-1.620 5.154 0.993 1312
-1.618 5.149 0.977 1235
-1.621 5.159 0.962 1058
-1.622 5.161 0.947 867
-1.623 5.164 0.931 672
-1.623 5.166 0.915 462
-1.622 5.160 0.898 270
-0.263 0.836 0.078 268
-0.265 0.844 0.075 341
-0.265 0.843 0.072 392
-0.265 0.843 0.070 408
-0.265 0.843 0.067 437
-0.265 0.843 0.065 450
-0.265 0.843 0.062 473
-0.267 0.850 0.059 460
-0.267 0.850 0.057 444
-0.267 0.850 0.054 390
-0.265 0.842 0.053 343
-0.264 0.842 0.050 290
-0.678 2.181 1.759 4262
-0.680 2.186 1.753 8525
-0.681 2.190 1.746 8525
-0.682 2.195 1.740 7452
-0.682 2.193 1.729 6391
-0.683 2.197 1.722 4573
-0.706 2.270 1.765 5183
-0.707 2.274 1.759 5183
-0.709 2.279 1.752 4401
-0.726 2.333 1.781 4630
-0.729 2.344 1.778 6349
-0.732 2.355 1.776 8439
-0.738 2.372 1.778 9837
-0.741 2.383 1.775 12159
-0.740 2.381 1.763 12358
-0.742 2.385 1.756 12185
-0.741 2.384 1.745 11684
-0.741 2.382 1.733 8837
-0.742 2.386 1.726 6062
-0.745 2.397 1.723 4726
-0.767 2.465 1.759 5296
-0.754 2.425 1.722 5266
-0.755 2.429 1.715 6585
-0.763 2.453 1.720 6194
-0.766 2.464 1.717 7117
-0.770 2.474 1.714 5794
-0.789 2.537 1.744 6345
-0.790 2.541 1.736 8638
-0.792 2.546 1.728 10930
-0.793 2.550 1.721 9600
-0.794 2.555 1.713 8270
-0.796 2.559 1.705 5563
-0.827 2.661 1.758 5168
-0.827 2.659 1.746 5478
-0.826 2.657 1.734 5940
-0.828 2.661 1.726 4882
-0.835 2.685 1.730 4334
-0.839 2.696 1.726 5079
-0.862 2.773 1.761 5565
-0.876 2.817 1.776 7723
-0.875 2.815 1.764 11104
-0.873 2.806 1.748 14860
-0.876 2.817 1.743 13810
-0.878 2.822 1.735 9825
-0.885 2.846 1.738 7701
-0.889 2.857 1.733 6890
-0.892 2.868 1.728 6207
-0.918 2.953 1.764 7250
-0.920 2.957 1.755 8068
-0.931 2.995 1.765 7542
-0.922 2.966 1.737 6825
-0.926 2.977 1.732 5530
-0.929 2.988 1.727 4721
-0.937 3.013 1.729 6260
-0.945 3.038 1.730 6977
-0.954 3.069 1.736 8398
-0.956 3.073 1.726 7872
-0.978 3.146 1.752 8564
-0.982 3.157 1.746 10391
-0.989 3.182 1.747 9838
-0.993 3.193 1.741 7398
-0.982 3.157 1.711 5755
-0.991 3.188 1.715 6481
-1.027 3.302 1.760 6542
-1.026 3.299 1.747 7872
-1.030 3.311 1.740 8615
-1.029 3.308 1.727 7050
-1.017 3.272 1.697 5063
-1.066 3.427 1.760 4983
-1.069 3.438 1.753 4341
-1.081 3.477 1.759 5011
-1.066 3.427 1.722 5242
-1.067 3.431 1.712 6335
-1.081 3.477 1.721 5819
-1.085 3.488 1.713 6117
-1.114 3.583 1.744 8456
-1.118 3.594 1.736 6941
-1.130 3.633 1.741 5747
-1.136 3.652 1.736 4435
-1.144 3.677 1.734 4104
-1.147 3.689 1.726 4442
-1.148 3.693 1.715 4656
-1.163 3.739 1.722 4604
-1.193 3.835 1.750 5972
-1.194 3.839 1.738 6497
-1.189 3.823 1.718 5798
-1.190 3.827 1.706 5062
-1.220 3.923 1.732 5000
-1.224 3.934 1.723 6505
-1.242 3.995 1.734 4625
-1.244 3.999 1.722 3945
-1.241 3.990 1.704 5210
-1.242 3.994 1.692 6066
-1.279 4.112 1.725 4713
-1.285 4.130 1.718 4891
-1.288 4.142 1.708 5122
-1.289 4.146 1.695 3713
-1.291 4.150 1.683 3710
-1.334 4.290 1.721 4842
-1.309 4.209 1.676 4204
-1.339 4.306 1.697 4149
-1.356 4.360 1.703 6533
-1.360 4.372 1.692 5478
-1.374 4.419 1.694 3973
-1.407 4.524 1.716 4171
-1.413 4.542 1.707 6398
-1.412 4.540 1.691 7236
-1.413 4.544 1.677 5521
-1.417 4.555 1.666 4684
-1.420 4.567 1.655 5479
-1.426 4.585 1.646 4861
-1.434 4.611 1.639 3308
-1.460 4.695 1.651 3225
-1.477 4.749 1.653 3322
-1.505 4.840 1.666 3156
-1.513 4.866 1.659 3824
-1.510 4.856 1.639 3234
-1.579 5.078 1.692 2159
-1.585 5.097 1.681 2629
-1.582 5.086 1.661 2551
-1.556 5.003 1.620 2574
-1.594 5.124 1.639 2569
-1.593 5.121 1.621 2859
-1.691 5.438 1.696 3232
-1.695 5.450 1.682 5361
-1.698 5.461 1.667 5636
-1.700 5.466 1.651 6581
-1.706 5.484 1.638 7973
-1.707 5.489 1.622 7584
-1.706 5.485 1.603 6200
-1.714 5.511 1.592 4826
-1.223 3.932 1.159 4205
-1.224 3.935 1.147 2641
-1.757 5.648 1.574 2149
-1.760 5.660 1.559 2454
-1.910 6.141 1.661 3390
-1.909 6.138 1.641 4094
-1.230 3.956 1.090 2507
-1.925 6.191 1.614 2308
-1.986 6.387 1.641 2375
-1.976 6.354 1.613 2064
-2.083 6.698 1.672 1931
-2.084 6.702 1.652 2025
-2.217 7.127 1.726 1379
-2.218 7.132 1.704 2707
-2.222 7.143 1.684 3625
-2.230 7.170 1.667 3287
-2.339 7.522 1.719 2517
-2.343 7.534 1.698 1687
-2.268 7.294 1.625 1398
-1.279 4.113 0.959 2005
-1.280 4.116 0.947 3867
-1.278 4.110 0.933 3832
-1.279 4.113 0.921 2220
-1.217 3.914 0.870 1731
-1.218 3.916 0.858 2796
-1.221 3.925 0.848 2933
-1.224 3.935 0.837 2387
-1.224 3.937 0.826 2343
-1.223 3.931 0.812 2403
-1.223 3.933 0.801 1931
-1.224 3.935 0.789 1094
-2.794 8.985 1.605 614
-2.793 8.982 1.577 513
-1.604 5.159 0.945 384
-1.605 5.161 0.930 298
-0.547 1.758 0.250 277
-0.547 1.759 0.245 296
-0.547 1.759 0.240 278
-0.547 1.759 0.235 261
-0.263 0.844 0.075 306
-0.263 0.844 0.072 351
-0.263 0.844 0.070 363
-0.262 0.844 0.067 389
-0.262 0.844 0.065 403
-0.262 0.843 0.062 423
-0.265 0.851 0.059 413
-0.265 0.851 0.057 400
-0.264 0.850 0.054 349
-0.262 0.843 0.053 306
-0.262 0.842 0.050 252
-0.676 2.182 1.759 4140
-0.677 2.186 1.753 8280
-0.679 2.191 1.746 8280
-0.680 2.195 1.740 7406
-0.681 2.200 1.733 6533
-0.681 2.198 1.722 4566
-0.703 2.271 1.765 5047
-0.705 2.275 1.759 5047
-0.704 2.273 1.747 4315
-0.700 2.259 1.727 4197
-0.726 2.345 1.778 5806
-0.730 2.356 1.776 8022
-0.735 2.373 1.778 9714
-0.738 2.384 1.775 12251
-0.738 2.382 1.763 12508
-0.739 2.386 1.756 12528
-0.739 2.384 1.745 12179
-0.738 2.383 1.733 9500
-0.739 2.387 1.726 6858
-0.741 2.391 1.719 5356
-0.762 2.460 1.755 4520
-0.749 2.419 1.718 5473
-0.753 2.430 1.715 6934
-0.758 2.447 1.716 6352
-0.763 2.465 1.717 7288
-0.767 2.475 1.714 5787
-0.784 2.531 1.739 5667
-0.787 2.542 1.736 7717
-0.789 2.547 1.728 9853
-0.790 2.551 1.721 8731
-0.792 2.555 1.713 7608
-0.793 2.560 1.705 5158
-0.824 2.662 1.758 5471
-0.824 2.660 1.746 5539
-0.825 2.664 1.738 5678
-0.829 2.675 1.734 4520
-0.834 2.693 1.734 4298
-0.835 2.697 1.726 5199
-0.861 2.780 1.765 5649
-0.871 2.811 1.772 7326
-0.872 2.816 1.764 10989
-0.870 2.807 1.748 15034
-0.873 2.818 1.743 13937
-0.874 2.823 1.735 10033
-0.882 2.847 1.738 7742
-0.883 2.851 1.729 7007
-0.887 2.863 1.724 6340
-0.915 2.954 1.764 7459
-0.916 2.958 1.755 8653
-0.928 2.996 1.765 7839
-0.929 3.001 1.756 6834
-0.923 2.978 1.732 4980
-0.924 2.983 1.723 4134
-0.936 3.021 1.732 5797
-0.945 3.052 1.738 8401
-0.949 3.063 1.732 9939
-0.950 3.068 1.723 9006
-0.973 3.140 1.749 7728
-0.978 3.158 1.746 9495
-0.988 3.190 1.751 9630
-0.989 3.194 1.741 7261
-0.978 3.158 1.711 6096
-0.986 3.182 1.712 6848
-0.989 3.194 1.706 6921
-1.022 3.301 1.747 7344
-1.026 3.312 1.740 8229
-1.019 3.289 1.717 7176
-1.014 3.273 1.697 5035
-1.053 3.401 1.747 4373
-1.057 3.412 1.740 4658
-1.077 3.479 1.759 5666
-1.062 3.428 1.722 5301
-1.063 3.432 1.712 6565
-1.075 3.471 1.718 6127
-1.081 3.489 1.713 6427
-1.108 3.577 1.741 8857
-1.112 3.589 1.733 6875
-1.117 3.607 1.729 4750
-1.134 3.660 1.739 4186
-1.137 3.671 1.731 3932
-1.141 3.683 1.723 3953
-1.144 3.694 1.715 4434
-1.161 3.748 1.725 5146
-1.188 3.836 1.750 5630
-1.190 3.841 1.738 6219
-1.187 3.831 1.721 5759
-1.186 3.828 1.706 5113
-1.215 3.924 1.732 3901
-1.221 3.943 1.726 5529
-1.225 3.954 1.717 4066
-1.239 4.001 1.722 3381
-1.234 3.984 1.702 4718
-1.235 3.988 1.690 5989
-1.274 4.113 1.725 4519
-1.280 4.132 1.718 4249
-1.283 4.143 1.708 4437
-1.285 4.148 1.695 3615
-1.286 4.152 1.683 4077
-1.329 4.292 1.721 4779
-1.333 4.303 1.710 4003
-1.336 4.315 1.700 4841
-1.349 4.355 1.700 7426
-1.352 4.366 1.689 5792
-1.369 4.421 1.694 3422
-1.402 4.525 1.716 4031
-1.407 4.544 1.707 6322
-1.409 4.548 1.694 6797
-1.408 4.545 1.677 5274
-1.411 4.557 1.666 4686
-1.415 4.568 1.655 5140
-1.421 4.587 1.646 4487
-1.431 4.620 1.641 3606
-1.450 4.682 1.646 3027
-1.472 4.751 1.653 3184
-1.502 4.849 1.669 3195
-1.510 4.875 1.661 3594
-1.502 4.851 1.637 3185
-1.573 5.080 1.692 2120
-1.575 5.084 1.676 2731
-1.574 5.081 1.659 3052
-1.550 5.005 1.620 2725
-1.583 5.111 1.634 2269
-1.587 5.123 1.621 2664
-1.685 5.440 1.696 2868
-1.689 5.452 1.682 4962
-1.690 5.456 1.665 5408
-1.694 5.468 1.651 6668
-1.699 5.486 1.638 8146
-1.698 5.483 1.620 8198
-1.697 5.480 1.601 6608
-1.708 5.513 1.592 4031
-1.704 5.503 1.572 2756
-1.219 3.936 1.147 2313
-1.759 5.680 1.582 2082
-1.754 5.662 1.559 2031
-1.903 6.144 1.661 3038
-1.902 6.140 1.641 3655
-1.908 6.159 1.626 2312
-1.918 6.193 1.614 2296
-1.979 6.389 1.641 2166
-1.966 6.349 1.611 2106
-1.965 6.345 1.590 1807
-2.077 6.704 1.652 1711
-1.290 4.165 1.061 1489
-2.210 7.134 1.704 2505
-2.213 7.146 1.684 3645
-2.222 7.172 1.667 3334
-2.331 7.525 1.719 2302
-2.222 7.173 1.622 1737
-2.260 7.296 1.625 1600
-1.270 4.100 0.956 1818
-1.268 4.095 0.943 3128
-1.269 4.097 0.930 3941
-1.270 4.099 0.918 3094
-1.273 4.109 0.907 2371
-1.273 4.111 0.894 1875
-1.214 3.919 0.847 1489
-1.215 3.921 0.835 2292
-1.215 3.923 0.823 1797
-1.216 3.925 0.811 1850
-1.216 3.927 0.799 2444
-1.217 3.929 0.787 2144
-1.217 3.931 0.776 1336
-1.218 3.932 0.764 619
-2.782 8.982 1.548 322
-0.545 1.758 0.261 295
-0.545 1.759 0.256 338
-0.545 1.759 0.250 361
-0.545 1.759 0.245 379
-0.545 1.760 0.240 362
-0.545 1.760 0.235 342
-0.545 1.760 0.229 302
-0.262 0.845 0.075 268
-0.262 0.845 0.072 304
-0.262 0.844 0.070 311
-0.261 0.844 0.067 332
-0.261 0.844 0.065 342
-0.261 0.844 0.062 358
-0.264 0.851 0.059 345
-0.264 0.851 0.057 329
-0.263 0.851 0.054 288
-0.261 0.843 0.053 250
-0.669 2.184 1.759 3994
-0.671 2.188 1.753 7989
-0.672 2.193 1.746 7989
-0.673 2.197 1.740 7304
-0.675 2.202 1.733 6619
-0.674 2.200 1.722 4545
-0.697 2.273 1.765 5032
-0.698 2.277 1.759 5032
-0.695 2.269 1.743 4362
-0.693 2.261 1.727 4324
-0.719 2.347 1.778 5248
-0.723 2.358 1.776 7547
-0.728 2.375 1.778 9564
-0.731 2.386 1.775 12281
-0.731 2.384 1.763 12597
-0.732 2.388 1.756 12777
-0.731 2.387 1.745 12564
-0.731 2.385 1.733 10030
-0.732 2.389 1.726 7504
-0.734 2.394 1.719 5993
-0.737 2.404 1.716 4530
-0.742 2.422 1.718 5739
-0.745 2.432 1.715 7267
-0.751 2.450 1.716 6541
-0.756 2.467 1.717 7323
-0.759 2.478 1.714 5689
-0.775 2.527 1.735 4951
-0.778 2.538 1.732 6743
-0.781 2.549 1.728 8715
-0.783 2.553 1.721 7869
-0.784 2.558 1.713 7023
-0.811 2.647 1.758 4862
-0.817 2.664 1.758 5715
-0.818 2.669 1.750 5579
-0.819 2.673 1.742 5443
-0.821 2.678 1.734 4358
-0.826 2.695 1.734 4353
-0.829 2.706 1.730 5300
-0.853 2.783 1.765 5686
-0.862 2.814 1.772 7054
-0.864 2.818 1.764 10813
-0.861 2.810 1.748 14939
-0.865 2.821 1.743 13790
-0.866 2.825 1.735 10097
-0.871 2.843 1.734 7740
-0.873 2.847 1.725 7207
-0.876 2.859 1.720 6713
-0.906 2.956 1.764 7615
-0.907 2.961 1.755 8996
-0.911 2.972 1.750 8184
-0.918 2.997 1.752 6708
-0.924 3.015 1.750 4428
-0.913 2.979 1.720 3704
-0.933 3.044 1.743 6004
-0.938 3.062 1.741 9809
-0.940 3.066 1.732 11315
-0.941 3.071 1.723 9995
-0.963 3.143 1.749 6447
-0.971 3.168 1.750 8135
-0.978 3.192 1.751 9008
-0.980 3.197 1.741 6585
-0.969 3.161 1.711 6057
-0.976 3.185 1.712 7137
-0.980 3.197 1.706 7608
-1.015 3.310 1.750 6749
-1.016 3.315 1.740 7905
-1.013 3.306 1.724 7112
-1.006 3.283 1.700 4472
-1.043 3.404 1.747 4933
-1.047 3.415 1.740 5464
-1.063 3.468 1.752 5403
-1.052 3.431 1.722 5093
-1.053 3.435 1.712 6565
-1.063 3.468 1.714 6477
-1.070 3.493 1.713 6714
-1.097 3.580 1.741 8836
-1.099 3.585 1.730 6761
-1.100 3.589 1.719 4655
-1.125 3.670 1.742 3898
-1.124 3.668 1.728 3782
-1.108 3.616 1.693 3877
-1.138 3.712 1.721 4347
-1.152 3.758 1.728 5814
-1.153 3.762 1.717 6416
-1.178 3.844 1.738 5649
-1.177 3.841 1.723 5472
-1.177 3.839 1.709 4942
-1.206 3.935 1.735 2900
-1.209 3.946 1.726 4651
-1.213 3.958 1.717 3705
-1.260 4.111 1.765 3375
-1.263 4.122 1.755 4531
-1.221 3.985 1.687 5830
-1.225 3.996 1.678 4240
-1.241 4.050 1.685 4056
-1.269 4.140 1.705 3576
-1.272 4.151 1.695 3615
-1.274 4.156 1.683 4531
-1.277 4.167 1.673 4681
-1.322 4.314 1.713 4109
-1.326 4.326 1.703 5487
-1.336 4.359 1.700 7942
-1.339 4.370 1.689 6133
-1.354 4.417 1.691 3139
-1.388 4.529 1.716 3872
-1.394 4.548 1.707 6093
-1.395 4.552 1.694 6250
-1.394 4.550 1.677 4966
-1.398 4.561 1.666 4567
-1.401 4.573 1.655 4583
-1.407 4.591 1.646 3907
-1.417 4.624 1.641 3723
-1.430 4.665 1.639 3242
-1.458 4.756 1.653 3036
-1.490 4.861 1.671 3170
-1.496 4.880 1.661 3177
-1.488 4.855 1.637 3048
-1.547 5.048 1.681 2302
-1.557 5.081 1.674 3025
-1.559 5.086 1.659 3565
-1.560 5.090 1.643 3069
-1.566 5.109 1.632 2467
-1.571 5.127 1.621 2818
-1.669 5.445 1.696 2541
-1.672 5.457 1.682 4410
-1.669 5.446 1.661 4964
-1.677 5.473 1.651 6070
-1.681 5.484 1.636 7773
-1.682 5.488 1.620 8471
-1.679 5.478 1.599 7176
-1.673 5.460 1.577 4140
-1.207 3.937 1.159 4407
-1.205 3.932 1.145 3574
-1.206 3.935 1.134 3416
-1.207 3.938 1.122 4955
-1.208 3.941 1.110 6133
-1.209 3.943 1.098 5095
-1.212 3.953 1.088 3107
-1.900 6.199 1.614 2342
-1.960 6.395 1.641 1986
-1.948 6.355 1.611 2272
-1.947 6.351 1.590 1939
-1.279 4.173 1.075 1486
-1.278 4.168 1.061 1996
-2.189 7.141 1.704 2190
-2.192 7.152 1.684 3204
-2.200 7.179 1.667 2866
-2.202 7.183 1.645 2255
-2.201 7.180 1.622 1920
-2.238 7.303 1.625 1694
-1.251 4.081 0.952 1417
-1.254 4.091 0.941 2238
-1.257 4.101 0.930 3211
-1.260 4.110 0.919 3145
-1.260 4.113 0.907 2406
-1.254 4.092 0.890 1687
-1.543 5.034 1.050 1914
-1.544 5.036 1.034 1906
-1.544 5.039 1.019 1304
-2.738 8.932 1.678 1011
-2.739 8.936 1.651 1249
-2.742 8.948 1.625 882
-2.760 9.004 1.606 675
-2.754 8.986 1.576 532
-2.755 8.990 1.548 325
-1.584 5.167 0.930 251
-0.539 1.760 0.266 269
-0.539 1.760 0.261 347
-0.542 1.768 0.256 420
-0.540 1.761 0.250 465
-0.540 1.761 0.245 505
-0.540 1.761 0.240 477
-0.540 1.761 0.235 432
-0.540 1.762 0.229 371
-0.540 1.762 0.224 280
-0.259 0.845 0.070 252
-0.259 0.845 0.067 269
-0.259 0.845 0.065 279
-0.259 0.845 0.062 297
-0.261 0.852 0.059 292
-0.261 0.852 0.057 283
-0.261 0.851 0.054 254
-0.667 2.185 1.759 3850
-0.668 2.189 1.753 7701
-0.669 2.194 1.746 7701
-0.671 2.198 1.740 7183
-0.672 2.203 1.733 6666
-0.675 2.213 1.731 4592
-0.692 2.267 1.761 5254
-0.693 2.272 1.754 5254
-0.693 2.270 1.743 4533
-0.690 2.262 1.727 4443
-0.718 2.354 1.783 4722
-0.720 2.359 1.776 7021
-0.725 2.376 1.778 9380
-0.728 2.387 1.775 12235
-0.728 2.385 1.763 12612
-0.729 2.389 1.756 12920
-0.729 2.388 1.745 12834
-0.728 2.386 1.733 10447
-0.729 2.390 1.726 8048
-0.731 2.395 1.719 6606
-0.728 2.386 1.703 5274
-0.737 2.416 1.713 6094
-0.743 2.433 1.715 7627
-0.748 2.451 1.716 6743
-0.753 2.468 1.717 7340
-0.756 2.479 1.714 5601
-0.769 2.522 1.731 4349
-0.775 2.539 1.732 5788
-0.778 2.550 1.728 7515
-0.779 2.554 1.721 7020
-0.781 2.559 1.713 6524
-0.808 2.648 1.758 5031
-0.813 2.665 1.758 5907
-0.815 2.670 1.750 5606
-0.816 2.674 1.742 5305
-0.819 2.685 1.738 4335
-0.823 2.696 1.734 4432
-0.826 2.707 1.730 5381
-0.852 2.791 1.769 5741
-0.859 2.815 1.772 6927
-0.860 2.819 1.764 10627
-0.860 2.817 1.752 14612
-0.861 2.822 1.743 13339
-0.862 2.826 1.735 9853
-0.864 2.831 1.726 7640
-0.867 2.842 1.721 7419
-0.871 2.853 1.717 7245
-0.902 2.957 1.764 7665
-0.906 2.969 1.759 9151
-0.907 2.973 1.750 8390
-0.911 2.984 1.745 6519
-0.908 2.975 1.729 4122
-0.909 2.980 1.720 3664
-0.931 3.052 1.747 6890
-0.935 3.063 1.741 11088
-0.936 3.067 1.732 12429
-0.937 3.072 1.723 10705
-0.941 3.083 1.717 5374
-0.969 3.176 1.753 6938
-0.975 3.194 1.751 8070
-0.976 3.198 1.741 5969
-0.967 3.169 1.714 6076
-0.972 3.187 1.712 7537
-0.976 3.198 1.706 8161
-1.008 3.305 1.747 6311
-1.010 3.309 1.737 7678
-1.009 3.307 1.724 7179
-1.040 3.408 1.760 4548
-1.039 3.405 1.747 5738
-1.043 3.417 1.740 6459
-1.048 3.435 1.736 5779
-1.047 3.432 1.722 4838
-1.051 3.444 1.715 6354
-1.058 3.469 1.714 6834
-1.064 3.487 1.710 7069
-1.091 3.575 1.738 8515
-1.092 3.579 1.727 7087
-1.094 3.584 1.716 5165
-1.123 3.679 1.745 3539
-1.113 3.648 1.719 3848
-1.106 3.625 1.696 4422
-1.107 3.629 1.685 4393
-1.147 3.759 1.728 6191
-1.151 3.771 1.720 6922
-1.150 3.768 1.705 5456
-1.175 3.850 1.726 5240
-1.172 3.840 1.709 4830
-1.173 3.845 1.697 2814
-1.207 3.955 1.729 3931
-1.208 3.959 1.717 3390
-1.255 4.112 1.765 3598
-1.258 4.124 1.755 4794
-1.216 3.986 1.687 5503
-1.220 3.998 1.678 4285
-1.236 4.052 1.685 4389
-1.240 4.063 1.675 3354
-1.267 4.153 1.695 3594
-1.269 4.157 1.683 5116
-1.270 4.162 1.670 5287
-1.317 4.316 1.713 4249
-1.320 4.327 1.703 5816
-1.328 4.353 1.697 8149
-1.334 4.372 1.689 6296
-1.344 4.405 1.686 3234
-1.385 4.538 1.719 3568
-1.388 4.550 1.707 5612
-1.390 4.554 1.694 5458
-1.371 4.494 1.658 4882
-1.370 4.491 1.642 4952
-1.396 4.574 1.655 3819
-1.402 4.593 1.646 3157
-1.414 4.633 1.644 3540
-1.417 4.645 1.632 3478
-1.449 4.750 1.651 2986
-1.453 4.762 1.639 3062
-1.487 4.874 1.659 2593
-1.480 4.850 1.635 2723
-1.539 5.043 1.678 2396
-1.549 5.076 1.672 3284
-1.550 5.080 1.657 4046
-1.554 5.092 1.643 3662
-1.557 5.103 1.630 2841
-1.565 5.129 1.621 3197
-1.569 5.141 1.608 2468
-1.664 5.452 1.680 3874
-1.656 5.427 1.655 5349
-1.666 5.460 1.647 4953
-1.674 5.486 1.636 6877
-1.675 5.490 1.620 8122
-1.668 5.465 1.595 7656
-1.667 5.462 1.577 5006
-1.675 5.488 1.566 2600
-1.705 5.587 1.574 2098
-1.201 3.937 1.134 3147
-1.204 3.947 1.124 3800
-1.205 3.949 1.112 3772
-1.204 3.945 1.098 3094
-1.207 3.955 1.088 2219
-1.888 6.186 1.611 2192
-1.948 6.382 1.637 1850
-1.938 6.350 1.609 2482
-1.939 6.354 1.590 2184
-1.269 4.160 1.072 1881
-2.088 6.843 1.659 1674
-2.126 6.966 1.665 2017
-2.127 6.970 1.644 2766
-2.130 6.981 1.624 2943
-2.132 6.986 1.603 2262
-2.194 7.190 1.623 1822
-2.229 7.306 1.625 1683
-1.250 4.098 0.955 1462
-1.258 4.122 0.947 2476
-1.254 4.110 0.932 3592
-1.252 4.105 0.918 2638
-2.451 8.034 1.647 1639
-1.192 3.908 0.856 1417
-1.264 4.141 0.886 1213
-1.540 5.046 1.036 1517
-1.540 5.048 1.020 1544
-2.724 8.928 1.677 1181
-2.728 8.939 1.651 1366
-2.729 8.944 1.624 944
-2.746 9.000 1.605 634
-2.743 8.989 1.576 549
-2.744 8.993 1.548 343
-0.537 1.760 0.266 294
-0.537 1.761 0.261 379
-0.540 1.768 0.256 473
-0.537 1.761 0.250 536
-0.538 1.762 0.245 573
-0.538 1.762 0.240 509
-0.538 1.762 0.235 451
-0.538 1.762 0.229 409
-0.538 1.763 0.224 316
-0.660 2.187 1.759 3683
-0.661 2.191 1.753 7367
-0.662 2.196 1.746 7367
-0.664 2.200 1.740 7006
-0.665 2.205 1.733 6645
-0.668 2.215 1.731 4691
-0.685 2.269 1.761 5654
-0.686 2.274 1.754 5654
-0.686 2.272 1.743 4793
-0.683 2.264 1.727 4583
-0.711 2.356 1.783 4146
-0.714 2.367 1.780 6396
-0.717 2.378 1.778 9067
-0.719 2.383 1.771 12018
-0.720 2.387 1.763 12423
-0.722 2.392 1.756 12835
-0.721 2.390 1.745 12860
-0.720 2.388 1.733 10623
-0.722 2.392 1.726 8369
-0.721 2.390 1.715 7168
-0.721 2.388 1.703 6127
-0.730 2.418 1.713 6481
-0.733 2.429 1.710 7997
-0.740 2.453 1.716 6943
-0.745 2.470 1.717 7319
-0.749 2.481 1.714 5490
-0.756 2.505 1.719 4155
-0.765 2.535 1.728 4788
-0.770 2.552 1.728 6279
-0.771 2.557 1.721 6198
-0.773 2.561 1.713 6116
-0.800 2.650 1.758 5186
-0.803 2.661 1.754 6044
-0.806 2.672 1.750 5575
-0.810 2.683 1.746 5235
-0.813 2.694 1.742 4376
-0.816 2.705 1.738 4568
-0.818 2.710 1.730 5431
-0.843 2.793 1.769 5738
-0.850 2.818 1.772 6899
-0.851 2.822 1.764 10500
-0.851 2.820 1.752 14307
-0.852 2.825 1.743 12829
-0.854 2.829 1.735 9542
-0.855 2.833 1.726 7733
-0.858 2.845 1.721 7733
-0.860 2.849 1.713 7958
-0.893 2.960 1.764 7594
-0.897 2.972 1.759 9200
-0.898 2.976 1.750 8536
-0.899 2.981 1.741 6466
-0.899 2.978 1.729 4295
-0.900 2.983 1.720 4193
-0.922 3.055 1.747 7798
-0.925 3.066 1.741 12159
-0.926 3.070 1.732 13204
-0.928 3.075 1.723 11051
-0.931 3.086 1.717 5437
-0.961 3.185 1.757 5979
-0.964 3.197 1.751 7073
-0.964 3.194 1.738 5681
-0.959 3.178 1.718 6481
-0.962 3.190 1.712 8062
-0.966 3.201 1.706 8657
-0.996 3.301 1.743 6112
-0.997 3.306 1.733 7466
-0.999 3.310 1.724 7136
-1.029 3.411 1.760 5023
-1.030 3.415 1.750 6700
-1.034 3.427 1.743 7544
-1.037 3.438 1.736 6412
-1.037 3.436 1.722 4485
-1.040 3.447 1.715 6001
-1.048 3.472 1.714 7199
-1.053 3.490 1.710 7411
-1.080 3.578 1.738 8090
-1.079 3.576 1.724 7485
-1.082 3.587 1.716 5830
-1.088 3.605 1.711 3718
-1.100 3.645 1.716 4229
-1.095 3.628 1.696 4976
-1.096 3.632 1.685 4793
-1.137 3.770 1.731 6799
-1.139 3.774 1.720 7757
-1.138 3.772 1.705 5709
-1.163 3.854 1.726 4893
-1.162 3.851 1.712 4715
-1.163 3.855 1.700 2970
-1.194 3.959 1.729 3468
-1.168 3.871 1.680 3294
-1.242 4.116 1.765 3676
-1.245 4.128 1.755 4766
-1.247 4.132 1.743 5294
-1.216 4.030 1.689 4417
-1.224 4.056 1.685 4636
-1.227 4.067 1.675 3213
-1.254 4.157 1.695 3764
-1.253 4.154 1.680 5552
-1.257 4.166 1.670 5852
-1.305 4.327 1.716 4280
-1.309 4.339 1.705 5770
-1.312 4.350 1.695 8007
-1.320 4.376 1.689 6144
-1.328 4.402 1.684 3402
-1.329 4.406 1.671 3228
-1.374 4.554 1.707 4865
-1.373 4.551 1.691 4507
-1.357 4.498 1.658 4783
-1.358 4.502 1.644 5276
-1.384 4.586 1.657 3093
-1.376 4.561 1.634 2651
-1.401 4.645 1.646 3486
-1.403 4.649 1.632 3744
-1.434 4.755 1.651 2974
-1.436 4.759 1.636 3377
-1.435 4.756 1.620 2774
-1.460 4.840 1.630 2330
-1.523 5.047 1.678 2319
-1.533 5.081 1.672 3468
-1.534 5.085 1.657 4351
-1.538 5.097 1.643 4072
-1.541 5.108 1.630 3245
-1.549 5.134 1.621 3559
-1.552 5.146 1.608 2736
-1.633 5.413 1.667 4310
-1.639 5.432 1.655 5812
-1.642 5.443 1.641 4891
-1.657 5.491 1.636 5832
-1.656 5.488 1.618 7407
-1.650 5.470 1.595 7996
-1.649 5.467 1.577 5629
-1.657 5.493 1.566 2843
-1.186 3.930 1.144 2685
-1.187 3.933 1.132 3539
-1.187 3.936 1.120 3415
-1.847 6.121 1.652 2866
-1.848 6.125 1.634 2391
-1.860 6.166 1.624 1927
-1.861 6.170 1.605 1942
-1.918 6.359 1.630 1757
-1.918 6.356 1.609 2510
-1.919 6.360 1.590 2363
-1.922 6.371 1.573 1300
