-3.293 7.604 1.852 2000
-3.298 7.616 1.829 2028
-3.421 7.898 1.866 1791
-3.521 8.131 1.891 2144
-3.523 8.136 1.865 2022
-3.674 8.483 1.911 1487
-3.722 8.594 1.906 1399
-3.724 8.599 1.879 1797
-3.726 8.604 1.852 1294
-3.731 8.615 1.826 560
-2.909 6.717 1.430 257
-2.914 6.728 1.411 276
-2.912 6.723 1.344 260
-2.916 6.734 1.324 270
-0.585 1.352 0.349 403
-0.586 1.352 0.345 390
-0.589 1.360 0.342 377
-0.592 1.368 0.339 483
-0.593 1.368 0.334 515
-0.593 1.369 0.330 545
-0.590 1.362 0.325 547
-0.590 1.363 0.321 394
-0.590 1.363 0.317 255
-0.591 1.365 0.300 255
-0.525 1.213 0.111 262
-0.525 1.213 0.107 348
-0.525 1.213 0.103 452
-0.525 1.213 0.100 591
-0.528 1.220 0.096 643
-0.528 1.220 0.092 676
-0.525 1.212 0.089 704
-0.525 1.212 0.085 721
-0.525 1.212 0.081 719
-0.528 1.219 0.077 638
-0.528 1.219 0.073 560
-0.528 1.219 0.070 460
-0.528 1.219 0.066 359
-0.528 1.219 0.062 256
-0.905 2.104 1.764 1255
-0.907 2.109 1.757 2511
-0.957 2.225 1.839 4859
-0.954 2.218 1.823 4744
-0.953 2.216 1.811 4986
-0.983 2.286 1.854 5077
-0.988 2.297 1.852 6706
-0.990 2.301 1.845 6706
-0.992 2.306 1.837 6770
-0.996 2.317 1.835 6936
-0.998 2.321 1.828 6252
-1.013 2.356 1.843 6321
-0.999 2.324 1.809 7172
-0.999 2.322 1.797 9104
-1.001 2.327 1.790 9104
-1.003 2.331 1.783 8410
-1.002 2.330 1.771 7715
-1.004 2.334 1.764 5495
-1.047 2.436 1.825 5847
-1.044 2.428 1.809 5765
-1.043 2.427 1.797 6346
-1.059 2.462 1.811 6652
-1.063 2.472 1.808 8027
-1.070 2.489 1.808 7391
-1.075 2.500 1.805 7221
-1.077 2.504 1.797 5935
-1.076 2.502 1.785 4661
-1.081 2.513 1.781 4763
-1.123 2.611 1.835 5140
-1.125 2.615 1.827 5615
-1.127 2.620 1.819 6091
-1.128 2.624 1.811 5407
-1.130 2.629 1.803 4723
-1.135 2.639 1.799 4002
-1.150 2.675 1.810 4407
-1.160 2.699 1.814 6053
-1.165 2.709 1.809 8457
-1.167 2.714 1.801 8313
-1.169 2.718 1.792 5992
-1.174 2.729 1.788 3949
-1.178 2.740 1.783 4550
-1.185 2.757 1.782 5502
-1.190 2.768 1.778 4630
-1.233 2.868 1.826 3270
-1.254 2.917 1.844 3349
-1.259 2.928 1.838 4947
-1.261 2.932 1.829 5420
-1.266 2.943 1.824 7811
-1.265 2.941 1.811 11728
-1.267 2.946 1.802 13483
-1.271 2.957 1.796 11291
-1.276 2.968 1.791 9907
-1.289 2.998 1.796 7812
-1.299 3.022 1.797 5598
-1.321 3.071 1.813 5453
-1.325 3.082 1.807 4050
-1.294 3.009 1.755 4955
-1.301 3.026 1.752 5434
-1.359 3.161 1.813 5363
-1.350 3.139 1.789 8718
-1.363 3.170 1.793 10475
-1.376 3.200 1.797 12410
-1.384 3.218 1.794 13773
-1.380 3.209 1.777 12284
-1.373 3.194 1.757 12154
-1.372 3.192 1.744 9443
-1.374 3.196 1.734 7635
-1.382 3.213 1.730 7249
-1.395 3.244 1.733 5032
-1.411 3.282 1.740 4349
-1.416 3.292 1.733 5467
-1.423 3.310 1.729 5564
-1.454 3.381 1.751 5042
-1.456 3.385 1.740 5083
-1.492 3.469 1.767 4112
-1.491 3.467 1.753 3833
-1.487 3.458 1.736 5617
-1.489 3.462 1.725 5633
-1.465 3.406 1.687 5542
-1.478 3.437 1.688 6309
-1.491 3.468 1.690 6822
-1.496 3.479 1.682 6916
-1.498 3.483 1.671 5520
-1.476 3.433 1.636 5656
-1.484 3.451 1.631 4396
-1.741 4.049 1.879 5321
-1.711 3.979 1.834 5832
-1.713 3.984 1.822 5320
-1.747 4.063 1.841 4356
-1.752 4.074 1.831 3133
-1.757 4.085 1.821 2823
-1.773 4.124 1.822 3169
-1.775 4.128 1.809 3700
-1.777 4.133 1.796 2698
-1.850 4.301 1.849 3469
-1.846 4.292 1.830 3661
-1.883 4.379 1.849 4401
-1.838 4.274 1.793 4331
-1.845 4.292 1.785 3910
-1.874 4.358 1.795 3912
-1.941 4.513 1.839 3976
-1.922 4.470 1.806 3535
-1.980 4.605 1.841 5089
-1.982 4.609 1.827 6581
-1.993 4.635 1.820 7075
-2.004 4.660 1.813 7659
-2.006 4.664 1.798 5429
-1.999 4.648 1.776 2934
-2.045 4.756 1.798 5189
-2.047 4.761 1.783 6214
-2.064 4.800 1.780 3484
-2.072 4.818 1.769 3235
-2.077 4.829 1.757 3493
-2.096 4.875 1.755 3263
-2.134 4.963 1.768 3774
-2.151 5.002 1.764 3217
-2.177 5.062 1.766 2448
-2.176 5.060 1.748 2562
-2.163 5.029 1.721 2169
-2.291 5.327 1.797 2368
-2.271 5.282 1.765 3018
-2.276 5.293 1.751 3426
-2.284 5.312 1.738 2207
-2.476 5.758 1.854 2420
-2.475 5.755 1.834 2821
-2.462 5.725 1.806 2593
-2.491 5.792 1.806 2905
-2.499 5.811 1.792 5553
-2.504 5.822 1.775 4971
-2.533 5.890 1.775 2498
-2.580 6.000 1.785 1927
-2.649 6.160 1.809 2074
-2.639 6.136 1.782 2421
-2.634 6.126 1.759 2749
-2.712 6.307 1.786 1818
-2.714 6.312 1.766 2281
-2.862 6.656 1.833 1777
-2.867 6.667 1.814 1693
-2.872 6.679 1.795 1965
-2.877 6.690 1.775 2510
-2.879 6.695 1.754 1884
-3.076 7.154 1.842 1442
-3.057 7.108 1.808 1246
-3.270 7.604 1.900 1226
-3.272 7.608 1.876 1475
-3.277 7.620 1.853 2060
-3.279 7.625 1.829 2120
-3.287 7.643 1.808 1726
-3.497 8.133 1.889 1807
-3.499 8.138 1.863 1746
-3.649 8.485 1.910 1331
-3.700 8.604 1.906 1430
-3.702 8.609 1.879 1848
-3.704 8.613 1.852 1364
-3.709 8.625 1.826 625
-3.723 8.658 1.804 283
-2.896 6.735 1.411 291
-2.898 6.739 1.389 351
-2.899 6.742 1.368 318
-0.586 1.362 0.338 326
-0.586 1.363 0.333 334
-0.586 1.363 0.329 264
-0.586 1.364 0.325 257
-0.584 1.357 0.320 271
-0.578 1.344 0.306 267
-0.581 1.352 0.302 322
-0.581 1.352 0.298 280
-0.522 1.214 0.111 305
-0.522 1.214 0.107 401
-0.522 1.214 0.103 498
-0.522 1.214 0.100 649
-0.525 1.221 0.096 737
-0.525 1.221 0.092 846
-0.525 1.221 0.088 942
-0.525 1.221 0.085 971
-0.525 1.221 0.081 979
-0.525 1.221 0.077 885
-0.525 1.220 0.073 790
-0.525 1.220 0.070 656
-0.525 1.220 0.066 521
-0.525 1.220 0.062 372
-0.915 2.142 1.792 1080
-0.950 2.223 1.846 2506
-0.952 2.227 1.839 5013
-0.948 2.220 1.823 5125
-0.948 2.219 1.811 5677
-0.978 2.289 1.854 4853
-0.980 2.293 1.847 6442
-0.982 2.298 1.840 6442
-0.986 2.308 1.837 6582
-0.991 2.319 1.835 6745
-0.993 2.323 1.828 6220
-1.007 2.358 1.843 5894
-0.991 2.320 1.804 7643
-0.993 2.325 1.797 9722
-0.995 2.329 1.790 9722
-0.997 2.334 1.783 8832
-0.996 2.332 1.771 7941
-0.998 2.336 1.764 5548
-1.039 2.432 1.821 5229
-1.038 2.431 1.809 5808
-1.038 2.429 1.797 6561
-1.053 2.464 1.811 7291
-1.057 2.475 1.808 8457
-1.062 2.485 1.804 7138
-1.066 2.496 1.801 6407
-1.068 2.501 1.793 5329
-1.070 2.505 1.785 4251
-1.115 2.609 1.843 4626
-1.116 2.613 1.835 5271
-1.118 2.618 1.827 5715
-1.120 2.622 1.819 6160
-1.122 2.627 1.811 5461
-1.124 2.631 1.803 4762
-1.129 2.642 1.799 4171
-1.144 2.678 1.810 4922
-1.154 2.701 1.814 7053
-1.159 2.712 1.809 9677
-1.161 2.717 1.801 9451
-1.162 2.721 1.792 6685
-1.167 2.732 1.788 4296
-1.172 2.743 1.783 4817
-1.179 2.760 1.782 5676
-1.184 2.770 1.778 4804
-1.226 2.870 1.826 3145
-1.242 2.907 1.836 3497
-1.252 2.931 1.838 4870
-1.254 2.935 1.829 5388
-1.259 2.946 1.824 7519
-1.261 2.951 1.815 11026
-1.260 2.949 1.802 12640
-1.264 2.960 1.796 10738
-1.269 2.971 1.791 9345
-1.282 3.001 1.796 6900
-1.306 3.057 1.815 5744
-1.314 3.075 1.813 6120
-1.315 3.079 1.803 4704
-1.284 3.005 1.751 5666
-1.291 3.023 1.749 5438
-1.346 3.151 1.806 5473
-1.343 3.142 1.789 10298
-1.353 3.167 1.790 10749
-1.371 3.210 1.801 11273
-1.376 3.221 1.794 12415
-1.370 3.206 1.774 10234
-1.360 3.184 1.750 11030
-1.362 3.188 1.740 9087
-1.361 3.186 1.727 7616
-1.371 3.210 1.727 6829
-1.390 3.254 1.737 4852
-1.403 3.285 1.740 4096
-1.408 3.296 1.733 4717
-1.418 3.320 1.732 4832
-1.480 3.464 1.789 5071
-1.479 3.462 1.775 5505
-1.484 3.473 1.767 4298
-1.466 3.430 1.734 4025
-1.476 3.455 1.733 5636
-1.481 3.466 1.725 5062
-1.457 3.410 1.687 5480
-1.464 3.427 1.682 5645
-1.469 3.438 1.675 4936
-1.485 3.476 1.679 4657
-1.467 3.433 1.647 4538
-1.468 3.437 1.636 5365
-1.473 3.447 1.628 4294
-1.732 4.053 1.879 4961
-1.699 3.977 1.831 6374
-1.701 3.981 1.819 5822
-1.737 4.067 1.841 4216
-1.705 3.990 1.794 3210
-1.747 4.090 1.821 2969
-1.764 4.128 1.822 3864
-1.766 4.133 1.809 4276
-1.770 4.144 1.799 2967
-1.839 4.305 1.849 3237
-1.838 4.303 1.833 3469
-1.867 4.369 1.844 5185
-1.866 4.367 1.827 5534
-1.832 4.289 1.782 4588
-1.864 4.362 1.795 3675
-1.930 4.518 1.839 3639
-1.911 4.474 1.806 3200
-1.972 4.616 1.844 4383
-1.971 4.614 1.827 5488
-1.979 4.632 1.817 5260
-1.993 4.665 1.813 5098
-1.998 4.676 1.800 3866
-2.008 4.701 1.793 2537
-2.034 4.761 1.798 5167
-2.036 4.765 1.783 6458
-2.053 4.804 1.780 3717
-2.060 4.823 1.769 3696
-2.065 4.834 1.757 3967
-2.085 4.880 1.755 3534
-2.125 4.975 1.770 3819
-2.139 5.007 1.764 3370
-2.165 5.067 1.766 2282
-2.164 5.065 1.748 2373
-2.157 5.048 1.725 2188
-2.266 5.304 1.788 2319
-2.262 5.294 1.767 3095
-2.264 5.299 1.751 3306
-2.278 5.331 1.742 2201
-2.297 5.378 1.738 2202
-2.464 5.768 1.836 2577
-2.463 5.766 1.816 2110
-2.477 5.798 1.806 3181
-2.485 5.817 1.792 5619
-2.487 5.821 1.773 4689
-2.522 5.903 1.777 2570
-2.566 6.006 1.785 1700
-2.634 6.166 1.809 2134
-2.624 6.142 1.782 2093
-2.620 6.132 1.759 2657
-2.622 6.137 1.739 1940
-2.817 6.594 1.838 1624
-2.846 6.663 1.833 1767
-2.851 6.674 1.814 1627
-2.859 6.693 1.796 1993
-2.861 6.697 1.775 2685
-2.863 6.702 1.754 2086
-3.059 7.161 1.842 1372
-3.037 7.109 1.806 1513
-3.051 7.141 1.790 1425
-3.254 7.616 1.876 1458
-3.259 7.628 1.853 1874
-3.261 7.632 1.829 1970
-3.269 7.651 1.808 1730
-3.387 7.927 1.843 1493
-3.385 7.924 1.816 1448
-3.629 8.493 1.910 1080
-3.680 8.613 1.906 1539
-3.682 8.617 1.879 1950
-3.684 8.622 1.852 1415
-3.692 8.641 1.828 655
-3.703 8.667 1.804 381
-3.680 8.614 1.766 297
-2.883 6.749 1.368 326
-2.885 6.752 1.347 376
-2.883 6.748 1.324 252
-0.574 1.344 0.314 261
-0.578 1.352 0.311 303
-0.575 1.345 0.306 260
-0.579 1.354 0.290 257
-0.519 1.216 0.111 320
-0.519 1.216 0.107 393
-0.519 1.216 0.103 487
-0.519 1.215 0.100 654
-0.522 1.223 0.096 785
-0.522 1.222 0.092 928
-0.522 1.222 0.088 1050
-0.522 1.222 0.085 1082
-0.522 1.222 0.081 1091
-0.522 1.222 0.077 1015
-0.522 1.222 0.073 940
-0.522 1.222 0.070 782
-0.522 1.221 0.066 625
-0.522 1.221 0.062 464
-0.518 1.214 0.059 307
-0.912 2.150 1.797 1117
-0.944 2.225 1.846 2708
-0.946 2.230 1.839 5416
-0.945 2.228 1.827 5826
-0.942 2.221 1.811 6730
-0.947 2.231 1.809 5782
-0.974 2.296 1.847 6077
-0.976 2.300 1.840 6077
-0.980 2.311 1.837 6370
-0.982 2.315 1.830 6734
-0.984 2.320 1.823 6586
-0.984 2.318 1.811 6532
-0.985 2.323 1.804 8707
-0.987 2.327 1.797 10882
-0.989 2.332 1.790 10882
-0.991 2.336 1.783 9719
-0.990 2.335 1.771 8538
-0.992 2.339 1.764 5822
-1.030 2.429 1.817 5277
-1.035 2.439 1.814 6631
-1.039 2.450 1.810 8145
-1.044 2.461 1.807 8879
-1.048 2.471 1.803 9709
-1.053 2.482 1.800 7306
-1.060 2.499 1.801 5664
-1.062 2.503 1.793 4658
-1.109 2.613 1.856 4675
-1.108 2.612 1.843 5157
-1.110 2.616 1.835 5659
-1.112 2.621 1.827 6107
-1.114 2.625 1.819 6555
-1.116 2.630 1.811 5834
-1.118 2.634 1.803 5113
-1.122 2.645 1.799 4624
-1.140 2.687 1.814 5755
-1.147 2.704 1.814 8484
-1.152 2.715 1.809 11445
-1.154 2.719 1.801 11068
-1.156 2.724 1.792 7728
-1.160 2.735 1.788 4903
-1.165 2.745 1.783 5348
-1.172 2.763 1.782 6117
-1.174 2.767 1.774 5285
-1.227 2.893 1.838 3863
-1.229 2.897 1.829 4249
-1.242 2.927 1.835 4807
-1.247 2.938 1.829 5405
-1.251 2.949 1.824 7052
-1.253 2.954 1.815 10019
-1.252 2.952 1.802 11411
-1.257 2.963 1.796 9760
-1.259 2.967 1.787 8364
-1.261 2.972 1.778 5991
-1.301 3.067 1.819 7023
-1.306 3.078 1.813 7560
-1.305 3.076 1.800 6335
-1.274 3.002 1.748 6799
-1.281 3.019 1.745 5751
-1.336 3.148 1.803 6392
-1.335 3.146 1.789 12725
-1.339 3.157 1.783 11863
-1.349 3.181 1.783 9663
-1.371 3.231 1.797 10242
-1.350 3.183 1.760 8003
-1.349 3.181 1.747 10166
-1.349 3.179 1.733 10036
-1.350 3.183 1.724 8930
-1.363 3.214 1.727 6590
-1.385 3.264 1.740 4488
-1.423 3.355 1.772 3888
-1.459 3.439 1.801 4925
-1.464 3.450 1.793 6045
-1.465 3.454 1.783 6580
-1.467 3.459 1.772 6718
-1.455 3.430 1.745 5659
-1.460 3.441 1.738 4681
-1.467 3.458 1.733 5408
-1.472 3.469 1.725 4977
-1.448 3.413 1.687 4643
-1.458 3.437 1.685 4549
-1.460 3.442 1.675 3724
-1.610 3.796 1.821 3766
-1.632 3.848 1.830 3837
-1.462 3.447 1.639 4468
-1.464 3.451 1.628 3896
-1.675 3.949 1.832 5079
-1.686 3.974 1.829 7345
-1.691 3.985 1.819 6587
-1.690 3.983 1.804 4482
-1.692 3.987 1.791 3812
-1.694 3.992 1.779 3047
-1.756 4.139 1.825 4686
-1.758 4.144 1.812 4987
-1.760 4.148 1.799 3325
-1.831 4.317 1.852 3031
-1.851 4.363 1.855 4462
-1.853 4.367 1.841 6335
-1.855 4.372 1.827 7005
-1.822 4.294 1.782 5096
-1.926 4.539 1.861 3531
-1.922 4.530 1.841 3439
-1.900 4.479 1.806 3234
-1.964 4.628 1.846 3585
-1.963 4.626 1.829 4155
-1.964 4.630 1.815 3652
-1.961 4.621 1.795 3015
-1.989 4.688 1.803 2854
-1.994 4.699 1.791 2694
-2.022 4.766 1.798 4826
-2.024 4.770 1.783 6308
-2.040 4.810 1.780 3743
-2.048 4.828 1.769 4225
-2.053 4.839 1.757 4503
-2.076 4.892 1.758 3941
-2.113 4.980 1.770 3743
-2.124 5.006 1.761 3623
-2.134 5.031 1.752 2294
-2.142 5.049 1.741 1994
-2.144 5.053 1.725 2020
-2.253 5.310 1.788 2271
-2.249 5.300 1.767 2884
-2.250 5.305 1.751 2849
-2.270 5.351 1.747 2331
-2.379 5.608 1.806 2151
-2.453 5.781 1.838 2091
-2.458 5.793 1.822 2028
-2.457 5.790 1.802 3150
-2.470 5.823 1.792 4953
-2.472 5.827 1.773 4145
-2.510 5.916 1.779 2915
-2.515 5.928 1.762 2286
-2.517 5.932 1.743 2774
-2.522 5.944 1.727 2695
-2.604 6.139 1.759 2301
-2.609 6.150 1.741 2133
-2.798 6.594 1.836 1779
-2.830 6.670 1.833 1685
-2.823 6.653 1.807 1526
-2.803 6.608 1.773 2190
-2.844 6.704 1.775 2652
-2.843 6.702 1.753 2276
-3.017 7.112 1.828 1555
-3.019 7.116 1.806 1915
-3.027 7.135 1.787 1626
-3.238 7.631 1.877 1449
-3.240 7.636 1.853 1613
-3.242 7.641 1.829 1668
-3.249 7.659 1.808 1484
-3.327 7.842 1.823 1501
-3.369 7.940 1.818 1396
-3.370 7.944 1.793 1159
-3.658 8.622 1.906 1746
-3.657 8.619 1.878 2103
-3.662 8.631 1.852 1443
-3.679 8.672 1.832 766
-3.681 8.676 1.804 517
-3.658 8.623 1.766 338
-0.519 1.224 0.107 302
-0.519 1.224 0.103 518
-0.522 1.231 0.099 875
-0.522 1.231 0.095 1116
-0.522 1.231 0.092 1322
-0.519 1.224 0.088 1472
-0.519 1.223 0.085 1570
-0.519 1.223 0.081 1631
-0.519 1.223 0.077 1505
-0.519 1.223 0.073 1380
-0.519 1.223 0.070 1120
-0.519 1.223 0.066 860
-0.519 1.222 0.062 662
-0.519 1.222 0.059 463
-0.518 1.222 0.055 313
-0.914 2.163 1.806 1182
-0.941 2.226 1.846 2688
-0.943 2.231 1.839 5376
-0.942 2.230 1.827 5969
-0.942 2.228 1.816 7003
-0.944 2.233 1.809 6260
-0.953 2.255 1.815 5943
-0.955 2.260 1.808 5943
-0.965 2.282 1.815 5847
-0.972 2.299 1.817 6287
-0.973 2.303 1.810 6643
-0.975 2.308 1.803 6999
-0.982 2.324 1.804 8920
-0.984 2.329 1.797 10997
-0.986 2.333 1.790 10997
-0.988 2.338 1.783 9734
-0.987 2.336 1.771 8422
-0.989 2.340 1.764 5640
-1.025 2.424 1.813 5544
-1.032 2.441 1.814 7146
-1.039 2.458 1.815 9294
-1.041 2.462 1.807 9772
-1.043 2.467 1.799 10251
-1.047 2.477 1.796 7277
-1.057 2.500 1.801 4921
-1.103 2.610 1.864 4264
-1.105 2.615 1.856 4891
-1.104 2.613 1.843 5271
-1.104 2.611 1.831 5742
-1.106 2.616 1.823 6187
-1.110 2.627 1.819 6638
-1.112 2.631 1.811 5914
-1.114 2.636 1.803 5190
-1.148 2.716 1.843 4887
-1.139 2.695 1.818 6025
-1.146 2.712 1.818 8982
-1.148 2.717 1.809 12004
-1.147 2.715 1.797 11575
-1.152 2.725 1.792 8087
-1.157 2.736 1.788 5179
-1.161 2.747 1.783 5563
-1.168 2.764 1.782 6305
-1.170 2.769 1.774 5550
-1.223 2.894 1.838 4822
-1.225 2.899 1.829 4841
-1.230 2.910 1.823 4813
-1.240 2.934 1.826 5304
-1.247 2.951 1.824 6318
-1.249 2.956 1.815 8723
-1.248 2.954 1.802 9932
-1.250 2.958 1.793 8532
-1.255 2.969 1.787 7287
-1.290 3.051 1.821 5553
-1.297 3.069 1.819 7860
-1.299 3.073 1.809 8573
-1.301 3.078 1.800 7448
-1.270 3.004 1.748 7254
-1.274 3.015 1.742 5757
-1.329 3.143 1.799 7098
-1.330 3.148 1.789 13770
-1.332 3.152 1.779 12270
-1.340 3.170 1.777 8811
-1.369 3.240 1.801 8321
-1.343 3.178 1.757 6688
-1.342 3.176 1.743 9494
-1.344 3.180 1.733 10175
-1.346 3.185 1.724 9441
-1.359 3.215 1.727 6232
-1.420 3.359 1.786 5053
-1.419 3.357 1.772 4854
-1.452 3.434 1.798 5646
-1.456 3.445 1.790 7001
-1.461 3.456 1.783 7558
-1.460 3.454 1.769 7491
-1.453 3.438 1.748 6492
-1.455 3.443 1.738 5175
-1.463 3.460 1.733 5238
-1.467 3.471 1.725 4760
-1.537 3.637 1.789 4270
-1.539 3.641 1.777 3934
-1.609 3.807 1.839 3334
-1.605 3.798 1.821 4613
-1.607 3.803 1.809 4377
-1.609 3.807 1.797 3471
-1.668 3.947 1.845 4084
-1.670 3.951 1.832 5895
-1.678 3.969 1.826 7778
-1.685 3.988 1.819 6720
-1.684 3.985 1.804 4482
-1.686 3.990 1.791 3926
-1.688 3.994 1.779 3142
-1.751 4.142 1.825 4944
-1.753 4.146 1.812 5168
-1.754 4.151 1.799 3354
-1.840 4.354 1.866 2995
-1.845 4.365 1.855 4998
-1.847 4.370 1.841 6685
-1.849 4.374 1.827 7467
-1.854 4.386 1.816 5449
-1.920 4.541 1.861 3275
-1.921 4.546 1.846 3450
-1.894 4.482 1.806 3246
-1.957 4.631 1.846 2842
-1.962 4.642 1.834 3118
-1.958 4.633 1.815 2759
-1.954 4.624 1.795 3155
-1.956 4.628 1.781 3066
-1.984 4.695 1.788 3020
-2.016 4.769 1.798 4255
-2.018 4.773 1.783 5478
-2.037 4.819 1.782 3475
-2.042 4.831 1.769 4320
-2.050 4.849 1.759 4618
-2.069 4.895 1.758 4116
-2.109 4.990 1.772 3315
-2.117 5.008 1.761 3635
-2.125 5.027 1.750 2455
-2.132 5.045 1.739 1662
-2.137 5.056 1.725 1553
-2.246 5.313 1.788 2169
-2.244 5.310 1.769 2482
-2.246 5.315 1.753 2169
-2.269 5.368 1.751 2224
-2.372 5.611 1.806 2327
-2.368 5.602 1.784 2184
-2.444 5.782 1.818 2218
-2.449 5.794 1.802 3162
-2.460 5.819 1.790 4053
-2.465 5.831 1.773 3156
-2.505 5.927 1.781 2925
-2.507 5.931 1.762 2642
-2.509 5.936 1.743 2915
-2.514 5.947 1.727 2888
-2.617 6.192 1.772 2262
-2.604 6.161 1.743 2204
-2.786 6.591 1.834 1965
-2.797 6.617 1.819 1504
-2.814 6.657 1.807 1445
-2.791 6.604 1.772 2528
-2.832 6.701 1.774 2367
-2.831 6.698 1.751 2188
-3.008 7.116 1.828 1596
-3.013 7.127 1.808 2114
-3.017 7.139 1.787 1836
-3.224 7.628 1.876 1436
-3.338 7.897 1.911 1426
-3.340 7.902 1.886 1600
-3.342 7.907 1.862 1296
-3.320 7.854 1.824 1669
-3.355 7.937 1.816 1394
-3.360 7.949 1.793 1227
-3.646 8.627 1.906 1663
-3.645 8.624 1.878 2008
-3.650 8.636 1.852 1349
-3.667 8.677 1.832 836
-3.669 8.681 1.804 574
-3.647 8.628 1.766 346
-0.518 1.225 0.111 282
-0.521 1.232 0.107 406
-0.521 1.232 0.103 612
-0.518 1.225 0.099 897
-0.518 1.225 0.096 1031
-0.521 1.232 0.092 1197
-0.517 1.224 0.088 1325
-0.517 1.224 0.085 1419
-0.517 1.224 0.081 1481
-0.517 1.224 0.077 1290
-0.517 1.224 0.073 1099
-0.517 1.224 0.070 925
-0.517 1.223 0.066 751
-0.517 1.223 0.062 586
-0.517 1.223 0.059 421
-0.517 1.223 0.055 276
-0.930 2.156 1.806 1232
-0.940 2.178 1.813 2678
-0.960 2.224 1.839 5349
-0.959 2.223 1.827 6027
-0.959 2.221 1.816 7138
-0.961 2.226 1.809 6605
-0.968 2.242 1.811 6279
-0.970 2.246 1.804 6279
-0.974 2.257 1.801 6234
-0.984 2.279 1.808 6660
-0.991 2.296 1.810 6893
-0.993 2.300 1.803 7407
-0.997 2.311 1.800 9080
-1.002 2.321 1.797 10987
-1.004 2.326 1.790 10987
-1.006 2.330 1.783 9657
-1.005 2.328 1.771 8242
-1.007 2.333 1.764 5445
-1.043 2.416 1.813 5973
-1.050 2.433 1.814 7708
-1.057 2.450 1.815 10362
-1.059 2.454 1.807 10580
-1.061 2.459 1.799 10799
-1.066 2.469 1.796 7448
-1.073 2.486 1.796 4537
-1.123 2.602 1.864 4356
-1.125 2.606 1.856 5107
-1.121 2.598 1.839 5398
-1.123 2.603 1.831 5775
-1.125 2.607 1.823 6231
-1.127 2.612 1.815 6687
-1.132 2.623 1.811 5911
-1.134 2.627 1.803 5144
-1.168 2.707 1.843 5136
-1.167 2.705 1.830 6346
-1.167 2.703 1.818 9264
-1.169 2.708 1.809 12249
-1.168 2.706 1.797 11799
-1.170 2.710 1.789 8374
-1.177 2.727 1.788 5415
-1.182 2.738 1.783 5754
-1.189 2.755 1.782 6527
-1.191 2.760 1.774 5830
-1.245 2.885 1.838 5638
-1.247 2.890 1.829 5337
-1.249 2.894 1.820 5237
-1.257 2.911 1.818 5479
-1.264 2.929 1.816 5688
-1.271 2.946 1.815 7569
-1.271 2.944 1.802 8650
-1.273 2.949 1.793 7295
-1.277 2.959 1.787 6006
-1.313 3.041 1.821 6126
-1.317 3.052 1.815 8670
-1.322 3.063 1.809 9474
-1.324 3.068 1.800 8340
-1.292 2.994 1.748 7443
-1.297 3.005 1.742 5623
-1.349 3.127 1.796 7748
-1.354 3.137 1.789 14368
-1.356 3.142 1.779 12533
-1.361 3.153 1.773 8611
-1.397 3.236 1.804 6949
-1.364 3.162 1.753 5593
-1.366 3.166 1.743 8549
-1.368 3.170 1.733 9869
-1.370 3.174 1.724 9643
-1.443 3.344 1.797 6186
-1.465 3.394 1.809 6199
-1.470 3.405 1.802 5994
-1.477 3.423 1.798 6464
-1.482 3.434 1.790 7417
-1.484 3.439 1.779 8032
-1.483 3.436 1.765 7973
-1.482 3.434 1.752 7162
-1.484 3.438 1.741 5645
-1.489 3.449 1.733 5098
-1.612 3.734 1.853 5604
-1.565 3.625 1.789 4083
-1.566 3.629 1.777 4000
-1.638 3.795 1.839 3998
-1.634 3.786 1.821 5230
-1.636 3.790 1.809 4745
-1.641 3.802 1.800 3736
-1.698 3.934 1.845 4475
-1.700 3.939 1.832 6448
-1.708 3.957 1.826 8080
-1.715 3.975 1.819 6754
-1.717 3.979 1.807 4383
-1.749 4.051 1.823 3955
-1.718 3.981 1.779 3105
-1.785 4.135 1.828 5132
-1.787 4.140 1.815 5245
-1.786 4.137 1.799 3385
-1.876 4.346 1.869 3112
-1.878 4.351 1.855 5246
-1.880 4.356 1.841 6722
-1.882 4.360 1.827 7559
-1.887 4.371 1.816 5780
-1.954 4.527 1.861 2930
-1.959 4.538 1.849 3456
-1.931 4.474 1.809 3217
-1.948 4.513 1.808 2525
-2.000 4.634 1.837 2477
-2.014 4.666 1.832 2660
-1.992 4.616 1.798 3575
-1.991 4.613 1.781 3806
-2.017 4.673 1.786 3306
-2.049 4.746 1.795 3785
-2.050 4.751 1.780 4526
-2.073 4.804 1.782 3143
-2.078 4.815 1.769 4264
-2.086 4.833 1.759 4561
-2.106 4.879 1.758 4163
-2.117 4.904 1.749 3247
-2.155 4.992 1.761 3531
-2.157 4.997 1.746 2831
-2.167 5.022 1.737 1517
-2.260 5.235 1.787 1577
-2.286 5.296 1.788 1983
-2.287 5.300 1.772 2017
-2.314 5.360 1.772 1972
-2.312 5.358 1.753 2145
-2.417 5.600 1.808 2366
-2.407 5.577 1.782 2509
-2.481 5.749 1.814 2924
-2.486 5.761 1.798 3275
-2.500 5.794 1.788 3122
-2.508 5.812 1.773 2342
-2.550 5.908 1.781 2664
-2.552 5.912 1.762 2685
-2.554 5.917 1.743 2822
-2.561 5.935 1.728 2818
-2.658 6.158 1.768 2701
-2.650 6.141 1.743 2325
-2.832 6.563 1.832 2022
-2.847 6.595 1.819 1503
-2.848 6.600 1.798 1377
-2.841 6.583 1.772 2616
-2.846 6.594 1.753 2427
-2.879 6.670 1.749 2118
-3.061 7.093 1.828 1569
-3.066 7.104 1.808 2163
-3.071 7.116 1.787 1929
-3.073 7.120 1.765 1577
-3.397 7.872 1.911 1789
-3.403 7.884 1.888 1862
-3.398 7.874 1.860 1643
-3.388 7.850 1.829 1900
-3.415 7.912 1.816 1496
-3.420 7.923 1.793 1248
-3.708 8.592 1.905 1527
-3.710 8.597 1.878 1826
-3.712 8.601 1.851 1168
-3.733 8.649 1.832 872
-3.735 8.653 1.804 600
-3.737 8.658 1.777 311
-0.533 1.236 0.118 407
-0.530 1.228 0.114 611
-0.530 1.228 0.110 865
-0.530 1.228 0.107 1119
-0.530 1.228 0.103 1276
-0.530 1.228 0.099 1693
-0.530 1.228 0.095 2006
-0.530 1.228 0.092 2269
-0.530 1.228 0.088 2505
-0.527 1.220 0.085 2339
-0.527 1.220 0.081 2207
-0.527 1.220 0.077 2039
-0.530 1.227 0.073 1881
-0.529 1.227 0.069 1659
-0.529 1.227 0.065 1437
-0.526 1.219 0.062 1071
-0.526 1.219 0.059 713
-0.526 1.219 0.055 462
-0.928 2.157 1.806 1412
-0.937 2.179 1.813 2893
-0.957 2.225 1.839 5300
-0.956 2.224 1.827 6032
-0.956 2.222 1.816 7154
-0.958 2.227 1.809 6890
-0.962 2.237 1.806 6777
-0.964 2.242 1.799 6777
-0.969 2.252 1.797 6830
-0.978 2.275 1.803 7235
-0.985 2.291 1.805 7114
-0.990 2.301 1.803 7692
-0.994 2.312 1.800 9153
-0.999 2.322 1.797 10866
-1.001 2.327 1.790 10866
-1.003 2.331 1.783 9502
-1.005 2.336 1.775 8072
-1.006 2.340 1.768 5278
-1.037 2.412 1.808 6414
-1.047 2.434 1.814 8259
-1.054 2.451 1.815 11296
-1.056 2.456 1.807 11287
-1.058 2.460 1.799 11278
-1.060 2.464 1.792 7694
-1.070 2.487 1.796 4316
-1.114 2.591 1.856 4468
-1.119 2.601 1.852 5240
-1.118 2.600 1.839 5429
-1.120 2.604 1.831 5645
-1.122 2.609 1.823 6153
-1.124 2.613 1.815 6660
-1.129 2.624 1.811 5824
-1.133 2.635 1.807 5030
-1.162 2.702 1.839 5314
-1.164 2.707 1.830 6498
-1.163 2.705 1.818 9321
-1.165 2.709 1.809 12238
-1.164 2.707 1.797 11781
-1.166 2.712 1.789 8587
-1.166 2.710 1.776 5858
-1.178 2.740 1.783 6004
-1.186 2.757 1.782 6886
-1.188 2.761 1.774 6228
-1.239 2.880 1.834 6423
-1.241 2.885 1.825 5812
-1.245 2.896 1.820 5683
-1.245 2.894 1.807 6154
-1.252 2.911 1.805 5685
-1.265 2.941 1.811 6500
-1.267 2.946 1.802 7469
-1.269 2.950 1.793 6174
-1.271 2.955 1.783 4878
-1.312 3.049 1.825 6728
-1.313 3.054 1.815 9331
-1.318 3.065 1.809 10147
-1.317 3.063 1.796 8991
-1.288 2.996 1.748 7355
-1.330 3.091 1.788 5788
-1.345 3.128 1.796 8241
-1.350 3.139 1.789 14575
-1.352 3.144 1.779 12611
-1.354 3.148 1.770 8717
-1.395 3.244 1.808 5803
-1.355 3.150 1.746 4990
-1.360 3.161 1.740 7339
-1.364 3.172 1.733 9091
-1.369 3.183 1.727 9537
-1.442 3.352 1.800 7145
-1.458 3.389 1.806 8017
-1.465 3.407 1.802 7527
-1.470 3.418 1.794 7267
-1.478 3.436 1.790 7755
-1.480 3.440 1.779 8273
-1.479 3.438 1.765 7999
-1.478 3.436 1.752 7480
-1.480 3.440 1.741 5949
-1.602 3.725 1.861 5155
-1.607 3.736 1.853 6521
-1.609 3.741 1.841 4242
-1.562 3.631 1.777 4050
-1.633 3.797 1.839 4547
-1.629 3.788 1.821 5601
-1.631 3.792 1.809 4934
-1.639 3.810 1.803 4022
-1.667 3.876 1.818 4608
-1.695 3.941 1.832 6589
-1.700 3.952 1.823 8096
-1.710 3.977 1.819 6570
-1.744 4.056 1.838 4957
-1.743 4.054 1.823 4939
-1.775 4.126 1.838 3529
-1.780 4.137 1.828 5279
-1.781 4.142 1.815 5246
-1.783 4.146 1.802 3383
-1.870 4.349 1.869 3051
-1.869 4.346 1.852 5234
-1.874 4.358 1.841 6444
-1.876 4.362 1.827 7299
-1.881 4.374 1.816 5970
-1.883 4.378 1.803 3107
-1.953 4.541 1.849 3348
-1.928 4.483 1.811 3175
-1.945 4.522 1.810 2496
-1.991 4.630 1.834 2200
-1.987 4.621 1.815 3112
-1.986 4.618 1.798 4149
-1.979 4.602 1.776 4573
-2.011 4.675 1.786 3497
-2.043 4.749 1.795 3440
-2.041 4.747 1.778 3682
-2.067 4.806 1.782 2910
-2.072 4.818 1.769 4121
-2.083 4.843 1.761 4407
-2.103 4.889 1.760 4071
-2.111 4.907 1.749 3392
-2.148 4.995 1.761 3375
-2.150 4.999 1.746 3126
-2.185 5.080 1.754 1797
-2.250 5.231 1.785 1605
-2.279 5.299 1.788 1807
-2.284 5.310 1.774 1630
-2.307 5.363 1.772 1750
-2.306 5.361 1.753 2034
-2.410 5.603 1.808 2205
-2.400 5.580 1.782 2763
-2.471 5.746 1.812 3434
-2.479 5.764 1.798 3286
-2.484 5.776 1.782 2721
-2.468 5.738 1.751 2429
-2.545 5.918 1.783 2371
-2.544 5.915 1.762 2481
-2.546 5.920 1.743 2502
-2.554 5.938 1.728 2756
-2.647 6.154 1.766 3237
-2.643 6.145 1.743 2536
-2.824 6.566 1.832 2020
-2.841 6.606 1.820 1468
-2.828 6.575 1.791 1358
-2.830 6.580 1.770 2545
-2.838 6.598 1.753 2363
-2.867 6.666 1.747 1980
-3.055 7.104 1.830 1438
-3.060 7.115 1.809 2135
-3.062 7.120 1.787 2032
-3.067 7.131 1.766 1738
-3.388 7.876 1.911 1991
-3.393 7.888 1.888 2032
-3.392 7.886 1.862 1960
-3.381 7.862 1.830 2159
-3.402 7.909 1.815 1589
-3.407 7.920 1.791 1205
-3.697 8.597 1.905 1314
-3.699 8.601 1.878 1522
-3.701 8.606 1.851 1010
-3.722 8.653 1.832 934
-3.724 8.658 1.804 615
-3.726 8.662 1.777 279
-0.535 1.244 0.118 323
-0.532 1.236 0.114 395
-0.532 1.236 0.110 402
-0.532 1.236 0.106 435
-0.532 1.236 0.103 756
-0.532 1.236 0.099 1291
-0.532 1.236 0.095 1592
-0.531 1.236 0.091 1532
-0.528 1.228 0.088 1456
-0.525 1.221 0.085 1544
-0.528 1.228 0.080 1607
-0.528 1.228 0.077 1721
-0.531 1.235 0.073 1848
-0.528 1.227 0.069 1555
-0.528 1.227 0.065 1274
-0.528 1.227 0.062 889
-0.525 1.220 0.059 516
-0.524 1.219 0.055 318
-0.919 2.154 1.801 1769
-0.921 2.158 1.795 3539
-0.951 2.228 1.839 5150
-0.948 2.220 1.823 5900
-0.950 2.225 1.816 6940
-0.951 2.229 1.809 6975
-0.956 2.240 1.806 7151
-0.958 2.244 1.799 7151
-0.962 2.255 1.797 7325
-0.969 2.271 1.799 7865
-0.976 2.288 1.801 7290
-0.983 2.304 1.803 7810
-0.988 2.315 1.800 9099
-0.992 2.325 1.797 10628
-0.994 2.330 1.790 10628
-0.996 2.334 1.783 9259
-0.998 2.339 1.775 7873
-1.028 2.410 1.816 5204
-1.030 2.414 1.808 6698
-1.040 2.437 1.814 8637
-1.045 2.448 1.810 11938
-1.047 2.452 1.803 11732
-1.048 2.457 1.795 11527
-1.053 2.467 1.792 7869
-1.055 2.472 1.784 4224
-1.104 2.588 1.851 4607
-1.109 2.598 1.847 5317
-1.108 2.597 1.835 5367
-1.110 2.601 1.827 5449
-1.115 2.612 1.823 5941
-1.117 2.617 1.815 6513
-1.121 2.627 1.811 5638
-1.126 2.638 1.807 4875
-1.154 2.705 1.839 5422
-1.156 2.710 1.830 6430
-1.156 2.708 1.818 9113
-1.158 2.713 1.809 11895
-1.157 2.711 1.797 11491
-1.159 2.715 1.789 8737
-1.158 2.713 1.776 6389
-1.171 2.743 1.783 6261
-1.178 2.760 1.782 7203
-1.182 2.771 1.778 6603
-1.231 2.884 1.834 7018
-1.233 2.888 1.825 6212
-1.235 2.893 1.816 6164
-1.236 2.897 1.807 6922
-1.238 2.902 1.798 6237
-1.251 2.932 1.804 5866
-1.256 2.943 1.798 6386
-1.260 2.954 1.793 5049
-1.301 3.049 1.834 5373
-1.303 3.053 1.825 7218
-1.305 3.058 1.815 9712
-1.310 3.069 1.809 10444
-1.309 3.067 1.796 9262
-1.280 2.999 1.748 7117
-1.324 3.101 1.791 6046
-1.334 3.125 1.792 8474
-1.341 3.143 1.789 14206
-1.343 3.147 1.779 12378
-1.345 3.152 1.770 8837
-1.347 3.156 1.760 6076
-1.346 3.154 1.746 4886
-1.351 3.165 1.740 6328
-1.355 3.176 1.733 8406
-1.360 3.187 1.727 9383
-1.435 3.363 1.803 8097
-1.448 3.394 1.806 9712
-1.456 3.411 1.802 8928
-1.461 3.422 1.794 7961
-1.465 3.433 1.787 7932
-1.467 3.438 1.776 8255
-1.469 3.442 1.765 7718
-1.468 3.440 1.752 7546
-1.473 3.451 1.744 6284
-1.592 3.729 1.861 5642
-1.594 3.734 1.850 7254
-1.595 3.739 1.838 4730
-1.552 3.636 1.777 4148
-1.622 3.801 1.839 4833
-1.621 3.799 1.824 5743
-1.620 3.797 1.809 5059
-1.631 3.822 1.806 4549
-1.650 3.867 1.812 5612
-1.658 3.885 1.806 7450
-1.689 3.957 1.823 7865
-1.699 3.982 1.819 6209
-1.733 4.061 1.838 5832
-1.735 4.065 1.825 5931
-1.763 4.131 1.838 3984
-1.768 4.142 1.828 5308
-1.770 4.147 1.815 5103
-1.772 4.151 1.802 3317
-1.855 4.347 1.866 2753
-1.857 4.352 1.852 4894
-1.862 4.363 1.841 5890
-1.867 4.375 1.830 6805
-1.869 4.379 1.816 6045
-1.871 4.384 1.803 3858
-1.940 4.546 1.849 3184
-1.919 4.496 1.814 2970
-1.932 4.528 1.810 2493
-1.964 4.601 1.821 2476
-1.968 4.612 1.810 3642
-1.970 4.617 1.795 4627
-1.966 4.608 1.776 5314
-1.998 4.681 1.786 3608
-2.029 4.755 1.795 3141
-2.025 4.745 1.776 3046
-2.057 4.819 1.785 2726
-2.058 4.824 1.769 3938
-2.069 4.849 1.761 4139
-2.089 4.895 1.760 3964
-2.097 4.913 1.749 3427
-2.134 5.001 1.761 2984
-2.136 5.005 1.746 3156
-2.171 5.087 1.754 2448
-2.173 5.091 1.738 2030
-2.261 5.298 1.786 1679
-2.188 5.127 1.715 1428
-2.256 5.286 1.746 1407
-2.290 5.367 1.753 1882
-2.286 5.357 1.732 2107
-2.381 5.579 1.780 2673
-2.452 5.746 1.810 3496
-2.442 5.722 1.783 3465
-2.444 5.726 1.765 3300
-2.449 5.738 1.749 3220
-2.450 5.742 1.731 2459
-2.576 6.036 1.793 2438
-2.532 5.934 1.745 2161
-2.540 5.952 1.730 2578
-2.630 6.162 1.766 3574
-2.625 6.152 1.743 2674
-2.806 6.574 1.832 1827
-2.750 6.444 1.777 1370
-2.821 6.611 1.798 1237
-2.811 6.587 1.770 2303
-2.819 6.606 1.753 2188
-2.845 6.667 1.746 1848
-3.038 7.119 1.832 1210
-3.040 7.124 1.809 1967
-3.045 7.136 1.789 2052
-3.047 7.140 1.766 1868
-3.365 7.886 1.911 2064
-3.373 7.905 1.890 2109
-3.372 7.902 1.863 2173
-3.362 7.878 1.832 2414
-3.379 7.918 1.815 1666
-3.384 7.930 1.791 1166
-3.673 8.607 1.905 1087
-3.675 8.612 1.878 1209
-3.677 8.616 1.851 907
-3.697 8.664 1.832 925
-3.699 8.668 1.804 605
-3.701 8.673 1.777 253
-0.531 1.245 0.121 327
-0.525 1.231 0.118 522
-0.525 1.231 0.114 684
-0.525 1.230 0.110 686
-0.528 1.238 0.106 700
-0.528 1.238 0.103 919
-0.528 1.237 0.099 1340
-0.531 1.245 0.095 1601
-0.528 1.237 0.091 1365
-0.528 1.237 0.088 1109
-0.528 1.237 0.084 1262
-0.528 1.237 0.080 1416
-0.528 1.237 0.076 1499
-0.528 1.236 0.073 1583
-0.528 1.236 0.069 1271
-0.524 1.229 0.065 964
-0.524 1.229 0.062 639
-0.524 1.228 0.058 314
-0.914 2.156 1.801 1974
-0.916 2.160 1.795 3948
-0.943 2.224 1.834 4962
-0.943 2.223 1.823 5712
-0.945 2.227 1.816 6574
-0.947 2.232 1.809 6934
-0.951 2.242 1.806 7454
-0.953 2.246 1.799 7454
-0.957 2.257 1.797 7751
-0.962 2.267 1.794 8429
-0.969 2.284 1.796 7411
-0.978 2.306 1.803 7778
-0.983 2.317 1.800 8884
-0.987 2.327 1.797 10220
-0.989 2.332 1.790 10220
-0.991 2.336 1.783 8881
-0.993 2.341 1.775 7573
-1.023 2.412 1.816 5220
-1.025 2.417 1.808 6867
-1.035 2.440 1.814 8862
-1.039 2.450 1.810 12326
-1.041 2.455 1.803 11995
-1.043 2.459 1.795 11664
-1.045 2.464 1.787 8018
-1.047 2.468 1.780 4373
-1.096 2.584 1.847 4553
-1.103 2.601 1.847 5231
-1.102 2.599 1.835 5281
-1.104 2.604 1.827 5348
-1.138 2.683 1.868 5858
-1.143 2.694 1.864 6513
-1.142 2.692 1.851 5639
-1.144 2.697 1.843 4792
-1.149 2.708 1.839 5442
-1.150 2.712 1.830 6163
-1.150 2.711 1.818 8709
-1.152 2.715 1.809 11326
-1.151 2.713 1.797 11002
-1.150 2.711 1.785 8834
-1.152 2.716 1.776 6941
-1.162 2.739 1.779 6566
-1.172 2.763 1.782 7593
-1.176 2.773 1.778 7048
-1.224 2.886 1.834 7428
-1.226 2.891 1.825 6512
-1.228 2.895 1.816 6645
-1.230 2.900 1.807 7693
-1.232 2.904 1.798 6891
-1.239 2.922 1.796 5741
-1.244 2.933 1.791 5540
-1.292 3.047 1.844 4472
-1.294 3.051 1.834 5784
-1.296 3.056 1.825 7539
-1.298 3.060 1.815 9844
-1.303 3.071 1.809 10441
-1.302 3.069 1.796 9224
-1.273 3.002 1.748 6671
-1.317 3.104 1.791 6150
-1.327 3.128 1.792 8464
-1.332 3.139 1.786 13484
-1.336 3.150 1.779 11886
-1.335 3.148 1.766 8903
-1.340 3.159 1.760 6720
-1.345 3.170 1.753 5103
-1.346 3.174 1.743 5544
-1.351 3.185 1.737 7703
-1.353 3.190 1.727 8899
-1.428 3.366 1.803 9012
-1.441 3.397 1.806 11206
-1.445 3.408 1.799 10239
-1.453 3.426 1.794 8518
-1.458 3.437 1.787 7856
-1.460 3.441 1.776 8017
-1.459 3.439 1.762 7274
-1.463 3.450 1.755 7471
-1.468 3.461 1.747 6756
-1.583 3.733 1.861 5882
-1.585 3.738 1.850 7707
-1.584 3.735 1.835 5181
-1.575 3.713 1.811 4105
-1.614 3.805 1.839 4919
-1.613 3.803 1.824 5802
-1.615 3.807 1.812 5311
-1.623 3.825 1.806 5117
-1.642 3.870 1.812 6430
-1.649 3.888 1.806 8111
-1.657 3.906 1.799 7388
-1.690 3.985 1.819 5726
-1.724 4.065 1.838 6657
-1.726 4.069 1.825 6794
-1.754 4.135 1.838 4223
-1.759 4.146 1.828 5191
-1.761 4.151 1.815 4856
-1.809 4.265 1.846 3377
-1.805 4.255 1.827 3055
-1.845 4.349 1.849 4381
-1.852 4.367 1.841 5218
-1.857 4.379 1.830 6135
-1.859 4.383 1.816 6054
-1.861 4.388 1.803 4682
-1.860 4.385 1.786 3112
-1.912 4.507 1.817 2592
-1.925 4.539 1.813 2388
-1.950 4.598 1.819 2926
-1.958 4.617 1.810 4267
-1.954 4.607 1.790 5226
-1.956 4.612 1.776 5996
-1.955 4.609 1.759 3884
-2.016 4.752 1.793 2774
-2.009 4.736 1.771 2833
-2.008 4.733 1.753 2755
-2.051 4.835 1.772 3685
-2.062 4.860 1.764 3784
-2.081 4.906 1.762 3752
-2.086 4.918 1.749 3318
-2.123 5.006 1.761 2599
-2.125 5.010 1.746 3205
-2.160 5.091 1.754 2934
-2.161 5.096 1.738 2593
-2.178 5.135 1.733 1921
-2.180 5.139 1.717 1404
-2.312 5.452 1.796 1855
-2.249 5.302 1.732 2103
-2.272 5.355 1.730 2221
-2.369 5.585 1.780 2783
-2.368 5.582 1.760 3378
-2.426 5.720 1.781 4036
-2.428 5.725 1.763 3989
-2.436 5.743 1.749 3734
-2.426 5.719 1.723 2963
-2.565 6.048 1.795 2785
-2.567 6.053 1.776 2010
-2.617 6.170 1.788 2540
-2.616 6.168 1.766 3763
-2.615 6.165 1.745 2740
-2.584 6.091 1.705 1810
-2.736 6.450 1.777 1544
-2.741 6.461 1.758 1383
-2.800 6.601 1.772 1991
-2.820 6.648 1.761 2103
-2.828 6.666 1.744 1674
-2.914 6.870 1.771 1268
-2.928 6.903 1.756 1726
-3.029 7.142 1.789 1975
-3.031 7.147 1.766 1881
-3.088 7.279 1.773 2066
-3.356 7.912 1.890 2084
-3.358 7.917 1.865 2246
-3.348 7.893 1.834 2564
-3.359 7.919 1.813 1764
-3.446 8.124 1.830 1371
-3.630 8.558 1.893 1064
-3.535 8.333 1.820 1080
-3.658 8.624 1.851 845
-3.660 8.629 1.823 936
-3.644 8.590 1.788 593
-3.658 8.623 1.766 266
-0.529 1.246 0.125 340
-0.526 1.239 0.122 529
-0.522 1.232 0.118 851
-0.522 1.232 0.114 1074
-0.522 1.232 0.110 1052
-0.525 1.239 0.106 1072
-0.528 1.246 0.102 1589
-0.525 1.239 0.099 2215
-0.525 1.238 0.095 2392
-0.525 1.238 0.091 1900
-0.525 1.238 0.088 1402
-0.522 1.231 0.084 1626
-0.522 1.231 0.080 1844
-0.525 1.238 0.076 1818
-0.525 1.238 0.073 1807
-0.525 1.237 0.069 1444
-0.525 1.237 0.065 1081
-0.525 1.237 0.061 735
-0.525 1.237 0.057 389
-0.911 2.157 1.801 2245
-0.913 2.162 1.795 4491
-0.937 2.220 1.829 4715
-0.939 2.224 1.823 5346
-0.941 2.229 1.816 5977
-0.943 2.233 1.809 6680
-0.947 2.244 1.806 7580
-0.949 2.248 1.799 7580
-0.954 2.259 1.797 8045
-0.958 2.269 1.794 8813
-0.965 2.285 1.796 7438
-0.977 2.314 1.807 7563
-0.979 2.319 1.800 8526
-0.983 2.329 1.797 9702
-0.985 2.333 1.790 9702
-0.987 2.338 1.783 8406
-0.992 2.348 1.780 7218
-1.019 2.414 1.816 5117
-1.021 2.418 1.808 6858
-1.031 2.441 1.814 8866
-1.035 2.452 1.810 12407
-1.037 2.456 1.803 11984
-1.039 2.461 1.795 11560
-1.041 2.465 1.787 8078
-1.043 2.470 1.780 4596
-1.092 2.586 1.847 4639
-1.096 2.596 1.843 5299
-1.096 2.595 1.831 5183
-1.129 2.674 1.872 5168
-1.134 2.685 1.868 5821
-1.136 2.690 1.860 6604
-1.138 2.694 1.851 5915
-1.139 2.699 1.843 5226
-1.141 2.703 1.835 5462
-1.146 2.714 1.830 5731
-1.145 2.712 1.818 8035
-1.147 2.717 1.809 10373
-1.146 2.715 1.797 10184
-1.146 2.713 1.785 8863
-1.147 2.718 1.776 7532
-1.157 2.741 1.779 6938
-1.167 2.765 1.782 8038
-1.172 2.775 1.778 7579
-1.217 2.882 1.830 7657
-1.219 2.887 1.821 6681
-1.221 2.891 1.812 7118
-1.223 2.896 1.803 8530
-1.227 2.906 1.798 7616
-1.229 2.911 1.789 6061
-1.234 2.922 1.783 5406
-1.287 3.049 1.844 4680
-1.289 3.054 1.834 6067
-1.291 3.058 1.825 7720
-1.293 3.063 1.815 9719
-1.298 3.074 1.809 10113
-1.297 3.072 1.796 8828
-1.304 3.089 1.794 6285
-1.312 3.107 1.791 5969
-1.322 3.131 1.792 8167
-1.326 3.142 1.786 12334
-1.331 3.153 1.779 11086
-1.330 3.150 1.766 8858
-1.335 3.161 1.760 7404
-1.345 3.185 1.760 6224
-1.344 3.183 1.747 5937
-1.346 3.187 1.737 7648
-1.350 3.198 1.730 8598
-1.425 3.375 1.807 9891
-1.435 3.399 1.806 12451
-1.440 3.410 1.799 11334
-1.447 3.428 1.794 8785
-1.449 3.432 1.784 7429
-1.454 3.443 1.776 7438
-1.453 3.441 1.762 6604
-1.458 3.452 1.755 7080
-1.462 3.463 1.747 7067
-1.577 3.736 1.861 5743
-1.579 3.740 1.850 7715
-1.575 3.731 1.832 5537
-1.569 3.716 1.811 4655
-1.610 3.814 1.842 4908
-1.610 3.812 1.827 5794
-1.609 3.810 1.812 5654
-1.613 3.821 1.803 5863
-1.635 3.873 1.812 7124
-1.640 3.884 1.803 8519
-1.650 3.909 1.799 7368
-1.684 3.988 1.819 5032
-1.717 4.067 1.838 7314
-1.719 4.072 1.825 7479
-1.721 4.077 1.813 4308
-1.752 4.149 1.828 4963
-1.754 4.154 1.815 4514
-1.802 4.268 1.846 3635
-1.798 4.258 1.827 3360
-1.837 4.352 1.849 3800
-1.845 4.370 1.841 4616
-1.850 4.382 1.830 5298
-1.852 4.386 1.816 5815
-1.854 4.391 1.803 5368
-1.850 4.381 1.784 4147
-1.849 4.379 1.767 2785
-1.918 4.542 1.813 2179
-1.943 4.602 1.819 3316
-1.948 4.613 1.807 4890
-1.947 4.611 1.790 6091
-1.946 4.608 1.773 6739
-1.947 4.613 1.759 4252
-1.976 4.679 1.766 2637
-1.998 4.732 1.768 2463
-2.000 4.737 1.753 2785
-2.043 4.838 1.772 3303
-2.053 4.864 1.764 3308
-2.076 4.917 1.765 3583
-2.078 4.921 1.749 3152
-2.115 5.009 1.761 2412
-2.117 5.014 1.746 3325
-2.151 5.095 1.754 3456
-2.153 5.099 1.738 3242
-2.170 5.138 1.733 2123
-2.239 5.304 1.767 1380
-2.306 5.463 1.798 2472
-2.240 5.306 1.732 2355
-2.263 5.359 1.730 2179
-2.357 5.582 1.778 2735
-2.361 5.593 1.762 3181
-2.414 5.717 1.779 4540
-2.419 5.729 1.763 4743
-2.420 5.733 1.745 4318
-2.419 5.730 1.725 3626
-2.558 6.060 1.797 3049
-2.557 6.057 1.776 2178
-2.607 6.175 1.788 2418
-2.606 6.172 1.766 3739
-2.605 6.169 1.745 2831
-2.574 6.095 1.705 1756
-2.725 6.454 1.777 1652
-2.733 6.473 1.760 1602
-2.792 6.612 1.773 1600
-2.809 6.652 1.761 1787
-2.814 6.664 1.742 1396
-2.906 6.882 1.772 1430
-2.919 6.915 1.757 1778
-3.018 7.147 1.789 1768
-3.020 7.152 1.766 1752
-3.073 7.277 1.771 2325
-3.346 7.925 1.891 1989
-3.348 7.929 1.866 2192
-3.335 7.898 1.834 2496
-3.349 7.931 1.815 1801
-3.432 8.129 1.830 1710
-3.434 8.134 1.805 1215
-3.521 8.339 1.820 1199
-3.641 8.623 1.849 1078
-3.643 8.628 1.822 1157
-3.629 8.596 1.788 758
-3.640 8.622 1.765 420
-3.648 8.641 1.740 276
-0.524 1.240 0.125 488
-0.524 1.240 0.122 755
-0.520 1.233 0.118 1105
-0.520 1.233 0.114 1343
-0.523 1.240 0.110 1394
-0.526 1.247 0.106 1540
-0.526 1.247 0.102 2332
-0.523 1.239 0.099 2969
-0.523 1.239 0.095 2885
-0.523 1.239 0.091 2377
-0.520 1.232 0.088 1898
-0.520 1.232 0.084 2158
-0.520 1.232 0.080 2401
-0.520 1.231 0.077 2243
-0.523 1.238 0.073 2138
-0.523 1.238 0.069 1688
-0.523 1.238 0.065 1238
-0.523 1.238 0.061 821
-0.523 1.238 0.057 404
-0.906 2.159 1.801 2324
-0.908 2.164 1.795 4649
-0.910 2.168 1.788 4649
-0.932 2.220 1.818 4851
-0.934 2.225 1.811 5239
-0.941 2.241 1.813 6314
-0.945 2.251 1.811 7632
-0.947 2.256 1.804 7632
-0.951 2.266 1.801 8211
-0.953 2.271 1.794 8994
-0.958 2.281 1.792 7379
-0.972 2.316 1.807 7217
-0.974 2.321 1.800 7965
-0.979 2.331 1.797 8963
-0.980 2.335 1.790 8963
-0.985 2.346 1.787 7795
-0.987 2.350 1.780 6774
-1.012 2.410 1.811 5009
-1.016 2.420 1.808 6752
-1.026 2.443 1.814 8685
-1.030 2.454 1.810 12215
-1.032 2.458 1.803 11730
-1.034 2.463 1.795 11246
-1.033 2.461 1.783 8010
-1.035 2.466 1.776 4869
-1.040 2.476 1.772 5048
-1.044 2.487 1.768 5435
-1.090 2.597 1.831 5114
-1.124 2.676 1.872 4931
-1.126 2.681 1.864 5758
-1.130 2.692 1.860 6742
-1.132 2.697 1.851 6183
-1.137 2.707 1.847 5696
-1.139 2.712 1.839 5486
-1.135 2.704 1.822 5302
-1.140 2.715 1.818 7299
-1.142 2.719 1.809 9310
-1.138 2.711 1.793 9271
-1.140 2.716 1.785 8841
-1.145 2.726 1.780 8111
-1.152 2.743 1.779 7285
-1.162 2.767 1.782 8369
-1.166 2.778 1.778 8012
-1.211 2.885 1.830 7750
-1.213 2.889 1.821 6849
-1.215 2.894 1.812 7730
-1.217 2.898 1.803 9510
-1.221 2.909 1.798 8454
-1.223 2.913 1.789 6520
-1.225 2.918 1.780 5557
-1.224 2.916 1.767 5085
-1.283 3.056 1.834 6153
-1.285 3.061 1.825 7696
-1.287 3.065 1.815 9343
-1.291 3.076 1.809 9529
-1.293 3.081 1.800 8174
-1.298 3.092 1.794 5690
-1.305 3.109 1.791 5493
-1.315 3.133 1.792 7456
-1.320 3.144 1.786 10642
-1.322 3.149 1.776 9956
-1.324 3.153 1.766 8575
-1.331 3.171 1.763 8043
-1.341 3.195 1.764 8081
-1.349 3.212 1.760 7550
-1.342 3.197 1.740 8406
-1.347 3.208 1.734 8594
-1.421 3.384 1.810 10630
-1.425 3.395 1.803 13413
-1.433 3.413 1.799 12098
-1.438 3.424 1.791 8873
-1.442 3.435 1.784 6758
-1.444 3.440 1.773 6646
-1.443 3.437 1.759 5816
-1.451 3.455 1.755 6404
-1.455 3.466 1.747 6842
-1.457 3.471 1.736 5582
-1.571 3.743 1.850 7211
-1.568 3.735 1.832 5577
-1.561 3.719 1.811 4993
-1.603 3.818 1.842 4767
-1.602 3.815 1.827 5532
-1.601 3.813 1.812 5903
-1.606 3.825 1.803 6436
-1.627 3.876 1.812 7526
-1.632 3.888 1.803 8588
-1.642 3.912 1.799 7051
-1.704 4.060 1.848 4975
-1.709 4.071 1.838 7627
-1.711 4.076 1.825 7794
-1.710 4.073 1.810 4539
-1.743 4.153 1.828 4646
-1.745 4.157 1.815 4160
-1.793 4.271 1.846 3851
-1.789 4.262 1.827 3683
-1.785 4.253 1.809 3320
-1.833 4.367 1.838 4427
-1.841 4.385 1.830 4734
-1.843 4.390 1.816 5544
-1.845 4.395 1.803 5974
-1.841 4.385 1.784 5049
-1.840 4.383 1.767 3598
-1.871 4.456 1.779 2134
-1.933 4.606 1.819 3590
-1.938 4.617 1.807 5523
-1.937 4.615 1.790 6952
-1.936 4.612 1.773 7325
-1.941 4.623 1.761 4415
-1.966 4.683 1.766 2838
-1.985 4.729 1.766 2436
-1.990 4.741 1.753 2984
-2.030 4.836 1.769 2811
-2.052 4.889 1.771 2845
-2.069 4.928 1.767 3344
-2.068 4.925 1.749 2820
-2.108 5.021 1.764 2329
-2.107 5.018 1.746 3156
-2.141 5.099 1.754 3771
-2.145 5.111 1.741 3760
-2.159 5.143 1.733 2295
-2.232 5.316 1.769 1559
-2.295 5.468 1.798 2866
-2.303 5.486 1.785 2459
-2.252 5.364 1.730 1922
-2.348 5.593 1.780 2585
-2.403 5.725 1.799 3079
-2.402 5.722 1.779 5010
-2.404 5.726 1.761 5329
-2.406 5.731 1.743 5011
-2.405 5.728 1.723 4388
-2.546 6.065 1.797 2971
-2.548 6.069 1.778 2208
-2.603 6.201 1.793 2184
-2.593 6.177 1.766 3635
-2.592 6.174 1.745 3027
-2.656 6.328 1.764 1663
-2.712 6.460 1.777 1655
-2.723 6.486 1.762 1622
-2.787 6.640 1.779 1456
-2.795 6.658 1.761 1482
-2.905 6.919 1.803 1281
-2.906 6.923 1.781 1692
-2.908 6.928 1.759 1752
-2.913 6.939 1.739 1578
-3.053 7.272 1.792 1804
-3.058 7.284 1.771 2439
-3.333 7.939 1.893 1947
-3.332 7.936 1.866 2050
-3.319 7.905 1.834 2275
-3.348 7.974 1.822 2039
-3.416 8.136 1.830 1912
-3.598 8.571 1.893 1318
-3.501 8.339 1.818 1398
-3.623 8.631 1.849 1408
-3.625 8.635 1.822 1350
-3.612 8.604 1.788 901
-3.623 8.630 1.765 543
-3.631 8.648 1.740 306
-0.518 1.234 0.129 252
-0.524 1.248 0.125 538
-0.524 1.248 0.121 813
-0.524 1.248 0.118 959
-0.524 1.248 0.114 1042
-0.524 1.248 0.110 1571
-0.524 1.248 0.106 2094
-0.524 1.248 0.102 2698
-0.521 1.241 0.099 2912
-0.518 1.233 0.095 2506
-0.518 1.233 0.092 2331
-0.518 1.233 0.088 2203
-0.518 1.233 0.084 2419
-0.517 1.233 0.080 2620
-0.520 1.240 0.076 2391
-0.520 1.240 0.073 2208
-0.520 1.239 0.069 1655
-0.520 1.239 0.065 1102
-0.520 1.239 0.061 676
-0.523 1.246 0.057 252
-0.904 2.160 1.801 2397
-0.906 2.165 1.795 4795
-0.907 2.169 1.788 4795
-0.909 2.174 1.781 4868
-0.909 2.172 1.770 4954
-0.938 2.242 1.813 5851
-0.942 2.253 1.811 7651
-0.944 2.257 1.804 7651
-0.949 2.268 1.801 8295
-0.950 2.272 1.794 8962
-0.955 2.283 1.792 7210
-0.969 2.317 1.807 6794
-0.974 2.328 1.804 7342
-0.976 2.332 1.797 8095
-0.978 2.337 1.790 8095
-0.982 2.347 1.787 7065
-0.986 2.358 1.784 6167
-1.001 2.393 1.798 5093
-1.011 2.416 1.804 6563
-1.023 2.445 1.814 8289
-1.027 2.455 1.810 11717
-1.029 2.460 1.803 11211
-1.028 2.458 1.791 10710
-1.030 2.462 1.783 7883
-1.032 2.467 1.776 5057
-1.036 2.478 1.772 5362
-1.041 2.488 1.768 5974
-1.045 2.499 1.765 5518
-1.050 2.509 1.761 5439
-1.122 2.682 1.864 5637
-1.127 2.693 1.860 6820
-1.131 2.704 1.856 6364
-1.133 2.709 1.847 6034
-1.135 2.713 1.839 5473
-1.134 2.712 1.826 4928
-1.136 2.716 1.818 6597
-1.138 2.721 1.809 8266
-1.135 2.713 1.793 8450
-1.137 2.717 1.785 8690
-1.138 2.721 1.776 8512
-1.146 2.739 1.775 7511
-1.158 2.768 1.782 8618
-1.165 2.786 1.781 8360
-1.207 2.886 1.830 7607
-1.198 2.865 1.806 7124
-1.211 2.895 1.812 8236
-1.213 2.900 1.803 10326
-1.218 2.911 1.798 9131
-1.219 2.915 1.789 6869
-1.219 2.913 1.776 5699
-1.220 2.917 1.767 5765
-1.279 3.058 1.834 6051
-1.281 3.062 1.825 7466
-1.286 3.073 1.819 8772
-1.288 3.078 1.809 8735
-1.289 3.082 1.800 7347
-1.256 3.002 1.744 5314
-1.304 3.117 1.795 4875
-1.311 3.135 1.792 6559
-1.316 3.146 1.786 8824
-1.318 3.150 1.776 8672
-1.320 3.155 1.766 8050
-1.330 3.179 1.767 8481
-1.337 3.196 1.764 9751
-1.342 3.207 1.757 9290
-1.341 3.205 1.744 9507
-1.343 3.209 1.734 8990
-1.417 3.386 1.810 11029
-1.421 3.397 1.803 14000
-1.426 3.408 1.795 12415
-1.433 3.426 1.791 8878
-1.435 3.431 1.781 6242
-1.437 3.435 1.770 5864
-1.439 3.439 1.759 5058
-1.449 3.464 1.758 5783
-1.451 3.468 1.747 6378
-1.453 3.472 1.736 5222
-1.564 3.739 1.847 6343
-1.563 3.736 1.832 5200
-1.557 3.721 1.811 5012
-1.598 3.820 1.842 4350
-1.600 3.824 1.830 5194
-1.599 3.822 1.815 6190
-1.601 3.827 1.803 6884
-1.622 3.878 1.812 7754
-1.627 3.890 1.803 8317
-1.638 3.915 1.799 6551
-1.699 4.062 1.848 5005
-1.704 4.073 1.838 7550
-1.706 4.078 1.825 7688
-1.705 4.075 1.810 4614
-1.738 4.155 1.828 4265
-1.740 4.159 1.815 3876
-1.785 4.267 1.843 3908
-1.781 4.258 1.825 3913
-1.777 4.248 1.806 3924
-1.828 4.369 1.838 4420
-1.836 4.388 1.830 4324
-1.840 4.399 1.819 5160
-1.839 4.397 1.803 6236
-1.835 4.388 1.784 5620
-1.834 4.385 1.767 4198
-1.874 4.479 1.787 2226
-1.928 4.608 1.819 3736
-1.932 4.620 1.807 5989
-1.931 4.617 1.790 7621
-1.930 4.615 1.773 7678
-1.935 4.626 1.761 4443
-1.960 4.686 1.766 3079
-1.979 4.732 1.766 2557
-1.984 4.743 1.753 3095
-2.024 4.838 1.769 2472
-2.011 4.808 1.743 2687
-2.063 4.931 1.767 3155
-2.059 4.921 1.747 2454
-2.101 5.023 1.764 2271
-2.100 5.021 1.746 2893
-2.134 5.102 1.754 3868
-2.139 5.113 1.741 3972
-2.156 5.153 1.736 2232
-2.231 5.332 1.774 1823
-2.288 5.470 1.798 2982
-2.296 5.489 1.785 2582
-2.310 5.521 1.776 2408
-2.341 5.596 1.780 2137
-2.390 5.714 1.795 3619
-2.392 5.718 1.777 5256
-2.397 5.729 1.761 5668
-2.399 5.734 1.743 5638
-2.397 5.731 1.723 4981
-2.399 5.735 1.705 3298
-2.540 6.072 1.778 2149
-2.604 6.226 1.799 2071
-2.585 6.180 1.766 3196
-2.584 6.178 1.745 3050
-2.586 6.182 1.726 1726
-2.650 6.335 1.744 1588
-2.724 6.511 1.767 1710
-2.779 6.643 1.779 1647
-2.778 6.640 1.756 1349
-2.896 6.923 1.803 1867
-2.901 6.934 1.783 2031
-2.903 6.939 1.761 1670
-2.910 6.957 1.742 1505
-3.044 7.276 1.792 1896
-3.046 7.280 1.769 2311
-3.323 7.943 1.893 1752
-3.331 7.962 1.871 1749
-3.312 7.916 1.835 1942
-3.335 7.971 1.821 2187
-3.405 8.141 1.830 2095
-3.482 8.324 1.841 1482
-3.487 8.336 1.817 1589
-3.612 8.635 1.849 1691
-3.614 8.640 1.822 1514
-3.601 8.608 1.788 1012
-3.612 8.634 1.765 635
-3.617 8.646 1.739 364
-0.529 1.264 0.125 640
-0.529 1.264 0.121 918
-0.532 1.271 0.117 1069
-0.532 1.271 0.113 1228
-0.529 1.263 0.110 1553
-0.525 1.256 0.106 1785
-0.522 1.249 0.102 1881
-0.519 1.241 0.099 1728
-0.519 1.241 0.095 1315
-0.522 1.248 0.091 1357
-0.522 1.248 0.087 1469
-0.522 1.248 0.083 1929
-0.522 1.248 0.080 2389
-0.522 1.248 0.076 2099
-0.522 1.247 0.072 1808
-0.522 1.247 0.068 1182
-0.522 1.247 0.065 555
-0.525 1.254 0.060 344
-0.891 2.145 1.787 2428
-0.893 2.149 1.781 4856
-0.895 2.154 1.774 4856
-0.902 2.170 1.777 5331
-0.903 2.174 1.770 5919
-0.910 2.191 1.772 5690
-0.942 2.267 1.820 7677
-0.944 2.271 1.813 7677
-0.943 2.270 1.801 8186
-0.945 2.274 1.794 8698
-0.949 2.285 1.792 6882
-0.964 2.320 1.807 6369
-0.968 2.330 1.804 6722
-0.973 2.341 1.801 7168
-0.974 2.345 1.794 7168
-0.976 2.350 1.787 6277
-0.981 2.360 1.784 5534
-0.995 2.395 1.798 5135
-1.005 2.418 1.804 6330
-1.017 2.447 1.814 7760
-1.021 2.458 1.810 10989
-1.023 2.462 1.803 10498
-1.022 2.461 1.791 10115
-1.024 2.465 1.783 7633
-1.016 2.445 1.759 5244
-1.028 2.474 1.768 5560
-1.035 2.491 1.768 6249
