-1.364 4.328 1.690 3885
-1.381 4.382 1.695 3401
-1.391 4.415 1.692 4457
-1.404 4.455 1.691 4624
-1.410 4.474 1.682 5942
-1.447 4.593 1.709 4112
-1.464 4.648 1.712 6110
-1.466 4.652 1.698 7168
-1.465 4.649 1.681 6239
-1.466 4.653 1.667 4502
-1.490 4.730 1.677 3615
-1.494 4.741 1.665 4724
-1.497 4.753 1.653 3377
-1.521 4.829 1.661 2991
-1.530 4.855 1.654 3079
-1.556 4.939 1.664 2937
-1.560 4.950 1.651 3634
-1.588 5.041 1.663 3455
-1.629 5.169 1.685 3746
-1.632 5.181 1.671 3907
-1.631 5.178 1.653 2714
-1.637 5.196 1.642 2438
-1.700 5.397 1.683 2847
-1.704 5.409 1.669 2809
-1.703 5.406 1.650 3070
-1.707 5.417 1.636 2911
-1.779 5.648 1.682 3558
-1.785 5.666 1.669 3962
-1.787 5.671 1.651 4041
-1.788 5.675 1.634 4382
-1.789 5.679 1.617 4783
-1.915 6.079 1.702 4975
-1.917 6.083 1.684 4823
-1.916 6.080 1.664 3248
-1.933 6.136 1.658 2743
-1.939 6.155 1.643 3206
-1.940 6.159 1.624 2192
-1.988 6.310 1.641 2098
-2.040 6.476 1.660 1473
-2.063 6.547 1.656 1405
-2.059 6.536 1.633 2034
-2.056 6.526 1.609 1473
-2.081 6.604 1.606 1828
-2.224 7.058 1.686 2156
-2.221 7.048 1.661 2185
-2.268 7.200 1.671 1471
-2.267 7.197 1.648 1472
-2.322 7.371 1.661 1962
-2.321 7.368 1.637 1745
-2.405 7.632 1.667 1230
-2.485 7.888 1.694 1568
-2.629 8.345 1.759 1566
-2.635 8.365 1.736 1807
-2.639 8.377 1.712 1980
-2.643 8.388 1.688 1742
-2.647 8.400 1.664 1469
-2.648 8.404 1.638 856
-2.701 8.572 1.642 729
-2.838 9.009 1.690 654
-2.840 9.013 1.663 694
-2.841 9.017 1.635 670
-2.838 9.006 1.606 414
-0.302 0.959 0.173 281
-0.302 0.960 0.170 339
-0.302 0.960 0.167 377
-0.302 0.960 0.164 400
-0.302 0.960 0.162 418
-0.302 0.960 0.159 403
-0.302 0.960 0.156 381
-0.300 0.952 0.153 302
-0.688 2.203 1.754 5446
-0.689 2.208 1.748 10893
-0.691 2.212 1.741 10893
-0.696 2.229 1.744 9779
-0.699 2.240 1.741 9247
-0.716 2.294 1.771 6763
-0.720 2.304 1.769 7881
-0.721 2.309 1.762 7881
-0.726 2.326 1.764 10147
-0.728 2.330 1.757 12655
-0.731 2.341 1.754 10850
-0.735 2.352 1.752 9233
-0.740 2.369 1.753 7201
-0.747 2.392 1.759 6421
-0.749 2.397 1.752 6357
-0.750 2.401 1.745 6053
-0.747 2.393 1.729 5991
-0.749 2.398 1.722 5163
-0.756 2.421 1.728 4613
-0.759 2.432 1.725 4456
-0.767 2.455 1.730 4766
-0.776 2.485 1.740 4451
-0.780 2.496 1.736 4736
-0.797 2.552 1.762 4619
-0.802 2.570 1.763 4929
-0.808 2.587 1.763 5431
-0.811 2.598 1.760 6364
-0.811 2.596 1.748 6861
-0.810 2.594 1.736 7512
-0.811 2.598 1.728 5540
-0.695 2.226 1.486 4631
-0.696 2.229 1.480 5151
-0.697 2.233 1.473 5400
-0.841 2.694 1.745 5886
-0.845 2.705 1.741 6914
-0.848 2.716 1.736 6107
-0.700 2.241 1.442 4772
-0.701 2.245 1.436 4025
-0.892 2.855 1.785 5090
-0.893 2.859 1.777 6183
-0.890 2.851 1.761 7102
-0.888 2.842 1.744 8894
-0.891 2.853 1.740 8163
-0.901 2.884 1.746 7980
-0.904 2.895 1.741 8498
-0.928 2.973 1.774 9768
-0.930 2.978 1.765 12118
-0.935 2.995 1.763 10461
-0.949 3.040 1.776 11722
-0.951 3.045 1.767 11833
-0.950 3.043 1.754 8562
-0.949 3.040 1.741 7214
-0.951 3.045 1.732 10040
-0.956 3.063 1.730 11936
-0.958 3.067 1.721 12536
-0.963 3.085 1.719 14105
-0.967 3.096 1.713 14818
-0.973 3.114 1.711 10272
-0.978 3.132 1.708 8097
-0.984 3.150 1.706 7424
-1.015 3.250 1.744 7360
-1.008 3.227 1.721 7545
-1.011 3.238 1.714 8639
-1.015 3.249 1.708 9188
-1.018 3.261 1.702 6428
-1.075 3.443 1.778 6316
-1.075 3.441 1.764 7279
-1.070 3.425 1.744 8309
-1.073 3.436 1.737 9355
-1.077 3.448 1.730 9201
-1.078 3.452 1.720 6993
-1.101 3.526 1.741 5397
-1.120 3.585 1.756 6060
-1.121 3.590 1.745 6696
-1.123 3.594 1.734 6112
-1.083 3.467 1.664 5172
-1.080 3.457 1.648 5876
-1.077 3.447 1.631 7566
-1.078 3.451 1.621 7161
-1.081 3.463 1.613 5060
-1.085 3.474 1.606 3169
-1.211 3.877 1.765 3794
-1.214 3.888 1.757 6215
-1.218 3.900 1.748 7657
-1.219 3.904 1.736 7419
-1.229 3.937 1.736 7431
-1.233 3.948 1.727 7969
-1.230 3.939 1.709 7036
-1.238 3.964 1.706 7255
-1.244 3.983 1.699 6410
-1.278 4.093 1.729 5145
-1.313 4.204 1.758 4546
-1.310 4.194 1.740 5028
-1.309 4.191 1.725 3402
-1.337 4.281 1.744 3594
-1.338 4.286 1.731 5301
-1.340 4.290 1.718 4541
-1.346 4.309 1.711 3225
-1.360 4.356 1.713 3783
-1.353 4.332 1.690 3982
-1.370 4.386 1.695 3419
-1.380 4.419 1.692 4499
-1.393 4.459 1.691 4704
-1.398 4.478 1.682 6066
-1.436 4.597 1.709 4185
-1.453 4.651 1.712 6193
-1.454 4.656 1.698 7226
-1.453 4.653 1.681 6258
-1.454 4.657 1.667 4517
-1.478 4.733 1.677 3626
-1.482 4.745 1.665 4739
-1.485 4.756 1.653 3418
-1.509 4.833 1.661 2975
-1.517 4.859 1.654 3068
-1.544 4.943 1.664 2801
-1.547 4.954 1.651 3571
-1.576 5.045 1.663 3504
-1.616 5.173 1.685 3755
-1.619 5.185 1.671 3922
-1.618 5.182 1.653 2745
-1.624 5.200 1.642 2488
-1.687 5.401 1.683 2884
-1.688 5.406 1.666 2846
-1.689 5.410 1.650 3122
-1.693 5.421 1.636 2959
-1.765 5.652 1.682 3546
-1.771 5.671 1.669 4007
-1.772 5.675 1.651 4109
-1.774 5.679 1.634 4518
-1.775 5.683 1.617 4927
-1.900 6.084 1.702 4962
-1.901 6.088 1.684 4747
-1.900 6.085 1.664 3164
-1.918 6.141 1.658 2742
-1.924 6.160 1.643 3222
-1.925 6.164 1.624 2221
-1.975 6.323 1.643 2038
-2.024 6.481 1.660 1478
-2.028 6.493 1.642 1417
-2.043 6.542 1.633 2015
-2.065 6.612 1.628 1604
-2.064 6.609 1.606 2011
-2.206 7.064 1.686 2183
-2.203 7.053 1.661 2183
-2.250 7.206 1.671 1484
-2.249 7.203 1.648 1426
-2.304 7.377 1.661 2004
-2.303 7.374 1.637 1753
-2.464 7.890 1.718 1292
-2.465 7.895 1.694 1611
-2.608 8.352 1.759 1560
-2.614 8.371 1.736 1845
-2.616 8.376 1.711 2037
-2.622 8.395 1.688 1776
-2.625 8.407 1.664 1517
-2.813 9.007 1.745 1029
-2.814 9.011 1.718 755
-2.683 8.591 1.617 570
-2.817 9.020 1.663 456
-2.807 8.987 1.629 357
-2.813 9.006 1.604 335
-0.300 0.960 0.173 301
-0.300 0.960 0.170 379
-0.300 0.960 0.167 431
-0.300 0.960 0.164 445
-0.300 0.961 0.162 451
-0.300 0.961 0.159 431
-0.300 0.961 0.156 396
-0.298 0.953 0.153 311
-0.682 2.205 1.754 5487
-0.684 2.209 1.748 10975
-0.685 2.214 1.741 10975
-0.690 2.231 1.744 9855
-0.694 2.241 1.741 9320
-0.711 2.295 1.771 6848
-0.714 2.306 1.769 7950
-0.715 2.311 1.762 7950
-0.721 2.328 1.764 10222
-0.722 2.332 1.757 12751
-0.725 2.343 1.754 10932
-0.729 2.354 1.752 9304
-0.734 2.371 1.753 7255
-0.741 2.394 1.759 6480
-0.743 2.399 1.752 6414
-0.744 2.403 1.745 6076
-0.741 2.395 1.729 5968
-0.743 2.399 1.722 5159
-0.750 2.423 1.728 4665
-0.753 2.434 1.725 4521
-0.761 2.457 1.730 4840
-0.770 2.487 1.740 4497
-0.773 2.498 1.736 4781
-0.791 2.554 1.762 4662
-0.796 2.572 1.763 4961
-0.801 2.589 1.763 5438
-0.805 2.600 1.760 6352
-0.804 2.598 1.748 6846
-0.804 2.596 1.736 7503
-0.805 2.600 1.728 5535
-0.689 2.227 1.486 4707
-0.691 2.231 1.480 5271
-0.692 2.235 1.473 5440
-0.835 2.696 1.745 5953
-0.838 2.707 1.741 6930
-0.841 2.719 1.736 6110
-0.694 2.243 1.442 4791
-0.695 2.247 1.436 4048
-0.884 2.857 1.785 5137
-0.886 2.862 1.777 6232
-0.883 2.853 1.761 7175
-0.880 2.844 1.744 8964
-0.884 2.855 1.740 8234
-0.893 2.886 1.746 8048
-0.897 2.898 1.741 8570
-0.921 2.975 1.774 9803
-0.922 2.980 1.765 12155
-0.928 2.998 1.763 10565
-0.942 3.043 1.776 11851
-0.943 3.047 1.767 11900
-0.943 3.045 1.754 8512
-0.942 3.043 1.741 7164
-0.943 3.047 1.732 10167
-0.949 3.065 1.730 11943
-0.950 3.069 1.721 12371
-0.954 3.081 1.715 13514
-0.959 3.099 1.713 13893
-0.965 3.117 1.711 9901
-0.970 3.135 1.708 8050
-0.976 3.153 1.706 7456
-1.009 3.259 1.748 7141
-1.008 3.257 1.734 7024
-1.003 3.241 1.714 7802
-1.007 3.252 1.708 8366
-1.010 3.263 1.702 5985
-1.067 3.446 1.778 6400
-1.066 3.444 1.764 7479
-1.063 3.434 1.747 8435
-1.065 3.439 1.737 9570
-1.068 3.450 1.730 9191
-1.069 3.455 1.720 6687
-1.092 3.528 1.741 5761
-1.111 3.588 1.756 5704
-1.112 3.593 1.745 6257
-1.113 3.597 1.734 5676
-1.074 3.469 1.664 5453
-1.071 3.460 1.648 6216
-1.068 3.450 1.631 7252
-1.069 3.454 1.621 6450
-1.073 3.465 1.613 4274
-1.076 3.476 1.606 3147
-1.201 3.880 1.765 3799
-1.202 3.884 1.754 6429
-1.206 3.896 1.745 7878
-1.207 3.900 1.733 7182
-1.215 3.926 1.730 6298
-1.223 3.951 1.727 7218
-1.220 3.942 1.709 6647
-1.228 3.967 1.706 7215
-1.234 3.986 1.699 6274
-1.268 4.096 1.729 5337
-1.302 4.207 1.758 4634
-1.299 4.197 1.740 5174
-1.298 4.195 1.725 3517
-1.326 4.284 1.744 3631
-1.328 4.289 1.731 5345
-1.329 4.293 1.718 4560
-1.335 4.312 1.711 3230
-1.352 4.366 1.716 3750
-1.342 4.335 1.690 3957
-1.359 4.389 1.695 3443
-1.369 4.422 1.692 4625
-1.381 4.462 1.691 4830
-1.387 4.481 1.682 6221
-1.424 4.600 1.709 4202
-1.441 4.655 1.712 6279
-1.442 4.659 1.698 7303
-1.441 4.657 1.681 6314
-1.443 4.661 1.667 4561
-1.466 4.737 1.677 3656
-1.470 4.749 1.665 4757
-1.473 4.760 1.653 3388
-1.497 4.837 1.661 2947
-1.505 4.863 1.654 3050
-1.531 4.947 1.664 2928
-1.535 4.958 1.651 3755
-1.563 5.049 1.663 3540
-1.603 5.177 1.685 3799
-1.606 5.189 1.671 3985
-1.605 5.186 1.653 2792
-1.611 5.204 1.642 2564
-1.673 5.406 1.683 2929
-1.675 5.410 1.666 2901
-1.676 5.414 1.650 3139
-1.679 5.426 1.636 2958
-1.751 5.656 1.682 3404
-1.757 5.675 1.669 3866
-1.758 5.680 1.651 4088
-1.759 5.684 1.634 4444
-1.761 5.688 1.617 4772
-1.885 6.088 1.702 5030
-1.886 6.093 1.684 4795
-1.869 6.038 1.651 3188
-1.902 6.145 1.658 2710
-1.908 6.164 1.643 3303
-1.909 6.169 1.624 2242
-1.959 6.327 1.643 2060
-2.008 6.487 1.660 1506
-2.011 6.498 1.642 1487
-2.024 6.539 1.631 2019
-2.048 6.617 1.628 1506
-2.047 6.614 1.606 1848
-2.188 7.070 1.686 2244
-2.185 7.059 1.661 2209
-2.232 7.211 1.671 1514
-2.229 7.201 1.646 1405
-2.285 7.383 1.661 2058
-2.284 7.380 1.637 1773
-2.366 7.644 1.667 1264
-2.446 7.901 1.694 1605
-2.590 8.366 1.760 1595
-2.593 8.378 1.736 1863
-2.595 8.382 1.711 2071
-2.601 8.402 1.688 1791
-2.604 8.413 1.664 1524
-2.608 8.425 1.640 906
-2.658 8.586 1.642 665
-2.661 8.597 1.617 540
-2.794 9.027 1.663 425
-2.793 9.024 1.634 511
-2.792 9.020 1.606 420
-0.295 0.953 0.175 256
-0.295 0.953 0.172 323
-0.297 0.961 0.170 409
-0.298 0.961 0.167 464
-0.298 0.961 0.164 479
-0.295 0.954 0.161 494
-0.298 0.961 0.159 477
-0.298 0.961 0.156 440
-0.295 0.954 0.153 337
-0.677 2.206 1.754 5421
-0.678 2.211 1.748 10843
-0.680 2.215 1.741 10843
-0.685 2.232 1.744 9754
-0.688 2.243 1.741 9238
-0.705 2.297 1.771 6771
-0.708 2.308 1.769 7820
-0.710 2.312 1.762 7820
-0.715 2.329 1.764 10064
-0.716 2.334 1.757 12572
-0.720 2.345 1.754 10791
-0.723 2.356 1.752 9191
-0.728 2.373 1.753 7153
-0.735 2.396 1.759 6372
-0.737 2.401 1.752 6305
-0.738 2.405 1.745 5969
-0.736 2.397 1.729 5861
-0.737 2.401 1.722 5071
-0.744 2.425 1.728 4597
-0.747 2.436 1.725 4446
-0.755 2.459 1.730 4784
-0.764 2.489 1.740 4480
-0.767 2.500 1.736 4758
-0.784 2.556 1.762 4654
-0.790 2.573 1.763 4949
-0.795 2.591 1.763 5410
-0.798 2.602 1.760 6305
-0.798 2.600 1.748 6787
-0.797 2.598 1.736 7431
-0.799 2.602 1.728 5477
-0.682 2.223 1.482 4565
-0.685 2.233 1.480 5266
-0.686 2.237 1.473 5391
-0.828 2.698 1.745 5975
-0.831 2.710 1.741 6886
-0.835 2.721 1.736 6043
-0.689 2.245 1.442 4843
-0.690 2.248 1.436 4126
-0.877 2.859 1.785 5081
-0.879 2.864 1.777 6169
-0.876 2.855 1.761 7108
-0.873 2.846 1.744 8850
-0.877 2.857 1.740 8143
-0.886 2.889 1.746 8020
-0.890 2.900 1.741 8592
-0.914 2.978 1.774 9663
-0.915 2.982 1.765 12012
-0.921 3.000 1.763 10440
-0.934 3.045 1.776 11547
-0.938 3.056 1.771 11531
-0.935 3.047 1.754 8109
-0.934 3.045 1.741 6923
-0.936 3.049 1.732 10075
-0.941 3.067 1.730 11946
-0.943 3.072 1.721 12511
-0.946 3.083 1.715 13394
-0.950 3.094 1.710 13153
-0.955 3.112 1.707 9488
-0.961 3.130 1.705 7933
-0.968 3.155 1.706 7242
-1.001 3.262 1.748 7006
-0.990 3.225 1.717 6894
-0.995 3.243 1.714 7831
-0.999 3.254 1.708 8510
-1.002 3.266 1.702 6100
-1.058 3.449 1.778 6243
-1.058 3.446 1.764 7377
-1.055 3.437 1.747 8464
-1.056 3.442 1.737 9592
-1.060 3.453 1.730 9009
-1.061 3.457 1.720 6329
-1.084 3.531 1.741 5651
-1.102 3.591 1.756 5748
-1.103 3.595 1.745 6219
-1.105 3.600 1.734 5527
-1.063 3.465 1.661 5885
-1.063 3.462 1.648 6767
-1.060 3.453 1.631 7178
-1.061 3.457 1.621 6008
-1.064 3.468 1.613 3732
-1.065 3.472 1.603 3080
-1.192 3.883 1.765 3741
-1.193 3.887 1.754 6536
-1.196 3.899 1.745 8203
-1.198 3.903 1.733 7475
-1.206 3.929 1.730 6417
-1.211 3.947 1.724 7327
-1.211 3.945 1.709 6468
-1.218 3.970 1.706 6660
-1.222 3.982 1.697 5996
-1.258 4.099 1.729 5345
-1.292 4.210 1.758 4616
-1.289 4.201 1.740 5280
-1.286 4.191 1.722 3608
-1.316 4.288 1.744 3619
-1.317 4.292 1.731 5332
-1.319 4.297 1.718 4521
-1.324 4.315 1.711 3178
-1.341 4.370 1.716 3566
-1.331 4.338 1.690 3937
-1.348 4.393 1.695 3398
-1.358 4.426 1.692 4612
-1.370 4.466 1.691 4872
-1.376 4.484 1.682 6317
-1.413 4.604 1.709 4133
-1.430 4.659 1.712 6185
-1.431 4.663 1.698 7202
-1.430 4.660 1.681 6227
-1.431 4.664 1.667 4508
-1.455 4.741 1.677 3692
-1.458 4.752 1.665 4773
-1.462 4.764 1.653 3388
-1.485 4.840 1.661 2894
-1.493 4.866 1.654 2992
-1.519 4.950 1.664 3007
-1.523 4.962 1.651 3718
-1.551 5.053 1.663 3519
-1.590 5.181 1.685 3772
-1.594 5.193 1.671 3957
-1.595 5.197 1.655 2785
-1.598 5.208 1.642 2593
-1.660 5.410 1.683 2882
-1.661 5.414 1.666 2857
-1.663 5.418 1.650 3143
-1.666 5.430 1.636 2978
-1.737 5.661 1.682 3382
-1.743 5.680 1.669 3791
-1.744 5.684 1.651 4057
-1.746 5.688 1.634 4379
-1.747 5.692 1.617 4628
-1.870 6.093 1.702 4952
-1.871 6.097 1.684 4755
-1.854 6.043 1.651 3200
-1.887 6.150 1.658 2713
-1.893 6.169 1.643 3369
-1.894 6.173 1.624 2317
-1.943 6.332 1.643 1999
-1.992 6.491 1.660 1503
-1.996 6.503 1.642 1442
-2.008 6.544 1.631 2005
-2.032 6.622 1.628 1576
-2.031 6.619 1.606 1850
-2.171 7.075 1.686 2280
-2.168 7.064 1.661 2228
-2.215 7.217 1.671 1506
-2.211 7.206 1.646 1394
-2.267 7.389 1.661 2031
-2.266 7.385 1.637 1780
-2.425 7.902 1.718 1357
-2.426 7.907 1.694 1696
-2.569 8.372 1.760 1636
-2.573 8.384 1.736 1833
-2.574 8.389 1.711 2023
-2.580 8.408 1.688 1760
-2.584 8.420 1.664 1469
-2.587 8.431 1.640 847
-2.634 8.585 1.640 689
-2.640 8.604 1.617 543
-2.660 8.668 1.601 420
-2.762 9.001 1.629 385
-2.766 9.012 1.603 345
-0.293 0.954 0.175 284
-0.293 0.954 0.172 382
-0.295 0.962 0.170 462
-0.295 0.962 0.167 503
-0.295 0.962 0.164 503
-0.293 0.954 0.161 511
-0.295 0.962 0.159 497
-0.295 0.962 0.156 453
-0.293 0.955 0.153 346
-0.672 2.208 1.754 5500
-0.673 2.213 1.748 11001
-0.674 2.217 1.741 11001
-0.679 2.234 1.744 9884
-0.683 2.245 1.741 9349
-0.697 2.293 1.766 6792
-0.702 2.310 1.769 7789
-0.704 2.314 1.762 7789
-0.709 2.331 1.764 10022
-0.710 2.336 1.757 12560
-0.714 2.347 1.754 10788
-0.717 2.357 1.752 9196
-0.722 2.374 1.753 7172
-0.729 2.398 1.759 6445
-0.731 2.402 1.752 6383
-0.732 2.407 1.745 6054
-0.730 2.399 1.729 5953
-0.731 2.403 1.722 5160
-0.738 2.427 1.728 4680
-0.741 2.437 1.725 4535
-0.748 2.461 1.730 4865
-0.758 2.491 1.740 4484
-0.761 2.502 1.736 4755
-0.778 2.558 1.762 4660
-0.783 2.575 1.763 4967
-0.789 2.593 1.763 5433
-0.792 2.604 1.760 6331
-0.791 2.602 1.748 6796
-0.791 2.600 1.736 7417
-0.792 2.604 1.728 5460
-0.676 2.224 1.482 4383
-0.680 2.235 1.480 5311
-0.679 2.232 1.469 5357
-0.821 2.701 1.745 5990
-0.825 2.712 1.741 6875
-0.828 2.723 1.736 6018
-0.683 2.246 1.442 4846
-0.684 2.250 1.436 4223
-0.870 2.861 1.785 5134
-0.872 2.866 1.777 6211
-0.869 2.857 1.761 7157
-0.866 2.849 1.744 8913
-0.870 2.860 1.740 8204
-0.879 2.891 1.746 8048
-0.883 2.902 1.741 8596
-0.906 2.980 1.774 9611
-0.908 2.984 1.765 11959
-0.913 3.002 1.763 10368
-0.927 3.047 1.776 11371
-0.930 3.058 1.771 11325
-0.927 3.050 1.754 8094
-0.927 3.047 1.741 7013
-0.928 3.052 1.732 10104
-0.934 3.070 1.730 11821
-0.937 3.081 1.725 12622
-0.938 3.085 1.715 13508
-0.942 3.097 1.710 12794
-0.945 3.108 1.704 9549
-0.953 3.132 1.705 8887
-0.958 3.150 1.702 7920
-0.993 3.264 1.748 6645
-0.982 3.228 1.717 6777
-0.987 3.246 1.714 7551
-0.991 3.257 1.708 8399
-0.994 3.268 1.702 6048
-1.048 3.444 1.775 6182
-1.049 3.449 1.764 7342
-1.046 3.440 1.747 8626
-1.047 3.444 1.737 9819
-1.051 3.456 1.730 8953
-1.052 3.460 1.720 6056
-1.075 3.534 1.741 5193
-1.093 3.594 1.756 5919
-1.094 3.598 1.745 6400
-1.096 3.603 1.734 5673
-1.055 3.468 1.661 6408
-1.052 3.458 1.645 7477
-1.051 3.455 1.631 7424
-1.050 3.452 1.618 5723
-1.156 3.800 1.755 3478
-1.055 3.468 1.600 3319
-1.056 3.472 1.590 4148
-1.183 3.890 1.754 6537
-1.187 3.902 1.745 8032
-1.188 3.906 1.733 7338
-1.194 3.925 1.727 6330
-1.204 3.957 1.727 6530
-1.205 3.962 1.715 5671
-1.208 3.973 1.706 6501
-1.216 3.999 1.702 6303
-1.248 4.103 1.729 5357
-1.279 4.206 1.755 4615
-1.278 4.204 1.740 5335
-1.276 4.194 1.722 3620
-1.305 4.291 1.744 3564
-1.306 4.295 1.731 5299
-1.308 4.300 1.718 4518
-1.313 4.319 1.711 3202
-1.328 4.366 1.713 3548
-1.320 4.342 1.690 4051
-1.337 4.396 1.695 3405
-1.347 4.429 1.692 4697
-1.359 4.469 1.691 5012
-1.365 4.488 1.682 6516
-1.401 4.607 1.709 4137
-1.418 4.662 1.712 6221
-1.419 4.666 1.698 7245
-1.418 4.664 1.681 6300
-1.420 4.668 1.667 4608
-1.443 4.744 1.677 3641
-1.446 4.756 1.665 4726
-1.450 4.767 1.653 3383
-1.473 4.844 1.661 2999
-1.481 4.870 1.654 3052
-1.507 4.954 1.664 2985
-1.510 4.966 1.651 3581
-1.538 5.057 1.663 3577
-1.577 5.185 1.685 3768
-1.580 5.197 1.671 3911
-1.582 5.201 1.655 2782
-1.585 5.212 1.642 2632
-1.646 5.414 1.683 2901
-1.648 5.418 1.666 2891
-1.649 5.422 1.650 3149
-1.653 5.434 1.636 2945
-1.723 5.665 1.682 3506
-1.729 5.684 1.669 3868
-1.730 5.688 1.651 4066
-1.731 5.692 1.634 4455
-1.732 5.697 1.617 4778
-1.854 6.098 1.702 5018
-1.856 6.102 1.684 4894
-1.855 6.099 1.664 3284
-1.872 6.155 1.658 2820
-1.878 6.174 1.643 3467
-1.879 6.178 1.624 2361
-1.927 6.337 1.643 1963
-1.974 6.489 1.658 1426
-2.000 6.575 1.658 1403
-1.994 6.557 1.633 1993
-2.016 6.627 1.628 1792
-2.015 6.624 1.606 1989
-2.153 7.080 1.686 2300
-2.150 7.070 1.661 2220
-2.194 7.215 1.670 1495
-2.247 7.390 1.684 1407
-2.249 7.394 1.661 2041
-2.248 7.391 1.637 1756
-2.405 7.908 1.718 1358
-2.407 7.913 1.694 1681
-2.548 8.379 1.760 1614
-2.552 8.391 1.736 1813
-2.553 8.395 1.711 1999
-2.559 8.414 1.688 1761
-2.563 8.426 1.664 1477
-2.566 8.438 1.640 851
-2.747 9.032 1.718 755
-2.748 9.036 1.690 606
-2.750 9.041 1.663 462
-2.739 9.008 1.629 403
-2.743 9.019 1.603 345
-0.290 0.955 0.175 277
-0.293 0.962 0.173 393
-0.293 0.962 0.170 499
-0.293 0.963 0.167 547
-0.293 0.963 0.164 557
-0.290 0.955 0.161 575
-0.293 0.963 0.159 556
-0.293 0.963 0.156 498
-0.291 0.955 0.153 374
-0.291 0.955 0.150 250
-0.665 2.210 1.754 5448
-0.667 2.215 1.748 10896
-0.668 2.219 1.741 10896
-0.673 2.236 1.744 9791
-0.676 2.247 1.741 9245
-0.693 2.301 1.771 6747
-0.696 2.312 1.769 7776
-0.697 2.316 1.762 7776
-0.702 2.333 1.764 9978
-0.704 2.338 1.757 12471
-0.707 2.349 1.754 10718
-0.710 2.359 1.752 9150
-0.715 2.376 1.753 7105
-0.722 2.400 1.759 6302
-0.724 2.404 1.752 6236
-0.725 2.409 1.745 5890
-0.723 2.401 1.729 5778
-0.724 2.405 1.722 5032
-0.731 2.429 1.728 4642
-0.734 2.440 1.725 4485
-0.742 2.463 1.730 4763
-0.751 2.493 1.740 4385
-0.754 2.504 1.736 4658
-0.771 2.560 1.762 4524
-0.774 2.571 1.759 4805
-0.781 2.595 1.763 5298
-0.785 2.606 1.760 6270
-0.784 2.604 1.748 6703
-0.783 2.602 1.736 7282
-0.787 2.613 1.732 5350
-0.670 2.226 1.482 4063
-0.673 2.236 1.480 5188
-0.810 2.692 1.749 5376
-0.814 2.703 1.745 5946
-0.817 2.714 1.741 6685
-0.820 2.725 1.736 5831
-0.677 2.248 1.442 4711
-0.678 2.252 1.436 4102
-0.862 2.864 1.785 5043
-0.864 2.868 1.777 6157
-0.861 2.860 1.761 7111
-0.858 2.851 1.744 8810
-0.862 2.862 1.740 8118
-0.871 2.893 1.746 8005
-0.874 2.904 1.741 8615
-0.898 2.982 1.774 9484
-0.899 2.987 1.765 11795
-0.905 3.005 1.763 10251
-0.918 3.050 1.776 10946
-0.922 3.061 1.771 10853
-0.919 3.052 1.754 7788
-0.918 3.050 1.741 6789
-0.919 3.054 1.732 9755
-0.925 3.072 1.730 11404
-0.928 3.084 1.725 12382
-0.932 3.095 1.719 13283
-0.933 3.099 1.710 12321
-0.938 3.117 1.707 9267
-0.944 3.135 1.705 9281
-0.949 3.153 1.702 8467
-0.983 3.267 1.748 6721
-0.972 3.230 1.717 7042
-0.978 3.248 1.714 7661
-0.981 3.260 1.708 8345
-0.985 3.271 1.702 6088
-1.038 3.447 1.775 6056
-1.039 3.452 1.764 7174
-1.034 3.436 1.744 8661
-1.038 3.447 1.737 9782
-1.041 3.458 1.730 8737
-1.042 3.463 1.720 5808
-1.065 3.537 1.741 4535
-1.083 3.597 1.756 5638
-1.084 3.601 1.745 6284
-1.085 3.606 1.734 5738
-1.043 3.464 1.658 6467
-1.042 3.461 1.645 7763
-1.039 3.451 1.628 7296
-1.040 3.455 1.618 5331
-1.147 3.810 1.758 3670
-1.043 3.464 1.597 3556
-1.046 3.475 1.590 4230
-1.172 3.894 1.754 6620
-1.173 3.898 1.742 8356
-1.177 3.910 1.733 7907
-1.185 3.935 1.730 7226
-1.192 3.961 1.727 7270
-1.194 3.965 1.715 6398
-1.199 3.984 1.709 7241
-1.203 3.995 1.699 6570
-1.236 4.106 1.729 5239
-1.267 4.210 1.755 4621
-1.267 4.207 1.740 5389
-1.264 4.198 1.722 3663
-1.293 4.295 1.744 3566
-1.292 4.292 1.729 5298
-1.296 4.304 1.718 4476
-1.301 4.322 1.711 3175
-1.315 4.370 1.713 3370
-1.308 4.345 1.690 3833
-1.333 4.428 1.705 3324
-1.334 4.433 1.692 4657
-1.347 4.473 1.691 4957
-1.352 4.492 1.682 6490
-1.388 4.611 1.709 4134
-1.405 4.666 1.712 6121
-1.406 4.670 1.698 7157
-1.405 4.668 1.681 6152
-1.406 4.672 1.667 4422
-1.429 4.748 1.677 3704
-1.433 4.760 1.665 4807
-1.436 4.771 1.653 3349
-1.460 4.848 1.661 2926
-1.467 4.874 1.654 2976
-1.493 4.958 1.664 2927
-1.496 4.970 1.651 3634
-1.524 5.061 1.663 3526
-1.525 5.066 1.647 3669
-1.566 5.201 1.671 3807
-1.565 5.198 1.653 2729
-1.571 5.217 1.642 2592
-1.631 5.418 1.683 2887
-1.632 5.423 1.666 2919
-1.634 5.427 1.650 3206
-1.637 5.438 1.636 2945
-1.705 5.663 1.680 3256
-1.713 5.689 1.669 3550
-1.714 5.693 1.651 4029
-1.715 5.697 1.634 4333
-1.716 5.701 1.617 4446
-1.837 6.103 1.702 4924
-1.839 6.107 1.684 4780
-1.838 6.104 1.664 3257
-1.854 6.160 1.658 2749
-1.860 6.179 1.643 3435
-1.861 6.183 1.624 2362
-1.909 6.343 1.643 2022
-1.955 6.495 1.658 1378
-1.981 6.580 1.658 1368
-1.973 6.555 1.631 1980
-1.997 6.633 1.628 1686
-1.996 6.630 1.606 1918
-2.133 7.086 1.686 2192
-2.130 7.076 1.661 2138
-2.176 7.229 1.671 1492
-2.173 7.218 1.646 1371
-2.228 7.401 1.661 2043
-2.227 7.397 1.637 1773
-2.307 7.662 1.667 1267
-2.384 7.920 1.694 1572
-2.525 8.386 1.760 1636
-2.528 8.398 1.736 1790
-2.529 8.402 1.711 1941
-2.533 8.414 1.687 1606
-2.541 8.441 1.665 1311
-2.542 8.445 1.640 751
-2.589 8.599 1.640 743
-2.594 8.618 1.617 594
-2.611 8.674 1.600 454
-2.725 9.053 1.635 509
-2.720 9.034 1.604 384
-0.288 0.956 0.175 283
-0.290 0.963 0.173 397
-0.290 0.963 0.170 503
-0.290 0.963 0.167 551
-0.290 0.963 0.164 565
-0.288 0.956 0.161 593
-0.290 0.964 0.159 582
-0.290 0.964 0.156 516
-0.288 0.956 0.153 383
-0.288 0.956 0.150 254
-0.660 2.212 1.754 5745
-0.661 2.216 1.748 11491
-0.662 2.221 1.741 11491
-0.666 2.231 1.739 10158
-0.669 2.242 1.737 9448
-0.687 2.303 1.771 7167
-0.692 2.320 1.773 8665
-0.693 2.324 1.766 8665
-0.697 2.335 1.764 10982
-0.698 2.340 1.757 13507
-0.699 2.344 1.750 11805
-0.702 2.355 1.747 10337
-0.706 2.366 1.744 7942
-0.713 2.389 1.751 5923
-0.716 2.400 1.748 5545
-0.717 2.404 1.741 5071
-0.717 2.403 1.729 4994
-0.722 2.420 1.731 4698
-0.725 2.431 1.728 5027
-0.728 2.441 1.725 4722
-0.735 2.465 1.730 4795
-0.742 2.489 1.735 4586
-0.748 2.506 1.736 4821
-0.762 2.556 1.758 4366
-0.764 2.560 1.750 4650
-0.773 2.591 1.759 4849
-0.778 2.608 1.760 5903
-0.777 2.606 1.748 6274
-0.777 2.604 1.736 6821
-0.778 2.609 1.728 5082
-0.803 2.691 1.769 4469
-0.804 2.696 1.761 5296
-0.806 2.700 1.753 6124
-0.807 2.705 1.745 6296
-0.808 2.709 1.737 6467
-0.812 2.720 1.732 5483
-0.671 2.250 1.442 4488
-0.672 2.254 1.436 3973
-0.855 2.866 1.785 4478
-0.854 2.864 1.773 6252
-0.854 2.862 1.761 7330
-0.851 2.853 1.744 8858
-0.856 2.871 1.743 8286
-0.864 2.895 1.746 8359
-0.867 2.907 1.741 9195
-0.870 2.918 1.736 9248
-0.892 2.989 1.765 10889
-0.897 3.007 1.763 9729
-0.910 3.052 1.776 8575
-0.916 3.070 1.774 8399
-0.921 3.088 1.772 6178
-0.910 3.052 1.741 4959
-0.912 3.057 1.732 7550
-0.917 3.075 1.730 9589
-0.925 3.099 1.732 11593
-0.926 3.104 1.722 12176
-0.927 3.108 1.713 10552
-0.933 3.126 1.711 9647
-0.936 3.138 1.705 11798
-0.939 3.149 1.699 11144
-0.943 3.160 1.693 7799
-0.975 3.267 1.734 6975
-0.974 3.265 1.721 7404
-0.975 3.269 1.711 7977
-0.979 3.280 1.705 5952
-1.027 3.443 1.771 5164
-1.018 3.413 1.745 7497
-1.022 3.425 1.738 9672
-1.029 3.450 1.737 9848
-1.032 3.461 1.730 8359
-1.044 3.500 1.736 5577
-1.054 3.532 1.738 4606
-1.074 3.599 1.756 5205
-1.075 3.604 1.745 5846
-1.074 3.601 1.731 5552
-1.034 3.466 1.658 5937
-1.031 3.457 1.642 7295
-1.030 3.454 1.628 6217
-1.134 3.801 1.767 5360
-1.137 3.813 1.758 6089
-1.139 3.817 1.747 5567
-1.138 3.815 1.733 5240
-1.164 3.904 1.757 8561
-1.164 3.901 1.742 11407
-1.165 3.906 1.730 9599
-1.173 3.931 1.727 6929
-1.180 3.957 1.724 6598
-1.180 3.954 1.709 5349
-1.189 3.987 1.709 6055
-1.199 4.020 1.708 6383
-1.226 4.109 1.729 4779
-1.255 4.206 1.753 4564
-1.252 4.196 1.735 6265
-1.253 4.201 1.722 4676
-1.280 4.291 1.742 3826
-1.281 4.295 1.729 5624
-1.285 4.307 1.718 4405
-1.288 4.318 1.708 2957
-1.287 4.316 1.692 2897
-1.297 4.349 1.690 2880
-1.322 4.432 1.705 2681
-1.325 4.443 1.694 3875
-1.337 4.484 1.693 4621
-1.341 4.495 1.682 6921
-1.340 4.492 1.666 4807
-1.389 4.655 1.707 5388
-1.392 4.667 1.695 6300
-1.393 4.671 1.681 5183
-1.395 4.675 1.667 3422
-1.420 4.759 1.679 4349
-1.421 4.764 1.665 5602
-1.422 4.768 1.650 3526
-1.454 4.874 1.668 2558
-1.459 4.892 1.658 2887
-1.480 4.962 1.664 3292
-1.484 4.974 1.651 4551
-1.511 5.065 1.663 2919
-1.514 5.077 1.650 3259
-1.553 5.205 1.671 3245
-1.552 5.202 1.653 2324
-1.614 5.411 1.697 2374
-1.618 5.422 1.683 2834
-1.619 5.427 1.666 3043
-1.620 5.431 1.650 3523
-1.626 5.450 1.638 3153
-1.660 5.564 1.652 3299
-1.661 5.568 1.635 3208
-1.697 5.690 1.649 3700
-1.701 5.702 1.634 3823
-1.698 5.691 1.613 3724
-1.824 6.115 1.704 4006
-1.823 6.112 1.684 3618
-1.807 6.057 1.651 3221
-1.839 6.165 1.658 2904
-1.842 6.176 1.641 3584
-1.848 6.195 1.626 2546
-1.896 6.355 1.644 2018
-1.968 6.596 1.681 1435
-1.944 6.519 1.642 1309
-1.957 6.560 1.631 2026
-1.980 6.638 1.628 2022
-1.979 6.635 1.606 2253
-1.978 6.631 1.585 2006
-2.112 7.081 1.661 1584
-2.156 7.227 1.670 1593
-2.150 7.208 1.643 1800
-2.154 7.220 1.623 1871
-2.286 7.664 1.691 1821
-2.285 7.660 1.666 1325
-2.502 8.388 1.786 1500
-2.503 8.392 1.760 1680
-2.509 8.412 1.738 1810
-2.511 8.416 1.712 1776
-2.692 9.026 1.799 1557
-2.696 9.038 1.773 1278
-2.695 9.035 1.744 1018
-2.574 8.628 1.644 883
-2.575 8.632 1.618 735
-2.594 8.696 1.602 650
-2.698 9.044 1.633 545
-2.699 9.049 1.606 457
-0.285 0.956 0.172 301
-0.288 0.964 0.170 378
-0.288 0.964 0.167 416
-0.288 0.964 0.164 422
-0.285 0.957 0.161 451
-0.288 0.964 0.159 453
-0.288 0.964 0.156 400
-0.285 0.957 0.153 294
-0.656 2.213 1.754 5572
-0.658 2.217 1.748 11145
-0.659 2.222 1.741 11145
-0.662 2.232 1.739 9780
-0.665 2.243 1.737 8952
-0.683 2.304 1.771 7028
-0.688 2.321 1.773 8697
-0.690 2.325 1.766 8697
-0.693 2.336 1.764 10998
-0.694 2.341 1.757 13452
-0.696 2.345 1.750 12012
-0.699 2.356 1.747 10841
-0.702 2.367 1.744 8505
-0.703 2.371 1.737 6323
-0.710 2.395 1.743 5183
-0.713 2.406 1.741 4581
-0.711 2.397 1.725 4598
-0.720 2.427 1.735 4498
-0.723 2.438 1.732 5186
-0.726 2.449 1.729 4824
-0.733 2.473 1.734 4762
-0.739 2.490 1.735 4670
-0.742 2.501 1.732 4865
-0.756 2.550 1.754 4024
-0.760 2.561 1.750 4375
-0.769 2.592 1.759 4256
-0.774 2.609 1.760 5395
-0.773 2.607 1.748 5760
-0.773 2.605 1.736 6300
-0.772 2.603 1.724 5019
-0.799 2.693 1.769 4968
-0.800 2.697 1.761 5722
-0.803 2.708 1.757 6488
-0.803 2.706 1.745 6283
-0.835 2.816 1.800 6469
-0.839 2.827 1.795 5326
-0.842 2.838 1.791 4440
-0.818 2.757 1.732 4198
-0.848 2.861 1.782 4083
-0.850 2.865 1.773 6279
-0.849 2.863 1.761 7323
-0.849 2.861 1.748 8683
-0.852 2.872 1.743 8219
-0.859 2.897 1.746 8181
-0.862 2.908 1.741 9068
-0.866 2.919 1.736 8817
-0.889 2.997 1.768 9619
-0.892 3.009 1.763 8942
-0.896 3.020 1.758 7020
-0.913 3.078 1.778 6241
-0.918 3.096 1.776 5061
-0.924 3.114 1.774 4458
-0.929 3.133 1.772 5627
-0.924 3.117 1.752 8162
-0.920 3.101 1.732 10581
-0.921 3.105 1.722 10917
-0.922 3.110 1.713 9011
-0.928 3.128 1.711 9296
-0.931 3.139 1.705 12318
-0.934 3.150 1.699 12055
-0.936 3.155 1.689 8977
-0.967 3.262 1.731 6625
-0.969 3.266 1.721 6902
-0.970 3.271 1.711 7111
-1.008 3.399 1.762 5405
-1.011 3.410 1.755 5394
-1.013 3.415 1.745 7516
-1.016 3.426 1.738 9591
-1.024 3.451 1.737 9266
-1.027 3.463 1.730 7737
-1.041 3.509 1.739 5325
-1.048 3.534 1.738 4416
-1.068 3.601 1.756 4203
-1.071 3.613 1.748 4865
-1.065 3.589 1.725 4786
-1.064 3.587 1.711 5099
-1.088 3.668 1.734 6363
-1.124 3.791 1.775 5207
-1.128 3.803 1.767 6662
-1.131 3.814 1.758 7729
-1.133 3.819 1.747 7372
-1.132 3.816 1.733 6935
-1.156 3.898 1.754 9291
-1.155 3.896 1.739 13105
-1.159 3.907 1.730 11320
-1.164 3.926 1.724 8490
-1.170 3.944 1.718 6466
-1.199 4.041 1.743 3690
-1.196 4.031 1.726 4811
-1.193 4.021 1.708 5651
-1.192 4.019 1.693 4293
-1.246 4.201 1.750 4403
-1.245 4.198 1.735 6679
-1.246 4.203 1.722 5364
-1.273 4.293 1.742 3940
-1.275 4.297 1.729 5578
-1.276 4.302 1.716 4404
-1.275 4.299 1.700 2999
-1.000 3.372 1.348 3583
-1.001 3.375 1.338 3985
-1.002 3.378 1.328 3994
-1.003 3.382 1.318 3200
-1.333 4.493 1.696 4439
-1.334 4.497 1.682 7099
-1.333 4.494 1.666 5234
-1.377 4.643 1.702 4548
-1.383 4.662 1.693 5138
-1.386 4.673 1.681 4124
-1.400 4.721 1.682 3359
-1.414 4.769 1.682 4658
-1.416 4.773 1.667 5884
-1.417 4.777 1.653 3679
-1.446 4.876 1.668 2445
-1.452 4.895 1.658 3200
-1.472 4.964 1.664 3595
-1.476 4.976 1.651 4803
-1.473 4.966 1.632 3021
-1.509 5.086 1.652 2580
-1.542 5.200 1.669 2802
-1.531 5.161 1.640 2650
-1.532 5.165 1.625 3115
-1.609 5.425 1.683 2501
-1.610 5.429 1.666 2898
-1.612 5.434 1.650 3512
-1.617 5.452 1.638 3165
-1.651 5.567 1.652 3946
-1.652 5.571 1.635 3994
-1.654 5.575 1.618 3442
-1.687 5.690 1.630 3241
-1.665 5.613 1.592 3473
-1.681 5.668 1.588 3628
-1.811 6.107 1.682 2474
-1.800 6.067 1.652 2807
-1.829 6.168 1.658 2817
-1.833 6.179 1.641 3522
-1.841 6.206 1.628 2571
-1.855 6.254 1.620 2332
-1.962 6.614 1.685 1625
-1.963 6.618 1.665 1370
-1.944 6.555 1.629 1988
-1.970 6.641 1.628 2522
-1.971 6.645 1.608 2803
-1.970 6.642 1.586 2220
-2.136 7.203 1.687 1308
-2.142 7.222 1.668 1716
-2.141 7.219 1.645 2167
-2.142 7.223 1.623 2145
-2.274 7.667 1.691 1918
-2.278 7.679 1.669 1410
-2.489 8.392 1.786 1538
-2.479 8.359 1.753 1804
-2.430 8.192 1.695 1886
-2.500 8.427 1.714 1614
-2.678 9.030 1.799 1589
-2.682 9.042 1.773 1447
-2.683 9.046 1.745 1268
-2.567 8.654 1.648 1107
-2.584 8.711 1.631 911
-2.583 8.707 1.603 871
-2.582 8.704 1.576 620
-2.685 9.053 1.606 493
-0.286 0.965 0.167 259
-0.286 0.965 0.164 266
-0.284 0.957 0.161 301
-0.286 0.965 0.159 311
-0.286 0.965 0.156 273
-0.646 2.216 1.754 4907
-0.648 2.220 1.748 9815
-0.649 2.225 1.741 9815
-0.652 2.235 1.739 8309
-0.655 2.246 1.737 7207
-0.676 2.319 1.780 6525
-0.678 2.324 1.773 7735
-0.679 2.328 1.766 7735
-0.682 2.339 1.764 9864
-0.684 2.344 1.757 12035
-0.687 2.355 1.754 11489
-0.688 2.359 1.747 11194
-0.689 2.364 1.740 9413
-0.692 2.374 1.737 7775
-0.694 2.379 1.730 5976
-0.701 2.402 1.736 4717
-0.722 2.477 1.777 4935
-0.720 2.469 1.761 4728
-0.716 2.454 1.740 5506
-0.717 2.459 1.733 5371
-0.720 2.470 1.730 5300
-0.725 2.487 1.731 5086
-0.730 2.504 1.732 5146
-0.730 2.502 1.720 4085
-0.746 2.558 1.746 3987
-0.751 2.576 1.747 3568
-0.760 2.606 1.756 4688
-0.760 2.604 1.744 5220
-0.759 2.602 1.732 6025
-0.760 2.607 1.724 6149
-0.762 2.611 1.716 6273
-0.790 2.707 1.765 5875
-0.791 2.712 1.757 6685
-0.792 2.716 1.749 5882
-0.822 2.820 1.800 6530
-0.826 2.831 1.795 5399
-0.804 2.756 1.740 5147
-0.807 2.767 1.736 5861
-0.810 2.778 1.731 4675
-0.837 2.869 1.773 6403
-0.838 2.874 1.764 7368
-0.837 2.872 1.752 8452
-0.837 2.869 1.740 7748
-0.846 2.901 1.746 7008
-0.849 2.912 1.741 7878
-0.852 2.923 1.736 7205
-0.877 3.008 1.772 7800
-0.879 3.013 1.763 8043
-0.878 3.010 1.750 7633
-0.875 3.001 1.734 7916
-0.877 3.006 1.725 7000
-0.878 3.010 1.716 4332
-0.913 3.130 1.768 4754
-0.916 3.141 1.762 6934
-0.915 3.139 1.749 8239
-0.907 3.109 1.722 7880
-0.908 3.114 1.713 6781
-0.913 3.132 1.711 8647
-0.917 3.143 1.705 11941
-0.920 3.154 1.699 11986
-0.921 3.159 1.689 9731
-0.921 3.156 1.677 7431
-0.988 3.387 1.779 7108
-0.993 3.406 1.775 7571
-0.997 3.417 1.768 6620
-0.998 3.422 1.758 5721
-0.997 3.419 1.745 6393
-0.999 3.424 1.734 8090
-1.008 3.456 1.737 7456
-1.013 3.474 1.733 6546
-1.029 3.527 1.745 4785
-1.034 3.546 1.741 4625
-1.033 3.543 1.727 4129
-1.035 3.548 1.717 4956
-1.038 3.559 1.709 5873
-1.072 3.675 1.748 6448
-1.073 3.680 1.737 8428
-1.077 3.691 1.729 6821
-1.111 3.808 1.767 7611
-1.114 3.820 1.758 8821
-1.115 3.824 1.747 8668
-1.115 3.822 1.733 8730
-1.138 3.904 1.754 9219
-1.138 3.901 1.739 13454
-1.139 3.905 1.727 12300
-1.144 3.924 1.721 7624
-1.150 3.943 1.715 4524
-1.151 3.947 1.703 3511
-1.152 3.951 1.692 5057
-1.150 3.942 1.674 6168
-1.153 3.953 1.665 4945
-1.227 4.207 1.750 3969
-1.226 4.204 1.735 6712
-1.227 4.208 1.722 6174
-1.247 4.277 1.734 3949
-1.255 4.303 1.729 5215
-1.256 4.307 1.716 4379
-1.253 4.297 1.698 3321
-1.257 4.309 1.687 3283
-1.260 4.320 1.677 3119
-0.985 3.376 1.325 3513
-0.985 3.379 1.315 4516
-0.989 3.390 1.307 4303
-1.313 4.503 1.682 6766
-1.310 4.493 1.664 5128
-1.337 4.584 1.680 4323
-1.345 4.610 1.673 5504
-1.354 4.643 1.669 3732
-1.377 4.720 1.679 3198
-1.395 4.782 1.684 4597
-1.394 4.779 1.667 5898
-1.395 4.784 1.653 4060
-1.405 4.817 1.648 2558
-1.429 4.901 1.658 3855
-1.452 4.978 1.666 3839
-1.453 4.983 1.651 4211
-1.454 4.987 1.636 3150
-1.511 5.181 1.678 2543
-1.514 5.192 1.665 2919
-1.509 5.175 1.642 3426
-1.508 5.172 1.625 4231
-1.509 5.176 1.609 2580
-1.583 5.429 1.664 2627
-1.589 5.448 1.652 3139
-1.590 5.452 1.636 2841
-1.628 5.581 1.654 4154
-1.627 5.578 1.635 4113
-1.628 5.583 1.618 3723
-1.679 5.756 1.646 3766
-1.637 5.613 1.590 4248
-1.653 5.669 1.586 3765
-1.657 5.680 1.571 2555
-1.729 5.928 1.615 2379
-1.741 5.969 1.607 2569
-1.744 5.980 1.590 2447
-1.825 6.258 1.639 2280
-1.826 6.262 1.620 3227
-1.825 6.259 1.599 2075
-1.915 6.567 1.651 1399
-1.912 6.557 1.628 1990
-1.939 6.650 1.628 2240
-1.941 6.654 1.608 2665
-1.942 6.658 1.588 1983
-2.101 7.206 1.685 1777
-2.105 7.217 1.665 2245
-2.106 7.222 1.643 2835
-2.107 7.226 1.621 2556
-2.206 7.565 1.668 1865
-2.253 7.726 1.676 1869
-2.255 7.731 1.653 1755
-2.439 8.363 1.751 1909
-2.397 8.218 1.698 1972
-2.636 9.037 1.826 1672
-2.635 9.034 1.797 1631
-2.523 8.650 1.699 1505
-2.526 8.661 1.674 1744
-2.529 8.673 1.649 1387
-2.544 8.722 1.631 1124
-2.545 8.727 1.605 1077
-2.544 8.723 1.577 743
-2.644 9.065 1.606 554
-0.641 2.217 1.754 4113
-0.643 2.222 1.748 8226
-0.644 2.226 1.741 8226
-0.647 2.237 1.739 6769
-0.665 2.297 1.773 5956
-0.669 2.314 1.775 5822
-0.673 2.325 1.773 6471
-0.674 2.330 1.766 6471
-0.677 2.341 1.764 8310
-0.678 2.345 1.757 10168
-0.682 2.356 1.754 10316
-0.683 2.361 1.747 10578
-0.684 2.365 1.740 9260
-0.687 2.376 1.737 8118
-0.690 2.387 1.735 6311
-0.695 2.404 1.736 4796
-0.717 2.479 1.777 5256
-0.715 2.470 1.761 5089
-0.710 2.456 1.740 5801
-0.712 2.460 1.733 5850
-0.713 2.465 1.726 5899
-0.720 2.488 1.731 5256
-0.723 2.499 1.728 5143
-0.726 2.510 1.725 3884
-0.741 2.560 1.746 3892
-0.746 2.577 1.747 3573
-0.754 2.608 1.756 4244
-0.752 2.599 1.740 5011
-0.753 2.604 1.732 6035
-0.755 2.608 1.724 6874
-0.756 2.613 1.716 7714
-0.759 2.624 1.713 5906
-0.787 2.720 1.761 6238
-0.786 2.718 1.749 5383
-0.816 2.821 1.800 6060
-0.819 2.833 1.795 4934
-0.800 2.765 1.744 5401
-0.801 2.769 1.736 6412
-0.804 2.780 1.731 5116
-0.830 2.871 1.773 5987
-0.832 2.876 1.764 6992
-0.831 2.873 1.752 8063
-0.831 2.871 1.740 7180
-0.840 2.903 1.746 5936
-0.845 2.920 1.745 6726
-0.846 2.925 1.736 5885
-0.873 3.017 1.776 6996
-0.872 3.015 1.763 7363
-0.869 3.006 1.747 7948
-0.869 3.003 1.734 8599
-0.870 3.008 1.725 7656
-0.873 3.019 1.720 4639
-0.908 3.139 1.772 3787
-0.909 3.143 1.762 5759
-0.909 3.141 1.749 7169
-0.894 3.091 1.712 6530
-0.895 3.095 1.703 5735
-0.907 3.134 1.711 7845
-0.910 3.145 1.705 11190
-0.913 3.156 1.699 11456
-0.914 3.161 1.689 9578
-0.914 3.158 1.677 7560
-0.980 3.389 1.779 6879
-0.986 3.408 1.775 7843
-0.989 3.419 1.768 7165
-0.990 3.424 1.758 5910
-0.990 3.421 1.745 5644
-0.993 3.433 1.738 6785
-1.002 3.465 1.740 6376
-1.006 3.477 1.733 5795
-1.027 3.550 1.755 4558
-1.028 3.555 1.744 5005
-1.028 3.553 1.731 4888
-1.029 3.557 1.720 5705
-1.030 3.561 1.709 6281
-1.062 3.671 1.745 7431
-1.065 3.682 1.737 9185
-1.068 3.694 1.729 7729
-1.102 3.810 1.767 7051
-1.106 3.822 1.758 8032
-1.105 3.820 1.744 8234
-1.106 3.824 1.733 8748
-1.128 3.899 1.751 8171
-1.129 3.904 1.739 12219
-1.130 3.908 1.727 11513
-1.136 3.927 1.721 6996
-1.143 3.952 1.718 4834
-1.147 3.964 1.709 4095
-1.193 4.124 1.759 4357
-1.190 4.115 1.741 4245
-1.167 4.034 1.696 3539
-1.218 4.209 1.750 3655
-1.217 4.207 1.735 6234
-1.218 4.211 1.722 6100
-1.223 4.230 1.715 4003
-1.243 4.299 1.726 4717
-1.245 4.303 1.713 4160
-1.236 4.272 1.687 3279
-0.975 3.371 1.345 3890
-0.976 3.375 1.335 5408
-0.977 3.378 1.325 6327
-0.978 3.381 1.315 6131
-0.979 3.385 1.305 4740
-1.303 4.506 1.682 5870
-1.307 4.518 1.671 4671
-1.323 4.573 1.675 4680
-1.336 4.620 1.676 5408
-1.348 4.661 1.674 3800
-1.366 4.723 1.679 3025
-1.384 4.785 1.684 4178
-1.383 4.782 1.667 5299
-1.387 4.794 1.655 3945
-1.392 4.813 1.645 2995
-1.417 4.897 1.656 4091
-1.443 4.989 1.668 3623
-1.444 4.993 1.653 3681
-1.448 5.005 1.640 3201
-1.493 5.162 1.671 2638
-1.503 5.196 1.665 2818
-1.498 5.178 1.642 3490
-1.497 5.175 1.625 4286
-1.500 5.186 1.611 2569
-1.571 5.433 1.664 2275
-1.575 5.444 1.650 2628
-1.612 5.573 1.668 2619
-1.616 5.585 1.654 3926
-1.617 5.589 1.637 3743
-1.614 5.579 1.616 3695
-1.664 5.752 1.644 3995
-1.665 5.757 1.627 4315
-1.641 5.672 1.586 3680
-1.644 5.684 1.571 2667
-1.716 5.932 1.615 2356
-1.726 5.965 1.605 2669
-1.731 5.984 1.590 2714
-1.814 6.270 1.640 2202
-1.813 6.266 1.620 3256
-1.812 6.263 1.599 2162
-1.901 6.572 1.651 1400
-1.900 6.568 1.629 1885
-1.925 6.654 1.628 1831
-1.926 6.658 1.608 2266
-1.929 6.670 1.589 2049
-2.083 7.203 1.684 1967
-2.089 7.222 1.665 2479
-2.090 7.226 1.643 3038
-2.091 7.230 1.621 2598
-2.224 7.690 1.692 1704
-2.236 7.731 1.676 1964
-2.238 7.736 1.653 1889
-2.421 8.368 1.751 1658
-2.387 8.253 1.703 1991
-2.616 9.043 1.826 1568
-2.615 9.040 1.797 1524
-2.506 8.663 1.701 1444
-2.507 8.667 1.674 1748
-2.510 8.679 1.649 1456
-2.624 9.073 1.690 1195
-2.526 8.732 1.605 1095
-2.525 8.729 1.577 766
-2.626 9.078 1.607 563
-2.629 9.090 1.581 250
-0.634 2.219 1.754 3207
-0.636 2.224 1.748 6414
-0.637 2.228 1.741 6414
-0.658 2.301 1.785 5725
-0.657 2.299 1.773 5774
-0.660 2.310 1.771 5102
-0.665 2.327 1.773 4876
-0.667 2.332 1.766 4876
-0.670 2.343 1.764 6361
-0.673 2.354 1.761 8020
-0.674 2.358 1.754 9061
-0.675 2.363 1.747 10103
-0.679 2.374 1.744 9406
-0.680 2.378 1.737 8883
-0.683 2.389 1.735 7140
-0.688 2.406 1.736 5306
-0.709 2.481 1.777 5955
-0.707 2.473 1.761 5815
-0.703 2.458 1.740 6470
-0.704 2.462 1.733 6897
-0.705 2.467 1.726 7325
-0.710 2.484 1.727 5914
-0.715 2.502 1.728 5509
-0.720 2.519 1.729 3916
-0.734 2.569 1.750 4263
-0.737 2.580 1.747 4180
-0.742 2.597 1.747 4356
-0.742 2.595 1.736 5658
-0.743 2.600 1.728 6966
-0.744 2.604 1.720 8403
-0.748 2.615 1.716 9926
-0.749 2.620 1.709 7622
-0.780 2.729 1.765 5627
-0.804 2.813 1.804 5063
-0.805 2.817 1.796 5538
-0.807 2.822 1.787 4404
-0.791 2.767 1.744 5884
-0.792 2.772 1.736 7158
-0.795 2.783 1.731 5733
-0.821 2.874 1.773 5572
-0.823 2.878 1.764 6777
-0.824 2.883 1.756 7981
-0.825 2.887 1.747 6685
-0.834 2.919 1.754 5838
-0.838 2.930 1.749 7041
-0.866 3.028 1.792 5900
-0.865 3.026 1.780 6741
-0.864 3.024 1.767 6733
-0.860 3.008 1.747 8156
-0.859 3.006 1.734 9117
-0.863 3.017 1.729 8207
-0.866 3.029 1.723 5325
-0.875 3.060 1.729 3725
-0.876 3.065 1.720 4768
-0.875 3.062 1.707 5983
-0.879 3.073 1.701 6475
-0.882 3.085 1.696 5341
-0.899 3.144 1.714 6871
-0.902 3.155 1.708 9783
-0.903 3.159 1.699 9855
-0.904 3.164 1.689 8046
-0.904 3.161 1.677 6280
-0.944 3.303 1.735 7007
-0.947 3.314 1.728 8403
-0.978 3.422 1.768 7596
-0.980 3.427 1.758 6542
-0.987 3.452 1.758 5605
-0.988 3.457 1.747 5492
-0.993 3.475 1.744 5553
-0.995 3.480 1.733 4953
-1.018 3.561 1.758 4399
-1.019 3.565 1.748 5359
-1.020 3.570 1.737 5809
-1.020 3.567 1.723 6677
-1.021 3.572 1.712 6684
-1.050 3.674 1.745 7717
-1.054 3.686 1.737 9534
-1.055 3.690 1.726 8573
-1.056 3.694 1.715 8033
-1.059 3.706 1.707 7042
-1.093 3.823 1.744 7327
-1.094 3.827 1.733 8434
-1.099 3.846 1.727 7660
-1.117 3.907 1.739 10364
-1.118 3.912 1.727 10423
-1.125 3.937 1.724 6750
-1.131 3.956 1.718 6386
-1.134 3.967 1.709 7463
-1.133 3.965 1.694 7067
-1.131 3.955 1.677 4915
-1.179 4.123 1.729 3845
-1.180 4.127 1.717 4003
-1.204 4.210 1.735 5687
-1.205 4.215 1.722 5960
-1.190 4.162 1.688 4381
-1.193 4.173 1.678 4973
-1.225 4.285 1.705 4068
-1.220 4.268 1.684 3382
-0.965 3.374 1.345 3609
-1.237 4.327 1.677 4024
-1.238 4.331 1.664 4105
-1.241 4.343 1.653 3610
-1.286 4.499 1.693 3259
-1.289 4.510 1.682 4400
-1.301 4.551 1.681 4579
-1.306 4.569 1.673 5323
-1.324 4.632 1.678 5665
-1.334 4.665 1.674 4438
-1.349 4.720 1.677 2602
-1.369 4.790 1.684 3515
-1.368 4.787 1.667 4325
-1.372 4.798 1.655 3504
-1.379 4.824 1.648 3246
-1.401 4.902 1.656 4298
-1.404 4.913 1.643 3510
-1.435 5.020 1.660 3867
-1.440 5.038 1.649 3914
-1.475 5.160 1.669 2511
-1.487 5.200 1.665 2565
-1.484 5.190 1.645 3533
-1.481 5.180 1.625 4095
-1.507 5.272 1.634 2608
-1.529 5.349 1.639 2459
-1.524 5.332 1.617 1975
-1.595 5.578 1.668 2709
-1.598 5.590 1.654 3503
-1.599 5.594 1.637 3129
-1.596 5.584 1.616 3524
-1.644 5.750 1.642 3974
-1.645 5.754 1.625 4341
-1.602 5.603 1.567 3325
-1.628 5.696 1.573 2596
-1.742 6.092 1.654 2763
-1.707 5.971 1.605 2588
-1.712 5.990 1.590 2790
-1.766 6.179 1.617 2211
-1.795 6.280 1.622 2935
-1.788 6.254 1.596 2093
-1.880 6.578 1.651 1411
-1.879 6.574 1.629 1678
-1.904 6.660 1.628 1775
-1.907 6.672 1.610 1992
-1.911 6.683 1.591 2012
-2.061 7.209 1.684 2134
-2.066 7.228 1.665 2739
-2.068 7.233 1.643 3187
-2.069 7.237 1.621 2489
-2.147 7.510 1.654 1755
-2.334 8.164 1.762 1931
-2.337 8.176 1.738 1651
-2.360 8.256 1.728 1380
-2.363 8.268 1.705 2035
-2.365 8.272 1.680 1553
-2.349 8.216 1.644 1410
-2.479 8.670 1.701 1439
-2.482 8.682 1.676 1671
-2.595 9.077 1.718 1542
-2.596 9.081 1.690 1387
-2.498 8.740 1.605 1044
-2.598 9.090 1.635 814
-2.595 9.079 1.606 613
-2.601 9.098 1.581 273
-0.629 2.221 1.754 2604
-0.631 2.225 1.748 5209
-0.655 2.310 1.801 6121
-0.654 2.309 1.789 5629
-0.654 2.307 1.778 5534
-0.655 2.312 1.771 4633
-0.662 2.335 1.778 3926
-0.663 2.340 1.771 3926
-0.666 2.351 1.768 5252
-0.669 2.361 1.766 6785
-0.671 2.366 1.759 8071
-0.670 2.364 1.747 9468
-0.673 2.375 1.744 9169
-0.676 2.386 1.742 8983
-0.678 2.390 1.735 7368
-0.683 2.408 1.736 5476
-0.704 2.482 1.777 6163
-0.698 2.461 1.752 6095
-0.697 2.459 1.740 6673
-0.698 2.464 1.733 7312
-0.700 2.468 1.726 7952
-0.703 2.479 1.723 6181
-0.711 2.510 1.732 5543
-0.716 2.527 1.733 3946
-0.729 2.570 1.750 4612
-0.732 2.581 1.747 4651
-0.733 2.586 1.739 4790
-0.734 2.590 1.731 6190
-0.736 2.595 1.724 7590
-0.739 2.606 1.720 9127
-0.740 2.610 1.712 10799
-0.743 2.621 1.709 8275
-0.746 2.632 1.705 5832
-0.796 2.808 1.800 4749
-0.799 2.819 1.796 5068
-0.778 2.744 1.740 4114
-0.785 2.769 1.744 5934
-0.786 2.773 1.736 7288
-0.787 2.778 1.727 5868
-0.815 2.875 1.773 4804
-0.816 2.880 1.764 6145
-0.818 2.885 1.756 7487
-0.821 2.896 1.751 6336
-0.834 2.940 1.765 6702
-0.833 2.938 1.753 7655
-0.834 2.943 1.744 6404
-0.858 3.028 1.780 6558
-0.858 3.026 1.767 6271
-0.853 3.010 1.747 7896
-0.853 3.008 1.734 8996
-0.856 3.019 1.729 8151
-0.861 3.037 1.727 5707
-0.868 3.062 1.729 4494
-0.867 3.060 1.716 5167
-0.867 3.057 1.703 5934
-0.870 3.069 1.698 6370
-0.873 3.080 1.692 5194
-0.894 3.152 1.718 6428
-0.895 3.157 1.708 9009
-0.896 3.161 1.699 8891
-0.897 3.166 1.689 7123
-0.955 3.369 1.779 6055
-0.937 3.305 1.735 7376
-0.940 3.317 1.728 9153
-0.971 3.425 1.768 7446
-0.974 3.436 1.762 6803
-0.979 3.454 1.758 5915
-0.984 3.473 1.754 5389
-0.986 3.477 1.744 5320
-0.987 3.482 1.733 4639
-1.010 3.563 1.758 4351
-1.013 3.574 1.751 5419
-1.013 3.572 1.737 6167
-1.012 3.569 1.723 7025
-1.013 3.574 1.712 6584
-1.040 3.669 1.742 7432
-1.043 3.681 1.734 8819
-1.043 3.678 1.720 8391
-1.046 3.690 1.712 8164
-1.051 3.708 1.707 7254
-1.082 3.818 1.741 6567
-1.086 3.830 1.733 7966
-1.091 3.848 1.727 7716
-1.108 3.909 1.739 9179
-1.110 3.914 1.727 9097
-1.117 3.940 1.724 5458
-1.122 3.958 1.718 5854
-1.123 3.963 1.706 7318
-1.127 3.974 1.697 6713
-1.172 4.135 1.747 4561
-1.170 4.126 1.729 4106
-1.169 4.123 1.714 4443
-1.192 4.206 1.732 5145
-1.194 4.210 1.719 5759
-1.181 4.165 1.688 4826
-1.184 4.176 1.678 5136
-1.216 4.288 1.705 3866
-1.213 4.278 1.687 3236
-1.226 4.326 1.690 3366
-1.225 4.323 1.674 4214
-1.229 4.334 1.664 4575
-1.232 4.346 1.653 3984
-1.249 4.408 1.661 3288
-1.281 4.520 1.685 3269
-1.293 4.561 1.684 4488
-1.294 4.565 1.670 5458
-1.316 4.642 1.681 6214
-1.321 4.661 1.672 4956
-1.318 4.650 1.653 2662
-1.363 4.807 1.689 3079
-1.358 4.790 1.667 3521
-1.361 4.801 1.655 3016
-1.368 4.827 1.648 3109
-1.388 4.897 1.654 4135
-1.394 4.916 1.643 3411
-1.424 5.023 1.660 4020
-1.440 5.078 1.660 4492
-1.445 5.097 1.650 2933
-1.475 5.204 1.665 2259
-1.472 5.193 1.645 3362
-1.469 5.183 1.625 3804
-1.495 5.275 1.634 2995
-1.490 5.257 1.612 2611
-1.512 5.335 1.617 2228
-1.582 5.582 1.668 2638
-1.584 5.586 1.652 3159
-1.585 5.590 1.635 2662
-1.584 5.587 1.616 3205
-1.629 5.746 1.640 3899
-1.630 5.751 1.623 4350
-1.627 5.740 1.602 3456
-1.725 6.084 1.671 2788
-1.728 6.096 1.654 3200
-1.694 5.974 1.605 2415
-1.699 5.993 1.590 2607
-1.755 6.190 1.619 2693
-1.762 6.217 1.606 2656
-1.770 6.243 1.592 2075
-1.767 6.232 1.570 1440
-1.865 6.578 1.629 1586
-1.891 6.672 1.630 1468
-1.897 6.691 1.613 1920
-1.896 6.688 1.591 1722
-2.045 7.214 1.684 2070
-2.050 7.233 1.665 2727
-2.052 7.237 1.643 3161
-2.150 7.585 1.692 2380
-2.128 7.507 1.653 1689
-2.316 8.170 1.762 2010
-2.319 8.182 1.738 1674
-2.340 8.253 1.727 1442
-2.345 8.273 1.705 1935
-2.351 8.292 1.683 1462
-2.331 8.221 1.644 1278
-2.459 8.676 1.701 1462
-2.463 8.688 1.676 1520
-2.575 9.083 1.718 1599
-2.576 9.087 1.690 1467
-2.577 9.091 1.663 1014
-2.578 9.096 1.635 858
-2.575 9.085 1.606 633
-2.579 9.096 1.579 281
-0.637 2.272 1.791 2388
-0.645 2.301 1.803 5051
-0.648 2.312 1.801 6618
-0.647 2.311 1.789 5882
-0.647 2.309 1.778 5380
-0.648 2.314 1.771 4360
-0.655 2.337 1.778 3371
-0.656 2.342 1.771 3371
-0.661 2.359 1.773 4735
-0.664 2.370 1.770 6403
-0.663 2.368 1.759 7647
-0.663 2.366 1.747 9057
-0.666 2.377 1.744 9246
-0.669 2.388 1.742 9641
-0.672 2.399 1.739 8163
-0.681 2.429 1.749 6180
-0.694 2.478 1.772 6797
-0.688 2.457 1.748 6806
-0.690 2.462 1.740 7099
-0.691 2.466 1.733 8052
-0.692 2.471 1.726 9006
-0.695 2.481 1.723 6828
-0.704 2.512 1.732 5949
-0.710 2.536 1.737 4557
-0.721 2.573 1.750 5608
-0.722 2.577 1.743 5913
-0.723 2.582 1.735 6218
-0.725 2.586 1.727 7781
-0.726 2.591 1.720 9344
-0.729 2.602 1.716 10733
-0.732 2.613 1.712 12381
-0.733 2.617 1.705 9254
-0.736 2.628 1.701 6325
-0.738 2.632 1.693 5281
-0.791 2.822 1.796 4532
-0.770 2.747 1.740 4353
-0.776 2.771 1.744 6095
-0.778 2.776 1.736 7546
-0.779 2.780 1.727 6176
-0.780 2.785 1.719 4807
-0.809 2.889 1.768 5832
-0.811 2.894 1.760 7534
-0.816 2.912 1.759 7086
-0.823 2.936 1.761 9176
-0.826 2.948 1.756 10296
-0.827 2.952 1.747 8789
-0.826 2.950 1.735 7325
-0.845 3.015 1.759 5806
-0.844 3.013 1.747 7270
-0.845 3.017 1.738 8685
-0.849 3.029 1.732 7965
-0.854 3.047 1.731 6767
-0.857 3.058 1.725 5937
-0.856 3.056 1.712 6043
-0.857 3.060 1.703 6234
-0.860 3.071 1.698 6429
-0.896 3.199 1.752 6135
-0.899 3.210 1.746 8443
-0.897 3.201 1.729 7525
-0.886 3.164 1.699 6501
-0.888 3.168 1.689 4774
-0.920 3.283 1.734 6563
-0.923 3.294 1.728 8529
-0.930 3.319 1.728 10644
-0.933 3.331 1.722 8666
-0.964 3.439 1.762 7464
-0.969 3.457 1.758 6763
-0.976 3.483 1.757 5784
-0.979 3.494 1.750 5815
-0.978 3.492 1.736 4776
-1.001 3.573 1.761 4703
-1.002 3.577 1.751 5649
-1.004 3.582 1.740 6548
-1.005 3.586 1.729 7550
-1.004 3.584 1.715 6486
-1.027 3.665 1.739 7571
-1.030 3.677 1.731 8349
-1.031 3.681 1.720 8527
-1.035 3.693 1.712 8777
-1.040 3.711 1.707 7637
-1.045 3.730 1.702 6151
-1.074 3.833 1.733 7730
-1.077 3.845 1.724 8272
-1.096 3.913 1.739 7926
-1.100 3.924 1.730 8408
-1.105 3.943 1.724 5663
-1.108 3.955 1.715 5797
-1.111 3.966 1.706 7340
-1.114 3.978 1.697 6708
-1.160 4.139 1.747 4070
-1.153 4.115 1.724 4906
-1.156 4.126 1.714 5333
-1.175 4.195 1.726 4431
-1.179 4.207 1.716 5768
-1.168 4.168 1.688 5237
-1.169 4.173 1.675 5025
-1.204 4.299 1.708 3452
