-0.946 7.685 1.455 1475
-0.947 7.696 1.434 2131
-0.991 8.056 1.471 2097
-1.024 8.324 1.491 1968
-1.026 8.336 1.467 3014
-1.027 8.347 1.444 2892
-1.067 8.669 1.469 1663
-1.142 9.279 1.535 2378
-1.141 9.276 1.507 2355
-1.140 9.264 1.478 2076
-1.140 9.268 1.451 2456
-1.142 9.279 1.425 2885
-1.142 9.283 1.397 2668
-1.145 9.302 1.372 2556
-1.145 9.306 1.345 1834
-1.145 9.309 1.318 833
-1.148 9.328 1.293 794
-1.148 9.331 1.265 651
-1.147 9.319 1.236 261
-0.631 5.124 -0.143 264
-0.630 5.121 -0.203 299
-0.631 5.127 -0.219 280
-0.631 5.126 -0.233 263
-0.615 4.998 -0.429 287
-0.267 2.221 1.703 4791
-0.267 2.226 1.697 9583
-0.268 2.230 1.691 9583
-0.268 2.235 1.684 8295
-0.268 2.233 1.673 7026
-0.269 2.244 1.671 5307
-0.275 2.287 1.692 3679
-0.275 2.291 1.685 3679
-0.276 2.302 1.683 6966
-0.278 2.313 1.681 10488
-0.278 2.318 1.674 12400
-0.279 2.322 1.668 14311
-0.280 2.333 1.666 12105
-0.281 2.344 1.663 10165
-0.282 2.349 1.656 7649
-0.282 2.346 1.645 5288
-0.282 2.351 1.639 5112
-0.285 2.375 1.645 5925
-0.287 2.393 1.646 7171
-0.289 2.404 1.644 6513
-0.290 2.415 1.641 5895
-0.303 2.525 1.702 5094
-0.306 2.550 1.707 5846
-0.305 2.541 1.691 6408
-0.305 2.539 1.680 7312
-0.305 2.543 1.672 9031
-0.305 2.541 1.661 10836
-0.306 2.552 1.658 9991
-0.309 2.570 1.659 9449
-0.310 2.581 1.655 8630
-0.310 2.586 1.648 7998
-0.313 2.604 1.648 7123
-0.314 2.615 1.645 6647
-0.316 2.633 1.645 4832
-0.322 2.685 1.665 5971
-0.324 2.696 1.662 7253
-0.324 2.700 1.654 7373
-0.325 2.705 1.646 6664
-0.325 2.709 1.638 6857
-0.327 2.720 1.634 7098
-0.327 2.725 1.626 7713
-0.329 2.743 1.626 6778
-0.337 2.809 1.652 5002
-0.342 2.848 1.663 5099
-0.345 2.873 1.666 5618
-0.346 2.878 1.658 5899
-0.346 2.882 1.650 6180
-0.347 2.886 1.641 6063
-0.358 2.981 1.681 5182
-0.359 2.993 1.676 4444
-0.360 2.997 1.667 6129
-0.363 3.022 1.669 7272
-0.365 3.041 1.668 7981
-0.367 3.052 1.662 7328
-0.370 3.085 1.668 10508
-0.371 3.089 1.659 14505
-0.372 3.101 1.654 15122
-0.372 3.098 1.641 11047
-0.370 3.081 1.622 7871
-0.371 3.093 1.616 7124
-0.380 3.161 1.638 8228
-0.379 3.158 1.626 9743
-0.381 3.176 1.623 7020
-0.386 3.216 1.631 7108
-0.387 3.221 1.622 6328
-0.387 3.225 1.612 5553
-0.392 3.265 1.619 4782
-0.404 3.362 1.653 5299
-0.405 3.374 1.646 10289
-0.406 3.385 1.639 12485
-0.407 3.390 1.630 10620
-0.408 3.401 1.623 6366
-0.407 3.391 1.607 4044
-0.409 3.410 1.603 3109
-0.433 3.609 1.678 2633
-0.429 3.570 1.649 3564
-0.430 3.581 1.642 5051
-0.431 3.593 1.634 5162
-0.431 3.590 1.621 6130
-0.432 3.602 1.613 6147
-0.436 3.635 1.615 3610
-0.449 3.741 1.646 3523
-0.451 3.753 1.638 4357
-0.456 3.794 1.642 5611
-0.455 3.791 1.628 5224
-0.472 3.927 1.669 6611
-0.471 3.924 1.655 7926
-0.470 3.914 1.638 6154
-0.470 3.910 1.624 5250
-0.475 3.952 1.626 6251
-0.477 3.971 1.621 5582
-0.480 3.997 1.617 3487
-0.488 4.060 1.628 2860
-0.488 4.064 1.616 4887
-0.489 4.069 1.604 5864
-0.488 4.066 1.590 3827
-0.501 4.173 1.615 5630
-0.502 4.178 1.603 7083
-0.492 4.100 1.562 6671
-0.504 4.201 1.584 4469
-0.505 4.205 1.571 3645
-0.507 4.224 1.564 3554
-0.519 4.325 1.585 4854
-0.515 4.292 1.560 5912
-0.516 4.296 1.547 5805
-0.531 4.420 1.574 5144
-0.531 4.424 1.561 6430
-0.533 4.435 1.551 6106
-0.533 4.440 1.538 3885
-0.545 4.541 1.556 3337
-0.547 4.553 1.545 2930
-0.550 4.579 1.539 3639
-0.550 4.583 1.526 3884
-0.553 4.602 1.517 2631
-0.564 4.697 1.530 2816
-0.564 4.693 1.515 3138
-0.566 4.712 1.505 2655
-0.583 4.852 1.531 3542
-0.583 4.856 1.517 3196
-0.597 4.974 1.535 2362
-0.591 4.925 1.506 3339
-0.593 4.936 1.494 3777
-0.609 5.069 1.515 3061
-0.607 5.058 1.496 2778
-0.640 5.328 1.552 3365
-0.643 5.354 1.543 3234
-0.648 5.397 1.537 3267
-0.650 5.416 1.525 3584
-0.652 5.427 1.512 3524
-0.650 5.416 1.492 3609
-0.645 5.374 1.465 3996
-0.642 5.348 1.442 4457
-0.687 5.718 1.515 2846
-0.686 5.714 1.497 4218
-0.688 5.734 1.484 4224
-0.690 5.745 1.469 3684
-0.714 5.948 1.498 3548
-0.717 5.967 1.484 3734
-0.723 6.017 1.477 4163
-0.720 5.998 1.454 2749
-0.749 6.240 1.489 2470
-0.751 6.252 1.472 2528
-0.768 6.394 1.483 1686
-0.765 6.375 1.460 2014
-0.765 6.371 1.440 2086
-0.804 6.698 1.487 1690
-0.808 6.725 1.472 2389
-0.823 6.852 1.477 2554
-0.824 6.864 1.458 2410
-0.862 7.177 1.497 2108
-0.863 7.188 1.477 2176
-0.863 7.184 1.455 2205
-0.863 7.188 1.434 2095
-0.865 7.200 1.414 2074
-0.920 7.660 1.474 2086
-0.923 7.687 1.455 1889
-0.924 7.699 1.434 2456
-0.926 7.710 1.413 2182
-0.968 8.063 1.447 1998
-1.001 8.339 1.467 3019
-1.003 8.350 1.444 2875
-1.061 8.836 1.494 1662
-1.116 9.290 1.537 2667
-1.114 9.279 1.507 2487
-1.114 9.275 1.479 1839
-1.115 9.287 1.453 2069
-1.116 9.290 1.426 2529
-1.117 9.302 1.400 2518
-1.118 9.313 1.373 2725
-1.119 9.317 1.346 2034
-1.119 9.320 1.319 948
-1.121 9.339 1.294 886
-1.121 9.335 1.265 707
-1.120 9.330 1.237 259
-0.613 5.106 -0.068 279
-0.613 5.105 -0.083 373
-0.612 5.097 -0.097 346
-0.611 5.088 -0.112 331
-0.602 5.014 -0.167 252
-0.614 5.114 -0.217 279
-0.615 5.120 -0.233 329
-0.616 5.127 -0.248 285
-0.617 5.142 -0.265 251
-0.593 4.941 -0.306 261
-0.598 4.979 -0.325 352
-0.588 4.899 -0.331 380
-0.588 4.898 -0.346 508
-0.588 4.896 -0.360 474
-0.591 4.918 -0.377 471
-0.590 4.917 -0.391 471
-0.591 4.923 -0.406 377
-0.624 5.195 -0.452 306
-0.263 2.222 1.703 4279
-0.264 2.226 1.697 8559
-0.265 2.231 1.691 8559
-0.265 2.235 1.684 7528
-0.265 2.233 1.673 6521
-0.266 2.244 1.671 4980
-0.267 2.255 1.669 3543
-0.272 2.292 1.685 3506
-0.273 2.303 1.683 6525
-0.274 2.314 1.681 9703
-0.275 2.318 1.674 11739
-0.275 2.323 1.668 13776
-0.277 2.334 1.666 11688
-0.279 2.351 1.668 9927
-0.278 2.342 1.652 7182
-0.278 2.340 1.641 4747
-0.287 2.424 1.686 4676
-0.282 2.375 1.645 5693
-0.284 2.393 1.646 7012
-0.285 2.404 1.644 6317
-0.286 2.408 1.637 5641
-0.300 2.526 1.702 5152
-0.302 2.550 1.707 5691
-0.301 2.542 1.691 6206
-0.301 2.539 1.680 7087
-0.301 2.537 1.668 8989
-0.301 2.542 1.661 10998
-0.303 2.553 1.658 10015
-0.304 2.564 1.655 9330
-0.305 2.575 1.651 8040
-0.307 2.586 1.648 6941
-0.309 2.604 1.648 6074
-0.310 2.615 1.645 5656
-0.312 2.633 1.645 4254
-0.318 2.678 1.661 6371
-0.319 2.690 1.658 8001
-0.320 2.701 1.654 7794
-0.321 2.705 1.646 6810
-0.321 2.709 1.638 6922
-0.323 2.721 1.634 7172
-0.324 2.732 1.630 7519
-0.325 2.743 1.626 6402
-0.331 2.789 1.641 5050
-0.336 2.835 1.656 4420
-0.341 2.874 1.666 4696
-0.341 2.878 1.658 5216
-0.343 2.889 1.653 5742
-0.342 2.887 1.641 5794
-0.354 2.982 1.681 4843
-0.349 2.944 1.650 4218
-0.356 3.005 1.671 5271
-0.359 3.023 1.669 6387
-0.362 3.048 1.671 6981
-0.362 3.053 1.662 6777
-0.365 3.078 1.664 10339
-0.366 3.090 1.659 14662
-0.368 3.101 1.654 14985
-0.367 3.099 1.641 10798
-0.365 3.082 1.622 7664
-0.367 3.093 1.616 7063
-0.374 3.154 1.635 8311
-0.373 3.144 1.619 10206
-0.373 3.148 1.610 7396
-0.382 3.217 1.631 6693
-0.382 3.221 1.622 6368
-0.383 3.225 1.612 5909
-0.388 3.273 1.623 4844
-0.397 3.348 1.646 5648
-0.400 3.374 1.646 10024
-0.402 3.386 1.639 11766
-0.402 3.390 1.630 9639
-0.403 3.402 1.623 5431
-0.423 3.564 1.683 3939
-0.427 3.598 1.685 3097
-0.428 3.609 1.678 2893
-0.410 3.455 1.599 3620
-0.412 3.473 1.595 4349
-0.426 3.594 1.634 4394
-0.426 3.591 1.621 5707
-0.427 3.602 1.613 5972
-0.441 3.716 1.648 3779
-0.442 3.727 1.640 3802
-0.444 3.746 1.635 4735
-0.450 3.794 1.642 5792
-0.450 3.791 1.628 5017
-0.465 3.920 1.666 6294
-0.465 3.917 1.652 8353
-0.464 3.914 1.638 7101
-0.464 3.911 1.624 6025
-0.468 3.945 1.624 6379
-0.470 3.964 1.618 5142
-0.473 3.990 1.615 2987
-0.477 4.024 1.614 2537
-0.480 4.050 1.610 4715
-0.481 4.055 1.599 5690
-0.480 4.051 1.584 4248
-0.494 4.167 1.612 5295
-0.494 4.164 1.598 6846
-0.486 4.101 1.562 6594
-0.497 4.194 1.581 4483
-0.499 4.206 1.571 3686
-0.503 4.240 1.569 3775
-0.503 4.244 1.557 4797
-0.507 4.278 1.555 5917
-0.509 4.289 1.545 5740
-0.524 4.421 1.574 4709
-0.525 4.425 1.561 6594
-0.526 4.436 1.551 7045
-0.526 4.433 1.536 4981
-0.527 4.444 1.525 3156
-0.542 4.568 1.550 2620
-0.544 4.588 1.541 3224
-0.545 4.592 1.528 3624
-0.546 4.603 1.517 2824
-0.557 4.698 1.530 2804
-0.556 4.687 1.512 3516
-0.558 4.706 1.503 2817
-0.576 4.853 1.531 3716
-0.576 4.857 1.517 3444
-0.578 4.876 1.507 2463
-0.584 4.926 1.506 3181
-0.585 4.929 1.491 3816
-0.588 4.956 1.483 3274
-0.600 5.059 1.496 2670
-0.635 5.351 1.558 3752
-0.636 5.363 1.545 3900
-0.639 5.390 1.535 3940
-0.641 5.402 1.521 4608
-0.641 5.406 1.506 4163
-0.642 5.409 1.490 3801
-0.638 5.383 1.467 4421
-0.634 5.348 1.442 4246
-0.677 5.711 1.513 2926
-0.678 5.715 1.497 4244
-0.680 5.735 1.484 4006
-0.682 5.754 1.470 3661
-0.706 5.949 1.498 3276
-0.711 5.991 1.489 3725
-0.714 6.018 1.477 4892
-0.712 6.007 1.456 3067
-0.741 6.249 1.490 2365
-0.742 6.260 1.474 2597
-0.743 6.264 1.456 1676
-0.757 6.384 1.462 2006
-0.756 6.372 1.440 2014
-0.795 6.707 1.488 1867
-0.798 6.726 1.472 2784
-0.797 6.722 1.451 2344
-0.813 6.857 1.457 2171
-0.851 7.178 1.497 2061
-0.853 7.190 1.477 2094
-0.865 7.294 1.475 2088
-0.888 7.491 1.489 2481
-0.890 7.503 1.468 2226
-0.909 7.662 1.474 2447
-0.908 7.658 1.450 2292
-0.913 7.700 1.434 2617
-0.915 7.712 1.413 2301
-0.956 8.065 1.447 1991
-0.989 8.340 1.467 2839
-0.990 8.352 1.444 2697
-1.048 8.837 1.494 1701
-1.102 9.292 1.537 2676
-1.102 9.288 1.508 2461
-1.101 9.284 1.480 1672
-1.103 9.304 1.455 1843
-1.105 9.315 1.429 2390
-1.105 9.319 1.402 2480
-1.105 9.315 1.373 2746
-1.105 9.318 1.346 2063
-1.108 9.345 1.322 974
-1.108 9.341 1.294 865
-1.108 9.344 1.266 673
-0.601 5.064 0.081 299
-0.601 5.063 0.067 297
-0.572 4.823 -0.310 262
-0.580 4.891 -0.345 284
-0.579 4.881 -0.358 341
-0.578 4.872 -0.372 402
-0.578 4.871 -0.386 402
-0.585 4.932 -0.407 377
-0.587 4.946 -0.423 442
-0.256 2.223 1.703 3823
-0.257 2.227 1.697 7646
-0.257 2.232 1.691 7646
-0.258 2.236 1.684 6812
-0.258 2.234 1.673 5991
-0.259 2.245 1.671 4649
-0.260 2.256 1.669 3410
-0.261 2.267 1.667 3285
-0.266 2.304 1.683 5875
-0.266 2.308 1.677 8653
-0.267 2.319 1.674 10855
-0.268 2.324 1.668 13117
-0.269 2.335 1.666 11278
-0.272 2.359 1.672 10058
-0.273 2.370 1.670 7337
-0.279 2.420 1.693 5001
-0.279 2.418 1.682 4940
-0.274 2.376 1.645 5862
-0.276 2.394 1.646 7001
-0.277 2.405 1.644 6204
-0.288 2.502 1.696 6110
-0.290 2.520 1.697 5433
-0.294 2.551 1.707 5649
-0.293 2.543 1.691 6119
-0.293 2.540 1.680 6944
-0.293 2.538 1.668 9083
-0.293 2.542 1.661 11223
-0.294 2.554 1.658 10051
-0.296 2.565 1.655 9218
-0.297 2.576 1.651 7337
-0.298 2.587 1.648 5608
-0.300 2.605 1.648 4678
-0.302 2.623 1.649 4349
-0.305 2.648 1.653 4065
-0.309 2.679 1.661 7112
-0.309 2.684 1.654 9131
-0.311 2.695 1.650 8300
-0.312 2.706 1.646 6962
-0.312 2.711 1.638 7038
-0.314 2.722 1.634 7331
-0.315 2.733 1.630 7346
-0.317 2.751 1.630 5930
-0.322 2.797 1.645 5344
-0.324 2.808 1.641 4866
-0.323 2.799 1.625 3854
-0.333 2.886 1.662 4428
-0.333 2.890 1.653 5308
-0.334 2.895 1.645 5481
-0.334 2.899 1.637 4789
-0.338 2.931 1.643 4372
-0.340 2.950 1.642 4888
-0.341 2.961 1.637 5910
-0.341 2.958 1.625 6191
-0.352 3.054 1.662 5973
-0.355 3.080 1.664 10442
-0.356 3.091 1.659 14845
-0.358 3.102 1.654 14776
-0.357 3.100 1.641 10420
-0.370 3.210 1.684 7834
-0.357 3.094 1.616 6872
-0.362 3.141 1.628 8668
-0.363 3.145 1.619 10667
-0.363 3.150 1.610 7893
-0.371 3.218 1.631 6709
-0.371 3.222 1.622 6626
-0.372 3.227 1.612 6503
-0.377 3.274 1.623 5418
-0.385 3.342 1.643 6366
-0.388 3.368 1.643 9714
-0.390 3.380 1.636 11086
-0.391 3.391 1.630 8649
-0.410 3.554 1.690 4717
-0.411 3.566 1.683 4283
-0.415 3.599 1.685 3359
-0.417 3.618 1.681 3302
-0.398 3.456 1.599 3836
-0.401 3.475 1.595 4587
-0.404 3.501 1.594 3836
-0.415 3.599 1.624 5066
-0.425 3.684 1.647 6002
-0.427 3.703 1.642 4971
-0.429 3.721 1.637 4511
-0.433 3.755 1.638 5284
-0.437 3.788 1.639 6481
-0.438 3.800 1.631 4986
-0.451 3.914 1.663 6167
-0.452 3.919 1.652 9049
-0.451 3.916 1.638 8233
-0.452 3.920 1.627 6963
-0.455 3.946 1.624 7071
-0.455 3.951 1.612 4930
-0.451 3.911 1.584 3159
-0.463 4.018 1.611 2408
-0.466 4.045 1.608 4492
-0.467 4.049 1.596 6061
-0.467 4.053 1.584 5182
-0.480 4.168 1.612 4844
-0.480 4.165 1.598 6658
-0.473 4.103 1.562 6425
-0.482 4.181 1.576 5062
-0.484 4.200 1.569 4043
-0.488 4.234 1.567 4147
-0.489 4.246 1.557 5883
-0.491 4.257 1.547 6484
-0.494 4.284 1.542 5428
-0.498 4.318 1.540 3998
-0.510 4.426 1.561 6272
-0.511 4.430 1.549 7891
-0.511 4.435 1.536 6192
-0.513 4.454 1.528 4214
-0.514 4.458 1.515 2657
-0.528 4.582 1.539 2432
-0.530 4.601 1.530 3235
-0.531 4.605 1.517 2988
-0.541 4.692 1.528 2876
-0.540 4.688 1.512 4289
-0.542 4.700 1.501 3179
-0.559 4.847 1.529 3747
-0.560 4.859 1.517 3622
-0.562 4.878 1.507 2754
-0.567 4.920 1.504 2784
-0.568 4.931 1.491 3699
-0.571 4.958 1.483 3664
-0.572 4.962 1.469 2845
-0.618 5.361 1.560 4095
-0.618 5.365 1.545 4391
-0.621 5.392 1.535 4444
-0.621 5.388 1.517 5851
-0.622 5.392 1.502 5529
-0.621 5.389 1.484 4658
-0.621 5.385 1.467 5302
-0.621 5.389 1.451 4495
-0.659 5.714 1.513 3143
-0.659 5.718 1.497 4134
-0.661 5.737 1.484 3574
-0.663 5.756 1.470 3639
-0.684 5.936 1.494 2766
-0.693 6.009 1.493 4280
-0.694 6.021 1.477 5953
-0.694 6.017 1.458 3615
-0.721 6.251 1.490 2051
-0.722 6.263 1.474 2483
-0.723 6.274 1.457 1699
-0.735 6.378 1.460 1807
-0.735 6.374 1.440 1821
-0.750 6.509 1.448 1991
-0.776 6.729 1.472 3103
-0.775 6.725 1.451 2797
-0.787 6.829 1.451 2032
-0.828 7.181 1.497 2064
-0.830 7.200 1.479 2155
-0.862 7.475 1.508 2391
-0.863 7.486 1.487 3305
-0.864 7.498 1.467 3091
-0.883 7.657 1.472 3034
-0.882 7.653 1.449 3027
-0.882 7.649 1.425 2988
-0.882 7.653 1.403 2573
-0.950 8.238 1.475 1901
-0.962 8.343 1.467 2459
-0.962 8.347 1.443 2376
-1.021 8.856 1.497 1787
-1.072 9.303 1.538 2564
-1.071 9.292 1.508 2377
-1.071 9.296 1.481 1523
-1.075 9.331 1.458 1823
-1.076 9.335 1.431 2333
-1.076 9.338 1.404 2539
-1.075 9.326 1.374 2795
-1.075 9.330 1.347 2095
-1.078 9.349 1.322 1039
-1.078 9.352 1.295 897
-1.077 9.348 1.266 658
-0.596 5.173 -0.025 270
-0.597 5.181 -0.041 276
-0.576 4.999 -0.049 296
-0.575 4.991 -0.063 301
-0.600 5.203 -0.087 307
-0.599 5.194 -0.102 315
-0.596 5.170 -0.116 370
-0.594 5.153 -0.130 292
-0.593 5.144 -0.159 265
-0.593 5.143 -0.174 305
-0.594 5.150 -0.190 336
-0.595 5.165 -0.206 387
-0.595 5.163 -0.221 340
-0.596 5.170 -0.236 293
-0.582 5.052 -0.331 265
-0.582 5.051 -0.346 320
-0.582 5.049 -0.361 374
-0.582 5.048 -0.375 314
-0.566 4.913 -0.376 322
-0.566 4.912 -0.390 322
-0.565 4.902 -0.403 288
-0.578 5.018 -0.431 324
-0.250 2.230 1.708 3310
-0.250 2.234 1.702 6621
-0.251 2.239 1.695 6621
-0.251 2.237 1.684 5956
-0.251 2.241 1.678 5369
-0.252 2.246 1.671 4211
-0.253 2.257 1.669 3109
-0.254 2.268 1.667 2997
-0.258 2.305 1.683 4886
-0.259 2.309 1.677 7087
-0.260 2.320 1.674 9259
-0.261 2.331 1.672 11599
-0.263 2.342 1.670 10109
-0.266 2.373 1.681 10074
-0.267 2.377 1.674 7558
-0.271 2.414 1.689 5281
-0.271 2.419 1.682 5244
-0.267 2.384 1.649 5969
-0.269 2.401 1.651 6752
-0.279 2.492 1.699 6012
-0.281 2.503 1.696 6345
-0.283 2.521 1.697 5435
-0.285 2.546 1.703 5420
-0.284 2.537 1.687 5862
-0.284 2.535 1.676 6667
-0.285 2.539 1.668 8755
-0.285 2.543 1.661 10844
-0.286 2.555 1.658 9508
-0.288 2.566 1.655 8599
-0.289 2.577 1.651 6469
-0.290 2.588 1.648 4451
-0.293 2.613 1.652 3471
-0.295 2.631 1.653 3316
-0.298 2.655 1.657 4208
-0.299 2.667 1.654 7679
-0.300 2.678 1.650 9826
-0.301 2.689 1.646 8395
-0.303 2.700 1.642 6872
-0.304 2.711 1.638 6927
-0.305 2.723 1.634 7303
-0.307 2.734 1.630 7020
-0.312 2.780 1.645 5427
-0.314 2.798 1.645 5506
-0.315 2.809 1.641 5236
-0.315 2.813 1.632 4211
-0.323 2.880 1.658 3688
-0.332 2.961 1.690 4894
-0.333 2.972 1.686 4973
-0.326 2.907 1.640 4914
-0.328 2.926 1.639 4980
-0.330 2.944 1.638 5346
-0.331 2.955 1.633 6635
-0.332 2.960 1.625 7005
-0.332 2.964 1.616 6035
-0.345 3.081 1.664 10288
-0.347 3.092 1.659 14543
-0.348 3.104 1.654 14142
-0.348 3.101 1.641 9803
-0.360 3.211 1.684 7904
-0.360 3.209 1.671 6573
-0.351 3.135 1.624 8543
-0.352 3.139 1.615 10433
-0.353 3.151 1.610 7870
-0.360 3.212 1.627 6829
-0.361 3.223 1.622 6658
-0.363 3.235 1.616 6876
-0.368 3.282 1.626 6042
-0.374 3.337 1.639 6875
-0.378 3.370 1.643 9237
-0.379 3.381 1.636 10337
-0.380 3.393 1.630 7712
-0.399 3.555 1.690 4771
-0.400 3.567 1.683 4415
-0.404 3.600 1.685 3405
-0.406 3.619 1.681 3502
-0.388 3.465 1.602 3706
-0.390 3.476 1.595 4496
-0.393 3.502 1.594 3757
-0.413 3.688 1.660 5875
-0.414 3.692 1.650 7043
-0.415 3.704 1.642 5954
-0.417 3.715 1.634 5212
-0.422 3.764 1.641 5664
-0.425 3.790 1.639 7040
-0.426 3.801 1.631 5005
-0.438 3.908 1.661 6014
-0.439 3.913 1.649 9244
-0.438 3.910 1.635 8750
-0.440 3.921 1.627 7247
-0.442 3.940 1.621 7409
-0.441 3.930 1.604 5205
-0.439 3.912 1.584 3715
-0.441 3.931 1.578 2374
-0.453 4.039 1.605 4059
-0.453 4.043 1.593 5927
-0.455 4.054 1.584 5709
-0.459 4.096 1.586 4442
-0.467 4.167 1.598 6283
-0.468 4.171 1.585 6033
-0.469 4.183 1.576 5763
-0.471 4.202 1.569 4504
-0.474 4.228 1.564 4641
-0.475 4.240 1.555 6996
-0.477 4.251 1.545 7459
-0.478 4.263 1.535 5351
-0.487 4.342 1.547 3552
-0.496 4.428 1.561 5605
-0.497 4.432 1.549 7829
-0.497 4.436 1.536 6591
-0.499 4.455 1.528 5047
-0.500 4.459 1.515 3130
-0.501 4.471 1.504 2270
-0.516 4.603 1.530 2890
-0.516 4.607 1.517 3017
-0.525 4.678 1.524 3106
-0.525 4.682 1.510 4802
-0.527 4.701 1.501 3298
-0.543 4.841 1.527 3365
-0.544 4.853 1.515 3296
-0.547 4.880 1.507 2816
-0.551 4.914 1.502 2841
-0.553 4.933 1.491 3344
-0.556 4.960 1.483 3835
-0.556 4.964 1.469 3234
-0.602 5.370 1.562 3870
-0.603 5.375 1.547 4234
-0.604 5.386 1.533 4498
-0.604 5.390 1.517 6257
-0.604 5.387 1.500 6284
-0.604 5.383 1.482 5599
-0.605 5.394 1.468 5581
-0.605 5.398 1.453 4324
-0.641 5.716 1.513 3180
-0.621 5.536 1.453 3869
-0.643 5.739 1.484 2988
-0.645 5.750 1.469 3605
-0.646 5.762 1.454 2591
-0.675 6.019 1.494 4654
-0.675 6.023 1.477 6434
-0.675 6.019 1.458 4012
-0.680 6.069 1.450 1919
-0.703 6.273 1.476 2195
-0.705 6.284 1.459 1759
-0.712 6.350 1.453 1637
-0.731 6.523 1.470 2090
-0.731 6.519 1.449 2430
-0.756 6.739 1.473 3189
-0.754 6.727 1.451 2993
-0.765 6.824 1.449 2238
-0.805 7.183 1.497 2060
-0.808 7.210 1.480 2197
-0.838 7.477 1.508 2939
-0.840 7.489 1.487 3970
-0.841 7.501 1.467 4027
-0.858 7.652 1.471 3474
-0.857 7.648 1.447 3677
-0.857 7.644 1.424 3895
-0.857 7.648 1.401 3655
-0.859 7.659 1.380 2854
-0.924 8.237 1.450 2025
-0.859 7.666 1.336 1951
-0.994 8.867 1.498 1804
-1.043 9.307 1.538 2259
-1.043 9.303 1.509 2085
-1.044 9.315 1.483 1419
-1.046 9.334 1.458 1659
-1.048 9.346 1.432 2222
-1.048 9.349 1.405 2516
-1.047 9.337 1.376 2677
-1.047 9.341 1.348 1965
-1.049 9.352 1.322 989
-1.050 9.363 1.296 833
-1.049 9.359 1.267 587
-0.557 4.965 0.111 275
-0.549 4.894 0.083 253
-0.573 5.114 0.051 297
-0.574 5.122 0.036 376
-0.576 5.137 0.021 355
-0.577 5.145 0.006 355
-0.577 5.144 -0.009 272
-0.563 5.018 -0.020 284
-0.564 5.033 -0.035 254
-0.580 5.174 -0.206 255
-0.568 5.068 -0.258 285
-0.477 4.252 -0.281 328
-0.477 4.251 -0.293 328
-0.476 4.242 -0.304 334
-0.475 4.241 -0.317 349
-0.474 4.224 -0.327 264
-0.244 2.224 1.703 2946
-0.244 2.228 1.697 5892
-0.245 2.233 1.691 5892
-0.245 2.237 1.684 5291
-0.246 2.242 1.678 4690
-0.246 2.246 1.671 3701
-0.247 2.251 1.665 2712
-0.248 2.262 1.663 2615
-0.253 2.305 1.683 3765
-0.253 2.310 1.677 5246
-0.254 2.321 1.674 7314
-0.256 2.332 1.672 9742
-0.260 2.369 1.687 9221
-0.261 2.380 1.685 10542
-0.261 2.384 1.678 8315
-0.262 2.389 1.671 6087
-0.262 2.387 1.660 6072
-0.261 2.384 1.649 6305
-0.271 2.475 1.698 6599
-0.273 2.493 1.699 6322
-0.274 2.504 1.696 6623
-0.276 2.522 1.697 5472
-0.279 2.546 1.703 5196
-0.278 2.537 1.687 5648
-0.278 2.535 1.676 6419
-0.278 2.540 1.668 8271
-0.279 2.544 1.661 10124
-0.279 2.548 1.654 8691
-0.281 2.566 1.655 7637
-0.283 2.578 1.651 5571
-0.283 2.582 1.644 3505
-0.283 2.586 1.636 2561
-0.291 2.659 1.669 2686
-0.292 2.663 1.661 4321
-0.292 2.667 1.654 8186
-0.293 2.672 1.646 10416
-0.294 2.683 1.642 8428
-0.296 2.701 1.642 6676
-0.297 2.712 1.638 6745
-0.299 2.723 1.634 7242
-0.300 2.735 1.630 6620
-0.306 2.787 1.649 5278
-0.307 2.799 1.645 5545
-0.308 2.810 1.641 5506
-0.309 2.821 1.636 4725
-0.315 2.874 1.654 3398
-0.324 2.955 1.687 4388
-0.318 2.897 1.645 4470
-0.320 2.915 1.644 5112
-0.321 2.926 1.639 5766
-0.323 2.945 1.638 6177
-0.324 2.956 1.633 7867
-0.324 2.960 1.625 8297
-0.325 2.965 1.616 6937
-0.338 3.081 1.664 9919
-0.339 3.093 1.659 14014
-0.340 3.104 1.654 13325
-0.341 3.109 1.645 9068
-0.352 3.212 1.684 7704
-0.352 3.210 1.671 6859
-0.344 3.136 1.624 8007
-0.344 3.140 1.615 9745
-0.345 3.152 1.610 7459
-0.352 3.213 1.627 6879
-0.353 3.224 1.622 6650
-0.355 3.236 1.616 7399
-0.360 3.283 1.626 6753
-0.363 3.316 1.630 7450
-0.369 3.363 1.640 8586
-0.371 3.382 1.636 9438
-0.371 3.386 1.626 6921
-0.390 3.556 1.690 4577
-0.390 3.561 1.680 4367
-0.395 3.601 1.685 3204
-0.397 3.620 1.681 3435
-0.397 3.625 1.671 3437
-0.381 3.477 1.595 3896
-0.403 3.677 1.668 4542
-0.404 3.689 1.660 7394
-0.406 3.700 1.653 8101
-0.405 3.698 1.639 6953
-0.407 3.709 1.631 6066
-0.413 3.772 1.644 6301
-0.416 3.791 1.639 7837
-0.417 3.803 1.631 5465
-0.428 3.902 1.658 5859
-0.429 3.914 1.649 9140
-0.428 3.903 1.632 8976
-0.430 3.922 1.627 7137
-0.433 3.949 1.624 7435
-0.430 3.924 1.601 5755
-0.430 3.921 1.587 4113
-0.434 3.962 1.589 2748
-0.442 4.032 1.602 3273
-0.443 4.044 1.593 5126
-0.445 4.063 1.587 5867
-0.448 4.089 1.583 4947
-0.458 4.175 1.600 6025
-0.457 4.172 1.585 6472
-0.458 4.176 1.573 6587
-0.460 4.195 1.566 5108
-0.463 4.222 1.562 5337
-0.465 4.241 1.555 8018
-0.466 4.252 1.545 8072
-0.467 4.256 1.532 5561
-0.477 4.350 1.550 3302
-0.478 4.362 1.539 4807
-0.485 4.426 1.546 7008
-0.488 4.452 1.540 6553
-0.489 4.464 1.530 5872
-0.490 4.468 1.517 3764
-0.490 4.472 1.504 2571
-0.504 4.596 1.528 3337
-0.506 4.615 1.519 3283
-0.511 4.665 1.519 3584
-0.513 4.684 1.510 5137
-0.515 4.695 1.499 3279
-0.525 4.790 1.511 3076
-0.532 4.854 1.515 2556
-0.536 4.889 1.509 2879
-0.540 4.931 1.506 3320
-0.545 4.972 1.502 3130
-0.545 4.969 1.485 3857
-0.563 5.140 1.516 3496
-0.561 5.121 1.495 3730
-0.589 5.376 1.547 3767
-0.590 5.380 1.531 4195
-0.590 5.384 1.516 5798
-0.591 5.388 1.500 6329
-0.589 5.377 1.480 6258
-0.592 5.404 1.470 5535
-0.593 5.407 1.455 3912
-0.607 5.541 1.471 3304
-0.607 5.537 1.453 3976
-0.629 5.740 1.484 2526
-0.631 5.752 1.469 3460
-0.646 5.894 1.484 2701
-0.661 6.028 1.496 4767
-0.660 6.024 1.477 6487
-0.660 6.021 1.458 4221
-0.665 6.071 1.450 2070
-0.667 6.082 1.434 2057
-0.690 6.294 1.461 1822
-0.695 6.344 1.452 1581
-0.714 6.517 1.468 2289
-0.715 6.521 1.449 2749
-0.739 6.741 1.473 3066
-0.737 6.722 1.449 2984
-0.747 6.818 1.448 2391
-0.788 7.193 1.498 2162
-0.791 7.220 1.482 2443
-0.820 7.479 1.508 3483
-0.821 7.491 1.487 4551
-0.822 7.503 1.467 5093
-0.823 7.507 1.445 4683
-0.838 7.642 1.446 4439
-0.837 7.638 1.422 4841
-0.839 7.650 1.401 4891
-0.840 7.661 1.380 4212
-0.839 7.657 1.357 3181
-0.841 7.668 1.336 2953
-0.841 7.672 1.313 2227
-1.020 9.309 1.538 1853
-1.020 9.305 1.509 1736
-1.032 9.418 1.498 1437
-1.023 9.337 1.458 1369
-1.026 9.356 1.433 2019
-1.025 9.352 1.405 2357
-1.024 9.340 1.376 2435
-1.024 9.343 1.348 1731
-1.026 9.363 1.323 870
-1.028 9.374 1.297 724
-1.027 9.369 1.268 474
-0.557 5.084 0.066 269
-0.558 5.092 0.051 262
-0.545 4.973 0.010 295
-0.544 4.965 -0.004 319
-0.543 4.956 -0.018 354
-0.542 4.948 -0.032 254
-0.568 5.182 -0.086 263
-0.477 4.354 -0.100 274
-0.477 4.354 -0.113 335
-0.477 4.353 -0.125 396
-0.476 4.344 -0.138 380
-0.476 4.343 -0.150 366
-0.475 4.335 -0.162 307
-0.476 4.341 -0.188 250
-0.467 4.263 -0.269 327
-0.467 4.261 -0.281 460
-0.467 4.260 -0.294 460
-0.466 4.251 -0.305 463
-0.465 4.242 -0.317 482
-0.464 4.233 -0.328 380
-0.536 4.888 -0.416 472
-0.461 4.207 -0.350 307
-0.239 2.231 1.708 2572
-0.239 2.236 1.702 5144
-0.240 2.240 1.695 5144
-0.239 2.238 1.684 4552
-0.240 2.243 1.678 3971
-0.240 2.241 1.667 3188
-0.237 2.219 1.642 2449
-0.241 2.256 1.659 2290
-0.247 2.306 1.683 2865
-0.247 2.310 1.677 3626
-0.250 2.341 1.688 5708
-0.252 2.358 1.690 8786
-0.254 2.376 1.692 9777
-0.255 2.387 1.689 11454
-0.255 2.385 1.678 9453
-0.256 2.389 1.671 7593
-0.255 2.387 1.660 7551
-0.256 2.392 1.653 6891
-0.265 2.476 1.698 6728
-0.267 2.493 1.699 6427
-0.268 2.505 1.696 6681
-0.270 2.522 1.697 5344
-0.272 2.547 1.703 4880
-0.272 2.545 1.691 5404
-0.271 2.536 1.676 6194
-0.271 2.534 1.664 7766
-0.271 2.538 1.657 9408
-0.273 2.549 1.654 7705
-0.275 2.574 1.659 6479
-0.275 2.571 1.647 4780
-0.275 2.576 1.640 3126
-0.274 2.560 1.620 2793
-0.274 2.564 1.613 2510
-0.285 2.664 1.661 4324
-0.285 2.668 1.654 8352
-0.286 2.673 1.646 10521
-0.286 2.677 1.638 8387
-0.285 2.668 1.623 6484
-0.289 2.706 1.634 6506
-0.291 2.724 1.634 7087
-0.293 2.735 1.630 6175
-0.298 2.788 1.649 5053
-0.299 2.799 1.645 5454
-0.301 2.818 1.644 5728
-0.302 2.829 1.640 5307
-0.304 2.840 1.636 3812
-0.314 2.935 1.676 3983
-0.309 2.891 1.641 4147
-0.311 2.909 1.640 5254
-0.313 2.927 1.639 6286
-0.316 2.952 1.642 6882
-0.317 2.964 1.637 8917
-0.317 2.968 1.628 9505
-0.318 2.972 1.620 7864
-0.330 3.089 1.668 9227
-0.331 3.094 1.659 13002
-0.332 3.105 1.654 12170
-0.333 3.117 1.648 8062
-0.344 3.213 1.684 7359
-0.343 3.210 1.671 7061
-0.342 3.201 1.655 7476
-0.336 3.141 1.615 8645
-0.345 3.231 1.647 7846
-0.344 3.214 1.627 6573
-0.346 3.240 1.628 6522
-0.348 3.251 1.622 7983
-0.351 3.284 1.626 7354
-0.355 3.317 1.630 8251
-0.360 3.364 1.640 8351
-0.362 3.383 1.636 8980
-0.362 3.387 1.626 6530
-0.377 3.521 1.674 4208
-0.375 3.504 1.654 4682
-0.375 3.508 1.644 4007
-0.376 3.513 1.634 3919
-0.375 3.503 1.618 3895
-0.373 3.485 1.598 3539
-0.392 3.664 1.662 6176
-0.395 3.690 1.660 8467
-0.396 3.702 1.653 8826
-0.396 3.699 1.639 7700
-0.395 3.696 1.625 6978
-0.403 3.773 1.644 6962
-0.405 3.792 1.639 8457
-0.407 3.804 1.631 5840
-0.416 3.889 1.652 5970
-0.418 3.908 1.646 8991
-0.418 3.905 1.632 8992
-0.418 3.909 1.621 6954
-0.422 3.950 1.624 7151
-0.419 3.917 1.598 6260
-0.419 3.922 1.587 4146
-0.425 3.970 1.592 2856
-0.427 3.989 1.586 2824
-0.434 4.060 1.599 4200
-0.435 4.072 1.590 5703
-0.437 4.091 1.583 5581
-0.447 4.176 1.600 5978
-0.445 4.166 1.583 6981
-0.445 4.163 1.568 7479
-0.446 4.174 1.559 5904
-0.451 4.215 1.559 5998
-0.454 4.242 1.555 8718
-0.454 4.246 1.542 8318
-0.455 4.258 1.532 5632
-0.465 4.351 1.550 3224
-0.467 4.363 1.539 4222
-0.473 4.427 1.546 5653
-0.477 4.461 1.543 6305
-0.478 4.473 1.532 6351
-0.479 4.477 1.519 4365
-0.492 4.601 1.543 3063
-0.492 4.605 1.530 4259
-0.494 4.617 1.519 3804
-0.499 4.666 1.519 4250
-0.500 4.677 1.508 5338
-0.507 4.742 1.512 3232
-0.512 4.784 1.509 3431
-0.518 4.848 1.513 1978
-0.528 4.936 1.522 3094
-0.527 4.932 1.506 3810
-0.533 4.981 1.504 3296
-0.531 4.970 1.485 3820
-0.550 5.141 1.516 3544
-0.548 5.122 1.495 3585
-0.566 5.294 1.525 3682
-0.566 5.290 1.507 4238
-0.576 5.386 1.516 4988
-0.576 5.382 1.498 5941
-0.575 5.378 1.480 6344
-0.578 5.405 1.470 4974
-0.578 5.409 1.455 3309
-0.594 5.550 1.472 3500
-0.592 5.539 1.453 3817
-0.614 5.742 1.484 2309
-0.615 5.754 1.469 3048
-0.630 5.896 1.484 2763
-0.644 6.022 1.494 4592
-0.644 6.026 1.477 6193
-0.645 6.030 1.459 4259
-0.649 6.072 1.450 2067
-0.651 6.084 1.434 1965
-0.673 6.296 1.461 1809
-0.678 6.338 1.450 1535
-0.696 6.511 1.467 2347
-0.698 6.523 1.449 2812
-0.722 6.751 1.475 2867
-0.719 6.723 1.449 2850
-0.729 6.820 1.448 2184
-0.735 6.878 1.438 2313
-0.736 6.882 1.418 2662
-0.800 7.482 1.508 3842
-0.801 7.493 1.487 4882
-0.803 7.505 1.467 5870
-0.803 7.509 1.445 5693
-0.817 7.644 1.446 5005
-0.817 7.640 1.422 5564
-0.818 7.652 1.401 5932
-0.819 7.663 1.380 5357
-0.819 7.659 1.357 4238
-0.820 7.670 1.336 3833
-0.821 7.674 1.313 2799
-0.819 7.662 1.288 1667
-0.995 9.308 1.509 1404
-1.007 9.421 1.498 1366
-0.985 9.207 1.440 1279
-1.001 9.359 1.433 1765
-1.000 9.355 1.405 2056
-1.000 9.350 1.377 2058
-1.000 9.354 1.349 1449
-1.002 9.373 1.324 759
-1.003 9.384 1.298 613
-1.004 9.388 1.270 374
-0.112 1.043 0.235 252
-0.530 4.952 0.097 253
-0.531 4.968 0.082 286
-0.532 4.976 0.068 286
-0.538 5.030 0.052 314
-0.524 4.896 0.041 317
-0.524 4.896 0.026 265
-0.554 5.185 -0.056 278
-0.554 5.184 -0.071 304
-0.553 5.168 -0.085 336
-0.466 4.356 -0.088 350
-0.466 4.355 -0.100 476
-0.466 4.355 -0.113 563
-0.465 4.346 -0.125 653
-0.465 4.345 -0.138 615
-0.465 4.345 -0.150 577
-0.464 4.336 -0.162 485
-0.464 4.335 -0.175 389
-0.464 4.342 -0.188 393
-0.464 4.341 -0.200 325
-0.464 4.340 -0.213 258
-0.540 5.053 -0.286 260
-0.540 5.051 -0.301 260
-0.456 4.265 -0.257 263
-0.456 4.264 -0.269 427
-0.456 4.263 -0.281 591
-0.456 4.261 -0.294 591
-0.455 4.252 -0.305 576
-0.454 4.243 -0.317 574
-0.453 4.234 -0.328 429
-0.450 4.209 -0.338 315
-0.450 4.208 -0.350 315
-0.233 2.232 1.708 2196
-0.233 2.236 1.702 4392
-0.234 2.241 1.695 4392
-0.233 2.239 1.684 3739
-0.234 2.243 1.678 3131
-0.233 2.235 1.662 2705
-0.232 2.226 1.647 2474
-0.242 2.321 1.703 2429
-0.242 2.326 1.697 2850
-0.242 2.317 1.681 3382
-0.245 2.355 1.697 6034
-0.247 2.366 1.694 9243
-0.248 2.377 1.692 10580
-0.249 2.388 1.689 12425
-0.249 2.392 1.683 10765
-0.249 2.390 1.671 9391
-0.249 2.388 1.660 9332
-0.249 2.392 1.653 7823
-0.258 2.476 1.698 6662
-0.260 2.494 1.699 6360
-0.261 2.505 1.696 6559
-0.263 2.523 1.697 5093
-0.266 2.554 1.707 4455
-0.265 2.539 1.687 5249
-0.264 2.537 1.676 6231
-0.264 2.534 1.664 7249
-0.264 2.532 1.653 8350
-0.265 2.543 1.650 6486
-0.268 2.575 1.659 4778
-0.266 2.552 1.635 4338
-0.266 2.549 1.624 4055
-0.267 2.561 1.620 3947
-0.267 2.565 1.613 3811
-0.278 2.664 1.661 4282
-0.278 2.662 1.650 8371
-0.278 2.666 1.642 10199
-0.278 2.671 1.634 8231
-0.278 2.668 1.623 6473
-0.282 2.707 1.634 6163
-0.283 2.718 1.630 6796
-0.285 2.729 1.626 5687
-0.290 2.782 1.645 4777
-0.292 2.800 1.645 5261
-0.295 2.825 1.648 6031
-0.296 2.837 1.644 5992
-0.296 2.841 1.636 4281
-0.306 2.936 1.676 3672
-0.301 2.891 1.641 3954
-0.303 2.910 1.640 5406
-0.305 2.928 1.639 6773
-0.308 2.953 1.642 7615
-0.309 2.965 1.637 10188
-0.310 2.969 1.628 11169
-0.310 2.973 1.620 9404
-0.322 3.090 1.668 8040
-0.323 3.095 1.659 11300
-0.324 3.106 1.654 10451
-0.325 3.118 1.648 6787
-0.334 3.207 1.681 6923
-0.333 3.197 1.664 7386
-0.335 3.209 1.659 8434
-0.336 3.220 1.653 8959
-0.337 3.232 1.647 8142
-0.338 3.243 1.641 6124
-0.339 3.248 1.632 6914
-0.339 3.252 1.622 8888
-0.342 3.278 1.623 7947
-0.346 3.318 1.630 8987
-0.349 3.351 1.633 8035
-0.354 3.391 1.639 8344
-0.354 3.395 1.630 5978
-0.364 3.493 1.661 4537
-0.365 3.498 1.651 5396
-0.365 3.502 1.641 5084
-0.366 3.507 1.631 5297
-0.366 3.511 1.621 4759
-0.381 3.653 1.669 3918
-0.382 3.665 1.662 7856
-0.383 3.676 1.654 9325
-0.386 3.703 1.653 9214
-0.386 3.700 1.639 8376
-0.385 3.689 1.622 8235
-0.385 3.694 1.612 7636
-0.395 3.793 1.639 8808
-0.397 3.805 1.631 6153
-0.399 3.831 1.629 5984
-0.407 3.909 1.646 8577
-0.407 3.906 1.632 8617
-0.408 3.910 1.621 6936
-0.408 3.914 1.610 6878
-0.408 3.911 1.595 6907
-0.408 3.915 1.584 3867
-0.416 3.993 1.600 3255
-0.418 4.012 1.594 3629
-0.423 4.054 1.596 4090
-0.425 4.080 1.592 5433
-0.427 4.092 1.583 6333
-0.428 4.103 1.574 6331
-0.434 4.160 1.580 7204
-0.433 4.156 1.566 8197
-0.435 4.175 1.559 6357
-0.440 4.217 1.559 6272
-0.442 4.236 1.552 8882
-0.443 4.247 1.542 7838
-0.444 4.259 1.532 5332
-0.443 4.248 1.515 3686
-0.454 4.357 1.537 4028
-0.466 4.473 1.561 4373
-0.467 4.477 1.548 5883
-0.466 4.474 1.532 6409
-0.468 4.485 1.522 5080
-0.480 4.602 1.543 4251
-0.480 4.606 1.530 5250
-0.481 4.618 1.519 4667
-0.487 4.675 1.521 5131
-0.488 4.679 1.508 5424
-0.495 4.751 1.514 3740
-0.498 4.777 1.507 3789
-0.500 4.797 1.497 1956
-0.515 4.937 1.522 3326
-0.515 4.941 1.508 4194
-0.519 4.983 1.504 3493
-0.519 4.979 1.488 3630
-0.536 5.143 1.516 3468
-0.552 5.291 1.540 3831
-0.553 5.303 1.527 4784
-0.552 5.292 1.507 5685
-0.561 5.380 1.514 4047
-0.561 5.384 1.498 5249
-0.560 5.372 1.478 6129
-0.554 5.315 1.448 4784
-0.564 5.410 1.455 2773
-0.579 5.552 1.472 3475
-0.578 5.541 1.453 3384
-0.599 5.744 1.484 2090
-0.600 5.755 1.469 2440
-0.602 5.774 1.455 2687
-0.628 6.024 1.494 3935
-0.628 6.028 1.477 5318
-0.629 6.032 1.459 4035
-0.632 6.066 1.449 2150
-0.634 6.085 1.434 1827
-0.658 6.313 1.464 1725
-0.677 6.494 1.482 1713
-0.678 6.505 1.465 2438
-0.679 6.517 1.448 2755
-0.704 6.752 1.475 2648
-0.700 6.718 1.448 2572
-0.700 6.714 1.427 1876
-0.717 6.880 1.438 2623
-0.718 6.884 1.418 3133
-0.780 7.484 1.508 3943
-0.781 7.495 1.487 4868
-0.783 7.507 1.467 6360
-0.783 7.511 1.445 6538
-0.797 7.647 1.446 5278
-0.797 7.643 1.422 5994
-0.798 7.654 1.401 6727
-0.799 7.665 1.380 6302
-0.799 7.661 1.357 5163
-0.800 7.672 1.336 4518
-0.799 7.668 1.312 3274
-0.800 7.671 1.290 2013
-0.869 8.337 1.365 1503
-0.960 9.206 1.466 1457
-0.960 9.209 1.440 1440
-0.977 9.369 1.434 1482
-0.976 9.365 1.406 1682
-0.975 9.353 1.377 1578
-0.975 9.357 1.349 1140
-0.985 9.446 1.333 690
-0.985 9.449 1.305 546
-0.985 9.453 1.278 351
-0.526 5.048 0.111 275
-0.518 4.969 0.097 256
-0.518 4.969 0.082 260
-0.519 4.977 0.068 276
-0.518 4.969 0.054 271
-0.516 4.953 0.039 274
-0.538 5.164 -0.010 301
-0.538 5.156 -0.025 370
-0.537 5.155 -0.040 294
-0.456 4.375 -0.038 284
-0.456 4.375 -0.050 372
-0.456 4.374 -0.063 372
-0.458 4.397 -0.077 383
-0.455 4.365 -0.088 558
-0.454 4.357 -0.100 767
-0.454 4.356 -0.113 867
-0.453 4.347 -0.125 968
-0.453 4.347 -0.138 892
-0.452 4.338 -0.150 818
-0.452 4.337 -0.162 690
-0.452 4.336 -0.175 557
-0.453 4.343 -0.188 562
-0.453 4.342 -0.200 463
-0.453 4.341 -0.213 365
-0.452 4.332 -0.225 267
-0.446 4.274 -0.257 329
-0.445 4.265 -0.269 536
-0.445 4.264 -0.281 742
-0.444 4.263 -0.294 742
-0.443 4.253 -0.305 714
-0.443 4.252 -0.318 700
-0.442 4.243 -0.329 489
-0.439 4.210 -0.338 323
-0.439 4.209 -0.350 323
-0.217 2.136 1.639 2039
-0.217 2.141 1.633 4078
-0.218 2.145 1.627 4078
-0.228 2.246 1.689 2908
-0.228 2.244 1.678 2258
-0.234 2.307 1.712 2629
-0.235 2.318 1.710 3400
-0.236 2.322 1.703 3400
-0.235 2.320 1.692 4340
-0.235 2.318 1.681 5442
-0.239 2.355 1.697 6860
-0.240 2.366 1.694 9870
-0.241 2.377 1.692 11288
-0.242 2.388 1.689 13144
-0.242 2.386 1.678 11870
-0.243 2.391 1.671 10889
-0.242 2.389 1.660 10879
-0.243 2.393 1.653 8583
-0.245 2.411 1.655 6513
-0.253 2.495 1.699 6114
-0.254 2.506 1.696 6243
-0.255 2.517 1.693 4718
-0.258 2.542 1.699 3852
-0.258 2.540 1.687 5039
-0.258 2.544 1.680 6238
-0.257 2.528 1.660 6645
-0.257 2.533 1.653 7348
-0.257 2.537 1.646 5563
-0.257 2.535 1.634 3811
-0.258 2.546 1.631 4407
-0.259 2.550 1.624 5036
-0.260 2.561 1.620 5007
-0.261 2.572 1.617 5073
-0.261 2.577 1.610 4434
-0.270 2.663 1.650 8093
-0.271 2.667 1.642 9610
-0.270 2.665 1.630 7752
-0.271 2.669 1.623 6080
-0.274 2.701 1.630 5670
-0.276 2.719 1.630 6294
-0.276 2.723 1.623 5141
-0.282 2.783 1.645 4546
-0.284 2.801 1.645 4984
-0.287 2.833 1.652 6199
-0.289 2.844 1.647 6329
-0.288 2.842 1.636 4503
-0.297 2.930 1.672 3419
-0.294 2.892 1.641 3861
-0.294 2.897 1.633 5532
-0.297 2.929 1.639 6933
-0.300 2.954 1.642 7912
-0.301 2.966 1.637 11004
-0.301 2.963 1.625 12449
-0.302 2.974 1.620 10730
-0.303 2.986 1.615 7772
-0.314 3.096 1.659 9163
-0.315 3.107 1.654 8424
-0.322 3.175 1.676 5814
-0.326 3.208 1.681 6541
-0.325 3.198 1.664 7551
-0.326 3.210 1.659 9015
-0.327 3.221 1.653 9295
-0.327 3.226 1.643 7671
-0.329 3.244 1.641 5798
-0.330 3.256 1.635 7633
-0.331 3.260 1.625 9655
-0.332 3.271 1.619 8342
-0.337 3.319 1.630 9330
-0.340 3.352 1.633 8019
-0.344 3.392 1.639 8000
-0.345 3.404 1.633 5719
-0.355 3.494 1.661 4617
-0.354 3.492 1.648 5731
-0.355 3.496 1.638 5678
-0.356 3.508 1.631 6098
-0.356 3.512 1.621 5173
-0.371 3.654 1.669 4193
-0.371 3.658 1.659 8847
-0.373 3.677 1.654 9579
-0.376 3.704 1.653 8824
-0.375 3.693 1.636 8596
-0.374 3.683 1.619 9079
-0.374 3.687 1.609 8756
-0.385 3.794 1.639 9092
-0.386 3.806 1.631 6352
-0.389 3.832 1.629 5666
-0.397 3.910 1.646 7699
-0.396 3.899 1.629 7892
-0.396 3.904 1.618 6922
-0.396 3.901 1.604 7453
-0.396 3.905 1.593 7572
-0.397 3.909 1.581 3730
-0.407 4.009 1.606 4398
-0.408 4.021 1.597 5519
-0.409 4.033 1.588 5563
-0.414 4.081 1.592 5334
-0.415 4.093 1.583 7083
-0.417 4.105 1.574 7188
-0.419 4.131 1.570 7590
-0.421 4.150 1.563 8541
-0.424 4.176 1.559 6247
-0.428 4.218 1.559 6024
-0.430 4.237 1.552 8523
-0.432 4.256 1.545 6986
-0.432 4.260 1.532 4844
-0.431 4.249 1.515 4387
-0.442 4.358 1.537 4227
-0.456 4.490 1.565 3969
-0.455 4.486 1.550 5402
-0.455 4.483 1.535 6019
-0.455 4.487 1.522 5376
-0.467 4.604 1.543 4798
-0.468 4.608 1.530 5584
-0.469 4.619 1.519 5287
-0.475 4.684 1.524 5968
-0.476 4.688 1.510 5356
-0.482 4.752 1.514 3879
-0.485 4.779 1.507 3888
-0.492 4.843 1.511 2243
-0.501 4.938 1.522 3213
-0.502 4.942 1.508 4130
-0.505 4.977 1.502 3576
-0.505 4.981 1.488 3331
-0.524 5.159 1.520 3394
-0.537 5.293 1.540 3664
-0.538 5.304 1.527 5492
-0.538 5.301 1.509 6785
-0.537 5.290 1.490 5182
-0.537 5.293 1.475 4830
-0.538 5.305 1.461 6861
-0.540 5.324 1.449 5933
-0.540 5.320 1.432 3057
-0.563 5.546 1.471 3364
-0.563 5.550 1.454 3097
-0.570 5.615 1.453 2326
-0.572 5.634 1.440 2085
-0.587 5.784 1.457 2499
-0.611 6.026 1.494 3076
-0.612 6.030 1.477 4321
-0.612 6.033 1.459 3697
-0.615 6.060 1.447 2209
-0.619 6.095 1.436 1771
-0.644 6.345 1.470 1722
-0.659 6.496 1.482 1934
-0.660 6.500 1.464 2528
-0.662 6.519 1.448 2531
-0.674 6.646 1.453 2641
-0.674 6.642 1.433 2365
-0.699 6.886 1.460 1894
-0.699 6.890 1.439 2795
-0.700 6.893 1.419 3282
-0.760 7.494 1.509 3627
-0.761 7.497 1.487 4437
-0.762 7.509 1.467 6201
-0.762 7.513 1.445 6653
-0.762 7.509 1.422 5159
-0.776 7.645 1.422 5848
-0.777 7.656 1.401 6802
-0.777 7.660 1.379 6523
-0.778 7.663 1.357 5497
-0.779 7.675 1.336 4723
-0.779 7.678 1.313 3406
-0.779 7.674 1.290 2123
-0.846 8.339 1.365 1724
-0.934 9.208 1.466 1598
-0.935 9.212 1.440 1547
-0.934 9.200 1.411 1325
-0.951 9.368 1.406 1203
-0.950 9.363 1.378 1052
-0.951 9.367 1.350 860
-0.959 9.449 1.333 733
-0.959 9.452 1.305 534
-0.960 9.455 1.278 306
-0.497 4.900 0.154 254
-0.497 4.900 0.140 289
-0.498 4.908 0.126 280
-0.500 4.932 0.112 284
-0.453 4.467 0.088 262
-0.452 4.451 0.076 316
-0.451 4.443 0.063 394
-0.516 5.088 0.037 395
-0.517 5.096 0.022 320
-0.530 5.221 0.004 262
-0.444 4.377 -0.025 279
-0.444 4.377 -0.038 386
-0.444 4.376 -0.050 493
-0.444 4.376 -0.063 501
-0.446 4.399 -0.077 538
-0.443 4.366 -0.088 772
-0.442 4.358 -0.100 1067
-0.442 4.357 -0.113 1174
-0.441 4.349 -0.125 1283
-0.441 4.348 -0.138 1169
-0.440 4.339 -0.150 1059
-0.440 4.338 -0.162 887
-0.440 4.337 -0.175 707
-0.441 4.344 -0.188 714
-0.441 4.343 -0.200 582
-0.441 4.342 -0.213 450
-0.440 4.333 -0.225 314
-0.434 4.276 -0.245 265
-0.433 4.267 -0.257 362
-0.433 4.266 -0.269 592
-0.433 4.265 -0.281 822
-0.433 4.264 -0.294 822
-0.433 4.262 -0.306 796
-0.432 4.253 -0.318 790
-0.431 4.244 -0.329 550
-0.427 4.211 -0.338 388
-0.427 4.210 -0.350 388
-0.208 2.144 1.643 1858
-0.208 2.148 1.637 3717
-0.209 2.152 1.631 3717
-0.221 2.279 1.712 2546
-0.222 2.290 1.710 2268
-0.223 2.301 1.708 3516
-0.224 2.312 1.705 4931
-0.225 2.317 1.699 4931
-0.224 2.315 1.688 6681
-0.225 2.319 1.681 8499
-0.227 2.343 1.688 8499
-0.229 2.367 1.694 10923
-0.231 2.378 1.692 12208
-0.232 2.389 1.689 13918
-0.231 2.387 1.678 12949
-0.231 2.385 1.667 12261
-0.232 2.390 1.660 12211
-0.232 2.394 1.653 9430
-0.233 2.405 1.651 6826
-0.233 2.403 1.640 5853
-0.243 2.507 1.696 5855
-0.244 2.518 1.693 4482
-0.246 2.536 1.694 3659
-0.246 2.541 1.687 5111
-0.247 2.545 1.680 6563
-0.245 2.530 1.660 6414
-0.245 2.527 1.649 6734
-0.245 2.525 1.637 5467
-0.245 2.529 1.630 4259
-0.246 2.540 1.627 5068
-0.247 2.545 1.620 6008
-0.248 2.562 1.620 6069
-0.249 2.574 1.617 6409
-0.251 2.585 1.614 5613
-0.258 2.664 1.650 7538
-0.259 2.668 1.642 8626
-0.258 2.666 1.630 6843
-0.259 2.670 1.623 5177
-0.262 2.702 1.630 4997
-0.263 2.713 1.627 5591
-0.264 2.724 1.623 4532
-0.269 2.777 1.641 4437
-0.271 2.795 1.641 4748
-0.275 2.834 1.652 6274
-0.276 2.846 1.647 6459
-0.276 2.843 1.636 4643
-0.284 2.931 1.672 3365
-0.280 2.893 1.641 3976
-0.281 2.898 1.633 6040
-0.283 2.916 1.632 7320
-0.286 2.955 1.642 8261
-0.288 2.967 1.637 12036
-0.287 2.964 1.625 14218
-0.288 2.975 1.620 12598
-0.290 2.987 1.615 9613
-0.290 2.991 1.606 8099
-0.290 2.995 1.597 6939
-0.308 3.176 1.676 5219
-0.311 3.209 1.681 6116
-0.311 3.207 1.668 7561
-0.311 3.211 1.659 9265
-0.312 3.215 1.649 9390
-0.312 3.220 1.640 6958
-0.317 3.274 1.654 5761
-0.316 3.264 1.638 8625
-0.316 3.261 1.625 10403
-0.317 3.273 1.619 8755
-0.322 3.320 1.630 9372
-0.324 3.346 1.630 8120
-0.330 3.401 1.643 8029
-0.331 3.412 1.636 5884
-0.338 3.489 1.658 4661
-0.339 3.493 1.648 6020
-0.339 3.498 1.638 6145
-0.339 3.502 1.628 6711
-0.343 3.535 1.630 5487
-0.354 3.656 1.669 4504
-0.355 3.660 1.659 9243
-0.356 3.672 1.651 9275
-0.358 3.698 1.650 7888
-0.358 3.695 1.636 8447
-0.357 3.685 1.619 9580
-0.358 3.689 1.609 9521
-0.368 3.796 1.639 8795
-0.370 3.815 1.634 6376
-0.372 3.834 1.629 5799
-0.378 3.897 1.641 6457
-0.378 3.901 1.629 6876
-0.378 3.898 1.615 6871
-0.378 3.895 1.601 8192
-0.378 3.899 1.590 8264
-0.378 3.896 1.576 4540
-0.389 4.011 1.606 5764
-0.390 4.023 1.597 7759
-0.391 4.034 1.588 7856
-0.394 4.068 1.587 5820
-0.397 4.095 1.583 7795
-0.397 4.099 1.571 8197
-0.400 4.125 1.567 8269
-0.402 4.144 1.560 8814
-0.404 4.171 1.556 5983
-0.409 4.220 1.559 5490
-0.411 4.239 1.552 7774
-0.413 4.265 1.547 5979
-0.414 4.269 1.535 4314
-0.411 4.243 1.513 4812
-0.423 4.367 1.539 4460
-0.424 4.379 1.529 3988
-0.436 4.496 1.552 4812
-0.435 4.492 1.537 5348
-0.436 4.496 1.524 5521
-0.446 4.606 1.543 5019
-0.448 4.617 1.532 5453
-0.448 4.621 1.519 5573
-0.454 4.686 1.524 6895
-0.455 4.697 1.512 5724
-0.459 4.739 1.510 3904
-0.463 4.773 1.505 3970
-0.470 4.846 1.511 2457
-0.472 4.865 1.501 2933
-0.479 4.945 1.508 3624
-0.483 4.979 1.502 3595
-0.483 4.983 1.488 2980
-0.501 5.169 1.522 3390
-0.503 5.189 1.512 3096
-0.515 5.314 1.529 5946
-0.515 5.311 1.511 7493
-0.513 5.292 1.490 5757
-0.513 5.288 1.473 5626
-0.515 5.315 1.463 7734
-0.517 5.334 1.451 6746
-0.517 5.330 1.434 3197
-0.538 5.548 1.471 2984
-0.530 5.468 1.434 2680
-0.545 5.625 1.455 2924
-0.547 5.644 1.442 2096
-0.562 5.794 1.459 2333
-0.562 5.798 1.442 2682
-0.585 6.032 1.477 3371
-0.585 6.036 1.459 3256
-0.585 6.040 1.442 2229
-0.616 6.352 1.490 2046
-0.616 6.356 1.472 1898
-0.629 6.491 1.481 2055
-0.630 6.502 1.464 2582
-0.631 6.514 1.446 2297
-0.645 6.649 1.453 2580
-0.644 6.645 1.433 2413
-0.669 6.897 1.461 2121
-0.668 6.893 1.439 2810
-0.669 6.904 1.421 3123
-0.727 7.497 1.509 2974
-0.728 7.509 1.489 3702
-0.728 7.512 1.467 5627
-0.729 7.516 1.445 6285
-0.728 7.512 1.422 4769
-0.742 7.656 1.424 5311
-0.742 7.660 1.401 6347
-0.743 7.663 1.379 6108
-0.743 7.667 1.357 5230
-0.744 7.678 1.336 4419
-0.745 7.681 1.313 3167
-0.744 7.677 1.290 1987
-0.809 8.343 1.365 1818
-0.893 9.212 1.466 1783
-0.893 9.216 1.440 1680
-0.893 9.212 1.412 1387
-0.891 9.192 1.382 1078
-0.890 9.180 1.353 865
-0.916 9.449 1.360 722
-0.916 9.453 1.333 816
-0.917 9.456 1.305 551
-0.917 9.460 1.278 258
-0.489 5.044 0.184 251
-0.435 4.485 0.127 340
-0.435 4.485 0.114 414
-0.434 4.477 0.101 421
-0.433 4.469 0.088 442
-0.432 4.453 0.076 511
-0.432 4.452 0.063 610
-0.431 4.444 0.050 570
-0.430 4.436 0.037 418
-0.428 4.412 0.025 324
-0.428 4.412 0.012 336
-0.428 4.419 -0.001 349
-0.426 4.395 -0.013 358
-0.424 4.379 -0.025 412
-0.424 4.379 -0.038 530
-0.424 4.378 -0.050 648
-0.425 4.385 -0.063 684
-0.427 4.401 -0.077 776
-0.423 4.368 -0.088 1046
-0.423 4.360 -0.100 1422
-0.423 4.359 -0.113 1505
-0.422 4.351 -0.125 1594
-0.422 4.350 -0.138 1427
-0.421 4.341 -0.150 1265
-0.421 4.340 -0.162 1057
-0.421 4.339 -0.175 843
-0.421 4.346 -0.188 849
-0.421 4.345 -0.200 691
-0.421 4.344 -0.213 533
-0.420 4.335 -0.225 378
-0.418 4.311 -0.235 260
-0.415 4.286 -0.246 288
-0.415 4.277 -0.257 386
-0.414 4.268 -0.269 639
-0.414 4.267 -0.281 894
-0.413 4.266 -0.294 894
-0.413 4.264 -0.306 862
-0.412 4.255 -0.318 848
-0.412 4.246 -0.329 618
-0.408 4.213 -0.338 437
-0.408 4.212 -0.350 437
-0.203 2.150 1.648 1651
-0.203 2.148 1.637 3303
-0.204 2.153 1.631 3303
-0.216 2.280 1.712 2644
-0.217 2.291 1.710 2507
-0.218 2.302 1.708 4348
-0.218 2.306 1.701 6359
-0.219 2.311 1.694 6359
-0.219 2.315 1.688 8732
-0.219 2.320 1.681 11104
-0.220 2.331 1.679 10544
-0.223 2.361 1.690 11891
-0.224 2.372 1.687 12694
-0.226 2.390 1.689 14080
-0.226 2.388 1.678 13350
-0.226 2.386 1.667 12877
-0.226 2.390 1.660 12792
-0.227 2.395 1.653 9991
-0.228 2.406 1.651 7288
-0.227 2.403 1.640 6405
-0.237 2.501 1.692 5570
-0.238 2.512 1.689 4454
-0.239 2.530 1.690 3813
-0.240 2.535 1.683 5293
-0.241 2.546 1.680 6828
-0.239 2.530 1.660 6203
-0.238 2.521 1.645 6306
-0.239 2.525 1.637 5702
-0.239 2.523 1.626 5107
-0.240 2.534 1.623 5690
-0.241 2.545 1.620 6503
-0.242 2.563 1.620 6695
-0.243 2.574 1.617 7354
-0.245 2.585 1.614 6573
-0.251 2.658 1.646 6890
-0.252 2.669 1.642 7593
-0.252 2.666 1.630 5794
-0.253 2.671 1.623 4097
-0.256 2.703 1.630 4195
-0.257 2.714 1.627 4699
-0.262 2.773 1.649 3989
-0.263 2.778 1.641 4426
-0.264 2.796 1.641 4532
-0.268 2.835 1.652 6133
-0.269 2.846 1.647 6316
-0.269 2.844 1.636 4705
-0.277 2.931 1.672 3326
-0.274 2.894 1.641 4018
-0.274 2.891 1.629 6507
-0.275 2.903 1.625 7779
-0.280 2.956 1.642 8295
-0.280 2.960 1.633 12514
-0.280 2.965 1.625 15332
-0.282 2.976 1.620 13858
-0.283 2.987 1.615 10881
-0.283 2.992 1.606 9108
-0.283 2.996 1.597 7847
-0.284 3.000 1.589 4679
-0.304 3.210 1.681 5505
-0.303 3.207 1.668 7181
-0.303 3.205 1.655 9162
-0.304 3.209 1.646 9261
-0.303 3.206 1.633 6929
-0.310 3.282 1.658 5728
-0.309 3.265 1.638 9205
-0.309 3.262 1.625 10621
-0.310 3.274 1.619 8829
-0.314 3.321 1.630 8975
-0.317 3.347 1.630 8103
-0.322 3.409 1.646 8221
-0.323 3.413 1.636 6214
-0.329 3.475 1.652 4717
-0.330 3.487 1.645 6036
-0.330 3.491 1.635 6176
-0.331 3.495 1.625 6815
-0.331 3.500 1.615 5543
-0.345 3.649 1.666 4877
-0.346 3.661 1.659 8914
-0.347 3.665 1.648 8335
-0.350 3.699 1.650 6562
-0.350 3.696 1.636 7924
-0.349 3.686 1.619 9570
-0.348 3.683 1.606 9713
-0.348 3.680 1.592 8406
-0.361 3.816 1.634 5779
-0.363 3.835 1.629 5023
-0.367 3.883 1.635 5244
-0.368 3.895 1.627 5822
-0.368 3.892 1.612 6549
-0.369 3.896 1.601 8393
-0.368 3.893 1.587 8689
-0.369 3.897 1.576 5341
-0.380 4.012 1.606 6615
-0.381 4.024 1.597 9110
-0.382 4.035 1.588 9339
-0.384 4.054 1.582 6658
-0.387 4.088 1.580 8192
-0.388 4.100 1.571 8850
-0.390 4.119 1.565 8543
-0.391 4.138 1.558 8766
-0.395 4.172 1.556 5513
-0.400 4.228 1.562 4877
-0.401 4.240 1.552 7041
-0.404 4.274 1.550 5458
-0.405 4.285 1.540 4001
-0.401 4.244 1.513 4856
-0.415 4.383 1.544 4640
-0.415 4.387 1.532 4230
-0.425 4.497 1.552 4191
-0.425 4.493 1.537 4638
-0.425 4.497 1.524 5332
-0.425 4.494 1.509 5362
-0.437 4.618 1.532 4879
-0.437 4.622 1.519 5287
-0.444 4.694 1.526 7352
-0.444 4.698 1.512 5888
-0.446 4.717 1.503 3824
-0.451 4.767 1.503 3627
-0.458 4.847 1.511 2274
-0.460 4.866 1.501 2627
-0.468 4.946 1.508 3076
-0.470 4.972 1.500 3646
-0.473 4.999 1.492 3152
-0.489 5.170 1.522 3149
-0.491 5.190 1.512 3308
-0.503 5.316 1.529 5950
-0.502 5.312 1.511 7507
-0.501 5.293 1.490 5441
-0.501 5.297 1.475 5623
-0.504 5.324 1.465 8102
-0.505 5.335 1.451 7040
-0.506 5.354 1.440 3159
-0.509 5.381 1.430 2585
-0.517 5.469 1.434 2728
-0.532 5.626 1.455 3077
-0.537 5.676 1.449 2304
-0.548 5.795 1.459 2216
-0.549 5.799 1.442 2745
-0.571 6.041 1.479 2623
-0.570 6.030 1.458 2690
-0.571 6.034 1.440 2102
-0.601 6.353 1.490 2285
-0.601 6.357 1.472 1972
-0.614 6.492 1.481 2032
-0.614 6.496 1.462 2434
-0.615 6.500 1.443 2056
-0.629 6.651 1.453 2398
-0.629 6.647 1.433 2370
-0.653 6.898 1.461 2404
-0.653 6.902 1.441 2742
-0.653 6.906 1.421 2744
-0.655 6.925 1.404 2253
-0.710 7.510 1.489 2842
-0.712 7.522 1.468 4771
-0.712 7.526 1.446 5461
-0.711 7.514 1.422 4018
-0.724 7.658 1.424 4438
-0.725 7.661 1.401 5428
-0.725 7.665 1.379 5196
-0.725 7.668 1.357 4497
-0.726 7.680 1.336 3730
-0.727 7.683 1.313 2676
-0.789 8.341 1.390 1885
-0.789 8.345 1.365 1811
-0.872 9.214 1.466 1852
-0.872 9.218 1.440 1707
-0.872 9.214 1.412 1374
-0.870 9.202 1.383 1068
-0.869 9.182 1.353 782
-0.894 9.451 1.360 821
-0.894 9.455 1.333 905
-0.895 9.458 1.305 570
-0.428 4.525 0.206 267
-0.428 4.525 0.192 282
-0.428 4.525 0.179 273
-0.426 4.501 0.140 322
-0.424 4.486 0.127 500
-0.424 4.486 0.114 611
-0.424 4.478 0.101 612
-0.423 4.470 0.088 636
-0.422 4.462 0.075 712
-0.421 4.453 0.063 826
-0.421 4.445 0.050 754
-0.420 4.437 0.037 530
-0.417 4.413 0.025 400
-0.417 4.413 0.012 411
