-0.328 4.777 1.473 2999
-0.328 4.773 1.457 2898
-0.329 4.785 1.445 2145
-0.337 4.903 1.463 1829
-0.338 4.914 1.450 1889
-0.336 4.895 1.430 1687
-0.321 4.678 1.357 1928
-0.321 4.673 1.342 2603
-0.321 4.677 1.328 2463
-0.363 5.277 1.467 3420
-0.323 4.699 1.305 3629
-0.323 4.702 1.292 3716
-0.323 4.698 1.276 2614
-0.376 5.477 1.450 1674
-0.377 5.481 1.434 1685
-0.327 4.754 1.246 1534
-0.343 4.988 1.286 2351
-0.343 4.999 1.273 1395
-0.340 4.948 1.247 1214
-0.340 4.952 1.232 1666
-0.419 6.096 1.470 2185
-0.420 6.116 1.455 2816
-0.420 6.120 1.438 3202
-0.421 6.123 1.420 3551
-0.436 6.351 1.449 3057
-0.441 6.417 1.443 2648
-0.443 6.452 1.431 2997
-0.444 6.463 1.413 2897
-0.454 6.606 1.422 3205
-0.455 6.618 1.404 3324
-0.457 6.645 1.389 2538
-0.477 6.943 1.425 3210
-0.477 6.939 1.404 3103
-0.478 6.951 1.385 3262
-0.478 6.962 1.366 2589
-0.519 7.557 1.449 1847
-0.519 7.553 1.426 2955
-0.519 7.557 1.404 2744
-0.521 7.584 1.386 2033
-0.522 7.595 1.365 1859
-0.567 8.254 1.448 1754
-0.567 8.258 1.424 1484
-0.597 8.691 1.465 1383
-0.597 8.687 1.439 1676
-0.617 8.980 1.456 1733
-0.589 8.577 1.371 1540
-0.650 9.456 1.471 2218
-0.650 9.460 1.443 2933
-0.650 9.464 1.416 2992
-0.650 9.468 1.388 2425
-0.618 8.994 1.298 1685
-0.651 9.475 1.333 1237
-0.651 9.478 1.305 1164
-0.651 9.482 1.278 1546
-0.652 9.485 1.250 1255
-0.652 9.488 1.223 796
-0.652 9.491 1.195 578
-0.294 4.275 0.387 329
-0.294 4.283 0.375 505
-0.294 4.284 0.363 599
-0.294 4.277 0.350 565
-0.293 4.269 0.337 576
-0.294 4.278 0.325 607
-0.294 4.278 0.313 463
-0.290 4.224 0.299 282
-0.288 4.193 0.273 429
-0.288 4.193 0.261 755
-0.288 4.194 0.249 880
-0.288 4.194 0.237 877
-0.289 4.202 0.225 764
-0.289 4.210 0.213 695
-0.289 4.210 0.201 615
-0.288 4.187 0.188 818
-0.288 4.187 0.176 1090
-0.288 4.187 0.164 1497
-0.288 4.187 0.152 1903
-0.287 4.179 0.140 1963
-0.287 4.179 0.128 1977
-0.288 4.187 0.116 1940
-0.288 4.187 0.104 1676
-0.287 4.179 0.092 1451
-0.287 4.179 0.080 1113
-0.287 4.171 0.068 779
-0.286 4.163 0.056 663
-0.286 4.162 0.044 556
-0.286 4.162 0.032 495
-0.284 4.130 0.021 325
-0.282 4.106 0.010 342
-0.282 4.106 -0.002 406
-0.282 4.105 -0.014 470
-0.283 4.113 -0.026 719
-0.283 4.112 -0.038 971
-0.282 4.104 -0.050 1108
-0.282 4.103 -0.062 1282
-0.281 4.095 -0.073 1251
-0.281 4.094 -0.085 1251
-0.281 4.093 -0.097 1171
-0.281 4.093 -0.108 1091
-0.281 4.092 -0.120 984
-0.281 4.091 -0.132 876
-0.280 4.082 -0.143 813
-0.280 4.082 -0.155 804
-0.280 4.081 -0.167 844
-0.280 4.080 -0.179 815
-0.280 4.079 -0.190 786
-0.280 4.070 -0.202 730
-0.279 4.061 -0.213 690
-0.279 4.060 -0.224 646
-0.279 4.059 -0.236 602
-0.279 4.058 -0.248 491
-0.279 4.065 -0.260 380
-0.279 4.063 -0.272 380
-0.279 4.054 -0.283 296
-0.150 2.226 1.699 3726
-0.150 2.230 1.692 7452
-0.151 2.235 1.686 7452
-0.151 2.233 1.675 5729
-0.151 2.231 1.664 4219
-0.153 2.261 1.676 5273
-0.152 2.259 1.665 6543
-0.153 2.270 1.663 5851
-0.155 2.294 1.670 6421
-0.156 2.312 1.672 7727
-0.157 2.329 1.674 9412
-0.157 2.334 1.668 11181
-0.158 2.345 1.666 7845
-0.159 2.362 1.668 5040
-0.160 2.373 1.665 4256
-0.160 2.378 1.658 3489
-0.160 2.369 1.643 3656
-0.163 2.413 1.662 3763
-0.163 2.418 1.655 4118
-0.170 2.515 1.708 4702
-0.170 2.520 1.700 6418
-0.170 2.524 1.693 7827
-0.170 2.522 1.682 9242
-0.170 2.513 1.666 8964
-0.169 2.504 1.651 9858
-0.169 2.509 1.644 7841
-0.170 2.520 1.640 5869
-0.170 2.524 1.633 4142
-0.171 2.535 1.630 2482
-0.178 2.641 1.684 2640
-0.179 2.646 1.676 3911
-0.180 2.664 1.676 4133
-0.181 2.682 1.677 4746
-0.182 2.700 1.677 3968
-0.182 2.705 1.669 3697
-0.178 2.634 1.618 4518
-0.178 2.645 1.615 4836
-0.182 2.690 1.630 5424
-0.183 2.709 1.630 6751
-0.184 2.727 1.630 8461
-0.184 2.724 1.619 8877
-0.185 2.735 1.615 7042
-0.188 2.781 1.630 8106
-0.192 2.848 1.656 9435
-0.193 2.866 1.655 9547
-0.195 2.885 1.654 8327
-0.196 2.903 1.653 8405
-0.196 2.907 1.645 7540
-0.196 2.912 1.637 7856
-0.197 2.923 1.632 9095
-0.198 2.927 1.624 7311
-0.197 2.925 1.612 5295
-0.204 3.028 1.653 6029
-0.197 2.926 1.591 5773
-0.204 3.029 1.632 5520
-0.205 3.034 1.624 6621
-0.205 3.045 1.618 6146
-0.206 3.056 1.613 4729
-0.202 2.997 1.573 4870
-0.214 3.172 1.647 7197
-0.215 3.190 1.645 9225
-0.216 3.202 1.639 8697
-0.216 3.206 1.630 8118
-0.218 3.232 1.631 7265
-0.219 3.243 1.625 8299
-0.219 3.248 1.616 9119
-0.218 3.231 1.596 6515
-0.225 3.335 1.633 4489
-0.226 3.347 1.626 3872
-0.230 3.402 1.639 5397
-0.229 3.399 1.626 6778
-0.230 3.403 1.617 7082
-0.231 3.422 1.613 6767
-0.232 3.434 1.607 7726
-0.232 3.445 1.600 7778
-0.233 3.449 1.590 7372
-0.233 3.446 1.577 6489
-0.240 3.552 1.610 7035
-0.238 3.527 1.587 5944
-0.238 3.532 1.577 4358
-0.239 3.543 1.570 4331
-0.239 3.547 1.560 4307
-0.247 3.661 1.594 5410
-0.248 3.680 1.589 8366
-0.248 3.677 1.576 9363
-0.248 3.681 1.565 8809
-0.249 3.693 1.557 6457
-0.250 3.704 1.550 5087
-0.257 3.812 1.578 6916
-0.257 3.816 1.567 8080
-0.259 3.835 1.562 5425
-0.264 3.913 1.579 4644
-0.265 3.932 1.573 5178
-0.260 3.854 1.532 5945
-0.263 3.896 1.534 5865
-0.265 3.929 1.533 6169
-0.271 4.023 1.554 4509
-0.271 4.019 1.540 4938
-0.280 4.150 1.572 4351
-0.274 4.057 1.527 5233
-0.274 4.061 1.515 5234
-0.282 4.178 1.541 7311
-0.282 4.182 1.529 5514
-0.285 4.231 1.532 5436
-0.286 4.235 1.520 6248
-0.286 4.246 1.510 5653
-0.290 4.295 1.513 5287
-0.291 4.307 1.503 5635
-0.292 4.326 1.495 4676
-0.301 4.458 1.523 3770
-0.302 4.469 1.512 3088
-0.301 4.458 1.495 3278
-0.302 4.470 1.484 3804
-0.303 4.489 1.476 2251
-0.312 4.629 1.503 2621
-0.313 4.640 1.492 2473
-0.316 4.690 1.492 3919
-0.316 4.686 1.476 6199
-0.317 4.698 1.465 4631
-0.322 4.770 1.471 2783
-0.322 4.774 1.457 3051
-0.323 4.785 1.445 2389
-0.330 4.896 1.460 2262
-0.330 4.892 1.444 1867
-0.330 4.888 1.428 1806
-0.330 4.892 1.414 1567
-0.315 4.674 1.342 2240
-0.316 4.677 1.328 2332
-0.356 5.278 1.467 2882
-0.317 4.699 1.305 3149
-0.317 4.703 1.292 3338
-0.318 4.706 1.278 2710
-0.318 4.717 1.266 1699
-0.320 4.736 1.256 1563
-0.335 4.970 1.297 1563
-0.337 4.988 1.286 2241
-0.318 4.715 1.208 1691
-0.333 4.941 1.245 1111
-0.334 4.952 1.232 1424
-0.411 6.097 1.470 2328
-0.413 6.116 1.455 2953
-0.413 6.120 1.438 3485
-0.413 6.124 1.420 3708
-0.428 6.344 1.447 3187
-0.432 6.410 1.441 2809
-0.435 6.452 1.431 2981
-0.436 6.456 1.412 2769
-0.446 6.607 1.422 3234
-0.447 6.618 1.404 3284
-0.461 6.832 1.425 2802
-0.460 6.812 1.401 3142
-0.469 6.948 1.405 2969
-0.470 6.959 1.386 3402
-0.470 6.963 1.366 2907
-0.512 7.589 1.455 2098
-0.511 7.569 1.429 3052
-0.510 7.557 1.404 2553
-0.512 7.592 1.387 1618
-0.514 7.611 1.368 1599
-0.557 8.255 1.448 1638
-0.557 8.258 1.424 1428
-0.586 8.692 1.465 1377
-0.597 8.844 1.463 1732
-0.606 8.980 1.456 1871
-0.606 8.984 1.430 1697
-0.638 9.457 1.471 2031
-0.638 9.461 1.443 2960
-0.639 9.465 1.416 3177
-0.639 9.469 1.388 2612
-0.607 8.994 1.298 2312
-0.607 8.998 1.272 1298
-0.640 9.479 1.305 1073
-0.640 9.482 1.278 1527
-0.640 9.486 1.250 1342
-0.640 9.489 1.223 882
-0.640 9.492 1.195 631
-0.641 9.495 1.167 257
-0.291 4.320 0.427 363
-0.292 4.321 0.415 379
-0.292 4.322 0.403 329
-0.290 4.299 0.389 424
-0.289 4.284 0.375 709
-0.289 4.284 0.363 828
-0.289 4.277 0.350 753
-0.288 4.270 0.337 749
-0.289 4.278 0.325 780
-0.289 4.279 0.313 587
-0.288 4.271 0.300 342
-0.283 4.193 0.285 308
-0.283 4.201 0.273 506
-0.283 4.194 0.261 828
-0.283 4.194 0.249 957
-0.283 4.194 0.237 983
-0.284 4.202 0.225 932
-0.284 4.210 0.213 891
-0.284 4.211 0.201 749
-0.283 4.187 0.188 894
-0.283 4.187 0.176 1166
-0.283 4.187 0.164 1601
-0.283 4.187 0.152 2036
-0.283 4.187 0.140 2109
-0.283 4.187 0.128 2137
-0.283 4.187 0.116 2091
-0.283 4.187 0.104 1788
-0.282 4.179 0.092 1517
-0.282 4.179 0.080 1155
-0.282 4.179 0.068 794
-0.281 4.171 0.056 666
-0.281 4.163 0.044 549
-0.281 4.162 0.032 466
-0.280 4.154 0.020 265
-0.277 4.106 -0.002 287
-0.278 4.113 -0.014 332
-0.278 4.113 -0.026 517
-0.277 4.112 -0.038 703
-0.277 4.112 -0.050 792
-0.277 4.103 -0.062 902
-0.277 4.103 -0.073 861
-0.276 4.094 -0.085 844
-0.276 4.094 -0.097 794
-0.276 4.093 -0.108 745
-0.276 4.092 -0.120 653
-0.276 4.091 -0.132 562
-0.275 4.083 -0.143 522
-0.275 4.082 -0.155 491
-0.275 4.081 -0.167 493
-0.275 4.080 -0.179 475
-0.275 4.079 -0.190 456
-0.275 4.070 -0.202 421
-0.274 4.061 -0.213 393
-0.274 4.060 -0.224 372
-0.274 4.059 -0.236 352
-0.274 4.058 -0.248 294
-0.142 2.233 1.703 4338
-0.142 2.237 1.697 8677
-0.142 2.242 1.691 8677
-0.143 2.246 1.684 6827
-0.143 2.257 1.682 5117
-0.143 2.255 1.671 5995
-0.143 2.253 1.660 7041
-0.144 2.264 1.659 6202
-0.145 2.288 1.665 6802
-0.146 2.299 1.663 8477
-0.147 2.310 1.661 9838
-0.148 2.328 1.663 11725
-0.148 2.326 1.652 8626
-0.148 2.330 1.646 5555
-0.148 2.334 1.639 4805
-0.148 2.332 1.628 4058
-0.149 2.343 1.626 4041
-0.149 2.347 1.619 4021
-0.149 2.352 1.612 4014
-0.160 2.516 1.708 4715
-0.160 2.520 1.700 6321
-0.160 2.525 1.693 7444
-0.160 2.523 1.682 8610
-0.159 2.507 1.662 8825
-0.159 2.505 1.651 9973
-0.159 2.509 1.644 8128
-0.160 2.514 1.636 6283
-0.160 2.525 1.633 4196
-0.161 2.536 1.630 2202
-0.167 2.635 1.680 3072
-0.168 2.640 1.672 4505
-0.169 2.658 1.672 4385
-0.170 2.676 1.673 4751
-0.171 2.694 1.673 3988
-0.172 2.705 1.669 3831
-0.172 2.703 1.658 4197
-0.172 2.700 1.646 4727
-0.171 2.691 1.630 5551
-0.172 2.709 1.630 6683
-0.173 2.720 1.627 8038
-0.173 2.725 1.619 8631
-0.174 2.736 1.615 7374
-0.177 2.782 1.630 8684
-0.178 2.800 1.629 9441
-0.183 2.874 1.659 9511
-0.183 2.885 1.654 7874
-0.184 2.904 1.653 7514
-0.185 2.908 1.645 6683
-0.185 2.913 1.637 7022
-0.185 2.917 1.628 8191
-0.186 2.921 1.620 6702
-0.192 3.024 1.662 5030
-0.192 3.028 1.653 6113
-0.193 3.033 1.645 5265
-0.193 3.037 1.636 5159
-0.193 3.034 1.624 6051
-0.193 3.046 1.618 5996
-0.194 3.057 1.613 5249
-0.191 3.012 1.580 5117
-0.201 3.158 1.640 6816
-0.202 3.177 1.638 8272
-0.198 3.124 1.602 8267
-0.204 3.207 1.630 7447
-0.205 3.226 1.627 6298
-0.208 3.280 1.642 6712
-0.210 3.299 1.639 8231
-0.210 3.310 1.633 6731
-0.211 3.329 1.630 3942
-0.204 3.211 1.565 3325
-0.216 3.403 1.639 4697
-0.216 3.400 1.626 5951
-0.216 3.397 1.614 6587
-0.217 3.416 1.610 7160
-0.218 3.427 1.603 8405
-0.218 3.439 1.597 8460
-0.219 3.450 1.590 7673
-0.219 3.447 1.577 6192
-0.225 3.546 1.607 7368
-0.225 3.536 1.590 6265
-0.225 3.540 1.580 4259
-0.230 3.617 1.600 3967
-0.230 3.621 1.590 3859
-0.233 3.662 1.594 5378
-0.233 3.674 1.586 8778
-0.234 3.678 1.576 9991
-0.234 3.682 1.565 8999
-0.235 3.694 1.557 5654
-0.242 3.808 1.589 4537
-0.242 3.813 1.578 7091
-0.242 3.817 1.567 8162
-0.243 3.828 1.559 5195
-0.249 3.914 1.579 4069
-0.244 3.844 1.540 4859
-0.244 3.848 1.529 6562
-0.246 3.874 1.526 6019
-0.250 3.930 1.533 5384
-0.256 4.024 1.554 3727
-0.255 4.013 1.537 4839
-0.254 3.995 1.518 4279
-0.258 4.058 1.527 6167
-0.258 4.062 1.515 6270
-0.265 4.171 1.539 6898
-0.265 4.175 1.527 5137
-0.269 4.239 1.535 5401
-0.269 4.236 1.520 6413
-0.269 4.232 1.505 5444
-0.273 4.296 1.513 5510
-0.274 4.308 1.503 5959
-0.275 4.327 1.495 5093
-0.283 4.459 1.523 4396
-0.283 4.463 1.510 3619
-0.283 4.459 1.495 3568
-0.284 4.471 1.484 4090
-0.293 4.619 1.514 2643
-0.294 4.623 1.501 2893
-0.294 4.634 1.490 2322
-0.297 4.668 1.485 3731
-0.298 4.687 1.476 6774
-0.298 4.699 1.465 5504
-0.302 4.756 1.466 2993
-0.303 4.767 1.455 3262
-0.304 4.779 1.443 2406
-0.311 4.897 1.460 2648
-0.311 4.893 1.444 2028
-0.311 4.889 1.428 1935
-0.311 4.901 1.416 1793
-0.296 4.667 1.340 2486
-0.297 4.678 1.328 2271
-0.315 4.965 1.387 2258
-0.299 4.708 1.307 2541
-0.299 4.712 1.294 2769
-0.299 4.715 1.280 2824
-0.300 4.726 1.268 2253
-0.300 4.729 1.254 1870
-0.300 4.725 1.239 1572
-0.299 4.713 1.222 2004
-0.300 4.716 1.208 2020
-0.301 4.734 1.198 1044
-0.388 6.102 1.489 1406
-0.387 6.099 1.470 2341
-0.389 6.118 1.455 3030
-0.389 6.129 1.439 3665
-0.389 6.125 1.420 3699
-0.402 6.330 1.444 3517
-0.407 6.411 1.441 2790
-0.409 6.446 1.429 2744
-0.420 6.605 1.441 2552
-0.420 6.609 1.422 3419
-0.420 6.620 1.404 3313
-0.434 6.833 1.425 2869
-0.433 6.814 1.401 3293
-0.442 6.957 1.406 2918
-0.442 6.961 1.386 3531
-0.442 6.965 1.366 3134
-0.482 7.583 1.453 2348
-0.481 7.579 1.430 3154
-0.482 7.583 1.408 2333
-0.511 8.046 1.462 1577
-0.511 8.042 1.437 1494
-0.483 7.601 1.343 1516
-0.524 8.253 1.422 1329
-0.562 8.842 1.488 1486
-0.562 8.854 1.464 2000
-0.571 8.983 1.456 1792
-0.571 8.987 1.430 1649
-0.601 9.460 1.471 1911
-0.601 9.464 1.443 2894
-0.601 9.467 1.416 3247
-0.571 8.993 1.325 2756
-0.571 8.997 1.298 2733
-0.572 9.000 1.272 1776
-0.602 9.482 1.305 941
-0.602 9.485 1.278 1403
-0.603 9.488 1.250 1358
-0.603 9.491 1.223 975
-0.603 9.494 1.195 668
-0.603 9.498 1.167 260
-0.276 4.341 0.479 292
-0.275 4.334 0.466 363
-0.275 4.335 0.454 335
-0.275 4.328 0.441 347
-0.275 4.329 0.428 458
-0.275 4.330 0.416 495
-0.275 4.323 0.403 456
-0.273 4.292 0.388 591
-0.272 4.285 0.375 961
-0.272 4.285 0.363 1141
-0.272 4.278 0.350 1023
-0.271 4.271 0.337 955
-0.272 4.279 0.325 957
-0.272 4.280 0.313 716
-0.268 4.225 0.299 378
-0.266 4.194 0.285 344
-0.267 4.202 0.273 587
-0.267 4.203 0.261 983
-0.266 4.195 0.249 1138
-0.266 4.195 0.237 1146
-0.266 4.196 0.225 1085
-0.267 4.204 0.213 1051
-0.268 4.212 0.201 822
-0.267 4.196 0.188 795
-0.267 4.196 0.176 1030
-0.266 4.188 0.164 1453
-0.266 4.188 0.152 1875
-0.266 4.188 0.140 1957
-0.266 4.188 0.128 2068
-0.267 4.196 0.116 2106
-0.266 4.188 0.104 1820
-0.266 4.180 0.092 1559
-0.266 4.180 0.080 1173
-0.266 4.188 0.067 789
-0.265 4.180 0.056 632
-0.264 4.164 0.044 489
-0.264 4.163 0.032 400
-0.261 4.114 -0.026 323
-0.261 4.114 -0.038 439
-0.261 4.113 -0.050 487
-0.261 4.105 -0.062 544
-0.261 4.104 -0.073 511
-0.260 4.095 -0.085 486
-0.260 4.095 -0.097 455
-0.260 4.094 -0.108 425
-0.260 4.093 -0.120 363
-0.259 4.085 -0.132 303
-0.259 4.084 -0.143 288
-0.259 4.083 -0.155 257
-0.137 2.233 1.703 4710
-0.137 2.238 1.697 9421
-0.137 2.242 1.691 9421
-0.138 2.247 1.684 7503
-0.138 2.258 1.682 5664
-0.138 2.256 1.671 6348
-0.138 2.254 1.660 7187
-0.138 2.258 1.654 6344
-0.140 2.282 1.661 7172
-0.140 2.293 1.659 9217
-0.141 2.310 1.661 10308
-0.142 2.321 1.659 12137
-0.142 2.326 1.652 9195
-0.143 2.337 1.650 6302
-0.143 2.335 1.639 5549
-0.143 2.339 1.632 4846
-0.143 2.343 1.626 4586
-0.144 2.348 1.619 4327
-0.144 2.352 1.612 4328
-0.154 2.516 1.708 4592
-0.154 2.521 1.700 6082
-0.155 2.525 1.693 6963
-0.154 2.523 1.682 7913
-0.153 2.501 1.658 8636
-0.153 2.505 1.651 9968
-0.154 2.510 1.644 8337
-0.154 2.514 1.636 6706
-0.155 2.525 1.633 4468
-0.155 2.536 1.630 2368
-0.161 2.636 1.680 3584
-0.162 2.640 1.672 4992
-0.162 2.651 1.668 4627
-0.164 2.676 1.673 4753
-0.165 2.688 1.669 4028
-0.165 2.699 1.665 3995
-0.166 2.703 1.658 4521
-0.165 2.701 1.646 5101
-0.165 2.698 1.634 5811
-0.166 2.710 1.630 6609
-0.167 2.721 1.627 7552
-0.167 2.725 1.619 8294
-0.168 2.736 1.615 7517
-0.170 2.782 1.630 8979
-0.171 2.794 1.625 10007
-0.176 2.874 1.659 9295
-0.177 2.886 1.654 7517
-0.178 2.904 1.653 6690
-0.176 2.867 1.623 6364
-0.176 2.878 1.618 6418
-0.179 2.917 1.628 7460
-0.179 2.922 1.620 6240
-0.185 3.024 1.662 5227
-0.185 3.022 1.650 5987
-0.186 3.033 1.645 5025
-0.186 3.038 1.636 4586
-0.186 3.035 1.624 5113
-0.187 3.046 1.618 5677
-0.187 3.051 1.610 5965
-0.185 3.026 1.587 5740
-0.191 3.123 1.623 6901
-0.191 3.127 1.614 9159
-0.191 3.125 1.602 9058
-0.196 3.207 1.630 6379
-0.198 3.226 1.627 5239
-0.202 3.295 1.648 6182
-0.202 3.306 1.642 7896
-0.203 3.311 1.633 6668
-0.203 3.315 1.623 3585
-0.196 3.204 1.561 3213
-0.209 3.410 1.643 3934
-0.208 3.400 1.626 5028
-0.208 3.397 1.614 5966
-0.209 3.416 1.610 7214
-0.210 3.428 1.603 8557
-0.211 3.439 1.597 8614
-0.211 3.451 1.590 7612
-0.211 3.448 1.577 5802
-0.217 3.546 1.607 7333
-0.217 3.543 1.593 6321
-0.217 3.548 1.583 4497
-0.221 3.610 1.597 3469
-0.221 3.615 1.587 3363
-0.224 3.663 1.594 5000
-0.225 3.674 1.586 8439
-0.225 3.679 1.576 9944
-0.225 3.683 1.565 9155
-0.225 3.679 1.552 5383
-0.227 3.713 1.552 4331
-0.233 3.813 1.578 6503
-0.234 3.817 1.567 7467
-0.234 3.829 1.559 4936
-0.237 3.870 1.562 3826
-0.235 3.837 1.537 4851
-0.236 3.849 1.529 6861
-0.236 3.860 1.520 6172
-0.241 3.931 1.533 4621
-0.245 3.995 1.543 3570
-0.246 4.014 1.537 5083
-0.245 4.003 1.520 4593
-0.249 4.059 1.527 6849
-0.249 4.063 1.515 7061
-0.255 4.172 1.539 6080
-0.262 4.281 1.562 5099
-0.262 4.277 1.547 5327
-0.259 4.236 1.520 6317
-0.265 4.323 1.535 5395
-0.263 4.297 1.513 5777
-0.264 4.308 1.503 6081
-0.265 4.320 1.493 5071
-0.273 4.460 1.523 4709
-0.274 4.471 1.512 3931
-0.274 4.468 1.497 3443
-0.274 4.472 1.484 3889
-0.283 4.619 1.514 3002
-0.283 4.623 1.501 2875
-0.284 4.635 1.490 2574
-0.285 4.661 1.483 3922
-0.287 4.688 1.476 6566
-0.288 4.707 1.467 5677
-0.289 4.726 1.458 3726
-0.292 4.768 1.455 3253
-0.300 4.894 1.475 2460
-0.299 4.890 1.458 2709
-0.300 4.902 1.446 2134
-0.300 4.898 1.430 1996
-0.285 4.657 1.351 2082
-0.286 4.668 1.340 2572
-0.287 4.694 1.332 2328
-0.289 4.713 1.323 2454
-0.288 4.709 1.307 2056
-0.289 4.712 1.294 2214
-0.289 4.716 1.280 2854
-0.289 4.727 1.268 2551
-0.289 4.722 1.253 1994
-0.288 4.702 1.234 1852
-0.288 4.706 1.220 2267
-0.289 4.716 1.208 2152
-0.290 4.735 1.198 1036
-0.374 6.103 1.489 1484
-0.373 6.099 1.470 2203
-0.375 6.119 1.455 3001
-0.375 6.130 1.439 3719
-0.375 6.126 1.420 3435
-0.388 6.331 1.444 3803
-0.392 6.405 1.440 2597
-0.395 6.447 1.429 2393
-0.404 6.598 1.440 2555
-0.405 6.610 1.422 3444
-0.406 6.629 1.406 3360
-0.418 6.834 1.425 2642
-0.417 6.815 1.401 3114
-0.426 6.958 1.406 2810
-0.426 6.962 1.386 3387
-0.427 6.973 1.367 3107
-0.464 7.584 1.453 2459
-0.464 7.580 1.430 3106
-0.464 7.584 1.408 2131
-0.493 8.047 1.462 1895
-0.492 8.044 1.437 1701
-0.505 8.250 1.446 1371
-0.490 8.004 1.383 1402
-0.541 8.843 1.488 1495
-0.542 8.855 1.464 2103
-0.543 8.867 1.439 1671
-0.526 8.589 1.373 1717
-0.579 9.461 1.471 1755
-0.580 9.465 1.443 2675
-0.580 9.469 1.416 3120
-0.580 9.472 1.388 2657
-0.551 8.998 1.298 2521
-0.551 9.001 1.272 1901
-0.578 9.436 1.299 934
-0.581 9.486 1.278 1202
-0.581 9.490 1.250 1237
-0.581 9.493 1.223 979
-0.581 9.496 1.195 649
-0.267 4.362 0.519 301
-0.267 4.355 0.506 315
-0.266 4.348 0.492 396
-0.265 4.334 0.479 497
-0.265 4.335 0.466 540
-0.265 4.328 0.453 485
-0.265 4.329 0.441 379
-0.265 4.330 0.428 447
-0.265 4.330 0.416 547
-0.265 4.323 0.403 532
-0.263 4.292 0.388 665
-0.262 4.285 0.375 996
-0.262 4.286 0.363 1174
-0.261 4.271 0.350 1089
-0.262 4.271 0.337 1036
-0.262 4.280 0.325 1034
-0.262 4.272 0.313 769
-0.259 4.226 0.299 469
-0.258 4.210 0.286 404
-0.258 4.211 0.274 608
-0.257 4.203 0.261 979
-0.257 4.203 0.249 1156
-0.257 4.196 0.237 1174
-0.257 4.196 0.225 1171
-0.257 4.204 0.213 1176
-0.258 4.212 0.201 894
-0.257 4.197 0.188 734
-0.257 4.197 0.176 884
-0.257 4.197 0.164 1283
-0.257 4.197 0.152 1683
-0.256 4.189 0.140 1747
-0.256 4.189 0.128 1856
-0.257 4.197 0.116 1912
-0.256 4.189 0.104 1649
-0.256 4.181 0.092 1410
-0.256 4.181 0.080 1067
-0.256 4.188 0.067 727
-0.256 4.188 0.055 579
-0.259 4.227 0.042 465
-0.259 4.235 0.030 342
-0.252 4.122 -0.039 269
-0.252 4.114 -0.050 283
-0.251 4.105 -0.062 298
-0.251 4.105 -0.073 263
-0.131 2.233 1.703 5186
-0.131 2.238 1.697 10372
-0.131 2.242 1.691 10372
-0.132 2.247 1.684 8306
-0.132 2.252 1.678 6239
-0.132 2.256 1.671 6777
-0.132 2.254 1.660 7443
-0.132 2.258 1.654 6579
-0.134 2.282 1.661 7679
-0.134 2.293 1.659 10147
-0.135 2.311 1.661 11013
-0.136 2.322 1.659 12834
-0.137 2.333 1.657 10098
-0.138 2.350 1.659 8121
-0.138 2.348 1.648 6731
-0.137 2.339 1.632 5778
-0.138 2.350 1.630 5258
-0.138 2.348 1.619 4658
-0.138 2.352 1.612 4597
-0.147 2.517 1.708 4409
-0.148 2.521 1.700 5763
-0.148 2.526 1.693 6386
-0.147 2.503 1.669 7294
-0.147 2.501 1.658 8670
-0.147 2.506 1.651 10142
-0.147 2.510 1.644 8752
-0.147 2.514 1.636 7363
-0.148 2.526 1.633 5028
-0.151 2.577 1.655 2891
-0.154 2.636 1.680 4120
-0.155 2.641 1.672 5443
-0.155 2.652 1.668 4923
-0.157 2.677 1.673 4855
-0.157 2.681 1.665 4249
-0.158 2.692 1.661 4404
-0.158 2.697 1.654 5109
-0.158 2.701 1.646 5701
-0.158 2.699 1.634 6301
-0.159 2.710 1.630 6736
-0.159 2.721 1.627 7257
-0.160 2.726 1.619 8115
-0.160 2.737 1.615 7631
-0.163 2.783 1.630 9161
-0.164 2.794 1.625 10615
-0.164 2.791 1.614 9176
-0.166 2.831 1.624 7681
-0.166 2.828 1.613 7196
-0.166 2.839 1.608 7173
-0.168 2.871 1.615 6120
-0.171 2.911 1.625 6817
-0.171 2.915 1.616 6009
-0.177 3.025 1.662 5417
-0.177 3.022 1.650 5858
-0.178 3.034 1.645 4700
-0.173 2.946 1.590 4546
-0.178 3.042 1.627 3960
-0.179 3.054 1.622 5346
-0.179 3.051 1.610 6962
-0.179 3.055 1.601 7195
-0.183 3.117 1.620 8065
-0.183 3.121 1.611 10214
-0.183 3.125 1.602 9853
-0.183 3.129 1.593 6551
-0.189 3.227 1.627 4130
-0.194 3.303 1.652 5778
-0.194 3.307 1.642 7410
-0.194 3.304 1.629 6510
-0.192 3.280 1.607 4256
-0.192 3.284 1.597 3042
-0.194 3.303 1.594 3206
-0.194 3.314 1.588 4818
-0.195 3.333 1.585 6221
-0.200 3.417 1.610 7010
-0.200 3.421 1.600 8299
-0.202 3.440 1.597 8396
-0.202 3.451 1.590 7453
-0.202 3.448 1.577 5611
-0.208 3.547 1.607 7156
-0.208 3.544 1.593 6424
-0.209 3.563 1.589 5281
-0.209 3.574 1.582 4442
-0.210 3.579 1.572 4861
-0.210 3.583 1.561 6599
-0.211 3.594 1.554 8072
-0.215 3.672 1.573 9773
-0.215 3.676 1.562 9539
-0.216 3.680 1.552 5520
-0.218 3.721 1.555 5087
-0.218 3.725 1.545 7032
-0.223 3.811 1.565 6866
-0.224 3.822 1.556 4907
-0.227 3.871 1.562 3896
-0.225 3.838 1.537 5153
-0.225 3.842 1.526 7348
-0.226 3.853 1.518 6499
-0.228 3.894 1.520 4072
-0.234 3.995 1.543 4088
-0.235 4.007 1.534 5612
-0.235 4.011 1.523 5016
-0.238 4.060 1.527 7714
-0.238 4.064 1.515 8139
-0.244 4.165 1.536 4997
-0.251 4.281 1.562 5161
-0.251 4.285 1.550 5609
-0.249 4.245 1.523 6045
-0.252 4.309 1.530 5674
-0.252 4.305 1.515 6279
-0.257 4.392 1.529 6231
-0.258 4.396 1.517 5629
-0.261 4.460 1.523 5038
-0.262 4.472 1.512 4080
-0.262 4.476 1.499 2942
-0.262 4.472 1.484 3270
-0.271 4.620 1.514 3191
-0.271 4.632 1.503 2706
-0.272 4.643 1.492 3064
-0.273 4.662 1.483 4023
-0.275 4.689 1.476 5644
-0.276 4.708 1.467 5286
-0.277 4.727 1.458 4257
-0.279 4.769 1.455 3047
-0.287 4.895 1.475 2313
-0.286 4.876 1.454 2474
-0.288 4.910 1.448 1991
-0.288 4.914 1.434 1872
-0.273 4.665 1.353 2332
-0.273 4.661 1.338 2392
-0.276 4.703 1.334 2439
-0.276 4.706 1.321 2793
-0.275 4.694 1.303 1929
-0.276 4.713 1.294 1742
-0.276 4.716 1.280 2698
-0.277 4.727 1.268 2575
-0.276 4.715 1.251 1974
-0.275 4.696 1.232 2059
-0.276 4.706 1.220 2379
-0.276 4.717 1.208 2181
-0.277 4.720 1.194 1082
-0.358 6.104 1.489 1586
-0.358 6.108 1.471 2070
-0.359 6.127 1.457 2953
-0.360 6.139 1.441 3668
-0.359 6.127 1.420 2981
-0.371 6.332 1.444 3735
-0.372 6.351 1.429 2710
-0.376 6.425 1.424 1987
-0.387 6.599 1.440 2310
-0.387 6.611 1.422 3270
-0.388 6.630 1.406 3454
-0.394 6.727 1.404 2648
-0.399 6.816 1.401 2787
-0.408 6.959 1.406 2601
-0.408 6.963 1.386 3006
-0.409 6.974 1.367 2879
-0.445 7.593 1.455 2451
-0.445 7.589 1.431 2936
-0.445 7.593 1.409 1882
-0.472 8.049 1.462 2213
-0.471 8.045 1.437 1941
-0.471 8.033 1.411 1636
-0.470 8.013 1.384 1514
-0.503 8.587 1.449 1585
-0.519 8.864 1.465 2109
-0.520 8.876 1.440 1893
-0.503 8.590 1.373 1871
-0.554 9.463 1.471 1569
-0.555 9.466 1.443 2308
-0.555 9.470 1.416 2744
-0.555 9.474 1.388 2358
-0.527 8.999 1.298 1834
-0.527 9.003 1.272 1630
-0.553 9.437 1.299 989
-0.556 9.488 1.278 920
-0.556 9.491 1.250 1014
-0.556 9.494 1.223 924
-0.556 9.497 1.195 580
-0.254 4.344 0.555 297
-0.254 4.337 0.542 331
-0.255 4.346 0.530 370
-0.255 4.355 0.518 396
-0.255 4.348 0.505 491
-0.255 4.349 0.492 643
-0.254 4.342 0.479 702
-0.254 4.335 0.466 736
-0.254 4.336 0.454 694
-0.254 4.337 0.441 541
-0.254 4.338 0.429 539
-0.254 4.331 0.416 652
-0.254 4.332 0.403 650
-0.252 4.309 0.389 717
-0.251 4.286 0.375 1057
-0.251 4.287 0.363 1267
-0.251 4.279 0.350 1167
-0.250 4.272 0.337 1098
-0.251 4.280 0.325 1074
-0.250 4.273 0.313 786
-0.248 4.226 0.299 468
-0.247 4.219 0.286 391
-0.247 4.211 0.274 588
-0.246 4.204 0.261 948
-0.246 4.204 0.249 1123
-0.246 4.196 0.237 1173
-0.246 4.197 0.225 1262
-0.246 4.205 0.213 1329
-0.246 4.205 0.201 1025
-0.246 4.197 0.188 685
-0.245 4.190 0.176 677
-0.246 4.198 0.164 984
-0.246 4.198 0.152 1300
-0.245 4.190 0.140 1387
-0.245 4.190 0.128 1535
-0.246 4.198 0.116 1618
-0.245 4.190 0.104 1400
-0.245 4.189 0.092 1215
-0.245 4.189 0.080 913
-0.245 4.189 0.067 612
-0.248 4.236 0.054 521
-0.248 4.236 0.042 477
-0.248 4.236 0.030 357
-0.126 2.234 1.703 5328
-0.126 2.238 1.697 10657
-0.126 2.243 1.691 10657
-0.127 2.247 1.684 8581
-0.127 2.252 1.678 6505
-0.127 2.256 1.671 6878
-0.127 2.254 1.660 7388
-0.127 2.259 1.654 6541
-0.129 2.283 1.661 7860
-0.129 2.294 1.659 10508
-0.130 2.311 1.661 11212
-0.131 2.322 1.659 12944
-0.131 2.333 1.657 10576
-0.133 2.357 1.663 9544
-0.133 2.355 1.652 7839
-0.132 2.346 1.637 6414
-0.132 2.351 1.630 5731
-0.133 2.355 1.623 4788
-0.132 2.353 1.612 4609
-0.142 2.517 1.708 4010
-0.142 2.522 1.700 5186
-0.142 2.526 1.693 5561
-0.141 2.497 1.665 6843
-0.141 2.502 1.658 8443
-0.141 2.499 1.647 10049
-0.141 2.510 1.644 8897
-0.142 2.522 1.640 7781
-0.142 2.526 1.633 5416
-0.146 2.584 1.659 3610
-0.148 2.636 1.680 4318
-0.149 2.641 1.672 5505
-0.149 2.652 1.668 4959
-0.146 2.595 1.625 4960
-0.151 2.682 1.665 4374
-0.151 2.686 1.657 4669
-0.152 2.697 1.654 5457
-0.152 2.695 1.642 6016
-0.152 2.699 1.634 6541
-0.153 2.710 1.630 6719
-0.153 2.715 1.623 6985
-0.153 2.726 1.619 7906
-0.154 2.737 1.615 7582
-0.157 2.783 1.630 9065
-0.157 2.794 1.625 10798
-0.157 2.792 1.614 9654
-0.159 2.831 1.624 8149
-0.160 2.835 1.616 7981
-0.160 2.839 1.608 7794
-0.161 2.865 1.611 5941
-0.164 2.911 1.625 6307
-0.164 2.915 1.616 5800
-0.170 3.025 1.662 5304
-0.170 3.023 1.650 5542
-0.168 2.978 1.616 4908
-0.166 2.954 1.593 4757
-0.166 2.944 1.578 4200
-0.172 3.054 1.622 5212
-0.172 3.051 1.610 7708
-0.172 3.056 1.601 8180
-0.176 3.117 1.620 8659
-0.176 3.121 1.611 10533
-0.176 3.126 1.602 9909
-0.176 3.130 1.593 6473
-0.185 3.291 1.658 3696
-0.186 3.303 1.652 5311
-0.186 3.307 1.642 6676
-0.186 3.305 1.629 6260
-0.185 3.287 1.610 5001
-0.185 3.292 1.600 3491
-0.186 3.303 1.594 3340
-0.187 3.322 1.591 5152
-0.188 3.333 1.585 6685
-0.192 3.410 1.607 6480
-0.193 3.421 1.600 7580
-0.194 3.440 1.597 7642
-0.194 3.452 1.590 6981
-0.194 3.449 1.577 5584
-0.200 3.547 1.607 6625
-0.200 3.552 1.596 6303
-0.201 3.563 1.589 5921
-0.201 3.568 1.579 5729
-0.201 3.572 1.569 6296
-0.202 3.583 1.561 7824
-0.202 3.595 1.554 9277
-0.206 3.658 1.567 9266
-0.207 3.676 1.562 9933
-0.207 3.681 1.552 6259
-0.210 3.722 1.555 6232
-0.210 3.733 1.547 7799
-0.215 3.811 1.565 6090
-0.215 3.823 1.556 5047
-0.216 3.834 1.548 4296
-0.216 3.838 1.537 5314
-0.216 3.842 1.526 7442
-0.217 3.846 1.515 6750
-0.220 3.902 1.523 4230
-0.220 3.906 1.511 4719
-0.226 4.007 1.534 5825
-0.226 4.011 1.523 4851
-0.229 4.060 1.527 7950
-0.229 4.064 1.515 8690
-0.229 4.076 1.506 5212
-0.241 4.282 1.562 4869
-0.241 4.286 1.550 5390
-0.239 4.245 1.523 5352
-0.243 4.309 1.530 5757
-0.242 4.306 1.515 6483
-0.247 4.393 1.529 6369
-0.248 4.397 1.517 6278
-0.251 4.461 1.523 5034
-0.252 4.472 1.512 3971
-0.253 4.492 1.504 2480
-0.259 4.594 1.521 3229
-0.260 4.613 1.512 3077
-0.253 4.496 1.463 2766
-0.262 4.651 1.494 3209
-0.262 4.655 1.481 3796
-0.264 4.682 1.474 4493
-0.265 4.709 1.467 4540
-0.266 4.728 1.458 4173
-0.269 4.769 1.455 2753
-0.276 4.903 1.477 1909
-0.273 4.853 1.448 2314
-0.275 4.880 1.440 1793
-0.278 4.937 1.440 1807
-0.263 4.666 1.353 2088
-0.264 4.685 1.344 1793
-0.265 4.711 1.336 2393
-0.265 4.699 1.319 2825
-0.264 4.680 1.299 2130
-0.264 4.683 1.286 1683
-0.265 4.709 1.278 2455
-0.266 4.720 1.266 2388
-0.265 4.708 1.249 1898
-0.264 4.696 1.232 2020
-0.265 4.707 1.220 2296
-0.266 4.718 1.208 2109
-0.270 4.798 1.212 1124
-0.270 4.801 1.198 1485
-0.344 6.109 1.471 1718
-0.345 6.128 1.457 2763
-0.346 6.140 1.441 3506
-0.345 6.136 1.421 2486
-0.357 6.341 1.445 3350
-0.358 6.360 1.430 2751
-0.361 6.402 1.420 1724
-0.377 6.693 1.458 2030
-0.373 6.619 1.423 3062
-0.374 6.638 1.407 3523
-0.379 6.728 1.404 3171
-0.383 6.809 1.399 2430
-0.391 6.953 1.405 2229
-0.392 6.964 1.386 2462
-0.393 6.983 1.369 2527
-0.394 6.994 1.350 2311
-0.427 7.590 1.431 2533
-0.428 7.594 1.409 1604
-0.453 8.050 1.462 2231
-0.453 8.046 1.437 1999
-0.453 8.042 1.413 1819
-0.452 8.022 1.386 1628
-0.484 8.588 1.449 1529
-0.500 8.873 1.466 1940
-0.500 8.885 1.441 1978
-0.484 8.591 1.373 1925
-0.469 8.321 1.309 1647
-0.533 9.468 1.443 1894
-0.533 9.471 1.416 2238
-0.534 9.475 1.388 1919
-0.534 9.479 1.360 1205
-0.507 8.996 1.271 1253
-0.532 9.446 1.300 1005
-0.533 9.458 1.274 763
-0.534 9.492 1.250 849
-0.535 9.495 1.223 811
-0.535 9.499 1.195 472
-0.244 4.342 0.580 273
-0.245 4.343 0.568 331
-0.245 4.344 0.555 391
-0.245 4.345 0.543 468
-0.245 4.346 0.530 532
-0.245 4.355 0.518 566
-0.245 4.349 0.505 661
-0.245 4.350 0.492 894
-0.245 4.343 0.479 1014
-0.244 4.336 0.466 1031
-0.244 4.337 0.454 931
-0.244 4.338 0.441 674
-0.244 4.339 0.429 593
-0.244 4.339 0.416 707
-0.244 4.332 0.403 740
-0.243 4.309 0.389 755
-0.241 4.286 0.375 1036
-0.241 4.287 0.363 1244
-0.241 4.272 0.350 1139
-0.241 4.273 0.337 1035
-0.241 4.281 0.325 986
-0.241 4.274 0.313 715
-0.238 4.227 0.299 405
-0.238 4.227 0.286 336
-0.238 4.220 0.274 534
-0.237 4.204 0.261 873
-0.237 4.205 0.249 1025
-0.236 4.197 0.237 1046
-0.236 4.197 0.225 1136
-0.237 4.205 0.213 1224
-0.237 4.206 0.201 982
-0.236 4.198 0.188 643
-0.236 4.198 0.176 557
-0.236 4.198 0.164 802
-0.236 4.198 0.152 1047
-0.236 4.190 0.140 1095
-0.236 4.198 0.128 1221
-0.237 4.206 0.116 1318
-0.236 4.198 0.104 1133
-0.236 4.190 0.092 976
-0.236 4.190 0.080 715
-0.239 4.245 0.066 454
-0.239 4.245 0.054 437
-0.239 4.237 0.042 422
-0.239 4.244 0.030 331
-0.120 2.234 1.703 5347
-0.120 2.239 1.697 10694
-0.121 2.243 1.691 10694
-0.121 2.248 1.684 8620
-0.116 2.148 1.605 6600
-0.121 2.250 1.667 6944
-0.121 2.255 1.660 7410
-0.121 2.259 1.654 6557
-0.123 2.290 1.665 8113
-0.123 2.294 1.659 10836
-0.124 2.311 1.661 11483
-0.125 2.322 1.659 13153
-0.125 2.333 1.657 11204
-0.127 2.358 1.663 11118
-0.127 2.356 1.652 9024
-0.127 2.353 1.641 7108
-0.127 2.358 1.634 6264
-0.127 2.355 1.623 4878
-0.127 2.353 1.612 4558
-0.132 2.451 1.665 4275
-0.132 2.455 1.658 5309
-0.133 2.480 1.664 5681
-0.134 2.491 1.661 6608
-0.134 2.495 1.654 8290
-0.135 2.506 1.651 9995
-0.135 2.511 1.644 9100
-0.136 2.522 1.640 8295
-0.136 2.533 1.637 5888
-0.139 2.585 1.659 4474
-0.138 2.576 1.643 4723
-0.142 2.648 1.676 5458
-0.139 2.578 1.624 5306
-0.139 2.589 1.621 5309
-0.144 2.682 1.665 4523
-0.144 2.686 1.657 4963
-0.145 2.691 1.650 5784
-0.145 2.695 1.642 6246
-0.145 2.693 1.630 6749
-0.145 2.704 1.627 6743
-0.146 2.715 1.623 6936
-0.147 2.726 1.619 7906
-0.148 2.744 1.619 7801
-0.150 2.783 1.630 9032
-0.150 2.795 1.625 10989
-0.150 2.799 1.617 10153
-0.152 2.831 1.624 8648
-0.152 2.836 1.616 8543
-0.153 2.840 1.608 8073
-0.154 2.858 1.607 5724
-0.157 2.919 1.628 5874
-0.157 2.916 1.616 5657
-0.163 3.026 1.662 5123
-0.160 2.981 1.628 5442
-0.160 2.978 1.616 5646
-0.160 2.968 1.600 5078
-0.158 2.944 1.578 4446
-0.163 3.041 1.615 5347
-0.164 3.052 1.610 8742
-0.165 3.063 1.604 9400
-0.167 3.110 1.616 9137
-0.168 3.122 1.611 10499
-0.168 3.126 1.602 9534
-0.168 3.130 1.593 6136
-0.168 3.120 1.577 3455
-0.178 3.303 1.652 4881
-0.170 3.164 1.576 6256
-0.177 3.298 1.626 6307
-0.177 3.295 1.613 5796
-0.177 3.299 1.604 4212
-0.179 3.325 1.604 3943
-0.179 3.329 1.594 5829
-0.179 3.334 1.585 7366
-0.183 3.410 1.607 5773
-0.184 3.422 1.600 6468
-0.185 3.441 1.597 6407
-0.185 3.445 1.587 6274
-0.185 3.449 1.577 5716
-0.191 3.548 1.607 5951
-0.191 3.552 1.596 6088
-0.192 3.564 1.589 6464
-0.192 3.568 1.579 7068
-0.192 3.572 1.569 7636
-0.193 3.584 1.561 8647
-0.193 3.595 1.554 10082
-0.194 3.607 1.547 9765
-0.198 3.677 1.562 9978
-0.198 3.681 1.552 6244
-0.201 3.737 1.561 6869
-0.201 3.741 1.550 8299
-0.204 3.797 1.559 5894
-0.206 3.823 1.556 4947
-0.204 3.798 1.534 4421
-0.207 3.846 1.540 5456
-0.207 3.843 1.526 7525
-0.206 3.832 1.510 7124
-0.210 3.910 1.525 4288
-0.210 3.914 1.514 5365
-0.215 4.000 1.532 6216
-0.216 4.012 1.523 4513
-0.218 4.061 1.527 7851
-0.219 4.065 1.515 9049
-0.219 4.076 1.506 5831
-0.230 4.282 1.562 4423
-0.230 4.287 1.550 4940
-0.229 4.261 1.528 4492
-0.232 4.310 1.530 5720
-0.232 4.306 1.515 6593
-0.236 4.393 1.529 6321
-0.236 4.390 1.514 6963
-0.239 4.454 1.520 4958
-0.240 4.466 1.510 3744
-0.246 4.575 1.530 2378
-0.247 4.602 1.523 3598
-0.243 4.515 1.483 2976
-0.242 4.504 1.465 3474
-0.248 4.606 1.481 3402
-0.249 4.641 1.477 3573
-0.251 4.667 1.470 3126
-0.253 4.709 1.467 3484
-0.254 4.728 1.458 3615
-0.257 4.778 1.457 2442
-0.258 4.797 1.447 1984
-0.260 4.839 1.444 2308
-0.260 4.843 1.430 2044
-0.261 4.854 1.418 1939
-0.262 4.873 1.408 2307
-0.254 4.731 1.356 1902
-0.254 4.719 1.338 2353
-0.252 4.692 1.317 2683
-0.251 4.673 1.298 2469
-0.251 4.676 1.284 2088
-0.252 4.695 1.274 2362
-0.253 4.706 1.263 2343
-0.253 4.701 1.247 1848
-0.253 4.697 1.232 1778
-0.253 4.708 1.220 1993
-0.254 4.718 1.208 1895
-0.258 4.799 1.212 1607
-0.258 4.802 1.198 1987
-0.258 4.797 1.182 1992
-0.330 6.129 1.457 2492
-0.331 6.148 1.442 3242
-0.332 6.168 1.428 2276
-0.342 6.357 1.449 2925
-0.342 6.369 1.432 2856
-0.342 6.365 1.412 1807
-0.359 6.686 1.456 2046
-0.357 6.643 1.428 3023
-0.357 6.639 1.407 3547
-0.362 6.729 1.404 3533
-0.357 6.631 1.366 2572
-0.356 6.627 1.345 2226
-0.369 6.856 1.367 2013
-0.369 6.860 1.347 2351
-0.399 7.416 1.423 2091
-0.408 7.583 1.430 2067
-0.433 8.047 1.485 1420
-0.433 8.051 1.462 2087
-0.433 8.047 1.437 1929
-0.432 8.035 1.411 1905
-0.432 8.031 1.387 1758
-0.429 7.988 1.356 1503
-0.477 8.875 1.466 1713
-0.478 8.886 1.441 2062
-0.462 8.600 1.374 1895
-0.448 8.330 1.310 1774
-0.497 9.242 1.412 1694
-0.497 9.245 1.385 1772
-0.509 9.476 1.388 1427
-0.510 9.480 1.360 1042
-0.509 9.460 1.330 1068
-0.508 9.456 1.301 1051
-0.509 9.467 1.275 753
-0.510 9.494 1.250 766
-0.511 9.497 1.223 694
-0.237 4.417 0.627 361
-0.238 4.418 0.614 250
-0.234 4.350 0.581 395
-0.234 4.351 0.569 541
-0.234 4.345 0.555 596
-0.234 4.346 0.543 619
-0.234 4.347 0.530 685
-0.234 4.348 0.518 736
-0.234 4.349 0.505 900
-0.234 4.350 0.492 1196
-0.234 4.343 0.479 1325
-0.233 4.337 0.466 1392
-0.233 4.337 0.454 1316
-0.233 4.338 0.441 1053
-0.233 4.339 0.429 761
-0.234 4.348 0.417 672
-0.233 4.341 0.403 697
-0.232 4.310 0.389 717
-0.230 4.287 0.375 1013
-0.231 4.288 0.363 1233
-0.230 4.273 0.350 1101
-0.230 4.273 0.337 935
-0.230 4.282 0.325 860
-0.230 4.282 0.313 612
-0.228 4.235 0.299 367
-0.227 4.228 0.286 309
-0.227 4.220 0.274 461
-0.226 4.213 0.262 735
-0.226 4.205 0.249 857
-0.226 4.198 0.237 884
-0.226 4.206 0.225 1026
-0.226 4.206 0.213 1142
-0.226 4.206 0.201 941
-0.226 4.206 0.189 575
-0.226 4.199 0.176 421
-0.226 4.199 0.164 598
-0.226 4.199 0.152 776
-0.226 4.199 0.140 821
-0.226 4.207 0.128 930
-0.227 4.215 0.116 1018
-0.227 4.214 0.104 892
-0.226 4.206 0.091 774
-0.226 4.198 0.079 543
-0.228 4.246 0.066 359
-0.228 4.245 0.054 361
-0.228 4.245 0.042 363
-0.228 4.245 0.030 293
-0.115 2.234 1.703 5102
-0.115 2.239 1.697 10204
-0.115 2.243 1.691 10204
-0.116 2.248 1.684 8221
-0.110 2.149 1.605 6580
-0.116 2.250 1.667 6752
-0.116 2.255 1.660 7234
-0.116 2.259 1.654 6407
-0.118 2.290 1.665 8102
-0.118 2.294 1.659 10790
-0.119 2.312 1.661 11429
-0.119 2.323 1.659 13017
-0.120 2.340 1.661 11550
-0.121 2.358 1.663 12003
-0.121 2.362 1.656 9643
-0.121 2.360 1.645 7434
-0.122 2.365 1.639 6504
-0.121 2.362 1.628 4823
-0.121 2.353 1.612 4360
-0.126 2.451 1.665 4802
-0.126 2.455 1.658 6045
-0.127 2.467 1.655 6015
-0.128 2.484 1.657 6438
-0.128 2.495 1.654 8060
-0.129 2.507 1.651 9825
-0.129 2.511 1.644 9113
-0.130 2.522 1.640 8555
-0.130 2.533 1.637 6253
-0.133 2.578 1.655 5160
-0.132 2.576 1.643 5259
-0.132 2.567 1.628 6004
-0.132 2.578 1.624 5665
-0.133 2.589 1.621 5466
-0.138 2.682 1.665 4553
-0.138 2.687 1.657 5071
-0.138 2.684 1.646 5954
-0.138 2.682 1.634 6419
-0.137 2.659 1.611 7026
-0.139 2.704 1.627 6815
-0.140 2.715 1.623 6981
-0.140 2.727 1.619 7840
-0.141 2.752 1.622 7857
-0.143 2.791 1.633 8791
-0.144 2.795 1.625 10863
-0.144 2.799 1.617 10342
-0.146 2.832 1.624 8868
-0.146 2.836 1.616 8630
-0.146 2.840 1.608 7882
-0.147 2.852 1.604 5374
-0.150 2.919 1.628 5586
-0.150 2.916 1.616 5497
-0.156 3.026 1.662 4859
-0.153 2.974 1.625 5892
-0.153 2.978 1.616 6041
-0.153 2.969 1.600 5127
-0.151 2.945 1.578 4442
-0.157 3.062 1.625 5599
-0.157 3.059 1.613 9518
-0.157 3.064 1.604 10390
-0.160 3.111 1.616 9339
-0.160 3.115 1.607 10177
-0.160 3.119 1.598 8948
-0.161 3.123 1.589 5777
-0.164 3.192 1.611 3658
-0.162 3.146 1.578 5240
-0.163 3.165 1.576 6802
-0.170 3.298 1.626 6382
-0.170 3.303 1.616 6566
-0.170 3.307 1.607 5078
-0.171 3.326 1.604 4624
-0.171 3.323 1.591 6456
-0.171 3.327 1.582 7965
-0.171 3.331 1.572 5766
-0.176 3.422 1.600 5328
-0.176 3.434 1.594 5106
-0.177 3.445 1.587 5440
-0.177 3.442 1.574 5880
-0.177 3.439 1.561 6835
-0.179 3.480 1.566 5916
-0.183 3.564 1.589 6692
-0.183 3.568 1.579 7772
-0.184 3.573 1.569 8116
-0.184 3.584 1.561 8575
-0.185 3.596 1.554 10014
-0.185 3.607 1.547 9926
-0.189 3.677 1.562 9851
-0.190 3.696 1.557 6521
-0.192 3.730 1.558 6556
-0.192 3.741 1.550 7369
-0.196 3.805 1.562 4925
-0.196 3.824 1.556 4490
-0.195 3.791 1.532 5081
-0.196 3.810 1.526 5716
-0.198 3.843 1.526 7116
-0.197 3.832 1.510 6871
-0.197 3.836 1.499 4267
-0.201 3.915 1.514 5482
-0.205 3.986 1.526 6870
-0.206 4.012 1.523 4260
-0.209 4.061 1.527 7344
-0.209 4.073 1.518 8907
-0.210 4.077 1.506 6210
-0.210 4.081 1.494 4583
-0.220 4.287 1.550 4321
-0.212 4.134 1.485 4107
-0.221 4.303 1.528 5483
-0.221 4.307 1.515 6252
-0.226 4.394 1.529 6042
-0.226 4.390 1.514 7138
-0.226 4.402 1.504 4848
-0.230 4.466 1.510 3525
-0.235 4.576 1.530 2454
-0.237 4.603 1.523 3779
-0.232 4.523 1.485 3344
-0.231 4.505 1.465 3962
-0.236 4.599 1.479 3917
-0.237 4.618 1.470 3984
-0.239 4.660 1.468 2456
-0.242 4.710 1.467 2683
-0.243 4.729 1.458 2929
-0.246 4.786 1.459 2273
-0.247 4.797 1.447 1986
-0.256 4.984 1.483 2163
-0.249 4.851 1.432 2154
-0.249 4.855 1.418 2035
-0.250 4.866 1.406 2351
-0.243 4.732 1.356 2180
-0.243 4.728 1.340 2271
-0.241 4.685 1.315 2573
-0.240 4.673 1.298 2648
-0.240 4.677 1.284 2234
-0.241 4.688 1.272 2341
-0.241 4.699 1.261 2366
-0.241 4.686 1.243 1785
-0.241 4.690 1.230 1450
-0.242 4.716 1.222 1649
-0.243 4.719 1.208 1665
-0.247 4.799 1.212 1919
-0.247 4.810 1.200 2309
-0.247 4.798 1.182 2124
-0.315 6.130 1.457 2189
-0.316 6.157 1.444 2903
-0.318 6.184 1.431 2404
-0.328 6.373 1.452 2637
-0.327 6.369 1.432 2785
-0.327 6.365 1.412 1841
-0.335 6.524 1.424 2148
-0.342 6.652 1.429 3162
-0.341 6.640 1.407 3563
-0.346 6.729 1.404 3637
-0.345 6.717 1.382 2690
-0.341 6.628 1.345 2272
-0.353 6.865 1.368 1904
-0.353 6.860 1.347 2160
-0.381 7.417 1.423 2316
-0.382 7.428 1.403 1917
-0.232 4.524 0.892 1611
-0.414 8.052 1.462 1769
-0.414 8.048 1.437 1690
-0.413 8.036 1.411 1843
-0.413 8.032 1.387 1812
-0.232 4.511 0.823 1526
-0.457 8.883 1.467 1577
-0.457 8.887 1.441 2118
-0.457 8.891 1.416 1807
-0.428 8.331 1.310 1758
-0.475 9.243 1.412 1778
-0.475 9.247 1.385 1893
-0.476 9.258 1.359 1485
-0.479 9.316 1.339 994
-0.486 9.461 1.330 1233
-0.487 9.480 1.304 1074
-0.488 9.491 1.278 754
-0.488 9.495 1.250 739
-0.227 4.416 0.639 669
-0.227 4.417 0.627 546
-0.227 4.411 0.613 420
-0.223 4.341 0.593 353
-0.224 4.351 0.581 534
-0.224 4.352 0.569 723
-0.223 4.345 0.555 797
-0.223 4.346 0.543 802
-0.223 4.348 0.530 830
-0.223 4.349 0.518 845
-0.224 4.350 0.505 1006
-0.224 4.351 0.492 1340
-0.223 4.344 0.479 1486
-0.223 4.337 0.466 1521
-0.223 4.338 0.454 1417
-0.223 4.339 0.441 1135
-0.223 4.348 0.429 809
-0.223 4.349 0.417 696
-0.223 4.341 0.403 703
-0.222 4.318 0.390 650
-0.220 4.288 0.375 837
-0.220 4.280 0.363 1035
-0.220 4.273 0.350 932
-0.220 4.274 0.337 786
-0.220 4.282 0.325 728
-0.220 4.283 0.313 511
-0.218 4.236 0.299 260
-0.217 4.221 0.274 398
-0.217 4.221 0.262 651
-0.217 4.214 0.249 733
-0.216 4.206 0.237 773
-0.216 4.206 0.225 947
-0.217 4.214 0.213 1071
-0.216 4.207 0.201 872
-0.216 4.207 0.189 499
-0.216 4.207 0.176 324
-0.216 4.199 0.164 444
-0.216 4.199 0.152 565
-0.216 4.199 0.140 608
-0.217 4.215 0.128 689
-0.217 4.223 0.116 750
-0.217 4.223 0.103 679
-0.217 4.223 0.091 608
-0.218 4.238 0.079 421
-0.219 4.254 0.066 278
-0.218 4.246 0.054 285
-0.218 4.246 0.042 293
-0.219 4.253 0.030 250
-0.109 2.235 1.703 4788
-0.109 2.239 1.697 9577
-0.109 2.244 1.691 9577
-0.109 2.242 1.680 7753
-0.104 2.149 1.605 6471
-0.109 2.251 1.667 6618
-0.110 2.255 1.660 7146
-0.110 2.260 1.654 6327
-0.111 2.290 1.665 8172
-0.112 2.301 1.663 10866
-0.112 2.312 1.661 11507
-0.113 2.323 1.659 13043
-0.114 2.341 1.661 12117
-0.115 2.358 1.663 13033
-0.115 2.363 1.656 10397
-0.115 2.361 1.645 7773
-0.115 2.372 1.643 6832
-0.117 2.416 1.662 5124
-0.118 2.427 1.659 4165
-0.119 2.451 1.665 5597
-0.119 2.456 1.658 7094
-0.120 2.467 1.655 6791
-0.120 2.478 1.652 6637
-0.121 2.496 1.654 7979
-0.122 2.507 1.651 9877
-0.122 2.518 1.648 9351
-0.123 2.523 1.640 9051
-0.123 2.534 1.637 6895
-0.125 2.579 1.655 6201
-0.125 2.570 1.639 6255
-0.125 2.567 1.628 6925
-0.125 2.578 1.624 6301
-0.125 2.583 1.617 5766
-0.130 2.683 1.665 4579
-0.130 2.680 1.654 5124
-0.130 2.671 1.638 6209
-0.130 2.668 1.626 6740
-0.129 2.659 1.611 7674
-0.131 2.698 1.623 6998
-0.132 2.709 1.619 7423
-0.132 2.727 1.619 7947
-0.134 2.759 1.626 8063
-0.136 2.791 1.633 8592
-0.136 2.796 1.625 10770
-0.136 2.800 1.617 10733
-0.138 2.832 1.624 9028
-0.138 2.836 1.616 8422
-0.138 2.841 1.608 7294
-0.138 2.831 1.593 5047
-0.142 2.926 1.632 5295
-0.142 2.917 1.616 5295
-0.144 2.956 1.626 5034
-0.145 2.975 1.625 6460
-0.145 2.979 1.616 6363
-0.145 2.976 1.604 5033
-0.143 2.938 1.574 4374
-0.149 3.063 1.625 6039
-0.149 3.060 1.613 10687
-0.149 3.064 1.604 11820
-0.151 3.104 1.613 9823
-0.151 3.115 1.607 9954
-0.152 3.120 1.598 8363
-0.152 3.124 1.589 5687
-0.155 3.185 1.607 4130
-0.153 3.147 1.578 5593
-0.154 3.165 1.576 7267
-0.160 3.299 1.626 6557
-0.160 3.303 1.616 7829
-0.161 3.315 1.610 6609
-0.161 3.304 1.594 5865
-0.161 3.323 1.591 7605
-0.162 3.327 1.582 9132
-0.162 3.339 1.575 7035
-0.166 3.423 1.600 4156
-0.166 3.427 1.590 3664
-0.167 3.438 1.584 4509
-0.167 3.435 1.571 6242
-0.167 3.440 1.561 8091
-0.168 3.458 1.557 6530
-0.173 3.565 1.589 6901
-0.173 3.569 1.579 8282
-0.174 3.573 1.569 8047
-0.174 3.585 1.561 7779
-0.175 3.603 1.557 9431
-0.176 3.615 1.549 9723
-0.179 3.685 1.565 9439
-0.180 3.704 1.560 6808
-0.182 3.753 1.567 7051
-0.182 3.749 1.553 7316
-0.185 3.798 1.559 4925
-0.185 3.809 1.551 3922
-0.184 3.791 1.532 4357
-0.187 3.840 1.537 5474
-0.187 3.851 1.529 6510
-0.187 3.840 1.512 5812
-0.187 3.852 1.504 4203
-0.193 3.975 1.535 5804
-0.193 3.979 1.524 8056
-0.193 3.976 1.510 5110
-0.198 4.069 1.529 6730
-0.198 4.066 1.515 8514
-0.198 4.077 1.506 6693
-0.198 4.081 1.494 5136
-0.199 4.100 1.487 4437
-0.200 4.119 1.480 4091
-0.209 4.303 1.528 4919
-0.210 4.315 1.518 5659
-0.213 4.387 1.527 5581
-0.213 4.391 1.514 7085
-0.216 4.448 1.518 4944
-0.217 4.467 1.510 3629
-0.218 4.486 1.502 3209
-0.224 4.603 1.523 3830
-0.220 4.524 1.485 3657
-0.219 4.505 1.465 4265
-0.223 4.600 1.479 4454
-0.224 4.619 1.470 4554
-0.226 4.646 1.463 2453
-0.229 4.710 1.467 1973
-0.229 4.722 1.456 2370
-0.233 4.794 1.461 1925
-0.233 4.790 1.445 1781
-0.242 4.977 1.481 2404
-0.236 4.859 1.434 2110
-0.236 4.855 1.418 1830
-0.236 4.859 1.404 2152
-0.230 4.740 1.358 2666
-0.230 4.736 1.342 2242
-0.227 4.671 1.311 2564
-0.227 4.674 1.298 2603
-0.227 4.677 1.284 2094
-0.228 4.688 1.272 2132
-0.228 4.692 1.259 2303
-0.227 4.679 1.242 1717
-0.268 5.514 1.424 1032
-0.229 4.717 1.222 1239
-0.229 4.712 1.206 1364
-0.234 4.808 1.214 2191
-0.234 4.811 1.200 2528
-0.233 4.791 1.181 2134
-0.297 6.123 1.455 1947
-0.300 6.165 1.446 2590
-0.300 6.185 1.431 2467
-0.310 6.382 1.453 2410
-0.309 6.370 1.432 2543
-0.308 6.335 1.406 1956
-0.317 6.525 1.424 2250
-0.323 6.653 1.429 3211
-0.323 6.641 1.407 3382
-0.327 6.730 1.404 3316
-0.322 6.625 1.364 2720
-0.322 6.629 1.345 2223
-0.334 6.866 1.368 1735
-0.334 6.869 1.348 1862
-0.360 7.418 1.423 2493
-0.361 7.437 1.404 2287
-0.220 4.525 0.892 2156
-0.220 4.527 0.879 2104
-0.380 7.823 1.401 1455
-0.390 8.029 1.410 1659
-0.390 8.033 1.387 1807
-0.219 4.512 0.823 1769
-0.391 8.048 1.341 1460
-0.431 8.881 1.440 2174
-0.431 8.877 1.413 1852
-0.431 8.880 1.388 1656
-0.431 8.876 1.361 2009
-0.449 9.248 1.385 1937
-0.450 9.267 1.360 1701
-0.436 8.965 1.293 1275
-0.461 9.486 1.333 1497
-0.461 9.489 1.305 1285
-0.461 9.493 1.278 857
-0.214 4.415 0.652 781
-0.215 4.416 0.639 808
-0.215 4.418 0.627 555
-0.214 4.404 0.612 392
-0.212 4.374 0.596 387
-0.212 4.359 0.582 612
-0.211 4.353 0.569 841
-0.211 4.346 0.555 899
-0.211 4.347 0.543 863
-0.211 4.348 0.530 933
-0.211 4.349 0.518 1025
-0.211 4.350 0.505 1162
-0.211 4.351 0.492 1444
-0.211 4.345 0.479 1604
-0.211 4.338 0.466 1672
-0.211 4.339 0.454 1615
-0.211 4.340 0.441 1356
-0.211 4.340 0.429 901
-0.211 4.349 0.417 642
-0.211 4.350 0.404 610
-0.211 4.343 0.391 573
-0.208 4.288 0.375 747
-0.208 4.289 0.363 883
-0.208 4.282 0.350 734
-0.208 4.274 0.337 572
-0.208 4.283 0.325 520
-0.208 4.275 0.313 374
-0.205 4.229 0.274 336
-0.205 4.222 0.262 530
-0.205 4.222 0.250 581
-0.205 4.215 0.237 573
-0.204 4.207 0.225 666
-0.205 4.215 0.213 758
-0.204 4.207 0.201 617
-0.204 4.208 0.189 350
-0.204 4.200 0.164 315
-0.204 4.200 0.152 408
-0.204 4.208 0.140 427
-0.206 4.239 0.128 490
-0.207 4.255 0.115 561
-0.206 4.239 0.103 520
-0.206 4.239 0.091 488
-0.206 4.247 0.079 347
-0.104 2.235 1.703 4212
-0.104 2.239 1.697 8425
-0.104 2.244 1.691 8425
-0.104 2.242 1.680 6921
-0.100 2.149 1.605 6034
-0.105 2.251 1.667 6227
-0.105 2.255 1.660 6875
-0.105 2.260 1.654 6086
-0.107 2.297 1.670 7940
-0.107 2.301 1.663 10456
-0.108 2.312 1.661 11091
-0.108 2.323 1.659 12580
-0.109 2.341 1.661 12086
-0.110 2.359 1.663 13225
-0.110 2.363 1.656 10452
-0.110 2.367 1.650 7680
-0.112 2.398 1.660 6954
-0.112 2.409 1.658 5189
-0.114 2.447 1.672 4456
-0.114 2.452 1.665 6099
-0.114 2.456 1.658 7742
-0.115 2.460 1.651 7312
-0.115 2.472 1.648 6946
-0.116 2.496 1.654 7638
-0.117 2.507 1.651 9564
-0.117 2.518 1.648 9344
-0.117 2.523 1.640 9158
-0.118 2.541 1.641 7284
-0.120 2.572 1.650 6950
-0.120 2.570 1.639 7089
-0.120 2.567 1.628 7634
-0.120 2.572 1.620 6800
-0.120 2.583 1.617 5973
-0.120 2.587 1.610 4490
-0.124 2.674 1.650 4885
-0.124 2.664 1.634 6272
-0.124 2.662 1.623 6870
-0.124 2.659 1.611 7908
-0.124 2.670 1.607 7181
-0.126 2.702 1.615 7616
-0.127 2.720 1.615 7934
-0.128 2.759 1.626 8245
-0.130 2.791 1.633 8396
-0.130 2.796 1.625 10406
-0.130 2.800 1.617 10649
-0.131 2.811 1.613 8761
-0.132 2.837 1.616 7632
-0.132 2.841 1.608 6265
-0.132 2.831 1.593 4515
-0.137 2.934 1.636 5068
-0.136 2.924 1.620 5061
-0.138 2.956 1.626 5314
-0.139 2.975 1.625 6664
-0.139 2.979 1.616 6272
-0.139 2.976 1.604 4590
-0.137 2.938 1.574 4136
-0.143 3.063 1.625 6300
-0.142 3.060 1.613 11318
-0.143 3.064 1.604 12616
-0.144 3.090 1.606 10011
-0.145 3.116 1.607 9391
-0.145 3.120 1.598 7611
-0.145 3.124 1.589 5598
-0.148 3.186 1.607 4463
-0.148 3.176 1.591 5784
-0.147 3.158 1.572 7183
-0.154 3.299 1.626 6493
-0.154 3.311 1.620 8643
-0.154 3.308 1.607 7816
-0.154 3.305 1.594 7176
-0.155 3.323 1.591 8565
-0.155 3.328 1.582 10090
-0.155 3.339 1.575 8144
-0.156 3.343 1.566 4304
-0.159 3.420 1.587 3013
-0.160 3.432 1.581 3843
-0.160 3.436 1.571 6257
-0.160 3.440 1.561 8714
-0.160 3.444 1.551 6948
-0.166 3.565 1.589 6756
-0.166 3.569 1.579 8056
-0.167 3.581 1.572 7241
-0.167 3.592 1.564 6567
-0.168 3.604 1.557 8359
-0.168 3.615 1.549 8977
-0.172 3.686 1.565 8377
-0.172 3.705 1.560 6632
-0.174 3.746 1.564 6141
-0.175 3.750 1.553 6190
-0.177 3.791 1.556 3560
-0.177 3.802 1.548 2959
-0.177 3.792 1.532 4503
-0.178 3.818 1.529 5648
-0.179 3.852 1.529 5757
-0.179 3.841 1.512 4975
-0.180 3.867 1.509 4237
-0.185 3.975 1.535 5805
-0.185 3.979 1.524 8591
-0.185 3.976 1.510 5907
-0.189 4.070 1.529 6076
-0.189 4.066 1.515 7643
-0.190 4.070 1.503 6826
-0.190 4.082 1.494 5396
-0.191 4.093 1.485 4413
-0.191 4.105 1.475 3670
-0.199 4.266 1.515 4378
-0.201 4.315 1.518 4633
-0.204 4.380 1.524 4871
-0.204 4.391 1.514 6398
-0.207 4.440 1.516 4979
-0.208 4.460 1.508 3761
-0.209 4.486 1.502 4071
-0.209 4.498 1.491 3847
-0.211 4.524 1.485 3579
-0.210 4.506 1.465 4128
-0.214 4.600 1.479 4715
