-0.810 2.153 1.751 7898
-0.820 2.181 1.763 7049
-0.824 2.192 1.761 7219
-0.831 2.208 1.763 4654
-0.855 2.273 1.802 5208
-0.857 2.278 1.795 5208
-0.861 2.289 1.792 6007
-0.865 2.299 1.790 7184
-0.871 2.316 1.792 6279
-0.877 2.333 1.794 5923
-0.879 2.337 1.787 7644
-0.883 2.348 1.784 9383
-0.885 2.352 1.777 9383
-0.882 2.344 1.761 9126
-0.881 2.343 1.749 8914
-0.878 2.335 1.733 6023
-0.922 2.451 1.804 3675
-0.928 2.468 1.805 3815
-0.932 2.479 1.802 4313
-0.936 2.489 1.798 4692
-0.940 2.500 1.795 5199
-0.944 2.511 1.792 4872
-0.951 2.528 1.792 5140
-0.953 2.533 1.785 6055
-0.947 2.518 1.764 7128
-0.954 2.535 1.765 8320
-0.955 2.540 1.757 9601
-0.959 2.550 1.753 7560
-0.963 2.561 1.750 5699
-1.010 2.686 1.819 5033
-1.012 2.691 1.811 6066
-1.004 2.670 1.786 6842
-1.006 2.674 1.778 8538
-1.010 2.685 1.774 8095
-1.021 2.715 1.782 7652
-1.025 2.726 1.777 7565
-1.030 2.737 1.773 7149
-1.031 2.742 1.764 5898
-1.038 2.759 1.764 5849
-1.049 2.789 1.771 7387
-1.058 2.813 1.774 7505
-1.067 2.837 1.777 6177
-1.084 2.881 1.791 4704
-1.088 2.892 1.786 7118
-1.089 2.896 1.777 9172
-1.089 2.894 1.764 9049
-1.103 2.931 1.774 8082
-1.107 2.942 1.769 9313
-1.111 2.953 1.763 10193
-1.115 2.964 1.758 11780
-1.117 2.969 1.749 13229
-1.118 2.973 1.740 11082
-1.140 3.030 1.759 9363
-1.119 2.975 1.718 8225
-1.121 2.979 1.709 6646
-1.152 3.063 1.742 5764
-1.176 3.128 1.764 6329
-1.183 3.145 1.761 7951
-1.190 3.163 1.759 7891
-1.201 3.194 1.763 7807
-1.195 3.178 1.743 7634
-1.197 3.183 1.733 6696
-1.229 3.268 1.764 6076
-1.266 3.366 1.801 6290
-1.273 3.384 1.797 7794
-1.269 3.375 1.780 8725
-1.263 3.359 1.760 11258
-1.263 3.357 1.746 10081
-1.262 3.354 1.733 6729
-1.274 3.386 1.735 4279
-1.278 3.397 1.728 5151
-1.277 3.395 1.714 5991
-1.278 3.399 1.704 6474
-1.280 3.403 1.693 5206
-1.379 3.666 1.802 4425
-1.383 3.677 1.794 4805
-1.375 3.655 1.770 4205
-1.376 3.659 1.759 3901
-1.398 3.718 1.772 2942
-1.416 3.764 1.779 3740
-1.420 3.775 1.770 6166
-1.442 3.834 1.782 6729
-1.444 3.839 1.771 7859
-1.425 3.788 1.735 8643
-1.450 3.855 1.750 8106
-1.449 3.852 1.735 7550
-1.453 3.863 1.726 6519
-1.507 4.006 1.771 6313
-1.508 4.010 1.759 4929
-1.515 4.029 1.752 4654
-1.517 4.033 1.740 4961
-1.519 4.037 1.727 4058
-1.578 4.194 1.775 4463
-1.574 4.185 1.757 6437
-1.560 4.148 1.728 5409
-1.590 4.229 1.744 4537
-1.595 4.240 1.734 4349
-1.625 4.321 1.750 4715
-1.630 4.333 1.739 2974
-1.608 4.274 1.703 2591
-1.641 4.362 1.720 4834
-1.642 4.367 1.707 6319
-1.702 4.525 1.749 5423
-1.701 4.523 1.732 5979
-1.703 4.527 1.718 4657
-1.712 4.552 1.712 3998
-1.730 4.599 1.712 5076
-1.745 4.639 1.710 3855
-1.768 4.699 1.715 3595
-1.774 4.718 1.705 3405
-1.779 4.729 1.693 2886
-1.754 4.663 1.655 2415
-1.851 4.922 1.724 2878
-1.856 4.933 1.711 2871
-1.895 5.037 1.727 3524
-1.904 5.063 1.719 4082
-1.906 5.067 1.703 4143
-1.907 5.071 1.687 3648
-1.912 5.082 1.674 3846
-1.924 5.115 1.667 2257
-1.987 5.283 1.700 2101
-1.992 5.295 1.686 2101
-2.082 5.535 1.738 2458
-2.081 5.532 1.719 4708
-2.074 5.515 1.696 5749
-2.076 5.519 1.679 6435
-2.080 5.531 1.664 6308
-2.082 5.535 1.646 5769
-2.226 5.919 1.733 7050
-2.228 5.924 1.714 4617
-2.262 6.014 1.719 2402
-2.242 5.961 1.685 3392
-2.246 5.972 1.669 2984
-2.337 6.214 1.711 2170
-2.353 6.255 1.701 2282
-2.346 6.237 1.676 2045
-2.342 6.227 1.653 1850
-2.395 6.369 1.667 2074
-2.402 6.387 1.651 2218
-2.570 6.833 1.735 1991
-2.607 6.931 1.736 2140
-2.609 6.935 1.714 2145
-2.613 6.947 1.694 2247
-2.721 7.234 1.736 2341
-2.720 7.231 1.712 2350
-2.918 7.758 1.802 1517
-2.835 7.538 1.730 1504
-2.831 7.527 1.704 2045
-2.827 7.517 1.677 1338
-3.084 8.198 1.791 1465
-3.085 8.203 1.766 1908
-3.087 8.207 1.740 2029
-3.091 8.219 1.716 1296
-3.214 8.544 1.752 1171
-3.317 8.819 1.776 1177
-3.319 8.823 1.748 1190
-3.315 8.813 1.718 679
-3.311 8.802 1.688 438
-3.326 8.843 1.667 264
-3.329 8.851 1.613 303
-3.331 8.855 1.585 367
-0.800 2.139 1.759 4686
-0.802 2.144 1.753 9372
-0.804 2.148 1.746 9372
-0.808 2.159 1.744 8175
-0.818 2.187 1.756 8015
-0.820 2.192 1.749 5161
-0.849 2.269 1.797 5234
-0.851 2.273 1.790 5234
-0.857 2.290 1.792 5926
-0.861 2.301 1.790 7017
-0.865 2.311 1.787 6065
-0.871 2.328 1.789 5657
-0.875 2.339 1.787 7131
-0.877 2.343 1.779 8615
-0.878 2.348 1.772 8615
-0.878 2.346 1.761 8210
-0.875 2.338 1.745 7882
-0.874 2.336 1.733 5724
-0.873 2.334 1.722 3698
-0.924 2.469 1.805 3630
-0.930 2.486 1.806 4360
-0.934 2.497 1.803 4877
-0.936 2.502 1.795 5474
-0.940 2.513 1.792 5002
-0.947 2.530 1.792 5288
-0.948 2.534 1.785 5726
-0.950 2.539 1.777 6163
-0.952 2.543 1.769 7500
-0.953 2.548 1.761 8837
-0.955 2.552 1.753 6870
-0.961 2.569 1.754 5099
-0.996 2.663 1.803 5026
-1.008 2.693 1.811 5998
-1.000 2.672 1.786 6611
-0.999 2.670 1.774 7988
-1.005 2.687 1.774 7517
-1.017 2.717 1.782 7254
-1.021 2.728 1.777 7433
-1.025 2.739 1.773 7342
-1.027 2.744 1.764 6255
-1.033 2.761 1.764 5888
-1.044 2.791 1.771 6976
-1.053 2.815 1.774 7157
-1.060 2.833 1.773 6038
-1.079 2.883 1.791 5028
-1.083 2.894 1.786 7565
-1.084 2.898 1.777 9582
-1.084 2.896 1.764 9096
-1.112 2.972 1.796 8005
-1.107 2.957 1.776 9178
-1.111 2.968 1.771 10134
-1.112 2.973 1.761 11582
-1.114 2.977 1.752 13368
-1.116 2.982 1.743 11308
-1.135 3.032 1.759 10641
-1.114 2.977 1.718 8485
-1.116 2.981 1.709 6810
-1.149 3.072 1.745 6271
-1.154 3.083 1.739 6028
-1.180 3.154 1.765 7023
-1.189 3.178 1.766 8566
-1.196 3.196 1.763 9047
-1.190 3.181 1.743 8056
-1.189 3.178 1.729 6422
-1.221 3.263 1.760 5886
-1.263 3.375 1.804 6423
-1.267 3.386 1.797 8186
-1.264 3.377 1.780 8987
-1.258 3.361 1.760 11308
-1.257 3.359 1.746 9823
-1.258 3.363 1.736 6220
-1.265 3.381 1.732 3969
-1.262 3.372 1.715 4818
-1.266 3.383 1.708 5875
-1.270 3.394 1.701 6199
-1.269 3.392 1.687 4737
-1.345 3.593 1.768 4163
-1.374 3.673 1.791 4173
-1.368 3.657 1.770 3887
-1.395 3.730 1.790 3600
-1.392 3.720 1.772 2764
-1.409 3.766 1.779 3542
-1.413 3.777 1.770 6168
-1.430 3.823 1.776 6581
-1.435 3.834 1.768 7378
-1.418 3.791 1.735 8070
-1.446 3.864 1.753 7652
-1.442 3.854 1.735 6869
-1.444 3.859 1.723 5665
-1.500 4.008 1.771 5983
-1.496 3.999 1.753 5263
-1.506 4.024 1.749 4283
-1.510 4.036 1.740 4484
-1.514 4.047 1.730 3925
-1.570 4.197 1.775 4806
-1.564 4.181 1.754 6816
-1.550 4.143 1.725 6442
-1.583 4.231 1.744 4644
-1.590 4.250 1.737 4627
-1.605 4.289 1.737 4429
-1.606 4.293 1.724 3128
-1.600 4.277 1.703 3218
-1.633 4.365 1.720 4653
-1.635 4.369 1.707 5987
-1.692 4.521 1.746 4299
-1.691 4.519 1.730 5012
-1.692 4.523 1.716 4767
-1.699 4.541 1.707 4199
-1.725 4.609 1.715 4876
-1.734 4.635 1.708 3668
-1.759 4.702 1.715 3493
-1.769 4.728 1.708 3213
-1.771 4.732 1.693 2676
-1.746 4.666 1.655 2530
-1.843 4.925 1.724 2799
-1.847 4.936 1.711 2749
-1.889 5.047 1.730 3224
-1.893 5.059 1.716 4119
-1.897 5.070 1.703 4393
-1.899 5.074 1.687 3939
-1.908 5.100 1.678 4014
-1.918 5.126 1.669 3079
-1.981 5.294 1.702 2204
-1.990 5.320 1.692 2277
-1.992 5.324 1.676 2921
-2.069 5.529 1.717 4414
-2.065 5.519 1.696 4964
-2.066 5.523 1.679 6378
-2.071 5.534 1.664 5938
-2.072 5.538 1.646 4545
-2.219 5.930 1.735 6820
-2.218 5.928 1.714 4196
-2.249 6.011 1.717 2499
-2.235 5.972 1.687 3294
-2.236 5.976 1.669 3049
-2.327 6.218 1.711 2473
-2.326 6.216 1.690 2490
-2.333 6.234 1.674 2347
-2.329 6.224 1.651 2399
-2.384 6.373 1.667 2081
-2.394 6.398 1.652 2314
-2.558 6.837 1.735 1688
-2.592 6.928 1.734 2104
-2.597 6.940 1.714 2140
-2.601 6.951 1.694 2221
-2.708 7.239 1.736 2441
-2.707 7.236 1.712 2531
-2.701 7.218 1.684 1620
-2.896 7.739 1.772 1504
-2.818 7.532 1.704 1959
-2.814 7.522 1.677 1277
-2.939 7.854 1.720 1453
-3.071 8.208 1.766 1820
-3.073 8.212 1.740 1970
-3.162 8.450 1.760 1364
-3.158 8.440 1.731 1161
-3.296 8.810 1.773 1192
-3.301 8.821 1.747 1255
-3.300 8.818 1.718 729
-3.296 8.808 1.688 451
-3.311 8.849 1.667 316
-0.795 2.141 1.759 5427
-0.796 2.146 1.753 10855
-0.798 2.150 1.746 10855
-0.802 2.161 1.744 9449
-0.810 2.183 1.752 8953
-0.812 2.188 1.745 5873
-0.843 2.271 1.797 5292
-0.844 2.276 1.790 5292
-0.851 2.292 1.792 5895
-0.855 2.303 1.790 6907
-0.859 2.314 1.787 5969
-0.865 2.330 1.789 5454
-0.869 2.341 1.787 6540
-0.870 2.346 1.779 7699
-0.872 2.350 1.772 7699
-0.869 2.342 1.756 7252
-0.866 2.334 1.741 6973
-0.868 2.338 1.733 5595
-0.876 2.362 1.739 4232
-0.878 2.366 1.732 4079
-0.924 2.489 1.806 4316
-0.928 2.500 1.803 4952
-0.929 2.504 1.795 5610
-0.933 2.515 1.792 5066
-0.942 2.539 1.796 5391
-0.944 2.543 1.789 5455
-0.948 2.554 1.785 5542
-0.947 2.552 1.773 6634
-0.946 2.550 1.761 7857
-0.950 2.561 1.758 5933
-0.985 2.654 1.807 4885
-0.989 2.665 1.803 5195
-1.000 2.695 1.811 5900
-0.990 2.668 1.782 6442
-0.992 2.673 1.774 7401
-0.998 2.690 1.774 6949
-1.009 2.720 1.782 6793
-1.013 2.731 1.777 7098
-1.017 2.742 1.773 7213
-1.019 2.746 1.764 6280
-1.026 2.764 1.764 5697
-1.039 2.801 1.775 6489
-1.046 2.818 1.774 6833
-1.052 2.835 1.773 5961
-1.071 2.885 1.791 5079
-1.075 2.897 1.786 7581
-1.076 2.901 1.777 9585
-1.076 2.899 1.764 8996
-1.104 2.975 1.796 8727
-1.103 2.973 1.783 9978
-1.103 2.971 1.771 10532
-1.104 2.976 1.761 11675
-1.106 2.980 1.752 13631
-1.122 3.024 1.765 11922
-1.126 3.035 1.759 11762
-1.106 2.980 1.718 8833
-1.107 2.984 1.709 6992
-1.141 3.075 1.745 6610
-1.143 3.079 1.736 6441
-1.176 3.170 1.772 6719
-1.183 3.188 1.769 9371
-1.185 3.193 1.759 10129
-1.181 3.184 1.743 8390
-1.181 3.181 1.729 6132
-1.210 3.260 1.757 5825
-1.254 3.378 1.804 6314
-1.258 3.389 1.797 8233
-1.252 3.374 1.777 9037
-1.249 3.365 1.760 11284
-1.250 3.369 1.749 9618
-1.249 3.367 1.736 5816
-1.256 3.385 1.732 3986
-1.250 3.369 1.712 5065
-1.254 3.380 1.705 5628
-1.258 3.391 1.698 5699
-1.257 3.388 1.684 4554
-1.332 3.590 1.764 4979
-1.357 3.656 1.781 4095
-1.358 3.661 1.770 3676
-1.388 3.740 1.793 3420
-1.392 3.752 1.784 2713
-1.399 3.770 1.779 3358
-1.406 3.788 1.773 6385
-1.415 3.813 1.770 7201
-1.419 3.824 1.762 7179
-1.421 3.829 1.750 7391
-1.438 3.875 1.756 6928
-1.429 3.851 1.732 5986
-1.431 3.856 1.720 4664
-1.486 4.006 1.768 5482
-1.485 4.003 1.753 5487
-1.490 4.014 1.744 4538
-1.499 4.040 1.740 4418
-1.532 4.127 1.760 4183
-1.559 4.201 1.775 5040
-1.545 4.164 1.746 7208
-1.539 4.148 1.725 7223
-1.535 4.138 1.707 4569
-1.581 4.261 1.739 4778
-1.591 4.286 1.734 4707
-1.595 4.298 1.724 3691
-1.589 4.281 1.703 3637
-1.621 4.370 1.720 4388
-1.623 4.374 1.707 5570
-1.622 4.371 1.691 3411
-1.678 4.523 1.730 3970
-1.683 4.535 1.718 4718
-1.684 4.539 1.704 4665
-1.712 4.614 1.715 4589
-1.719 4.632 1.706 3407
-1.747 4.707 1.715 3164
-1.756 4.733 1.708 2978
-1.763 4.751 1.698 2552
-1.791 4.826 1.707 2910
-1.795 4.838 1.694 3173
-1.797 4.842 1.679 3359
-1.875 5.052 1.730 2891
-1.879 5.064 1.716 4129
-1.881 5.068 1.701 4528
-1.885 5.080 1.687 4167
-1.894 5.105 1.678 4328
-1.904 5.131 1.669 3991
-1.908 5.142 1.655 3437
-1.973 5.318 1.690 3212
-1.978 5.329 1.676 4345
-1.982 5.341 1.661 4069
-2.047 5.517 1.694 3960
-2.051 5.528 1.679 5956
-2.056 5.540 1.664 4980
-2.199 5.925 1.751 3966
-2.203 5.936 1.735 5843
-2.207 5.948 1.718 3553
-2.233 6.017 1.717 2643
-2.221 5.985 1.689 3278
-2.223 5.990 1.671 3126
-2.307 6.218 1.709 2588
-2.309 6.222 1.690 2667
-2.313 6.233 1.672 2462
-2.312 6.230 1.651 2741
-2.370 6.386 1.669 2038
-2.377 6.405 1.652 2211
-2.376 6.402 1.631 1499
-2.574 6.935 1.734 1856
-2.578 6.947 1.714 1912
-2.582 6.958 1.694 2018
-2.689 7.246 1.736 2436
-2.685 7.236 1.710 2610
-2.679 7.218 1.683 1854
-2.877 7.754 1.773 1379
-2.798 7.540 1.704 1711
-2.918 7.865 1.746 1302
-2.917 7.862 1.720 1550
-3.049 8.216 1.766 1644
-3.050 8.221 1.740 1802
-3.136 8.452 1.759 1409
-3.130 8.434 1.728 1311
-3.270 8.811 1.772 1207
-3.274 8.823 1.746 1249
-3.276 8.827 1.718 757
-3.272 8.817 1.688 460
-3.284 8.851 1.666 345
-0.792 2.149 1.764 5957
-0.794 2.154 1.757 11915
-0.796 2.158 1.751 11915
-0.797 2.162 1.744 10387
-0.803 2.179 1.747 9612
-0.807 2.189 1.745 6423
-0.838 2.273 1.797 5285
-0.840 2.277 1.790 5285
-0.846 2.294 1.792 5825
-0.850 2.305 1.790 6735
-0.854 2.315 1.787 5817
-0.858 2.326 1.785 5215
-0.862 2.337 1.782 5940
-0.865 2.347 1.779 6734
-0.865 2.346 1.768 6800
-0.864 2.344 1.756 6417
-0.861 2.336 1.741 6249
-0.863 2.340 1.733 5495
-0.871 2.363 1.739 5151
-0.873 2.368 1.732 4882
-0.877 2.378 1.729 4711
-0.922 2.502 1.803 4838
-0.924 2.506 1.795 5537
-0.928 2.517 1.792 4991
-0.937 2.540 1.796 5343
-0.941 2.551 1.793 5214
-0.947 2.568 1.793 5198
-0.942 2.554 1.773 5874
-0.943 2.558 1.765 6786
-0.945 2.563 1.758 4950
-0.979 2.656 1.807 4952
-0.981 2.661 1.799 5396
-0.992 2.691 1.807 5877
-0.984 2.670 1.782 6350
-0.986 2.675 1.774 6860
-0.993 2.692 1.774 6488
-1.004 2.722 1.782 6409
-1.008 2.733 1.777 6683
-1.012 2.744 1.773 6801
-1.013 2.748 1.764 5974
-1.017 2.759 1.760 5320
-1.033 2.803 1.775 5966
-1.040 2.820 1.774 6537
-1.046 2.838 1.773 5880
-1.060 2.875 1.783 5152
-1.069 2.899 1.786 7792
-1.073 2.910 1.781 9897
-1.070 2.901 1.764 8610
-1.098 2.978 1.796 8999
-1.102 2.989 1.791 9935
-1.099 2.980 1.774 9863
-1.098 2.978 1.761 10814
-1.102 2.989 1.756 13061
-1.116 3.027 1.765 12550
-1.120 3.038 1.759 12588
-1.119 3.035 1.746 8512
-1.101 2.987 1.709 6695
-1.135 3.077 1.745 6858
-1.136 3.082 1.736 6777
-1.170 3.173 1.772 6644
-1.174 3.184 1.766 9821
-1.178 3.195 1.759 10712
-1.175 3.186 1.743 8438
-1.204 3.264 1.770 5898
-1.200 3.255 1.754 5741
-1.247 3.381 1.804 5972
-1.253 3.399 1.800 7852
-1.242 3.370 1.773 8763
-1.242 3.367 1.760 11007
-1.243 3.372 1.749 9420
-1.245 3.376 1.739 5596
-1.249 3.387 1.732 3948
-1.243 3.371 1.712 5195
-1.247 3.382 1.705 5431
-1.251 3.393 1.698 5300
-1.321 3.582 1.772 4772
-1.325 3.593 1.764 5742
-1.347 3.652 1.778 4281
-1.351 3.663 1.770 3665
-1.375 3.729 1.787 3485
-1.382 3.748 1.781 2875
-1.391 3.773 1.779 3245
-1.400 3.798 1.776 6759
-1.404 3.809 1.767 8490
-1.409 3.821 1.759 7581
-1.410 3.825 1.747 6791
-1.435 3.891 1.761 6266
-1.419 3.848 1.729 5163
-1.418 3.845 1.715 4378
-1.478 4.009 1.768 4835
-1.477 4.006 1.753 5309
-1.484 4.024 1.747 4683
-1.516 4.112 1.768 4747
-1.523 4.131 1.760 4359
-1.550 4.205 1.775 5112
-1.536 4.167 1.746 7317
-1.533 4.158 1.728 7524
-1.527 4.141 1.707 4495
-1.572 4.264 1.739 4799
-1.582 4.290 1.734 4709
-1.583 4.294 1.721 3826
-1.580 4.284 1.703 3738
-1.612 4.373 1.720 4235
-1.614 4.377 1.707 5358
-1.613 4.374 1.691 3377
-1.672 4.534 1.732 3019
-1.673 4.538 1.718 4491
-1.675 4.542 1.704 4932
-1.687 4.575 1.700 4268
-1.709 4.636 1.706 3111
-1.721 4.668 1.701 2949
-1.746 4.736 1.708 2625
-1.756 4.762 1.700 2358
-1.778 4.823 1.704 3022
-1.785 4.841 1.694 3737
-1.787 4.846 1.679 4312
-1.791 4.857 1.666 3303
-1.866 5.061 1.714 4037
-1.867 5.065 1.699 4519
-1.872 5.076 1.685 4096
-1.886 5.116 1.680 4457
-1.893 5.135 1.669 3882
-1.958 5.311 1.704 3085
-1.962 5.322 1.690 3708
-1.966 5.333 1.676 5279
-1.971 5.345 1.661 4789
-2.033 5.514 1.692 3457
-2.040 5.533 1.679 5179
-2.041 5.537 1.662 4071
-2.186 5.929 1.751 3318
-2.190 5.941 1.735 4610
-2.197 5.960 1.720 2929
-2.218 6.015 1.715 2652
-2.214 6.004 1.693 3235
-2.213 6.001 1.672 3129
-2.294 6.222 1.709 2666
-2.293 6.219 1.688 2740
-2.297 6.231 1.671 2411
-2.296 6.228 1.650 2909
-2.362 6.406 1.672 2131
-2.363 6.410 1.652 2053
-2.362 6.407 1.631 1383
-2.559 6.941 1.734 1514
-2.563 6.952 1.714 1558
-2.568 6.964 1.694 1647
-2.674 7.252 1.736 2362
-2.670 7.241 1.710 2631
-2.663 7.224 1.683 2066
-2.829 7.673 1.755 1602
-2.779 7.538 1.702 1388
-2.902 7.871 1.746 1489
-2.901 7.868 1.720 1552
-3.244 8.800 1.881 1414
-3.033 8.227 1.740 1491
-3.119 8.458 1.759 1448
-3.109 8.433 1.727 1545
-3.251 8.818 1.772 1188
-3.256 8.830 1.746 1247
-3.257 8.834 1.718 746
-3.261 8.846 1.692 433
-3.263 8.850 1.665 338
-0.787 2.151 1.764 6319
-0.789 2.155 1.757 12639
-0.790 2.160 1.751 12639
-0.792 2.164 1.744 11064
-0.798 2.181 1.747 10174
-0.800 2.185 1.740 6904
-0.832 2.275 1.797 5375
-0.834 2.279 1.790 5375
-0.838 2.290 1.788 5750
-0.844 2.307 1.790 6487
-0.846 2.311 1.783 5642
-0.850 2.322 1.780 4951
-0.854 2.333 1.778 5412
-0.857 2.343 1.775 5898
-0.857 2.342 1.763 5961
-0.856 2.340 1.752 5741
-0.853 2.332 1.736 5731
-0.859 2.349 1.738 5503
-0.866 2.365 1.739 5930
-0.867 2.370 1.732 5542
-0.871 2.380 1.729 5289
-0.916 2.504 1.803 4585
-0.918 2.508 1.795 5286
-0.922 2.519 1.792 4760
-0.933 2.549 1.801 5096
-0.937 2.560 1.797 4995
-0.943 2.577 1.798 5132
-0.938 2.563 1.777 5251
-0.937 2.561 1.765 5768
-0.941 2.572 1.762 4057
-0.971 2.652 1.803 4989
-0.975 2.663 1.799 5643
-0.976 2.668 1.791 6305
-0.978 2.672 1.782 6345
-0.980 2.677 1.774 6384
-0.986 2.694 1.774 6130
-0.997 2.725 1.782 5987
-1.003 2.742 1.781 6099
-1.005 2.746 1.773 6067
-1.007 2.751 1.764 5335
-1.011 2.762 1.760 4778
-1.027 2.805 1.775 5419
-1.033 2.823 1.774 6300
-1.037 2.834 1.769 5916
-1.046 2.858 1.772 5013
-1.062 2.901 1.786 7212
-1.066 2.912 1.781 9082
-1.060 2.897 1.760 7813
-1.091 2.980 1.796 8981
-1.095 2.992 1.791 9995
-1.094 2.989 1.778 9713
-1.093 2.987 1.765 10524
-1.095 2.992 1.756 12849
-1.109 3.029 1.765 13155
-1.113 3.040 1.759 13427
-1.112 3.038 1.746 9166
-1.094 2.989 1.709 6208
-1.127 3.080 1.745 6472
-1.126 3.078 1.732 6675
-1.123 3.069 1.716 7090
-1.166 3.187 1.766 9898
-1.170 3.198 1.759 10743
-1.169 3.196 1.746 8237
-1.193 3.261 1.767 5551
-1.190 3.252 1.750 5714
-1.191 3.256 1.740 5827
-1.245 3.402 1.800 7028
-1.232 3.366 1.770 8427
-1.233 3.370 1.760 10582
-1.235 3.375 1.749 9205
-1.237 3.379 1.739 5528
-1.238 3.384 1.729 3694
-1.235 3.374 1.712 4950
-1.239 3.385 1.705 5007
-1.243 3.397 1.698 4891
-1.312 3.585 1.772 5536
-1.316 3.596 1.764 6369
-1.335 3.649 1.775 4626
-1.344 3.674 1.773 3976
-1.363 3.726 1.783 4061
-1.365 3.730 1.772 3376
-1.377 3.762 1.773 3359
-1.394 3.808 1.779 7115
-1.395 3.813 1.767 9791
-1.397 3.817 1.756 8465
-1.398 3.821 1.744 6209
-1.430 3.909 1.767 5797
-1.407 3.844 1.726 4491
-1.406 3.841 1.712 4489
-1.438 3.929 1.734 5032
-1.467 4.010 1.753 4707
-1.474 4.028 1.747 4592
-1.506 4.116 1.768 5331
-1.510 4.127 1.758 4310
-1.540 4.208 1.775 4983
-1.526 4.171 1.746 7088
-1.523 4.161 1.728 7436
-1.517 4.145 1.707 4121
-1.564 4.275 1.742 4309
-1.569 4.287 1.732 4549
-1.573 4.298 1.721 3814
-1.569 4.288 1.703 3567
-1.599 4.370 1.718 4150
-1.603 4.381 1.707 5304
-1.602 4.378 1.691 3405
-1.604 4.383 1.677 2654
-1.665 4.549 1.721 4197
-1.664 4.546 1.704 4778
-1.676 4.579 1.700 3945
-1.680 4.590 1.689 2922
-1.707 4.665 1.698 3029
-1.717 4.691 1.691 2292
-1.765 4.823 1.719 2085
-1.766 4.827 1.704 2874
-1.773 4.846 1.694 3981
-1.775 4.850 1.679 4854
-1.776 4.854 1.664 3588
-1.854 5.065 1.714 3883
-1.852 5.062 1.696 4571
-1.857 5.074 1.683 3989
-1.874 5.121 1.680 4181
-1.881 5.139 1.669 3469
-1.942 5.308 1.702 3063
-1.949 5.327 1.690 3496
-1.953 5.338 1.676 5202
-1.958 5.350 1.661 4903
-2.017 5.512 1.690 3384
-2.026 5.538 1.679 4232
-2.028 5.542 1.662 3374
-2.024 5.532 1.641 3081
-2.118 5.788 1.692 3899
-2.119 5.792 1.674 2778
-2.203 6.020 1.715 2472
-2.204 6.024 1.697 3158
-2.206 6.028 1.678 3350
-2.279 6.228 1.709 2660
-2.275 6.218 1.686 2709
-2.282 6.236 1.671 2259
-2.281 6.233 1.650 2891
-2.349 6.419 1.674 2221
-2.350 6.423 1.654 1912
-2.355 6.434 1.636 1335
-2.465 6.736 1.685 1163
-2.586 7.068 1.739 1171
-2.591 7.079 1.719 1368
-2.651 7.244 1.732 2229
-2.652 7.248 1.710 2542
-2.649 7.238 1.684 2222
-2.810 7.679 1.755 1786
-2.948 8.056 1.809 1345
-2.885 7.885 1.748 1528
-2.882 7.875 1.720 1397
-3.220 8.800 1.879 1339
-3.225 8.812 1.853 1292
-3.093 8.451 1.756 1431
-3.089 8.441 1.727 1717
-3.080 8.416 1.695 1136
-3.237 8.845 1.747 1099
-3.241 8.857 1.721 740
-3.245 8.868 1.695 546
-3.247 8.873 1.667 392
-0.782 2.153 1.764 6494
-0.783 2.157 1.757 12988
-0.785 2.162 1.751 12988
-0.787 2.166 1.744 11426
-0.793 2.183 1.747 10469
-0.794 2.187 1.740 7229
-0.827 2.277 1.797 5421
-0.829 2.281 1.790 5421
-0.832 2.292 1.788 5646
-0.836 2.303 1.785 6176
-0.840 2.313 1.783 5427
-0.844 2.324 1.780 4741
-0.846 2.329 1.773 5068
-0.847 2.333 1.766 5396
-0.851 2.344 1.763 5349
-0.850 2.342 1.752 5295
-0.850 2.340 1.741 5441
-0.856 2.357 1.742 5660
-0.860 2.368 1.739 6531
-0.861 2.372 1.732 6026
-0.865 2.383 1.729 5674
-0.865 2.381 1.718 4523
-0.912 2.511 1.795 4856
-0.916 2.522 1.792 4385
-0.929 2.558 1.805 4679
-0.933 2.569 1.801 4783
-0.937 2.579 1.798 5000
-0.934 2.571 1.781 4827
-0.931 2.563 1.765 4976
-0.921 2.536 1.737 3837
-0.962 2.648 1.799 5014
-0.968 2.666 1.799 5883
-0.970 2.670 1.791 6808
-0.971 2.675 1.782 6445
-0.975 2.686 1.778 6111
-0.982 2.703 1.778 5992
-0.990 2.727 1.782 5618
-0.997 2.744 1.781 5458
-0.998 2.749 1.773 5130
-1.000 2.753 1.764 4429
-1.004 2.764 1.760 4167
-1.022 2.814 1.779 4890
-1.024 2.819 1.770 6051
-1.028 2.830 1.765 5931
-1.036 2.854 1.768 4841
-1.055 2.904 1.786 6560
-1.059 2.915 1.781 8466
-1.051 2.893 1.757 6905
-1.083 2.983 1.796 8664
-1.087 2.994 1.791 9608
-1.089 2.999 1.782 9092
-1.086 2.990 1.765 9574
-1.090 3.001 1.760 11900
-1.101 3.032 1.765 13258
-1.105 3.043 1.759 13763
-1.104 3.041 1.746 9572
-1.087 2.992 1.709 5535
-1.120 3.083 1.745 5739
-1.114 3.067 1.725 6596
-1.116 3.072 1.716 7564
-1.158 3.190 1.766 9563
-1.162 3.201 1.759 10216
-1.162 3.199 1.746 7708
-1.158 3.190 1.729 5184
-1.179 3.248 1.747 5557
-1.181 3.252 1.737 5730
-1.237 3.405 1.800 5948
-1.221 3.362 1.767 8139
-1.225 3.373 1.760 10131
-1.227 3.378 1.749 9018
-1.231 3.389 1.742 5695
-1.230 3.387 1.729 3522
-1.227 3.377 1.712 4391
-1.228 3.382 1.702 4298
-1.235 3.400 1.698 4352
-1.303 3.588 1.772 6137
-1.305 3.593 1.761 6835
-1.324 3.645 1.772 4972
-1.345 3.704 1.786 4609
-1.354 3.729 1.783 4901
-1.358 3.741 1.775 4170
-1.365 3.759 1.770 3849
-1.384 3.812 1.779 7401
-1.386 3.816 1.767 10863
-1.387 3.820 1.756 9463
-1.389 3.825 1.744 5789
-1.421 3.912 1.767 5391
-1.425 3.924 1.758 4400
-1.396 3.845 1.712 4169
-1.426 3.926 1.731 5328
-1.430 3.937 1.722 4877
-1.467 4.039 1.749 4254
-1.494 4.113 1.765 5493
-1.212 3.336 1.442 4571
-1.527 4.205 1.772 4637
-1.519 4.182 1.749 6519
-1.513 4.165 1.728 6844
-1.512 4.162 1.712 3654
-1.557 4.286 1.745 3671
-1.561 4.297 1.734 4128
-1.560 4.295 1.718 3528
-1.559 4.292 1.703 3177
-1.591 4.381 1.720 4275
-1.595 4.392 1.709 5425
-1.594 4.389 1.693 3395
-1.593 4.387 1.677 2596
-1.656 4.560 1.723 3443
-1.653 4.550 1.704 4369
-1.657 4.562 1.693 3953
-1.666 4.587 1.686 3217
-1.696 4.670 1.698 3159
-1.700 4.681 1.686 2810
-1.707 4.699 1.677 2290
-1.752 4.824 1.702 2503
-1.761 4.850 1.694 3989
-1.763 4.854 1.679 5141
-1.764 4.859 1.664 3816
-1.841 5.070 1.714 3612
-1.840 5.067 1.696 4410
-1.842 5.071 1.681 3724
-1.864 5.133 1.683 3448
-1.871 5.151 1.671 2981
-1.929 5.313 1.702 2921
-1.936 5.332 1.690 3335
-1.940 5.343 1.676 4953
-1.945 5.354 1.661 4726
-1.977 5.445 1.669 4028
-2.010 5.535 1.677 3495
-2.012 5.540 1.660 3152
-2.011 5.536 1.641 3623
-2.104 5.793 1.692 3801
-2.105 5.797 1.674 3152
-2.188 6.025 1.715 2222
-2.190 6.030 1.697 2932
-2.191 6.034 1.678 3499
-2.193 6.038 1.659 2507
-2.257 6.216 1.684 2489
-2.325 6.401 1.710 2001
-2.266 6.239 1.650 2512
-2.333 6.424 1.674 2283
-2.343 6.450 1.659 2165
-2.344 6.455 1.640 1621
-2.475 6.815 1.702 1187
-2.476 6.819 1.681 1238
-2.573 7.086 1.719 1447
-2.630 7.243 1.731 2136
-2.632 7.247 1.708 2381
-2.631 7.244 1.684 2204
-2.789 7.679 1.753 1842
-2.796 7.698 1.733 1452
-2.869 7.900 1.749 1476
-2.868 7.897 1.723 1221
-3.199 8.808 1.879 1213
-3.200 8.813 1.852 1174
-3.069 8.451 1.754 1371
-3.068 8.448 1.727 1723
-3.062 8.431 1.697 1125
-3.215 8.853 1.747 954
-3.222 8.872 1.722 769
-3.224 8.876 1.695 623
-3.225 8.881 1.667 436
-0.779 2.154 1.764 6486
-0.780 2.159 1.757 12972
-0.782 2.163 1.751 12972
-0.783 2.167 1.744 11456
-0.789 2.184 1.747 10454
-0.791 2.188 1.740 7332
-0.823 2.278 1.797 5719
-0.825 2.283 1.790 5719
-0.829 2.293 1.788 5651
-0.833 2.304 1.785 5866
-0.834 2.309 1.778 5216
-0.832 2.301 1.763 4596
-0.840 2.324 1.769 4978
-0.841 2.328 1.762 5393
-0.845 2.339 1.759 5037
-0.847 2.343 1.752 5105
-0.846 2.341 1.741 5421
-0.852 2.358 1.742 5905
-0.856 2.369 1.739 6859
-0.858 2.373 1.732 6261
-0.862 2.384 1.729 5820
-0.861 2.382 1.718 4526
-0.908 2.512 1.795 4301
-0.912 2.523 1.792 3905
-0.925 2.559 1.805 4164
-0.929 2.570 1.801 4502
-0.930 2.575 1.793 4862
-0.930 2.573 1.781 4540
-0.927 2.564 1.765 4551
-0.919 2.543 1.741 4584
-0.955 2.644 1.795 4978
-0.964 2.667 1.799 6070
-0.966 2.672 1.791 7270
-0.970 2.683 1.786 6585
-0.953 2.636 1.746 6038
-0.980 2.711 1.782 5919
-0.986 2.728 1.782 5259
-0.992 2.746 1.781 4815
-0.994 2.750 1.773 4142
-0.996 2.755 1.764 3421
-1.014 2.805 1.783 3757
-1.018 2.816 1.779 4444
-1.019 2.820 1.770 5788
-1.023 2.831 1.765 5969
-1.027 2.842 1.760 4880
-1.053 2.912 1.789 5591
-1.057 2.923 1.784 7425
-1.068 2.954 1.790 6121
-1.081 2.991 1.800 8009
-1.083 2.996 1.791 8857
-1.084 3.000 1.782 8510
-1.084 2.998 1.769 8875
-1.088 3.009 1.763 11016
-1.096 3.034 1.765 12980
-1.100 3.045 1.759 13621
-1.100 3.043 1.746 9807
-1.082 2.994 1.709 4813
-1.112 3.078 1.742 5178
-1.109 3.069 1.725 6942
-1.111 3.073 1.716 8104
-1.153 3.191 1.766 8816
-1.155 3.196 1.756 9175
-1.157 3.200 1.746 6815
-1.156 3.198 1.733 4828
-1.174 3.250 1.747 5429
-1.174 3.247 1.733 5703
-1.202 3.326 1.760 5003
-1.213 3.357 1.763 7764
-1.220 3.375 1.760 9617
-1.224 3.386 1.753 8803
-1.226 3.391 1.742 5869
-1.264 3.497 1.781 3466
-1.219 3.372 1.709 3775
-1.282 3.547 1.778 3924
-1.298 3.592 1.786 4365
-1.298 3.590 1.772 6435
-1.299 3.595 1.761 6993
-1.318 3.647 1.772 5253
-1.340 3.706 1.786 5397
-1.346 3.724 1.780 5653
-1.350 3.736 1.772 4907
-1.357 3.754 1.767 4473
-1.378 3.814 1.779 7467
-1.377 3.811 1.764 11526
-1.379 3.816 1.753 10408
-1.383 3.827 1.744 5618
-1.415 3.914 1.767 4841
-1.416 3.919 1.755 4431
-1.420 3.930 1.746 4033
-1.422 3.935 1.734 4956
-1.421 3.932 1.719 4778
-1.460 4.041 1.749 3903
-1.485 4.108 1.762 5463
-1.204 3.331 1.440 4754
-1.205 3.335 1.429 4230
-1.515 4.191 1.751 5760
-1.509 4.174 1.730 6055
-1.508 4.172 1.715 3337
-1.552 4.295 1.747 2920
-1.554 4.300 1.734 3510
-1.551 4.290 1.716 3120
-1.552 4.294 1.703 2798
-1.584 4.383 1.720 4613
-1.588 4.395 1.709 5733
-1.590 4.399 1.696 3502
-1.586 4.389 1.677 2400
-1.649 4.563 1.723 2616
-1.646 4.553 1.704 3792
-1.650 4.564 1.693 4139
-1.659 4.590 1.686 3306
-1.686 4.665 1.696 3213
-1.693 4.684 1.686 3337
-1.699 4.702 1.677 2812
-1.696 4.692 1.658 2376
-1.754 4.853 1.694 3833
-1.758 4.864 1.681 5117
-1.757 4.861 1.664 3985
-1.833 5.073 1.714 3195
-1.832 5.070 1.696 4006
-1.834 5.074 1.681 3435
-1.835 5.078 1.665 3076
-1.829 5.061 1.643 2636
-1.921 5.316 1.702 2899
-1.928 5.335 1.690 3380
-1.930 5.339 1.673 4393
-1.967 5.444 1.686 4346
-1.969 5.448 1.669 4495
-1.989 5.502 1.667 3638
-2.001 5.535 1.658 3249
-2.002 5.540 1.641 4051
-2.095 5.796 1.692 3652
-2.094 5.793 1.672 3394
-2.095 5.797 1.654 2544
-2.178 6.026 1.695 2550
-2.179 6.030 1.676 3482
-2.181 6.034 1.658 2671
-2.245 6.212 1.683 2176
-2.315 6.405 1.710 1988
-2.316 6.409 1.690 2015
-2.326 6.435 1.676 2167
-2.343 6.483 1.666 2629
-2.342 6.480 1.645 1906
-2.467 6.826 1.704 1380
-2.469 6.830 1.683 1264
-2.560 7.082 1.717 1530
-2.617 7.240 1.729 2068
-2.621 7.251 1.708 2187
-2.620 7.248 1.684 2097
-2.777 7.683 1.753 1825
-2.784 7.702 1.733 1514
-2.862 7.919 1.752 1482
-2.901 8.025 1.748 1191
-3.008 8.323 1.782 1101
-2.954 8.173 1.726 1123
-3.054 8.449 1.753 1363
-3.052 8.446 1.726 1714
-3.049 8.435 1.697 1134
-3.082 8.528 1.687 779
-3.208 8.877 1.722 723
-3.210 8.881 1.695 597
-3.211 8.885 1.667 409
-0.773 2.156 1.764 6260
-0.774 2.161 1.757 12520
-0.776 2.165 1.751 12520
-0.777 2.170 1.744 11081
-0.783 2.186 1.747 10074
-0.785 2.191 1.740 7170
-0.817 2.280 1.797 5869
-0.819 2.285 1.790 5869
-0.820 2.290 1.783 5542
-0.826 2.306 1.785 5395
-0.823 2.299 1.770 5033
-0.823 2.297 1.758 4890
-0.829 2.314 1.760 5202
-0.833 2.324 1.757 5794
-0.836 2.335 1.755 4929
-0.843 2.352 1.756 5006
-0.842 2.350 1.745 5538
-0.846 2.361 1.742 6095
-0.850 2.371 1.739 6989
-0.851 2.376 1.732 6319
-0.855 2.386 1.729 5827
-0.856 2.391 1.722 4425
-0.901 2.515 1.795 3655
-0.905 2.526 1.792 3355
-0.920 2.568 1.809 3577
-0.922 2.573 1.801 4084
-0.921 2.571 1.789 4636
-0.920 2.569 1.777 4379
-0.911 2.542 1.749 4813
-0.912 2.546 1.741 5585
-0.914 2.550 1.733 6356
-0.957 2.670 1.799 6214
-0.958 2.675 1.791 7670
-0.962 2.685 1.786 6757
-0.971 2.709 1.790 6186
-0.972 2.714 1.782 5977
-0.983 2.744 1.790 5051
-0.987 2.755 1.785 4360
-1.003 2.799 1.800 3369
-1.007 2.810 1.796 3469
-1.008 2.814 1.787 3772
-1.010 2.819 1.779 4075
-1.011 2.823 1.770 5473
-1.013 2.828 1.761 5912
-1.017 2.839 1.757 5176
-1.049 2.928 1.797 4561
-1.051 2.933 1.788 6168
-1.059 2.957 1.790 5455
-1.073 2.994 1.800 6937
-1.074 2.999 1.791 7699
-1.076 3.003 1.782 7670
-1.075 3.001 1.769 8334
-1.079 3.012 1.763 10385
-1.088 3.037 1.765 12431
-1.092 3.048 1.759 13058
-1.091 3.046 1.746 9820
-1.086 3.030 1.726 4707
-1.099 3.068 1.735 4868
-1.098 3.065 1.722 7131
-1.102 3.076 1.716 8482
-1.101 3.074 1.703 8611
-1.146 3.199 1.756 7810
-1.104 3.083 1.684 5684
-1.190 3.322 1.794 4596
-1.161 3.239 1.740 5228
-1.162 3.244 1.730 5686
-1.195 3.336 1.764 4663
-1.202 3.354 1.760 7252
-1.210 3.379 1.760 8988
-1.214 3.390 1.753 8489
-1.216 3.394 1.742 5849
-1.254 3.501 1.781 3371
-1.275 3.560 1.796 3529
-1.277 3.564 1.785 3979
-1.288 3.596 1.786 4621
-1.287 3.594 1.772 6373
-1.289 3.598 1.761 6759
-1.308 3.651 1.772 5431
-1.332 3.717 1.789 6020
-1.336 3.728 1.780 6208
-1.340 3.740 1.772 5500
-1.344 3.751 1.764 5090
-1.368 3.818 1.779 7260
-1.367 3.815 1.764 11730
-1.368 3.820 1.753 11061
-1.375 3.838 1.747 5971
-1.404 3.918 1.767 3875
-1.395 3.895 1.744 4612
-1.397 3.900 1.732 4005
-1.411 3.939 1.734 4223
-1.410 3.936 1.719 4388
-1.194 3.334 1.463 3422
-1.473 4.112 1.762 5087
-1.195 3.334 1.440 4535
-1.509 4.212 1.772 3772
-1.505 4.202 1.754 5002
-1.500 4.186 1.733 5156
-1.496 4.176 1.715 3084
-1.483 4.138 1.686 2327
-1.512 4.220 1.703 2914
-1.528 4.266 1.705 3135
-1.532 4.278 1.695 2750
-1.569 4.381 1.718 4940
-1.576 4.399 1.709 5972
-1.577 4.403 1.696 3728
-1.576 4.400 1.680 2334
-1.608 4.490 1.696 3366
-1.630 4.551 1.702 3282
-1.637 4.569 1.693 4155
-1.641 4.580 1.681 3388
-1.673 4.670 1.696 3300
-1.680 4.688 1.686 3873
-1.689 4.714 1.679 3370
-1.690 4.718 1.665 2425
-1.740 4.858 1.694 3680
-1.744 4.869 1.681 4963
-1.746 4.873 1.666 4163
-1.745 4.870 1.649 3428
-1.818 5.075 1.696 3492
-1.820 5.079 1.681 3163
-1.819 5.076 1.663 2889
-1.815 5.066 1.643 2564
-1.906 5.321 1.702 2535
-1.910 5.333 1.688 3324
-1.912 5.337 1.671 4152
-1.952 5.449 1.686 4257
-1.954 5.453 1.669 4461
-1.971 5.501 1.665 3982
-1.983 5.534 1.656 3556
-1.987 5.545 1.641 3944
-1.985 5.542 1.622 3471
-2.078 5.799 1.672 3442
-2.079 5.803 1.654 2892
-2.153 6.010 1.689 2436
-2.162 6.036 1.676 3271
-2.161 6.033 1.656 2724
-2.199 6.139 1.663 2358
-2.297 6.411 1.710 1861
-2.301 6.423 1.692 1816
-2.323 6.485 1.686 2075
-2.325 6.490 1.666 2870
-2.326 6.494 1.646 2110
-2.448 6.833 1.704 1403
-2.530 7.063 1.734 1311
-2.537 7.082 1.715 1666
-2.596 7.247 1.729 2051
-2.598 7.251 1.707 1930
-2.599 7.255 1.684 1891
-2.755 7.691 1.753 1734
-2.762 7.710 1.733 1434
-2.848 7.949 1.757 1529
-2.878 8.033 1.748 1328
-2.935 8.192 1.754 1172
-2.944 8.218 1.733 1297
-3.032 8.465 1.754 1264
-3.029 8.454 1.726 1555
-3.022 8.437 1.695 1056
-3.061 8.544 1.688 805
-3.183 8.886 1.722 847
-3.185 8.890 1.695 725
-3.186 8.894 1.667 457
-0.769 2.157 1.764 5848
-0.771 2.162 1.757 11697
-0.773 2.166 1.751 11697
-0.774 2.171 1.744 10366
-0.778 2.181 1.742 9410
-0.782 2.192 1.740 6771
-0.812 2.276 1.793 6344
-0.813 2.280 1.786 6344
-0.815 2.285 1.779 5794
-0.816 2.289 1.772 5245
-0.818 2.294 1.765 5210
-0.820 2.298 1.758 5175
-0.823 2.309 1.756 5622
-0.827 2.319 1.753 6400
-0.831 2.330 1.750 5185
-0.839 2.353 1.756 5105
-0.838 2.351 1.745 5766
-0.842 2.362 1.742 6262
-0.846 2.373 1.739 7002
-0.848 2.377 1.732 6288
-0.851 2.388 1.729 5778
-0.853 2.392 1.722 4297
-0.873 2.447 1.748 3820
-0.888 2.489 1.766 3204
-0.891 2.500 1.763 3563
-0.916 2.568 1.797 3580
-0.915 2.566 1.785 4440
-0.914 2.564 1.773 4382
-0.905 2.537 1.745 5582
-0.908 2.547 1.741 6748
-0.910 2.552 1.733 7987
-0.916 2.569 1.734 6493
-0.957 2.682 1.795 7977
-0.963 2.700 1.794 6988
-0.967 2.711 1.790 6529
-0.968 2.715 1.782 6030
-0.979 2.746 1.790 4923
-0.985 2.763 1.789 4152
-0.996 2.793 1.796 3549
-1.002 2.811 1.796 4067
-1.004 2.816 1.787 3935
-1.013 2.840 1.790 4071
-1.005 2.818 1.766 5155
-1.009 2.829 1.761 5815
-1.013 2.840 1.757 5511
-1.047 2.936 1.801 4581
-1.049 2.941 1.792 5849
-1.055 2.958 1.790 5443
-1.068 2.996 1.800 5868
-1.072 3.007 1.794 6490
-1.074 3.012 1.785 6657
-1.071 3.003 1.769 7606
-1.072 3.007 1.760 9664
-1.084 3.038 1.765 11616
-1.088 3.049 1.759 12125
-1.087 3.047 1.746 9530
-1.081 3.032 1.726 5153
-1.095 3.069 1.735 4707
-1.094 3.067 1.722 7157
-1.095 3.071 1.713 8508
-1.097 3.076 1.703 8614
-1.098 3.080 1.694 7369
-1.100 3.084 1.684 5538
-1.185 3.324 1.794 5382
-1.151 3.228 1.733 5112
-1.155 3.239 1.727 5600
-1.159 3.250 1.720 4787
-1.199 3.362 1.763 6611
-1.206 3.380 1.760 8366
-1.210 3.392 1.753 8151
-1.211 3.396 1.742 5712
-1.247 3.496 1.777 3318
-1.270 3.562 1.796 3390
-1.279 3.587 1.794 4266
-1.286 3.605 1.790 4718
-1.282 3.596 1.772 5899
-1.284 3.600 1.761 6092
-1.303 3.653 1.772 5577
-1.326 3.719 1.789 6375
-1.330 3.730 1.780 6493
-1.332 3.735 1.769 5887
-1.338 3.753 1.764 5601
-1.360 3.813 1.776 6794
-1.361 3.817 1.764 11348
-1.363 3.822 1.753 11180
-1.369 3.840 1.747 6723
-1.376 3.858 1.741 4258
-1.387 3.890 1.741 5231
-1.384 3.881 1.723 4907
-1.400 3.927 1.728 3799
-1.402 3.931 1.716 3847
-1.471 4.124 1.780 3195
-1.467 4.114 1.762 4565
-1.190 3.336 1.440 3697
-1.500 4.207 1.770 3366
-1.499 4.204 1.754 4401
-1.496 4.195 1.736 4364
-1.490 4.178 1.715 2881
-1.477 4.140 1.686 2793
-1.503 4.215 1.700 2799
-1.522 4.268 1.705 3032
-1.521 4.266 1.690 2840
-1.563 4.383 1.718 5061
-1.570 4.401 1.709 5579
-1.571 4.406 1.696 3398
-1.600 4.488 1.710 2487
-1.602 4.492 1.696 4047
-1.619 4.539 1.697 3237
-1.630 4.571 1.693 4259
-1.632 4.576 1.679 3544
-1.666 4.672 1.696 3380
-1.673 4.691 1.686 4308
-1.682 4.716 1.679 3852
-1.686 4.728 1.667 2685
-1.736 4.867 1.696 3549
-1.737 4.872 1.681 4644
-1.739 4.876 1.666 4278
-1.740 4.880 1.651 3679
-1.813 5.085 1.699 2775
-1.812 5.082 1.681 2690
-1.811 5.079 1.663 2556
-1.813 5.083 1.647 2204
-1.822 5.109 1.638 2539
-1.903 5.335 1.688 3253
-1.902 5.333 1.669 3992
-1.947 5.459 1.688 3852
-1.951 5.471 1.673 4120
-1.963 5.504 1.665 4180
-1.974 5.537 1.656 3882
-1.976 5.541 1.639 3866
-1.977 5.545 1.622 3668
-2.069 5.802 1.672 3318
-2.068 5.799 1.652 2947
-2.142 6.006 1.687 2368
-2.151 6.032 1.674 2945
-2.153 6.036 1.656 2685
-2.190 6.142 1.663 2586
-2.192 6.146 1.644 1850
-2.292 6.426 1.692 1548
-2.314 6.489 1.686 1950
-2.316 6.493 1.666 2878
-2.317 6.497 1.646 2200
-2.438 6.836 1.704 1442
-2.442 6.848 1.684 1420
-2.527 7.086 1.715 1928
-2.523 7.075 1.690 2217
-2.522 7.072 1.667 1617
-2.589 7.259 1.684 1576
-2.742 7.688 1.752 1547
-2.704 7.582 1.705 1268
-2.839 7.960 1.758 1480
-2.866 8.038 1.748 1388
-2.878 8.071 1.730 1288
-2.935 8.230 1.735 1540
-3.020 8.469 1.754 1175
-3.017 8.459 1.726 1428
-3.010 8.441 1.695 1048
-3.169 8.886 1.750 787
-3.171 8.890 1.722 939
-3.172 8.895 1.695 837
-3.174 8.899 1.667 508
-0.763 2.160 1.764 5319
-0.765 2.164 1.757 10638
-0.766 2.168 1.751 10638
-0.768 2.173 1.744 9379
-0.772 2.183 1.742 8417
-0.775 2.194 1.740 6094
-0.805 2.278 1.793 6656
-0.807 2.282 1.786 6656
-0.806 2.281 1.774 6084
-0.806 2.279 1.763 5553
-0.809 2.290 1.761 5507
-0.811 2.294 1.754 5489
-0.815 2.305 1.751 5999
-0.821 2.322 1.753 6971
-0.824 2.332 1.750 5554
-0.833 2.355 1.756 5295
-0.832 2.354 1.745 5978
-0.836 2.364 1.742 6365
-0.839 2.375 1.739 6899
-0.841 2.379 1.732 6180
-0.845 2.390 1.729 5708
-0.862 2.438 1.752 4267
-0.866 2.449 1.748 4397
-0.881 2.491 1.766 3301
-0.884 2.502 1.763 3878
-0.888 2.513 1.760 3372
-0.906 2.562 1.781 4263
-0.896 2.535 1.753 4987
-0.897 2.539 1.745 6362
-0.901 2.550 1.741 7781
-0.903 2.554 1.733 9373
-0.909 2.571 1.734 7596
-0.949 2.685 1.795 8211
-0.957 2.709 1.799 7243
-0.959 2.713 1.790 6760
-0.961 2.718 1.782 6000
-0.974 2.755 1.794 4882
-0.978 2.766 1.789 4262
-0.988 2.796 1.796 4022
-0.992 2.807 1.792 4771
-0.994 2.812 1.783 4288
-1.005 2.842 1.790 4341
-0.997 2.821 1.766 4893
-1.001 2.832 1.761 5562
-1.007 2.849 1.760 5839
-1.041 2.946 1.804 4742
-1.043 2.950 1.796 5636
-1.047 2.961 1.790 5449
-1.058 2.992 1.796 5000
-1.036 2.931 1.750 5441
-1.040 2.942 1.745 6061
-1.062 3.006 1.769 6841
-1.064 3.010 1.760 8722
-1.075 3.041 1.765 10547
-1.079 3.052 1.759 10869
-1.078 3.050 1.746 8983
-1.070 3.028 1.723 5526
-1.077 3.046 1.721 4623
-1.083 3.063 1.718 6934
-1.087 3.074 1.713 8055
-1.088 3.079 1.703 7987
-1.090 3.083 1.694 6760
-1.172 3.316 1.801 5805
-1.179 3.334 1.798 6120
-1.180 3.339 1.787 5106
-1.146 3.242 1.727 5433
-1.150 3.253 1.720 4967
-1.197 3.386 1.773 6058
-1.198 3.391 1.763 7793
-1.200 3.395 1.753 7731
-1.202 3.399 1.742 5540
-1.234 3.492 1.774 3294
-1.260 3.565 1.796 3233
-1.269 3.590 1.794 4474
-1.278 3.615 1.793 4648
-1.272 3.599 1.772 5107
-1.276 3.611 1.764 5162
-1.309 3.704 1.794 5737
-1.316 3.722 1.789 6499
-1.320 3.734 1.780 6540
-1.321 3.738 1.769 6103
-1.325 3.750 1.761 6022
-1.332 3.768 1.755 6572
-1.351 3.821 1.764 10479
-1.355 3.832 1.756 10858
-1.359 3.844 1.747 7366
-1.365 3.862 1.741 5884
-1.372 3.880 1.735 6326
-1.373 3.885 1.723 5994
-1.372 3.882 1.708 4281
-1.391 3.935 1.716 2878
-1.427 4.037 1.744 3121
-1.456 4.118 1.762 4186
-1.455 4.116 1.747 3858
-1.439 4.071 1.715 3146
-1.488 4.209 1.754 3902
-1.487 4.206 1.739 3772
-1.466 4.147 1.702 2815
-1.465 4.144 1.686 3014
-1.491 4.219 1.700 2566
-1.508 4.266 1.703 2752
-1.547 4.376 1.728 3109
-1.546 4.373 1.713 5002
-1.552 4.391 1.704 4871
-1.559 4.410 1.696 2862
-1.598 4.520 1.720 2999
-1.592 4.503 1.699 4432
-1.603 4.536 1.695 3459
-1.617 4.576 1.693 4434
-1.619 4.580 1.679 3776
-1.653 4.677 1.696 3450
-1.662 4.702 1.689 4540
-1.669 4.721 1.679 4144
-1.673 4.732 1.667 2900
-1.722 4.872 1.696 3392
-1.724 4.876 1.681 4338
-1.725 4.881 1.666 4426
-1.727 4.885 1.651 3788
-1.802 5.097 1.701 2310
-1.801 5.094 1.683 2442
-1.799 5.091 1.665 2301
-1.803 5.102 1.652 1895
-1.810 5.121 1.640 2579
-1.885 5.334 1.686 3262
-1.884 5.331 1.667 3956
-1.934 5.472 1.690 3298
-1.938 5.483 1.675 3706
-1.968 5.567 1.681 4202
-1.959 5.542 1.656 4045
-1.945 5.503 1.627 3878
-1.964 5.558 1.624 3965
-2.050 5.801 1.670 3126
-2.113 5.979 1.698 2866
-2.122 6.005 1.685 2287
-2.132 6.031 1.672 2568
-2.136 6.042 1.656 2533
-2.176 6.155 1.664 2649
-2.172 6.145 1.642 1977
-2.305 6.520 1.713 1424
-2.298 6.502 1.688 1835
-2.297 6.499 1.666 2785
-2.299 6.504 1.646 2175
-2.419 6.843 1.704 1397
-2.320 6.563 1.618 1587
-2.504 7.085 1.714 2099
-2.503 7.082 1.690 2460
-2.502 7.079 1.667 1659
-2.566 7.259 1.683 1326
-2.604 7.366 1.682 1415
-2.683 7.590 1.705 1398
-2.687 7.601 1.683 1516
-2.870 8.119 1.763 1622
-2.864 8.101 1.734 1589
-2.912 8.238 1.735 1748
-2.919 8.257 1.712 1239
-3.019 8.541 1.739 1291
-2.984 8.442 1.694 1023
-3.144 8.895 1.750 819
-3.146 8.899 1.722 972
-3.147 8.904 1.695 845
-3.149 8.908 1.667 485
-0.760 2.161 1.764 4733
-0.761 2.165 1.757 9466
-0.763 2.170 1.751 9466
-0.766 2.180 1.749 8246
-0.768 2.185 1.742 7252
-0.795 2.262 1.791 6505
-0.799 2.273 1.788 7189
-0.801 2.278 1.781 7189
-0.800 2.276 1.770 6658
-0.802 2.280 1.763 6180
-0.803 2.285 1.756 5930
-0.807 2.296 1.754 5691
-0.811 2.306 1.751 6262
-0.817 2.323 1.753 7418
-0.820 2.334 1.750 5932
-0.828 2.357 1.756 5555
-0.830 2.361 1.749 6222
-0.832 2.366 1.742 6419
-0.835 2.376 1.739 6690
-0.839 2.387 1.736 6027
-0.843 2.398 1.733 5738
-0.858 2.440 1.752 4822
-0.861 2.451 1.748 4966
-0.865 2.461 1.745 3554
-0.880 2.504 1.763 4236
-0.886 2.521 1.764 4022
-0.892 2.538 1.764 4360
-0.892 2.536 1.753 5709
-0.893 2.541 1.745 7111
-0.895 2.545 1.737 8684
-0.898 2.556 1.733 10524
-0.902 2.567 1.730 8420
-0.947 2.693 1.799 8322
-0.953 2.710 1.799 7417
-0.954 2.715 1.790 6825
-0.958 2.726 1.786 5899
-0.969 2.756 1.794 4879
-0.973 2.767 1.789 4582
-0.981 2.791 1.792 4601
-0.987 2.809 1.792 5375
-0.989 2.814 1.783 4693
-1.000 2.844 1.790 4635
-0.990 2.816 1.762 4652
-0.998 2.840 1.765 5243
-1.002 2.851 1.760 6273
-1.004 2.856 1.752 4928
-1.038 2.952 1.796 5428
-1.042 2.963 1.790 5129
-1.032 2.935 1.763 4519
-1.031 2.933 1.750 5563
-1.035 2.944 1.745 6205
-1.055 3.001 1.765 6406
-1.059 3.012 1.760 8055
-1.070 3.043 1.765 9538
-1.071 3.048 1.756 9753
-1.071 3.045 1.743 8513
-1.065 3.030 1.723 5852
-1.069 3.041 1.717 4648
-1.078 3.065 1.718 6312
-1.084 3.083 1.716 7143
-1.085 3.087 1.707 7028
-1.084 3.085 1.694 5885
-1.169 3.325 1.804 6117
-1.173 3.336 1.798 6764
-1.174 3.341 1.787 5933
-1.138 3.237 1.723 5294
-1.144 3.255 1.720 5223
-1.193 3.395 1.777 5919
-1.195 3.399 1.766 7289
-1.197 3.404 1.756 7225
-1.196 3.402 1.742 5226
-1.228 3.495 1.774 3407
-1.223 3.479 1.754 3270
-1.263 3.592 1.794 4482
-1.272 3.617 1.793 4410
-1.273 3.622 1.782 4272
-1.275 3.626 1.771 4224
-1.301 3.700 1.791 5798
-1.307 3.718 1.786 6455
-1.313 3.736 1.780 6422
-1.315 3.741 1.769 6156
-1.319 3.752 1.761 6353
-1.323 3.763 1.752 6815
-1.344 3.823 1.764 9374
-1.348 3.835 1.756 10301
-1.354 3.853 1.750 7853
-1.361 3.871 1.744 7623
-1.362 3.876 1.732 8163
-1.364 3.880 1.720 7142
-1.363 3.877 1.706 4891
-1.362 3.875 1.691 3070
-1.415 4.026 1.738 3247
-1.446 4.114 1.759 3926
-1.448 4.118 1.747 4083
-1.432 4.074 1.715 3998
-1.434 4.078 1.702 4694
-1.455 4.138 1.712 3279
-1.459 4.150 1.702 2944
-1.455 4.140 1.684 3158
-1.496 4.257 1.713 2573
-1.500 4.268 1.703 2861
-1.539 4.378 1.728 3424
-1.536 4.369 1.710 4965
-1.542 4.387 1.702 4390
-1.593 4.533 1.739 3032
-1.590 4.523 1.720 3374
-1.584 4.506 1.699 4393
-1.596 4.539 1.695 3628
-1.610 4.579 1.693 4641
-1.611 4.583 1.679 3944
-1.648 4.687 1.698 3357
-1.657 4.712 1.691 4493
-1.661 4.724 1.679 4125
-1.667 4.742 1.669 2939
-1.714 4.875 1.696 3201
-1.718 4.887 1.684 4160
-1.717 4.884 1.666 4559
-1.718 4.888 1.651 3738
-1.793 5.100 1.701 2032
-1.794 5.104 1.685 2258
-1.821 5.180 1.691 2261
-1.815 5.163 1.669 1853
-1.801 5.124 1.640 2585
-1.874 5.330 1.684 3279
-1.872 5.327 1.665 4016
-1.925 5.475 1.690 3082
-1.926 5.479 1.673 3568
-1.958 5.570 1.681 4536
-1.960 5.574 1.664 4359
-1.933 5.499 1.625 3726
-1.957 5.568 1.625 3888
-2.040 5.804 1.670 2926
-2.103 5.982 1.698 2817
-2.112 6.008 1.685 2192
-2.154 6.129 1.697 2563
-2.125 6.046 1.656 2322
-2.165 6.159 1.664 2541
-2.159 6.141 1.640 2029
-2.148 6.109 1.612 1621
-2.287 6.506 1.688 1679
-2.286 6.503 1.666 2593
-2.290 6.515 1.648 2101
-2.304 6.555 1.636 1453
-2.308 6.567 1.618 1727
-2.492 7.090 1.714 2290
-2.491 7.087 1.690 2678
-2.490 7.084 1.667 1653
-2.589 7.366 1.705 1273
-2.815 8.008 1.817 1488
-2.672 7.602 1.707 1455
-2.674 7.606 1.683 1653
-2.853 8.117 1.762 1842
-2.850 8.106 1.734 1760
-2.895 8.236 1.733 1822
-2.902 8.255 1.711 1280
-3.002 8.538 1.738 1278
-2.969 8.447 1.694 1004
-3.129 8.900 1.750 950
-3.130 8.905 1.722 1075
-3.132 8.909 1.695 937
-3.133 8.913 1.667 563
-3.135 8.917 1.640 264
-0.753 2.163 1.764 4136
-0.755 2.168 1.757 8273
-0.756 2.172 1.751 8273
-0.760 2.183 1.749 7081
-0.787 2.260 1.797 6413
-0.789 2.265 1.791 6997
-0.790 2.269 1.784 7581
-0.792 2.274 1.777 7581
-0.791 2.272 1.765 7166
-0.793 2.277 1.759 6846
-0.794 2.281 1.752 6329
-0.798 2.292 1.749 5934
-0.804 2.309 1.751 6460
-0.810 2.325 1.753 7794
-0.814 2.336 1.750 6317
-0.822 2.359 1.756 5880
-0.823 2.364 1.749 6491
-0.825 2.368 1.742 6481
-0.826 2.372 1.735 6484
-0.832 2.389 1.736 5930
-0.836 2.400 1.733 5869
-0.851 2.442 1.752 5301
-0.854 2.453 1.748 5425
-0.858 2.464 1.745 3815
-0.875 2.513 1.767 4618
-0.879 2.523 1.764 4659
-0.883 2.534 1.760 4932
-0.882 2.532 1.748 6388
-0.884 2.537 1.741 7908
-0.887 2.548 1.737 9473
-0.891 2.558 1.733 11390
-0.895 2.569 1.730 8979
-0.939 2.696 1.799 8349
-0.945 2.713 1.799 7419
-0.947 2.718 1.790 6689
-0.950 2.729 1.786 5613
-0.961 2.759 1.794 4832
-0.965 2.770 1.789 4966
-0.971 2.788 1.789 5179
-0.977 2.805 1.788 5822
-0.981 2.816 1.783 4940
-0.992 2.847 1.790 4884
-0.993 2.852 1.781 4504
-0.997 2.863 1.777 5514
-0.999 2.867 1.768 6845
-1.025 2.944 1.801 5283
-1.029 2.955 1.796 5633
-1.031 2.960 1.787 5010
-1.023 2.938 1.763 4588
-1.022 2.936 1.750 5754
-1.026 2.947 1.745 6403
-1.035 2.971 1.747 6801
-1.048 3.009 1.756 7926
-1.059 3.040 1.761 8916
-1.063 3.051 1.756 8887
-1.057 3.035 1.736 8405
-1.056 3.033 1.723 6215
-1.097 3.151 1.774 4885
-1.069 3.068 1.718 5234
-1.075 3.086 1.716 6079
-1.076 3.090 1.707 6222
-1.076 3.088 1.694 5499
-1.159 3.328 1.804 6278
-1.163 3.340 1.798 7169
-1.165 3.344 1.787 6516
-1.169 3.355 1.781 6115
-1.135 3.258 1.720 5457
-1.186 3.405 1.780 6009
-1.188 3.410 1.770 7045
-1.187 3.407 1.756 6788
-1.184 3.398 1.739 4922
-1.218 3.498 1.774 3623
-1.215 3.489 1.757 4049
-1.214 3.486 1.743 4710
-1.216 3.491 1.733 4579
-1.265 3.632 1.785 3532
-1.271 3.651 1.780 3759
-1.280 3.676 1.778 5819
-1.296 3.722 1.786 6314
-1.303 3.740 1.780 6133
-1.304 3.744 1.769 6058
-1.308 3.756 1.761 6599
-1.312 3.767 1.752 7122
-1.333 3.827 1.764 8288
-1.339 3.845 1.759 9640
-1.343 3.857 1.750 8188
-1.350 3.875 1.744 9319
-1.351 3.880 1.732 10433
-1.353 3.884 1.720 8518
-1.352 3.881 1.706 5333
-1.351 3.879 1.691 3061
-1.401 4.023 1.735 3491
-1.434 4.118 1.759 3699
-1.436 4.122 1.747 4274
-1.420 4.078 1.715 4830
-1.422 4.082 1.702 5475
-1.440 4.136 1.709 3469
-1.444 4.147 1.699 2999
-1.443 4.144 1.684 3170
-1.484 4.261 1.713 2670
-1.486 4.266 1.700 2889
-1.526 4.383 1.728 3725
-1.523 4.373 1.710 4831
-1.527 4.384 1.699 3914
-1.583 4.545 1.741 3158
-1.579 4.535 1.722 3651
-1.576 4.525 1.704 4152
-1.587 4.558 1.700 3834
-1.596 4.583 1.693 4752
-1.598 4.588 1.679 3912
-1.636 4.699 1.701 3229
-1.643 4.717 1.691 4220
-1.647 4.729 1.679 3711
-1.673 4.804 1.688 2955
-1.670 4.794 1.669 3285
-1.711 4.913 1.690 3959
-1.703 4.889 1.666 4542
-1.704 4.893 1.651 3585
-1.781 5.112 1.703 2043
-1.782 5.117 1.687 2448
-1.809 5.193 1.693 2669
-1.787 5.132 1.658 2126
-1.786 5.129 1.640 2694
-1.858 5.335 1.684 3332
-1.857 5.332 1.665 4108
-1.909 5.481 1.690 3072
-1.910 5.485 1.673 3749
-1.944 5.583 1.683 4900
-1.943 5.580 1.664 4740
-1.940 5.570 1.643 3813
-1.961 5.632 1.641 4224
-1.968 5.650 1.628 2755
-2.083 5.981 1.696 2829
-2.092 6.007 1.683 2176
-2.134 6.128 1.695 2546
-2.108 6.052 1.656 2228
-2.147 6.165 1.664 2305
-2.139 6.140 1.638 1968
-2.130 6.115 1.612 1902
-2.246 6.447 1.672 1676
-2.267 6.510 1.666 2324
-2.274 6.529 1.650 1904
-2.285 6.562 1.636 1449
-2.292 6.581 1.620 1833
-2.472 7.097 1.714 2479
-2.471 7.094 1.690 2825
-2.462 7.069 1.662 1624
-2.558 7.344 1.699 1263
-2.792 8.016 1.817 1528
-2.650 7.609 1.707 1492
-2.654 7.621 1.685 1758
-2.830 8.125 1.762 1913
-2.829 8.122 1.735 1738
-2.871 8.244 1.733 1882
-2.875 8.256 1.709 1328
-2.974 8.540 1.737 1258
-2.945 8.456 1.694 1061
-3.103 8.909 1.750 974
-3.105 8.914 1.722 1049
-3.106 8.918 1.695 895
-3.107 8.922 1.667 544
-2.996 8.602 1.585 272
-0.752 2.170 1.769 3556
-0.753 2.175 1.762 7112
-0.780 2.252 1.811 8148
-0.782 2.257 1.804 7584
-0.785 2.268 1.802 7069
-0.785 2.266 1.791 7508
-0.786 2.271 1.784 7995
-0.788 2.275 1.777 7995
-0.787 2.273 1.765 7776
-0.789 2.278 1.759 7569
-0.791 2.282 1.752 6794
-0.794 2.293 1.749 6065
-0.800 2.310 1.751 6590
-0.806 2.327 1.753 8083
-0.812 2.344 1.755 6700
-0.820 2.367 1.761 6258
-0.819 2.365 1.749 6734
-0.821 2.369 1.742 6496
-0.822 2.374 1.735 6231
-0.828 2.391 1.736 5813
-0.838 2.420 1.746 6176
-0.846 2.444 1.752 5741
-0.850 2.455 1.748 5824
-0.856 2.472 1.749 4071
-0.871 2.514 1.767 5086
-0.872 2.519 1.760 5276
-0.876 2.529 1.756 5563
-0.878 2.534 1.748 7125
-0.877 2.532 1.737 8716
-0.883 2.549 1.737 10120
-0.887 2.560 1.733 11982
-0.890 2.571 1.730 9265
-0.936 2.704 1.803 8252
-0.940 2.715 1.799 7267
-0.942 2.719 1.790 6412
-0.946 2.730 1.786 5255
-0.956 2.761 1.794 4776
-0.960 2.772 1.789 5363
-0.964 2.783 1.785 5809
-0.972 2.807 1.788 6118
-0.976 2.818 1.783 5017
-0.987 2.849 1.790 5070
-0.991 2.860 1.785 4877
-0.994 2.871 1.780 6293
-0.998 2.882 1.775 7877
-1.002 2.893 1.771 6160
-1.022 2.950 1.792 5953
-1.026 2.961 1.787 5048
-1.020 2.946 1.766 4645
-1.017 2.937 1.750 5821
-1.023 2.955 1.748 6402
-1.030 2.973 1.747 7115
-1.040 3.004 1.752 8108
-1.049 3.028 1.754 8330
-1.057 3.053 1.756 7760
-1.052 3.037 1.736 7771
-1.051 3.035 1.723 6005
-1.090 3.146 1.770 5846
-1.091 3.151 1.760 5258
-1.072 3.095 1.720 5165
-1.104 3.186 1.755 6161
-1.105 3.191 1.745 6502
-1.114 3.216 1.746 6885
-1.157 3.342 1.798 7352
