1.312 2.083 1.498 5671
1.329 2.110 1.507 6094
1.317 2.090 1.484 5654
1.311 2.081 1.469 5431
1.362 2.161 1.512 5726
1.364 2.164 1.505 7181
1.366 2.168 1.497 6229
1.383 2.195 1.505 5520
1.389 2.204 1.501 5958
1.394 2.213 1.497 8212
1.397 2.217 1.490 9783
1.395 2.214 1.479 7709
1.401 2.223 1.475 6835
1.403 2.227 1.467 8251
1.405 2.230 1.460 9531
1.411 2.239 1.456 9501
1.416 2.248 1.452 8645
1.445 2.293 1.469 8834
1.451 2.303 1.465 6711
1.464 2.324 1.468 5664
1.462 2.321 1.456 5168
1.468 2.331 1.452 6177
1.474 2.340 1.448 7715
1.484 2.355 1.446 8828
1.505 2.389 1.456 13264
1.511 2.398 1.451 17553
1.513 2.401 1.443 15256
1.538 2.441 1.455 10099
1.547 2.456 1.453 13825
1.549 2.459 1.445 17522
1.552 2.463 1.436 14869
1.561 2.478 1.434 11109
1.575 2.500 1.436 11348
1.581 2.509 1.431 7778
1.567 2.487 1.409 5487
1.600 2.540 1.426 6385
1.598 2.537 1.414 9203
1.600 2.540 1.406 10354
1.614 2.561 1.407 9214
1.627 2.583 1.407 8639
1.633 2.592 1.401 8797
1.639 2.602 1.396 8873
1.661 2.636 1.402 6244
1.670 2.651 1.399 7426
1.676 2.661 1.393 7644
1.706 2.707 1.405 8250
1.719 2.729 1.404 7187
1.725 2.738 1.398 8141
1.727 2.741 1.389 9061
1.725 2.738 1.377 5567
1.766 2.804 1.396 4793
1.768 2.807 1.386 6900
1.770 2.810 1.377 9582
1.772 2.813 1.367 8599
1.782 2.829 1.363 6617
1.788 2.838 1.356 4490
1.818 2.885 1.366 3547
1.867 2.963 1.388 5046
1.881 2.985 1.386 5281
1.887 2.995 1.379 4758
1.881 2.985 1.363 8128
1.891 3.001 1.358 11177
1.893 3.004 1.348 8738
1.894 3.007 1.338 4584
1.916 3.042 1.340 3846
1.962 3.114 1.358 4812
1.968 3.124 1.350 7387
1.970 3.127 1.339 8925
1.976 3.136 1.331 6951
2.014 3.196 1.342 5872
2.068 3.282 1.363 6640
2.070 3.285 1.352 6893
2.064 3.275 1.336 4995
2.065 3.278 1.324 4947
2.148 3.409 1.360 6138
2.154 3.419 1.351 7397
2.164 3.434 1.343 6868
2.174 3.450 1.336 6442
2.176 3.453 1.324 5606
2.214 3.514 1.333 4575
2.212 3.511 1.319 3090
2.218 3.520 1.309 2563
2.236 3.549 1.305 3350
2.270 3.603 1.310 3956
2.296 3.645 1.311 5151
2.274 3.609 1.286 5884
2.279 3.618 1.275 4388
2.346 3.724 1.296 2995
2.332 3.701 1.275 3301
2.358 3.743 1.274 4588
2.368 3.759 1.265 8357
2.370 3.762 1.253 11058
2.417 3.836 1.261 8419
2.418 3.838 1.248 8132
2.428 3.854 1.239 5979
2.422 3.844 1.222 5750
2.456 3.899 1.223 6408
2.458 3.901 1.210 8635
2.460 3.904 1.197 5594
2.548 4.044 1.220 4297
2.545 4.040 1.205 3633
2.642 4.193 1.231 2671
2.647 4.202 1.218 3278
2.657 4.218 1.207 3781
2.680 4.253 1.201 3592
2.772 4.400 1.222 3261
2.778 4.409 1.209 3639
2.780 4.412 1.194 2835
2.856 4.533 1.207 3486
2.837 4.502 1.184 4003
2.888 4.584 1.187 4172
2.894 4.593 1.172 4006
2.912 4.622 1.163 3756
2.901 4.605 1.142 3056
2.878 4.567 1.118 2882
3.004 4.768 1.145 4961
3.005 4.770 1.128 8817
3.003 4.766 1.111 9502
3.012 4.781 1.097 9073
3.018 4.790 1.082 11306
3.020 4.793 1.066 9247
3.108 4.934 1.076 6510
3.110 4.936 1.059 6644
3.124 4.958 1.046 5935
3.134 4.974 1.031 5817
3.148 4.996 1.018 8760
3.149 4.998 1.001 12094
3.150 5.000 0.984 11619
3.156 5.009 0.968 12307
3.157 5.011 0.951 13260
3.154 5.006 0.932 11193
3.159 5.015 0.916 8088
3.165 5.023 0.900 4941
3.170 5.032 0.884 2866
3.791 6.017 1.010 2446
3.797 6.026 0.991 2940
3.806 6.042 0.972 4008
3.824 6.070 0.955 4355
3.826 6.072 0.934 4308
3.890 6.174 0.926 3734
3.983 6.322 0.923 3585
3.989 6.331 0.902 3546
3.990 6.333 0.881 3606
3.987 6.328 0.858 2811
4.387 6.963 0.907 2083
4.384 6.959 0.882 2172
4.175 6.627 0.824 1718
4.542 7.209 0.859 1748
4.484 7.117 0.826 1902
4.489 7.126 0.802 2293
4.507 7.154 0.780 2615
4.643 7.369 0.774 2312
4.640 7.364 0.748 2567
4.977 7.900 0.765 1702
4.970 7.888 0.737 1630
4.849 7.696 0.696 1481
5.031 7.985 0.690 1734
5.036 7.993 0.663 1420
5.041 8.001 0.636 1017
5.042 8.002 0.608 746
5.030 7.983 0.580 397
5.047 8.011 0.554 260
1.095 1.726 1.565 5933
1.097 1.730 1.559 11867
1.099 1.733 1.553 9428
1.112 1.753 1.561 8045
1.114 1.757 1.555 8792
1.124 1.771 1.558 5942
1.133 1.786 1.561 3781
1.128 1.778 1.546 3593
1.165 1.837 1.585 5039
1.167 1.840 1.579 5039
1.173 1.849 1.577 6600
1.175 1.853 1.571 8314
1.178 1.856 1.565 8940
1.180 1.860 1.558 9567
1.179 1.858 1.548 8510
1.174 1.850 1.533 7701
1.186 1.870 1.540 9225
1.196 1.885 1.542 12168
1.202 1.894 1.540 14433
1.207 1.903 1.538 17127
1.210 1.907 1.531 18664
1.208 1.904 1.521 20819
1.214 1.913 1.518 21246
1.216 1.917 1.512 21212
1.218 1.920 1.505 20536
1.220 1.924 1.499 17528
1.222 1.927 1.492 14149
1.225 1.930 1.486 12857
1.227 1.934 1.479 12033
1.229 1.937 1.473 11388
1.234 1.946 1.470 10557
1.240 1.955 1.468 10105
1.246 1.964 1.465 7562
1.296 2.042 1.510 8030
1.298 2.046 1.503 8860
1.304 2.055 1.500 9782
1.309 2.064 1.497 7541
1.334 2.102 1.514 6060
1.332 2.100 1.503 6601
1.323 2.086 1.484 6167
1.318 2.077 1.469 5752
1.368 2.157 1.512 5739
1.370 2.160 1.505 7218
1.369 2.158 1.493 6378
1.367 2.155 1.482 5491
1.392 2.194 1.497 5709
1.398 2.203 1.494 8769
1.400 2.206 1.486 10628
1.402 2.210 1.479 8244
1.408 2.219 1.475 6372
1.413 2.228 1.471 7377
1.412 2.225 1.460 9216
1.418 2.235 1.456 10535
1.427 2.250 1.456 10379
1.448 2.283 1.466 10226
1.454 2.292 1.461 7923
1.471 2.319 1.468 6996
1.470 2.317 1.456 6616
1.475 2.326 1.452 7551
1.481 2.335 1.448 9076
1.487 2.344 1.443 9538
1.516 2.390 1.459 13704
1.522 2.399 1.454 18176
1.520 2.396 1.443 15758
1.522 2.400 1.435 9462
1.555 2.451 1.453 11478
1.557 2.455 1.445 15069
1.559 2.458 1.436 12943
1.573 2.479 1.438 11826
1.583 2.495 1.436 13894
1.585 2.498 1.427 9554
1.579 2.489 1.412 6475
1.608 2.535 1.426 6294
1.610 2.538 1.418 8386
1.612 2.541 1.409 9377
1.622 2.556 1.407 8929
1.632 2.572 1.404 7952
1.645 2.594 1.405 7947
1.647 2.597 1.396 8383
1.657 2.612 1.393 6259
1.679 2.646 1.399 7715
1.681 2.649 1.390 8406
1.718 2.708 1.408 8735
1.728 2.724 1.404 7867
1.734 2.733 1.398 8384
1.736 2.736 1.389 9118
1.742 2.745 1.382 5747
1.775 2.798 1.396 6026
1.777 2.801 1.386 8323
1.775 2.798 1.374 10298
1.781 2.807 1.367 8418
1.791 2.823 1.363 6057
1.797 2.832 1.356 5135
1.815 2.860 1.357 3907
1.876 2.958 1.388 4660
1.890 2.980 1.386 5683
1.896 2.989 1.379 5920
1.894 2.986 1.366 9368
1.900 2.995 1.358 12360
1.902 2.998 1.348 9341
1.900 2.995 1.335 4609
1.950 3.074 1.356 3907
1.976 3.115 1.360 4767
1.978 3.118 1.350 6858
1.980 3.121 1.339 8364
1.981 3.123 1.328 6265
2.036 3.209 1.350 5967
2.078 3.276 1.363 7009
2.084 3.285 1.354 6894
2.074 3.269 1.336 4861
2.080 3.278 1.327 5517
2.158 3.403 1.360 6716
2.164 3.412 1.351 7319
2.179 3.434 1.346 6570
2.184 3.444 1.336 6817
2.186 3.446 1.324 5874
2.184 3.443 1.311 3986
2.223 3.504 1.319 3214
2.237 3.526 1.313 3858
2.247 3.542 1.305 4982
2.257 3.557 1.297 5157
2.307 3.637 1.311 5229
2.281 3.595 1.284 5116
2.352 3.708 1.306 3390
2.358 3.717 1.296 3924
2.306 3.636 1.257 3947
2.378 3.749 1.278 4211
2.384 3.758 1.267 8293
2.382 3.754 1.253 11822
2.383 3.757 1.240 9784
2.393 3.773 1.231 6404
2.440 3.847 1.239 4704
2.442 3.849 1.225 5512
2.468 3.891 1.223 7238
2.470 3.894 1.210 10123
2.472 3.896 1.197 6789
2.564 4.042 1.222 3846
2.653 4.182 1.245 3395
2.655 4.185 1.231 3166
2.660 4.194 1.218 3434
2.670 4.210 1.207 3534
2.697 4.251 1.203 3544
2.686 4.234 1.183 3174
2.792 4.401 1.209 3958
2.793 4.403 1.194 3581
2.799 4.412 1.180 3329
2.842 4.480 1.181 3960
2.898 4.568 1.185 4106
2.891 4.558 1.166 4575
2.889 4.554 1.149 4749
2.894 4.563 1.135 2914
3.013 4.749 1.160 2701
3.018 4.758 1.145 5470
3.020 4.761 1.128 9237
3.022 4.763 1.112 9874
3.031 4.779 1.098 8677
3.033 4.781 1.082 10573
3.034 4.783 1.066 9128
3.124 4.924 1.076 6369
3.125 4.927 1.059 6249
3.143 4.955 1.047 6123
3.149 4.964 1.031 6408
3.163 4.986 1.018 9512
3.164 4.988 1.001 12797
3.170 4.997 0.985 11684
3.171 4.999 0.968 12058
3.168 4.994 0.949 13403
3.169 4.996 0.932 11595
3.175 5.005 0.916 8598
3.176 5.007 0.899 5253
3.181 5.015 0.883 2978
3.806 5.999 1.009 2724
3.815 6.014 0.991 2988
3.825 6.030 0.972 3842
3.839 6.052 0.954 4054
3.844 6.060 0.934 4013
4.002 6.308 0.945 4093
4.003 6.310 0.923 4043
4.008 6.319 0.902 3836
4.010 6.321 0.881 3973
4.006 6.316 0.858 3298
4.008 6.317 0.837 2298
4.406 6.945 0.882 2209
4.200 6.620 0.824 1753
4.192 6.609 0.800 1811
4.506 7.103 0.826 2037
4.511 7.112 0.802 2514
4.525 7.133 0.779 2732
4.670 7.362 0.774 2461
4.662 7.350 0.748 2342
5.002 7.885 0.765 1604
4.994 7.873 0.737 1538
5.110 8.055 0.723 1279
5.055 7.969 0.690 1582
5.065 7.984 0.663 1352
5.070 7.992 0.636 1009
5.066 7.986 0.608 732
5.054 7.967 0.580 394
5.072 7.995 0.554 271
1.097 1.718 1.560 5299
1.099 1.721 1.555 10599
1.105 1.730 1.553 8497
1.117 1.750 1.561 7315
1.123 1.759 1.560 8030
1.129 1.768 1.558 5617
1.138 1.782 1.561 3822
1.133 1.775 1.546 3382
1.171 1.833 1.585 4539
1.173 1.837 1.579 4539
1.179 1.846 1.577 6115
1.181 1.849 1.571 7773
1.183 1.853 1.565 8683
1.182 1.851 1.554 9633
1.184 1.854 1.548 8761
1.179 1.847 1.533 8076
1.192 1.867 1.540 9061
1.201 1.881 1.542 11410
1.207 1.891 1.540 13404
1.213 1.900 1.538 15903
1.215 1.903 1.531 17292
1.217 1.906 1.525 18971
1.216 1.904 1.514 19260
1.222 1.913 1.512 19390
1.224 1.917 1.505 18891
1.226 1.920 1.499 16560
1.228 1.923 1.492 13785
1.234 1.932 1.490 12393
1.236 1.936 1.483 11402
1.238 1.939 1.477 10703
1.244 1.948 1.474 9897
1.246 1.951 1.468 9350
1.296 2.029 1.513 7450
1.302 2.039 1.510 7850
1.304 2.042 1.503 8722
1.310 2.051 1.500 9669
1.319 2.066 1.501 7495
1.340 2.098 1.514 6296
1.335 2.090 1.499 6907
1.329 2.082 1.484 6655
1.328 2.079 1.473 6146
1.375 2.153 1.512 5357
1.373 2.150 1.501 6809
1.375 2.154 1.493 6198
1.374 2.151 1.482 5587
1.383 2.166 1.483 5931
1.400 2.193 1.490 9078
1.402 2.196 1.483 11128
1.405 2.200 1.475 8714
1.414 2.215 1.475 5962
1.420 2.224 1.471 6629
1.422 2.227 1.464 8831
1.424 2.230 1.456 11089
1.434 2.246 1.456 11650
1.451 2.273 1.462 11209
1.461 2.288 1.461 9065
1.478 2.315 1.468 8299
1.480 2.318 1.460 8193
1.482 2.322 1.452 8867
1.488 2.331 1.448 10217
1.490 2.334 1.440 9898
1.523 2.385 1.459 13632
1.529 2.395 1.454 17909
1.531 2.398 1.446 15441
1.529 2.395 1.435 9087
1.559 2.441 1.450 9207
1.564 2.450 1.445 12328
1.566 2.453 1.436 11292
1.580 2.475 1.438 12630
1.594 2.496 1.439 15399
1.596 2.499 1.431 10612
1.586 2.484 1.412 6584
1.616 2.530 1.426 5941
1.621 2.539 1.421 6715
1.620 2.536 1.409 8085
1.629 2.552 1.407 8517
1.639 2.567 1.404 7363
1.657 2.595 1.408 7332
1.659 2.598 1.399 8187
1.665 2.607 1.393 6365
1.683 2.635 1.396 7383
1.688 2.644 1.390 8539
1.726 2.703 1.408 9505
1.732 2.712 1.401 8877
1.738 2.722 1.395 8329
1.748 2.737 1.392 8669
1.750 2.740 1.382 6177
1.783 2.793 1.396 6583
1.781 2.790 1.383 8937
1.783 2.793 1.374 10401
1.789 2.802 1.367 8304
1.799 2.818 1.363 5229
1.805 2.827 1.356 4795
1.819 2.849 1.355 4235
1.885 2.952 1.388 4176
1.899 2.974 1.386 5765
1.905 2.983 1.379 6797
1.903 2.980 1.366 10244
1.909 2.989 1.358 12754
1.911 2.992 1.348 9028
1.905 2.983 1.333 4715
1.955 3.061 1.353 4108
1.985 3.109 1.360 4293
1.991 3.118 1.352 6315
1.989 3.115 1.339 7623
2.039 3.194 1.358 5717
2.057 3.222 1.357 6270
2.084 3.263 1.360 7127
2.094 3.279 1.354 6590
2.100 3.288 1.345 4602
2.102 3.291 1.334 6207
2.169 3.396 1.360 6735
2.175 3.405 1.351 6835
2.189 3.428 1.346 5952
2.195 3.437 1.336 6685
2.197 3.440 1.324 5702
2.190 3.430 1.308 3715
2.237 3.503 1.321 3502
2.247 3.519 1.313 4991
2.257 3.535 1.305 6216
2.267 3.551 1.297 6345
2.290 3.586 1.296 5763
2.287 3.582 1.282 5361
2.367 3.707 1.308 4027
2.373 3.716 1.298 4766
2.317 3.629 1.257 4496
2.393 3.748 1.280 4982
2.395 3.751 1.267 8168
2.397 3.753 1.255 11503
2.399 3.756 1.242 10387
2.400 3.759 1.229 7573
2.464 3.859 1.244 3771
2.458 3.849 1.227 5491
2.480 3.884 1.223 7609
2.482 3.886 1.210 10959
2.488 3.895 1.198 7619
2.585 4.048 1.226 4040
2.665 4.174 1.245 3567
2.663 4.170 1.229 3458
2.669 4.179 1.216 3729
2.683 4.201 1.207 3354
2.710 4.243 1.203 3411
2.699 4.226 1.183 3447
2.805 4.392 1.209 3943
2.806 4.395 1.194 3992
2.812 4.404 1.180 4181
2.851 4.465 1.179 3984
2.916 4.566 1.187 3739
2.926 4.582 1.174 4014
2.927 4.584 1.158 3470
2.925 4.580 1.141 3022
3.031 4.747 1.161 3090
3.033 4.749 1.145 5453
3.034 4.752 1.128 8737
3.036 4.754 1.112 9479
3.046 4.770 1.098 8118
3.051 4.779 1.083 9567
3.049 4.774 1.066 8542
3.138 4.915 1.076 6040
3.144 4.924 1.060 5743
3.158 4.946 1.047 6003
3.164 4.955 1.031 6403
3.182 4.983 1.019 9705
3.183 4.985 1.002 12842
3.185 4.987 0.985 11135
3.186 4.989 0.968 11086
3.183 4.985 0.949 12658
3.184 4.987 0.932 11215
3.190 4.995 0.916 8375
3.191 4.997 0.899 5014
3.192 4.999 0.882 2794
3.828 5.994 1.010 2896
3.833 6.003 0.991 2971
3.843 6.018 0.972 3516
4.022 6.299 0.989 3678
4.019 6.294 0.967 4591
4.021 6.296 0.945 4589
4.022 6.298 0.923 4300
4.027 6.307 0.902 3919
4.028 6.308 0.881 4056
4.025 6.304 0.858 3543
4.026 6.305 0.837 2505
4.028 6.307 0.815 2041
4.029 6.309 0.793 1743
4.582 7.175 0.859 1743
4.527 7.090 0.826 2090
4.533 7.098 0.802 2680
4.546 7.120 0.779 2919
4.692 7.348 0.774 2568
4.684 7.336 0.748 2081
5.025 7.870 0.765 1469
5.018 7.858 0.737 1418
5.134 8.039 0.723 1193
5.079 7.954 0.690 1400
5.089 7.969 0.663 1231
5.094 7.977 0.636 992
5.094 7.978 0.609 729
5.074 7.946 0.579 388
1.102 1.714 1.560 4656
1.104 1.718 1.555 9312
1.110 1.727 1.553 7539
1.126 1.752 1.566 6663
1.128 1.755 1.560 7342
1.138 1.770 1.563 5616
1.143 1.779 1.561 4150
1.139 1.771 1.546 3466
1.176 1.830 1.585 4129
1.178 1.833 1.579 4129
1.181 1.837 1.573 5628
1.183 1.840 1.567 7128
1.189 1.849 1.565 8146
1.191 1.853 1.558 9167
1.190 1.851 1.548 8735
1.185 1.843 1.533 8665
1.198 1.863 1.540 8778
1.211 1.883 1.546 10452
1.217 1.892 1.544 12104
1.219 1.896 1.538 14099
1.221 1.899 1.531 15415
1.223 1.903 1.525 16856
1.222 1.901 1.514 17012
1.224 1.904 1.508 17257
1.230 1.913 1.505 16932
1.232 1.916 1.499 15097
1.238 1.925 1.496 12669
1.240 1.929 1.490 10984
1.238 1.926 1.479 9948
1.240 1.930 1.473 9458
1.250 1.944 1.474 9046
1.256 1.953 1.472 8934
1.298 2.020 1.509 7375
1.308 2.035 1.510 7401
1.310 2.038 1.503 8302
1.316 2.047 1.500 9239
1.325 2.062 1.501 7281
1.346 2.094 1.514 6375
1.337 2.080 1.495 7207
1.336 2.078 1.484 7291
1.334 2.075 1.473 6741
1.336 2.079 1.466 4830
1.380 2.146 1.501 6050
1.378 2.144 1.490 5781
1.380 2.147 1.482 5588
1.386 2.156 1.479 6236
1.407 2.189 1.490 9431
1.409 2.192 1.483 11542
1.411 2.195 1.475 9070
1.421 2.210 1.475 5783
1.431 2.226 1.475 6540
1.429 2.223 1.464 8871
1.435 2.232 1.460 11992
1.441 2.241 1.456 13248
1.458 2.268 1.462 12126
1.468 2.283 1.461 10259
1.485 2.311 1.468 9928
1.487 2.314 1.460 10260
1.489 2.317 1.452 10616
1.495 2.326 1.448 11781
1.497 2.329 1.440 10584
1.534 2.387 1.462 13498
1.536 2.390 1.454 17002
1.538 2.393 1.446 14609
1.537 2.390 1.435 8643
1.562 2.430 1.446 7180
1.564 2.433 1.438 9510
1.574 2.448 1.436 9770
1.591 2.476 1.441 14002
1.601 2.491 1.439 16952
1.603 2.494 1.431 11843
1.617 2.516 1.432 7563
1.627 2.531 1.429 5754
1.645 2.559 1.433 5028
1.631 2.537 1.412 6288
1.637 2.547 1.407 8220
1.647 2.562 1.404 7176
1.665 2.590 1.408 7119
1.667 2.593 1.399 8498
1.673 2.602 1.393 7060
1.690 2.630 1.396 7308
1.692 2.633 1.387 9056
1.738 2.704 1.411 9811
1.736 2.701 1.398 9720
1.742 2.710 1.392 8385
1.756 2.732 1.392 9026
1.758 2.735 1.382 8001
1.788 2.781 1.393 7343
1.790 2.784 1.383 10181
1.792 2.787 1.374 11618
1.798 2.797 1.367 9329
1.808 2.812 1.363 5183
1.826 2.840 1.364 4680
1.832 2.849 1.357 4586
1.898 2.953 1.391 3546
1.908 2.968 1.386 5865
1.910 2.971 1.376 7793
1.916 2.981 1.369 11374
1.918 2.984 1.358 13434
1.920 2.987 1.348 8501
1.914 2.977 1.333 4443
1.964 3.056 1.353 3550
1.998 3.109 1.363 3450
2.000 3.112 1.352 5442
1.982 3.083 1.329 6654
1.972 3.067 1.311 5848
2.075 3.229 1.362 6567
2.089 3.251 1.358 6951
2.108 3.279 1.356 5965
2.118 3.295 1.350 5173
2.116 3.291 1.336 7374
2.113 3.288 1.323 7714
2.185 3.399 1.351 5950
2.199 3.421 1.346 5095
2.205 3.430 1.336 6206
2.207 3.433 1.324 5030
2.196 3.417 1.306 3211
2.256 3.509 1.325 3799
2.258 3.512 1.313 5657
2.268 3.528 1.305 7137
2.282 3.550 1.300 7630
2.292 3.566 1.292 7261
2.302 3.581 1.284 7520
2.378 3.700 1.308 4401
2.393 3.722 1.302 5711
2.399 3.731 1.291 6019
2.400 3.734 1.278 6211
2.406 3.744 1.267 7816
2.408 3.746 1.255 10098
2.410 3.749 1.242 10633
2.412 3.752 1.229 8425
2.417 3.761 1.218 3670
2.473 3.848 1.229 5857
2.492 3.876 1.223 7766
2.497 3.885 1.212 11668
2.499 3.888 1.198 8253
2.601 4.046 1.228 4785
2.611 4.062 1.217 4033
2.675 4.162 1.229 3645
2.681 4.171 1.216 4081
2.687 4.180 1.204 3434
2.727 4.242 1.204 3249
2.711 4.218 1.183 3734
2.709 4.214 1.167 3509
2.824 4.393 1.195 4187
2.825 4.395 1.180 5125
2.831 4.404 1.167 4685
2.929 4.557 1.187 3611
2.944 4.579 1.175 3947
2.945 4.582 1.160 3143
2.939 4.571 1.141 2534
3.050 4.744 1.162 3535
3.047 4.740 1.145 5268
3.049 4.743 1.128 7885
3.054 4.752 1.113 8958
3.064 4.767 1.100 7423
3.066 4.769 1.083 8022
3.063 4.765 1.066 7375
3.153 4.905 1.076 5251
3.201 4.980 1.073 5981
3.173 4.936 1.047 5312
3.179 4.945 1.031 5912
3.201 4.980 1.020 9728
3.203 4.982 1.003 12343
3.200 4.978 0.985 10017
3.201 4.980 0.968 9445
3.198 4.975 0.949 11109
3.199 4.977 0.932 10085
3.205 4.986 0.916 7393
3.206 4.988 0.899 4353
3.636 5.657 0.982 3002
3.846 5.983 1.010 2993
3.851 5.991 0.991 2820
3.861 6.007 0.972 3033
4.041 6.287 0.989 4067
4.038 6.282 0.967 5090
4.039 6.284 0.945 4935
4.041 6.286 0.923 4400
4.046 6.295 0.902 3869
4.047 6.296 0.881 4010
4.044 6.292 0.858 3667
4.045 6.293 0.837 2607
4.046 6.295 0.815 2068
4.047 6.297 0.793 1767
4.219 6.564 0.798 1783
4.459 6.937 0.812 2034
4.554 7.085 0.802 2625
4.572 7.113 0.780 2931
4.714 7.333 0.774 2705
4.706 7.322 0.748 2028
5.053 7.861 0.766 1283
5.153 8.016 0.750 1371
5.158 8.024 0.723 1168
5.103 7.939 0.690 1219
5.117 7.960 0.663 1145
5.118 7.961 0.636 1019
5.118 7.962 0.609 787
5.098 7.930 0.579 410
1.106 1.712 1.560 3967
1.108 1.715 1.555 7934
1.114 1.724 1.553 6616
1.134 1.755 1.570 6085
1.140 1.764 1.569 6629
1.142 1.767 1.563 5543
1.144 1.770 1.557 4458
1.139 1.763 1.542 3607
1.181 1.827 1.585 3668
1.183 1.830 1.579 3668
1.185 1.834 1.573 4944
1.187 1.837 1.567 6220
1.190 1.841 1.560 7529
1.195 1.850 1.558 8869
1.194 1.848 1.548 8682
1.189 1.840 1.533 8771
1.206 1.866 1.544 8228
1.215 1.881 1.546 9174
1.221 1.890 1.544 10642
1.223 1.893 1.538 12349
1.226 1.896 1.531 13275
1.228 1.900 1.525 14201
1.230 1.903 1.518 14274
1.228 1.901 1.508 14627
1.234 1.910 1.505 14155
1.236 1.913 1.499 12864
1.242 1.922 1.496 11089
1.244 1.926 1.490 9775
1.247 1.929 1.483 9039
1.249 1.932 1.477 8753
1.258 1.947 1.478 8499
1.264 1.956 1.476 8543
1.299 2.011 1.505 7064
1.305 2.020 1.502 6452
1.315 2.035 1.503 7376
1.317 2.038 1.496 8356
1.330 2.059 1.501 6674
1.351 2.091 1.514 5991
1.342 2.077 1.495 7188
1.341 2.075 1.484 7678
1.339 2.072 1.473 7144
1.337 2.069 1.462 4902
1.385 2.143 1.501 5299
1.383 2.140 1.490 5348
1.381 2.138 1.479 5445
1.391 2.153 1.479 6315
1.408 2.179 1.486 9177
1.411 2.183 1.479 11175
1.413 2.186 1.471 8869
1.426 2.207 1.475 5392
1.436 2.222 1.475 6222
1.434 2.219 1.464 8438
1.440 2.229 1.460 12056
1.446 2.238 1.456 13784
1.464 2.265 1.462 12207
1.477 2.286 1.465 10898
1.491 2.307 1.468 11121
1.493 2.310 1.460 11658
1.495 2.313 1.452 11782
1.501 2.323 1.448 12881
1.503 2.326 1.440 10993
1.544 2.389 1.466 12991
1.542 2.386 1.454 15305
1.544 2.390 1.446 13165
1.542 2.387 1.435 8071
1.560 2.414 1.440 6183
1.562 2.417 1.431 7974
1.580 2.445 1.436 8684
1.597 2.472 1.441 15017
1.607 2.487 1.439 17976
1.613 2.497 1.434 13063
1.623 2.512 1.432 9059
1.633 2.527 1.429 6616
1.655 2.561 1.436 4752
1.641 2.540 1.415 5602
1.643 2.543 1.407 8249
1.657 2.564 1.407 7484
1.667 2.580 1.405 7475
1.673 2.589 1.399 9037
1.679 2.598 1.393 7966
1.693 2.620 1.393 7281
1.699 2.629 1.387 9184
1.745 2.700 1.411 9347
1.743 2.697 1.398 9412
1.749 2.706 1.392 7662
1.763 2.728 1.392 8397
1.765 2.731 1.382 8489
1.771 2.740 1.376 7555
1.797 2.780 1.383 10243
1.799 2.783 1.374 10977
1.804 2.792 1.367 8304
1.814 2.808 1.363 4964
1.837 2.842 1.367 4482
1.839 2.845 1.357 4752
1.723 2.667 1.270 3242
1.915 2.964 1.386 5656
1.917 2.967 1.376 8042
1.923 2.976 1.369 11347
1.929 2.985 1.361 13103
1.931 2.988 1.351 7794
1.925 2.979 1.335 3906
1.976 3.057 1.356 2913
2.002 3.098 1.360 3029
2.012 3.113 1.355 4735
1.977 3.060 1.322 6920
1.979 3.062 1.311 6156
2.083 3.223 1.362 6469
2.089 3.233 1.353 6570
2.120 3.280 1.359 5425
2.130 3.296 1.352 5986
2.124 3.286 1.336 8263
2.121 3.283 1.323 7996
2.123 3.286 1.311 5579
2.129 3.295 1.302 4726
2.213 3.425 1.336 5752
2.215 3.428 1.324 4296
2.201 3.405 1.304 2943
2.260 3.498 1.323 3926
2.266 3.507 1.313 5471
2.276 3.523 1.305 7106
2.291 3.545 1.300 8363
2.301 3.560 1.292 8495
2.311 3.576 1.284 9758
2.317 3.585 1.273 5437
2.406 3.723 1.304 6531
2.408 3.726 1.291 7052
2.409 3.728 1.278 6549
2.411 3.731 1.265 6973
2.417 3.740 1.255 8614
2.419 3.743 1.242 10074
2.425 3.752 1.231 8521
2.443 3.781 1.225 4364
2.483 3.842 1.229 6262
2.501 3.870 1.223 7710
2.511 3.886 1.214 11862
2.509 3.882 1.198 8207
2.611 4.040 1.228 4996
2.617 4.049 1.215 4234
2.681 4.149 1.227 3552
2.687 4.158 1.215 4301
2.697 4.174 1.204 3723
2.741 4.242 1.206 3208
2.726 4.218 1.185 3904
2.723 4.214 1.169 3613
2.834 4.386 1.195 3927
2.840 4.395 1.182 5548
2.846 4.404 1.168 4989
2.932 4.537 1.184 3302
2.955 4.572 1.175 3625
2.880 4.457 1.133 2836
3.017 4.669 1.164 2331
3.065 4.743 1.164 3521
3.058 4.733 1.145 4577
3.060 4.735 1.128 6559
3.070 4.751 1.115 7910
3.076 4.760 1.100 6617
3.077 4.762 1.083 6566
3.075 4.758 1.066 6074
3.216 4.977 1.091 5187
3.217 4.979 1.074 6328
3.206 4.961 1.053 4779
3.208 4.964 1.036 5168
3.218 4.979 1.021 9344
3.215 4.975 1.003 11518
3.212 4.970 0.985 8561
3.213 4.972 0.968 7626
3.214 4.974 0.951 9150
3.211 4.969 0.932 8331
3.217 4.978 0.916 6010
3.218 4.980 0.899 3514
3.650 5.648 0.982 3236
3.860 5.973 1.010 2845
3.862 5.975 0.990 2590
3.876 5.997 0.972 2650
4.056 6.277 0.989 4145
4.053 6.272 0.967 5200
4.055 6.274 0.945 4919
4.052 6.270 0.922 4218
4.061 6.285 0.902 3618
4.063 6.287 0.881 3774
4.059 6.282 0.858 3573
4.061 6.283 0.837 2520
4.062 6.285 0.815 1935
4.217 6.525 0.818 1795
4.475 6.924 0.836 1957
4.476 6.926 0.812 2050
4.730 7.319 0.825 2586
4.731 7.320 0.800 3084
4.732 7.322 0.774 2880
4.724 7.310 0.748 2210
4.729 7.318 0.723 1465
4.739 7.333 0.699 1474
4.740 7.334 0.674 1232
5.066 7.840 0.684 1038
5.136 7.948 0.663 1073
5.137 7.949 0.636 1081
5.133 7.943 0.608 881
5.117 7.918 0.579 453
5.079 7.859 0.549 261
1.110 1.709 1.560 3274
1.112 1.713 1.555 6548
1.135 1.749 1.576 5997
1.145 1.763 1.579 6117
1.147 1.766 1.573 6531
1.146 1.764 1.563 5804
1.145 1.762 1.552 5220
1.143 1.760 1.542 4194
1.188 1.830 1.590 3299
1.190 1.833 1.583 3299
1.189 1.831 1.573 4520
1.191 1.835 1.567 5759
1.197 1.844 1.565 7153
1.200 1.847 1.558 8698
1.202 1.851 1.552 8522
1.193 1.838 1.533 8587
1.210 1.863 1.544 7659
1.219 1.878 1.546 7914
1.225 1.887 1.544 8897
1.228 1.890 1.538 9941
1.230 1.894 1.531 10743
1.232 1.897 1.525 11322
1.230 1.895 1.514 11250
1.233 1.898 1.508 11741
1.235 1.902 1.501 11427
1.241 1.911 1.499 10758
1.247 1.920 1.496 9946
1.249 1.923 1.490 8613
1.284 1.977 1.520 8288
1.264 1.947 1.489 7478
1.274 1.961 1.490 7506
1.291 1.987 1.500 7948
1.296 1.997 1.497 6830
1.302 2.006 1.494 5786
1.308 2.015 1.491 6312
1.318 2.029 1.492 7175
1.335 2.056 1.501 5750
1.356 2.088 1.514 5229
1.347 2.074 1.495 7030
1.345 2.072 1.484 8118
1.344 2.069 1.473 7664
1.342 2.067 1.462 5088
1.389 2.140 1.501 4781
1.388 2.137 1.490 5033
1.382 2.129 1.475 5434
1.396 2.150 1.479 6561
1.409 2.170 1.483 9129
1.415 2.180 1.479 10863
1.418 2.183 1.471 8694
1.423 2.192 1.468 5186
1.445 2.225 1.478 5879
1.439 2.216 1.464 7948
1.445 2.225 1.460 11842
1.451 2.235 1.456 13909
1.465 2.256 1.459 11857
1.482 2.283 1.465 11426
1.496 2.304 1.468 12397
1.498 2.307 1.460 12903
1.500 2.310 1.452 12806
1.506 2.319 1.448 13997
1.508 2.323 1.440 11413
1.549 2.386 1.466 12399
1.551 2.389 1.458 13078
1.549 2.386 1.446 11258
1.552 2.389 1.438 7603
1.558 2.398 1.433 6329
1.560 2.402 1.425 6919
1.585 2.441 1.436 8060
1.603 2.468 1.441 16592
1.613 2.484 1.439 19000
1.619 2.493 1.434 14412
1.629 2.508 1.432 11017
1.627 2.505 1.420 8663
1.629 2.508 1.411 5983
1.647 2.536 1.415 6831
1.653 2.545 1.410 8990
1.667 2.567 1.410 8713
1.673 2.576 1.405 8409
1.683 2.591 1.402 9892
1.689 2.600 1.396 9438
1.699 2.616 1.393 8025
1.705 2.625 1.387 9273
1.751 2.696 1.411 9007
1.749 2.693 1.398 9067
1.755 2.702 1.392 7224
1.769 2.724 1.392 9088
1.771 2.727 1.382 9870
1.773 2.730 1.373 8842
1.795 2.764 1.378 9274
1.801 2.773 1.371 9921
1.803 2.776 1.362 7400
1.817 2.798 1.360 4498
1.843 2.838 1.367 4058
1.845 2.841 1.357 4586
1.725 2.657 1.267 3175
1.922 2.959 1.386 5375
1.924 2.962 1.376 8008
1.934 2.978 1.371 10254
1.940 2.987 1.364 11649
1.958 3.015 1.364 7965
1.968 3.031 1.358 3904
1.986 3.059 1.358 2911
2.001 3.081 1.355 3177
1.986 3.059 1.335 4628
1.984 3.055 1.322 7456
1.986 3.058 1.311 6326
2.090 3.219 1.362 6265
2.088 3.215 1.348 6210
2.127 3.275 1.359 5136
2.137 3.291 1.352 6827
2.135 3.288 1.339 8915
2.133 3.284 1.325 7528
2.139 3.293 1.316 5477
2.136 3.290 1.302 5396
2.221 3.420 1.336 5542
2.219 3.417 1.322 3876
2.208 3.400 1.304 3169
2.268 3.493 1.323 3900
2.266 3.489 1.309 4472
2.292 3.530 1.310 6106
2.298 3.540 1.300 8512
2.313 3.562 1.294 9748
2.323 3.577 1.286 12422
2.325 3.580 1.273 7236
2.414 3.717 1.304 7178
2.420 3.727 1.293 8081
2.414 3.717 1.276 6544
2.415 3.719 1.263 6207
2.421 3.729 1.253 7366
2.427 3.738 1.242 9311
2.433 3.747 1.231 8873
2.447 3.769 1.224 5124
2.495 3.843 1.231 6348
2.514 3.871 1.225 7537
2.520 3.880 1.214 11664
2.521 3.883 1.200 7572
2.616 4.028 1.226 5092
2.626 4.043 1.215 4111
2.690 4.143 1.227 3557
2.701 4.159 1.216 4606
2.707 4.168 1.204 4012
2.759 4.248 1.209 3698
2.744 4.225 1.188 4056
2.733 4.208 1.169 3532
2.848 4.386 1.197 3373
2.850 4.389 1.182 5738
2.856 4.398 1.168 5097
2.883 4.439 1.162 2857
2.973 4.579 1.178 3183
2.890 4.451 1.133 2841
3.028 4.662 1.164 2542
3.080 4.743 1.165 3076
3.073 4.732 1.146 3311
3.075 4.735 1.130 4829
3.085 4.750 1.116 6567
3.103 4.779 1.105 5891
3.105 4.781 1.089 5270
3.077 4.738 1.063 4834
3.227 4.969 1.091 5357
3.229 4.972 1.074 6499
3.221 4.961 1.054 4484
3.223 4.963 1.037 4627
3.229 4.972 1.021 9054
3.230 4.974 1.004 10512
3.500 5.390 1.058 7093
3.502 5.392 1.040 6743
3.225 4.967 0.951 6764
3.222 4.962 0.932 6004
3.228 4.971 0.916 4224
3.648 5.618 0.999 3342
3.658 5.633 0.981 3522
3.873 5.965 1.010 2666
3.686 5.677 0.948 2451
3.679 5.666 0.927 2638
4.070 6.268 0.989 3975
4.072 6.270 0.967 4987
4.069 6.265 0.945 4621
4.066 6.261 0.922 3861
4.075 6.276 0.902 3168
4.077 6.278 0.881 3325
4.073 6.273 0.858 3269
4.075 6.274 0.837 2251
4.226 6.508 0.840 1831
4.227 6.509 0.817 1964
4.490 6.914 0.836 2028
4.491 6.916 0.812 1946
4.746 7.308 0.825 2862
4.747 7.310 0.800 3422
4.744 7.305 0.774 3112
4.736 7.293 0.747 2487
4.750 7.314 0.724 1707
4.759 7.329 0.699 1739
4.756 7.324 0.674 1381
5.084 7.829 0.684 1194
5.158 7.943 0.664 1027
5.150 7.931 0.636 1184
5.147 7.925 0.608 1029
5.143 7.920 0.580 535
5.092 7.841 0.548 271
1.131 1.741 1.588 3366
1.133 1.745 1.582 6733
1.143 1.759 1.585 6354
1.145 1.763 1.579 6400
1.147 1.766 1.573 6595
1.146 1.764 1.563 5914
1.141 1.757 1.548 5826
1.143 1.760 1.542 4637
1.145 1.764 1.536 3447
1.148 1.767 1.530 3362
1.189 1.831 1.573 3941
1.192 1.835 1.567 4870
1.197 1.844 1.565 6320
1.203 1.853 1.563 7943
1.202 1.851 1.552 7832
1.190 1.832 1.529 7837
1.214 1.869 1.548 6922
1.223 1.883 1.550 6836
1.225 1.887 1.544 7145
1.231 1.896 1.542 7536
1.230 1.894 1.531 8263
1.232 1.897 1.525 8793
1.231 1.895 1.514 8784
1.233 1.898 1.508 9594
1.235 1.902 1.501 9633
1.241 1.911 1.499 9114
1.250 1.925 1.501 8621
1.282 1.974 1.527 7655
1.288 1.983 1.524 8400
1.286 1.981 1.513 7128
1.281 1.973 1.499 7049
1.291 1.987 1.500 7922
1.293 1.991 1.493 6708
1.284 1.977 1.474 5688
1.301 2.003 1.484 5569
1.310 2.018 1.485 5904
1.313 2.021 1.478 4649
1.341 2.065 1.498 4471
1.347 2.074 1.495 6725
1.345 2.072 1.484 8337
1.344 2.069 1.473 7952
1.342 2.066 1.462 5185
1.390 2.140 1.501 4547
1.388 2.137 1.490 4872
1.382 2.129 1.475 5494
1.392 2.144 1.475 6695
1.406 2.165 1.479 8751
1.412 2.174 1.475 10083
1.414 2.177 1.468 8006
1.435 2.210 1.479 4933
1.445 2.225 1.478 5400
1.439 2.216 1.464 7053
1.441 2.219 1.456 10771
1.451 2.235 1.456 12966
1.465 2.256 1.459 10750
1.482 2.283 1.465 11343
1.496 2.304 1.468 13036
1.498 2.307 1.460 13347
1.504 2.316 1.455 13295
1.510 2.325 1.451 14747
1.508 2.322 1.440 11700
1.553 2.392 1.469 11436
1.551 2.389 1.458 10906
1.553 2.392 1.449 9493
1.556 2.395 1.441 7095
1.558 2.398 1.433 6169
1.560 2.402 1.425 6226
1.585 2.441 1.436 8901
1.599 2.462 1.438 17249
1.613 2.484 1.439 19231
1.619 2.493 1.434 15224
1.629 2.508 1.432 12549
1.627 2.505 1.420 10753
1.629 2.508 1.411 8556
1.643 2.530 1.412 8499
1.657 2.551 1.413 10081
1.667 2.567 1.410 10048
1.673 2.576 1.405 9216
1.683 2.591 1.402 10791
1.693 2.607 1.399 10595
1.699 2.616 1.393 8402
1.705 2.625 1.387 9251
1.711 2.634 1.381 9292
1.745 2.687 1.396 8755
1.755 2.702 1.392 6933
1.773 2.730 1.394 9184
1.771 2.727 1.382 10162
1.773 2.730 1.373 8968
1.795 2.764 1.378 8739
1.805 2.779 1.374 9524
1.807 2.782 1.364 7569
1.809 2.785 1.355 4623
1.847 2.844 1.370 3948
1.849 2.847 1.360 4388
1.851 2.850 1.350 2642
1.922 2.959 1.386 5245
1.924 2.962 1.376 7704
1.934 2.978 1.371 8554
1.948 3.000 1.369 9954
1.958 3.015 1.364 8934
1.964 3.024 1.356 4480
1.974 3.040 1.351 3215
1.984 3.056 1.345 3979
1.982 3.052 1.332 5604
1.980 3.049 1.319 7614
1.986 3.058 1.311 5976
2.099 3.231 1.367 5950
2.084 3.209 1.346 5627
2.078 3.199 1.330 5055
2.133 3.285 1.350 7572
2.135 3.288 1.339 9298
2.137 3.291 1.327 7027
2.143 3.300 1.318 5366
2.137 3.290 1.302 5633
2.217 3.414 1.334 5734
2.215 3.410 1.320 4007
2.204 3.394 1.302 3566
2.268 3.493 1.323 3683
2.320 3.572 1.337 3968
2.301 3.543 1.314 5189
2.303 3.546 1.302 8009
2.313 3.562 1.294 10761
2.323 3.577 1.286 13951
2.325 3.580 1.273 8389
2.418 3.724 1.306 7017
2.420 3.727 1.293 8502
2.418 3.723 1.278 6248
2.411 3.713 1.262 6295
2.421 3.729 1.253 7271
2.427 3.738 1.242 9072
2.433 3.747 1.231 9318
2.448 3.769 1.224 5294
2.500 3.849 1.233 6012
2.518 3.877 1.227 7243
2.524 3.887 1.215 10841
2.526 3.889 1.202 6393
2.616 4.028 1.226 4790
2.592 3.991 1.201 3943
2.598 4.001 1.189 4009
2.701 4.159 1.216 4615
2.707 4.168 1.204 3990
2.763 4.255 1.211 4242
2.752 4.238 1.191 4213
2.737 4.215 1.170 3181
2.853 4.393 1.199 2955
2.850 4.389 1.182 5723
2.856 4.398 1.168 5143
2.870 4.420 1.158 2793
2.978 4.585 1.180 2836
2.886 4.444 1.132 2880
3.023 4.656 1.163 2740
3.021 4.652 1.145 2407
3.082 4.745 1.149 2224
3.109 4.787 1.141 3792
3.089 4.757 1.118 5504
3.108 4.785 1.107 5405
3.105 4.781 1.089 4599
3.072 4.731 1.062 3973
3.227 4.969 1.091 5534
3.233 4.978 1.075 6416
3.234 4.980 1.058 4598
3.227 4.970 1.039 4445
3.233 4.978 1.023 8633
3.234 4.980 1.005 9509
3.500 5.390 1.058 7341
3.502 5.392 1.040 6552
3.507 5.401 1.022 5637
3.227 4.969 0.933 3993
3.643 5.609 1.017 3015
3.648 5.618 0.999 3457
3.658 5.633 0.981 3503
3.874 5.965 1.010 2391
3.678 5.664 0.946 2297
3.679 5.666 0.927 2413
4.070 6.268 0.989 3534
4.072 6.270 0.967 4461
4.069 6.265 0.945 4057
4.066 6.261 0.922 3308
4.071 6.269 0.902 2644
4.077 6.277 0.881 2852
4.074 6.273 0.858 2848
4.246 6.539 0.866 2182
4.230 6.514 0.841 1921
4.227 6.509 0.817 2030
4.490 6.914 0.836 1914
4.491 6.916 0.812 1851
4.746 7.308 0.825 3003
4.751 7.316 0.800 3610
4.744 7.305 0.774 3177
4.732 7.286 0.747 2559
4.750 7.314 0.724 1812
4.760 7.329 0.699 1937
4.756 7.324 0.674 1510
5.080 7.822 0.683 1334
5.158 7.943 0.664 991
5.150 7.931 0.636 1293
5.147 7.925 0.608 1165
5.147 7.926 0.580 637
5.096 7.848 0.549 263
1.134 1.747 1.593 3650
1.137 1.750 1.587 7300
1.143 1.759 1.585 6914
1.148 1.768 1.584 6780
1.151 1.772 1.578 6845
1.146 1.764 1.563 6010
1.141 1.757 1.548 6189
1.143 1.760 1.542 4856
1.142 1.758 1.532 3528
1.148 1.767 1.530 3432
1.189 1.831 1.573 3803
1.192 1.835 1.567 4512
1.197 1.844 1.565 5811
1.203 1.853 1.563 7512
1.205 1.856 1.556 7205
1.190 1.832 1.529 6939
1.217 1.874 1.552 6280
1.223 1.883 1.550 6094
1.229 1.892 1.548 5756
1.231 1.896 1.542 5450
1.230 1.894 1.531 6086
1.228 1.891 1.521 6666
1.231 1.895 1.514 6658
1.233 1.898 1.508 7708
1.235 1.902 1.501 8093
1.241 1.911 1.499 7699
1.250 1.925 1.501 7412
1.282 1.974 1.527 7752
1.288 1.983 1.524 8244
1.286 1.981 1.513 7038
1.285 1.978 1.503 6958
1.291 1.987 1.500 7834
1.289 1.985 1.489 6775
1.288 1.983 1.478 6033
1.297 1.997 1.480 5343
1.303 2.006 1.477 5261
1.309 2.015 1.474 4105
1.345 2.071 1.502 3734
1.347 2.074 1.495 6318
1.345 2.072 1.484 8260
1.344 2.069 1.473 7945
1.380 2.125 1.500 5365
1.390 2.140 1.501 4727
1.388 2.137 1.490 5068
1.386 2.135 1.479 5706
1.392 2.144 1.475 6899
1.402 2.159 1.475 8289
1.412 2.174 1.475 9086
1.414 2.177 1.468 7131
1.439 2.216 1.482 4776
1.445 2.225 1.478 5002
1.439 2.216 1.464 6183
1.441 2.219 1.456 9481
1.451 2.235 1.456 11565
1.465 2.256 1.459 9264
1.486 2.288 1.469 10842
1.496 2.304 1.468 13028
1.498 2.307 1.460 13098
1.504 2.316 1.455 13446
1.510 2.325 1.451 15405
1.508 2.322 1.440 12039
1.553 2.392 1.469 10184
1.551 2.389 1.458 8878
1.557 2.398 1.453 7999
1.559 2.401 1.445 6782
1.561 2.404 1.436 5941
1.571 2.420 1.435 5790
1.585 2.441 1.436 9787
1.599 2.462 1.438 17345
1.613 2.484 1.439 18710
1.623 2.499 1.437 15449
1.629 2.508 1.432 13486
1.627 2.505 1.420 12184
1.629 2.508 1.411 10391
1.643 2.530 1.412 9833
1.657 2.551 1.413 11277
1.667 2.567 1.410 11191
1.677 2.582 1.408 9832
1.683 2.591 1.402 11079
1.693 2.607 1.399 10878
1.703 2.622 1.396 8506
1.705 2.625 1.387 8843
1.711 2.634 1.381 8604
1.745 2.687 1.396 7046
1.771 2.727 1.404 5785
1.773 2.730 1.394 8889
1.771 2.727 1.382 9829
1.773 2.730 1.373 8712
1.795 2.764 1.378 8913
1.801 2.773 1.371 10463
1.811 2.788 1.367 8956
1.813 2.791 1.358 6567
1.726 2.657 1.288 4733
1.723 2.654 1.276 4874
1.721 2.650 1.264 5940
1.727 2.659 1.258 6504
1.924 2.962 1.376 7502
1.934 2.978 1.371 7072
1.952 3.006 1.371 9044
1.958 3.015 1.364 9547
1.956 3.012 1.351 5603
1.970 3.034 1.348 4299
1.976 3.043 1.340 5186
1.982 3.052 1.332 6255
1.980 3.049 1.319 7337
2.097 3.228 1.378 5864
2.099 3.231 1.367 5555
2.084 3.209 1.346 4882
2.074 3.193 1.328 5552
2.133 3.285 1.350 7794
2.135 3.288 1.339 9276
2.137 3.291 1.327 6697
2.143 3.300 1.318 5332
2.141 3.296 1.305 5469
2.213 3.407 1.332 5709
2.219 3.417 1.322 4121
2.204 3.394 1.302 3839
2.268 3.493 1.323 3377
2.320 3.572 1.337 4188
2.305 3.549 1.316 4286
2.307 3.552 1.304 7120
2.317 3.568 1.296 10950
2.323 3.577 1.286 13715
2.329 3.586 1.275 8448
2.418 3.724 1.306 6128
2.424 3.733 1.295 8388
2.422 3.729 1.280 6718
2.411 3.713 1.262 7023
2.421 3.729 1.253 8028
2.427 3.738 1.242 9436
2.433 3.747 1.231 9548
2.443 3.762 1.222 5265
2.504 3.855 1.235 5548
2.522 3.884 1.229 6780
2.528 3.893 1.217 9486
2.526 3.889 1.202 5194
2.616 4.028 1.226 4179
2.588 3.985 1.200 4551
2.594 3.994 1.188 4919
2.701 4.159 1.216 4386
2.707 4.168 1.204 3758
2.763 4.255 1.211 4547
2.765 4.257 1.196 4253
2.741 4.221 1.172 2661
2.853 4.393 1.199 3011
2.850 4.389 1.182 5465
2.856 4.398 1.168 5148
2.866 4.413 1.156 2970
2.893 4.455 1.150 2806
2.886 4.444 1.132 2968
3.023 4.656 1.163 2859
3.025 4.658 1.147 2510
3.031 4.667 1.132 2049
3.109 4.787 1.141 3668
3.110 4.790 1.124 4995
3.108 4.785 1.107 4749
3.109 4.788 1.090 3807
3.213 4.947 1.104 3783
3.227 4.969 1.091 5257
3.233 4.978 1.075 5751
3.234 4.980 1.058 4344
3.232 4.976 1.040 4536
3.237 4.985 1.024 8052
3.239 4.987 1.007 8615
3.500 5.390 1.058 6892
3.502 5.392 1.040 6309
3.507 5.401 1.022 5615
3.505 5.397 1.002 3555
3.643 5.609 1.017 2858
3.648 5.618 0.999 3339
3.654 5.627 0.980 3355
3.664 5.642 0.963 2196
3.678 5.664 0.946 2176
3.679 5.666 0.927 2151
4.075 6.274 0.990 2947
4.072 6.270 0.967 3717
4.069 6.265 0.945 3323
4.066 6.261 0.922 2730
4.071 6.269 0.902 2187
4.171 6.423 0.898 2816
4.168 6.418 0.875 2521
4.246 6.539 0.866 2039
4.226 6.507 0.840 1743
4.227 6.509 0.817 1949
4.490 6.914 0.836 1831
4.745 7.306 0.850 1838
4.750 7.315 0.826 3079
4.751 7.316 0.800 3673
4.748 7.311 0.774 3084
4.732 7.286 0.747 2449
4.754 7.321 0.724 1754
4.760 7.329 0.699 1994
4.760 7.330 0.674 1568
5.080 7.822 0.683 1467
5.158 7.943 0.664 950
5.146 7.924 0.635 1353
5.147 7.925 0.608 1244
5.147 7.926 0.580 719
5.157 7.941 0.554 318
1.134 1.747 1.593 3955
1.137 1.750 1.587 7911
1.143 1.759 1.585 7514
1.148 1.768 1.584 7279
1.151 1.772 1.578 7164
1.142 1.759 1.558 6140
1.137 1.752 1.543 6487
1.140 1.755 1.538 5081
1.142 1.758 1.532 3674
1.148 1.767 1.530 3481
1.189 1.831 1.573 3985
1.192 1.835 1.567 4721
1.201 1.849 1.569 5933
1.207 1.858 1.567 7590
1.209 1.862 1.561 7015
1.211 1.865 1.554 6441
1.217 1.874 1.552 5835
1.227 1.889 1.555 5415
1.225 1.887 1.544 4509
1.228 1.890 1.538 3603
1.226 1.888 1.527 4436
1.225 1.886 1.516 5225
1.227 1.889 1.510 5292
1.229 1.893 1.503 6467
1.235 1.902 1.501 7025
1.241 1.911 1.499 6577
1.280 1.971 1.534 7281
1.282 1.974 1.527 7741
1.288 1.983 1.524 8052
1.286 1.981 1.513 7089
1.285 1.978 1.503 7084
1.291 1.987 1.500 7787
1.289 1.985 1.489 7106
1.288 1.983 1.478 6551
1.293 1.992 1.476 5672
1.299 2.001 1.473 5037
1.301 2.004 1.466 4040
1.356 2.088 1.514 3247
1.354 2.086 1.503 6073
1.357 2.089 1.496 8157
1.344 2.069 1.473 7767
1.380 2.125 1.500 6301
1.386 2.134 1.497 5274
1.384 2.131 1.486 5809
1.386 2.135 1.479 6561
1.392 2.144 1.475 7504
1.402 2.159 1.475 7948
1.408 2.168 1.472 7972
1.414 2.177 1.468 5995
1.443 2.221 1.486 4423
1.449 2.231 1.482 4444
1.439 2.216 1.464 5069
1.441 2.219 1.456 7791
1.447 2.229 1.452 9575
1.453 2.238 1.448 7470
1.490 2.294 1.472 10289
1.496 2.304 1.468 12496
1.502 2.313 1.463 12397
1.504 2.316 1.455 13472
1.510 2.325 1.451 16117
1.508 2.322 1.440 12539
1.553 2.392 1.469 8746
1.547 2.383 1.454 7232
1.561 2.404 1.456 6916
1.563 2.407 1.448 6414
1.569 2.417 1.443 5689
1.579 2.432 1.441 6269
1.585 2.441 1.436 10746
1.595 2.456 1.434 17435
1.609 2.478 1.436 17996
1.623 2.499 1.437 15273
1.629 2.508 1.432 13869
1.631 2.511 1.423 13149
1.633 2.515 1.414 11685
1.643 2.530 1.412 10848
1.657 2.551 1.413 12367
1.671 2.573 1.413 12160
1.677 2.582 1.408 10252
1.687 2.597 1.405 11263
1.693 2.607 1.399 11067
1.703 2.622 1.396 8262
1.705 2.625 1.387 8133
1.711 2.634 1.381 8493
1.733 2.668 1.387 6265
1.771 2.727 1.404 5842
1.773 2.730 1.394 8854
1.771 2.727 1.382 8822
1.773 2.730 1.373 8022
1.799 2.770 1.381 8387
1.801 2.773 1.371 11097
1.811 2.788 1.367 10154
1.813 2.791 1.358 7777
1.815 2.794 1.348 4981
1.723 2.654 1.276 4230
1.721 2.650 1.264 5534
1.723 2.653 1.255 5358
1.924 2.962 1.376 7330
1.934 2.978 1.371 5894
1.952 3.006 1.371 8443
1.958 3.015 1.364 9793
1.956 3.012 1.351 6843
1.962 3.021 1.343 5965
1.972 3.037 1.338 6507
1.982 3.052 1.332 6805
1.980 3.049 1.319 6836
2.092 3.222 1.375 5836
2.099 3.231 1.367 4997
2.076 3.196 1.341 4209
2.074 3.193 1.328 5955
2.129 3.278 1.347 7637
2.135 3.288 1.339 9026
2.141 3.297 1.330 6613
2.143 3.300 1.318 5400
2.182 3.360 1.327 5508
2.217 3.414 1.334 5249
2.223 3.423 1.324 4097
2.208 3.400 1.304 3989
2.268 3.493 1.323 3061
2.320 3.572 1.337 3873
2.309 3.556 1.318 3302
2.311 3.559 1.306 6071
2.317 3.568 1.296 10320
2.323 3.577 1.286 12322
2.329 3.586 1.275 8069
2.343 3.608 1.269 5527
2.424 3.733 1.295 7897
2.422 3.729 1.280 7375
2.411 3.713 1.262 7950
2.421 3.729 1.253 9383
2.427 3.738 1.242 10514
2.433 3.747 1.231 9499
2.439 3.756 1.220 5079
2.508 3.862 1.237 5054
2.522 3.884 1.229 6211
2.528 3.893 1.217 7657
2.526 3.889 1.202 4199
2.590 3.989 1.215 3889
2.588 3.985 1.200 5218
2.590 3.988 1.186 5990
2.696 4.152 1.215 3998
2.711 4.174 1.205 3317
2.763 4.255 1.211 4456
2.769 4.264 1.198 4030
2.792 4.299 1.191 2906
2.848 4.386 1.197 3015
2.850 4.389 1.182 5221
2.856 4.398 1.168 5118
2.870 4.420 1.158 3231
2.893 4.455 1.150 3078
2.886 4.444 1.132 3116
3.019 4.649 1.161 2936
3.025 4.658 1.147 2638
3.031 4.667 1.132 2073
3.105 4.781 1.139 3463
3.110 4.790 1.124 4694
3.112 4.792 1.108 4032
3.105 4.781 1.089 2926
3.213 4.947 1.104 3649
3.227 4.969 1.091 4925
3.233 4.978 1.075 5015
3.302 5.085 1.078 4269
3.236 4.983 1.041 4450
3.237 4.985 1.024 7157
3.243 4.994 1.008 7461
3.500 5.390 1.058 6089
3.502 5.392 1.040 5569
3.507 5.401 1.022 5001
3.505 5.397 1.002 3186
3.643 5.609 1.017 2542
3.648 5.618 0.999 3021
3.654 5.627 0.980 3052
3.664 5.642 0.963 2009
3.674 5.657 0.945 2036
3.773 5.811 0.947 2202
4.075 6.274 0.990 2367
4.076 6.276 0.968 2918
4.073 6.272 0.946 2478
4.066 6.261 0.922 2057
4.187 6.447 0.923 2089
4.171 6.423 0.898 2828
4.168 6.418 0.875 2373
4.405 6.783 0.894 1750
4.406 6.785 0.870 1637
4.227 6.509 0.817 1752
4.417 6.802 0.824 1704
4.749 7.313 0.851 1816
4.750 7.315 0.826 2998
4.756 7.323 0.801 3530
4.752 7.318 0.775 2822
4.732 7.286 0.747 2276
4.759 7.328 0.725 1795
4.764 7.336 0.700 2107
4.760 7.330 0.674 1664
5.075 7.816 0.683 1593
5.145 7.923 0.663 948
5.146 7.924 0.635 1404
5.147 7.925 0.608 1317
5.147 7.926 0.580 801
5.157 7.941 0.554 395
5.162 7.948 0.526 271
1.134 1.747 1.593 4203
1.137 1.750 1.587 8406
1.143 1.759 1.585 8048
1.148 1.768 1.584 7770
1.151 1.772 1.578 7537
1.146 1.764 1.563 6188
1.137 1.752 1.543 6526
1.140 1.755 1.538 5046
1.142 1.758 1.532 3567
1.187 1.828 1.579 3559
1.189 1.831 1.573 4386
1.192 1.835 1.567 5212
1.201 1.849 1.569 6287
1.207 1.858 1.567 7825
1.209 1.862 1.561 6897
1.182 1.821 1.520 6175
1.214 1.869 1.548 5855
1.216 1.872 1.542 5742
1.218 1.876 1.535 4639
1.220 1.879 1.529 3536
1.219 1.877 1.518 3960
1.221 1.880 1.512 4451
1.223 1.884 1.506 4341
1.229 1.893 1.503 5627
1.235 1.902 1.501 6433
1.241 1.911 1.499 6041
1.280 1.971 1.534 7392
1.282 1.974 1.527 7688
1.284 1.977 1.520 7876
1.286 1.981 1.513 7237
1.285 1.978 1.503 7349
1.291 1.987 1.500 7856
1.289 1.985 1.489 7476
1.291 1.988 1.482 7097
1.293 1.992 1.476 6072
1.299 2.001 1.473 5100
1.301 2.004 1.466 4489
1.303 2.007 1.459 3877
1.362 2.097 1.510 6438
1.364 2.101 1.503 8775
1.370 2.110 1.500 8377
1.380 2.125 1.500 7134
1.382 2.128 1.493 5778
1.384 2.131 1.486 6726
1.386 2.135 1.479 7644
1.392 2.144 1.475 8252
1.398 2.153 1.471 7709
1.404 2.162 1.468 6780
1.414 2.177 1.468 4720
1.443 2.221 1.486 4216
1.449 2.231 1.482 4098
1.451 2.234 1.474 3957
1.437 2.214 1.452 5709
1.447 2.229 1.452 6942
1.480 2.279 1.473 5783
1.490 2.294 1.472 9506
1.496 2.304 1.468 11423
1.502 2.313 1.463 11629
1.504 2.316 1.455 13816
1.510 2.325 1.451 17033
1.508 2.322 1.440 13306
1.510 2.326 1.432 8576
1.516 2.335 1.427 6708
1.569 2.416 1.463 6310
1.567 2.413 1.451 6187
1.585 2.441 1.456 5715
1.587 2.444 1.448 7112
1.589 2.447 1.440 11340
1.595 2.456 1.434 17179
1.609 2.478 1.436 17202
1.623 2.499 1.437 14665
1.633 2.514 1.435 13802
1.631 2.511 1.423 13628
1.633 2.515 1.414 12361
1.643 2.530 1.412 11273
1.657 2.551 1.413 12954
1.671 2.573 1.413 12596
1.677 2.582 1.408 10504
1.687 2.597 1.405 11313
1.693 2.607 1.399 10796
1.703 2.622 1.396 8242
1.709 2.631 1.390 8318
1.715 2.640 1.384 8625
1.721 2.650 1.378 5841
1.775 2.733 1.407 5738
1.773 2.730 1.394 9714
1.775 2.733 1.385 9462
1.769 2.723 1.370 8118
1.799 2.770 1.381 8418
1.805 2.779 1.374 11343
1.811 2.788 1.367 10480
1.813 2.791 1.358 8066
1.815 2.794 1.348 5551
1.719 2.648 1.273 5070
1.717 2.644 1.261 3213
1.922 2.959 1.386 5103
1.924 2.962 1.376 6874
1.930 2.972 1.369 5455
1.952 3.006 1.371 8230
1.954 3.009 1.361 10045
1.956 3.012 1.351 7861
1.966 3.027 1.346 7449
1.972 3.037 1.338 7097
1.986 3.059 1.335 6704
1.984 3.055 1.322 5775
2.092 3.222 1.375 5555
2.099 3.231 1.367 4349
2.064 3.178 1.334 4045
2.070 3.187 1.325 6053
2.129 3.278 1.347 7245
2.135 3.288 1.339 8741
2.141 3.297 1.330 6552
2.143 3.300 1.318 5255
2.178 3.354 1.325 5727
2.180 3.356 1.314 5514
2.223 3.423 1.324 4012
2.217 3.413 1.308 3952
2.272 3.499 1.325 3113
2.324 3.578 1.339 3096
2.326 3.581 1.327 2525
2.311 3.559 1.306 4983
2.317 3.568 1.296 8786
2.323 3.577 1.286 9977
2.333 3.593 1.277 7352
2.343 3.608 1.269 6489
2.345 3.611 1.257 7425
2.426 3.736 1.282 8013
2.411 3.713 1.262 8783
2.417 3.722 1.251 10821
2.427 3.738 1.242 11813
2.429 3.740 1.229 9123
2.498 3.846 1.246 5303
2.508 3.862 1.237 4975
2.518 3.877 1.227 5766
2.528 3.893 1.217 5784
2.526 3.889 1.202 3325
2.586 3.982 1.213 3528
2.588 3.985 1.200 5574
2.590 3.988 1.186 6894
2.591 3.990 1.172 3939
2.719 4.187 1.209 3033
2.763 4.255 1.211 4125
2.769 4.264 1.198 3775
2.792 4.299 1.191 3076
2.844 4.380 1.195 2983
2.850 4.389 1.182 4991
2.856 4.398 1.168 5062
2.874 4.426 1.159 3553
2.893 4.455 1.150 3496
2.890 4.451 1.133 3386
3.015 4.643 1.160 3086
3.021 4.652 1.145 2692
3.035 4.674 1.133 2011
3.100 4.774 1.138 3387
3.106 4.783 1.123 4287
3.129 4.818 1.113 3390
3.156 4.860 1.104 2849
3.213 4.947 1.104 3361
3.227 4.969 1.091 4421
3.233 4.978 1.075 4229
3.302 5.085 1.078 5023
3.304 5.088 1.060 5085
3.237 4.985 1.024 6308
3.311 5.099 1.026 6513
3.313 5.101 1.009 6882
3.310 5.096 0.990 5585
3.503 5.394 1.021 4366
3.586 5.522 1.023 3448
3.527 5.432 0.989 2400
3.648 5.618 0.999 2701
3.650 5.620 0.979 2685
3.711 5.714 0.974 1820
3.751 5.776 0.962 2048
3.773 5.811 0.947 2371
3.775 5.813 0.927 2215
4.084 6.290 0.970 2272
4.107 6.325 0.953 2170
3.890 5.990 0.888 1641
4.191 6.454 0.924 2102
4.171 6.423 0.898 2740
4.168 6.418 0.875 2143
4.405 6.783 0.894 2101
4.406 6.785 0.870 2083
4.408 6.787 0.847 1836
4.421 6.809 0.825 1604
4.749 7.313 0.851 1839
4.750 7.315 0.826 2935
4.756 7.323 0.801 3413
4.757 7.325 0.776 2610
4.728 7.280 0.746 1963
4.763 7.334 0.725 1555
4.764 7.336 0.700 1911
5.070 7.808 0.709 1803
5.075 7.816 0.683 1679
5.072 7.810 0.655 912
5.146 7.924 0.635 1360
5.147 7.925 0.608 1310
5.152 7.933 0.581 852
5.161 7.947 0.554 464
5.162 7.948 0.526 346
1.138 1.752 1.597 4353
1.140 1.756 1.591 8707
1.146 1.765 1.590 8448
1.148 1.768 1.584 8191
1.151 1.772 1.578 7934
1.149 1.770 1.567 6342
1.137 1.752 1.543 6497
1.136 1.750 1.533 5001
1.181 1.819 1.581 4017
1.183 1.822 1.574 4017
1.189 1.831 1.573 5002
1.192 1.835 1.567 6022
1.201 1.849 1.569 6952
1.207 1.858 1.567 8334
1.205 1.856 1.556 7129
1.186 1.826 1.524 6857
1.206 1.858 1.540 6705
1.209 1.861 1.533 7452
1.214 1.870 1.531 6075
1.217 1.873 1.525 4789
1.219 1.877 1.518 4344
1.214 1.869 1.504 3916
1.223 1.884 1.506 3700
1.229 1.893 1.503 5029
1.235 1.902 1.501 6017
1.241 1.911 1.499 5740
1.283 1.976 1.538 7367
1.282 1.974 1.527 7495
1.284 1.977 1.520 7689
1.283 1.975 1.509 7527
1.285 1.978 1.503 7900
1.287 1.982 1.496 8347
1.289 1.985 1.489 8046
1.291 1.988 1.482 7746
1.293 1.992 1.476 6509
1.295 1.995 1.469 5271
1.301 2.004 1.466 4941
1.307 2.013 1.463 4775
1.362 2.097 1.510 6912
1.368 2.106 1.507 9334
1.370 2.110 1.500 9033
1.376 2.119 1.497 7720
1.382 2.128 1.493 6142
1.384 2.131 1.486 7457
1.390 2.140 1.482 8602
1.392 2.144 1.475 8820
1.398 2.153 1.471 7329
1.404 2.162 1.468 5602
1.406 2.165 1.460 3936
1.446 2.227 1.490 4142
1.452 2.237 1.486 3996
1.455 2.240 1.478 3433
1.434 2.208 1.449 3693
1.436 2.211 1.441 4353
1.488 2.291 1.480 5149
1.494 2.300 1.476 8512
1.496 2.304 1.468 10017
1.502 2.313 1.463 10821
1.508 2.322 1.459 14259
1.510 2.325 1.451 17860
1.512 2.328 1.443 14159
1.510 2.326 1.432 9660
1.516 2.335 1.427 8078
1.518 2.338 1.419 6559
1.571 2.419 1.455 6455
1.585 2.441 1.456 6531
1.591 2.450 1.451 8063
1.589 2.447 1.440 11773
1.595 2.456 1.434 16836
1.609 2.478 1.436 16376
1.623 2.499 1.437 13691
1.633 2.514 1.435 13225
1.631 2.511 1.423 13485
1.633 2.515 1.414 12253
1.643 2.530 1.412 11015
1.657 2.551 1.413 13228
1.667 2.567 1.410 12833
1.673 2.576 1.405 10468
1.683 2.591 1.402 10446
1.693 2.607 1.399 9253
1.703 2.622 1.396 7357
1.709 2.631 1.390 7952
1.715 2.640 1.384 8231
1.721 2.650 1.378 5211
1.771 2.727 1.404 5250
1.773 2.730 1.394 7842
1.787 2.751 1.394 7487
1.805 2.779 1.396 7272
1.807 2.782 1.386 8608
1.809 2.785 1.377 10777
1.815 2.795 1.370 10074
1.813 2.791 1.358 7669
1.815 2.794 1.348 5302
1.829 2.816 1.347 3503
1.725 2.657 1.267 3412
1.922 2.959 1.386 4972
1.924 2.962 1.376 6380
1.926 2.965 1.366 5368
1.952 3.006 1.371 7727
1.954 3.009 1.361 9463
1.956 3.012 1.351 8058
1.966 3.027 1.346 8167
1.972 3.037 1.338 7100
1.986 3.059 1.335 6440
1.988 3.061 1.324 4819
2.092 3.222 1.375 5003
2.094 3.225 1.364 3732
2.059 3.171 1.331 4048
2.074 3.193 1.328 6026
2.080 3.202 1.319 6647
2.135 3.288 1.339 8106
2.141 3.297 1.330 6056
2.147 3.306 1.321 4779
2.174 3.347 1.323 5760
2.180 3.356 1.314 6250
2.198 3.385 1.311 4234
2.225 3.426 1.313 4181
2.276 3.505 1.327 3231
2.278 3.508 1.315 2858
2.280 3.511 1.303 2221
2.311 3.559 1.306 3803
2.317 3.568 1.296 6644
