3.507 8.426 -0.071 747
3.504 8.418 -0.097 626
3.503 8.417 -0.124 506
3.470 8.336 -0.147 401
3.463 8.321 -0.173 356
3.445 8.276 -0.197 255
3.380 8.121 -0.242 276
3.383 8.127 -0.268 373
3.376 8.111 -0.293 406
3.372 8.103 -0.318 481
3.369 8.094 -0.343 390
3.323 7.983 -0.361 401
3.322 7.982 -0.387 332
3.306 7.944 -0.409 281
3.223 7.744 -0.444 289
3.223 7.743 -0.468 287
3.219 7.734 -0.492 357
3.218 7.732 -0.516 440
3.214 7.723 -0.540 365
3.211 7.714 -0.564 294
3.207 7.704 -0.587 259
3.185 7.652 -0.606 304
3.063 7.360 -0.741 253
3.062 7.357 -0.764 253
0.799 1.903 1.579 6166
0.801 1.906 1.573 12332
0.802 1.910 1.567 10146
0.812 1.932 1.575 7806
0.816 1.942 1.573 7054
0.817 1.946 1.567 6885
0.831 1.980 1.584 7699
0.836 1.989 1.582 8660
0.837 1.993 1.576 9728
0.839 1.997 1.570 9728
0.838 1.995 1.559 11175
0.837 1.993 1.549 13007
0.841 2.003 1.547 13204
0.843 2.006 1.541 13528
0.844 2.010 1.535 12501
0.848 2.020 1.533 11599
0.850 2.024 1.527 13574
0.854 2.034 1.525 15606
0.856 2.037 1.518 12975
0.860 2.047 1.516 10518
0.861 2.051 1.510 7477
0.863 2.055 1.504 4437
0.865 2.058 1.497 4473
0.874 2.080 1.503 5039
0.886 2.109 1.514 6916
0.890 2.119 1.511 7745
0.892 2.123 1.505 9947
0.891 2.120 1.494 10772
0.897 2.136 1.496 14326
0.901 2.146 1.493 18664
0.906 2.156 1.490 17523
0.910 2.166 1.488 17261
0.911 2.170 1.481 12689
0.913 2.173 1.474 8117
0.914 2.177 1.468 7479
0.916 2.180 1.461 6841
0.915 2.178 1.450 5901
0.916 2.181 1.444 5097
0.923 2.197 1.445 4847
0.973 2.316 1.507 6429
0.971 2.313 1.496 7044
0.981 2.336 1.500 7523
0.988 2.352 1.501 9051
1.011 2.407 1.524 7753
1.015 2.417 1.520 10676
1.017 2.421 1.512 10921
1.018 2.425 1.505 12153
1.017 2.422 1.494 13308
1.022 2.432 1.490 12811
1.029 2.449 1.490 8378
1.044 2.485 1.500 5157
1.048 2.495 1.496 3775
1.069 2.544 1.513 3749
1.070 2.548 1.506 4216
1.069 2.545 1.494 5798
1.070 2.548 1.486 7025
1.069 2.546 1.475 6605
1.076 2.562 1.474 5407
1.094 2.605 1.487 7407
1.099 2.615 1.482 7919
1.100 2.619 1.474 9387
1.107 2.636 1.473 13345
1.111 2.646 1.468 16823
1.116 2.656 1.463 17433
1.123 2.673 1.461 14697
1.144 2.723 1.476 8093
1.148 2.733 1.471 8949
1.149 2.737 1.463 7529
1.148 2.734 1.451 7296
1.147 2.730 1.439 8140
1.188 2.827 1.476 6923
1.189 2.831 1.467 10219
1.191 2.834 1.458 13837
1.192 2.838 1.449 12039
1.194 2.841 1.440 8106
1.226 2.919 1.466 5377
1.225 2.916 1.453 6537
1.223 2.912 1.441 7458
1.222 2.909 1.429 8696
1.226 2.919 1.423 6524
1.250 2.977 1.438 7476
1.235 2.940 1.411 7647
1.276 3.038 1.443 9445
1.280 3.048 1.437 11494
1.285 3.059 1.430 8111
1.295 3.082 1.429 6509
1.296 3.086 1.420 6651
1.298 3.089 1.410 6162
1.305 3.106 1.406 7571
1.306 3.110 1.396 10193
1.308 3.113 1.387 8536
1.352 3.219 1.418 8190
1.356 3.229 1.411 5387
1.392 3.315 1.434 5276
1.391 3.312 1.421 6420
1.392 3.315 1.410 8335
1.403 3.339 1.408 6544
1.421 3.384 1.413 7784
1.429 3.401 1.408 8414
1.436 3.418 1.402 5214
1.452 3.456 1.405 3295
1.465 3.487 1.404 3915
1.472 3.504 1.398 5759
1.468 3.494 1.382 5415
1.484 3.532 1.384 4260
1.494 3.556 1.380 6879
1.501 3.573 1.374 8897
1.502 3.577 1.363 8720
1.504 3.580 1.352 5041
1.546 3.681 1.374 3645
1.542 3.670 1.357 3591
1.543 3.673 1.346 3173
1.600 3.809 1.378 2928
1.581 3.764 1.350 4560
1.573 3.746 1.332 6924
1.578 3.756 1.322 5663
1.594 3.794 1.322 2496
1.645 3.917 1.347 4440
1.646 3.920 1.335 6661
1.648 3.923 1.322 4802
1.688 4.018 1.338 3223
1.724 4.105 1.351 4740
1.723 4.101 1.336 5323
1.769 4.210 1.354 5568
1.788 4.256 1.353 7958
1.789 4.259 1.339 11254
1.790 4.262 1.326 11765
1.792 4.266 1.313 9914
1.793 4.269 1.299 12718
1.794 4.272 1.286 16580
1.796 4.275 1.273 14304
1.800 4.285 1.261 7275
1.828 4.352 1.264 6762
1.832 4.362 1.253 4354
1.866 4.443 1.259 4100
1.888 4.496 1.258 3993
1.938 4.613 1.272 3648
1.924 4.580 1.249 5570
1.928 4.590 1.236 5900
1.935 4.607 1.225 3851
1.981 4.717 1.236 2403
2.001 4.763 1.231 2769
1.999 4.759 1.214 2666
2.036 4.847 1.219 3229
2.073 4.936 1.222 3145
2.084 4.961 1.212 4092
2.082 4.956 1.195 4316
2.077 4.945 1.176 3348
2.153 5.127 1.198 3130
2.161 5.144 1.185 3234
2.213 5.269 1.193 3930
2.205 5.250 1.172 3090
2.249 5.353 1.176 2674
2.289 5.449 1.177 3208
2.296 5.467 1.162 3504
2.294 5.462 1.144 4017
2.295 5.465 1.127 4741
2.297 5.467 1.110 3109
2.540 6.046 1.194 2185
2.438 5.804 1.133 2751
2.436 5.800 1.113 3756
2.567 6.112 1.146 4057
2.563 6.101 1.125 4179
2.564 6.103 1.106 4124
2.568 6.113 1.088 3181
2.611 6.217 1.084 2750
2.609 6.212 1.063 3611
2.762 6.576 1.097 3258
2.763 6.579 1.076 2570
2.856 6.798 1.086 2421
2.799 6.663 1.046 1782
2.766 6.586 1.014 2089
2.886 6.871 1.030 1856
2.881 6.859 1.007 2078
3.004 7.151 1.022 1782
3.148 7.495 1.040 1325
3.039 7.236 0.986 1835
3.040 7.238 0.963 1824
3.133 7.458 0.965 1936
3.115 7.417 0.937 2066
3.549 8.450 1.022 2583
3.538 8.424 0.992 2677
3.536 8.419 0.965 2326
3.534 8.414 0.938 2040
3.538 8.423 0.912 1858
3.545 8.440 0.887 3217
3.549 8.449 0.861 4389
3.550 8.451 0.834 4197
3.550 8.452 0.807 3765
3.554 8.462 0.781 3144
3.555 8.463 0.755 1889
3.577 8.516 0.732 1453
3.572 8.503 0.704 1158
3.566 8.490 0.676 880
3.619 8.615 0.657 654
3.619 8.616 0.630 843
3.623 8.625 0.603 741
3.629 8.641 0.577 493
3.633 8.649 0.550 325
3.630 8.643 0.522 305
3.609 8.592 0.195 267
3.612 8.599 0.168 392
3.615 8.606 0.141 523
3.618 8.614 0.114 676
3.621 8.621 0.087 685
3.584 8.533 0.060 709
3.587 8.540 0.033 709
3.529 8.401 0.009 752
3.529 8.401 -0.018 730
3.532 8.408 -0.044 871
3.531 8.407 -0.071 1035
3.531 8.407 -0.097 820
3.500 8.333 -0.121 704
3.497 8.325 -0.147 599
3.493 8.317 -0.173 517
3.475 8.272 -0.198 343
3.370 8.023 -0.213 438
3.373 8.030 -0.238 449
3.409 8.116 -0.268 551
3.402 8.100 -0.293 589
3.399 8.092 -0.318 682
3.395 8.083 -0.343 549
3.395 8.082 -0.368 422
3.330 7.927 -0.384 343
3.305 7.868 -0.405 384
3.298 7.852 -0.428 341
3.248 7.734 -0.444 419
3.248 7.732 -0.468 417
3.244 7.723 -0.492 527
3.243 7.721 -0.516 648
3.239 7.712 -0.540 533
3.239 7.710 -0.564 420
3.217 7.658 -0.584 388
3.210 7.641 -0.606 473
3.209 7.639 -0.630 374
3.119 7.426 -0.632 407
3.118 7.424 -0.656 407
3.114 7.415 -0.678 407
3.111 7.405 -0.701 416
3.103 7.388 -0.722 367
3.087 7.350 -0.741 413
3.086 7.347 -0.764 413
0.804 1.900 1.579 5945
0.806 1.904 1.573 11890
0.807 1.908 1.567 9771
0.817 1.930 1.575 7530
0.821 1.940 1.573 6747
0.822 1.944 1.567 6564
0.814 1.923 1.543 6769
0.838 1.981 1.578 7522
0.840 1.985 1.572 8423
0.842 1.989 1.566 8423
0.841 1.987 1.555 10674
0.842 1.991 1.549 12935
0.846 2.000 1.547 13210
0.848 2.004 1.541 13600
0.850 2.008 1.535 12442
0.851 2.012 1.529 11284
0.855 2.022 1.527 13030
0.857 2.025 1.520 14812
0.861 2.035 1.518 12243
0.865 2.045 1.516 9875
0.864 2.042 1.506 7204
0.866 2.046 1.499 4683
0.867 2.050 1.493 4301
0.874 2.066 1.495 4455
0.891 2.107 1.514 5948
0.896 2.117 1.511 6898
0.897 2.120 1.505 8960
0.893 2.111 1.490 9631
0.903 2.134 1.496 11374
0.907 2.144 1.493 14199
0.911 2.154 1.490 13208
0.918 2.170 1.492 13390
0.920 2.174 1.485 10135
0.921 2.177 1.478 6879
0.923 2.181 1.472 6123
0.956 2.260 1.512 6381
0.961 2.270 1.509 5309
0.965 2.280 1.506 4548
0.969 2.290 1.503 4891
0.976 2.307 1.503 6043
0.977 2.310 1.496 6908
0.987 2.333 1.500 7105
0.994 2.350 1.501 8558
1.017 2.405 1.524 8624
1.022 2.415 1.520 11951
1.023 2.418 1.512 12231
1.025 2.422 1.505 12877
1.024 2.419 1.494 13336
1.028 2.429 1.490 12728
1.035 2.446 1.490 8240
1.042 2.462 1.489 4627
1.076 2.544 1.525 3895
1.081 2.554 1.521 4065
1.079 2.551 1.509 4439
1.078 2.549 1.498 5969
1.077 2.546 1.486 7218
1.076 2.543 1.475 6064
1.105 2.612 1.502 5159
1.104 2.609 1.490 7124
1.108 2.619 1.485 7568
1.110 2.623 1.477 9102
1.114 2.633 1.473 13026
1.118 2.643 1.468 16308
1.123 2.653 1.463 16926
1.130 2.670 1.461 13959
1.151 2.720 1.476 9195
1.158 2.737 1.474 10748
1.157 2.734 1.463 8801
1.155 2.731 1.451 8178
1.154 2.727 1.439 9196
1.164 2.751 1.440 7683
1.196 2.828 1.467 9819
1.195 2.825 1.455 15324
1.199 2.835 1.449 14668
1.201 2.838 1.440 9413
1.231 2.909 1.462 5514
1.232 2.912 1.453 6961
1.231 2.909 1.441 8301
1.230 2.906 1.429 10128
1.225 2.896 1.414 7913
1.258 2.974 1.438 7988
1.242 2.937 1.411 8152
1.287 3.041 1.446 8889
1.291 3.052 1.440 11434
1.293 3.055 1.430 8685
1.294 3.059 1.420 6471
1.304 3.082 1.420 5591
1.308 3.093 1.413 5187
1.313 3.103 1.406 7270
1.314 3.106 1.396 10424
1.316 3.110 1.387 9102
1.355 3.202 1.413 7388
1.394 3.294 1.438 4797
1.398 3.305 1.431 5323
1.400 3.308 1.421 6270
1.398 3.305 1.408 8263
1.414 3.342 1.411 6774
1.430 3.380 1.413 8918
1.434 3.390 1.405 9190
1.439 3.401 1.397 5341
1.464 3.459 1.407 2938
1.474 3.483 1.404 3432
1.484 3.507 1.401 4736
1.477 3.490 1.382 4176
1.496 3.535 1.386 3972
1.506 3.559 1.383 7016
1.510 3.569 1.374 9449
1.512 3.573 1.363 10048
1.510 3.569 1.349 6071
1.558 3.684 1.376 3148
1.548 3.659 1.355 2844
1.544 3.648 1.339 2775
1.613 3.812 1.380 3330
1.596 3.773 1.355 4027
1.583 3.742 1.332 6940
1.587 3.752 1.322 5928
1.601 3.783 1.319 3001
1.655 3.912 1.347 3676
1.657 3.916 1.335 5292
1.658 3.919 1.322 3957
1.698 4.013 1.338 3313
1.729 4.087 1.346 4445
1.736 4.104 1.338 5479
1.779 4.206 1.354 4882
1.799 4.251 1.353 6609
1.800 4.255 1.339 9258
1.801 4.258 1.326 9561
1.803 4.261 1.313 7942
1.804 4.264 1.299 11644
1.805 4.267 1.286 15059
1.807 4.270 1.273 13458
1.814 4.287 1.263 8054
1.839 4.347 1.264 6610
1.877 4.435 1.273 5258
1.878 4.438 1.259 4630
1.897 4.484 1.256 4875
1.904 4.501 1.245 4047
1.933 4.568 1.247 5818
1.937 4.578 1.234 5677
1.947 4.602 1.225 3747
1.958 4.627 1.216 3127
2.010 4.751 1.229 2503
2.063 4.875 1.242 2844
2.055 4.856 1.222 3048
2.086 4.931 1.222 3116
2.096 4.955 1.212 3653
2.092 4.944 1.193 4073
2.090 4.939 1.176 3321
2.167 5.121 1.198 3421
2.171 5.131 1.183 3906
2.169 5.127 1.166 3478
2.219 5.244 1.172 2740
2.262 5.347 1.176 2653
2.306 5.451 1.178 3756
2.310 5.461 1.162 4199
2.308 5.456 1.144 4719
2.310 5.459 1.127 5268
2.314 5.469 1.111 3363
2.385 5.637 1.123 2548
2.456 5.805 1.134 3253
2.451 5.793 1.113 4229
2.580 6.099 1.145 4144
2.578 6.094 1.125 4451
2.579 6.097 1.106 4324
2.584 6.106 1.088 3406
2.630 6.217 1.085 2361
2.625 6.205 1.063 3314
2.779 6.569 1.097 3050
2.780 6.572 1.076 2352
2.873 6.791 1.086 2342
2.865 6.772 1.062 1845
2.783 6.579 1.014 2089
2.904 6.864 1.030 1692
2.899 6.851 1.007 2035
3.016 7.129 1.020 1684
3.054 7.218 1.008 1353
3.061 7.235 0.987 2004
3.062 7.237 0.964 1950
3.146 7.435 0.963 1694
3.134 7.409 0.937 2290
3.565 8.427 1.020 2325
3.557 8.407 0.991 2924
3.555 8.402 0.964 2705
3.556 8.404 0.938 2497
3.557 8.406 0.911 2146
3.567 8.430 0.887 3120
3.568 8.432 0.860 3972
3.568 8.434 0.833 3669
3.569 8.436 0.807 3564
3.570 8.438 0.780 3304
3.568 8.432 0.753 2049
3.599 8.507 0.732 1245
3.597 8.501 0.704 972
3.588 8.480 0.676 724
3.632 8.584 0.656 514
3.632 8.585 0.629 390
3.636 8.594 0.602 283
3.730 8.815 0.252 328
3.730 8.815 0.224 353
3.730 8.816 0.197 362
3.730 8.816 0.169 345
3.634 8.590 0.141 502
3.631 8.582 0.114 671
3.616 8.546 0.087 773
3.609 8.531 0.060 1076
3.612 8.538 0.033 1199
3.609 8.531 0.007 1175
3.609 8.530 -0.020 1029
3.553 8.398 -0.044 1117
3.553 8.398 -0.071 1293
3.550 8.390 -0.097 990
3.525 8.331 -0.122 875
3.518 8.316 -0.147 719
3.515 8.308 -0.173 605
3.373 7.972 -0.186 457
3.372 7.971 -0.211 514
3.394 8.021 -0.238 535
3.430 8.107 -0.268 671
3.426 8.099 -0.293 726
3.417 8.076 -0.318 881
3.416 8.074 -0.343 720
3.413 8.066 -0.368 566
3.347 7.912 -0.383 484
3.328 7.866 -0.405 557
3.321 7.850 -0.429 491
3.265 7.718 -0.444 543
3.268 7.724 -0.468 543
3.264 7.715 -0.492 683
3.263 7.713 -0.516 833
3.259 7.704 -0.540 679
3.259 7.702 -0.564 529
3.236 7.649 -0.584 510
3.229 7.633 -0.606 618
3.228 7.631 -0.630 488
3.142 7.425 -0.633 575
3.141 7.423 -0.657 575
3.137 7.414 -0.679 555
3.130 7.397 -0.701 550
3.120 7.373 -0.722 487
3.106 7.342 -0.741 559
3.105 7.339 -0.764 559
3.104 7.337 -0.788 279
0.810 1.898 1.579 5752
0.811 1.902 1.573 11505
0.815 1.912 1.572 9457
0.822 1.928 1.575 7357
0.826 1.937 1.573 6499
0.825 1.935 1.563 6548
0.822 1.927 1.548 6921
0.834 1.955 1.560 7035
0.838 1.965 1.558 7971
0.840 1.968 1.552 7971
0.846 1.984 1.555 10163
0.848 1.988 1.549 12717
0.852 1.998 1.547 12992
0.856 2.008 1.545 13528
0.855 2.005 1.535 12093
0.854 2.003 1.524 10846
0.861 2.019 1.527 12132
0.863 2.023 1.520 13654
0.867 2.033 1.518 11244
0.871 2.042 1.516 9115
0.870 2.040 1.506 7232
0.869 2.037 1.495 5572
0.873 2.047 1.493 4802
0.896 2.100 1.520 4910
0.897 2.104 1.514 5449
0.902 2.114 1.511 6415
0.903 2.118 1.505 8250
0.899 2.109 1.490 8907
0.904 2.119 1.487 8905
0.911 2.135 1.489 9768
0.917 2.151 1.490 8672
0.927 2.173 1.496 9828
0.929 2.177 1.489 8398
0.933 2.187 1.486 7196
0.964 2.260 1.523 6580
0.963 2.257 1.512 7294
0.967 2.267 1.509 6254
0.971 2.277 1.506 5259
0.973 2.281 1.499 5326
0.980 2.297 1.499 5979
0.981 2.301 1.492 6768
0.988 2.318 1.493 6503
1.001 2.347 1.501 7697
1.024 2.402 1.524 9568
1.026 2.405 1.516 13270
1.030 2.415 1.512 13502
1.032 2.419 1.505 13187
1.031 2.416 1.494 12589
1.035 2.426 1.490 11989
1.042 2.443 1.490 7924
1.046 2.453 1.486 4426
1.086 2.547 1.529 4212
1.091 2.558 1.524 4534
1.090 2.555 1.513 4777
1.088 2.552 1.501 6174
1.087 2.549 1.490 7334
1.089 2.553 1.482 5904
1.113 2.609 1.502 5548
1.114 2.612 1.494 6956
1.118 2.622 1.489 7114
1.117 2.619 1.477 8657
1.124 2.636 1.476 12261
1.126 2.640 1.468 15047
1.130 2.650 1.463 15781
1.135 2.660 1.458 12913
1.161 2.723 1.480 11327
1.166 2.733 1.474 13476
1.167 2.737 1.466 10924
1.166 2.734 1.454 9077
1.162 2.724 1.439 9626
1.172 2.748 1.440 8939
1.176 2.758 1.435 9863
1.203 2.821 1.455 16920
1.205 2.825 1.446 17414
1.209 2.835 1.440 10456
1.236 2.899 1.459 5536
1.241 2.909 1.453 7008
1.239 2.906 1.441 8931
1.238 2.902 1.429 11436
1.234 2.892 1.414 9280
1.267 2.970 1.438 8187
1.248 2.926 1.408 8551
1.296 3.038 1.446 8168
1.300 3.048 1.440 11380
1.301 3.051 1.430 9274
1.300 3.048 1.418 7108
1.299 3.045 1.405 5622
1.338 3.136 1.433 4728
1.322 3.099 1.406 6615
1.320 3.096 1.393 9836
1.322 3.099 1.384 9146
1.361 3.191 1.410 7148
1.362 3.195 1.400 4653
1.408 3.300 1.431 5035
1.406 3.297 1.418 6131
1.405 3.294 1.405 8277
1.424 3.338 1.411 6745
1.440 3.376 1.413 9910
1.444 3.386 1.405 9923
1.443 3.383 1.392 6119
1.476 3.462 1.410 2492
1.484 3.479 1.404 2937
1.497 3.510 1.403 3453
1.484 3.479 1.380 2846
1.506 3.531 1.386 3806
1.513 3.548 1.380 7274
1.523 3.572 1.376 10156
1.522 3.568 1.363 11450
1.520 3.565 1.349 7160
1.569 3.679 1.376 3085
1.556 3.648 1.353 2544
1.542 3.616 1.330 3062
1.624 3.807 1.380 3565
1.616 3.790 1.362 3876
1.597 3.744 1.334 6600
1.601 3.754 1.324 5939
1.614 3.785 1.322 3315
1.672 3.922 1.351 3309
1.674 3.925 1.339 4142
1.681 3.942 1.331 3205
1.701 3.987 1.331 3435
1.738 4.075 1.344 4315
1.754 4.113 1.342 5924
1.762 4.130 1.333 6591
1.808 4.239 1.351 4980
1.809 4.242 1.337 7456
1.814 4.253 1.326 8158
1.815 4.256 1.313 6361
1.816 4.259 1.299 10368
1.818 4.262 1.286 13389
1.819 4.265 1.273 11510
1.829 4.289 1.265 8299
1.891 4.434 1.289 6016
1.889 4.430 1.273 5864
1.894 4.440 1.261 5355
1.910 4.478 1.256 5817
1.917 4.496 1.245 4257
1.940 4.548 1.243 6076
1.944 4.558 1.231 5513
2.015 4.725 1.255 4555
2.016 4.728 1.241 3881
1.972 4.624 1.201 2654
2.080 4.876 1.244 3176
2.084 4.886 1.230 3288
2.097 4.918 1.221 3026
2.117 4.963 1.215 2799
2.106 4.938 1.193 3516
2.171 5.091 1.209 3029
2.184 5.122 1.199 3539
2.186 5.125 1.183 4336
2.184 5.120 1.166 4392
2.182 5.116 1.148 3121
2.311 5.420 1.191 2784
2.322 5.444 1.178 4133
2.326 5.454 1.162 4554
2.324 5.450 1.144 4991
2.325 5.452 1.127 5449
2.403 5.634 1.142 3684
2.401 5.630 1.123 3152
2.473 5.798 1.134 4007
2.468 5.786 1.113 4645
2.598 6.091 1.145 4139
2.599 6.094 1.126 4609
2.597 6.089 1.106 4366
2.604 6.106 1.089 3552
2.608 6.116 1.071 2496
2.646 6.205 1.064 2825
2.798 6.561 1.097 2661
2.772 6.499 1.067 2245
2.890 6.775 1.085 2377
2.888 6.771 1.063 2039
2.802 6.571 1.014 2068
2.800 6.566 0.993 1495
2.912 6.829 1.005 1902
3.031 7.106 1.018 1733
3.032 7.108 0.996 1408
3.085 7.233 0.988 2000
3.098 7.265 0.968 1982
3.105 7.281 0.947 1494
3.153 7.392 0.936 2472
3.154 7.394 0.912 2361
3.581 8.397 0.991 3211
3.579 8.392 0.964 2980
3.580 8.394 0.938 2679
3.584 8.403 0.912 2231
3.591 8.420 0.887 2854
3.592 8.422 0.860 3371
3.593 8.424 0.833 3013
3.593 8.426 0.807 3124
3.594 8.427 0.780 3126
3.589 8.415 0.753 2140
3.586 8.409 0.725 1355
3.587 8.410 0.699 814
3.616 8.477 0.677 517
3.675 8.617 0.658 332
3.694 8.662 0.634 302
3.679 8.627 0.604 259
3.680 8.628 0.577 256
3.755 8.804 0.252 326
3.755 8.805 0.224 333
3.631 8.514 0.195 454
3.628 8.506 0.168 566
3.637 8.528 0.141 675
3.640 8.536 0.114 905
3.637 8.528 0.087 1150
3.637 8.528 0.060 1412
3.637 8.528 0.033 1396
3.637 8.527 0.006 1223
3.634 8.520 -0.020 1081
3.577 8.388 -0.044 1302
3.577 8.388 -0.071 1441
3.574 8.380 -0.097 1093
3.552 8.328 -0.122 1073
3.545 8.313 -0.148 848
3.539 8.298 -0.173 690
3.492 8.188 -0.195 529
3.429 8.041 -0.214 586
3.413 8.004 -0.238 665
3.453 8.097 -0.268 842
3.450 8.089 -0.293 924
3.440 8.066 -0.318 1145
3.393 7.955 -0.336 1009
3.392 7.954 -0.361 1011
3.392 7.953 -0.387 722
3.360 7.879 -0.407 691
3.344 7.841 -0.429 614
3.291 7.716 -0.444 685
3.290 7.714 -0.468 685
3.286 7.705 -0.492 856
3.285 7.704 -0.516 1038
3.282 7.694 -0.540 839
3.281 7.693 -0.564 650
3.258 7.640 -0.584 664
3.251 7.623 -0.606 796
3.250 7.621 -0.630 636
3.163 7.416 -0.633 787
3.162 7.414 -0.657 787
3.158 7.405 -0.679 742
3.151 7.388 -0.701 721
3.141 7.364 -0.722 653
3.127 7.333 -0.741 749
3.126 7.330 -0.764 749
3.125 7.328 -0.788 374
0.813 1.897 1.579 5471
0.814 1.901 1.573 10942
0.819 1.910 1.572 9128
0.825 1.926 1.575 7106
0.827 1.930 1.569 6204
0.829 1.934 1.563 6490
0.828 1.932 1.552 6949
0.829 1.935 1.546 7567
0.834 1.945 1.545 8246
0.835 1.949 1.539 8246
0.847 1.977 1.551 9506
0.851 1.987 1.549 12052
0.856 1.996 1.547 12270
0.860 2.006 1.545 12914
0.861 2.010 1.539 11281
0.858 2.002 1.524 10138
0.865 2.018 1.527 10879
0.866 2.021 1.520 12110
0.870 2.031 1.518 10039
0.875 2.041 1.516 8281
0.876 2.045 1.510 7239
0.875 2.042 1.499 6325
0.893 2.083 1.518 6010
0.899 2.099 1.520 5633
0.901 2.103 1.514 5365
0.905 2.112 1.511 6272
0.907 2.116 1.505 7848
0.906 2.114 1.494 8631
0.907 2.117 1.487 7658
0.912 2.127 1.485 6695
0.929 2.168 1.503 5872
0.933 2.178 1.500 7495
0.935 2.182 1.493 7696
0.937 2.185 1.486 7897
0.968 2.258 1.523 7140
0.969 2.262 1.516 7923
0.971 2.266 1.509 6952
0.970 2.263 1.498 6002
0.974 2.273 1.495 5834
0.981 2.289 1.496 6140
0.985 2.299 1.492 6567
0.990 2.309 1.489 5962
1.005 2.345 1.501 6578
1.028 2.400 1.524 10125
1.030 2.404 1.516 14043
1.034 2.414 1.512 14174
1.036 2.417 1.505 12848
1.037 2.421 1.497 11215
1.039 2.425 1.490 10690
1.046 2.441 1.490 7374
1.050 2.451 1.486 4273
1.091 2.545 1.529 4218
1.098 2.562 1.528 4670
1.097 2.559 1.516 4939
1.096 2.557 1.505 6123
1.094 2.554 1.493 7126
1.099 2.564 1.489 5994
1.114 2.600 1.498 5651
1.121 2.617 1.497 6648
1.126 2.627 1.492 6622
1.122 2.618 1.477 8060
1.129 2.634 1.476 11056
1.130 2.638 1.468 13077
1.132 2.641 1.459 14158
1.136 2.652 1.455 11684
1.169 2.728 1.483 12925
1.170 2.731 1.474 15317
1.172 2.735 1.466 12469
1.171 2.732 1.454 9284
1.169 2.729 1.442 9254
1.177 2.745 1.440 9652
1.184 2.762 1.438 11069
1.208 2.819 1.455 17457
1.210 2.823 1.446 18793
1.214 2.833 1.440 10857
1.241 2.897 1.459 5389
1.246 2.907 1.453 6515
1.244 2.904 1.441 8943
1.243 2.900 1.429 12050
1.239 2.890 1.414 9985
1.254 2.927 1.420 8118
1.253 2.924 1.408 8800
1.304 3.042 1.449 7334
1.305 3.046 1.440 10921
1.307 3.049 1.430 9392
1.302 3.039 1.415 7523
1.304 3.043 1.405 6109
1.305 3.046 1.396 4400
1.359 3.172 1.437 5778
1.326 3.093 1.393 8675
1.324 3.090 1.381 8685
1.364 3.182 1.407 6772
1.368 3.192 1.400 4682
1.410 3.291 1.428 4664
1.409 3.288 1.415 6164
1.410 3.291 1.405 8332
1.429 3.336 1.411 6560
1.446 3.373 1.413 10183
1.450 3.384 1.405 9968
1.449 3.380 1.392 6791
1.435 3.349 1.369 3076
1.493 3.483 1.407 2656
1.506 3.514 1.406 2276
1.478 3.449 1.370 2671
1.512 3.528 1.386 4053
1.519 3.545 1.380 7616
1.530 3.569 1.376 10579
1.528 3.566 1.363 12207
1.526 3.562 1.349 7643
1.575 3.676 1.376 3405
1.559 3.638 1.350 2638
1.545 3.606 1.327 3264
1.630 3.804 1.380 3514
1.620 3.780 1.359 4042
1.606 3.748 1.336 6201
1.611 3.758 1.327 5932
1.618 3.776 1.319 3302
1.685 3.933 1.356 3447
1.684 3.929 1.341 3758
1.694 3.953 1.335 3756
1.707 3.984 1.331 3748
1.745 4.072 1.344 4186
1.767 4.124 1.346 6534
1.769 4.127 1.333 8102
1.773 4.137 1.322 5828
1.817 4.239 1.337 7181
1.818 4.242 1.324 7715
1.822 4.253 1.313 5445
1.824 4.256 1.299 9053
1.825 4.259 1.286 11950
1.829 4.269 1.275 9695
1.837 4.286 1.265 7625
1.899 4.431 1.289 5106
1.897 4.427 1.273 6075
1.907 4.451 1.264 6128
1.918 4.475 1.256 6346
1.922 4.485 1.243 4267
1.945 4.538 1.242 5726
1.949 4.548 1.229 5010
2.023 4.721 1.255 5401
2.025 4.724 1.241 4703
1.977 4.613 1.199 2919
2.094 4.887 1.247 3487
2.095 4.890 1.231 4073
2.100 4.900 1.218 3150
2.144 5.003 1.224 2887
2.111 4.927 1.191 3335
2.180 5.087 1.209 2846
2.193 5.118 1.199 3438
2.195 5.121 1.183 4291
2.193 5.117 1.166 4663
2.191 5.112 1.148 3351
2.318 5.409 1.190 2793
2.334 5.447 1.180 4174
2.335 5.450 1.162 4460
2.334 5.446 1.144 4760
2.335 5.448 1.127 5126
2.413 5.630 1.142 4059
2.494 5.820 1.157 3845
2.483 5.794 1.134 4580
2.481 5.789 1.114 4701
2.611 6.094 1.146 4000
2.609 6.089 1.126 4569
2.608 6.085 1.106 4119
2.615 6.102 1.089 3476
2.619 6.111 1.071 2596
2.663 6.215 1.067 2453
2.674 6.239 1.050 2796
2.675 6.241 1.031 2319
2.901 6.770 1.085 2518
2.902 6.773 1.064 2253
2.811 6.559 1.013 2015
2.973 6.937 1.042 1443
2.921 6.816 1.004 1773
3.043 7.101 1.018 1676
3.041 7.096 0.995 1490
3.104 7.243 0.989 1980
3.111 7.259 0.968 1992
3.121 7.283 0.948 1533
3.165 7.387 0.936 2559
3.166 7.389 0.912 2525
3.593 8.383 0.991 3307
3.594 8.386 0.964 2928
3.594 8.388 0.938 2505
3.595 8.390 0.911 2119
3.606 8.414 0.887 2468
3.606 8.416 0.860 2835
3.604 8.410 0.833 2577
3.605 8.412 0.806 2731
3.606 8.414 0.780 2974
3.603 8.408 0.753 2305
3.598 8.395 0.725 1612
3.595 8.390 0.698 1013
3.587 8.369 0.670 425
3.590 8.378 0.644 289
3.709 8.656 0.634 356
3.691 8.613 0.604 336
3.695 8.622 0.577 314
3.701 8.637 0.550 298
3.770 8.798 0.252 308
3.770 8.798 0.224 310
3.770 8.798 0.197 385
3.770 8.798 0.169 457
3.692 8.617 0.141 525
3.696 8.624 0.114 701
3.689 8.609 0.087 832
3.652 8.522 0.060 1106
3.649 8.514 0.033 1106
3.648 8.514 0.007 997
3.608 8.419 -0.019 1118
3.592 8.382 -0.044 1334
3.592 8.381 -0.071 1435
3.660 8.541 -0.102 1200
3.657 8.533 -0.129 1237
3.563 8.314 -0.148 961
3.556 8.299 -0.174 763
3.413 7.963 -0.186 613
3.418 7.977 -0.212 743
3.449 8.049 -0.240 712
3.467 8.091 -0.268 906
3.451 8.054 -0.292 1037
3.451 8.053 -0.317 1308
3.450 8.051 -0.343 1106
3.450 8.050 -0.368 903
3.449 8.049 -0.393 654
3.361 7.844 -0.405 778
3.354 7.828 -0.428 699
3.301 7.703 -0.444 799
3.303 7.708 -0.468 796
3.300 7.700 -0.492 986
3.299 7.698 -0.516 1180
3.295 7.689 -0.540 947
3.294 7.687 -0.564 724
3.272 7.634 -0.584 787
3.268 7.625 -0.607 931
3.282 7.659 -0.635 769
3.176 7.411 -0.633 955
3.175 7.409 -0.657 955
3.171 7.399 -0.679 872
3.164 7.383 -0.701 816
3.144 7.337 -0.719 768
3.140 7.327 -0.741 891
3.139 7.325 -0.764 891
3.141 7.330 -0.788 445
0.820 1.894 1.579 5288
0.822 1.898 1.573 10577
0.826 1.907 1.572 9097
0.830 1.917 1.570 7086
0.834 1.927 1.569 6136
0.836 1.931 1.563 6575
0.835 1.928 1.552 7066
0.839 1.938 1.551 8214
0.841 1.942 1.545 9413
0.842 1.946 1.539 9413
0.852 1.968 1.546 9345
0.859 1.983 1.549 11312
0.863 1.993 1.547 11438
0.867 2.003 1.545 12143
0.869 2.007 1.539 10467
0.865 1.998 1.524 9274
0.872 2.014 1.527 9494
0.874 2.018 1.520 10197
0.878 2.028 1.518 8634
0.898 2.074 1.542 8509
0.900 2.078 1.535 8219
0.899 2.076 1.525 7934
0.903 2.086 1.522 7851
0.905 2.089 1.516 6718
0.909 2.099 1.514 5734
0.913 2.109 1.511 6537
0.915 2.113 1.505 7773
0.916 2.116 1.498 8798
0.921 2.126 1.496 7328
0.933 2.155 1.505 5782
0.937 2.165 1.503 5947
0.942 2.175 1.500 5884
0.940 2.172 1.489 7260
0.942 2.176 1.482 8661
0.976 2.255 1.523 7694
0.978 2.258 1.516 8581
0.977 2.256 1.505 7738
0.978 2.259 1.498 7020
0.983 2.269 1.495 6602
0.987 2.279 1.492 6537
0.991 2.289 1.488 6475
1.034 2.388 1.539 6048
1.033 2.386 1.527 6643
1.037 2.396 1.524 10492
1.039 2.400 1.516 14526
1.043 2.410 1.512 14609
1.048 2.420 1.509 12140
1.047 2.417 1.497 9084
1.054 2.434 1.497 8987
1.055 2.437 1.490 6610
1.060 2.447 1.486 4189
1.064 2.457 1.482 4037
1.108 2.558 1.528 4566
1.109 2.562 1.520 4919
1.105 2.552 1.505 5862
1.107 2.556 1.497 6571
1.108 2.560 1.489 6146
1.118 2.583 1.491 6112
1.128 2.606 1.494 6482
1.138 2.629 1.496 6174
1.131 2.613 1.477 7612
1.136 2.623 1.473 9314
1.143 2.640 1.471 10275
1.142 2.637 1.459 11709
1.143 2.641 1.451 10420
1.179 2.723 1.483 14255
1.184 2.734 1.478 16613
1.182 2.730 1.466 13537
1.184 2.734 1.457 8848
1.182 2.731 1.445 8266
1.187 2.741 1.440 10304
1.194 2.758 1.438 12366
1.216 2.808 1.452 17347
1.220 2.818 1.446 19232
1.225 2.828 1.440 11021
1.249 2.885 1.456 5459
1.254 2.895 1.450 5819
1.252 2.892 1.438 8671
1.251 2.889 1.426 12292
1.249 2.886 1.414 10437
1.263 2.916 1.417 8750
1.264 2.919 1.408 9318
1.318 3.044 1.452 6335
1.320 3.048 1.442 10022
1.318 3.044 1.430 8852
1.308 3.021 1.409 7510
1.315 3.038 1.405 6546
1.317 3.041 1.396 5131
1.336 3.085 1.403 5018
1.334 3.082 1.391 6967
1.336 3.085 1.381 7603
1.370 3.163 1.402 6248
1.371 3.167 1.392 4516
1.417 3.272 1.423 4733
1.418 3.276 1.412 6580
1.423 3.286 1.405 8339
1.454 3.358 1.421 6738
1.458 3.368 1.413 9877
1.463 3.378 1.405 9577
1.458 3.368 1.390 7643
1.451 3.351 1.371 4031
1.461 3.375 1.368 2402
1.471 3.399 1.365 2278
1.485 3.429 1.365 3273
1.522 3.515 1.384 5076
1.529 3.533 1.378 8277
1.543 3.564 1.376 10713
1.541 3.560 1.363 12637
1.540 3.556 1.349 7849
1.583 3.656 1.371 4044
1.567 3.618 1.346 3236
1.556 3.594 1.325 3764
1.611 3.722 1.355 3613
1.616 3.732 1.346 4742
1.629 3.763 1.343 6292
1.628 3.759 1.329 6011
1.711 3.951 1.377 4005
1.700 3.926 1.356 3641
1.704 3.936 1.346 3855
1.712 3.954 1.338 4842
1.716 3.964 1.327 4275
1.757 4.058 1.342 3735
1.783 4.117 1.346 7022
1.784 4.121 1.333 9059
1.789 4.131 1.322 6175
1.829 4.225 1.335 7700
1.834 4.236 1.324 7354
1.838 4.246 1.313 4510
1.837 4.242 1.297 7628
1.841 4.252 1.286 10548
1.845 4.262 1.275 7837
1.856 4.286 1.267 5839
1.918 4.430 1.290 4270
1.913 4.419 1.273 6403
1.924 4.444 1.264 6738
1.934 4.468 1.256 6619
1.939 4.478 1.243 4112
1.958 4.523 1.240 5044
1.960 4.526 1.226 4304
2.041 4.714 1.255 6105
2.042 4.717 1.241 5646
2.043 4.720 1.226 3390
2.112 4.879 1.247 3845
2.117 4.889 1.233 5011
2.118 4.892 1.218 3724
2.162 4.994 1.224 2944
2.127 4.912 1.190 4021
2.131 4.922 1.176 2781
2.216 5.117 1.201 3386
2.217 5.120 1.185 4093
2.212 5.108 1.166 4504
2.210 5.104 1.148 3427
2.338 5.400 1.190 2563
2.358 5.446 1.181 3921
2.356 5.441 1.162 3977
2.354 5.437 1.144 4085
2.358 5.447 1.128 4556
2.434 5.621 1.142 4014
2.516 5.810 1.157 4643
2.511 5.799 1.136 5315
2.502 5.780 1.114 4552
2.634 6.084 1.146 3770
2.632 6.079 1.126 4422
2.633 6.082 1.107 3677
2.663 6.149 1.098 3266
2.642 6.102 1.071 2559
2.693 6.219 1.069 2356
2.697 6.229 1.050 2852
2.698 6.231 1.031 2417
2.930 6.767 1.086 2850
2.931 6.769 1.065 2574
2.823 6.519 1.009 1980
2.995 6.918 1.041 1596
2.947 6.805 1.004 1624
2.944 6.800 0.982 1800
3.067 7.084 0.995 1539
3.134 7.238 0.990 1923
3.138 7.248 0.968 1905
3.180 7.344 0.956 1673
3.193 7.375 0.936 2540
3.194 7.377 0.912 2535
3.624 8.370 0.991 3164
3.625 8.372 0.964 2698
3.626 8.374 0.938 2268
3.627 8.376 0.911 1888
3.637 8.400 0.887 1942
3.635 8.395 0.859 2210
3.629 8.382 0.832 2203
3.633 8.391 0.806 2405
3.634 8.393 0.779 2839
3.632 8.388 0.752 2291
3.632 8.389 0.725 1538
3.633 8.391 0.699 1009
3.624 8.370 0.671 453
3.625 8.372 0.645 309
3.748 8.656 0.634 276
3.721 8.594 0.304 251
3.721 8.595 0.277 296
3.724 8.602 0.250 345
3.734 8.624 0.223 383
3.803 8.784 0.197 427
3.794 8.762 0.169 535
3.803 8.784 0.141 640
3.803 8.784 0.113 765
3.687 8.515 0.087 1042
3.687 8.515 0.060 1430
3.687 8.515 0.033 1351
3.643 8.413 0.008 1093
3.639 8.405 -0.019 1279
3.636 8.398 -0.045 1241
3.623 8.368 -0.071 1186
3.604 8.324 -0.096 983
3.597 8.309 -0.122 1274
3.597 8.308 -0.148 1039
3.590 8.293 -0.174 817
3.530 8.154 -0.194 658
3.483 8.044 -0.215 780
3.482 8.043 -0.241 826
3.498 8.078 -0.268 981
3.481 8.041 -0.292 1140
3.481 8.040 -0.317 1407
3.480 8.038 -0.343 1174
3.480 8.037 -0.368 940
3.416 7.891 -0.384 813
3.394 7.838 -0.405 953
3.387 7.822 -0.429 820
3.330 7.690 -0.444 937
3.329 7.689 -0.468 935
3.328 7.687 -0.492 1143
3.328 7.685 -0.516 1353
3.327 7.684 -0.541 1075
3.323 7.675 -0.564 814
3.300 7.622 -0.584 906
3.293 7.606 -0.606 1055
3.311 7.647 -0.635 878
3.204 7.399 -0.633 1133
3.203 7.397 -0.657 1133
3.202 7.395 -0.680 1004
3.191 7.371 -0.701 916
3.172 7.325 -0.719 911
3.171 7.323 -0.742 1052
3.170 7.320 -0.765 1052
3.168 7.318 -0.788 526
0.825 1.892 1.579 4996
0.826 1.895 1.573 9993
0.831 1.905 1.572 8862
0.835 1.915 1.570 7006
0.839 1.925 1.569 5929
0.841 1.928 1.563 6465
0.843 1.932 1.557 7001
0.844 1.936 1.551 8537
0.846 1.940 1.545 10073
0.848 1.944 1.539 10073
0.854 1.959 1.542 9552
0.864 1.981 1.549 10466
0.868 1.991 1.547 10488
0.872 2.001 1.545 11147
0.874 2.005 1.539 9566
0.870 1.996 1.524 8247
0.877 2.012 1.527 8121
0.879 2.016 1.520 8258
0.883 2.026 1.518 7250
0.906 2.078 1.546 8918
0.905 2.076 1.535 8751
0.904 2.073 1.525 8731
0.908 2.083 1.522 8718
0.910 2.087 1.516 7264
0.920 2.109 1.522 6093
0.921 2.113 1.515 6750
0.920 2.110 1.505 7708
0.925 2.120 1.502 9082
0.934 2.143 1.508 8784
0.939 2.152 1.505 7779
0.943 2.162 1.503 6790
0.942 2.160 1.492 5494
0.943 2.163 1.485 7211
0.945 2.167 1.478 8929
0.982 2.252 1.523 7774
0.984 2.256 1.516 8689
0.983 2.253 1.505 8024
0.984 2.257 1.498 7525
0.988 2.267 1.495 6987
0.993 2.277 1.492 6628
0.994 2.280 1.485 6253
1.040 2.386 1.539 5894
1.039 2.383 1.527 6380
1.044 2.393 1.524 10191
1.045 2.397 1.516 14120
1.050 2.407 1.512 14248
1.057 2.424 1.512 11422
1.064 2.440 1.512 8129
1.066 2.444 1.505 7839
1.064 2.441 1.493 5813
1.063 2.438 1.482 4042
1.070 2.455 1.482 4371
1.080 2.478 1.485 5082
1.085 2.488 1.481 4996
1.112 2.550 1.505 5435
1.113 2.553 1.497 5699
1.118 2.563 1.492 6182
1.119 2.567 1.484 6986
1.132 2.597 1.490 6618
1.137 2.607 1.485 5993
1.135 2.604 1.474 7367
1.137 2.607 1.466 8197
1.150 2.637 1.471 7639
1.143 2.621 1.453 9560
1.147 2.631 1.448 9430
1.186 2.720 1.483 14218
1.191 2.730 1.478 16368
1.189 2.727 1.466 13315
1.191 2.731 1.457 7871
1.192 2.734 1.449 7461
1.197 2.745 1.443 10673
1.201 2.755 1.438 12766
1.223 2.805 1.452 16023
1.227 2.815 1.446 17984
1.232 2.825 1.440 10583
1.254 2.875 1.453 5687
1.258 2.885 1.447 5376
1.260 2.889 1.438 8203
1.258 2.886 1.426 11807
1.260 2.889 1.417 10576
1.270 2.913 1.417 9126
1.272 2.916 1.408 9466
1.276 2.926 1.402 6203
1.327 3.044 1.442 8897
1.326 3.041 1.430 7786
1.313 3.011 1.406 6897
1.314 3.014 1.397 6440
1.327 3.044 1.399 5440
1.338 3.068 1.398 4955
1.345 3.085 1.393 5620
1.347 3.088 1.384 6586
1.366 3.132 1.391 7114
1.370 3.143 1.384 4727
1.422 3.262 1.420 5170
1.427 3.272 1.412 6921
1.428 3.275 1.402 8115
1.462 3.354 1.421 6892
1.464 3.357 1.411 9164
1.465 3.361 1.400 8972
1.464 3.357 1.387 8237
1.459 3.347 1.371 4652
1.470 3.371 1.368 2931
1.477 3.388 1.363 2879
1.503 3.446 1.372 3796
1.531 3.511 1.384 6051
1.539 3.529 1.378 8892
1.549 3.553 1.374 10661
1.551 3.556 1.363 12616
1.552 3.559 1.352 7771
1.593 3.652 1.371 4478
1.600 3.670 1.364 3766
1.565 3.590 1.325 4127
1.624 3.725 1.357 4187
1.626 3.728 1.346 4985
1.642 3.766 1.345 6125
1.640 3.762 1.331 5569
1.721 3.946 1.377 4381
1.713 3.929 1.358 3608
1.715 3.932 1.346 3954
1.719 3.942 1.335 5414
1.723 3.952 1.325 4548
1.798 4.123 1.363 3649
1.793 4.113 1.346 6777
1.795 4.116 1.333 8511
1.799 4.126 1.322 5524
1.840 4.221 1.335 7659
1.845 4.231 1.324 6963
1.846 4.234 1.311 4134
1.848 4.237 1.297 6626
1.852 4.247 1.286 9265
1.856 4.257 1.275 6963
1.867 4.281 1.267 4399
1.911 4.383 1.279 3882
1.922 4.407 1.271 6330
1.935 4.439 1.264 6799
1.943 4.456 1.254 6488
1.950 4.473 1.243 3864
1.961 4.497 1.235 4551
1.959 4.493 1.219 4470
2.053 4.708 1.255 6057
2.054 4.711 1.241 5825
2.056 4.714 1.226 3939
2.072 4.753 1.219 4326
2.071 4.748 1.203 6335
2.072 4.751 1.188 4427
2.132 4.889 1.202 3555
2.136 4.899 1.188 5113
2.141 4.909 1.174 3425
2.229 5.111 1.201 3318
2.230 5.114 1.185 3815
2.228 5.110 1.167 4045
2.223 5.098 1.148 3334
2.315 5.308 1.173 2332
2.372 5.439 1.181 3418
2.320 5.321 1.141 3873
2.368 5.431 1.144 3316
2.372 5.440 1.128 3859
2.451 5.622 1.143 3749
2.531 5.804 1.157 4850
2.529 5.799 1.138 5445
2.527 5.795 1.118 4082
2.625 6.020 1.137 3677
2.648 6.073 1.126 4088
2.684 6.154 1.120 3309
2.682 6.150 1.099 3379
2.658 6.095 1.071 2343
2.709 6.212 1.069 2324
2.713 6.222 1.050 2600
2.714 6.224 1.031 2261
2.947 6.759 1.086 3063
2.952 6.769 1.066 2782
2.836 6.505 1.008 1950
3.013 6.911 1.041 1544
3.014 6.913 1.019 1486
2.965 6.800 0.983 1765
2.966 6.802 0.961 1594
3.200 7.338 1.003 1833
3.195 7.326 0.978 1806
3.189 7.314 0.953 1969
3.212 7.367 0.936 2375
3.213 7.369 0.912 2329
3.646 8.361 0.991 2838
3.647 8.363 0.964 2349
3.648 8.365 0.938 1941
3.645 8.360 0.910 1599
3.659 8.391 0.887 1483
3.656 8.386 0.859 1603
3.651 8.373 0.832 1650
3.655 8.382 0.806 1962
3.656 8.384 0.779 2449
3.653 8.378 0.752 2040
3.657 8.387 0.726 1494
3.655 8.381 0.699 959
3.658 8.390 0.673 351
3.757 8.616 0.660 269
3.761 8.625 0.633 316
3.758 8.619 0.605 262
3.696 8.476 0.302 270
3.699 8.483 0.275 415
3.699 8.484 0.248 531
3.699 8.484 0.222 645
3.699 8.484 0.195 850
3.700 8.484 0.168 941
3.696 8.477 0.141 1032
3.696 8.477 0.114 1130
3.703 8.491 0.087 1221
3.709 8.506 0.060 1456
3.702 8.491 0.033 1310
3.737 8.570 0.005 1218
3.664 8.403 -0.019 1295
3.661 8.395 -0.045 1242
3.648 8.366 -0.071 989
3.622 8.307 -0.096 915
3.619 8.299 -0.122 1233
3.619 8.299 -0.148 1022
3.628 8.320 -0.175 828
3.551 8.145 -0.194 688
3.504 8.035 -0.215 815
3.503 8.034 -0.241 860
3.519 8.069 -0.268 1031
3.505 8.039 -0.292 1148
3.505 8.038 -0.318 1397
3.504 8.037 -0.343 1175
3.460 7.934 -0.362 1197
3.459 7.932 -0.387 949
3.414 7.830 -0.405 1034
3.407 7.814 -0.429 876
3.350 7.682 -0.444 981
3.349 7.680 -0.468 978
3.348 7.679 -0.492 1180
3.347 7.677 -0.516 1384
3.347 7.675 -0.541 1095
3.343 7.666 -0.564 818
3.320 7.613 -0.584 952
3.313 7.597 -0.606 1097
3.227 7.400 -0.611 950
3.223 7.391 -0.633 1274
3.222 7.389 -0.657 1274
3.221 7.386 -0.680 1117
3.210 7.362 -0.701 979
3.191 7.317 -0.719 972
3.190 7.315 -0.742 1131
3.188 7.312 -0.765 1131
3.187 7.310 -0.788 565
0.833 1.895 1.583 4774
0.835 1.899 1.578 9549
0.836 1.903 1.572 8801
0.841 1.912 1.570 7056
0.842 1.916 1.564 5893
0.847 1.926 1.563 6430
0.851 1.936 1.561 7133
0.853 1.940 1.555 8996
0.854 1.943 1.549 10860
0.856 1.947 1.543 10860
0.860 1.957 1.542 10122
0.865 1.967 1.540 10035
0.874 1.988 1.547 9608
0.878 1.998 1.545 10122
0.880 2.002 1.539 8689
0.879 2.000 1.529 7282
0.883 2.009 1.527 6787
0.888 2.019 1.525 6326
0.911 2.072 1.553 7322
0.912 2.076 1.546 9266
0.914 2.079 1.540 9199
0.913 2.077 1.529 9287
0.915 2.081 1.522 9313
0.916 2.084 1.516 7697
0.926 2.106 1.522 6528
0.928 2.110 1.515 7214
0.929 2.114 1.509 7942
0.936 2.130 1.510 10061
0.941 2.140 1.508 10976
0.945 2.150 1.505 10085
0.947 2.153 1.499 8131
0.937 2.132 1.476 6482
0.947 2.154 1.481 7625
0.949 2.158 1.474 9243
0.989 2.249 1.523 7689
0.990 2.253 1.516 8584
0.992 2.257 1.509 8138
0.991 2.254 1.498 7868
0.998 2.270 1.499 7311
1.002 2.280 1.496 6662
1.001 2.277 1.485 5945
1.047 2.383 1.539 5579
1.046 2.380 1.527 5807
1.051 2.390 1.524 9493
1.052 2.394 1.516 13214
1.060 2.410 1.516 13526
1.067 2.427 1.516 10915
1.074 2.443 1.516 7968
1.078 2.453 1.512 7091
1.089 2.476 1.515 5021
1.070 2.435 1.482 3925
1.092 2.484 1.500 4774
1.091 2.481 1.488 6451
1.092 2.484 1.481 6616
1.116 2.540 1.501 5048
1.127 2.563 1.504 4652
1.123 2.554 1.489 6095
1.127 2.564 1.484 8249
1.134 2.580 1.483 7612
1.142 2.597 1.482 6646
1.140 2.594 1.470 7653
1.139 2.591 1.459 7712
1.143 2.601 1.454 6610
1.148 2.611 1.449 8242
1.152 2.621 1.445 8593
1.194 2.717 1.483 13450
1.199 2.727 1.478 15245
1.200 2.730 1.469 12427
1.199 2.727 1.457 7163
1.203 2.738 1.452 7639
1.208 2.748 1.447 11254
1.212 2.758 1.441 12934
1.228 2.794 1.448 14027
1.236 2.811 1.446 15630
1.243 2.828 1.443 10259
1.262 2.872 1.453 6458
1.249 2.842 1.429 6057
1.268 2.885 1.438 7886
1.270 2.889 1.429 11118
1.271 2.892 1.420 10723
1.276 2.902 1.414 9901
1.280 2.912 1.408 9671
1.285 2.922 1.402 6328
1.339 3.047 1.445 7645
1.338 3.044 1.433 6737
1.319 3.000 1.403 6192
1.320 3.003 1.394 6021
1.340 3.047 1.401 5588
1.350 3.071 1.400 5359
1.360 3.095 1.399 5376
1.371 3.118 1.398 7761
1.372 3.122 1.388 8161
1.377 3.132 1.381 5264
1.429 3.251 1.417 6024
1.436 3.268 1.412 7230
1.441 3.278 1.405 7714
1.472 3.350 1.421 6854
1.474 3.353 1.411 8405
1.472 3.350 1.397 8761
1.471 3.346 1.384 8980
1.469 3.343 1.371 5246
1.471 3.346 1.361 3276
1.490 3.390 1.365 3197
1.513 3.442 1.372 4478
1.545 3.514 1.386 7223
1.546 3.517 1.375 9951
1.560 3.548 1.374 10814
1.564 3.558 1.365 12393
1.566 3.561 1.354 7456
1.603 3.648 1.371 4956
1.632 3.713 1.381 5106
1.573 3.578 1.323 4428
1.635 3.720 1.357 4590
1.637 3.723 1.346 4845
1.656 3.768 1.348 5154
1.652 3.757 1.331 4394
1.733 3.941 1.377 4474
1.725 3.924 1.358 3429
1.726 3.927 1.346 3870
1.731 3.937 1.335 5525
1.735 3.947 1.325 4471
1.810 4.118 1.363 3549
1.809 4.114 1.348 5974
1.807 4.111 1.333 7058
1.811 4.121 1.322 4259
1.853 4.215 1.335 7364
1.854 4.218 1.322 6905
1.856 4.221 1.309 4344
1.860 4.232 1.297 5863
1.862 4.235 1.284 8098
1.869 4.252 1.275 7006
1.911 4.346 1.286 5169
1.921 4.370 1.277 4557
1.932 4.395 1.269 6527
1.946 4.426 1.263 6370
1.953 4.443 1.252 5954
1.964 4.467 1.243 3743
1.971 4.484 1.233 4438
1.969 4.480 1.217 4763
2.067 4.702 1.255 5651
2.068 4.705 1.241 5783
2.073 4.715 1.227 4530
2.087 4.747 1.219 5696
2.085 4.742 1.203 7383
2.086 4.745 1.188 4976
2.150 4.890 1.204 4803
2.151 4.893 1.188 6940
2.152 4.896 1.173 5072
2.247 5.112 1.202 3361
2.201 5.008 1.164 4087
2.243 5.103 1.167 3471
2.238 5.092 1.148 3141
2.230 5.073 1.128 2439
2.332 5.304 1.156 2974
2.336 5.314 1.141 3767
2.337 5.316 1.124 3280
2.392 5.441 1.129 3107
2.468 5.615 1.143 3338
2.548 5.796 1.157 4680
2.546 5.792 1.138 5186
2.550 5.802 1.120 3668
2.640 6.005 1.136 3568
2.666 6.065 1.126 3671
2.702 6.146 1.120 3198
2.700 6.142 1.099 3232
2.669 6.072 1.069 2204
2.724 6.197 1.068 2323
2.725 6.199 1.048 2173
2.966 6.748 1.107 2075
2.971 6.758 1.087 3312
2.975 6.767 1.067 3054
2.979 6.777 1.046 1973
3.069 6.981 1.051 1579
3.032 6.897 1.018 1426
2.985 6.791 0.983 1554
3.221 7.326 1.026 1597
3.218 7.321 1.002 2112
3.216 7.317 0.978 2110
3.211 7.304 0.953 2168
3.234 7.357 0.936 2118
3.314 7.539 0.932 2041
3.670 8.350 0.991 2334
3.671 8.352 0.964 1844
3.672 8.354 0.938 1455
3.664 8.334 0.909 1317
3.620 8.235 0.874 1681
3.615 8.223 0.846 1522
3.577 8.138 0.813 1643
3.677 8.364 0.805 1433
3.681 8.373 0.779 1849
3.678 8.367 0.752 1565
3.679 8.369 0.725 1219
3.680 8.370 0.699 773
3.505 7.974 0.647 409
3.678 8.366 0.645 255
3.775 8.588 0.304 270
3.772 8.581 0.277 422
3.772 8.581 0.250 576
3.772 8.581 0.223 890
3.772 8.582 0.195 1307
3.769 8.575 0.168 1413
3.766 8.567 0.141 1184
3.760 8.553 0.114 1081
3.757 8.545 0.087 1096
3.744 8.516 0.060 1294
3.724 8.473 0.034 1399
3.724 8.472 0.007 1516
3.724 8.472 -0.020 1426
3.686 8.384 -0.045 1212
3.689 8.391 -0.072 975
3.641 8.282 -0.095 851
3.644 8.288 -0.122 1129
3.643 8.288 -0.148 950
3.652 8.309 -0.175 843
3.576 8.134 -0.194 701
3.527 8.024 -0.215 789
3.527 8.023 -0.241 856
3.546 8.066 -0.268 1110
3.529 8.029 -0.292 1205
3.529 8.027 -0.318 1485
3.525 8.019 -0.343 1258
3.480 7.916 -0.361 1147
3.483 7.922 -0.387 950
3.437 7.819 -0.405 1068
3.430 7.803 -0.429 891
3.369 7.665 -0.443 967
3.369 7.663 -0.467 965
3.371 7.669 -0.492 1148
3.370 7.667 -0.516 1328
3.369 7.665 -0.541 1052
3.343 7.605 -0.560 849
3.342 7.603 -0.584 970
3.354 7.630 -0.611 1113
3.252 7.397 -0.611 992
3.245 7.381 -0.633 1303
3.244 7.379 -0.657 1303
3.243 7.377 -0.680 1117
3.232 7.353 -0.701 947
3.212 7.307 -0.719 1026
3.211 7.305 -0.742 1195
3.210 7.303 -0.765 1195
3.209 7.300 -0.788 597
0.839 1.892 1.583 4508
0.840 1.896 1.578 9017
0.842 1.900 1.572 8523
0.846 1.910 1.570 6904
0.848 1.914 1.564 5692
0.852 1.923 1.563 6305
0.857 1.933 1.561 7436
0.858 1.937 1.555 9498
0.860 1.941 1.549 11560
0.862 1.945 1.543 11560
0.866 1.954 1.542 10563
0.870 1.964 1.540 9791
0.877 1.980 1.543 8783
0.884 1.996 1.545 8964
0.886 1.999 1.539 7757
0.888 2.003 1.533 6550
0.892 2.013 1.531 5649
0.915 2.065 1.559 5466
0.917 2.069 1.553 7283
0.919 2.073 1.546 9101
0.920 2.077 1.540 9108
0.919 2.074 1.529 9194
0.921 2.078 1.522 9208
0.922 2.082 1.516 7624
0.932 2.104 1.522 6552
0.937 2.114 1.520 7390
0.941 2.123 1.517 8339
0.943 2.127 1.510 10953
0.947 2.137 1.508 12328
0.951 2.147 1.505 11472
0.953 2.150 1.499 9233
0.944 2.129 1.476 7413
0.951 2.145 1.477 8203
0.952 2.149 1.470 9298
0.954 2.152 1.464 7923
0.997 2.250 1.516 8107
0.999 2.254 1.509 7911
0.998 2.251 1.498 7817
1.005 2.267 1.499 7325
1.009 2.277 1.496 6405
1.002 2.262 1.477 5585
1.055 2.380 1.539 5037
1.056 2.383 1.531 4966
1.058 2.387 1.524 8350
1.059 2.391 1.516 11734
1.067 2.407 1.516 12347
1.077 2.430 1.520 10524
1.084 2.446 1.520 8021
1.089 2.457 1.516 6553
1.096 2.473 1.515 4427
1.078 2.432 1.482 3691
1.099 2.480 1.500 5403
1.098 2.478 1.488 7764
1.102 2.488 1.484 8163
1.104 2.491 1.476 6121
1.126 2.540 1.493 4094
1.130 2.550 1.489 6088
1.135 2.560 1.484 9102
1.136 2.564 1.476 8944
1.138 2.567 1.468 7680
1.139 2.571 1.460 8460
1.141 2.574 1.452 7791
1.148 2.591 1.451 6407
1.153 2.601 1.446 7580
1.157 2.611 1.441 7912
1.205 2.720 1.486 12089
1.207 2.723 1.478 13307
1.208 2.727 1.469 10880
1.210 2.730 1.461 7580
1.212 2.734 1.452 9340
1.216 2.744 1.447 11877
1.221 2.754 1.441 12527
1.234 2.784 1.445 11641
1.244 2.808 1.446 12748
1.255 2.831 1.447 9813
1.256 2.834 1.438 7654
1.258 2.838 1.429 6960
1.277 2.881 1.438 7942
1.278 2.885 1.429 10385
1.280 2.888 1.420 10872
1.284 2.898 1.414 10675
1.289 2.908 1.408 10026
1.293 2.919 1.402 6554
1.348 3.043 1.445 6355
1.350 3.046 1.436 6006
1.325 2.989 1.400 5952
1.329 2.999 1.394 5398
1.349 3.043 1.401 5433
1.359 3.067 1.400 5715
1.376 3.104 1.405 6808
1.380 3.114 1.398 9664
1.382 3.117 1.388 9064
1.386 3.128 1.381 5536
1.436 3.240 1.415 6605
1.443 3.257 1.410 7088
1.451 3.274 1.405 7114
1.482 3.345 1.421 6411
1.484 3.349 1.411 7565
1.479 3.338 1.395 8620
1.481 3.342 1.384 9251
1.479 3.338 1.371 5628
1.481 3.341 1.361 3768
1.500 3.386 1.365 3275
1.517 3.423 1.367 5048
1.555 3.509 1.386 8054
1.557 3.512 1.375 10687
1.570 3.543 1.374 10862
1.575 3.553 1.365 11637
1.576 3.557 1.354 6835
1.639 3.698 1.390 5271
1.643 3.708 1.381 6681
1.648 3.719 1.371 4900
1.646 3.715 1.357 4476
1.645 3.711 1.343 4132
1.668 3.763 1.348 3614
1.737 3.919 1.385 3570
1.744 3.936 1.377 4159
1.712 3.863 1.340 3301
1.735 3.915 1.343 3647
1.742 3.932 1.335 5043
1.747 3.942 1.325 3996
1.770 3.994 1.327 3360
1.821 4.109 1.348 5023
1.822 4.112 1.335 5361
1.870 4.220 1.353 4337
1.869 4.217 1.337 7252
1.867 4.213 1.322 6649
1.871 4.223 1.311 4644
1.870 4.219 1.295 5393
1.874 4.229 1.284 7074
1.882 4.246 1.275 7369
1.889 4.263 1.265 6471
1.931 4.358 1.276 5232
1.942 4.382 1.267 6758
1.949 4.399 1.257 6281
1.966 4.437 1.252 5640
2.018 4.553 1.266 4126
2.025 4.570 1.255 5284
2.033 4.587 1.245 5469
2.084 4.703 1.257 4692
2.082 4.699 1.241 5087
2.087 4.709 1.227 4756
2.101 4.740 1.219 6639
2.102 4.743 1.204 7772
2.166 4.888 1.221 5275
2.164 4.884 1.204 6133
2.165 4.886 1.188 8718
2.167 4.889 1.173 6857
2.259 5.098 1.201 3436
2.219 5.008 1.166 3998
2.259 5.096 1.167 3043
2.250 5.078 1.147 2905
2.441 5.508 1.215 2600
2.445 5.518 1.199 3056
2.352 5.307 1.141 3464
2.353 5.309 1.124 3343
2.424 5.469 1.136 2720
2.434 5.493 1.123 2931
2.499 5.639 1.130 4644
2.497 5.634 1.111 4756
2.574 5.808 1.123 3077
2.658 5.997 1.136 3256
2.684 6.057 1.126 3109
2.720 6.138 1.120 2931
2.718 6.134 1.099 2883
2.684 6.057 1.067 2472
2.743 6.189 1.068 2365
2.740 6.184 1.047 1913
2.986 6.739 1.107 2032
2.991 6.749 1.087 3336
2.995 6.758 1.067 3189
2.999 6.768 1.046 2185
3.089 6.972 1.051 1801
3.087 6.967 1.028 1465
3.085 6.962 1.005 1375
3.242 7.317 1.026 1686
3.240 7.312 1.002 2258
3.238 7.307 0.978 2245
3.233 7.295 0.953 2247
3.246 7.326 0.933 1844
3.334 7.522 0.931 1875
3.695 8.339 0.991 1771
3.588 8.096 0.940 1693
3.592 8.105 0.915 1461
3.644 8.223 0.900 1375
3.645 8.225 0.874 1882
3.614 8.154 0.841 1754
3.602 8.127 0.813 2061
3.599 8.122 0.787 1696
3.706 8.362 0.779 1430
3.703 8.356 0.752 1394
3.701 8.351 0.725 1216
3.704 8.359 0.699 820
3.721 8.397 0.675 410
3.741 8.442 0.651 330
3.751 8.465 0.625 329
3.749 8.459 0.598 318
3.746 8.453 0.571 251
3.797 8.569 0.304 277
3.798 8.570 0.277 507
3.798 8.570 0.250 738
3.798 8.570 0.223 971
3.795 8.563 0.195 1343
3.795 8.563 0.168 1483
3.795 8.563 0.141 1186
3.747 8.455 0.114 993
3.750 8.462 0.087 1147
3.753 8.469 0.060 1319
3.785 8.541 0.033 1538
3.788 8.548 0.005 1570
3.788 8.548 -0.022 1393
3.711 8.373 -0.045 1215
3.746 8.453 -0.074 1012
3.749 8.459 -0.101 898
3.665 8.270 -0.122 1020
3.668 8.277 -0.148 849
3.680 8.305 -0.176 804
3.600 8.123 -0.194 702
3.599 8.122 -0.220 730
3.551 8.013 -0.241 771
3.570 8.055 -0.268 961
3.550 8.011 -0.292 1092
3.553 8.017 -0.318 1374
3.549 8.008 -0.343 1164
3.548 8.007 -0.368 956
3.477 7.847 -0.383 799
3.461 7.809 -0.405 1035
3.457 7.800 -0.429 862
3.392 7.654 -0.443 927
3.391 7.653 -0.467 926
3.394 7.658 -0.492 1076
3.393 7.657 -0.516 1224
3.392 7.655 -0.541 972
3.366 7.595 -0.560 811
3.362 7.586 -0.583 907
3.377 7.620 -0.611 1051
3.274 7.388 -0.611 1021
3.267 7.371 -0.633 1322
3.266 7.369 -0.657 1322
3.265 7.367 -0.680 1103
3.254 7.343 -0.701 902
3.234 7.298 -0.719 1013
3.233 7.295 -0.742 1160
3.232 7.293 -0.765 1160
3.231 7.291 -0.788 580
0.845 1.890 1.583 4176
0.846 1.894 1.578 8353
0.848 1.897 1.572 8140
0.850 1.901 1.566 6677
0.852 1.905 1.560 5427
0.859 1.921 1.563 6213
0.866 1.936 1.566 8069
0.867 1.940 1.560 10214
0.869 1.944 1.554 12360
0.871 1.948 1.548 12360
0.872 1.951 1.542 10983
0.877 1.961 1.540 9623
0.881 1.971 1.538 8134
0.891 1.993 1.545 7669
0.892 1.997 1.539 6807
0.897 2.006 1.537 6055
0.901 2.016 1.535 4897
0.919 2.056 1.555 5498
0.923 2.066 1.553 7020
0.925 2.070 1.546 8550
0.927 2.074 1.540 8601
0.926 2.071 1.529 8602
0.927 2.075 1.522 8568
0.932 2.085 1.520 7147
0.939 2.101 1.522 6221
0.943 2.111 1.520 7380
0.948 2.120 1.517 8935
0.949 2.124 1.510 11531
0.954 2.134 1.508 13186
0.958 2.144 1.505 12310
0.957 2.141 1.495 10118
0.953 2.132 1.480 8053
0.955 2.136 1.473 8612
0.956 2.139 1.466 9171
0.961 2.149 1.464 8222
0.962 2.153 1.457 7274
1.006 2.250 1.509 7334
1.005 2.248 1.498 7398
1.015 2.270 1.503 7076
1.016 2.274 1.496 5886
1.007 2.252 1.473 5303
1.071 2.395 1.550 4464
1.030 2.304 1.486 4344
1.065 2.384 1.524 6790
1.064 2.381 1.512 9753
1.077 2.410 1.520 10812
1.085 2.427 1.520 10179
1.092 2.443 1.520 8232
1.094 2.447 1.512 5910
1.072 2.399 1.475 4262
1.085 2.428 1.482 3326
1.107 2.477 1.500 6166
1.106 2.474 1.488 9229
1.110 2.484 1.484 10010
1.115 2.494 1.480 7824
1.131 2.530 1.490 4273
1.135 2.540 1.485 6174
1.140 2.550 1.481 9679
1.144 2.560 1.476 10185
1.146 2.564 1.468 9106
1.148 2.567 1.460 9247
1.149 2.571 1.452 8080
1.154 2.581 1.447 6781
1.158 2.591 1.443 7450
1.163 2.601 1.438 7368
1.214 2.716 1.486 10248
1.216 2.719 1.478 10713
1.217 2.723 1.469 8872
1.219 2.727 1.461 8614
1.220 2.730 1.452 11957
1.225 2.740 1.447 12525
1.226 2.744 1.438 11709
1.234 2.760 1.436 9702
1.253 2.804 1.446 9927
1.264 2.827 1.447 9296
1.277 2.857 1.450 8724
1.282 2.867 1.444 7863
1.286 2.877 1.438 8188
1.288 2.881 1.429 9664
1.292 2.891 1.423 10994
1.294 2.894 1.414 11504
1.298 2.904 1.408 10640
1.306 2.921 1.405 7613
1.358 3.039 1.445 5099
1.360 3.042 1.436 5782
1.328 2.972 1.394 6486
1.369 3.062 1.422 5496
1.370 3.066 1.413 5741
1.375 3.076 1.406 6078
1.385 3.100 1.405 8929
1.390 3.110 1.398 12091
1.391 3.113 1.388 10318
1.438 3.218 1.419 5649
1.446 3.235 1.415 6980
1.454 3.252 1.410 6609
1.464 3.276 1.408 6530
1.472 3.293 1.403 6312
1.495 3.344 1.411 6576
1.487 3.327 1.392 8317
1.488 3.330 1.382 9127
1.487 3.327 1.369 6004
1.491 3.337 1.361 4539
1.520 3.402 1.373 3533
1.528 3.419 1.367 6071
1.566 3.504 1.386 8454
1.568 3.507 1.375 10979
