-0.907 2.513 1.659 7651
-0.909 2.517 1.651 9291
-0.910 2.521 1.643 9373
-0.912 2.525 1.635 7919
-0.913 2.529 1.627 6358
-0.931 2.579 1.646 5781
-0.968 2.682 1.694 5966
-0.967 2.680 1.682 7701
-0.969 2.684 1.673 9560
-0.970 2.688 1.665 7639
-0.974 2.699 1.660 5830
-0.980 2.716 1.659 6247
-0.984 2.727 1.654 7002
-0.986 2.731 1.645 6040
-1.021 2.828 1.687 8168
-1.017 2.819 1.671 8134
-1.017 2.816 1.659 8375
-1.020 2.827 1.653 6397
-1.036 2.871 1.666 6458
-1.035 2.869 1.653 6945
-1.035 2.866 1.641 7512
-1.036 2.870 1.632 6046
-1.035 2.868 1.619 4668
-1.063 2.946 1.648 4963
-1.062 2.943 1.635 5594
-1.073 2.974 1.639 4775
-1.077 2.985 1.633 4632
-1.079 2.989 1.624 4632
-1.102 3.054 1.644 5606
-1.104 3.058 1.635 7805
-1.110 3.076 1.632 7770
-1.117 3.093 1.629 8628
-1.118 3.097 1.619 7679
-1.119 3.101 1.609 6730
-1.121 3.105 1.600 6730
-1.122 3.109 1.590 3365
-0.211 0.588 1.594 4878
-0.212 0.589 1.585 5085
-0.227 0.633 1.677 7517
-0.230 0.640 1.682 8082
-0.232 0.644 1.680 8711
-0.233 0.648 1.678 8711
-0.235 0.653 1.676 8809
-0.236 0.657 1.674 8908
-0.239 0.664 1.679 11139
-0.240 0.668 1.677 13642
-0.243 0.676 1.682 11457
-0.245 0.680 1.680 9540
-0.246 0.684 1.677 7209
-0.248 0.688 1.675 4682
-0.243 0.676 1.638 5711
-0.245 0.680 1.635 7467
-0.246 0.684 1.633 8871
-0.247 0.688 1.631 11477
-0.249 0.692 1.629 13475
-0.250 0.696 1.627 16307
-0.252 0.700 1.624 18915
-0.253 0.705 1.622 20256
-0.256 0.712 1.627 22237
-0.257 0.716 1.625 21278
-0.259 0.720 1.622 20494
-0.260 0.724 1.620 20214
-0.263 0.732 1.625 17024
-0.266 0.739 1.629 14423
-0.271 0.754 1.648 12854
-0.274 0.762 1.652 11920
-0.277 0.770 1.657 14854
-0.281 0.781 1.668 19731
-0.282 0.785 1.666 20699
-0.283 0.786 1.656 21760
-0.283 0.786 1.647 19357
-0.283 0.787 1.637 17865
-0.286 0.794 1.642 14581
-0.288 0.802 1.646 13930
-0.290 0.806 1.644 15768
-0.291 0.810 1.641 15533
-0.293 0.815 1.638 15500
-0.296 0.823 1.643 12451
-0.304 0.846 1.674 10245
-0.306 0.850 1.671 10900
-0.307 0.854 1.668 9037
-0.306 0.851 1.652 6492
-0.312 0.866 1.670 5938
-0.316 0.879 1.680 5786
-0.317 0.883 1.678 5900
-0.316 0.879 1.661 7958
-0.319 0.887 1.665 13091
-0.322 0.895 1.669 16348
-0.325 0.904 1.673 19626
-0.328 0.912 1.677 19926
-0.331 0.920 1.680 17091
-0.332 0.924 1.678 14041
-0.334 0.928 1.675 10057
-0.346 0.961 1.718 12316
-0.341 0.949 1.688 17042
-0.343 0.953 1.685 24355
-0.344 0.958 1.682 21842
-0.347 0.966 1.686 19895
-0.350 0.975 1.689 17455
-0.350 0.975 1.680 13072
-0.352 0.979 1.677 11512
-0.353 0.983 1.674 11611
-0.356 0.991 1.677 12143
-0.358 0.996 1.674 19574
-0.358 0.995 1.664 30101
-0.359 1.000 1.661 32497
-0.362 1.008 1.664 29278
-0.362 1.008 1.655 23903
-0.364 1.012 1.651 16820
-0.369 1.025 1.661 10429
-0.372 1.034 1.664 9307
-0.376 1.047 1.674 10261
-0.381 1.060 1.683 9817
-0.383 1.064 1.680 11133
-0.386 1.073 1.682 15045
-0.387 1.077 1.679 21664
-0.389 1.081 1.676 27683
-0.389 1.081 1.666 29114
-0.392 1.089 1.669 25682
-0.393 1.094 1.665 19753
-0.396 1.102 1.668 16857
-0.400 1.111 1.671 23339
-0.401 1.115 1.667 26773
-0.406 1.129 1.676 24444
-0.409 1.138 1.679 33858
-0.411 1.142 1.675 42051
-0.412 1.146 1.672 44294
-0.414 1.150 1.668 46947
-0.415 1.154 1.664 39369
-0.417 1.159 1.661 36667
-0.418 1.163 1.657 43937
-0.421 1.172 1.659 32672
-0.426 1.185 1.668 17385
-0.428 1.190 1.664 10858
-0.429 1.194 1.660 9777
-0.431 1.198 1.656 9453
-0.429 1.192 1.641 8349
-0.435 1.211 1.655 13299
-0.440 1.225 1.663 19965
-0.444 1.234 1.665 16341
-0.438 1.218 1.637 13173
-0.440 1.223 1.634 14149
-0.443 1.232 1.636 10982
-0.448 1.246 1.643 8356
-0.451 1.255 1.645 11997
-0.453 1.259 1.641 15258
-0.454 1.263 1.637 15874
-0.459 1.277 1.645 19082
-0.463 1.286 1.647 16086
-0.466 1.295 1.649 15354
-0.467 1.300 1.645 15546
-0.465 1.293 1.629 10505
-0.467 1.298 1.625 11504
-0.472 1.312 1.632 21280
-0.473 1.316 1.628 28730
-0.473 1.315 1.618 24696
-0.478 1.329 1.625 24725
-0.479 1.333 1.621 30055
-0.481 1.337 1.617 31215
-0.484 1.347 1.618 27254
-0.489 1.361 1.625 25403
-0.495 1.376 1.632 35172
-0.496 1.380 1.628 43806
-0.498 1.384 1.624 39054
-0.501 1.393 1.625 38895
-0.504 1.403 1.626 39688
-0.508 1.412 1.627 32937
-0.509 1.416 1.623 28441
-0.513 1.425 1.624 25290
-0.516 1.435 1.625 25543
-0.519 1.444 1.626 26319
-0.523 1.454 1.626 31708
-0.524 1.458 1.622 28266
-0.528 1.467 1.623 18691
-0.531 1.477 1.623 17110
-0.534 1.486 1.624 21482
-0.536 1.490 1.619 16248
-0.551 1.533 1.652 11126
-0.553 1.537 1.647 8998
-0.562 1.563 1.664 10267
-0.568 1.579 1.669 11407
-0.571 1.588 1.669 11663
-0.573 1.593 1.664 12931
-0.576 1.602 1.665 9142
-0.586 1.629 1.680 6757
-0.589 1.639 1.681 9988
-0.591 1.643 1.675 9599
-0.594 1.653 1.675 7015
-0.596 1.657 1.670 7829
-0.601 1.673 1.675 8466
-0.605 1.682 1.675 8979
-0.604 1.681 1.665 10247
-0.606 1.685 1.659 11284
-0.607 1.689 1.654 8874
-0.611 1.699 1.654 8958
-0.619 1.720 1.664 10028
-0.631 1.754 1.683 10919
-0.634 1.764 1.683 13534
-0.636 1.768 1.677 13585
-0.635 1.766 1.667 12481
-0.639 1.776 1.666 11664
-0.642 1.786 1.665 14205
-0.646 1.796 1.665 21818
-0.647 1.800 1.659 21378
-0.651 1.810 1.658 17525
-0.655 1.820 1.657 23373
-0.658 1.830 1.656 23371
-0.662 1.840 1.655 15346
-0.668 1.856 1.659 13284
-0.669 1.861 1.653 11384
-0.675 1.877 1.657 8624
-0.676 1.881 1.651 10397
-0.678 1.885 1.645 8097
-0.688 1.913 1.658 8182
-0.694 1.929 1.661 13627
-0.702 1.951 1.669 16228
-0.710 1.974 1.677 17429
-0.711 1.978 1.671 16323
-0.719 2.000 1.678 12356
-0.730 2.029 1.690 9713
-0.733 2.039 1.689 9414
-0.733 2.037 1.678 15383
-0.732 2.035 1.667 19285
-0.731 2.033 1.656 19469
-0.733 2.038 1.649 17991
-0.741 2.060 1.656 17692
-0.736 2.046 1.637 17537
-0.733 2.037 1.621 18588
-0.736 2.048 1.619 17498
-0.749 2.083 1.635 18429
-0.750 2.087 1.628 17633
-0.747 2.078 1.613 16416
-0.740 2.057 1.589 12226
-0.791 2.199 1.678 9002
-0.788 2.191 1.662 8594
-0.787 2.188 1.651 9683
-0.788 2.193 1.644 10120
-0.788 2.190 1.633 8656
-0.819 2.276 1.681 10351
-0.822 2.287 1.678 9027
-0.831 2.310 1.683 6725
-0.839 2.333 1.689 7549
-0.838 2.331 1.677 7068
-0.837 2.329 1.666 5365
-0.855 2.378 1.687 5091
-0.868 2.414 1.700 5870
-0.888 2.470 1.725 7763
-0.890 2.474 1.717 8709
-0.893 2.485 1.713 8506
-0.897 2.495 1.710 8843
-0.896 2.493 1.698 9871
-0.893 2.484 1.682 8741
-0.906 2.521 1.694 7244
-0.894 2.486 1.663 6532
-0.893 2.484 1.651 7031
-0.904 2.514 1.659 7935
-0.906 2.518 1.651 9499
-0.907 2.522 1.643 9462
-0.908 2.527 1.635 8178
-0.910 2.531 1.627 6808
-0.921 2.561 1.634 5704
-0.932 2.591 1.641 5477
-0.966 2.687 1.685 6723
-0.965 2.685 1.673 8479
-0.969 2.696 1.668 6956
-0.973 2.706 1.664 5535
-0.977 2.717 1.659 6082
-0.981 2.728 1.654 6964
-0.985 2.739 1.649 6160
-1.015 2.823 1.684 7703
-1.014 2.820 1.671 7813
-1.013 2.818 1.659 8170
-1.027 2.855 1.668 6605
-1.030 2.866 1.662 7146
-1.032 2.870 1.653 7374
-1.033 2.874 1.644 7646
-1.033 2.872 1.632 6007
-1.058 2.943 1.657 4701
-1.060 2.947 1.648 5129
-1.059 2.944 1.635 5665
-1.072 2.982 1.643 5043
-1.076 2.993 1.637 5103
-1.078 2.997 1.627 5103
-1.096 3.049 1.641 5777
-1.100 3.059 1.635 7787
-1.109 3.084 1.635 7742
-1.113 3.095 1.629 8881
-1.114 3.099 1.619 7881
-1.113 3.096 1.606 6904
-1.115 3.100 1.596 6904
-1.116 3.104 1.587 3452
-0.211 0.588 1.594 4852
-0.226 0.632 1.686 4975
-0.228 0.636 1.684 7174
-0.229 0.640 1.682 7622
-0.232 0.648 1.687 8108
-0.234 0.652 1.685 8108
-0.234 0.653 1.676 8009
-0.235 0.657 1.674 7949
-0.238 0.664 1.679 10134
-0.240 0.669 1.677 12532
-0.242 0.676 1.682 10591
-0.244 0.680 1.680 8822
-0.245 0.684 1.677 6587
-0.247 0.689 1.675 4163
-0.242 0.676 1.638 5271
-0.244 0.680 1.635 6938
-0.245 0.684 1.633 8311
-0.247 0.689 1.631 11212
-0.248 0.693 1.629 13461
-0.250 0.697 1.627 16617
-0.251 0.701 1.624 19553
-0.253 0.705 1.622 20356
-0.255 0.712 1.627 21797
-0.257 0.716 1.625 20525
-0.258 0.720 1.622 19405
-0.260 0.724 1.620 19040
-0.262 0.732 1.625 15917
-0.266 0.743 1.636 13417
-0.272 0.758 1.655 13520
-0.273 0.762 1.652 14096
-0.276 0.770 1.657 18419
-0.280 0.781 1.668 23800
-0.281 0.786 1.666 24285
-0.283 0.790 1.663 24770
-0.283 0.790 1.654 20658
-0.282 0.787 1.637 18063
-0.285 0.795 1.642 13999
-0.288 0.803 1.646 12447
-0.289 0.807 1.644 14201
-0.291 0.811 1.641 13667
-0.292 0.815 1.638 13319
-0.295 0.823 1.643 10898
-0.305 0.850 1.681 10155
-0.305 0.850 1.671 10580
-0.306 0.855 1.668 8538
-0.305 0.851 1.652 6200
-0.312 0.871 1.676 5157
-0.316 0.883 1.687 6170
-0.319 0.891 1.691 7283
-0.316 0.883 1.668 8283
-0.319 0.891 1.672 12381
-0.321 0.896 1.669 15284
-0.324 0.904 1.673 18937
-0.327 0.912 1.677 20177
-0.330 0.920 1.680 17914
-0.330 0.921 1.671 15133
-0.334 0.933 1.681 11166
-0.345 0.962 1.718 14402
-0.342 0.954 1.695 18919
-0.342 0.954 1.685 25852
-0.343 0.958 1.682 21531
-0.348 0.971 1.692 17881
-0.348 0.971 1.683 15890
-0.349 0.975 1.680 12945
-0.351 0.979 1.677 11747
-0.352 0.983 1.674 11551
-0.355 0.992 1.677 11964
-0.357 0.996 1.674 18619
-0.357 0.996 1.664 27953
-0.358 1.000 1.661 29886
-0.361 1.009 1.664 26871
-0.363 1.013 1.661 21404
-0.364 1.017 1.658 14859
-0.369 1.030 1.667 9081
-0.372 1.038 1.670 6429
-0.374 1.043 1.667 6584
-0.378 1.056 1.677 7687
-0.381 1.064 1.680 10800
-0.384 1.073 1.682 14411
-0.386 1.077 1.679 20184
-0.387 1.081 1.676 27030
-0.387 1.081 1.666 28883
-0.390 1.090 1.669 25133
-0.392 1.094 1.665 18719
-0.393 1.098 1.662 17212
-0.397 1.107 1.665 23337
-0.400 1.116 1.667 25468
-0.405 1.129 1.676 25000
-0.408 1.138 1.679 36733
-0.409 1.142 1.675 45432
-0.411 1.146 1.672 45536
-0.412 1.151 1.668 47292
-0.414 1.155 1.664 39686
-0.415 1.159 1.661 34612
-0.417 1.163 1.657 40216
-0.420 1.172 1.659 30988
-0.425 1.186 1.668 18137
-0.426 1.190 1.664 11597
-0.426 1.189 1.654 10863
-0.428 1.193 1.650 11325
-0.427 1.193 1.641 9377
-0.438 1.221 1.667 14843
-0.439 1.225 1.663 20715
-0.442 1.235 1.665 15881
-0.439 1.224 1.643 12655
-0.442 1.233 1.645 15324
-0.447 1.247 1.653 12953
-0.454 1.266 1.667 8563
-0.455 1.270 1.663 11122
-0.453 1.264 1.647 14461
-0.453 1.263 1.637 13495
-0.458 1.278 1.645 15159
-0.461 1.287 1.647 14356
-0.464 1.296 1.649 14937
-0.468 1.305 1.650 13987
-0.469 1.309 1.646 9622
-0.467 1.303 1.631 12092
-0.470 1.312 1.632 23296
-0.472 1.316 1.628 34017
-0.473 1.321 1.624 31231
-0.476 1.330 1.625 29018
-0.478 1.334 1.621 32144
-0.479 1.338 1.617 31592
-0.483 1.347 1.618 27225
-0.488 1.362 1.625 22349
-0.493 1.376 1.632 33074
-0.495 1.380 1.628 44136
-0.496 1.384 1.624 41829
-0.499 1.394 1.625 42692
-0.503 1.403 1.626 42434
-0.508 1.418 1.633 33529
-0.509 1.422 1.628 30399
-0.509 1.421 1.618 28239
-0.512 1.430 1.619 22562
-0.518 1.445 1.626 19261
-0.519 1.449 1.621 24516
-0.523 1.458 1.622 26267
-0.526 1.468 1.623 22016
-0.529 1.477 1.623 21733
-0.531 1.482 1.619 26052
-0.534 1.491 1.619 16843
-0.544 1.517 1.636 12383
-0.539 1.505 1.615 13949
-0.537 1.498 1.600 11237
-0.568 1.585 1.674 10773
-0.571 1.595 1.675 13193
-0.573 1.599 1.670 14507
-0.574 1.603 1.665 9868
-0.580 1.618 1.670 7529
-0.587 1.639 1.681 10973
-0.591 1.649 1.681 11452
-0.592 1.653 1.675 10975
-0.594 1.658 1.670 12163
-0.600 1.673 1.675 11830
-0.603 1.683 1.675 11392
-0.603 1.682 1.665 10942
-0.604 1.686 1.659 11600
-0.605 1.690 1.654 8847
-0.609 1.700 1.654 8425
-0.617 1.721 1.664 10522
-0.626 1.748 1.678 11599
-0.632 1.764 1.683 12072
-0.634 1.768 1.677 11523
-0.631 1.761 1.662 10078
-0.637 1.777 1.666 8260
-0.642 1.793 1.670 13618
-0.644 1.797 1.665 23247
-0.645 1.801 1.659 22436
-0.649 1.811 1.658 18132
-0.652 1.821 1.657 23869
-0.656 1.831 1.656 23226
-0.660 1.841 1.655 14612
-0.663 1.851 1.654 12155
-0.667 1.861 1.653 10495
-0.673 1.877 1.657 8066
-0.676 1.888 1.656 10020
-0.676 1.886 1.645 7644
-0.690 1.926 1.667 6432
-0.694 1.936 1.666 12255
-0.702 1.958 1.674 16158
-0.705 1.969 1.672 16847
-0.709 1.979 1.671 15222
-0.717 2.001 1.678 10826
-0.727 2.030 1.690 9716
-0.731 2.040 1.689 10017
-0.732 2.044 1.682 15948
-0.732 2.042 1.671 18642
-0.729 2.034 1.656 17839
-0.733 2.044 1.654 16687
-0.738 2.061 1.656 18486
-0.738 2.059 1.646 17722
-0.730 2.038 1.621 16411
-0.738 2.061 1.628 15762
-0.747 2.084 1.635 17269
-0.748 2.088 1.628 17343
-0.747 2.085 1.618 16497
-0.778 2.171 1.667 12285
-0.784 2.187 1.669 9486
-0.785 2.191 1.662 8733
-0.784 2.189 1.651 10098
-0.786 2.193 1.644 10947
-0.785 2.191 1.633 9463
-0.818 2.284 1.685 9445
-0.820 2.288 1.678 8481
-0.837 2.336 1.700 7170
-0.839 2.341 1.693 8226
-0.838 2.339 1.681 7409
-0.835 2.330 1.666 5401
-0.850 2.373 1.683 5215
-0.868 2.421 1.704 6127
-0.885 2.471 1.725 8211
-0.889 2.481 1.721 9305
-0.891 2.486 1.713 9457
-0.894 2.496 1.710 10139
-0.894 2.494 1.698 11654
-0.891 2.485 1.682 10510
-0.904 2.522 1.694 8174
-0.891 2.487 1.663 7129
-0.890 2.485 1.651 6921
-0.901 2.515 1.659 7975
-0.903 2.519 1.651 9452
-0.904 2.523 1.643 9264
-0.906 2.528 1.635 8097
-0.907 2.532 1.627 6875
-0.911 2.542 1.623 5721
-0.926 2.586 1.637 5151
-0.966 2.695 1.689 5625
-0.965 2.693 1.677 7112
-0.966 2.697 1.668 6020
-0.970 2.708 1.664 5023
-0.974 2.718 1.659 5748
-0.980 2.736 1.658 6928
-0.984 2.746 1.653 6383
-1.012 2.824 1.684 7137
-1.011 2.821 1.671 7453
-1.010 2.819 1.659 7970
-1.021 2.850 1.664 6875
-1.027 2.867 1.662 7847
-1.026 2.865 1.650 7774
-1.030 2.875 1.644 7729
-1.032 2.879 1.635 6022
-1.052 2.937 1.654 4927
-1.054 2.941 1.644 5310
-1.082 3.020 1.672 6035
-1.071 2.990 1.646 5531
-1.073 2.994 1.637 5670
-1.074 2.998 1.627 5670
-1.090 3.043 1.638 6053
-1.097 3.061 1.635 7751
-1.105 3.085 1.635 7662
-1.109 3.096 1.629 8956
-1.111 3.100 1.619 7932
-1.110 3.097 1.606 7005
-1.111 3.101 1.596 7005
-1.113 3.105 1.587 3502
-0.209 0.588 1.594 4729
-0.226 0.635 1.693 5092
-0.228 0.640 1.691 6855
-0.229 0.644 1.689 7274
-0.231 0.648 1.687 7693
-0.232 0.652 1.685 7693
-0.234 0.656 1.683 7230
-0.234 0.658 1.674 6875
-0.237 0.665 1.679 8829
-0.238 0.669 1.677 10892
-0.241 0.677 1.682 9206
-0.242 0.681 1.680 7666
-0.244 0.685 1.677 5666
-0.245 0.689 1.675 3500
-0.241 0.677 1.638 4645
-0.242 0.681 1.635 6201
-0.244 0.685 1.633 7453
-0.245 0.689 1.631 10598
-0.247 0.693 1.629 13068
-0.248 0.697 1.627 16445
-0.250 0.701 1.624 19626
-0.252 0.709 1.629 19995
-0.254 0.713 1.627 20906
-0.255 0.717 1.625 19261
-0.257 0.721 1.622 17727
-0.258 0.725 1.620 17183
-0.261 0.733 1.625 14168
-0.266 0.747 1.643 12153
-0.271 0.762 1.662 14174
-0.271 0.763 1.652 16169
-0.274 0.771 1.657 21989
-0.277 0.778 1.661 28142
-0.280 0.786 1.666 28031
-0.281 0.790 1.663 28235
-0.281 0.791 1.654 22430
-0.280 0.788 1.637 18441
-0.283 0.795 1.642 13490
-0.289 0.811 1.660 10541
-0.287 0.807 1.644 11866
-0.289 0.811 1.641 11377
-0.290 0.816 1.638 11095
-0.293 0.823 1.643 9514
-0.303 0.851 1.681 10549
-0.304 0.855 1.678 10682
-0.304 0.855 1.668 8359
-0.304 0.855 1.659 6131
-0.313 0.879 1.690 5307
-0.316 0.887 1.694 7577
-0.317 0.892 1.691 9135
-0.317 0.892 1.681 9200
-0.318 0.892 1.672 11800
-0.320 0.900 1.676 14054
-0.322 0.905 1.673 17877
-0.325 0.913 1.677 20062
-0.326 0.917 1.674 18401
-0.328 0.921 1.671 16305
-0.334 0.938 1.688 12429
-0.343 0.963 1.718 16264
-0.340 0.954 1.695 20759
-0.340 0.955 1.685 27318
-0.341 0.959 1.682 21492
-0.346 0.971 1.692 16134
-0.346 0.971 1.683 14557
-0.346 0.971 1.673 13044
-0.347 0.976 1.670 12289
-0.350 0.984 1.674 11903
-0.355 0.997 1.683 11729
-0.356 1.001 1.680 16892
-0.356 1.001 1.671 24273
-0.356 1.001 1.661 25735
-0.359 1.009 1.664 23325
-0.361 1.013 1.661 17743
-0.362 1.018 1.658 10980
-0.368 1.035 1.674 6984
-0.370 1.039 1.670 4824
-0.373 1.048 1.674 5415
-0.376 1.056 1.677 7675
-0.379 1.065 1.680 10896
-0.381 1.069 1.676 14727
-0.384 1.078 1.679 21149
-0.385 1.082 1.676 27453
-0.385 1.082 1.666 28630
-0.388 1.091 1.669 24835
-0.390 1.095 1.665 19562
-0.390 1.094 1.656 18903
-0.393 1.103 1.658 23806
-0.397 1.117 1.667 28099
-0.404 1.135 1.682 30589
-0.407 1.144 1.685 40959
-0.407 1.143 1.675 46598
-0.408 1.147 1.672 43755
-0.410 1.152 1.668 44950
-0.411 1.156 1.664 37830
-0.413 1.160 1.661 30191
-0.414 1.164 1.657 33874
-0.417 1.173 1.659 27557
-0.424 1.192 1.674 18229
-0.424 1.191 1.664 11036
-0.422 1.185 1.648 11281
-0.423 1.190 1.644 13350
-0.427 1.199 1.647 11350
-0.437 1.227 1.673 17485
-0.438 1.231 1.669 21746
-0.441 1.240 1.671 14598
-0.441 1.240 1.661 12797
-0.441 1.239 1.651 17027
-0.444 1.248 1.653 15294
-0.449 1.262 1.661 10476
-0.452 1.271 1.663 11679
-0.452 1.270 1.653 13575
-0.452 1.269 1.643 10688
-0.455 1.279 1.645 10716
-0.458 1.288 1.647 11745
-0.462 1.297 1.649 13328
-0.465 1.306 1.650 11655
-0.468 1.315 1.652 9363
-0.464 1.304 1.631 13152
-0.467 1.313 1.632 23867
-0.469 1.317 1.628 36919
-0.470 1.322 1.624 36062
-0.474 1.331 1.625 31856
-0.475 1.335 1.621 32282
-0.477 1.339 1.617 30162
-0.480 1.348 1.618 25920
-0.485 1.363 1.625 19981
-0.490 1.377 1.632 30238
-0.492 1.381 1.628 41478
-0.493 1.385 1.624 40362
-0.496 1.395 1.625 41182
-0.500 1.404 1.626 41309
-0.505 1.419 1.633 30788
-0.506 1.423 1.628 29554
-0.508 1.427 1.624 28977
-0.507 1.426 1.614 21989
-0.513 1.441 1.620 14949
-0.516 1.450 1.621 16274
-0.521 1.465 1.627 23110
-0.525 1.475 1.628 25634
-0.526 1.479 1.623 28502
-0.528 1.483 1.619 32227
-0.529 1.487 1.614 20582
-0.531 1.491 1.609 18771
-0.534 1.500 1.610 23750
-0.533 1.499 1.600 19268
-0.535 1.503 1.595 11114
-0.570 1.601 1.680 14864
-0.569 1.600 1.670 15733
-0.569 1.599 1.659 11136
-0.576 1.620 1.670 9369
-0.582 1.635 1.675 12487
-0.587 1.651 1.681 14783
-0.589 1.655 1.675 15930
-0.590 1.659 1.670 16759
-0.596 1.674 1.675 15137
-0.599 1.684 1.675 12720
-0.601 1.689 1.670 9995
-0.600 1.687 1.659 10206
-0.604 1.697 1.659 8656
-0.605 1.701 1.654 9039
-0.611 1.717 1.659 12339
-0.621 1.744 1.673 14085
-0.624 1.754 1.673 11875
-0.628 1.764 1.672 9983
-0.625 1.757 1.657 8362
-0.625 1.755 1.646 6400
-0.639 1.794 1.670 14314
-0.640 1.798 1.665 24104
-0.641 1.802 1.659 21963
-0.645 1.812 1.658 17593
-0.649 1.822 1.657 23737
-0.650 1.827 1.652 22738
-0.654 1.837 1.651 13638
-0.659 1.853 1.654 10354
-0.663 1.863 1.653 8962
-0.686 1.927 1.695 8318
-0.683 1.919 1.679 10110
-0.672 1.887 1.645 6766
-0.692 1.945 1.681 6030
-0.694 1.950 1.675 12595
-0.698 1.960 1.674 16682
-0.701 1.970 1.672 16234
-0.703 1.974 1.666 13693
-0.713 2.003 1.678 8767
-0.723 2.031 1.690 9307
-0.727 2.042 1.689 10420
-0.728 2.046 1.682 16206
-0.727 2.044 1.671 18094
-0.727 2.042 1.660 16570
-0.730 2.052 1.658 16277
-0.734 2.062 1.656 19027
-0.736 2.067 1.650 18005
-0.735 2.065 1.639 14819
-0.738 2.075 1.637 14361
-0.744 2.091 1.639 15385
-0.746 2.095 1.633 16099
-0.745 2.093 1.622 15831
-0.771 2.166 1.663 15163
-0.770 2.164 1.652 10932
-0.781 2.193 1.662 9056
-0.780 2.191 1.651 10750
-0.781 2.195 1.644 11935
-0.780 2.193 1.633 10547
-0.813 2.285 1.685 8252
-0.815 2.290 1.678 7540
-0.832 2.338 1.700 7905
-0.836 2.349 1.697 8864
-0.835 2.347 1.685 7606
-0.839 2.357 1.682 5312
-0.845 2.374 1.683 4985
-0.869 2.442 1.716 6118
-0.880 2.472 1.725 8313
-0.884 2.483 1.721 9564
-0.885 2.487 1.713 10123
-0.889 2.498 1.710 11226
-0.888 2.496 1.698 13198
-0.885 2.487 1.682 12166
-0.898 2.524 1.694 9000
-0.886 2.489 1.663 7566
-0.885 2.487 1.651 6469
-0.898 2.524 1.662 7566
-0.897 2.521 1.651 8843
-0.899 2.525 1.643 8487
-0.900 2.529 1.635 7411
-0.902 2.534 1.627 6319
-0.905 2.544 1.623 5327
-0.923 2.594 1.641 4853
-0.960 2.697 1.689 4615
-0.959 2.695 1.677 5817
-0.963 2.705 1.672 5100
-0.964 2.710 1.664 4395
-0.971 2.727 1.663 5345
-0.977 2.744 1.661 6887
-0.981 2.755 1.656 6671
-0.994 2.793 1.666 6909
-1.000 2.810 1.664 7118
-1.004 2.821 1.659 7623
-1.015 2.852 1.664 7014
-1.019 2.863 1.659 8425
-1.020 2.867 1.650 7975
-1.024 2.878 1.644 7505
-1.028 2.888 1.639 5970
-1.073 3.013 1.691 5845
-1.074 3.018 1.682 6720
-1.076 3.022 1.672 7596
-1.077 3.026 1.663 6532
-1.066 2.996 1.637 6265
-1.068 3.001 1.627 6265
-1.084 3.045 1.638 6397
-1.088 3.056 1.632 7737
-1.099 3.087 1.635 7320
-1.103 3.098 1.629 8582
-1.104 3.102 1.619 7559
-1.103 3.100 1.606 6730
-1.105 3.104 1.596 6730
-1.106 3.108 1.587 3365
-0.208 0.589 1.594 4739
-0.225 0.636 1.693 4774
-0.226 0.640 1.691 6229
-0.228 0.644 1.689 6679
-0.229 0.649 1.687 7128
-0.231 0.653 1.685 7128
-0.232 0.657 1.683 6467
-0.232 0.658 1.674 5849
-0.235 0.665 1.679 7610
-0.237 0.670 1.677 9413
-0.239 0.677 1.682 7989
-0.242 0.685 1.687 6655
-0.243 0.689 1.685 4849
-0.238 0.673 1.640 2943
-0.239 0.677 1.638 4052
-0.241 0.681 1.635 5402
-0.241 0.682 1.626 6500
-0.244 0.690 1.631 9653
-0.245 0.694 1.629 12228
-0.246 0.698 1.627 15738
-0.248 0.702 1.624 19062
-0.251 0.709 1.629 19210
-0.252 0.713 1.627 19690
-0.253 0.718 1.625 17775
-0.255 0.722 1.622 15972
-0.256 0.726 1.620 15287
-0.258 0.730 1.618 12346
-0.272 0.769 1.685 11779
-0.271 0.767 1.669 14319
-0.270 0.763 1.652 17164
-0.272 0.771 1.657 24028
-0.275 0.779 1.661 30721
-0.278 0.787 1.666 30332
-0.279 0.791 1.663 30513
-0.280 0.791 1.654 23665
-0.278 0.788 1.637 18689
-0.280 0.792 1.635 13117
-0.289 0.819 1.673 8907
-0.285 0.808 1.644 9513
-0.285 0.808 1.634 9374
-0.287 0.812 1.632 9442
-0.291 0.824 1.643 8607
-0.301 0.851 1.681 11007
-0.302 0.856 1.678 10886
-0.302 0.856 1.668 8432
-0.302 0.856 1.659 6358
-0.311 0.880 1.690 5935
-0.314 0.888 1.694 8817
-0.315 0.892 1.691 10520
-0.315 0.893 1.681 10085
-0.317 0.897 1.679 11294
-0.318 0.901 1.676 12854
-0.320 0.905 1.673 16601
-0.323 0.914 1.677 19429
-0.324 0.918 1.674 18461
-0.326 0.922 1.671 16952
-0.331 0.939 1.688 13450
-0.340 0.963 1.718 17542
-0.339 0.959 1.702 22313
-0.337 0.955 1.685 28678
-0.337 0.955 1.676 21553
-0.340 0.964 1.679 14593
-0.342 0.968 1.676 13532
-0.343 0.972 1.673 13236
-0.345 0.976 1.670 13292
-0.348 0.985 1.674 12863
-0.352 0.998 1.683 12059
-0.354 1.002 1.680 15760
-0.354 1.002 1.671 21059
-0.355 1.006 1.667 21476
-0.358 1.015 1.671 19277
-0.360 1.019 1.667 14265
-0.366 1.036 1.683 8820
-0.367 1.040 1.680 6783
-0.367 1.040 1.670 4763
-0.369 1.044 1.667 5506
-0.373 1.057 1.677 9673
-0.377 1.066 1.680 13707
-0.378 1.070 1.676 17158
-0.381 1.079 1.679 22459
-0.383 1.083 1.676 28587
-0.382 1.083 1.666 30906
-0.386 1.092 1.669 26829
-0.387 1.096 1.665 21411
-0.387 1.095 1.656 21405
-0.390 1.104 1.658 26284
-0.395 1.118 1.667 30231
-0.401 1.136 1.682 30992
-0.404 1.145 1.685 40167
-0.404 1.144 1.675 44309
-0.406 1.148 1.672 39926
-0.407 1.153 1.668 41127
-0.409 1.157 1.664 35150
-0.410 1.161 1.661 26709
-0.411 1.165 1.657 29050
-0.416 1.179 1.665 24761
-0.423 1.197 1.680 17469
-0.423 1.197 1.670 9843
-0.419 1.186 1.648 11533
-0.422 1.195 1.650 15659
-0.425 1.204 1.653 14602
-0.434 1.228 1.673 19651
-0.435 1.232 1.669 21816
-0.438 1.241 1.671 13487
-0.438 1.241 1.661 13070
-0.440 1.245 1.657 18673
-0.441 1.249 1.653 16960
-0.444 1.258 1.655 12569
-0.449 1.272 1.663 12042
-0.449 1.271 1.653 13294
-0.451 1.276 1.649 10120
-0.452 1.280 1.645 8993
-0.455 1.289 1.647 10446
-0.457 1.293 1.643 11258
-0.460 1.302 1.645 10097
-0.461 1.306 1.640 9455
-0.461 1.305 1.631 12938
-0.464 1.315 1.632 21324
-0.466 1.319 1.628 35223
-0.467 1.323 1.624 36963
-0.470 1.332 1.625 32774
-0.472 1.336 1.621 33233
-0.473 1.340 1.617 29687
-0.477 1.349 1.618 23646
-0.478 1.353 1.614 19231
-0.487 1.378 1.632 28269
-0.488 1.383 1.628 38238
-0.490 1.387 1.624 35542
-0.493 1.396 1.625 34451
-0.498 1.411 1.631 37978
-0.502 1.420 1.633 25760
-0.505 1.430 1.634 27625
-0.504 1.428 1.624 30055
-0.506 1.432 1.619 21592
-0.511 1.447 1.626 13888
-0.520 1.473 1.643 13467
-0.522 1.477 1.638 21168
-0.523 1.481 1.633 27789
-0.523 1.480 1.623 34685
-0.522 1.478 1.613 37714
-0.524 1.482 1.609 27293
-0.527 1.492 1.609 29271
-0.528 1.496 1.605 33766
-0.530 1.500 1.600 26896
-0.531 1.504 1.595 15848
-0.566 1.603 1.680 15615
-0.566 1.601 1.670 15642
-0.565 1.600 1.659 11726
-0.571 1.615 1.665 10423
-0.578 1.636 1.675 13170
-0.583 1.652 1.681 16926
-0.585 1.656 1.675 18966
-0.586 1.660 1.670 19852
-0.590 1.670 1.670 17433
-0.595 1.686 1.675 12704
-0.597 1.690 1.670 8090
-0.598 1.694 1.664 7904
-0.600 1.698 1.659 7707
-0.601 1.702 1.654 9621
-0.607 1.718 1.659 14569
-0.614 1.740 1.668 17019
-0.618 1.750 1.668 13690
-0.619 1.754 1.662 10861
-0.621 1.758 1.657 9223
-0.624 1.768 1.656 7036
-0.634 1.796 1.670 14516
-0.636 1.800 1.665 22800
-0.637 1.804 1.659 19924
-0.641 1.814 1.658 16607
-0.644 1.824 1.657 23229
-0.646 1.828 1.652 22275
-0.647 1.832 1.646 13008
-0.653 1.848 1.650 8978
-0.658 1.864 1.653 7817
-0.681 1.928 1.695 8088
-0.680 1.927 1.684 9674
-0.678 1.919 1.669 6465
-0.690 1.953 1.686 7471
-0.689 1.951 1.675 14073
-0.693 1.961 1.674 17386
-0.694 1.966 1.668 15590
-0.696 1.970 1.662 12201
-0.708 2.004 1.678 7098
-0.718 2.033 1.690 8580
-0.720 2.037 1.684 10513
-0.723 2.048 1.682 16052
-0.722 2.046 1.671 17288
-0.722 2.044 1.660 15428
-0.728 2.060 1.663 15772
-0.731 2.070 1.661 18847
-0.733 2.075 1.654 17546
-0.732 2.073 1.644 14014
-0.762 2.157 1.694 14574
-0.763 2.162 1.688 15057
-0.763 2.160 1.676 15641
-0.762 2.157 1.665 16698
-0.763 2.162 1.659 17531
-0.765 2.166 1.652 13305
-0.773 2.189 1.658 9989
-0.775 2.193 1.651 11562
-0.776 2.197 1.644 12702
-0.777 2.201 1.637 11384
-0.777 2.199 1.626 8989
-0.780 2.209 1.624 6628
-0.829 2.347 1.704 8399
-0.830 2.351 1.697 9280
-0.830 2.349 1.685 7603
-0.833 2.359 1.682 4906
-0.855 2.421 1.712 4364
-0.866 2.451 1.720 5759
-0.872 2.468 1.721 7953
-0.878 2.485 1.721 9236
-0.879 2.490 1.713 10090
-0.883 2.500 1.710 11500
-0.882 2.498 1.698 13697
-0.879 2.490 1.682 12789
-0.881 2.494 1.674 9563
-0.880 2.491 1.663 7481
-0.877 2.483 1.647 5789
-0.892 2.526 1.662 6819
-0.891 2.523 1.651 7836
-0.893 2.528 1.643 7364
-0.894 2.532 1.635 6361
-0.896 2.536 1.627 5378
-0.902 2.553 1.627 4640
-0.922 2.610 1.649 4713
-0.956 2.706 1.693 3509
-0.955 2.703 1.681 4608
-0.956 2.708 1.672 4250
-0.958 2.712 1.664 3892
-0.964 2.729 1.663 4864
-0.972 2.753 1.665 6534
-0.974 2.758 1.656 6636
-0.985 2.788 1.662 7189
-0.991 2.806 1.660 6921
-0.995 2.817 1.655 7172
-1.008 2.854 1.664 6912
-1.012 2.865 1.659 8489
-1.013 2.869 1.650 7747
-1.017 2.880 1.644 6987
-1.021 2.891 1.639 5708
-1.065 3.016 1.691 6892
-1.067 3.020 1.682 7728
-1.068 3.025 1.672 8565
-1.070 3.029 1.663 7210
-1.059 2.999 1.637 6596
-1.061 3.003 1.627 6596
-1.076 3.048 1.638 6500
-1.080 3.059 1.632 7480
-1.091 3.090 1.635 6741
-1.095 3.101 1.629 7852
-1.097 3.105 1.619 6886
-1.093 3.095 1.603 6216
-1.095 3.099 1.593 6216
-1.096 3.103 1.584 3108
-0.207 0.589 1.594 4721
-0.224 0.636 1.693 4592
-0.225 0.640 1.691 5818
-0.227 0.645 1.689 6180
-0.228 0.649 1.687 6541
-0.230 0.653 1.685 6541
-0.231 0.657 1.683 5742
-0.232 0.658 1.674 4967
-0.234 0.666 1.679 6538
-0.236 0.670 1.677 8134
-0.238 0.677 1.682 6941
-0.241 0.685 1.687 5861
-0.243 0.689 1.685 4258
-0.237 0.674 1.640 2583
-0.239 0.678 1.638 3595
-0.240 0.682 1.635 4730
-0.240 0.682 1.626 5767
-0.243 0.690 1.631 8900
-0.244 0.694 1.629 11548
-0.246 0.698 1.627 15163
-0.247 0.702 1.624 18594
-0.250 0.710 1.629 18519
-0.251 0.714 1.627 18642
-0.253 0.718 1.625 16558
-0.254 0.722 1.622 14562
-0.256 0.726 1.620 13698
-0.257 0.730 1.618 10788
-0.271 0.770 1.685 11731
-0.270 0.767 1.669 14251
-0.269 0.764 1.652 17620
-0.272 0.772 1.657 25246
-0.274 0.779 1.661 32363
-0.277 0.787 1.666 31940
-0.279 0.791 1.663 32263
-0.280 0.795 1.661 24738
-0.278 0.788 1.637 18958
-0.279 0.793 1.635 12960
-0.290 0.823 1.680 7695
-0.285 0.808 1.644 7301
-0.285 0.809 1.634 7746
-0.287 0.817 1.638 8329
-0.297 0.844 1.677 8342
-0.300 0.852 1.681 11671
-0.301 0.856 1.678 11236
-0.301 0.856 1.668 8701
-0.301 0.857 1.659 6652
-0.310 0.880 1.690 6589
-0.313 0.889 1.694 9755
-0.314 0.893 1.691 11523
-0.314 0.893 1.681 10747
-0.316 0.897 1.679 10991
-0.317 0.901 1.676 11900
-0.319 0.906 1.673 15419
-0.322 0.914 1.677 18312
-0.323 0.918 1.674 17621
-0.325 0.922 1.671 16954
-0.332 0.943 1.694 14562
-0.339 0.964 1.718 19024
-0.338 0.960 1.702 23865
-0.336 0.956 1.685 29557
-0.336 0.956 1.676 21466
-0.338 0.960 1.673 13716
-0.339 0.964 1.670 12621
-0.342 0.973 1.673 13356
-0.344 0.977 1.670 14457
-0.347 0.985 1.674 13981
-0.351 0.998 1.683 12280
-0.354 1.007 1.687 14626
-0.353 1.002 1.671 17950
-0.354 1.006 1.667 18043
-0.357 1.015 1.671 16657
-0.360 1.023 1.674 12023
-0.366 1.041 1.690 7982
-0.368 1.045 1.686 6916
-0.365 1.036 1.664 4807
-0.368 1.045 1.667 4642
-0.374 1.062 1.683 8442
-0.375 1.066 1.680 12007
-0.378 1.075 1.682 15566
-0.380 1.079 1.679 21799
-0.381 1.084 1.676 29490
-0.381 1.083 1.666 33211
-0.384 1.092 1.669 29027
-0.386 1.096 1.665 23172
-0.386 1.096 1.656 23195
-0.389 1.105 1.658 27055
-0.392 1.113 1.661 28727
-0.398 1.131 1.676 27275
-0.401 1.140 1.679 36032
-0.403 1.145 1.675 40834
-0.404 1.149 1.672 36427
-0.406 1.153 1.668 37877
-0.407 1.157 1.664 32707
-0.409 1.161 1.661 22978
-0.412 1.170 1.663 23584
-0.417 1.184 1.671 22142
-0.423 1.203 1.686 17078
-0.423 1.202 1.676 8927
-0.416 1.182 1.642 13405
-0.421 1.196 1.650 20254
-0.424 1.205 1.653 20550
-0.432 1.229 1.673 22316
-0.434 1.233 1.669 21348
-0.437 1.242 1.671 12029
-0.437 1.241 1.661 12614
-0.438 1.245 1.657 19473
-0.440 1.249 1.653 18738
-0.441 1.254 1.649 15510
-0.444 1.263 1.651 12606
-0.448 1.272 1.653 12882
-0.449 1.276 1.649 11121
-0.451 1.280 1.645 9408
-0.452 1.284 1.641 9549
-0.454 1.288 1.637 9111
-0.455 1.292 1.633 10190
-0.456 1.297 1.629 11373
-0.460 1.306 1.631 12944
-0.463 1.315 1.632 18547
-0.464 1.319 1.628 31672
-0.466 1.323 1.624 35469
-0.469 1.332 1.625 31843
-0.470 1.336 1.621 32886
-0.472 1.341 1.617 30202
-0.475 1.350 1.618 22076
-0.484 1.375 1.637 18636
-0.482 1.368 1.621 28140
-0.487 1.383 1.628 35571
-0.486 1.382 1.618 30143
-0.495 1.407 1.636 28421
-0.499 1.417 1.637 33487
-0.500 1.421 1.633 21679
-0.505 1.436 1.639 25672
-0.505 1.434 1.629 29008
-0.506 1.438 1.625 20241
-0.513 1.459 1.636 14283
-0.521 1.479 1.648 14356
-0.522 1.483 1.643 19999
-0.522 1.482 1.633 28649
-0.521 1.480 1.623 39975
-0.521 1.479 1.613 42459
-0.522 1.483 1.609 35018
-0.523 1.487 1.604 40417
-0.527 1.497 1.605 43171
-0.528 1.501 1.600 33916
-0.530 1.505 1.595 20347
-0.562 1.598 1.675 16031
-0.564 1.602 1.670 15338
-0.563 1.601 1.659 12204
-0.569 1.616 1.665 11265
-0.576 1.637 1.675 13366
-0.582 1.653 1.681 18360
-0.581 1.651 1.670 21115
-0.585 1.661 1.670 22213
-0.588 1.671 1.670 19507
-0.592 1.681 1.670 13268
-0.595 1.691 1.670 6628
-0.599 1.701 1.670 5767
-0.600 1.705 1.664 6331
-0.602 1.709 1.659 10082
-0.605 1.719 1.659 17047
-0.613 1.740 1.668 20316
-0.614 1.745 1.663 16684
-0.616 1.749 1.657 12651
-0.619 1.759 1.657 10195
-0.623 1.769 1.656 8049
-0.632 1.796 1.670 14436
-0.634 1.800 1.665 20694
-0.635 1.805 1.659 16863
-0.639 1.815 1.658 15062
-0.642 1.825 1.657 22597
-0.644 1.829 1.652 21947
-0.645 1.833 1.646 12694
-0.651 1.849 1.650 8101
-0.657 1.865 1.653 7253
-0.681 1.935 1.700 7494
-0.681 1.933 1.689 8695
-0.676 1.919 1.669 6342
-0.686 1.948 1.681 8829
-0.687 1.952 1.675 15444
-0.691 1.962 1.674 17885
-0.692 1.966 1.668 14995
-0.694 1.971 1.662 11001
-0.695 1.975 1.655 6705
-0.714 2.028 1.686 8030
-0.717 2.038 1.684 10492
-0.721 2.048 1.682 15715
-0.720 2.046 1.671 16442
-0.720 2.044 1.660 14491
-0.725 2.061 1.663 15280
-0.729 2.071 1.661 18452
-0.731 2.075 1.654 16978
-0.732 2.079 1.648 13208
-0.760 2.158 1.694 15345
-0.761 2.162 1.688 16433
-0.760 2.160 1.676 17489
-0.760 2.158 1.665 18561
-0.761 2.162 1.659 19504
-0.763 2.167 1.652 15825
-0.769 2.183 1.654 11840
-0.772 2.194 1.651 12745
-0.774 2.198 1.644 13564
-0.775 2.202 1.637 12231
-0.777 2.206 1.630 10078
-0.778 2.210 1.624 7723
-0.826 2.347 1.704 8789
-0.828 2.352 1.697 9604
-0.827 2.350 1.685 7539
-0.829 2.354 1.678 4343
-0.859 2.441 1.724 4024
-0.863 2.452 1.720 5332
-0.869 2.469 1.721 7565
-0.873 2.480 1.717 8843
-0.877 2.491 1.713 9868
-0.880 2.501 1.710 11509
-0.880 2.499 1.698 13794
-0.877 2.490 1.682 12958
-0.878 2.495 1.674 9769
-0.877 2.492 1.663 7199
-0.874 2.484 1.647 5140
-0.892 2.533 1.666 5962
-0.891 2.531 1.655 6809
-0.890 2.528 1.643 6266
-0.891 2.533 1.635 5276
-0.918 2.609 1.669 4483
-0.920 2.613 1.661 4592
-0.921 2.617 1.652 4700
-0.925 2.628 1.648 3174
-0.954 2.711 1.684 3448
-0.956 2.715 1.676 3321
-0.957 2.720 1.667 3195
-0.970 2.757 1.677 4463
-0.970 2.754 1.665 6107
-0.973 2.765 1.660 6506
-0.982 2.789 1.662 7408
-0.988 2.807 1.660 6871
-0.992 2.818 1.655 6855
-1.005 2.855 1.664 6824
-1.007 2.859 1.655 8410
-1.010 2.870 1.650 7457
-1.014 2.881 1.644 6499
-1.061 3.013 1.701 6104
-1.062 3.017 1.691 7714
-1.064 3.021 1.682 8480
-1.065 3.026 1.672 9246
-1.067 3.030 1.663 7715
-1.056 3.000 1.637 6855
-1.057 3.004 1.627 6855
-1.071 3.042 1.635 6666
-1.075 3.053 1.628 7362
-1.081 3.071 1.625 6310
-1.092 3.102 1.629 7099
-1.091 3.099 1.616 6227
-1.090 3.097 1.603 5717
-1.091 3.101 1.593 5717
-1.093 3.105 1.584 2858
-0.206 0.590 1.594 4445
-0.222 0.637 1.693 4566
-0.224 0.641 1.691 5698
-0.225 0.645 1.689 5879
-0.227 0.649 1.687 6059
-0.228 0.654 1.685 6059
-0.230 0.658 1.683 5124
-0.230 0.659 1.674 4221
-0.233 0.666 1.679 5545
-0.234 0.671 1.677 6901
-0.237 0.678 1.682 5860
-0.239 0.685 1.687 4922
-0.241 0.690 1.685 3579
-0.235 0.674 1.640 2247
-0.237 0.678 1.638 3188
-0.237 0.679 1.628 4176
-0.239 0.683 1.626 5156
-0.241 0.690 1.631 8303
-0.243 0.695 1.629 11017
-0.244 0.699 1.627 14660
-0.245 0.703 1.624 18132
-0.248 0.710 1.629 17903
-0.250 0.714 1.627 17749
-0.251 0.718 1.625 15520
-0.252 0.722 1.622 13317
-0.254 0.727 1.620 12160
-0.268 0.766 1.687 10237
-0.269 0.770 1.685 11694
-0.268 0.767 1.669 14111
-0.268 0.768 1.659 17820
-0.270 0.772 1.657 26052
-0.272 0.780 1.661 33550
-0.274 0.784 1.659 33184
-0.277 0.792 1.663 33701
-0.277 0.792 1.654 25630
-0.276 0.789 1.637 19171
-0.277 0.793 1.635 12826
-0.289 0.827 1.687 6696
-0.293 0.839 1.698 6480
-0.283 0.809 1.634 6209
-0.285 0.817 1.638 7658
-0.296 0.848 1.683 8776
-0.298 0.852 1.681 12076
-0.299 0.857 1.678 11383
-0.299 0.857 1.668 8976
-0.299 0.857 1.659 7037
-0.308 0.881 1.690 7450
-0.311 0.889 1.694 10538
-0.312 0.894 1.691 12082
-0.312 0.894 1.681 10935
-0.314 0.898 1.679 10609
-0.315 0.902 1.676 11318
-0.317 0.906 1.673 14468
-0.318 0.911 1.670 16978
-0.320 0.915 1.667 16338
-0.322 0.923 1.671 16304
-0.330 0.944 1.694 15090
-0.335 0.960 1.711 19600
-0.336 0.961 1.702 24621
-0.334 0.957 1.685 29965
-0.334 0.957 1.676 21199
-0.334 0.957 1.666 13318
-0.337 0.965 1.670 11781
-0.340 0.973 1.673 12954
-0.341 0.978 1.670 15125
-0.344 0.986 1.674 15047
-0.349 0.999 1.683 12557
-0.352 1.007 1.687 13668
-0.350 1.003 1.671 14931
-0.352 1.007 1.667 14582
-0.356 1.020 1.677 14265
-0.359 1.029 1.680 9936
-0.365 1.046 1.696 7225
-0.365 1.046 1.686 6541
-0.365 1.046 1.677 4341
-0.367 1.050 1.674 3663
-0.368 1.054 1.670 6957
-0.373 1.067 1.680 10479
-0.374 1.072 1.676 14692
-0.376 1.076 1.673 20987
-0.377 1.080 1.669 28629
-0.379 1.084 1.666 33033
-0.382 1.093 1.669 30118
-0.383 1.097 1.665 25157
-0.385 1.101 1.662 24739
-0.386 1.105 1.658 27602
-0.389 1.114 1.661 27889
-0.394 1.128 1.670 23746
-0.399 1.141 1.679 30669
-0.400 1.146 1.675 35177
-0.402 1.150 1.672 30838
-0.403 1.154 1.668 32990
-0.405 1.158 1.664 29158
-0.406 1.162 1.661 19641
-0.409 1.171 1.663 19593
-0.416 1.190 1.678 20621
-0.420 1.204 1.686 16774
-0.408 1.169 1.634 9529
-0.413 1.183 1.642 14486
-0.420 1.202 1.656 23612
-0.423 1.211 1.659 25442
-0.428 1.225 1.667 24880
-0.431 1.234 1.669 21444
-0.434 1.243 1.671 11589
-0.434 1.242 1.661 12581
-0.435 1.246 1.657 19092
-0.437 1.251 1.653 19248
-0.438 1.255 1.649 17587
-0.440 1.259 1.645 14072
-0.445 1.273 1.653 12584
-0.446 1.277 1.649 11252
-0.448 1.281 1.645 10097
-0.447 1.280 1.635 8595
-0.449 1.284 1.631 7322
-0.452 1.294 1.633 10862
-0.453 1.298 1.629 12522
-0.456 1.307 1.631 11857
-0.460 1.316 1.632 15237
-0.461 1.320 1.628 27624
-0.463 1.324 1.624 33197
-0.466 1.334 1.625 30535
-0.467 1.338 1.621 32015
-0.469 1.342 1.617 29668
-0.476 1.361 1.630 22029
-0.475 1.360 1.620 20052
-0.475 1.359 1.610 30440
-0.482 1.379 1.622 33991
-0.483 1.383 1.618 25396
-0.494 1.414 1.641 25400
-0.495 1.418 1.637 31106
-0.497 1.422 1.633 20602
-0.502 1.437 1.639 26072
-0.503 1.441 1.635 30039
-0.505 1.445 1.630 18927
-0.510 1.460 1.636 14575
-0.517 1.480 1.648 15861
-0.522 1.495 1.654 19332
-0.516 1.478 1.628 28532
-0.516 1.476 1.618 43830
-0.517 1.480 1.613 46181
-0.518 1.484 1.609 43011
-0.520 1.488 1.604 49247
-0.523 1.498 1.605 49050
-0.525 1.502 1.600 39252
-0.524 1.500 1.590 24293
-0.559 1.599 1.675 16758
-0.558 1.598 1.664 15464
-0.560 1.602 1.659 12659
-0.565 1.617 1.665 12137
-0.572 1.638 1.675 13446
-0.578 1.654 1.681 19254
-0.577 1.652 1.670 22440
-0.581 1.662 1.670 23914
-0.584 1.672 1.670 21319
-0.586 1.676 1.665 14378
-0.589 1.686 1.665 6871
-0.596 1.708 1.675 4744
-0.598 1.712 1.669 5363
-0.597 1.710 1.659 10995
-0.601 1.720 1.659 19688
-0.608 1.742 1.668 23564
-0.610 1.746 1.663 19958
-0.611 1.750 1.657 14537
-0.615 1.760 1.657 10980
-0.618 1.770 1.656 8487
-0.628 1.798 1.670 13697
-0.629 1.802 1.665 18109
-0.633 1.812 1.664 13757
-0.636 1.822 1.663 13656
-0.638 1.826 1.657 21960
-0.639 1.830 1.652 21452
-0.641 1.835 1.646 12091
-0.646 1.851 1.650 7457
-0.652 1.867 1.653 7123
-0.676 1.937 1.700 6917
-0.676 1.935 1.689 7501
-0.679 1.945 1.688 6003
-0.683 1.955 1.686 10117
-0.684 1.960 1.680 17005
-0.686 1.964 1.674 18481
-0.687 1.968 1.668 14463
-0.685 1.960 1.652 10128
-0.688 1.970 1.651 6795
-0.707 2.023 1.681 7987
-0.710 2.034 1.679 10585
-0.714 2.044 1.678 15447
-0.715 2.048 1.671 15553
-0.715 2.046 1.660 13573
-0.718 2.056 1.658 14737
-0.724 2.073 1.661 17957
-0.726 2.077 1.654 16156
-0.727 2.081 1.648 12388
-0.754 2.160 1.694 15744
-0.756 2.164 1.688 17667
-0.755 2.162 1.676 19519
-0.754 2.160 1.665 20611
-0.756 2.164 1.659 21656
-0.760 2.175 1.656 18739
-0.763 2.185 1.654 14733
-0.767 2.196 1.651 14279
-0.768 2.200 1.644 14466
-0.770 2.204 1.637 12921
-0.771 2.208 1.630 11188
-0.773 2.212 1.624 9004
-0.821 2.349 1.704 9180
-0.822 2.354 1.697 9975
-0.821 2.352 1.685 7555
-0.780 2.234 1.600 4075
-0.856 2.450 1.728 3675
-0.859 2.460 1.724 4892
-0.863 2.471 1.721 7195
-0.867 2.482 1.717 8400
-0.871 2.493 1.713 9488
-0.874 2.503 1.710 11296
-0.874 2.501 1.698 13584
-0.871 2.493 1.682 12764
-0.872 2.497 1.674 9642
-0.871 2.494 1.663 6730
-0.864 2.473 1.639 4464
-0.886 2.535 1.666 5107
-0.885 2.533 1.655 5755
-0.886 2.537 1.647 5197
-0.888 2.541 1.639 4168
-0.912 2.611 1.669 4748
-0.913 2.615 1.661 4780
-0.915 2.619 1.652 4812
-0.919 2.630 1.648 3322
-0.950 2.720 1.688 2826
-0.952 2.724 1.680 2723
-0.976 2.795 1.708 3019
-0.964 2.759 1.677 4190
-0.963 2.757 1.665 5659
-0.967 2.768 1.660 6324
-0.975 2.792 1.662 7554
-0.979 2.803 1.657 6863
-0.983 2.813 1.652 6545
-0.998 2.858 1.664 6677
-1.000 2.862 1.655 8266
-1.001 2.866 1.646 7108
-1.007 2.884 1.644 6009
-1.053 3.016 1.701 6727
-1.055 3.020 1.691 8381
-1.056 3.024 1.682 9045
-1.058 3.028 1.672 9710
-1.059 3.032 1.663 8066
-1.049 3.003 1.637 7054
-1.050 3.007 1.627 7054
-1.064 3.045 1.635 6775
-1.067 3.056 1.628 7281
-1.071 3.067 1.622 6031
-1.084 3.105 1.629 6384
-1.083 3.102 1.616 5623
-1.082 3.099 1.603 5256
-1.084 3.103 1.593 5256
-1.085 3.107 1.584 2628
-0.205 0.590 1.594 4092
-0.221 0.637 1.693 4412
-0.222 0.641 1.691 5430
-0.224 0.646 1.689 5461
-0.225 0.650 1.687 5493
-0.227 0.654 1.685 5493
-0.228 0.658 1.683 4449
-0.229 0.659 1.674 3483
-0.231 0.667 1.679 4495
-0.233 0.671 1.677 5587
-0.235 0.678 1.682 4724
-0.238 0.686 1.687 3995
-0.239 0.690 1.685 2937
-0.234 0.675 1.640 1944
-0.235 0.679 1.638 2812
-0.236 0.679 1.628 3675
-0.236 0.680 1.619 4585
-0.240 0.691 1.631 7754
-0.241 0.695 1.629 10537
-0.243 0.699 1.627 14196
-0.245 0.707 1.631 17765
-0.247 0.711 1.629 17406
-0.248 0.715 1.627 17046
-0.249 0.719 1.625 14634
-0.252 0.727 1.629 12253
-0.252 0.727 1.620 10656
-0.266 0.767 1.687 10536
-0.267 0.771 1.685 11754
-0.268 0.772 1.675 13948
-0.267 0.769 1.659 17851
-0.268 0.773 1.657 26664
-0.271 0.781 1.661 34584
-0.272 0.785 1.659 34503
-0.275 0.793 1.663 35212
-0.275 0.793 1.654 26743
-0.275 0.793 1.644 19657
-0.275 0.794 1.635 12935
-0.289 0.832 1.694 6220
-0.291 0.840 1.698 6758
-0.293 0.844 1.695 6795
-0.285 0.822 1.645 7527
-0.293 0.845 1.677 9503
-0.296 0.853 1.681 12611
-0.296 0.853 1.671 11558
-0.298 0.858 1.668 9314
-0.299 0.862 1.666 7771
-0.306 0.882 1.690 8561
-0.309 0.890 1.694 11305
-0.310 0.894 1.691 12479
-0.312 0.898 1.688 10977
-0.312 0.899 1.679 10256
-0.313 0.903 1.676 10965
-0.315 0.907 1.673 13718
-0.316 0.911 1.670 15831
-0.318 0.916 1.667 15191
-0.320 0.924 1.671 15510
-0.328 0.944 1.694 15430
-0.335 0.965 1.718 20121
-0.333 0.961 1.702 25422
-0.332 0.957 1.685 30718
-0.332 0.957 1.676 21232
-0.332 0.957 1.666 13371
-0.334 0.961 1.663 11205
-0.338 0.974 1.673 12450
-0.339 0.978 1.670 15364
-0.342 0.987 1.674 15573
-0.347 1.000 1.683 12518
-0.351 1.013 1.693 12627
-0.350 1.008 1.677 12564
-0.350 1.008 1.667 11473
-0.354 1.021 1.677 11754
-0.360 1.038 1.693 9235
-0.363 1.047 1.696 8510
-0.363 1.047 1.686 9559
-0.365 1.051 1.683 8464
-0.366 1.055 1.680 8250
-0.368 1.059 1.677 10134
-0.371 1.068 1.680 12963
-0.372 1.072 1.676 16620
-0.373 1.077 1.673 21267
-0.375 1.081 1.669 29004
-0.376 1.085 1.666 35519
-0.379 1.094 1.669 33847
-0.381 1.098 1.665 28187
-0.382 1.102 1.662 26640
-0.384 1.106 1.658 28051
-0.385 1.110 1.655 27542
-0.392 1.129 1.670 22647
-0.396 1.142 1.679 26089
-0.398 1.146 1.675 27940
-0.398 1.146 1.665 24103
-0.401 1.155 1.668 27131
-0.402 1.159 1.664 24573
-0.404 1.163 1.661 15654
-0.407 1.172 1.663 15341
-0.413 1.191 1.678 19188
-0.418 1.205 1.686 16489
-0.404 1.165 1.628 11281
-0.411 1.184 1.642 14781
-0.419 1.207 1.662 27245
-0.422 1.217 1.665 30614
-0.425 1.226 1.667 27470
-0.428 1.235 1.669 21049
-0.430 1.239 1.665 11102
-0.431 1.243 1.661 12292
-0.431 1.242 1.651 17668
-0.434 1.251 1.653 18587
-0.436 1.256 1.649 18807
-0.437 1.260 1.645 15060
-0.440 1.269 1.647 12024
-0.443 1.278 1.649 10890
-0.445 1.282 1.645 10194
-0.444 1.281 1.635 8206
-0.446 1.285 1.631 7658
-0.449 1.295 1.633 12674
-0.451 1.299 1.629 13408
-0.454 1.308 1.631 10525
-0.457 1.317 1.632 11316
-0.458 1.321 1.628 22506
-0.460 1.325 1.624 29387
-0.463 1.335 1.625 28104
-0.464 1.339 1.621 30609
-0.466 1.343 1.617 28731
-0.474 1.368 1.635 25574
-0.472 1.361 1.620 23810
-0.472 1.360 1.610 32563
-0.477 1.375 1.617 32945
-0.484 1.395 1.629 22426
-0.493 1.420 1.647 25331
-0.494 1.424 1.643 28504
-0.494 1.423 1.633 23606
-0.499 1.438 1.639 30932
-0.500 1.442 1.635 31749
-0.502 1.446 1.630 17884
-0.509 1.466 1.642 14147
-0.516 1.487 1.654 17981
-0.519 1.496 1.654 18971
-0.513 1.479 1.628 29196
-0.512 1.477 1.618 46877
-0.514 1.481 1.613 49504
-0.515 1.485 1.609 49166
-0.517 1.489 1.604 54499
-0.520 1.499 1.605 52564
-0.521 1.503 1.600 43520
-0.521 1.501 1.590 27722
-0.553 1.595 1.669 17877
-0.553 1.593 1.659 16370
-0.558 1.609 1.665 13868
-0.561 1.619 1.665 13500
-0.567 1.634 1.670 14106
-0.574 1.655 1.681 19770
-0.574 1.654 1.670 22968
-0.577 1.664 1.670 24886
-0.581 1.673 1.670 22833
-0.582 1.678 1.665 16023
-0.583 1.682 1.660 8704
-0.591 1.703 1.670 5221
-0.594 1.713 1.669 5570
-0.594 1.712 1.659 12713
-0.597 1.722 1.659 22468
-0.605 1.743 1.668 26307
-0.606 1.747 1.663 22677
-0.606 1.746 1.652 16606
-0.611 1.761 1.657 12477
-0.615 1.771 1.656 8349
-0.626 1.805 1.675 11787
-0.628 1.809 1.669 14769
-0.629 1.813 1.664 10969
-0.633 1.823 1.663 12711
-0.634 1.828 1.657 21246
-0.635 1.832 1.652 20832
-0.637 1.836 1.646 11455
-0.655 1.888 1.678 7306
-0.650 1.874 1.658 7410
-0.672 1.938 1.700 6305
-0.674 1.942 1.694 6076
-0.675 1.947 1.688 5638
-0.679 1.957 1.686 11376
-0.680 1.961 1.680 18697
-0.682 1.965 1.674 19202
-0.683 1.969 1.668 14135
-0.678 1.955 1.648 10035
-0.688 1.984 1.660 7252
-0.700 2.019 1.677 8425
-0.706 2.035 1.679 10788
-0.710 2.045 1.678 15103
-0.711 2.050 1.671 14548
-0.710 2.048 1.660 12666
-0.714 2.058 1.658 14147
-0.720 2.074 1.661 17204
-0.721 2.079 1.654 14940
-0.725 2.089 1.652 11306
-0.748 2.155 1.690 15910
-0.751 2.166 1.688 18840
-0.751 2.164 1.676 21769
-0.750 2.162 1.665 22858
-0.751 2.166 1.659 23912
-0.755 2.176 1.656 22173
-0.759 2.187 1.654 18282
-0.762 2.197 1.651 16459
-0.764 2.201 1.644 15699
-0.767 2.212 1.642 13680
-0.767 2.210 1.630 12361
-0.768 2.214 1.624 10412
-0.816 2.351 1.704 9636
-0.817 2.355 1.697 10403
-0.816 2.353 1.685 7621
-0.776 2.236 1.600 4011
-0.850 2.451 1.728 3284
-0.854 2.462 1.724 4528
-0.858 2.473 1.721 6874
-0.859 2.477 1.713 8017
-0.865 2.494 1.713 9029
-0.869 2.505 1.710 10966
-0.868 2.503 1.698 13176
-0.865 2.494 1.682 12317
-0.867 2.499 1.674 9275
-0.864 2.490 1.659 6197
-0.856 2.468 1.635 3922
-0.880 2.537 1.666 4190
-0.879 2.535 1.655 4676
-0.881 2.539 1.647 4240
-0.907 2.615 1.681 3997
-0.909 2.619 1.673 5309
-0.910 2.624 1.664 5335
-0.912 2.628 1.656 5362
-0.915 2.639 1.652 3942
-0.921 2.656 1.651 2805
-0.953 2.746 1.691 2442
-0.973 2.803 1.711 3088
-0.958 2.761 1.677 4030
-0.959 2.765 1.668 5354
-0.963 2.776 1.663 6253
-0.969 2.794 1.662 7761
-0.973 2.805 1.657 6903
-0.977 2.815 1.652 6317
-0.992 2.860 1.664 6509
-0.994 2.864 1.655 8038
-0.995 2.868 1.646 6775
-1.041 3.000 1.703 6148
-1.045 3.011 1.697 7386
-1.048 3.022 1.691 9026
-1.050 3.026 1.682 9601
-1.051 3.030 1.672 10175
-1.053 3.035 1.663 8445
-1.042 3.005 1.637 7303
-1.044 3.009 1.627 7303
-1.057 3.047 1.635 6972
-1.061 3.058 1.628 7344
-1.065 3.069 1.622 5962
-1.078 3.107 1.629 5776
-1.077 3.104 1.616 5121
-1.076 3.101 1.603 4841
-1.077 3.105 1.593 4841
-1.079 3.109 1.584 2420
-0.204 0.590 1.594 3904
-0.220 0.637 1.693 4409
-0.222 0.642 1.691 5254
-0.223 0.646 1.689 5007
-0.223 0.647 1.680 4795
-0.225 0.651 1.678 4795
-0.226 0.656 1.676 3813
-0.212 0.615 1.574 3116
-0.229 0.664 1.672 3522
-0.232 0.671 1.677 4259
-0.234 0.679 1.682 3607
-0.237 0.686 1.687 3122
-0.238 0.691 1.685 2355
-0.234 0.678 1.647 1630
-0.234 0.679 1.638 2400
-0.235 0.680 1.628 3139
-0.235 0.681 1.619 4021
-0.239 0.691 1.631 7107
-0.241 0.699 1.636 9948
-0.243 0.703 1.634 13586
-0.244 0.707 1.631 17224
-0.246 0.711 1.629 16768
-0.247 0.715 1.627 16313
-0.250 0.723 1.632 13831
-0.251 0.727 1.629 11387
-0.251 0.727 1.620 9283
-0.265 0.767 1.687 10691
-0.266 0.771 1.685 11627
-0.267 0.772 1.675 13501
-0.265 0.769 1.659 17318
-0.267 0.773 1.657 26532
-0.270 0.781 1.661 34761
-0.271 0.785 1.659 35089
-0.274 0.793 1.663 36028
-0.274 0.793 1.654 27541
-0.274 0.794 1.644 20185
-0.274 0.794 1.635 13139
-0.287 0.832 1.694 6372
-0.289 0.837 1.691 7472
-0.290 0.841 1.689 7778
-0.284 0.822 1.645 7898
-0.292 0.845 1.677 10188
-0.293 0.850 1.674 12950
-0.295 0.854 1.671 11589
-0.296 0.858 1.668 9483
-0.299 0.866 1.672 8338
-0.303 0.878 1.683 9192
-0.306 0.886 1.687 11521
-0.309 0.895 1.691 12336
-0.310 0.899 1.688 10600
-0.312 0.903 1.685 9836
-0.313 0.907 1.682 10807
-0.315 0.912 1.680 13023
-0.315 0.912 1.670 14400
-0.316 0.916 1.667 13546
-0.319 0.924 1.671 14365
-0.326 0.945 1.694 15489
-0.333 0.966 1.718 20241
-0.332 0.962 1.702 25820
-0.331 0.958 1.685 31135
-0.329 0.954 1.669 21231
-0.329 0.954 1.660 13692
-0.332 0.962 1.663 10843
-0.336 0.975 1.673 11890
-0.338 0.979 1.670 15139
-0.341 0.987 1.674 15523
-0.344 0.996 1.677 12376
-0.350 1.013 1.693 12391
-0.351 1.017 1.690 11242
-0.353 1.022 1.687 9109
-0.357 1.035 1.696 9829
-0.360 1.043 1.699 9166
-0.360 1.043 1.690 10454
-0.362 1.047 1.686 13111
-0.363 1.052 1.683 12422
-0.364 1.056 1.680 11328
-0.366 1.060 1.677 12658
-0.369 1.069 1.680 16270
-0.370 1.073 1.676 21587
-0.372 1.077 1.673 27084
-0.373 1.081 1.669 33164
-0.375 1.086 1.666 37771
-0.376 1.090 1.663 34736
-0.379 1.099 1.665 27491
-0.381 1.103 1.662 25512
-0.381 1.102 1.652 27088
-0.384 1.111 1.655 27741
-0.388 1.125 1.664 24789
-0.393 1.138 1.673 23599
-0.394 1.142 1.669 21528
-0.396 1.146 1.665 17975
-0.399 1.155 1.668 20845
-0.400 1.160 1.664 19130
-0.402 1.164 1.661 12114
-0.405 1.173 1.663 13110
-0.410 1.187 1.671 18574
-0.414 1.200 1.680 16890
-0.402 1.166 1.628 13194
-0.409 1.185 1.642 15720
-0.417 1.208 1.662 30932
-0.420 1.217 1.665 35010
-0.423 1.226 1.667 29445
-0.426 1.235 1.669 19941
-0.428 1.240 1.665 10289
-0.429 1.244 1.661 11844
-0.429 1.243 1.651 15143
-0.431 1.247 1.647 17472
-0.434 1.256 1.649 20111
-0.435 1.260 1.645 15761
-0.438 1.270 1.647 11200
-0.441 1.279 1.649 9946
-0.443 1.283 1.645 9521
-0.444 1.287 1.641 8915
-0.447 1.296 1.643 10709
-0.449 1.300 1.639 15038
-0.450 1.304 1.635 13837
-0.454 1.314 1.636 9476
-0.455 1.318 1.632 7733
-0.455 1.317 1.622 17785
-0.458 1.326 1.624 25480
-0.461 1.335 1.625 24357
-0.462 1.339 1.621 27531
-0.464 1.343 1.617 27309
-0.472 1.368 1.635 28436
-0.470 1.362 1.620 26427
-0.470 1.361 1.610 32573
-0.475 1.375 1.617 31826
-0.482 1.395 1.629 22095
