0.566 0.691 1.695 10418
0.567 0.692 1.686 14236
0.569 0.695 1.683 11533
0.583 0.711 1.708 9484
0.593 0.724 1.725 9002
0.599 0.731 1.729 11994
0.602 0.735 1.726 13960
0.605 0.738 1.724 14670
0.608 0.742 1.721 14409
0.610 0.745 1.718 13916
0.616 0.752 1.722 13232
0.619 0.756 1.719 10905
0.625 0.762 1.722 8549
0.625 0.763 1.713 5730
0.628 0.766 1.710 4075
0.631 0.770 1.707 4329
0.636 0.777 1.711 9050
0.642 0.784 1.714 15162
0.645 0.787 1.711 17252
0.648 0.791 1.708 14144
0.650 0.794 1.705 13899
0.653 0.798 1.702 19440
0.656 0.801 1.699 22645
0.665 0.812 1.709 22180
0.676 0.825 1.725 21981
0.682 0.833 1.729 18679
0.685 0.836 1.725 14727
0.691 0.843 1.729 14511
0.694 0.847 1.725 14317
0.694 0.847 1.716 9243
0.699 0.854 1.719 5484
0.705 0.861 1.722 6767
0.714 0.872 1.731 8305
0.720 0.879 1.735 9573
0.726 0.886 1.738 8461
0.729 0.890 1.734 8633
0.729 0.890 1.724 11201
0.729 0.890 1.715 12445
0.729 0.889 1.705 10499
0.734 0.897 1.708 12281
0.740 0.904 1.711 18868
0.743 0.907 1.707 19467
0.749 0.915 1.710 15293
0.758 0.926 1.719 14189
0.767 0.937 1.728 18683
0.770 0.940 1.724 20535
0.773 0.944 1.721 18770
0.776 0.947 1.717 16015
0.776 0.947 1.707 11853
0.782 0.954 1.710 13679
0.785 0.958 1.706 20640
0.791 0.965 1.708 23956
0.797 0.973 1.711 23708
0.800 0.976 1.707 18166
0.803 0.980 1.703 10949
0.809 0.987 1.706 7320
0.818 0.999 1.714 15022
0.824 1.006 1.716 27236
0.833 1.018 1.724 28717
0.840 1.025 1.726 21250
0.839 1.025 1.717 15597
0.839 1.024 1.707 12364
0.845 1.032 1.709 14194
0.851 1.039 1.711 21602
0.851 1.039 1.701 24435
0.857 1.046 1.703 26056
0.863 1.054 1.705 31993
0.869 1.061 1.706 30784
0.872 1.065 1.702 22584
0.872 1.064 1.692 18205
0.875 1.068 1.688 14421
0.888 1.084 1.702 10258
0.897 1.096 1.709 11436
0.900 1.099 1.705 12882
0.903 1.103 1.701 13673
0.906 1.106 1.697 15688
0.909 1.110 1.692 13007
0.898 1.096 1.665 7213
0.915 1.117 1.684 8724
0.914 1.116 1.674 12570
0.917 1.119 1.669 12543
0.927 1.131 1.677 8888
0.933 1.139 1.678 9330
0.932 1.138 1.668 13647
0.939 1.146 1.669 14636
0.952 1.162 1.682 15301
0.958 1.170 1.683 13284
0.961 1.173 1.678 11090
0.960 1.172 1.668 26617
0.967 1.180 1.669 38854
0.970 1.184 1.665 34149
0.972 1.187 1.660 28051
0.979 1.195 1.661 22734
0.985 1.203 1.662 28091
0.988 1.206 1.657 28640
0.987 1.205 1.647 21494
0.986 1.204 1.637 21420
0.996 1.216 1.643 12782
1.043 1.273 1.704 10952
1.046 1.277 1.699 14649
1.053 1.285 1.699 21730
1.059 1.293 1.700 27552
1.062 1.297 1.695 18588
1.069 1.305 1.695 8944
1.075 1.313 1.695 12531
1.078 1.316 1.690 14427
1.085 1.324 1.691 11657
1.091 1.332 1.691 12333
1.098 1.340 1.691 13376
1.104 1.348 1.691 13392
1.111 1.356 1.691 8711
1.122 1.369 1.696 6572
1.124 1.373 1.691 7265
1.131 1.381 1.691 9180
1.138 1.389 1.691 10314
1.144 1.397 1.690 11371
1.147 1.401 1.685 11811
1.166 1.423 1.700 12161
1.168 1.426 1.695 12922
1.171 1.430 1.689 15807
1.190 1.452 1.704 19019
1.204 1.470 1.713 14877
1.223 1.493 1.727 12501
1.226 1.496 1.722 9944
1.232 1.505 1.721 7561
1.235 1.508 1.715 9740
1.242 1.516 1.714 19011
1.245 1.520 1.709 27076
1.244 1.519 1.698 24941
1.247 1.522 1.692 15762
1.262 1.540 1.701 12258
1.264 1.544 1.695 11049
1.271 1.552 1.694 8329
1.290 1.575 1.707 7457
1.293 1.579 1.701 7808
1.292 1.577 1.690 8841
1.299 1.586 1.689 12452
1.306 1.594 1.688 15733
1.312 1.602 1.686 11454
1.340 1.635 1.708 18092
1.343 1.639 1.702 21413
1.345 1.642 1.696 17736
1.348 1.646 1.689 16390
1.355 1.654 1.688 16501
1.362 1.663 1.686 12104
1.394 1.701 1.711 8539
1.401 1.710 1.709 11279
1.404 1.713 1.703 10266
1.394 1.702 1.683 8886
1.422 1.736 1.703 9967
1.429 1.744 1.701 10017
1.456 1.778 1.721 6587
1.455 1.777 1.710 12392
1.458 1.780 1.703 16914
1.457 1.778 1.692 16982
1.460 1.782 1.685 12966
1.479 1.806 1.696 10999
1.491 1.820 1.698 15719
1.498 1.828 1.695 20948
1.500 1.832 1.688 25976
1.503 1.835 1.681 25575
1.502 1.834 1.670 20748
1.505 1.837 1.663 11167
1.541 1.882 1.689 8691
1.544 1.885 1.682 7232
1.551 1.894 1.679 5626
1.559 1.903 1.676 5602
1.570 1.917 1.677 5654
1.581 1.930 1.678 8532
1.580 1.929 1.667 10717
1.583 1.932 1.659 9429
1.594 1.946 1.660 9060
1.597 1.949 1.653 10512
1.600 1.953 1.645 8998
1.594 1.946 1.630 7713
1.614 1.970 1.638 7104
1.625 1.984 1.639 7253
1.632 1.993 1.635 7298
1.635 1.996 1.627 5589
1.681 2.053 1.659 5211
1.746 2.131 1.705 7143
1.748 2.134 1.697 10328
1.747 2.133 1.685 11235
1.745 2.131 1.673 12001
1.744 2.129 1.661 13064
1.764 2.154 1.668 16907
1.767 2.157 1.660 21954
1.770 2.161 1.652 23815
1.768 2.159 1.640 25888
1.775 2.167 1.635 22274
1.782 2.176 1.631 18891
1.781 2.174 1.619 14209
1.783 2.177 1.610 9545
1.786 2.181 1.602 7266
1.789 2.184 1.594 4986
1.796 2.193 1.589 4033
1.875 2.289 1.641 4786
1.887 2.303 1.639 4259
1.939 2.367 1.669 3904
1.915 2.337 1.639 4396
1.922 2.346 1.634 5021
1.920 2.344 1.621 3863
2.022 2.469 1.688 3539
2.061 2.517 1.706 3625
2.064 2.520 1.696 4735
2.067 2.524 1.686 4296
2.056 2.510 1.667 4080
2.059 2.514 1.657 4080
2.071 2.528 1.654 4742
2.078 2.537 1.648 5579
2.081 2.541 1.638 5000
2.084 2.544 1.629 4420
2.082 2.542 1.616 3227
2.195 2.680 1.683 3515
2.198 2.683 1.672 3515
2.201 2.687 1.662 1757
0.430 0.522 1.710 10759
0.433 0.526 1.708 9666
0.429 0.522 1.684 9705
0.432 0.525 1.682 8320
0.426 0.518 1.651 7041
0.429 0.522 1.649 7057
0.453 0.551 1.719 8804
0.454 0.552 1.710 11650
0.455 0.553 1.700 13166
0.453 0.551 1.684 15370
0.456 0.555 1.682 16796
0.457 0.555 1.672 18324
0.462 0.561 1.677 20706
0.465 0.565 1.675 23450
0.468 0.568 1.673 23317
0.470 0.572 1.671 29385
0.473 0.575 1.669 35846
0.478 0.581 1.673 37067
0.481 0.585 1.671 38491
0.482 0.586 1.662 39923
0.484 0.589 1.659 41576
0.487 0.592 1.657 38212
0.490 0.596 1.655 34848
0.495 0.602 1.660 29438
0.498 0.605 1.657 24317
0.501 0.609 1.655 23056
0.501 0.609 1.646 21623
0.504 0.613 1.643 18097
0.509 0.619 1.648 12321
0.514 0.625 1.652 10554
0.520 0.632 1.657 10445
0.527 0.641 1.668 10988
0.545 0.662 1.707 14052
0.550 0.669 1.711 17488
0.551 0.669 1.702 15445
0.554 0.673 1.699 13525
0.559 0.680 1.703 10243
0.567 0.689 1.714 7691
0.552 0.671 1.664 7542
0.557 0.678 1.668 10745
0.565 0.687 1.679 14481
0.568 0.691 1.677 11601
0.587 0.713 1.714 9601
0.592 0.720 1.718 8739
0.600 0.730 1.729 10950
0.603 0.733 1.726 12644
0.606 0.737 1.724 13296
0.609 0.740 1.721 13441
0.612 0.744 1.718 13642
0.618 0.751 1.722 13851
0.621 0.754 1.719 12110
0.626 0.761 1.722 10121
0.629 0.765 1.720 7645
0.632 0.768 1.717 5377
0.635 0.772 1.714 5058
0.638 0.775 1.711 9316
0.643 0.782 1.714 15127
0.646 0.786 1.711 17115
0.649 0.789 1.708 14270
0.652 0.793 1.705 15214
0.658 0.800 1.709 21550
0.661 0.803 1.705 23816
0.666 0.810 1.709 22019
0.678 0.824 1.725 21800
0.684 0.831 1.729 19103
0.684 0.831 1.719 15324
0.692 0.842 1.729 14529
0.698 0.849 1.732 14513
0.698 0.849 1.722 9521
0.701 0.852 1.719 5857
0.707 0.859 1.722 8200
0.716 0.870 1.731 11710
0.722 0.877 1.735 11892
0.728 0.885 1.738 8589
0.731 0.888 1.734 7555
0.731 0.888 1.724 9281
0.731 0.888 1.715 10257
0.733 0.892 1.711 9064
0.736 0.895 1.708 12178
0.742 0.902 1.711 19836
0.748 0.909 1.713 21059
0.751 0.913 1.710 18251
0.757 0.920 1.713 16442
0.769 0.935 1.728 17727
0.772 0.939 1.724 19622
0.775 0.942 1.721 20103
0.778 0.946 1.717 17616
0.778 0.945 1.707 11739
0.784 0.953 1.710 12224
0.787 0.956 1.706 18970
0.793 0.964 1.708 23086
0.799 0.971 1.711 23125
0.802 0.975 1.707 17233
0.805 0.978 1.703 10471
0.811 0.985 1.706 9240
0.820 0.997 1.714 17004
0.826 1.004 1.716 28289
0.836 1.016 1.724 30290
0.839 1.019 1.720 23804
0.838 1.019 1.711 19000
0.841 1.022 1.707 14613
0.847 1.030 1.709 14555
0.850 1.033 1.705 22666
0.853 1.037 1.701 26892
0.859 1.044 1.703 27757
0.865 1.052 1.705 33905
0.872 1.060 1.706 35123
0.875 1.063 1.702 30950
0.874 1.063 1.692 28102
0.880 1.070 1.694 21688
0.887 1.078 1.696 16037
0.896 1.089 1.703 12774
0.899 1.093 1.699 10582
0.905 1.101 1.701 11492
0.912 1.108 1.702 14014
0.908 1.103 1.687 11753
0.924 1.124 1.705 7276
0.920 1.119 1.689 9711
0.920 1.118 1.679 13470
0.923 1.121 1.675 15073
0.929 1.129 1.677 12141
0.939 1.141 1.684 11260
0.938 1.140 1.673 14052
0.941 1.144 1.669 13777
0.954 1.160 1.682 13735
0.961 1.168 1.683 13545
0.964 1.171 1.678 15542
0.963 1.170 1.668 30458
0.966 1.174 1.664 38896
0.972 1.182 1.665 34983
0.975 1.185 1.660 30180
0.981 1.193 1.661 21188
0.984 1.196 1.657 23059
0.991 1.204 1.657 23691
0.993 1.207 1.653 20698
0.989 1.202 1.637 23678
0.992 1.205 1.633 13776
1.050 1.276 1.709 14147
1.052 1.279 1.704 17277
1.059 1.287 1.705 22282
1.062 1.291 1.700 23955
1.065 1.294 1.695 15068
1.071 1.302 1.695 8240
1.078 1.310 1.695 12925
1.081 1.314 1.690 15261
1.084 1.317 1.685 11383
1.090 1.325 1.685 7685
1.104 1.343 1.696 8006
1.107 1.346 1.691 10478
1.118 1.359 1.696 7852
1.124 1.367 1.696 7083
1.120 1.361 1.681 9162
1.130 1.374 1.686 11951
1.137 1.382 1.685 11629
1.144 1.390 1.685 11171
1.143 1.389 1.675 11930
1.176 1.430 1.710 13261
1.171 1.424 1.695 14479
1.174 1.427 1.689 16551
1.189 1.445 1.699 19335
1.207 1.467 1.713 14186
1.226 1.490 1.727 11653
1.229 1.494 1.722 10635
1.236 1.502 1.721 10038
1.238 1.505 1.715 12366
1.245 1.514 1.714 20734
1.248 1.517 1.709 27666
1.247 1.516 1.698 25085
1.250 1.519 1.692 15689
1.265 1.537 1.701 11574
1.268 1.541 1.695 8194
1.287 1.564 1.708 6869
1.297 1.577 1.712 8417
1.296 1.576 1.701 9093
1.295 1.574 1.690 10512
1.302 1.583 1.689 11764
1.309 1.591 1.688 13598
1.312 1.595 1.681 9907
1.347 1.638 1.713 15687
1.346 1.636 1.702 20020
1.349 1.640 1.696 15693
1.352 1.643 1.689 12554
1.359 1.652 1.688 13090
1.366 1.660 1.686 10041
1.397 1.698 1.711 8204
1.404 1.707 1.709 9518
1.407 1.710 1.703 7866
1.398 1.699 1.683 7466
1.425 1.733 1.703 9291
1.432 1.741 1.701 10993
1.439 1.750 1.699 8258
1.455 1.768 1.705 12472
1.458 1.772 1.699 17217
1.461 1.775 1.692 17451
1.463 1.779 1.685 12851
1.483 1.803 1.696 10939
1.494 1.816 1.698 16292
1.501 1.825 1.695 21172
1.504 1.829 1.688 24169
1.507 1.832 1.681 22284
1.510 1.835 1.674 17942
1.509 1.834 1.663 9696
1.550 1.884 1.694 9102
1.548 1.882 1.682 7774
1.551 1.886 1.675 5997
1.558 1.894 1.672 5538
1.565 1.903 1.669 5727
1.581 1.922 1.674 8824
1.584 1.925 1.667 11152
1.582 1.923 1.655 9506
1.594 1.937 1.656 8409
1.605 1.951 1.657 9784
1.604 1.949 1.645 8656
1.602 1.948 1.634 7535
1.622 1.972 1.642 6388
1.638 1.991 1.646 6600
1.641 1.995 1.639 6910
1.644 1.998 1.631 4903
1.686 2.049 1.659 4465
1.746 2.122 1.701 6070
1.709 2.077 1.658 8708
1.712 2.081 1.650 10670
1.715 2.084 1.643 10863
1.722 2.093 1.638 11249
1.769 2.150 1.668 14393
1.772 2.153 1.660 18860
1.770 2.151 1.648 20466
1.773 2.155 1.640 22381
1.780 2.164 1.635 19069
1.783 2.167 1.627 16089
1.785 2.170 1.619 11949
1.788 2.174 1.610 7810
1.791 2.177 1.602 6289
1.798 2.186 1.597 4833
1.881 2.287 1.653 4305
1.880 2.285 1.641 5442
1.892 2.299 1.639 4855
1.894 2.303 1.631 4443
1.911 2.322 1.632 4605
1.922 2.337 1.630 5025
1.925 2.340 1.621 3818
2.028 2.465 1.688 3244
2.067 2.512 1.706 3981
2.070 2.516 1.696 5245
2.068 2.514 1.683 4861
2.062 2.506 1.667 4864
2.065 2.510 1.657 4864
2.076 2.524 1.654 5285
2.084 2.533 1.648 6043
2.087 2.536 1.638 5316
2.089 2.540 1.629 4589
2.092 2.543 1.619 3309
2.201 2.675 1.683 3339
2.204 2.678 1.672 3339
2.206 2.682 1.662 1669
0.431 0.521 1.710 10304
0.434 0.524 1.708 9080
0.431 0.520 1.684 8601
0.434 0.524 1.682 7547
0.428 0.517 1.651 6681
0.454 0.549 1.728 6708
0.455 0.550 1.719 9434
0.456 0.551 1.710 12584
0.457 0.551 1.700 14161
0.455 0.550 1.684 16328
0.458 0.553 1.682 17412
0.459 0.554 1.672 18540
0.464 0.560 1.677 20782
0.467 0.563 1.675 23296
0.469 0.567 1.673 23106
0.472 0.570 1.671 29334
0.475 0.574 1.669 35978
0.480 0.580 1.673 36959
0.483 0.583 1.671 38138
0.484 0.584 1.662 39052
0.486 0.587 1.659 40387
0.489 0.591 1.657 36657
0.492 0.594 1.655 32926
0.497 0.600 1.660 27762
0.500 0.604 1.657 22829
0.503 0.607 1.655 22168
0.503 0.608 1.646 21283
0.506 0.611 1.643 17775
0.511 0.617 1.648 12458
0.516 0.624 1.652 11375
0.522 0.630 1.657 11404
0.529 0.639 1.668 11608
0.547 0.661 1.707 14055
0.552 0.667 1.711 17678
0.555 0.671 1.709 16134
0.556 0.671 1.699 14766
0.561 0.678 1.703 11673
0.567 0.684 1.708 9124
0.554 0.669 1.664 8406
0.557 0.673 1.661 11425
0.568 0.685 1.679 14715
0.568 0.686 1.670 11817
0.589 0.711 1.714 10060
0.594 0.718 1.718 8962
0.603 0.728 1.729 9958
0.547 0.661 1.578 13185
0.550 0.664 1.575 13578
0.611 0.738 1.721 12150
0.614 0.742 1.718 13092
0.620 0.749 1.722 14230
0.623 0.752 1.719 13141
0.629 0.759 1.722 11636
0.631 0.763 1.720 9902
0.637 0.769 1.723 7583
0.643 0.776 1.727 6842
0.643 0.777 1.717 10252
0.646 0.780 1.714 15489
0.652 0.787 1.718 17506
0.655 0.791 1.715 14975
0.657 0.794 1.712 17306
0.660 0.798 1.709 24102
0.663 0.801 1.705 25528
0.669 0.808 1.709 22501
0.681 0.822 1.725 21917
0.683 0.825 1.722 19781
0.686 0.829 1.719 16075
0.692 0.836 1.722 15067
0.701 0.847 1.732 15797
0.701 0.847 1.722 10613
0.704 0.850 1.719 7016
0.710 0.857 1.722 10248
0.719 0.868 1.731 14758
0.725 0.875 1.735 13547
0.731 0.882 1.738 9165
0.733 0.886 1.734 7387
0.733 0.886 1.724 8303
0.733 0.886 1.715 9851
0.736 0.889 1.711 9232
0.742 0.896 1.714 12920
0.748 0.904 1.717 20258
0.751 0.907 1.713 21687
0.754 0.911 1.710 20168
0.760 0.918 1.713 18616
0.769 0.929 1.721 17205
0.775 0.936 1.724 19163
0.778 0.940 1.721 21332
0.781 0.943 1.717 18603
0.784 0.947 1.713 11635
0.787 0.950 1.710 11394
0.790 0.954 1.706 18324
0.796 0.961 1.708 23549
0.799 0.965 1.705 24249
0.802 0.968 1.701 17837
0.808 0.976 1.703 11837
0.817 0.987 1.712 12239
0.823 0.994 1.714 18522
0.829 1.002 1.716 28441
0.839 1.013 1.724 30542
0.842 1.017 1.720 24250
0.841 1.016 1.711 19690
0.844 1.020 1.707 15367
0.851 1.027 1.709 15886
0.853 1.031 1.705 24668
0.856 1.034 1.701 28897
0.859 1.038 1.697 28424
0.869 1.049 1.705 34492
0.875 1.057 1.706 38828
0.878 1.060 1.702 38605
0.881 1.064 1.698 37663
0.884 1.067 1.694 29415
0.890 1.075 1.696 22892
0.893 1.078 1.692 17776
0.899 1.086 1.693 10583
0.909 1.098 1.701 9119
0.915 1.105 1.702 11695
0.918 1.109 1.698 9773
0.928 1.121 1.705 7684
0.924 1.116 1.689 11171
0.927 1.119 1.685 15278
0.930 1.123 1.681 18902
0.933 1.126 1.677 16327
0.939 1.134 1.678 12744
0.942 1.137 1.673 14210
0.945 1.141 1.669 13172
0.958 1.157 1.682 10216
0.965 1.165 1.683 11789
0.967 1.168 1.678 17854
0.967 1.167 1.668 31352
0.969 1.171 1.664 37157
0.976 1.179 1.665 33859
0.979 1.182 1.660 29436
0.985 1.190 1.661 17516
0.992 1.198 1.662 14495
0.994 1.201 1.657 15689
1.001 1.209 1.658 17642
0.993 1.199 1.637 21459
1.051 1.269 1.714 14831
1.054 1.272 1.709 16793
1.056 1.276 1.704 19758
1.063 1.284 1.705 21773
1.062 1.283 1.694 19554
1.065 1.286 1.689 12802
1.072 1.294 1.690 8918
1.082 1.307 1.695 12317
1.089 1.315 1.696 14769
1.092 1.318 1.691 11822
1.098 1.326 1.691 6467
1.113 1.344 1.701 5453
1.115 1.347 1.696 7177
1.126 1.360 1.701 6888
1.129 1.363 1.696 7660
1.124 1.357 1.681 10512
1.135 1.370 1.686 14494
1.141 1.378 1.685 13351
1.144 1.382 1.680 11247
1.143 1.380 1.670 11514
1.181 1.426 1.710 14649
1.180 1.425 1.700 15971
1.183 1.428 1.694 16577
1.193 1.441 1.699 19310
1.208 1.459 1.708 14123
1.231 1.486 1.727 10700
1.233 1.490 1.722 11660
1.240 1.498 1.721 12872
1.243 1.501 1.715 14790
1.250 1.510 1.714 21303
1.253 1.513 1.709 26378
1.252 1.512 1.698 24004
1.259 1.520 1.697 15822
1.270 1.533 1.701 11792
1.273 1.537 1.695 7268
1.304 1.574 1.723 9524
1.302 1.573 1.712 11029
1.297 1.567 1.696 11163
1.296 1.565 1.685 12752
1.303 1.574 1.684 11289
1.314 1.587 1.688 11393
1.317 1.590 1.681 9107
1.352 1.633 1.713 14793
1.351 1.632 1.702 19254
1.354 1.635 1.696 14332
1.361 1.644 1.694 9877
1.368 1.652 1.692 10356
1.375 1.661 1.690 8568
1.399 1.689 1.707 8171
1.393 1.683 1.691 8798
1.413 1.706 1.703 6802
1.424 1.720 1.705 7405
1.427 1.723 1.699 9686
1.438 1.737 1.701 11723
1.445 1.745 1.699 10635
1.456 1.759 1.701 13491
1.463 1.767 1.699 17454
1.466 1.771 1.692 17679
1.469 1.774 1.685 12483
1.493 1.803 1.700 11562
1.504 1.817 1.702 17585
1.507 1.820 1.695 21625
1.510 1.824 1.688 22327
1.513 1.827 1.681 18989
1.516 1.831 1.674 15143
1.549 1.870 1.697 8747
1.556 1.879 1.694 9201
1.559 1.882 1.686 7929
1.557 1.881 1.675 6116
1.560 1.884 1.668 5512
1.567 1.893 1.665 5969
1.583 1.912 1.670 8810
1.586 1.915 1.662 10948
1.584 1.913 1.651 9256
1.600 1.932 1.656 7751
1.607 1.941 1.653 9016
1.614 1.950 1.649 8290
1.617 1.953 1.642 7565
1.633 1.972 1.646 6120
1.649 1.991 1.650 6408
1.656 2.000 1.647 6770
1.668 2.014 1.647 4728
1.692 2.044 1.659 3935
1.752 2.116 1.701 5049
1.716 2.072 1.658 8170
1.714 2.070 1.647 10139
1.721 2.079 1.643 10197
1.728 2.087 1.638 10502
1.776 2.144 1.668 11845
1.778 2.148 1.660 15660
1.777 2.146 1.648 17177
1.780 2.149 1.640 18920
1.787 2.158 1.635 16065
1.790 2.161 1.627 13587
1.792 2.165 1.619 9836
1.795 2.168 1.610 6085
1.798 2.171 1.602 5082
1.805 2.180 1.597 4178
1.889 2.281 1.653 4838
1.887 2.279 1.641 5958
1.899 2.293 1.639 5426
1.902 2.297 1.631 5112
1.913 2.311 1.629 4927
1.925 2.325 1.627 5020
1.933 2.334 1.621 3720
2.076 2.508 1.719 2955
2.075 2.506 1.706 4280
2.078 2.509 1.696 5638
2.076 2.507 1.683 5248
2.070 2.500 1.667 5378
2.072 2.503 1.657 5378
2.084 2.517 1.654 5599
2.092 2.526 1.648 6281
2.095 2.530 1.638 5481
2.097 2.533 1.629 4681
2.105 2.542 1.622 3404
2.209 2.668 1.683 3464
2.212 2.671 1.672 3464
2.215 2.675 1.662 1732
0.433 0.520 1.710 10354
0.436 0.523 1.708 8802
0.432 0.519 1.684 7399
0.435 0.522 1.682 6699
0.453 0.544 1.730 6638
0.456 0.547 1.728 7209
0.457 0.548 1.719 10248
0.458 0.549 1.710 13758
0.458 0.550 1.700 15379
0.459 0.551 1.691 17625
0.460 0.552 1.682 18362
0.463 0.555 1.680 19163
0.465 0.559 1.677 21043
0.468 0.562 1.675 23078
0.471 0.565 1.673 22861
0.474 0.569 1.671 29328
0.477 0.572 1.669 36167
0.482 0.578 1.673 37107
0.485 0.582 1.671 38282
0.485 0.582 1.662 38708
0.488 0.586 1.659 39686
0.491 0.589 1.657 35528
0.494 0.593 1.655 31370
0.499 0.599 1.660 26191
0.502 0.602 1.657 21179
0.505 0.606 1.655 21003
0.507 0.609 1.652 20592
0.510 0.612 1.650 17097
0.513 0.616 1.648 12283
0.518 0.622 1.652 11900
0.524 0.628 1.657 12066
0.531 0.638 1.668 12247
0.549 0.659 1.707 14501
0.555 0.666 1.711 18372
0.557 0.669 1.709 17200
0.558 0.670 1.699 16120
0.563 0.676 1.703 13383
0.569 0.683 1.708 11016
0.572 0.686 1.705 9764
0.562 0.674 1.668 11782
0.570 0.684 1.679 14892
0.570 0.684 1.670 12040
0.591 0.709 1.714 10685
0.597 0.716 1.718 9331
0.549 0.659 1.587 10995
0.549 0.659 1.578 14735
0.552 0.663 1.575 15075
0.555 0.666 1.573 13069
0.617 0.740 1.718 12324
0.622 0.747 1.722 14347
0.625 0.750 1.719 13940
0.631 0.757 1.722 13028
0.634 0.761 1.720 12260
0.640 0.768 1.723 10303
0.642 0.771 1.720 9006
0.645 0.775 1.717 11549
0.648 0.778 1.714 16040
0.654 0.785 1.718 18215
0.657 0.788 1.715 16217
0.663 0.795 1.718 19735
0.666 0.799 1.715 26763
0.669 0.802 1.712 26853
0.672 0.806 1.709 22649
0.683 0.820 1.725 21793
0.686 0.823 1.722 20156
0.689 0.827 1.719 16523
0.698 0.837 1.729 15927
0.707 0.848 1.738 17738
0.709 0.852 1.735 12185
0.707 0.848 1.719 8312
0.712 0.855 1.722 11667
0.721 0.866 1.731 15877
0.727 0.873 1.735 14259
0.733 0.880 1.738 9858
0.736 0.884 1.734 7952
0.736 0.883 1.724 8825
0.739 0.887 1.721 10262
0.745 0.894 1.724 10095
0.748 0.898 1.720 13603
0.751 0.901 1.717 20281
0.754 0.905 1.713 21476
0.757 0.908 1.710 20906
0.763 0.916 1.713 19821
0.772 0.926 1.721 17221
0.775 0.930 1.718 19424
0.778 0.934 1.714 22234
0.784 0.941 1.717 18786
0.787 0.944 1.713 11235
0.793 0.952 1.716 11216
0.793 0.951 1.706 18882
0.799 0.959 1.708 25341
0.802 0.962 1.705 26965
0.805 0.966 1.701 20316
0.811 0.973 1.703 14784
0.820 0.984 1.712 14773
0.826 0.992 1.714 18949
0.832 0.999 1.716 27936
0.842 1.011 1.724 29860
0.845 1.014 1.720 23369
0.845 1.014 1.711 18648
0.847 1.017 1.707 14833
0.857 1.029 1.715 16949
0.857 1.028 1.705 26065
0.860 1.032 1.701 29357
0.862 1.035 1.697 27430
0.872 1.047 1.705 33783
0.878 1.054 1.706 41516
0.881 1.058 1.702 44786
0.884 1.061 1.698 45220
0.887 1.065 1.694 35587
0.893 1.072 1.696 28337
0.896 1.076 1.692 22845
0.896 1.075 1.682 11942
0.912 1.095 1.701 7060
0.919 1.103 1.702 9478
0.925 1.110 1.704 8349
0.928 1.114 1.699 8658
0.927 1.113 1.689 12889
0.934 1.121 1.691 17534
0.933 1.120 1.681 23815
0.936 1.123 1.677 21832
0.946 1.135 1.684 15064
0.945 1.134 1.673 14455
0.945 1.134 1.663 13259
0.944 1.133 1.653 8150
0.965 1.158 1.677 9447
0.967 1.161 1.673 20742
0.970 1.164 1.668 31269
0.973 1.168 1.664 35235
0.979 1.176 1.665 33115
0.982 1.179 1.660 27331
0.985 1.182 1.656 14563
0.988 1.186 1.651 7070
0.991 1.189 1.646 8458
1.001 1.201 1.653 14499
1.000 1.200 1.643 19437
1.055 1.266 1.714 14848
1.057 1.269 1.709 17615
1.060 1.273 1.704 20489
1.067 1.281 1.705 20378
1.066 1.280 1.694 15676
1.069 1.283 1.689 11066
1.076 1.291 1.690 9832
1.082 1.299 1.690 11494
1.093 1.312 1.696 13158
1.099 1.320 1.696 11325
1.106 1.328 1.696 7509
1.124 1.349 1.712 5287
1.131 1.357 1.712 4554
1.138 1.365 1.712 6317
1.137 1.364 1.701 8936
1.132 1.359 1.686 11165
1.139 1.367 1.686 15862
1.145 1.375 1.685 14897
1.152 1.383 1.685 11999
1.147 1.377 1.670 11846
1.185 1.422 1.710 16118
1.184 1.421 1.700 17530
1.187 1.425 1.694 16373
1.202 1.442 1.704 18626
1.209 1.450 1.703 13934
1.235 1.482 1.727 10792
1.238 1.486 1.722 13741
1.245 1.494 1.721 15799
1.252 1.502 1.720 17121
1.255 1.506 1.714 21359
1.258 1.509 1.709 24448
1.257 1.508 1.698 22410
1.264 1.516 1.697 16905
1.274 1.530 1.701 14149
1.281 1.538 1.700 9854
1.304 1.565 1.718 12429
1.307 1.569 1.712 13321
1.306 1.568 1.701 11826
1.305 1.566 1.690 13209
1.308 1.570 1.684 11084
1.319 1.583 1.688 9756
1.326 1.591 1.686 8883
1.357 1.629 1.713 15287
1.360 1.633 1.706 19568
1.363 1.636 1.700 14737
1.370 1.644 1.698 9837
1.373 1.648 1.692 9361
1.380 1.656 1.690 7577
1.391 1.670 1.693 8278
1.394 1.673 1.687 9272
1.422 1.707 1.707 7160
1.429 1.715 1.705 9381
1.432 1.719 1.699 10800
1.443 1.732 1.701 12300
1.450 1.741 1.699 12618
1.462 1.754 1.701 14631
1.469 1.763 1.699 17502
1.472 1.766 1.692 17661
1.483 1.780 1.694 12642
1.503 1.804 1.704 12984
1.510 1.812 1.702 19183
1.513 1.816 1.695 22287
1.516 1.819 1.688 20874
1.519 1.823 1.681 16356
1.521 1.826 1.674 12858
1.559 1.871 1.701 8863
1.561 1.874 1.694 9139
1.564 1.877 1.686 7855
1.567 1.881 1.679 6014
1.570 1.884 1.672 5458
1.573 1.888 1.665 6191
1.584 1.902 1.666 8358
1.592 1.910 1.662 10001
1.590 1.908 1.651 8419
1.606 1.927 1.656 6932
1.617 1.941 1.657 8114
1.620 1.945 1.649 7814
1.627 1.953 1.646 7569
1.648 1.978 1.654 6214
1.659 1.991 1.654 6252
1.667 2.000 1.651 6646
1.674 2.009 1.647 5002
1.694 2.033 1.655 3914
1.706 2.047 1.655 4338
1.722 2.067 1.658 7682
1.720 2.065 1.647 9614
1.728 2.073 1.643 9483
1.735 2.082 1.638 9702
1.782 2.139 1.668 9628
1.785 2.142 1.660 12744
1.783 2.140 1.648 14098
1.786 2.144 1.640 15608
1.789 2.147 1.632 13281
1.796 2.156 1.627 11314
1.799 2.159 1.619 7921
1.802 2.162 1.610 4529
1.809 2.171 1.606 3856
1.897 2.277 1.666 4310
1.896 2.275 1.653 5285
1.894 2.273 1.641 6329
1.901 2.282 1.636 5888
1.909 2.291 1.631 5649
1.916 2.299 1.625 5247
1.928 2.314 1.623 5022
1.935 2.322 1.618 3602
2.084 2.501 1.719 3217
2.087 2.505 1.709 4601
2.085 2.503 1.696 5994
2.084 2.501 1.683 5537
2.077 2.493 1.667 5683
2.080 2.497 1.657 5683
2.092 2.511 1.654 5732
2.100 2.520 1.648 6297
2.107 2.529 1.642 5441
2.110 2.532 1.632 4660
2.113 2.535 1.622 3391
2.222 2.667 1.686 4234
2.225 2.670 1.676 4234
2.228 2.674 1.665 2117
0.436 0.521 1.717 10104
0.439 0.525 1.715 8472
0.442 0.528 1.713 6841
0.447 0.535 1.718 6419
0.452 0.541 1.723 6846
0.457 0.547 1.728 7381
0.458 0.548 1.719 10552
0.458 0.549 1.710 14108
0.459 0.549 1.700 15840
0.460 0.550 1.691 18249
0.460 0.551 1.682 18688
0.463 0.555 1.680 19240
0.466 0.558 1.677 20685
0.469 0.561 1.675 22235
0.474 0.568 1.680 22083
0.475 0.568 1.671 28722
0.478 0.572 1.669 35674
0.483 0.578 1.673 36667
0.486 0.581 1.671 37888
0.486 0.582 1.662 37848
0.489 0.585 1.659 38396
0.492 0.589 1.657 33966
0.495 0.592 1.655 29537
0.500 0.598 1.660 24507
0.503 0.602 1.657 19598
0.505 0.605 1.655 19923
0.508 0.608 1.652 20058
0.511 0.612 1.650 16668
0.514 0.615 1.648 12224
0.519 0.621 1.652 12144
0.524 0.628 1.657 12216
0.532 0.637 1.668 12390
0.550 0.658 1.707 14556
0.555 0.665 1.711 18532
0.558 0.668 1.709 17733
0.559 0.669 1.699 17003
0.564 0.675 1.703 14494
0.570 0.682 1.708 12228
0.573 0.685 1.705 10679
0.563 0.673 1.668 11634
0.571 0.683 1.679 14314
0.573 0.686 1.677 11485
0.592 0.709 1.714 10551
0.598 0.715 1.718 9212
0.550 0.659 1.587 11718
0.550 0.659 1.578 15569
0.553 0.662 1.575 15799
0.556 0.665 1.573 13466
0.618 0.739 1.718 11469
0.623 0.746 1.722 14075
0.626 0.750 1.719 14236
0.632 0.756 1.722 13844
0.635 0.760 1.720 13956
0.641 0.767 1.723 12414
0.644 0.770 1.720 10854
0.646 0.774 1.717 12556
0.649 0.777 1.714 16381
0.655 0.784 1.718 18745
0.661 0.791 1.721 17325
0.667 0.798 1.725 21771
0.667 0.798 1.715 28542
0.670 0.802 1.712 28031
0.673 0.805 1.709 22538
0.684 0.819 1.725 21128
0.687 0.822 1.722 19941
0.690 0.826 1.719 16584
0.702 0.840 1.735 16585
0.708 0.847 1.738 18925
0.711 0.851 1.735 12968
0.717 0.858 1.738 8100
0.717 0.858 1.728 11275
0.723 0.865 1.731 15754
0.728 0.872 1.735 15175
0.734 0.879 1.738 10336
0.737 0.883 1.734 8684
0.740 0.886 1.731 9591
0.743 0.890 1.727 10164
0.746 0.893 1.724 11016
0.749 0.897 1.720 13988
0.752 0.900 1.717 19567
0.752 0.900 1.707 21123
0.758 0.907 1.710 21217
0.764 0.914 1.713 20439
0.770 0.922 1.715 16923
0.776 0.929 1.718 19003
0.779 0.932 1.714 22080
0.785 0.940 1.717 18432
0.788 0.943 1.713 10833
0.794 0.951 1.716 11076
0.794 0.950 1.706 19287
0.797 0.954 1.702 27108
0.803 0.961 1.705 29790
0.803 0.961 1.695 24113
0.809 0.968 1.697 19548
0.815 0.975 1.700 17734
0.828 0.991 1.714 18206
0.834 0.998 1.716 25922
0.843 1.009 1.724 27694
0.850 1.017 1.726 21244
0.846 1.012 1.711 16301
0.852 1.020 1.713 13792
0.858 1.027 1.715 17738
0.861 1.031 1.711 26528
0.861 1.030 1.701 28475
0.864 1.034 1.697 25128
0.873 1.045 1.705 31481
0.880 1.053 1.706 41903
0.883 1.056 1.702 47505
0.886 1.060 1.698 49138
0.888 1.063 1.694 39501
0.895 1.071 1.696 31735
0.894 1.070 1.686 26377
0.897 1.074 1.682 13713
0.914 1.094 1.701 6439
0.920 1.101 1.702 7827
0.920 1.101 1.692 7986
0.923 1.104 1.688 11010
0.929 1.112 1.689 14979
0.935 1.119 1.691 19881
0.935 1.119 1.681 27817
0.938 1.122 1.677 27100
0.944 1.130 1.678 18275
0.947 1.133 1.673 15919
0.950 1.137 1.669 15571
0.952 1.140 1.665 10812
0.962 1.152 1.671 12195
0.969 1.160 1.673 21379
0.972 1.163 1.668 27551
0.975 1.166 1.664 30925
0.981 1.174 1.665 31558
0.984 1.178 1.660 24337
0.987 1.181 1.656 12492
0.979 1.171 1.635 9414
0.981 1.175 1.630 11670
0.995 1.191 1.642 11996
0.998 1.194 1.637 17200
0.997 1.193 1.627 14813
1.063 1.272 1.714 15636
1.066 1.276 1.709 18279
1.069 1.279 1.705 18042
1.068 1.278 1.694 13008
1.071 1.282 1.689 10553
1.077 1.290 1.690 11242
1.084 1.298 1.690 11256
1.098 1.315 1.701 11684
1.101 1.318 1.696 10442
1.108 1.326 1.696 7966
1.122 1.343 1.707 5578
1.137 1.360 1.717 3782
1.140 1.364 1.712 7157
1.139 1.363 1.701 11371
1.138 1.362 1.691 11774
1.141 1.365 1.686 15425
1.147 1.373 1.685 15404
1.154 1.381 1.685 13116
1.153 1.380 1.675 12168
1.183 1.416 1.705 16747
1.186 1.420 1.700 18280
1.189 1.423 1.694 16102
1.204 1.441 1.704 17276
1.214 1.454 1.708 13182
1.233 1.476 1.722 11181
1.236 1.479 1.717 15480
1.247 1.492 1.721 17266
1.250 1.496 1.715 17992
1.257 1.504 1.714 20395
1.260 1.508 1.709 21712
1.259 1.506 1.698 19512
1.270 1.520 1.702 16024
1.276 1.528 1.701 14773
1.283 1.536 1.700 10782
1.307 1.564 1.718 14080
1.305 1.562 1.707 15102
1.308 1.566 1.701 12997
1.307 1.564 1.690 13778
1.310 1.568 1.684 11043
1.321 1.581 1.688 9231
1.332 1.594 1.691 9676
1.360 1.627 1.713 15853
1.363 1.631 1.706 20120
1.365 1.634 1.700 15569
1.372 1.643 1.698 10590
1.375 1.646 1.692 9275
1.387 1.659 1.695 6958
1.394 1.668 1.693 7931
1.396 1.671 1.687 9109
1.424 1.705 1.707 8637
1.431 1.713 1.705 11552
1.434 1.717 1.699 11956
1.446 1.730 1.701 12440
1.453 1.739 1.699 13690
1.464 1.752 1.701 15040
1.471 1.761 1.699 16942
1.474 1.764 1.692 17079
1.485 1.778 1.694 12806
1.505 1.802 1.704 14354
1.512 1.810 1.702 20488
1.515 1.814 1.695 22631
1.518 1.817 1.688 19541
1.521 1.821 1.681 14309
1.524 1.824 1.674 11254
1.561 1.868 1.701 8608
1.568 1.877 1.698 8611
1.567 1.875 1.686 7366
1.574 1.884 1.683 5815
1.577 1.887 1.676 5583
1.575 1.886 1.665 6286
1.583 1.894 1.662 7753
1.590 1.903 1.658 8778
1.593 1.906 1.651 7324
1.609 1.925 1.656 5949
1.620 1.939 1.657 6962
1.627 1.948 1.653 7049
1.639 1.961 1.654 7446
1.650 1.975 1.654 6332
1.662 1.989 1.654 5854
1.674 2.003 1.655 6349
1.681 2.012 1.651 5177
1.688 2.020 1.647 4176
1.709 2.045 1.655 4147
1.725 2.064 1.658 6974
1.723 2.062 1.647 8741
1.730 2.071 1.643 8526
1.738 2.080 1.638 8736
1.785 2.136 1.668 7666
1.788 2.140 1.660 10097
1.786 2.138 1.648 11380
1.789 2.141 1.640 12699
1.792 2.145 1.632 10875
1.799 2.153 1.627 9341
1.806 2.162 1.622 6323
1.917 2.295 1.701 3896
1.916 2.293 1.689 4081
1.905 2.280 1.669 4697
1.899 2.273 1.653 5475
1.897 2.271 1.641 6412
1.904 2.279 1.636 6113
1.912 2.288 1.631 5985
1.915 2.291 1.622 5456
1.926 2.306 1.620 5024
1.938 2.320 1.618 3481
2.088 2.498 1.719 3323
2.090 2.502 1.709 4707
2.093 2.505 1.699 6092
2.092 2.503 1.686 5587
2.081 2.490 1.667 5693
2.084 2.494 1.657 5693
2.096 2.508 1.654 5615
2.103 2.517 1.648 6049
2.110 2.526 1.642 5248
2.113 2.529 1.632 4483
2.121 2.538 1.625 3275
2.226 2.664 1.686 4660
2.228 2.667 1.676 4660
2.231 2.671 1.665 2330
0.437 0.520 1.717 10231
0.440 0.524 1.715 8322
0.445 0.530 1.720 6491
0.448 0.533 1.718 6439
0.453 0.539 1.723 6957
0.458 0.545 1.728 7449
0.459 0.546 1.719 11024
0.460 0.547 1.710 14977
0.461 0.548 1.700 17012
0.461 0.549 1.691 19783
0.462 0.550 1.682 19843
0.465 0.553 1.680 20043
0.468 0.557 1.677 21016
0.471 0.560 1.675 22068
0.476 0.566 1.680 22107
0.479 0.569 1.678 29213
0.479 0.570 1.669 36570
0.485 0.576 1.673 37779
0.487 0.580 1.671 39138
0.490 0.583 1.669 38427
0.491 0.584 1.659 38294
0.494 0.587 1.657 33225
0.496 0.590 1.655 28157
0.502 0.597 1.660 23234
0.504 0.600 1.657 18386
0.507 0.603 1.655 19353
0.510 0.607 1.652 20158
0.513 0.610 1.650 16745
0.516 0.613 1.648 12304
0.521 0.620 1.652 12138
0.526 0.626 1.657 11992
0.534 0.635 1.668 12324
0.552 0.657 1.707 14649
0.557 0.663 1.711 18824
0.560 0.667 1.709 18485
0.563 0.670 1.706 18146
0.566 0.674 1.703 15761
0.572 0.680 1.708 13411
0.572 0.680 1.698 12027
0.565 0.672 1.668 13058
0.570 0.678 1.672 15051
0.573 0.681 1.670 12022
0.594 0.707 1.714 10011
0.547 0.651 1.583 9350
0.550 0.654 1.581 13213
0.552 0.657 1.578 17092
0.555 0.660 1.575 17108
0.558 0.663 1.573 14302
0.620 0.737 1.718 10719
0.626 0.744 1.722 13931
0.629 0.748 1.719 14774
0.634 0.754 1.722 15024
0.637 0.758 1.720 16455
0.643 0.765 1.723 15695
0.646 0.768 1.720 14044
0.649 0.772 1.717 14695
0.655 0.779 1.721 17751
0.660 0.785 1.724 20495
0.663 0.789 1.721 19993
0.669 0.796 1.725 25718
0.672 0.799 1.722 32052
0.675 0.803 1.719 30248
0.678 0.806 1.715 22870
0.687 0.817 1.725 20310
0.690 0.820 1.722 19716
0.693 0.824 1.719 16860
0.707 0.841 1.742 17727
0.710 0.845 1.738 20007
0.716 0.852 1.741 13444
0.722 0.859 1.745 8324
0.719 0.855 1.728 11393
0.725 0.863 1.731 17355
0.728 0.866 1.728 17335
0.734 0.873 1.731 12473
0.737 0.877 1.728 11278
0.740 0.880 1.724 11145
0.746 0.887 1.727 10891
0.749 0.891 1.724 11251
0.749 0.891 1.714 13404
0.752 0.894 1.711 18256
0.755 0.898 1.707 20285
0.761 0.905 1.710 22041
0.767 0.912 1.713 21221
0.773 0.919 1.715 16619
0.779 0.927 1.718 18366
0.782 0.930 1.714 21798
0.785 0.934 1.711 18111
0.791 0.941 1.713 10523
0.797 0.948 1.716 10995
0.797 0.948 1.706 20124
0.800 0.951 1.702 30904
0.803 0.955 1.699 36172
0.806 0.958 1.695 32986
0.809 0.962 1.691 30085
0.815 0.969 1.693 25900
0.821 0.976 1.696 17599
0.837 0.995 1.716 22600
0.846 1.007 1.724 23943
0.849 1.010 1.720 16769
0.852 1.014 1.717 11630
0.859 1.021 1.719 12164
0.862 1.025 1.715 18687
0.865 1.028 1.711 26597
0.864 1.028 1.701 26827
0.867 1.031 1.697 21814
0.877 1.043 1.705 27418
0.883 1.050 1.706 40878
0.886 1.054 1.702 49350
0.889 1.057 1.698 52401
0.892 1.061 1.694 44049
0.895 1.064 1.690 36136
0.898 1.068 1.686 30730
0.900 1.071 1.682 16312
0.917 1.091 1.701 6752
0.924 1.099 1.702 6172
0.923 1.098 1.692 9165
0.926 1.101 1.688 16151
0.932 1.109 1.689 19534
0.939 1.117 1.691 24817
0.938 1.116 1.681 34958
0.941 1.119 1.677 36474
0.947 1.127 1.678 26449
0.950 1.130 1.673 21406
0.953 1.134 1.669 20907
0.963 1.146 1.676 17712
0.970 1.153 1.677 16002
0.972 1.157 1.673 17877
0.972 1.156 1.663 20317
0.978 1.163 1.664 24926
0.985 1.171 1.665 27609
0.991 1.179 1.666 19402
0.990 1.178 1.656 11786
0.986 1.173 1.640 17657
0.985 1.172 1.630 20583
0.991 1.179 1.631 13064
1.002 1.191 1.637 12113
1.001 1.190 1.627 13686
1.003 1.194 1.623 16463
1.017 1.210 1.634 13994
1.073 1.276 1.705 14901
1.076 1.279 1.700 11098
1.079 1.283 1.695 12520
1.081 1.286 1.690 15332
1.088 1.294 1.690 12797
1.102 1.311 1.701 10727
1.105 1.315 1.696 8410
1.116 1.327 1.701 6992
1.119 1.331 1.696 6057
1.125 1.339 1.696 6325
1.140 1.356 1.707 10458
1.147 1.364 1.706 14788
1.146 1.363 1.696 14008
1.149 1.366 1.691 16837
1.155 1.374 1.691 17506
1.162 1.382 1.690 15974
1.161 1.381 1.680 14576
1.188 1.412 1.705 18255
1.190 1.416 1.700 18790
1.193 1.419 1.694 15859
1.208 1.437 1.704 15400
1.219 1.450 1.708 12026
1.234 1.467 1.717 11947
1.237 1.471 1.712 17361
1.248 1.484 1.716 18090
1.255 1.492 1.715 18018
1.261 1.500 1.714 18016
1.264 1.504 1.709 16694
1.267 1.507 1.703 14069
1.278 1.520 1.707 11998
1.285 1.529 1.706 12886
1.292 1.537 1.705 11177
1.307 1.555 1.713 15362
1.310 1.558 1.707 16118
1.313 1.562 1.701 13816
1.316 1.565 1.695 13420
1.319 1.569 1.689 9540
1.330 1.582 1.692 8708
1.341 1.595 1.696 11357
1.365 1.623 1.713 17513
1.368 1.627 1.706 21921
1.370 1.630 1.700 16584
1.373 1.633 1.694 10888
1.376 1.637 1.688 9505
1.392 1.655 1.695 7093
1.399 1.664 1.693 7865
1.406 1.672 1.691 9405
1.430 1.700 1.707 11688
1.437 1.709 1.705 14635
1.440 1.712 1.699 13706
1.451 1.726 1.701 12659
1.458 1.734 1.699 14620
1.465 1.743 1.697 15536
1.477 1.756 1.699 16623
1.484 1.765 1.696 16695
1.495 1.778 1.698 13722
1.511 1.797 1.704 16833
1.518 1.805 1.702 22670
1.521 1.809 1.695 23491
1.524 1.812 1.688 18413
1.527 1.816 1.681 12514
1.534 1.824 1.678 10371
1.571 1.869 1.705 7956
1.574 1.872 1.698 7753
1.577 1.876 1.691 6610
1.584 1.884 1.688 5800
1.587 1.888 1.680 6255
1.586 1.886 1.669 6727
1.588 1.889 1.662 7135
1.596 1.898 1.658 6977
1.594 1.896 1.647 5630
1.619 1.925 1.660 4401
1.635 1.944 1.665 5343
1.642 1.953 1.661 6338
1.654 1.967 1.662 7756
1.661 1.976 1.658 6478
1.673 1.989 1.658 5379
1.684 2.003 1.659 6088
1.687 2.007 1.651 5478
1.690 2.010 1.643 4869
1.688 2.008 1.631 4118
1.731 2.059 1.658 6117
1.725 2.052 1.643 7616
1.737 2.066 1.643 7302
1.744 2.074 1.638 7498
1.751 2.083 1.634 6192
1.790 2.129 1.656 7255
1.793 2.132 1.648 8417
1.796 2.136 1.640 9579
1.798 2.139 1.632 8306
1.806 2.148 1.627 7227
1.813 2.156 1.622 4648
1.924 2.289 1.701 4835
1.923 2.287 1.689 5175
1.921 2.285 1.676 5686
1.910 2.272 1.657 5727
1.904 2.265 1.641 6442
1.911 2.273 1.636 6459
1.919 2.282 1.631 6643
1.922 2.286 1.622 6033
1.929 2.294 1.617 5415
1.941 2.308 1.615 3568
2.095 2.492 1.719 3426
2.098 2.496 1.709 4863
2.101 2.499 1.699 6301
2.099 2.497 1.686 5742
2.088 2.484 1.667 5736
2.091 2.487 1.657 5736
2.103 2.502 1.654 5456
2.111 2.511 1.648 5602
2.118 2.519 1.642 4836
2.126 2.528 1.635 4185
2.236 2.659 1.699 3213
2.234 2.657 1.686 4910
2.237 2.660 1.676 4910
2.240 2.664 1.665 2455
0.439 0.519 1.717 9982
0.442 0.522 1.715 7942
0.447 0.528 1.720 6126
0.450 0.532 1.718 6170
0.455 0.538 1.723 6689
0.460 0.544 1.728 7229
0.461 0.545 1.719 11065
0.462 0.546 1.710 15246
0.462 0.547 1.700 17385
0.463 0.547 1.691 20364
0.464 0.548 1.682 20249
0.467 0.552 1.680 20268
0.470 0.555 1.677 20992
0.473 0.558 1.675 21782
0.478 0.565 1.680 21880
0.481 0.568 1.678 29070
0.481 0.569 1.669 36475
0.486 0.575 1.673 37943
0.489 0.578 1.671 39517
0.492 0.582 1.669 38316
0.493 0.582 1.659 37593
0.495 0.585 1.657 32084
0.498 0.589 1.655 26576
0.504 0.595 1.660 21766
0.506 0.598 1.657 16997
0.509 0.602 1.655 18250
0.512 0.605 1.652 19356
0.515 0.608 1.650 16036
0.518 0.612 1.648 11626
0.523 0.618 1.652 11385
0.531 0.627 1.664 11455
0.536 0.634 1.668 11936
0.554 0.655 1.707 14246
0.560 0.661 1.711 18349
0.563 0.665 1.709 18185
0.565 0.668 1.706 18022
0.568 0.672 1.703 16164
0.571 0.675 1.701 14307
0.574 0.679 1.698 12927
0.567 0.670 1.668 13016
0.570 0.673 1.666 14796
0.572 0.677 1.663 12118
0.596 0.705 1.714 9061
0.549 0.649 1.583 10161
0.552 0.652 1.581 14024
0.554 0.655 1.578 17699
0.557 0.658 1.575 17511
0.560 0.662 1.573 14448
0.565 0.668 1.577 10990
0.628 0.742 1.722 13798
0.631 0.746 1.719 15020
0.637 0.752 1.722 15685
0.640 0.756 1.720 18099
0.645 0.763 1.723 18022
0.648 0.766 1.720 16497
0.651 0.770 1.717 16317
0.657 0.776 1.721 18739
0.663 0.783 1.724 21874
0.666 0.787 1.721 22227
0.672 0.794 1.725 28309
0.675 0.797 1.722 33693
0.678 0.801 1.719 31062
0.681 0.804 1.715 22141
0.689 0.815 1.725 18924
0.692 0.818 1.722 18660
0.695 0.822 1.719 16236
0.710 0.839 1.742 18032
0.716 0.846 1.745 20367
0.719 0.850 1.741 14099
0.725 0.857 1.745 9156
0.719 0.850 1.722 12219
0.725 0.857 1.725 17868
0.731 0.864 1.728 17124
0.737 0.871 1.731 12824
0.740 0.874 1.728 12089
0.743 0.878 1.724 11380
0.749 0.885 1.727 11027
0.752 0.889 1.724 10030
0.752 0.888 1.714 11746
0.758 0.896 1.717 16078
0.758 0.895 1.707 18823
0.764 0.902 1.710 22118
0.770 0.910 1.713 20525
0.776 0.917 1.715 15677
0.779 0.920 1.712 17291
0.785 0.928 1.714 20546
0.788 0.931 1.711 17154
0.794 0.938 1.713 10044
0.800 0.946 1.716 10686
0.800 0.945 1.706 20225
0.803 0.949 1.702 33134
0.806 0.952 1.699 40266
0.809 0.956 1.695 39027
0.812 0.959 1.691 37487
0.815 0.963 1.687 32152
0.821 0.970 1.690 20458
0.840 0.993 1.716 19367
0.846 1.000 1.718 20482
0.853 1.008 1.720 12506
0.622 0.736 1.296 7752
0.862 1.019 1.719 10766
0.865 1.022 1.715 18092
0.868 1.026 1.711 24698
0.867 1.025 1.701 23944
0.870 1.028 1.697 18490
0.880 1.040 1.705 23628
0.886 1.047 1.706 38177
0.889 1.051 1.702 48596
0.892 1.054 1.698 52588
0.895 1.058 1.694 45222
0.898 1.061 1.690 37241
0.901 1.065 1.686 31390
0.907 1.072 1.688 17101
0.924 1.092 1.707 7014
0.931 1.100 1.708 5806
0.930 1.099 1.698 10369
0.933 1.102 1.694 19589
0.939 1.110 1.695 24035
0.942 1.114 1.691 29797
0.942 1.113 1.681 40665
0.945 1.116 1.677 43593
0.951 1.124 1.678 34318
0.954 1.127 1.673 27327
0.960 1.135 1.675 25876
0.967 1.143 1.676 23745
0.973 1.150 1.677 18065
0.976 1.154 1.673 14107
0.972 1.148 1.657 17471
0.982 1.160 1.664 23517
0.992 1.172 1.670 25344
0.995 1.176 1.666 19155
0.998 1.179 1.661 13743
0.993 1.174 1.646 20786
0.992 1.173 1.636 23695
0.995 1.176 1.631 14155
1.005 1.188 1.637 9541
1.060 1.253 1.708 12312
1.067 1.261 1.709 12126
1.025 1.211 1.640 12461
1.077 1.272 1.705 12459
1.083 1.280 1.705 10193
1.086 1.284 1.700 12178
1.089 1.287 1.695 15595
1.092 1.291 1.690 12656
1.103 1.303 1.696 9435
1.109 1.311 1.696 5923
1.116 1.319 1.696 4850
1.123 1.327 1.696 5808
1.130 1.335 1.696 8073
1.140 1.348 1.701 12237
1.151 1.360 1.706 15843
1.154 1.364 1.701 14520
1.153 1.363 1.691 15837
1.160 1.371 1.691 16462
1.167 1.379 1.690 15821
1.166 1.377 1.680 14913
1.188 1.404 1.700 17208
1.191 1.408 1.695 17940
1.198 1.416 1.694 15212
1.213 1.433 1.704 13452
1.228 1.451 1.713 11197
1.234 1.459 1.712 12508
1.241 1.467 1.712 18000
1.248 1.475 1.711 17327
1.255 1.483 1.710 16588
1.262 1.492 1.709 15716
1.273 1.505 1.713 12600
1.272 1.503 1.703 9161
1.283 1.516 1.707 8123
1.290 1.525 1.706 10864
1.297 1.533 1.705 11705
1.312 1.551 1.713 15319
1.315 1.554 1.707 15250
1.318 1.558 1.701 14029
1.321 1.561 1.695 13793
1.332 1.574 1.698 8722
1.339 1.583 1.697 7394
1.350 1.596 1.700 11388
1.366 1.614 1.708 18290
1.373 1.622 1.706 22589
1.371 1.621 1.696 16575
1.374 1.624 1.689 10801
1.377 1.628 1.683 9801
1.393 1.646 1.690 7601
1.404 1.659 1.693 8270
1.411 1.668 1.691 10380
1.435 1.696 1.707 13322
1.442 1.704 1.705 15813
1.445 1.708 1.699 14172
1.456 1.721 1.701 12441
1.464 1.730 1.699 14445
1.471 1.738 1.697 15247
1.482 1.752 1.699 16152
1.489 1.760 1.696 16249
1.505 1.779 1.703 14117
1.516 1.792 1.704 18053
1.519 1.796 1.698 23482
1.522 1.799 1.691 23392
1.530 1.808 1.688 17331
1.532 1.811 1.681 11424
1.540 1.819 1.678 10100
1.538 1.818 1.667 7570
1.584 1.872 1.702 7072
1.587 1.876 1.695 6126
1.590 1.879 1.688 5957
1.597 1.888 1.684 6817
1.596 1.886 1.673 7057
1.594 1.884 1.662 6616
1.602 1.893 1.658 5763
1.644 1.943 1.688 4595
1.647 1.946 1.680 4658
1.663 1.965 1.685 5337
1.661 1.963 1.673 6735
1.664 1.967 1.666 8153
1.667 1.970 1.658 6465
1.683 1.989 1.662 5083
1.691 1.998 1.659 5925
1.693 2.001 1.651 5587
1.696 2.005 1.643 5249
1.695 2.003 1.631 4163
1.733 2.048 1.655 5430
1.732 2.046 1.643 6615
1.743 2.060 1.643 6222
1.751 2.069 1.638 6332
1.758 2.077 1.634 5284
1.792 2.118 1.652 5826
1.795 2.121 1.644 6735
1.798 2.125 1.636 7645
1.805 2.133 1.632 6701
1.813 2.142 1.627 5897
1.929 2.279 1.710 3867
1.932 2.283 1.701 5326
1.930 2.281 1.689 5747
1.928 2.279 1.676 6266
1.918 2.266 1.657 5665
1.911 2.259 1.641 6103
1.919 2.267 1.636 6369
1.926 2.276 1.631 6819
1.929 2.279 1.622 6164
1.932 2.283 1.613 5495
1.944 2.297 1.611 3508
2.103 2.485 1.719 3336
2.106 2.489 1.709 4763
2.109 2.492 1.699 6191
2.107 2.490 1.686 5610
2.096 2.477 1.667 5440
2.099 2.481 1.657 5440
2.111 2.495 1.654 5040
2.123 2.509 1.651 4919
2.131 2.518 1.645 4223
2.143 2.533 1.642 3735
2.244 2.652 1.699 3228
2.242 2.650 1.686 4836
2.245 2.653 1.676 4836
2.248 2.657 1.665 2418
0.441 0.517 1.717 10189
0.446 0.523 1.722 8036
0.451 0.529 1.727 6296
0.454 0.533 1.725 6324
0.457 0.536 1.723 6822
0.462 0.542 1.728 7341
0.463 0.543 1.719 11519
0.464 0.544 1.710 15994
0.464 0.545 1.700 18286
0.465 0.546 1.691 21533
0.466 0.547 1.682 21338
0.469 0.550 1.680 21285
0.471 0.553 1.677 21838
0.477 0.560 1.682 22439
0.480 0.563 1.680 22417
0.482 0.566 1.678 29791
0.483 0.567 1.669 37390
0.488 0.573 1.673 39218
0.491 0.577 1.671 41095
0.494 0.580 1.669 39363
0.495 0.581 1.659 38018
0.497 0.584 1.657 31866
0.500 0.587 1.655 25715
0.505 0.593 1.660 20774
0.511 0.600 1.664 15887
0.511 0.600 1.655 17311
0.514 0.603 1.652 18628
0.517 0.607 1.650 15320
0.522 0.613 1.655 11022
0.528 0.619 1.659 11218
0.533 0.626 1.664 11874
0.538 0.632 1.668 12561
0.556 0.653 1.707 14037
0.562 0.659 1.711 17908
0.565 0.663 1.709 18025
0.568 0.666 1.706 18141
0.571 0.670 1.703 16935
0.574 0.673 1.701 15730
0.576 0.677 1.698 14362
0.572 0.671 1.675 12567
0.572 0.671 1.666 13206
0.575 0.675 1.663 10509
0.548 0.644 1.586 9204
0.551 0.647 1.583 10947
0.554 0.650 1.581 14873
0.557 0.653 1.578 18356
0.559 0.657 1.575 17913
0.562 0.660 1.573 14578
0.567 0.666 1.577 11273
0.628 0.737 1.715 14143
0.633 0.744 1.719 15586
0.639 0.750 1.722 16625
0.642 0.754 1.720 20019
0.648 0.761 1.723 20508
0.651 0.764 1.720 18839
0.654 0.768 1.717 17686
0.660 0.774 1.721 19876
0.665 0.781 1.724 23712
0.668 0.785 1.721 25043
0.674 0.792 1.725 31520
0.680 0.798 1.728 35938
0.680 0.798 1.719 31872
0.686 0.805 1.722 21259
0.692 0.812 1.725 17502
0.698 0.819 1.729 17745
0.701 0.823 1.725 15890
0.713 0.837 1.742 18958
0.719 0.844 1.745 21735
0.722 0.847 1.741 15543
0.725 0.851 1.738 10461
0.725 0.851 1.728 11965
0.731 0.858 1.731 15636
0.737 0.865 1.735 14953
0.743 0.872 1.738 12161
0.743 0.872 1.728 12650
0.746 0.875 1.724 11889
0.749 0.879 1.721 10474
0.752 0.882 1.717 9531
0.758 0.890 1.720 10289
0.761 0.893 1.717 13758
0.761 0.893 1.707 18482
0.767 0.900 1.710 22253
0.773 0.907 1.713 20279
0.779 0.914 1.715 14705
0.782 0.918 1.712 15753
0.788 0.925 1.714 18747
0.791 0.928 1.711 15743
0.800 0.939 1.719 9678
0.806 0.947 1.722 11084
0.803 0.943 1.706 21467
0.806 0.946 1.702 36786
0.809 0.950 1.699 45437
0.812 0.953 1.695 45661
0.815 0.956 1.691 44817
0.818 0.960 1.687 38157
0.821 0.963 1.684 24762
0.827 0.971 1.686 18509
0.843 0.990 1.706 17726
0.829 0.973 1.672 8922
0.625 0.733 1.296 6483
0.869 1.020 1.725 9786
0.872 1.023 1.721 17042
0.871 1.023 1.711 22061
0.871 1.022 1.701 20628
0.874 1.026 1.697 15397
0.883 1.037 1.705 20569
0.890 1.045 1.706 35682
0.896 1.052 1.708 47457
0.896 1.051 1.698 52259
0.899 1.055 1.694 45728
0.901 1.058 1.690 37014
0.908 1.066 1.692 30721
0.911 1.069 1.688 17217
0.935 1.097 1.718 7429
0.938 1.101 1.714 6206
0.937 1.100 1.704 12730
0.937 1.099 1.694 23675
0.943 1.107 1.695 31044
0.946 1.110 1.691 38248
0.949 1.114 1.687 46995
0.948 1.113 1.677 50078
0.955 1.121 1.678 43390
0.958 1.124 1.673 33642
0.964 1.132 1.675 30900
0.971 1.139 1.676 29384
0.977 1.147 1.677 19457
0.980 1.150 1.673 10597
0.976 1.145 1.657 17447
0.986 1.157 1.664 26313
0.996 1.169 1.670 25627
1.002 1.177 1.671 21185
1.002 1.176 1.661 16789
1.001 1.175 1.651 23205
1.000 1.174 1.641 24024
1.006 1.182 1.642 13519
1.058 1.242 1.708 9956
1.065 1.250 1.708 15318
1.067 1.253 1.704 14901
1.070 1.257 1.699 10974
1.081 1.269 1.705 10662
1.088 1.277 1.705 10587
1.091 1.280 1.700 10578
1.094 1.284 1.695 11846
1.100 1.292 1.695 9907
1.103 1.295 1.690 8154
1.106 1.298 1.685 4829
1.121 1.315 1.696 3485
1.127 1.323 1.696 5119
1.138 1.336 1.701 8583
1.145 1.344 1.701 12514
1.155 1.356 1.706 15678
1.162 1.364 1.706 15120
1.161 1.363 1.696 15338
1.164 1.367 1.691 15366
1.167 1.370 1.685 14468
1.170 1.374 1.680 13558
1.193 1.400 1.700 15314
1.200 1.408 1.700 15869
1.203 1.412 1.694 14028
1.213 1.424 1.699 11980
1.232 1.447 1.713 11783
1.235 1.450 1.708 13882
1.242 1.458 1.707 18502
1.253 1.471 1.711 16496
1.260 1.479 1.710 15166
1.267 1.487 1.709 14150
1.278 1.500 1.713 9849
1.281 1.504 1.708 5639
1.292 1.517 1.711 5580
1.295 1.520 1.706 9857
1.306 1.533 1.709 12642
1.317 1.546 1.713 15622
1.320 1.550 1.707 14545
1.323 1.553 1.701 14310
1.326 1.557 1.695 14680
1.333 1.565 1.694 8855
1.344 1.578 1.697 7069
1.356 1.591 1.700 11965
1.371 1.609 1.708 19108
1.378 1.618 1.706 23266
1.377 1.616 1.696 16803
1.376 1.615 1.685 10733
1.383 1.623 1.683 9483
1.406 1.651 1.700 8422
1.409 1.655 1.693 9263
1.421 1.668 1.696 11789
1.441 1.691 1.707 14847
1.448 1.699 1.705 16754
1.451 1.703 1.699 14504
1.462 1.716 1.701 12646
1.469 1.725 1.699 14538
1.476 1.733 1.697 14879
1.488 1.747 1.699 15707
1.495 1.755 1.696 15840
1.511 1.774 1.703 15017
1.522 1.787 1.704 19641
1.525 1.791 1.698 24673
1.528 1.794 1.691 23692
1.531 1.797 1.684 16677
1.538 1.806 1.681 10716
1.541 1.809 1.674 10179
1.544 1.813 1.667 8630
1.547 1.816 1.660 7617
1.550 1.819 1.653 6382
1.605 1.884 1.696 6646
1.604 1.883 1.684 7620
1.602 1.881 1.673 7588
1.605 1.884 1.666 6506
1.643 1.929 1.691 5505
1.650 1.937 1.688 5001
1.658 1.946 1.684 5272
1.665 1.955 1.681 6261
1.668 1.958 1.673 7299
1.671 1.961 1.666 8337
1.674 1.965 1.658 6268
1.694 1.989 1.666 4910
1.702 1.998 1.662 5982
1.704 2.001 1.655 5727
1.703 1.999 1.643 5529
1.737 2.039 1.662 4137
1.740 2.042 1.655 4803
1.738 2.041 1.643 5647
1.750 2.054 1.643 5250
1.757 2.063 1.638 5220
1.819 2.135 1.679 4892
1.799 2.112 1.652 5142
1.802 2.115 1.644 5754
1.805 2.119 1.636 6367
1.812 2.127 1.632 5514
1.820 2.136 1.627 4849
1.936 2.273 1.710 4273
1.939 2.276 1.701 5862
1.938 2.275 1.689 6329
1.936 2.273 1.676 6841
1.934 2.271 1.664 5846
1.919 2.252 1.641 5742
1.926 2.261 1.636 6173
1.933 2.270 1.631 6817
1.936 2.273 1.622 6138
1.939 2.276 1.613 5465
1.951 2.290 1.611 3438
2.111 2.478 1.719 3300
2.114 2.482 1.709 4786
2.117 2.485 1.699 6272
2.115 2.483 1.686 5661
2.109 2.476 1.670 5278
2.112 2.479 1.661 5278
2.119 2.488 1.654 4728
2.127 2.497 1.648 4266
2.158 2.533 1.658 3679
2.165 2.542 1.651 3580
2.253 2.645 1.699 3431
2.251 2.642 1.686 5009
2.254 2.646 1.676 5009
2.257 2.649 1.665 2504
0.442 0.516 1.717 10262
0.447 0.522 1.722 8050
0.452 0.528 1.727 6448
0.455 0.532 1.725 6476
0.458 0.535 1.723 6901
0.461 0.539 1.721 7298
0.462 0.539 1.712 11505
0.465 0.543 1.710 15957
0.466 0.544 1.700 18503
0.466 0.545 1.691 21982
0.467 0.545 1.682 21702
0.470 0.549 1.680 21562
0.473 0.552 1.677 21963
0.478 0.558 1.682 22414
0.481 0.562 1.680 22312
0.484 0.565 1.678 29685
0.484 0.566 1.669 37266
0.490 0.572 1.673 39250
0.493 0.575 1.671 41234
0.496 0.579 1.669 39056
0.496 0.579 1.659 37161
0.499 0.583 1.657 30749
0.502 0.586 1.655 24337
0.507 0.592 1.660 19495
0.512 0.598 1.664 14720
