-0.840 3.072 1.684 3876
-0.841 3.076 1.675 4250
-0.842 3.080 1.666 4623
-0.844 3.084 1.656 4031
-0.845 3.089 1.647 3439
-0.846 3.093 1.637 3439
-0.847 3.097 1.628 3998
-0.848 3.101 1.619 4557
-0.884 3.231 1.668 4557
-0.889 3.249 1.664 5836
-0.888 3.246 1.651 6086
-0.885 3.236 1.635 6572
-0.886 3.241 1.625 6572
-0.887 3.245 1.615 3286
-0.172 0.637 1.674 15619
-0.173 0.642 1.672 16789
-0.175 0.649 1.677 18527
-0.177 0.657 1.682 17820
-0.179 0.661 1.680 17511
-0.180 0.665 1.678 17511
-0.182 0.673 1.683 16398
-0.184 0.680 1.688 15474
-0.185 0.685 1.686 12160
-0.187 0.692 1.691 8921
-0.187 0.693 1.682 13934
-0.189 0.698 1.680 19023
-0.190 0.702 1.677 20343
-0.191 0.706 1.675 21723
-0.192 0.711 1.673 20400
-0.195 0.722 1.685 16630
-0.196 0.726 1.683 13683
-0.198 0.734 1.687 9832
-0.200 0.742 1.692 6410
-0.196 0.725 1.648 7410
-0.197 0.729 1.645 10384
-0.199 0.737 1.650 12640
-0.201 0.745 1.655 15341
-0.201 0.745 1.646 15056
-0.203 0.750 1.643 14849
-0.203 0.750 1.634 14100
-0.205 0.758 1.639 11593
-0.207 0.766 1.643 8179
-0.208 0.770 1.641 5074
-0.216 0.800 1.687 4152
-0.219 0.812 1.698 6263
-0.221 0.816 1.696 6975
-0.218 0.806 1.666 9013
-0.217 0.802 1.649 14013
-0.219 0.810 1.654 19610
-0.220 0.815 1.651 25237
-0.223 0.826 1.662 22808
-0.226 0.835 1.667 18888
-0.227 0.839 1.664 13399
-0.227 0.839 1.655 8464
-0.223 0.824 1.618 6247
-0.235 0.871 1.690 6440
-0.237 0.876 1.687 7697
-0.238 0.880 1.685 11827
-0.239 0.884 1.682 16826
-0.240 0.889 1.679 18228
-0.242 0.897 1.683 20335
-0.244 0.901 1.680 26247
-0.245 0.906 1.678 29677
-0.246 0.910 1.675 26176
-0.246 0.910 1.665 21223
-0.247 0.914 1.662 19625
-0.249 0.923 1.666 18397
-0.254 0.940 1.683 12576
-0.257 0.952 1.694 8078
-0.260 0.961 1.697 8683
-0.262 0.969 1.701 9188
-0.263 0.974 1.698 8844
-0.264 0.978 1.695 7070
-0.264 0.978 1.685 4676
-0.261 0.965 1.656 4407
-0.262 0.970 1.653 5348
-0.270 1.000 1.689 9489
-0.273 1.008 1.693 22000
-0.274 1.013 1.690 29897
-0.275 1.017 1.686 31380
-0.277 1.026 1.690 28908
-0.278 1.030 1.687 24178
-0.280 1.034 1.683 21060
-0.281 1.039 1.680 20610
-0.282 1.043 1.677 20414
-0.284 1.052 1.680 18365
-0.287 1.061 1.683 14656
-0.290 1.074 1.693 12975
-0.293 1.083 1.696 11902
-0.293 1.083 1.686 10172
-0.291 1.078 1.670 12914
-0.292 1.082 1.667 16182
-0.295 1.091 1.670 15610
-0.296 1.095 1.666 14554
-0.297 1.100 1.663 18740
-0.298 1.104 1.660 20807
-0.300 1.108 1.656 19913
-0.301 1.112 1.653 18560
-0.303 1.121 1.656 12356
-0.307 1.135 1.665 7595
-0.309 1.144 1.667 7231
-0.312 1.153 1.670 9349
-0.313 1.158 1.666 12401
-0.310 1.147 1.644 14251
-0.311 1.152 1.641 19088
-0.315 1.165 1.650 18065
-0.315 1.165 1.640 12459
-0.316 1.169 1.636 12051
-0.318 1.178 1.639 17773
-0.318 1.177 1.629 28329
-0.321 1.186 1.631 36113
-0.323 1.196 1.634 28036
-0.323 1.195 1.624 16259
-0.323 1.194 1.614 15186
-0.325 1.203 1.617 12682
-0.329 1.217 1.625 15571
-0.333 1.231 1.633 16936
-0.337 1.246 1.641 23239
-0.339 1.255 1.643 29445
-0.340 1.259 1.639 29520
-0.340 1.258 1.630 34413
-0.340 1.257 1.620 33554
-0.341 1.262 1.616 31106
-0.342 1.266 1.612 28111
-0.343 1.270 1.608 21458
-0.344 1.274 1.604 15714
-0.352 1.304 1.629 14211
-0.358 1.324 1.643 18840
-0.360 1.333 1.645 18447
-0.361 1.337 1.640 17102
-0.364 1.347 1.642 17437
-0.359 1.330 1.615 15919
-0.359 1.329 1.605 11801
-0.366 1.354 1.624 9121
-0.371 1.374 1.637 10107
-0.378 1.400 1.655 11322
-0.379 1.404 1.651 15850
-0.384 1.419 1.658 18800
-0.376 1.391 1.620 20454
-0.380 1.406 1.627 21943
-0.383 1.415 1.628 22785
-0.384 1.420 1.624 18280
-0.392 1.451 1.647 16696
-0.392 1.450 1.637 16886
-0.390 1.443 1.622 13612
-0.391 1.447 1.617 19024
-0.394 1.457 1.618 24732
-0.395 1.461 1.614 14952
-0.402 1.487 1.631 12952
-0.403 1.491 1.626 20141
-0.401 1.484 1.611 19886
-0.401 1.483 1.601 14054
-0.425 1.571 1.677 14096
-0.426 1.575 1.672 14045
-0.425 1.574 1.662 12831
-0.427 1.578 1.657 13032
-0.428 1.583 1.653 7483
-0.424 1.570 1.632 3419
-0.436 1.614 1.664 7836
-0.437 1.618 1.659 16000
-0.440 1.628 1.659 21607
-0.443 1.638 1.659 19072
-0.445 1.648 1.660 12625
-0.448 1.658 1.660 11379
-0.451 1.668 1.660 8093
-0.454 1.678 1.660 7001
-0.455 1.682 1.655 11791
-0.457 1.692 1.655 13906
-0.460 1.703 1.655 11237
-0.464 1.719 1.660 9801
-0.466 1.723 1.654 10087
-0.467 1.727 1.649 7590
-0.474 1.755 1.664 8943
-0.477 1.765 1.664 12320
-0.480 1.775 1.663 11906
-0.481 1.779 1.658 9835
-0.484 1.790 1.657 8630
-0.485 1.794 1.652 9434
-0.486 1.798 1.646 9452
-0.494 1.826 1.660 11827
-0.498 1.843 1.665 15271
-0.499 1.847 1.659 12852
-0.499 1.845 1.648 8599
-0.501 1.855 1.648 5089
-0.516 1.908 1.680 8933
-0.517 1.912 1.675 11580
-0.521 1.929 1.678 12992
-0.526 1.945 1.682 15669
-0.527 1.950 1.676 19184
-0.528 1.954 1.670 19310
-0.529 1.958 1.664 12888
-0.534 1.975 1.667 5465
-0.545 2.016 1.689 6207
-0.544 2.014 1.679 11572
-0.546 2.019 1.672 14723
-0.547 2.023 1.666 14532
-0.548 2.027 1.660 15656
-0.549 2.031 1.654 16256
-0.552 2.042 1.652 15134
-0.560 2.071 1.664 21029
-0.559 2.069 1.653 17678
-0.555 2.055 1.633 11781
-0.567 2.097 1.654 8882
-0.571 2.113 1.656 11874
-0.572 2.118 1.650 12391
-0.575 2.128 1.648 10012
-0.578 2.139 1.646 6712
-0.591 2.188 1.670 5163
-0.603 2.230 1.690 6857
-0.606 2.241 1.687 8709
-0.607 2.245 1.680 7470
-0.606 2.243 1.669 7003
-0.607 2.247 1.662 7630
-0.610 2.258 1.660 7703
-0.617 2.282 1.665 8018
-0.618 2.286 1.658 10433
-0.619 2.290 1.651 10986
-0.618 2.288 1.640 8810
-0.642 2.376 1.688 7585
-0.642 2.374 1.676 8431
-0.643 2.379 1.669 9396
-0.644 2.383 1.662 9586
-0.645 2.387 1.654 8812
-0.646 2.391 1.647 6436
-0.679 2.514 1.713 4427
-0.652 2.413 1.640 4638
-0.684 2.529 1.701 5407
-0.686 2.540 1.698 6450
-0.688 2.544 1.690 5504
-0.698 2.582 1.702 4389
-0.690 2.553 1.674 4056
-0.711 2.630 1.710 3802
-0.714 2.642 1.705 4136
-0.719 2.659 1.705 4115
-0.711 2.630 1.678 3711
-0.710 2.628 1.666 3741
-0.720 2.666 1.677 3385
-0.722 2.670 1.669 3835
-0.723 2.674 1.661 5067
-0.726 2.685 1.656 6347
-0.725 2.683 1.644 6479
-0.724 2.680 1.632 6724
-0.727 2.691 1.628 5803
-0.771 2.851 1.704 5685
-0.766 2.835 1.684 6538
-0.766 2.832 1.672 8697
-0.765 2.830 1.660 10238
-0.766 2.834 1.651 11789
-0.769 2.845 1.646 8987
-0.796 2.945 1.687 9847
-0.797 2.949 1.678 9756
-0.798 2.954 1.669 9665
-0.799 2.958 1.660 7483
-0.801 2.962 1.651 5287
-0.804 2.973 1.646 3888
-0.831 3.074 1.684 3944
-0.832 3.078 1.675 4320
-0.835 3.090 1.669 4729
-0.836 3.094 1.660 3991
-0.837 3.098 1.650 3254
-0.838 3.102 1.641 3254
-0.840 3.107 1.631 3716
-0.839 3.104 1.619 4184
-0.874 3.233 1.668 4509
-0.879 3.252 1.664 5174
-0.876 3.242 1.648 5380
-0.875 3.239 1.635 5807
-0.877 3.243 1.625 5807
-0.878 3.247 1.615 2903
-0.167 0.635 1.667 16261
-0.169 0.643 1.672 17284
-0.171 0.650 1.677 18925
-0.173 0.658 1.682 17916
-0.175 0.665 1.687 17442
-0.176 0.670 1.685 17442
-0.177 0.674 1.683 16000
-0.178 0.678 1.681 14557
-0.180 0.686 1.686 11610
-0.181 0.690 1.684 8712
-0.182 0.695 1.682 14366
-0.183 0.699 1.680 20020
-0.185 0.703 1.677 21651
-0.186 0.708 1.675 23322
-0.187 0.712 1.673 21940
-0.189 0.720 1.678 17455
-0.191 0.727 1.683 14143
-0.192 0.732 1.680 10506
-0.194 0.740 1.685 7079
-0.192 0.730 1.655 8453
-0.192 0.731 1.645 11726
-0.194 0.738 1.650 14111
-0.196 0.746 1.655 17091
-0.197 0.750 1.653 16698
-0.198 0.755 1.650 16304
-0.198 0.755 1.641 15538
-0.199 0.759 1.639 12994
-0.202 0.771 1.650 10021
-0.203 0.775 1.648 7106
-0.210 0.802 1.687 5195
-0.214 0.813 1.698 7002
-0.216 0.822 1.703 7702
-0.212 0.807 1.666 8904
-0.211 0.804 1.649 13377
-0.213 0.812 1.654 17838
-0.214 0.816 1.651 22416
-0.217 0.828 1.662 19798
-0.221 0.840 1.673 16690
-0.221 0.840 1.664 12223
-0.221 0.841 1.655 7271
-0.230 0.876 1.706 7202
-0.231 0.881 1.704 6303
-0.231 0.881 1.694 5755
-0.231 0.882 1.685 8874
-0.233 0.886 1.682 12202
-0.234 0.890 1.679 12978
-0.235 0.895 1.676 15574
-0.237 0.903 1.680 22024
-0.238 0.907 1.678 25633
-0.238 0.908 1.668 22395
-0.239 0.912 1.665 17692
-0.240 0.916 1.662 15991
-0.244 0.929 1.673 14727
-0.248 0.945 1.690 10417
-0.250 0.954 1.694 7004
-0.253 0.963 1.697 7681
-0.255 0.971 1.701 8433
-0.256 0.976 1.698 8458
-0.257 0.980 1.695 6783
-0.257 0.980 1.685 3858
-0.254 0.967 1.656 4259
-0.255 0.971 1.653 5590
-0.263 1.002 1.689 9633
-0.265 1.010 1.693 22186
-0.266 1.015 1.690 30248
-0.268 1.019 1.686 32086
-0.270 1.028 1.690 29682
-0.271 1.032 1.687 25628
-0.272 1.036 1.683 22876
-0.274 1.045 1.687 21302
-0.274 1.045 1.677 19816
-0.275 1.049 1.674 17457
-0.279 1.063 1.683 13607
-0.283 1.076 1.693 11509
-0.285 1.085 1.696 9994
-0.285 1.085 1.686 10125
-0.285 1.085 1.677 13786
-0.286 1.089 1.673 16585
-0.287 1.093 1.670 15305
-0.288 1.098 1.666 15370
-0.289 1.102 1.663 20008
-0.290 1.106 1.660 20695
-0.291 1.110 1.656 18900
-0.293 1.115 1.653 15994
-0.295 1.124 1.656 9344
-0.304 1.156 1.689 5381
-0.303 1.156 1.680 5387
-0.305 1.160 1.676 8779
-0.303 1.155 1.660 13010
-0.303 1.154 1.651 14629
-0.303 1.154 1.641 17403
-0.305 1.163 1.643 15730
-0.306 1.167 1.640 11027
-0.307 1.171 1.636 11923
-0.310 1.180 1.639 17646
-0.311 1.185 1.635 24937
-0.312 1.189 1.631 30791
-0.313 1.193 1.628 23407
-0.313 1.192 1.618 12603
-0.328 1.251 1.680 11996
-0.328 1.250 1.671 15515
-0.323 1.230 1.637 16740
-0.323 1.229 1.627 18028
-0.326 1.243 1.635 24356
-0.330 1.257 1.643 33597
-0.331 1.262 1.639 33307
-0.331 1.261 1.630 34833
-0.331 1.260 1.620 35900
-0.332 1.264 1.616 36431
-0.333 1.268 1.612 33569
-0.334 1.272 1.608 24992
-0.334 1.271 1.599 17538
-0.339 1.291 1.612 14424
-0.347 1.321 1.637 16765
-0.348 1.325 1.633 15817
-0.352 1.340 1.640 16018
-0.356 1.355 1.648 16515
-0.354 1.348 1.632 12981
-0.349 1.331 1.605 10242
-0.351 1.335 1.601 7698
-0.368 1.404 1.665 10568
-0.368 1.403 1.655 15939
-0.371 1.412 1.657 17313
-0.375 1.427 1.663 16815
-0.364 1.388 1.614 17025
-0.371 1.414 1.632 23999
-0.372 1.418 1.628 30269
-0.375 1.428 1.629 31468
-0.377 1.437 1.630 21818
-0.378 1.442 1.626 18903
-0.380 1.446 1.622 18536
-0.382 1.455 1.623 19761
-0.383 1.460 1.618 24105
-0.384 1.464 1.614 13382
-0.391 1.490 1.631 13947
-0.392 1.494 1.626 22258
-0.390 1.487 1.611 19296
-0.390 1.486 1.601 12380
-0.413 1.574 1.677 14308
-0.414 1.578 1.672 15469
-0.414 1.577 1.662 14397
-0.417 1.587 1.663 12773
-0.419 1.597 1.663 8356
-0.422 1.607 1.664 4808
-0.424 1.617 1.664 6108
-0.427 1.627 1.664 12904
-0.428 1.631 1.659 19134
-0.431 1.641 1.659 17788
-0.435 1.657 1.665 12387
-0.436 1.661 1.660 10273
-0.439 1.671 1.660 8145
-0.441 1.681 1.660 9248
-0.441 1.680 1.650 12340
-0.445 1.696 1.655 13743
-0.448 1.706 1.655 11617
-0.452 1.722 1.660 9551
-0.455 1.732 1.659 11443
-0.457 1.742 1.659 11438
-0.460 1.752 1.659 12828
-0.464 1.768 1.664 15084
-0.467 1.779 1.663 15112
-0.470 1.789 1.663 12979
-0.472 1.799 1.662 11344
-0.473 1.803 1.657 10711
-0.475 1.808 1.651 9149
-0.484 1.842 1.670 13408
-0.486 1.852 1.669 15918
-0.486 1.850 1.659 12323
-0.484 1.843 1.644 8376
-0.488 1.859 1.648 5886
-0.502 1.912 1.680 7595
-0.503 1.916 1.675 9479
-0.506 1.927 1.674 11180
-0.512 1.949 1.682 14711
-0.513 1.953 1.676 17887
-0.514 1.958 1.670 17743
-0.515 1.962 1.664 12484
-0.516 1.966 1.658 6045
-0.527 2.008 1.680 6733
-0.530 2.018 1.679 13492
-0.531 2.023 1.672 16751
-0.532 2.027 1.666 16313
-0.535 2.037 1.665 17364
-0.534 2.035 1.654 17081
-0.537 2.046 1.652 14535
-0.545 2.075 1.664 20902
-0.544 2.073 1.653 17866
-0.540 2.059 1.633 12338
-0.551 2.101 1.654 10239
-0.556 2.117 1.656 13431
-0.559 2.128 1.654 13446
-0.560 2.132 1.648 11017
-0.571 2.175 1.668 7930
-0.579 2.205 1.679 6905
-0.585 2.228 1.685 8942
-0.588 2.239 1.683 10387
-0.589 2.243 1.676 8369
-0.595 2.267 1.682 7016
-0.593 2.258 1.666 7086
-0.594 2.262 1.660 7190
-0.600 2.286 1.665 8025
-0.601 2.290 1.658 10411
-0.601 2.288 1.647 11139
-0.602 2.292 1.640 9028
-0.625 2.381 1.688 7437
-0.624 2.379 1.676 8353
-0.626 2.383 1.669 8877
-0.627 2.387 1.662 8547
-0.628 2.392 1.654 7692
-0.657 2.501 1.712 5736
-0.661 2.519 1.713 5633
-0.662 2.523 1.705 6509
-0.663 2.527 1.697 6919
-0.666 2.538 1.694 7372
-0.669 2.549 1.690 5934
-0.683 2.600 1.710 4962
-0.691 2.631 1.718 4851
-0.692 2.636 1.710 5292
-0.693 2.640 1.701 5733
-0.692 2.638 1.690 5048
-0.692 2.635 1.678 4781
-0.693 2.640 1.670 5153
-0.699 2.664 1.673 4753
-0.702 2.675 1.669 5160
-0.703 2.679 1.661 5963
-0.704 2.684 1.652 6767
-0.706 2.688 1.644 6760
-0.705 2.685 1.632 6842
-0.708 2.696 1.628 5801
-0.752 2.863 1.708 4994
-0.746 2.840 1.684 5661
-0.743 2.831 1.668 8308
-0.744 2.835 1.660 9874
-0.745 2.840 1.651 11440
-0.750 2.858 1.650 9044
-0.775 2.951 1.687 9470
-0.776 2.955 1.678 9350
-0.777 2.959 1.669 9229
-0.778 2.964 1.660 7198
-0.781 2.975 1.655 5162
-0.782 2.979 1.646 3766
-0.809 3.080 1.684 4078
-0.811 3.091 1.678 4469
-0.813 3.096 1.669 4892
-0.814 3.100 1.660 3977
-0.844 3.215 1.704 3480
-0.845 3.220 1.694 3480
-0.846 3.224 1.684 4128
-0.847 3.228 1.674 4776
-0.850 3.240 1.668 4609
-0.853 3.251 1.661 4616
-0.853 3.248 1.648 4768
-0.850 3.238 1.632 5206
-0.851 3.242 1.622 5206
-0.852 3.247 1.612 2603
-0.166 0.636 1.667 15697
-0.168 0.643 1.672 16626
-0.170 0.651 1.677 18206
-0.172 0.658 1.682 17011
-0.174 0.666 1.687 16378
-0.175 0.670 1.685 16378
-0.176 0.674 1.683 15047
-0.177 0.679 1.681 13716
-0.179 0.686 1.686 11013
-0.180 0.691 1.684 8368
-0.181 0.695 1.682 13942
-0.182 0.699 1.680 19516
-0.184 0.704 1.677 21350
-0.185 0.708 1.675 23263
-0.186 0.712 1.673 21966
-0.188 0.720 1.678 17467
-0.189 0.724 1.676 14154
-0.191 0.732 1.680 10489
-0.193 0.740 1.685 6998
-0.190 0.730 1.655 8804
-0.191 0.731 1.645 11934
-0.193 0.739 1.650 14296
-0.195 0.746 1.655 17313
-0.196 0.751 1.653 16938
-0.197 0.755 1.650 16563
-0.197 0.756 1.641 15847
-0.198 0.760 1.639 13376
-0.201 0.771 1.650 10762
-0.202 0.776 1.648 8077
-0.205 0.787 1.659 6030
-0.212 0.814 1.698 6617
-0.214 0.822 1.703 7161
-0.212 0.811 1.672 8449
-0.210 0.804 1.649 12335
-0.212 0.812 1.654 16118
-0.213 0.816 1.651 19993
-0.216 0.828 1.662 17284
-0.219 0.840 1.673 14884
-0.219 0.841 1.664 11000
-0.226 0.865 1.695 7335
-0.229 0.877 1.706 8582
-0.230 0.881 1.704 7994
-0.230 0.882 1.694 7512
-0.231 0.886 1.691 7910
-0.231 0.886 1.682 8508
-0.232 0.891 1.679 8884
-0.233 0.895 1.676 12147
-0.236 0.903 1.680 19042
-0.237 0.908 1.678 22746
-0.237 0.908 1.668 19973
-0.238 0.912 1.665 15643
-0.239 0.916 1.662 13987
-0.242 0.929 1.673 12480
-0.247 0.946 1.690 8946
-0.249 0.954 1.694 6193
-0.251 0.963 1.697 6716
-0.253 0.972 1.701 7566
-0.255 0.976 1.698 7814
-0.256 0.980 1.695 6182
-0.256 0.980 1.685 3196
-0.252 0.968 1.656 4125
-0.255 0.976 1.660 5819
-0.260 0.998 1.683 9855
-0.264 1.011 1.693 21480
-0.265 1.015 1.690 29405
-0.266 1.019 1.686 31412
-0.268 1.028 1.690 28978
-0.269 1.033 1.687 25497
-0.271 1.037 1.683 23173
-0.273 1.046 1.687 21164
-0.273 1.046 1.677 18676
-0.274 1.050 1.674 16370
-0.276 1.059 1.677 12536
-0.281 1.077 1.693 9499
-0.283 1.086 1.696 7770
-0.283 1.085 1.686 9436
-0.283 1.085 1.677 13489
-0.284 1.089 1.673 15545
-0.284 1.089 1.664 14023
-0.286 1.098 1.666 14893
-0.288 1.102 1.663 19427
-0.287 1.102 1.653 19079
-0.290 1.111 1.656 17312
-0.292 1.120 1.659 14459
-0.293 1.124 1.656 7709
-0.303 1.162 1.696 4387
-0.303 1.161 1.686 4479
-0.302 1.156 1.670 8726
-0.301 1.155 1.660 14520
-0.301 1.155 1.651 15726
-0.301 1.154 1.641 16792
-0.303 1.163 1.643 14855
-0.305 1.168 1.640 10289
-0.306 1.172 1.636 11387
-0.308 1.181 1.639 17426
-0.309 1.185 1.635 23215
-0.310 1.189 1.631 27258
-0.311 1.193 1.628 20186
-0.311 1.193 1.618 10264
-0.325 1.247 1.674 12486
-0.325 1.246 1.665 16404
-0.322 1.235 1.643 16161
-0.321 1.229 1.627 18113
-0.324 1.244 1.635 23902
-0.327 1.253 1.637 33612
-0.328 1.257 1.634 34055
-0.329 1.261 1.630 34910
-0.329 1.260 1.620 37197
-0.330 1.264 1.616 38538
-0.331 1.269 1.612 35336
-0.333 1.278 1.614 26746
-0.333 1.277 1.604 20261
-0.337 1.291 1.612 18368
-0.343 1.316 1.631 15605
-0.346 1.326 1.633 13607
-0.350 1.341 1.640 14635
-0.354 1.355 1.648 15795
-0.352 1.349 1.632 12006
-0.347 1.332 1.605 9514
-0.349 1.336 1.601 8149
-0.366 1.404 1.665 12530
-0.367 1.408 1.661 20312
-0.369 1.413 1.657 19878
-0.372 1.428 1.663 17235
-0.371 1.421 1.648 15936
-0.369 1.415 1.632 23924
-0.370 1.419 1.628 35428
-0.373 1.428 1.629 40481
-0.374 1.433 1.625 28652
-0.375 1.437 1.620 23974
-0.377 1.446 1.622 22082
-0.380 1.456 1.623 20478
-0.381 1.460 1.618 22470
-0.382 1.464 1.614 12345
-0.389 1.491 1.631 14609
-0.390 1.495 1.626 23383
-0.388 1.488 1.611 18660
-0.388 1.486 1.601 11060
-0.411 1.575 1.677 13299
-0.412 1.579 1.672 15603
-0.412 1.578 1.662 15610
-0.414 1.588 1.663 13188
-0.421 1.615 1.679 10583
-0.419 1.608 1.664 7139
-0.420 1.612 1.659 5809
-0.425 1.628 1.664 10836
-0.426 1.632 1.659 16406
-0.428 1.642 1.659 15753
-0.432 1.658 1.665 11261
-0.434 1.662 1.660 8361
-0.436 1.672 1.660 8075
-0.439 1.682 1.660 11622
-0.440 1.686 1.655 13124
-0.443 1.696 1.655 13748
-0.445 1.707 1.655 11482
-0.451 1.728 1.665 8896
-0.452 1.733 1.659 11593
-0.455 1.743 1.659 13420
-0.457 1.753 1.659 14836
-0.460 1.763 1.659 16550
-0.464 1.779 1.663 17149
-0.467 1.790 1.663 15089
-0.471 1.806 1.667 13301
-0.471 1.804 1.657 11811
-0.473 1.814 1.656 9610
-0.481 1.843 1.670 14146
-0.483 1.853 1.669 15881
-0.483 1.851 1.659 11650
-0.481 1.843 1.644 8399
-0.484 1.854 1.643 6407
-0.499 1.913 1.680 6236
-0.500 1.917 1.675 7477
-0.504 1.933 1.678 9455
-0.509 1.950 1.682 13559
-0.510 1.954 1.676 16360
-0.511 1.959 1.670 16091
-0.510 1.957 1.659 12650
-0.515 1.973 1.663 7468
-0.524 2.009 1.680 7602
-0.527 2.019 1.679 13621
-0.528 2.023 1.672 16578
-0.529 2.028 1.666 15971
-0.532 2.038 1.665 17459
-0.531 2.036 1.654 17329
-0.536 2.053 1.657 13916
-0.542 2.076 1.664 20035
-0.541 2.074 1.653 17479
-0.537 2.059 1.633 12754
-0.548 2.101 1.654 10797
-0.553 2.118 1.656 13901
-0.555 2.129 1.654 13685
-0.558 2.140 1.652 11488
-0.568 2.176 1.668 8695
-0.575 2.205 1.679 7538
-0.580 2.222 1.681 9472
-0.583 2.233 1.678 10495
-0.584 2.238 1.672 8279
-0.592 2.268 1.682 6753
-0.591 2.265 1.671 6607
-0.592 2.270 1.664 6699
-0.597 2.287 1.665 7927
-0.598 2.291 1.658 10398
-0.597 2.289 1.647 11468
-0.598 2.293 1.640 9432
-0.621 2.382 1.688 7155
-0.623 2.386 1.680 8039
-0.622 2.384 1.669 8108
-0.621 2.382 1.657 7606
-0.650 2.491 1.716 7356
-0.653 2.502 1.712 5845
-0.657 2.520 1.713 6168
-0.658 2.524 1.705 7736
-0.660 2.528 1.697 7807
-0.661 2.533 1.690 7878
-0.676 2.590 1.714 6160
-0.680 2.608 1.714 5471
-0.688 2.639 1.721 5671
-0.688 2.637 1.710 6193
-0.687 2.634 1.698 6815
-0.687 2.632 1.686 5833
-0.688 2.636 1.678 5627
-0.689 2.641 1.670 6290
-0.695 2.665 1.673 5943
-0.696 2.669 1.665 6281
-0.699 2.680 1.661 6778
-0.700 2.685 1.652 7289
-0.701 2.689 1.644 7063
-0.701 2.686 1.632 6989
-0.704 2.697 1.628 5860
-0.707 2.708 1.623 4893
-0.740 2.835 1.681 4963
-0.739 2.832 1.668 7149
-0.740 2.837 1.660 8371
-0.741 2.841 1.651 9593
-0.746 2.859 1.650 7559
-0.770 2.952 1.687 8493
-0.771 2.956 1.678 8358
-0.772 2.961 1.669 8222
-0.773 2.965 1.660 6473
-0.776 2.976 1.655 4728
-0.777 2.980 1.646 3427
-0.804 3.081 1.684 3894
-0.807 3.093 1.678 4243
-0.808 3.097 1.669 4631
-0.809 3.101 1.660 3688
-0.839 3.217 1.704 3404
-0.840 3.221 1.694 3404
-0.841 3.225 1.684 4074
-0.843 3.230 1.674 4744
-0.845 3.241 1.668 4309
-0.848 3.252 1.661 3950
-0.846 3.242 1.645 4061
-0.845 3.240 1.632 4391
-0.846 3.244 1.622 4391
-0.847 3.248 1.612 2195
-0.164 0.636 1.667 14948
-0.166 0.644 1.672 16070
-0.168 0.651 1.677 17675
-0.170 0.659 1.682 16549
-0.172 0.666 1.687 16252
-0.173 0.670 1.685 16252
-0.174 0.675 1.683 14865
-0.176 0.682 1.688 13509
-0.177 0.687 1.686 10773
-0.178 0.691 1.684 8037
-0.179 0.695 1.682 13595
-0.179 0.696 1.672 19357
-0.181 0.701 1.670 21427
-0.182 0.705 1.668 23498
-0.184 0.713 1.673 22285
-0.186 0.720 1.678 17471
-0.187 0.725 1.676 13813
-0.187 0.726 1.666 10134
-0.188 0.730 1.664 6595
-0.188 0.731 1.655 9230
-0.188 0.731 1.645 12276
-0.191 0.743 1.657 14495
-0.193 0.747 1.655 17379
-0.194 0.751 1.653 17121
-0.195 0.755 1.650 16862
-0.195 0.756 1.641 16203
-0.196 0.760 1.639 13790
-0.199 0.772 1.650 11529
-0.201 0.780 1.655 9321
-0.203 0.788 1.659 7315
-0.206 0.799 1.671 6133
-0.211 0.819 1.696 6078
-0.208 0.808 1.666 7821
-0.207 0.805 1.649 11238
-0.209 0.809 1.647 14571
-0.211 0.817 1.651 17922
-0.214 0.829 1.662 15226
-0.217 0.841 1.673 13671
-0.217 0.841 1.664 10097
-0.223 0.865 1.695 8326
-0.225 0.874 1.700 10386
-0.226 0.878 1.697 10602
-0.227 0.882 1.694 10484
-0.230 0.891 1.698 8842
-0.229 0.887 1.682 6487
-0.229 0.887 1.672 6415
-0.230 0.892 1.670 9964
-0.232 0.900 1.674 17181
-0.233 0.904 1.671 20885
-0.234 0.909 1.668 18583
-0.235 0.913 1.665 14377
-0.235 0.913 1.656 12532
-0.239 0.926 1.666 10527
-0.244 0.947 1.690 7260
-0.246 0.955 1.694 5213
-0.247 0.959 1.691 6048
-0.251 0.972 1.701 7310
-0.252 0.977 1.698 7861
-0.253 0.981 1.695 6158
-0.254 0.985 1.692 3039
-0.251 0.973 1.663 4358
-0.253 0.981 1.666 6728
-0.257 0.998 1.683 11153
-0.260 1.007 1.686 22006
-0.262 1.016 1.690 29501
-0.263 1.020 1.686 31518
-0.264 1.025 1.683 28810
-0.266 1.033 1.687 25614
-0.269 1.042 1.690 24115
-0.270 1.047 1.687 21938
-0.271 1.051 1.683 18668
-0.271 1.051 1.674 16152
-0.273 1.060 1.677 12277
-0.277 1.073 1.686 8254
-0.280 1.086 1.696 6407
-0.279 1.082 1.680 10294
-0.280 1.086 1.677 14702
-0.281 1.090 1.673 16236
-0.282 1.095 1.670 14240
-0.282 1.094 1.660 14895
-0.283 1.098 1.657 18807
-0.284 1.103 1.653 18525
-0.286 1.112 1.656 17109
-0.289 1.121 1.659 13854
-0.291 1.130 1.662 6423
-0.298 1.158 1.689 3890
-0.297 1.152 1.673 4311
-0.296 1.147 1.658 9506
-0.297 1.151 1.654 16045
-0.298 1.156 1.651 16822
-0.298 1.155 1.641 17064
-0.300 1.164 1.643 15637
-0.301 1.168 1.640 11260
-0.303 1.178 1.642 12117
-0.305 1.182 1.639 18133
-0.306 1.186 1.635 22447
-0.307 1.190 1.631 23662
-0.307 1.189 1.622 16444
-0.306 1.189 1.612 7791
-0.323 1.253 1.680 11899
-0.321 1.247 1.665 16826
-0.319 1.236 1.643 15327
-0.317 1.230 1.627 16454
-0.321 1.245 1.635 21346
-0.323 1.254 1.637 31560
-0.324 1.258 1.634 34302
-0.325 1.262 1.630 37335
-0.326 1.266 1.626 40713
-0.326 1.265 1.616 40537
-0.327 1.270 1.612 37130
-0.330 1.279 1.614 30714
-0.329 1.278 1.604 24170
-0.333 1.292 1.612 22089
-0.337 1.307 1.620 16839
-0.341 1.322 1.627 12707
-0.344 1.336 1.635 14376
-0.348 1.351 1.642 16452
-0.347 1.345 1.626 13652
-0.345 1.338 1.611 10417
-0.362 1.406 1.675 8525
-0.361 1.400 1.659 14347
-0.363 1.410 1.661 23225
-0.366 1.419 1.662 23144
-0.370 1.434 1.669 19300
-0.368 1.428 1.653 16783
-0.365 1.416 1.632 23162
-0.366 1.420 1.628 39273
-0.368 1.430 1.629 48071
-0.369 1.434 1.625 35229
-0.369 1.432 1.615 29304
-0.372 1.442 1.616 25045
-0.374 1.452 1.617 21693
-0.377 1.461 1.618 22213
-0.378 1.465 1.614 12817
-0.383 1.486 1.626 15475
-0.384 1.490 1.621 24024
-0.384 1.489 1.611 18081
-0.401 1.555 1.666 10467
-0.406 1.576 1.677 11956
-0.407 1.580 1.672 16117
-0.407 1.579 1.662 17705
-0.409 1.589 1.663 14447
-0.415 1.610 1.674 13081
-0.415 1.609 1.664 9731
-0.416 1.613 1.659 6442
-0.420 1.629 1.664 9270
-0.421 1.633 1.659 13552
-0.423 1.643 1.659 13371
-0.428 1.659 1.665 9339
-0.429 1.663 1.660 6780
-0.433 1.679 1.665 9342
-0.434 1.683 1.660 14422
-0.435 1.688 1.655 14233
-0.438 1.698 1.655 14063
-0.440 1.708 1.655 11348
-0.446 1.730 1.665 8018
-0.448 1.740 1.664 11167
-0.450 1.744 1.659 14215
-0.452 1.754 1.659 16035
-0.455 1.765 1.659 17941
-0.459 1.781 1.663 19028
-0.462 1.791 1.663 16824
-0.466 1.807 1.667 15181
-0.467 1.811 1.662 13060
-0.468 1.816 1.656 10474
-0.475 1.844 1.670 14742
-0.478 1.854 1.669 15666
-0.477 1.853 1.659 10784
-0.475 1.845 1.644 8181
-0.478 1.855 1.643 6682
-0.485 1.884 1.656 5220
-0.496 1.924 1.679 5607
-0.499 1.935 1.678 8136
-0.503 1.951 1.682 12507
-0.504 1.956 1.676 14858
-0.505 1.960 1.670 14880
-0.505 1.958 1.659 13578
-0.509 1.975 1.663 9241
-0.516 2.004 1.675 8746
-0.519 2.014 1.674 13271
-0.520 2.019 1.668 15599
-0.523 2.029 1.666 14770
-0.526 2.040 1.665 17012
-0.524 2.031 1.649 17713
-0.529 2.055 1.657 13463
-0.535 2.078 1.664 18989
-0.535 2.076 1.653 17177
-0.531 2.061 1.633 13485
-0.540 2.097 1.649 11054
-0.546 2.120 1.656 13913
-0.549 2.131 1.654 13619
-0.552 2.141 1.652 11859
-0.561 2.177 1.668 9183
-0.569 2.207 1.679 7792
-0.573 2.224 1.681 9283
-0.576 2.235 1.678 9892
-0.575 2.233 1.667 7642
-0.586 2.276 1.686 6293
-0.586 2.274 1.675 6555
-0.587 2.278 1.668 6633
-0.588 2.282 1.661 8060
-0.589 2.286 1.654 10869
-0.590 2.291 1.647 12252
-0.591 2.295 1.640 10216
-0.614 2.384 1.688 6655
-0.615 2.388 1.680 7573
-0.615 2.386 1.669 7357
-0.640 2.482 1.719 7297
-0.642 2.493 1.716 7435
-0.645 2.504 1.712 5814
-0.648 2.515 1.709 6635
-0.651 2.526 1.705 8790
-0.652 2.530 1.697 8609
-0.653 2.535 1.690 8427
-0.656 2.546 1.686 6359
-0.674 2.616 1.718 5936
-0.679 2.634 1.718 6453
-0.678 2.632 1.706 7061
-0.679 2.636 1.698 7813
-0.679 2.634 1.686 6676
-0.680 2.638 1.678 6564
-0.681 2.643 1.670 7573
-0.686 2.660 1.669 7372
-0.688 2.671 1.665 7714
-0.691 2.682 1.661 7812
-0.692 2.687 1.652 7998
-0.692 2.684 1.641 7641
-0.693 2.688 1.632 7385
-0.694 2.693 1.624 6183
-0.697 2.704 1.620 5145
-0.729 2.830 1.677 4546
-0.730 2.834 1.668 6581
-0.732 2.839 1.660 7532
-0.733 2.843 1.651 8482
-0.737 2.861 1.650 6496
-0.761 2.954 1.687 7231
-0.762 2.959 1.678 7192
-0.764 2.963 1.669 7153
-0.765 2.967 1.660 5697
-0.768 2.978 1.655 4254
-0.769 2.983 1.646 3069
-0.795 3.084 1.684 3601
-0.798 3.095 1.678 3887
-0.799 3.099 1.669 4223
-0.800 3.103 1.660 3333
-0.830 3.219 1.704 3253
-0.831 3.223 1.694 3253
-0.832 3.228 1.684 3926
-0.833 3.232 1.674 4599
-0.836 3.243 1.668 3987
-0.837 3.248 1.658 3418
-0.836 3.245 1.645 3478
-0.836 3.242 1.632 3659
-0.837 3.246 1.622 3659
-0.838 3.250 1.612 1829
-0.163 0.636 1.667 14595
-0.165 0.644 1.672 15714
-0.166 0.651 1.677 17330
-0.168 0.659 1.682 16025
-0.170 0.666 1.687 15588
-0.171 0.671 1.685 15588
-0.172 0.675 1.683 14301
-0.174 0.679 1.681 13014
-0.176 0.687 1.686 10437
-0.177 0.691 1.684 7874
-0.177 0.692 1.675 13618
-0.178 0.697 1.672 19418
-0.179 0.701 1.670 21741
-0.180 0.705 1.668 24065
-0.182 0.713 1.673 22879
-0.184 0.721 1.678 17744
-0.184 0.722 1.669 13850
-0.185 0.726 1.666 10350
-0.187 0.730 1.664 6851
-0.187 0.731 1.655 9847
-0.188 0.735 1.652 12986
-0.190 0.743 1.657 15105
-0.191 0.747 1.655 17738
-0.192 0.752 1.653 17379
-0.193 0.756 1.650 17021
-0.193 0.757 1.641 16529
-0.194 0.761 1.639 14223
-0.197 0.772 1.650 12321
-0.199 0.780 1.655 10564
-0.201 0.788 1.659 8532
-0.204 0.800 1.671 6717
-0.210 0.823 1.703 5877
-0.208 0.812 1.672 7422
-0.206 0.805 1.649 10206
-0.207 0.809 1.647 13016
-0.208 0.814 1.644 15825
-0.211 0.826 1.655 13070
-0.216 0.845 1.680 12284
-0.215 0.842 1.664 9288
-0.221 0.866 1.695 9817
-0.222 0.870 1.693 12983
-0.223 0.874 1.690 13894
-0.226 0.883 1.694 13979
-0.228 0.891 1.698 11312
-0.227 0.888 1.682 7431
-0.225 0.880 1.659 7008
-0.227 0.888 1.663 9549
-0.230 0.900 1.674 15115
-0.231 0.905 1.671 18606
-0.232 0.909 1.668 16934
-0.233 0.913 1.665 13545
-0.233 0.914 1.656 11873
-0.236 0.922 1.660 9494
-0.241 0.943 1.683 6279
-0.243 0.951 1.687 4992
-0.245 0.960 1.691 5506
-0.249 0.973 1.701 6719
-0.250 0.977 1.698 7358
-0.251 0.982 1.695 5837
-0.252 0.986 1.692 3034
-0.252 0.986 1.682 4469
-0.252 0.986 1.673 7309
-0.255 0.999 1.683 11869
-0.257 1.008 1.686 21919
-0.260 1.016 1.690 29175
-0.261 1.021 1.686 31403
-0.262 1.025 1.683 28811
-0.264 1.034 1.687 25705
-0.266 1.043 1.690 24093
-0.268 1.047 1.687 20693
-0.269 1.051 1.683 16725
-0.269 1.051 1.674 13780
-0.271 1.060 1.677 10433
-0.273 1.069 1.680 7242
-0.275 1.078 1.683 4928
-0.276 1.082 1.680 8434
-0.278 1.086 1.677 12503
-0.279 1.091 1.673 13523
-0.280 1.095 1.670 12318
-0.281 1.099 1.666 14246
-0.282 1.104 1.663 17402
-0.282 1.103 1.653 15838
-0.284 1.112 1.656 14028
-0.288 1.126 1.665 11267
-0.290 1.135 1.668 4713
-0.290 1.135 1.658 2744
-0.289 1.129 1.643 5347
-0.292 1.143 1.651 10756
-0.294 1.152 1.654 17555
-0.295 1.156 1.651 17541
-0.295 1.156 1.641 16423
-0.298 1.165 1.643 14752
-0.299 1.169 1.640 9749
-0.301 1.178 1.642 10144
-0.303 1.187 1.645 17208
-0.303 1.187 1.635 20012
-0.303 1.186 1.625 19257
-0.304 1.190 1.622 14976
-0.305 1.194 1.618 8629
-0.316 1.238 1.662 11935
-0.319 1.248 1.665 16957
-0.316 1.237 1.643 14914
-0.314 1.231 1.627 15368
-0.318 1.245 1.635 19979
-0.321 1.255 1.637 29992
-0.322 1.259 1.634 31696
-0.323 1.263 1.630 33996
-0.324 1.267 1.626 38222
-0.323 1.266 1.616 38337
-0.325 1.270 1.612 36251
-0.327 1.280 1.614 31268
-0.328 1.284 1.610 26083
-0.330 1.293 1.612 25295
-0.333 1.302 1.614 18162
-0.336 1.317 1.621 11261
-0.342 1.337 1.635 13195
-0.345 1.352 1.642 16472
-0.344 1.345 1.626 14210
-0.343 1.344 1.617 11720
-0.353 1.380 1.647 11212
-0.358 1.401 1.659 16677
-0.360 1.410 1.661 25796
-0.363 1.420 1.662 27010
-0.367 1.435 1.669 21960
-0.366 1.434 1.659 17849
-0.363 1.422 1.638 23505
-0.363 1.421 1.628 40711
-0.365 1.430 1.629 52009
-0.366 1.434 1.625 40500
-0.366 1.433 1.615 33756
-0.369 1.443 1.616 27244
-0.371 1.452 1.617 22646
-0.372 1.457 1.613 22294
-0.375 1.466 1.614 13876
-0.379 1.482 1.620 17350
-0.380 1.486 1.616 23967
-0.381 1.490 1.611 16429
-0.397 1.556 1.666 9730
-0.403 1.577 1.677 10723
-0.404 1.581 1.672 16495
-0.404 1.580 1.662 19447
-0.406 1.590 1.663 15838
-0.412 1.611 1.674 15252
-0.411 1.610 1.664 11827
-0.412 1.614 1.659 7656
-0.416 1.630 1.664 8507
-0.417 1.634 1.659 10800
-0.421 1.650 1.665 10527
-0.424 1.660 1.665 7163
-0.428 1.676 1.670 6358
-0.429 1.680 1.665 11562
-0.430 1.684 1.660 16363
-0.433 1.694 1.660 14593
-0.434 1.699 1.655 13910
-0.437 1.709 1.655 11127
-0.444 1.737 1.670 6887
-0.445 1.741 1.664 10184
-0.446 1.745 1.659 14319
-0.448 1.755 1.659 16458
-0.451 1.765 1.659 19000
-0.454 1.776 1.658 20629
-0.458 1.792 1.663 18186
-0.462 1.808 1.667 16829
-0.463 1.812 1.662 14247
-0.466 1.823 1.661 11707
-0.470 1.839 1.665 15663
-0.472 1.849 1.665 15545
-0.475 1.860 1.664 9850
-0.472 1.846 1.644 7482
-0.474 1.856 1.643 6485
-0.477 1.866 1.642 5280
-0.489 1.913 1.670 4741
-0.493 1.930 1.674 7554
-0.497 1.946 1.677 11904
-0.500 1.957 1.676 13209
-0.501 1.961 1.670 13451
-0.501 1.959 1.659 14291
-0.505 1.976 1.663 10669
-0.511 1.999 1.671 9711
-0.513 2.009 1.669 12796
-0.516 2.020 1.668 14355
-0.517 2.024 1.662 13287
-0.520 2.035 1.660 15939
-0.519 2.033 1.649 17650
-0.525 2.056 1.657 12939
-0.531 2.079 1.664 18090
-0.529 2.070 1.649 16769
-0.527 2.062 1.633 13551
-0.536 2.098 1.649 11021
-0.542 2.121 1.656 13252
-0.546 2.138 1.659 13089
-0.549 2.149 1.657 12094
-0.558 2.185 1.672 9487
-0.564 2.208 1.679 7696
-0.569 2.225 1.681 8373
-0.570 2.230 1.674 8729
-0.571 2.234 1.667 6661
-0.582 2.277 1.686 6006
-0.583 2.281 1.679 6841
-0.584 2.286 1.672 6929
-0.583 2.283 1.661 8178
-0.584 2.288 1.654 11180
-0.586 2.292 1.647 12769
-0.587 2.296 1.640 10684
-0.609 2.385 1.688 6228
-0.610 2.389 1.680 7224
-0.608 2.381 1.665 6727
-0.634 2.483 1.719 7195
-0.637 2.494 1.716 7339
-0.640 2.505 1.712 5694
-0.643 2.516 1.709 6971
-0.644 2.521 1.701 9589
-0.645 2.525 1.693 9212
-0.648 2.536 1.690 8875
-0.651 2.547 1.686 6592
-0.669 2.618 1.718 6447
-0.673 2.636 1.718 7270
-0.673 2.633 1.706 7925
-0.672 2.631 1.694 8751
-0.673 2.635 1.686 7451
-0.674 2.640 1.678 7535
-0.677 2.651 1.673 9000
-0.680 2.662 1.669 8834
-0.683 2.673 1.665 9187
-0.684 2.677 1.657 8941
-0.687 2.688 1.652 8715
-0.686 2.686 1.641 8245
-0.687 2.690 1.632 7794
-0.688 2.694 1.624 6469
-0.691 2.705 1.620 5272
-0.720 2.818 1.670 4115
-0.723 2.829 1.665 5894
-0.726 2.840 1.660 6822
-0.727 2.845 1.651 7783
-0.731 2.862 1.650 6176
-0.757 2.963 1.691 6029
-0.756 2.960 1.678 6073
-0.757 2.965 1.669 6128
-0.758 2.969 1.660 4895
-0.761 2.980 1.655 3682
-0.764 2.991 1.649 2670
-0.788 3.085 1.684 3282
-0.789 3.090 1.675 3491
-0.792 3.101 1.669 3761
-0.793 3.105 1.660 2902
-0.825 3.228 1.707 3066
-0.826 3.232 1.697 3066
-0.827 3.236 1.687 3671
-0.826 3.234 1.674 4300
-0.827 3.238 1.664 3615
-0.830 3.249 1.658 2952
-0.829 3.247 1.645 2962
-0.829 3.244 1.632 3055
-0.830 3.248 1.622 3055
-0.831 3.252 1.612 1527
-0.161 0.637 1.667 14161
-0.163 0.644 1.672 15361
-0.165 0.652 1.677 17097
-0.167 0.659 1.682 15726
-0.169 0.667 1.687 15398
-0.170 0.671 1.685 15398
-0.171 0.676 1.683 13913
-0.172 0.680 1.681 12428
-0.173 0.684 1.679 10083
-0.172 0.679 1.655 7902
-0.175 0.693 1.675 13618
-0.176 0.697 1.672 19499
-0.177 0.702 1.670 21808
-0.178 0.706 1.668 24118
-0.180 0.714 1.673 22865
-0.182 0.718 1.671 17629
-0.182 0.719 1.661 13668
-0.184 0.726 1.666 10743
-0.185 0.731 1.664 7846
-0.185 0.732 1.655 10813
-0.186 0.736 1.652 13915
-0.188 0.744 1.657 15790
-0.190 0.751 1.662 18215
-0.190 0.752 1.653 17739
-0.191 0.756 1.650 17288
-0.191 0.757 1.641 16794
-0.192 0.761 1.639 14551
-0.195 0.773 1.650 13100
-0.197 0.781 1.655 11607
-0.199 0.789 1.659 9368
-0.202 0.800 1.671 7037
-0.208 0.823 1.703 5734
-0.206 0.813 1.672 7043
-0.204 0.806 1.649 9258
-0.205 0.810 1.647 11519
-0.206 0.814 1.644 13780
-0.212 0.838 1.676 11524
-0.215 0.850 1.687 11426
-0.218 0.862 1.698 9046
-0.219 0.866 1.695 11555
-0.220 0.871 1.693 15800
-0.221 0.875 1.690 17181
-0.223 0.883 1.694 17417
-0.224 0.888 1.691 14331
-0.225 0.888 1.682 10161
-0.224 0.884 1.666 9361
-0.225 0.889 1.663 10576
-0.227 0.897 1.667 14188
-0.229 0.905 1.671 17284
-0.230 0.910 1.668 16058
-0.231 0.914 1.665 12891
-0.231 0.914 1.656 10975
-0.233 0.923 1.660 8285
-0.238 0.939 1.677 4979
-0.241 0.952 1.687 4529
-0.245 0.969 1.704 5330
-0.246 0.973 1.701 7020
-0.247 0.978 1.698 7795
-0.248 0.982 1.695 6282
-0.251 0.991 1.699 3673
-0.251 0.991 1.689 5191
-0.251 0.991 1.679 7916
-0.253 1.000 1.683 12474
-0.255 1.008 1.686 21940
-0.257 1.017 1.690 28942
-0.258 1.021 1.686 31217
-0.259 1.026 1.683 28533
-0.262 1.035 1.687 25637
-0.264 1.043 1.690 24497
-0.266 1.052 1.693 20599
-0.266 1.052 1.683 15910
-0.266 1.052 1.674 12355
-0.268 1.061 1.677 9184
-0.270 1.070 1.680 7102
-0.272 1.074 1.677 5004
-0.275 1.087 1.686 8673
-0.276 1.092 1.683 12648
-0.277 1.096 1.680 12975
-0.277 1.096 1.670 11964
-0.278 1.100 1.666 13925
-0.279 1.104 1.663 15710
-0.279 1.104 1.653 13481
-0.281 1.113 1.656 12211
-0.287 1.136 1.678 10775
-0.291 1.150 1.687 5423
-0.287 1.135 1.658 4432
-0.286 1.130 1.643 7726
-0.289 1.144 1.651 13084
-0.291 1.153 1.654 19181
-0.291 1.152 1.644 18045
-0.292 1.156 1.641 16188
-0.295 1.166 1.643 14743
-0.296 1.170 1.640 9934
-0.299 1.184 1.648 10521
-0.300 1.188 1.645 17482
-0.301 1.192 1.641 17934
-0.300 1.187 1.625 14707
-0.301 1.191 1.622 13881
-0.305 1.205 1.630 11476
-0.311 1.229 1.650 14205
-0.314 1.243 1.659 17960
-0.313 1.238 1.643 15545
-0.311 1.232 1.627 14340
-0.315 1.246 1.635 17722
-0.317 1.255 1.637 27099
-0.318 1.260 1.634 29361
-0.320 1.264 1.630 33203
-0.321 1.268 1.626 38270
-0.320 1.267 1.616 36870
-0.321 1.271 1.612 34601
-0.324 1.280 1.614 31070
-0.325 1.285 1.610 26231
-0.327 1.294 1.612 25208
-0.330 1.303 1.614 18009
-0.335 1.323 1.627 10613
-0.338 1.338 1.635 11952
-0.342 1.353 1.642 16401
-0.342 1.352 1.632 14697
-0.341 1.350 1.622 13112
-0.348 1.376 1.641 13576
-0.353 1.396 1.654 18415
-0.357 1.411 1.661 27649
-0.359 1.421 1.662 29092
-0.363 1.436 1.669 23482
-0.363 1.435 1.659 17731
-0.361 1.428 1.643 22307
-0.359 1.422 1.628 40765
-0.362 1.431 1.629 54138
-0.363 1.435 1.625 44184
-0.363 1.434 1.615 36715
-0.365 1.444 1.616 28155
-0.367 1.453 1.617 22188
-0.369 1.458 1.613 21126
-0.371 1.467 1.614 13962
-0.373 1.477 1.615 18017
-0.376 1.487 1.616 22862
-0.377 1.491 1.611 14244
-0.395 1.562 1.671 9050
-0.399 1.578 1.677 9933
-0.400 1.582 1.672 16734
-0.400 1.581 1.662 20384
-0.402 1.591 1.663 16776
-0.408 1.612 1.674 16184
-0.407 1.611 1.664 13271
-0.410 1.621 1.664 9346
-0.411 1.625 1.659 8299
-0.413 1.635 1.659 8479
-0.417 1.651 1.665 8077
-0.420 1.661 1.665 5140
-0.425 1.683 1.675 6643
-0.427 1.687 1.670 13514
-0.428 1.691 1.665 17420
-0.429 1.695 1.660 14619
-0.431 1.706 1.660 13278
-0.432 1.710 1.655 10657
-0.439 1.738 1.670 5808
-0.440 1.742 1.664 9204
-0.442 1.746 1.659 14327
-0.444 1.756 1.659 16596
-0.447 1.767 1.659 19749
-0.449 1.777 1.658 21847
-0.453 1.793 1.663 19493
-0.457 1.809 1.667 18471
-0.460 1.820 1.667 15276
-0.461 1.824 1.661 12921
-0.465 1.840 1.665 16394
-0.468 1.850 1.665 15574
-0.472 1.867 1.669 9225
-0.469 1.853 1.648 6601
-0.470 1.857 1.643 6040
-0.472 1.868 1.642 5043
-0.483 1.908 1.665 5736
-0.487 1.925 1.669 8163
-0.492 1.948 1.677 11732
-0.494 1.952 1.671 11841
-0.495 1.956 1.665 12160
-0.497 1.967 1.664 14563
-0.501 1.983 1.667 11704
-0.506 2.000 1.671 10448
-0.508 2.011 1.669 12506
-0.509 2.015 1.663 13264
-0.512 2.025 1.662 11908
-0.515 2.036 1.660 14652
-0.514 2.034 1.649 17007
-0.520 2.057 1.657 12379
-0.526 2.080 1.664 17334
-0.525 2.078 1.653 16182
-0.522 2.063 1.633 12979
-0.531 2.099 1.649 10615
-0.538 2.129 1.661 11893
-0.541 2.139 1.659 11868
-0.544 2.150 1.657 11703
-0.553 2.186 1.672 9661
-0.559 2.210 1.679 7607
-0.561 2.220 1.676 7394
-0.562 2.225 1.670 7569
-0.564 2.229 1.663 5695
-0.578 2.285 1.691 5934
-0.577 2.283 1.679 7147
-0.578 2.287 1.672 7130
-0.578 2.285 1.661 8059
-0.579 2.289 1.654 10968
-0.580 2.293 1.647 12709
-0.583 2.304 1.644 10713
-0.603 2.387 1.688 5887
-0.605 2.391 1.680 6701
-0.629 2.487 1.731 6150
-0.628 2.485 1.719 7122
-0.629 2.489 1.712 7233
-0.634 2.507 1.712 5562
-0.637 2.518 1.709 7081
-0.638 2.522 1.701 9904
-0.639 2.527 1.693 9483
-0.640 2.531 1.686 9062
-0.644 2.549 1.686 6738
-0.662 2.620 1.718 6988
-0.667 2.637 1.718 7998
-0.666 2.635 1.706 8602
-0.666 2.633 1.694 9382
-0.667 2.637 1.686 8001
-0.668 2.641 1.678 8186
-0.671 2.652 1.673 9862
-0.673 2.664 1.669 9673
-0.676 2.675 1.665 9997
-0.677 2.679 1.657 9463
-0.678 2.683 1.649 8929
-0.679 2.687 1.641 8302
-0.681 2.692 1.632 7675
-0.682 2.696 1.624 6366
-0.684 2.707 1.620 5162
-0.711 2.813 1.666 3877
-0.716 2.831 1.665 5178
-0.717 2.835 1.656 5961
-0.720 2.846 1.651 6828
-0.724 2.864 1.650 5370
-0.750 2.965 1.691 5110
-0.749 2.962 1.678 5160
-0.750 2.966 1.669 5221
-0.753 2.978 1.664 4183
-0.754 2.982 1.655 3166
-0.757 2.993 1.649 2335
-0.781 3.087 1.684 2948
-0.782 3.092 1.675 3100
-0.786 3.110 1.672 3306
-0.787 3.114 1.663 2517
-0.817 3.230 1.707 2926
-0.818 3.234 1.697 2926
-0.819 3.238 1.687 3492
-0.818 3.236 1.674 4068
-0.819 3.240 1.664 3324
-0.820 3.244 1.655 2580
-0.821 3.249 1.645 2524
-0.821 3.246 1.632 2496
-0.822 3.250 1.622 2496
-0.823 3.254 1.612 1248
-0.160 0.637 1.667 13790
-0.162 0.645 1.672 15149
-0.164 0.652 1.677 17210
-0.166 0.660 1.682 15677
-0.168 0.667 1.687 15204
-0.169 0.671 1.685 15204
-0.170 0.676 1.683 13662
-0.172 0.683 1.688 12156
-0.172 0.685 1.679 10009
-0.171 0.679 1.655 8200
-0.174 0.693 1.675 13814
-0.175 0.697 1.672 19729
-0.176 0.702 1.670 21870
-0.177 0.706 1.668 24011
-0.179 0.714 1.673 22632
-0.180 0.715 1.664 17398
-0.181 0.719 1.661 13707
-0.182 0.723 1.659 11242
-0.184 0.731 1.664 8917
-0.184 0.732 1.655 11949
-0.185 0.736 1.652 15121
-0.187 0.744 1.657 16582
-0.189 0.752 1.662 18578
-0.189 0.752 1.653 17929
-0.190 0.757 1.650 17346
-0.190 0.757 1.641 16916
-0.191 0.762 1.639 14808
-0.195 0.777 1.657 13943
-0.196 0.781 1.655 12696
-0.198 0.789 1.659 10257
-0.201 0.801 1.671 7326
-0.207 0.824 1.703 5533
-0.205 0.817 1.679 6598
-0.202 0.806 1.649 8208
-0.204 0.810 1.647 9942
-0.205 0.815 1.644 11675
-0.211 0.842 1.683 10538
-0.214 0.850 1.687 11052
-0.216 0.858 1.691 9300
-0.218 0.867 1.695 13261
-0.219 0.871 1.693 18426
-0.220 0.875 1.690 20365
-0.221 0.880 1.687 20979
-0.223 0.888 1.691 17742
-0.223 0.888 1.682 13576
-0.223 0.889 1.672 12504
-0.223 0.889 1.663 11954
-0.225 0.897 1.667 13515
-0.228 0.906 1.671 16096
-0.229 0.910 1.668 15505
-0.230 0.914 1.665 12903
-0.231 0.919 1.662 10891
-0.232 0.923 1.660 7545
-0.234 0.931 1.663 3923
-0.243 0.969 1.714 4020
-0.246 0.978 1.717 5547
-0.246 0.978 1.708 7542
-0.247 0.982 1.705 8423
-0.248 0.987 1.702 6982
-0.249 0.991 1.699 4792
-0.249 0.991 1.689 6242
-0.250 0.996 1.686 8515
-0.252 1.004 1.689 12664
-0.253 1.009 1.686 21471
-0.256 1.017 1.690 28366
-0.257 1.022 1.686 30617
-0.258 1.026 1.683 27825
-0.260 1.035 1.687 25026
-0.262 1.044 1.690 24153
-0.264 1.053 1.693 19785
-0.266 1.057 1.690 14518
-0.265 1.057 1.680 10765
-0.267 1.061 1.677 8423
-0.269 1.070 1.680 7925
-0.271 1.079 1.683 5997
-0.274 1.092 1.693 9088
-0.274 1.092 1.683 12282
-0.275 1.097 1.680 12055
-0.275 1.096 1.670 11728
-0.278 1.105 1.673 14297
-0.278 1.105 1.663 14453
-0.277 1.104 1.653 11273
-0.282 1.123 1.669 11159
-0.287 1.141 1.684 11624
-0.289 1.150 1.687 6968
-0.285 1.136 1.658 6616
-0.284 1.130 1.643 10202
-0.286 1.139 1.645 15945
-0.289 1.148 1.648 21196
-0.290 1.153 1.644 18669
-0.291 1.157 1.641 16067
-0.293 1.166 1.643 15237
-0.294 1.170 1.640 10815
-0.298 1.184 1.648 11691
-0.299 1.189 1.645 18257
-0.300 1.193 1.641 16144
-0.299 1.192 1.631 12435
-0.302 1.201 1.634 16298
-0.304 1.210 1.636 16927
-0.308 1.225 1.644 17329
-0.310 1.234 1.647 18456
-0.310 1.233 1.637 15613
-0.310 1.232 1.627 13445
-0.312 1.241 1.629 15441
-0.315 1.256 1.637 22902
-0.317 1.260 1.634 25054
-0.318 1.264 1.630 30069
-0.319 1.268 1.626 35863
-0.318 1.267 1.616 33946
-0.319 1.272 1.612 32136
-0.322 1.281 1.614 29548
-0.323 1.285 1.610 25101
-0.325 1.294 1.612 23936
-0.328 1.304 1.614 16888
-0.334 1.329 1.633 10361
-0.338 1.344 1.640 10820
-0.340 1.353 1.642 16332
-0.341 1.357 1.638 15423
-0.341 1.356 1.628 14684
-0.346 1.376 1.641 16190
-0.351 1.397 1.654 20059
-0.355 1.412 1.661 28377
-0.357 1.421 1.662 30806
-0.361 1.436 1.669 24927
-0.362 1.441 1.665 17166
-0.360 1.434 1.649 20195
-0.359 1.428 1.634 38896
-0.360 1.432 1.629 52992
-0.361 1.436 1.625 44244
-0.360 1.435 1.615 36363
-0.363 1.444 1.616 27424
-0.365 1.454 1.617 21014
-0.366 1.458 1.613 18688
-0.369 1.468 1.614 12779
-0.371 1.477 1.615 17506
-0.374 1.487 1.616 20997
-0.390 1.553 1.671 13927
-0.393 1.563 1.671 8931
-0.395 1.573 1.672 9369
-0.398 1.583 1.672 16643
-0.399 1.587 1.668 21124
-0.400 1.591 1.663 17535
-0.404 1.607 1.668 15794
-0.406 1.617 1.669 14550
-0.409 1.627 1.669 12311
-0.410 1.631 1.664 9143
-0.411 1.636 1.659 6751
-0.416 1.657 1.670 5621
-0.419 1.667 1.670 4117
-0.423 1.683 1.675 8126
-0.424 1.688 1.670 15595
-0.425 1.692 1.665 18007
-0.426 1.696 1.660 14172
-0.429 1.706 1.660 12798
-0.430 1.711 1.655 10407
-0.438 1.744 1.675 4895
-0.439 1.748 1.670 8135
-0.439 1.747 1.659 13696
-0.441 1.757 1.659 16179
-0.444 1.767 1.659 20293
-0.447 1.778 1.658 23001
-0.451 1.794 1.663 20924
-0.455 1.810 1.667 20193
-0.457 1.820 1.667 16520
-0.458 1.825 1.661 14049
-0.461 1.835 1.660 16904
-0.465 1.851 1.665 15223
-0.471 1.874 1.674 8597
-0.466 1.854 1.648 6065
-0.467 1.858 1.643 5846
-0.469 1.868 1.642 4991
-0.480 1.909 1.665 7846
-0.484 1.926 1.669 9669
-0.488 1.942 1.672 12025
-0.489 1.947 1.666 11159
-0.490 1.951 1.661 11128
-0.494 1.967 1.664 14871
-0.498 1.984 1.667 12434
-0.503 2.001 1.671 10769
-0.504 2.005 1.665 12202
-0.506 2.016 1.663 12258
-0.507 2.020 1.657 10590
-0.512 2.037 1.660 13092
-0.511 2.035 1.649 16097
-0.517 2.058 1.657 11821
-0.523 2.081 1.664 16584
-0.522 2.079 1.653 15537
-0.519 2.064 1.633 11988
-0.529 2.106 1.654 10449
-0.535 2.130 1.661 11045
-0.538 2.140 1.659 11090
-0.540 2.151 1.657 11647
-0.549 2.187 1.672 9509
-0.554 2.204 1.674 7333
-0.558 2.221 1.676 6134
-0.557 2.219 1.665 6234
-0.580 2.307 1.715 5365
-0.576 2.292 1.695 5945
-0.575 2.290 1.684 7382
-0.576 2.294 1.677 7175
-0.574 2.286 1.661 7807
-0.575 2.290 1.654 10559
-0.576 2.294 1.647 12344
-0.579 2.305 1.644 10473
-0.600 2.388 1.688 5863
-0.603 2.398 1.684 6666
-0.625 2.488 1.731 5992
-0.624 2.486 1.719 6885
-0.626 2.490 1.712 6925
-0.630 2.508 1.712 5231
-0.633 2.519 1.709 6946
-0.636 2.530 1.705 9894
-0.635 2.528 1.693 9436
-0.636 2.532 1.686 9009
-0.641 2.550 1.686 6915
-0.657 2.614 1.714 7222
-0.663 2.638 1.718 8387
-0.662 2.636 1.706 8911
-0.662 2.634 1.694 9523
-0.663 2.638 1.686 8153
-0.664 2.642 1.678 8444
-0.667 2.654 1.673 10247
-0.669 2.665 1.669 10048
-0.672 2.676 1.665 10338
-0.673 2.680 1.657 9616
-0.674 2.684 1.649 8894
-0.675 2.688 1.641 8229
-0.676 2.693 1.632 7564
-0.677 2.697 1.624 6281
-0.680 2.708 1.620 5069
-0.681 2.712 1.611 3660
-0.711 2.832 1.665 4291
-0.713 2.836 1.656 4896
-0.715 2.847 1.651 5541
-0.720 2.865 1.650 4346
-0.743 2.959 1.687 4236
-0.744 2.963 1.678 4242
-0.745 2.968 1.669 4249
-0.748 2.979 1.664 3423
-0.749 2.983 1.655 2598
-0.693 2.759 1.532 2004
-0.694 2.763 1.524 2577
-0.777 3.093 1.675 2653
-0.780 3.104 1.669 2784
-0.788 3.136 1.673 2126
-0.812 3.231 1.707 2687
-0.813 3.235 1.697 2687
-0.814 3.240 1.687 3177
-0.815 3.244 1.677 3666
-0.814 3.241 1.664 2917
-0.815 3.246 1.655 2174
-0.816 3.250 1.645 2098
-0.839 3.338 1.673 2157
-0.840 3.343 1.663 2157
-0.841 3.347 1.653 1078
-0.158 0.638 1.667 13495
-0.160 0.645 1.672 15000
-0.162 0.653 1.677 17189
-0.164 0.660 1.682 15397
-0.166 0.668 1.687 14682
-0.167 0.672 1.685 14682
-0.168 0.676 1.683 13240
-0.169 0.681 1.681 11798
-0.170 0.685 1.679 9897
-0.168 0.679 1.655 8597
-0.172 0.694 1.675 13752
-0.173 0.698 1.672 19507
-0.174 0.702 1.670 21633
-0.175 0.707 1.668 23758
-0.176 0.711 1.666 22406
-0.177 0.715 1.664 17408
-0.178 0.716 1.654 13923
-0.179 0.724 1.659 11670
-0.181 0.732 1.664 9678
-0.182 0.732 1.655 12893
-0.183 0.737 1.652 16207
-0.185 0.744 1.657 17181
-0.187 0.752 1.662 18664
-0.187 0.753 1.653 17787
-0.188 0.757 1.650 17024
-0.188 0.758 1.641 16819
-0.189 0.762 1.639 14948
-0.193 0.777 1.657 14654
-0.194 0.782 1.655 13717
-0.196 0.790 1.659 11243
-0.199 0.801 1.671 7686
-0.204 0.824 1.703 5333
-0.204 0.821 1.686 6037
-0.200 0.807 1.649 7049
-0.201 0.811 1.647 8366
-0.201 0.811 1.637 9717
-0.209 0.843 1.683 10213
-0.211 0.851 1.687 11288
-0.208 0.840 1.657 9957
-0.214 0.863 1.689 14699
-0.215 0.868 1.686 20581
-0.217 0.876 1.690 23195
-0.218 0.880 1.687 24391
-0.220 0.889 1.691 21010
-0.220 0.889 1.682 16829
-0.221 0.889 1.672 15449
-0.221 0.890 1.663 13606
-0.223 0.898 1.667 13360
-0.225 0.906 1.671 15128
-0.226 0.911 1.668 15354
-0.227 0.915 1.665 13661
-0.229 0.923 1.669 11884
-0.230 0.928 1.666 7983
-0.236 0.953 1.697 4781
-0.242 0.974 1.720 4596
-0.243 0.979 1.717 6231
-0.243 0.979 1.708 8136
-0.244 0.983 1.705 9165
-0.245 0.988 1.702 7992
-0.246 0.992 1.699 6476
-0.247 0.996 1.695 7802
-0.248 1.001 1.692 9545
-0.249 1.005 1.689 13165
-0.250 1.010 1.686 20866
-0.252 1.018 1.690 27413
-0.254 1.023 1.686 29506
-0.255 1.027 1.683 26525
-0.257 1.036 1.687 23570
-0.259 1.045 1.690 22822
-0.261 1.053 1.693 18279
-0.262 1.058 1.690 13032
-0.263 1.062 1.687 9389
-0.264 1.067 1.683 7995
-0.266 1.071 1.680 8983
-0.268 1.080 1.683 7234
-0.271 1.093 1.693 9055
-0.272 1.098 1.689 11170
-0.273 1.102 1.686 10459
-0.273 1.102 1.676 11577
-0.274 1.106 1.673 15194
-0.275 1.110 1.669 14026
-0.276 1.115 1.666 10433
-0.281 1.133 1.681 11657
-0.284 1.147 1.690 13302
-0.285 1.151 1.687 9106
-0.282 1.137 1.658 8790
-0.282 1.136 1.649 12986
-0.283 1.140 1.645 19148
-0.285 1.149 1.648 22963
-0.286 1.154 1.644 18581
-0.287 1.158 1.641 15783
-0.289 1.167 1.643 15956
-0.290 1.171 1.640 11683
-0.295 1.190 1.655 12311
-0.296 1.194 1.651 18542
-0.296 1.194 1.641 15043
-0.297 1.198 1.637 13650
-0.299 1.207 1.640 21468
-0.300 1.211 1.636 22691
-0.303 1.220 1.638 21171
-0.304 1.225 1.635 19549
-0.305 1.229 1.631 15989
-0.305 1.228 1.621 13033
-0.308 1.242 1.629 13381
-0.312 1.257 1.637 18594
-0.313 1.261 1.634 19841
-0.314 1.265 1.630 25141
-0.315 1.269 1.626 31082
-0.315 1.268 1.616 28540
-0.317 1.278 1.618 27943
-0.319 1.287 1.620 26948
-0.320 1.291 1.616 22993
-0.321 1.295 1.612 21342
-0.325 1.310 1.620 15037
-0.331 1.335 1.639 10666
-0.335 1.350 1.646 10765
-0.336 1.354 1.642 16448
-0.337 1.358 1.638 16894
-0.338 1.363 1.634 17185
-0.340 1.372 1.635 17996
-0.345 1.392 1.648 19783
-0.350 1.413 1.661 27661
-0.354 1.428 1.668 32705
-0.356 1.438 1.669 26934
-0.358 1.442 1.665 16828
-0.357 1.441 1.655 18264
-0.354 1.429 1.634 34031
-0.355 1.433 1.629 46717
-0.356 1.437 1.625 39596
-0.356 1.436 1.615 32484
-0.358 1.445 1.616 24648
-0.361 1.455 1.617 18288
-0.362 1.459 1.613 15711
-0.364 1.469 1.614 12211
-0.367 1.479 1.615 17345
-0.386 1.555 1.681 19737
-0.385 1.554 1.671 15528
-0.388 1.564 1.671 9724
-0.389 1.568 1.666 9695
-0.393 1.584 1.672 16603
-0.394 1.588 1.668 22045
-0.395 1.593 1.663 18125
-0.397 1.603 1.663 14784
-0.401 1.618 1.669 15989
-0.404 1.628 1.669 17599
-0.405 1.633 1.664 13289
-0.407 1.643 1.664 8381
-0.410 1.653 1.665 6100
-0.412 1.663 1.665 6561
-0.416 1.679 1.670 11788
-0.419 1.689 1.670 17176
