0.106 1.433 1.624 22720
0.109 1.470 1.653 15049
0.112 1.508 1.683 21015
0.113 1.524 1.689 22562
0.114 1.540 1.696 18546
0.115 1.550 1.697 13768
0.115 1.554 1.692 15663
0.117 1.581 1.710 24204
0.118 1.592 1.711 35814
0.118 1.596 1.706 49154
0.118 1.595 1.696 48526
0.119 1.605 1.696 33785
0.119 1.610 1.692 26860
0.120 1.620 1.692 27380
0.121 1.630 1.693 19778
0.122 1.646 1.699 11917
0.123 1.662 1.705 13807
0.123 1.667 1.700 19312
0.123 1.666 1.689 20343
0.124 1.676 1.690 20918
0.124 1.680 1.685 27722
0.126 1.697 1.690 26331
0.127 1.713 1.696 22207
0.128 1.729 1.701 23777
0.129 1.740 1.701 22262
0.130 1.756 1.707 17920
0.130 1.761 1.701 18804
0.131 1.771 1.701 22285
0.132 1.782 1.701 29680
0.133 1.792 1.701 27391
0.133 1.791 1.691 17942
0.133 1.789 1.680 15701
0.133 1.800 1.680 16207
0.134 1.804 1.675 19589
0.134 1.814 1.674 20389
0.136 1.837 1.684 20116
0.138 1.860 1.694 26393
0.138 1.864 1.688 37344
0.139 1.875 1.688 36874
0.139 1.880 1.682 25781
0.140 1.884 1.676 14766
0.141 1.901 1.681 9865
0.143 1.930 1.695 14406
0.144 1.947 1.699 15823
0.145 1.964 1.703 12264
0.146 1.968 1.697 13751
0.146 1.967 1.686 18999
0.147 1.984 1.690 18495
0.148 1.994 1.689 16427
0.149 2.012 1.693 13863
0.150 2.022 1.691 11377
0.150 2.027 1.685 9633
0.150 2.025 1.675 9215
0.151 2.036 1.673 12728
0.152 2.046 1.672 24121
0.152 2.051 1.666 29309
0.152 2.055 1.660 24299
0.153 2.060 1.654 21808
0.153 2.071 1.652 24551
0.154 2.075 1.646 25524
0.154 2.073 1.636 19919
0.160 2.161 1.689 14115
0.161 2.172 1.687 13063
0.162 2.183 1.685 12141
0.162 2.187 1.678 13359
0.162 2.192 1.672 14278
0.163 2.203 1.670 11830
0.169 2.279 1.712 18601
0.170 2.290 1.710 21215
0.170 2.301 1.708 19346
0.171 2.306 1.701 17083
0.172 2.317 1.698 13979
0.173 2.335 1.700 14341
0.173 2.339 1.693 13938
0.174 2.344 1.686 14181
0.173 2.341 1.675 14578
0.174 2.346 1.668 15052
0.174 2.344 1.657 11729
0.173 2.341 1.646 6579
0.179 2.413 1.681 5608
0.179 2.417 1.674 7732
0.179 2.421 1.667 8770
0.180 2.426 1.659 7684
0.183 2.471 1.677 5949
0.184 2.482 1.674 8412
0.185 2.493 1.671 9299
0.184 2.484 1.655 6882
0.183 2.468 1.636 5405
0.183 2.472 1.628 5847
0.183 2.477 1.621 5966
0.185 2.494 1.622 6438
0.185 2.499 1.614 5460
0.195 2.633 1.682 6558
0.195 2.637 1.674 7831
0.196 2.649 1.670 6952
0.197 2.660 1.666 6215
0.197 2.658 1.655 6021
0.203 2.745 1.693 8171
0.204 2.749 1.685 11623
0.204 2.761 1.681 12199
0.205 2.765 1.673 12947
0.205 2.769 1.664 9905
0.205 2.774 1.656 6863
0.208 2.806 1.663 5776
0.209 2.817 1.658 6325
0.209 2.822 1.650 5990
0.212 2.861 1.660 5753
0.216 2.915 1.677 7174
0.215 2.898 1.658 8884
0.216 2.916 1.656 8301
0.217 2.928 1.651 7860
0.217 2.925 1.639 7853
0.217 2.930 1.630 7883
0.217 2.934 1.622 6236
0.222 3.002 1.645 5072
0.223 3.006 1.636 3927
0.226 3.053 1.648 2889
0.234 3.164 1.690 3908
0.235 3.169 1.681 5446
0.235 3.173 1.672 4897
0.232 3.127 1.639 5255
0.232 3.132 1.629 4791
0.238 3.215 1.657 5372
0.238 3.219 1.647 5372
0.239 3.231 1.641 4302
0.240 3.235 1.632 3292
0.243 3.275 1.638 2947
0.244 3.294 1.635 3194
0.245 3.313 1.632 2792
0.256 3.462 1.686 2880
0.257 3.466 1.676 2880
0.257 3.471 1.665 1440
0.051 0.661 1.681 19794
0.051 0.666 1.679 16480
0.052 0.674 1.684 13725
0.053 0.681 1.689 9978
0.053 0.689 1.694 6529
0.053 0.694 1.692 6529
0.054 0.698 1.690 4624
0.053 0.689 1.660 2955
0.054 0.704 1.679 3875
0.055 0.715 1.691 5041
0.056 0.723 1.696 8511
0.056 0.727 1.694 11998
0.056 0.728 1.685 13692
0.056 0.733 1.682 14999
0.057 0.734 1.673 14365
0.057 0.742 1.678 16539
0.058 0.746 1.676 18877
0.058 0.751 1.673 19554
0.058 0.755 1.671 20231
0.059 0.763 1.676 20069
0.059 0.768 1.674 20332
0.060 0.776 1.678 15941
0.060 0.784 1.683 12024
0.061 0.792 1.688 12256
0.061 0.796 1.685 12591
0.062 0.801 1.683 12049
0.062 0.805 1.680 11508
0.063 0.814 1.685 10339
0.063 0.822 1.689 9698
0.064 0.834 1.701 11915
0.065 0.846 1.712 14378
0.066 0.855 1.716 13775
0.066 0.859 1.714 14315
0.067 0.868 1.718 14953
0.067 0.868 1.709 14757
0.067 0.873 1.706 14651
0.068 0.877 1.703 13897
0.068 0.878 1.694 13247
0.068 0.882 1.691 12667
0.068 0.887 1.689 10580
0.069 0.891 1.686 9279
0.069 0.896 1.683 10488
0.070 0.904 1.687 11771
0.070 0.913 1.691 12539
0.071 0.917 1.689 10577
0.071 0.922 1.686 7499
0.071 0.926 1.683 12107
0.072 0.935 1.687 23527
0.072 0.939 1.684 30505
0.073 0.944 1.681 33587
0.074 0.957 1.692 32091
0.074 0.961 1.689 27541
0.075 0.970 1.693 22310
0.075 0.975 1.690 17439
0.075 0.979 1.687 17847
0.076 0.984 1.684 19595
0.076 0.984 1.675 20685
0.076 0.988 1.672 19312
0.076 0.993 1.669 17930
0.078 1.006 1.679 15025
0.078 1.010 1.676 18228
0.078 1.015 1.673 23252
0.079 1.019 1.670 21081
0.079 1.028 1.673 14973
0.080 1.041 1.683 15477
0.081 1.050 1.686 20365
0.081 1.055 1.683 20401
0.081 1.055 1.674 17897
0.082 1.064 1.677 18955
0.083 1.078 1.687 17898
0.084 1.091 1.696 14674
0.085 1.100 1.699 12281
0.083 1.072 1.651 10881
0.084 1.086 1.661 11210
0.087 1.123 1.702 12093
0.087 1.128 1.699 16748
0.088 1.137 1.702 19234
0.088 1.146 1.705 20107
0.089 1.151 1.701 16802
0.090 1.170 1.717 11935
0.091 1.184 1.726 13809
0.092 1.188 1.722 18137
0.092 1.198 1.725 20451
0.092 1.198 1.715 20209
0.092 1.197 1.705 24673
0.093 1.212 1.714 28895
0.094 1.221 1.717 28725
0.094 1.226 1.713 22075
0.094 1.225 1.703 17923
0.094 1.225 1.694 16947
0.095 1.229 1.690 14905
0.095 1.239 1.692 16593
0.096 1.243 1.689 20645
0.097 1.253 1.691 19517
0.097 1.262 1.693 21062
0.098 1.267 1.690 24665
0.098 1.271 1.686 18744
0.099 1.291 1.700 12876
0.100 1.296 1.696 10832
0.101 1.305 1.698 10085
0.101 1.305 1.689 16472
0.101 1.309 1.685 20880
0.101 1.313 1.681 13261
0.101 1.313 1.671 7160
0.102 1.317 1.667 8818
0.103 1.337 1.681 11495
0.103 1.342 1.677 18129
0.104 1.346 1.673 26567
0.104 1.351 1.669 29852
0.104 1.355 1.665 20515
0.105 1.359 1.661 16030
0.105 1.364 1.657 19083
0.105 1.368 1.653 13774
0.106 1.373 1.649 6635
0.106 1.372 1.639 5211
0.106 1.381 1.640 9192
0.106 1.380 1.631 17622
0.106 1.379 1.621 19916
0.107 1.389 1.622 22139
0.108 1.399 1.624 21999
0.109 1.408 1.625 22605
0.109 1.413 1.621 29719
0.110 1.422 1.623 28995
0.110 1.432 1.624 24569
0.111 1.442 1.625 16042
0.115 1.491 1.666 17903
0.117 1.518 1.684 21772
0.118 1.534 1.690 20500
0.119 1.549 1.697 18090
0.120 1.554 1.692 18441
0.121 1.575 1.704 22320
0.123 1.591 1.711 28390
0.123 1.596 1.706 40912
0.123 1.595 1.696 41817
0.124 1.605 1.696 29564
0.124 1.615 1.697 26469
0.125 1.625 1.698 29879
0.126 1.636 1.698 21894
0.127 1.652 1.704 11064
0.128 1.662 1.705 11693
0.128 1.666 1.700 17033
0.129 1.671 1.695 18044
0.129 1.675 1.690 19009
0.129 1.680 1.685 26565
0.130 1.690 1.685 26223
0.132 1.712 1.696 24250
0.133 1.729 1.701 27254
0.134 1.739 1.701 26888
0.135 1.756 1.707 20523
0.136 1.760 1.701 20584
0.136 1.771 1.701 21488
0.138 1.787 1.706 24083
0.138 1.792 1.701 20677
0.138 1.796 1.696 12934
0.138 1.789 1.680 11617
0.139 1.805 1.685 13497
0.139 1.804 1.675 17697
0.140 1.814 1.674 20252
0.142 1.837 1.684 23606
0.143 1.853 1.689 28805
0.144 1.870 1.693 40821
0.144 1.875 1.688 41405
0.145 1.879 1.682 30323
0.145 1.884 1.676 17452
0.147 1.907 1.686 10550
0.149 1.930 1.695 15929
0.150 1.940 1.694 18202
0.151 1.957 1.698 12888
0.151 1.962 1.692 14823
0.152 1.966 1.686 20718
0.152 1.977 1.685 19046
0.154 1.994 1.689 16374
0.155 2.011 1.693 12271
0.155 2.016 1.687 9839
0.156 2.026 1.685 10088
0.156 2.024 1.675 9860
0.157 2.042 1.678 12779
0.158 2.052 1.677 23270
0.158 2.050 1.666 26936
0.158 2.055 1.660 20196
0.159 2.066 1.658 16837
0.160 2.070 1.652 19056
0.160 2.074 1.646 20012
0.160 2.079 1.640 15437
0.167 2.161 1.689 16351
0.167 2.172 1.687 14324
0.168 2.182 1.685 12140
0.169 2.187 1.678 12936
0.169 2.191 1.672 14321
0.170 2.202 1.670 12595
0.176 2.279 1.712 18437
0.177 2.296 1.714 22266
0.177 2.301 1.708 21478
0.178 2.305 1.701 18945
0.179 2.316 1.698 15992
0.179 2.328 1.696 16355
0.181 2.345 1.698 15801
0.181 2.343 1.686 16301
0.181 2.348 1.679 16548
0.181 2.345 1.668 16433
0.181 2.343 1.657 12797
0.180 2.341 1.646 7109
0.181 2.352 1.643 4416
0.186 2.416 1.674 6413
0.187 2.421 1.667 8007
0.187 2.432 1.664 7423
0.190 2.470 1.677 5842
0.192 2.488 1.678 8439
0.192 2.492 1.671 9557
0.191 2.483 1.655 7211
0.190 2.467 1.636 5776
0.190 2.472 1.628 6219
0.191 2.476 1.621 6484
0.192 2.487 1.618 6897
0.192 2.491 1.610 5833
0.203 2.632 1.682 6531
0.204 2.644 1.678 8027
0.204 2.648 1.670 7195
0.210 2.728 1.705 6432
0.211 2.740 1.701 5887
0.211 2.744 1.693 8919
0.212 2.749 1.685 12467
0.213 2.760 1.681 12739
0.213 2.764 1.673 13195
0.213 2.769 1.664 10032
0.214 2.773 1.656 6870
0.217 2.812 1.667 6791
0.218 2.824 1.662 7906
0.218 2.828 1.654 6839
0.218 2.826 1.642 5823
0.225 2.921 1.681 7556
0.225 2.925 1.672 9353
0.226 2.937 1.667 8424
0.228 2.955 1.666 7775
0.226 2.932 1.643 7549
0.226 2.929 1.630 7780
0.227 2.940 1.625 6526
0.228 2.959 1.624 5644
0.228 2.956 1.611 4043
0.244 3.166 1.703 2646
0.244 3.170 1.694 4299
0.245 3.175 1.684 5952
0.245 3.179 1.675 5310
0.247 3.205 1.676 4781
0.248 3.217 1.670 5151
0.248 3.221 1.660 5555
0.249 3.226 1.651 5555
0.249 3.230 1.641 4583
0.249 3.234 1.632 3612
0.252 3.267 1.635 2891
0.254 3.301 1.638 3030
0.256 3.319 1.635 2737
0.267 3.468 1.689 3158
0.268 3.473 1.679 3158
0.268 3.477 1.669 1579
0.053 0.661 1.681 18962
0.053 0.666 1.679 15619
0.054 0.673 1.684 12821
0.055 0.681 1.689 9412
0.055 0.689 1.694 6336
0.056 0.693 1.692 6336
0.056 0.698 1.690 4955
0.056 0.699 1.681 3589
0.057 0.707 1.686 4753
0.057 0.711 1.684 5932
0.058 0.719 1.689 9363
0.058 0.727 1.694 12901
0.059 0.728 1.685 14519
0.059 0.733 1.682 15747
0.059 0.737 1.680 15102
0.060 0.742 1.678 17170
0.060 0.746 1.676 19397
0.060 0.750 1.673 19487
0.061 0.755 1.671 19578
0.061 0.763 1.676 18823
0.062 0.767 1.674 18490
0.062 0.775 1.678 14319
0.063 0.784 1.683 10630
0.064 0.792 1.688 11366
0.064 0.796 1.685 12212
0.064 0.801 1.683 11653
0.065 0.805 1.680 11095
0.065 0.810 1.678 10338
0.066 0.822 1.689 10099
0.067 0.834 1.701 12426
0.068 0.846 1.712 15047
0.069 0.854 1.716 14565
0.069 0.859 1.714 15524
0.070 0.867 1.718 16432
0.070 0.868 1.709 16488
0.070 0.873 1.706 16671
0.070 0.877 1.703 15608
0.071 0.878 1.694 14565
0.071 0.882 1.691 13550
0.071 0.887 1.689 11486
0.072 0.891 1.686 10615
0.072 0.896 1.683 11517
0.072 0.900 1.681 12399
0.073 0.909 1.685 12583
0.073 0.913 1.682 10013
0.074 0.918 1.679 7159
0.074 0.926 1.683 12533
0.075 0.935 1.687 25427
0.075 0.939 1.684 32961
0.076 0.944 1.681 35573
0.077 0.952 1.685 32222
0.077 0.961 1.689 26674
0.078 0.970 1.693 20878
0.078 0.974 1.690 15488
0.079 0.979 1.687 15904
0.079 0.979 1.678 17834
0.079 0.979 1.668 20160
0.079 0.984 1.665 19940
0.080 0.992 1.669 19412
0.081 1.010 1.685 16780
0.082 1.014 1.682 17434
0.082 1.014 1.673 20552
0.082 1.023 1.676 18705
0.083 1.032 1.680 13512
0.084 1.046 1.690 14308
0.085 1.055 1.693 18785
0.085 1.055 1.683 19365
0.085 1.055 1.674 17818
0.085 1.064 1.677 19518
0.087 1.077 1.687 18660
0.088 1.091 1.696 15007
0.089 1.105 1.706 12369
0.090 1.119 1.715 11083
0.090 1.123 1.712 11188
0.090 1.123 1.702 14563
0.091 1.127 1.699 18890
0.091 1.137 1.702 20190
0.092 1.146 1.705 20089
0.092 1.150 1.701 16350
0.094 1.169 1.717 12166
0.095 1.184 1.726 12508
0.095 1.188 1.722 15176
0.096 1.193 1.719 17275
0.096 1.192 1.709 18688
0.096 1.197 1.705 24877
0.097 1.206 1.708 28516
0.098 1.221 1.717 27530
0.098 1.225 1.713 22267
0.098 1.225 1.703 22013
0.098 1.224 1.694 22851
0.099 1.229 1.690 18236
0.100 1.238 1.692 15467
0.100 1.243 1.689 18230
0.101 1.252 1.691 19012
0.101 1.262 1.693 21469
0.102 1.271 1.696 23970
0.103 1.276 1.692 16856
0.104 1.296 1.706 10602
0.105 1.305 1.708 8884
0.105 1.305 1.698 8727
0.105 1.304 1.689 15991
0.105 1.309 1.685 20887
0.106 1.318 1.687 13033
0.108 1.338 1.701 6956
0.106 1.317 1.667 8457
0.107 1.337 1.681 11524
0.108 1.341 1.677 17436
0.108 1.346 1.673 26598
0.109 1.356 1.675 31167
0.109 1.360 1.671 21852
0.110 1.364 1.667 15867
0.110 1.363 1.657 16798
0.110 1.368 1.653 12019
0.110 1.372 1.649 7913
0.111 1.377 1.645 7064
0.111 1.381 1.640 8331
0.111 1.380 1.631 14364
0.111 1.384 1.626 15544
0.112 1.394 1.628 18268
0.113 1.404 1.630 19294
0.114 1.414 1.631 20078
0.114 1.418 1.627 27074
0.114 1.422 1.623 27701
0.115 1.432 1.624 24384
0.115 1.436 1.620 16907
0.119 1.485 1.660 15335
0.122 1.518 1.684 20204
0.123 1.533 1.690 20624
0.125 1.555 1.702 21430
0.125 1.553 1.692 20643
0.126 1.569 1.699 20337
0.127 1.585 1.705 20436
0.128 1.595 1.706 30374
0.128 1.594 1.696 33341
0.129 1.604 1.696 25527
0.130 1.615 1.697 24890
0.131 1.625 1.698 28963
0.131 1.635 1.698 22016
0.133 1.651 1.704 11010
0.134 1.662 1.705 10235
0.134 1.672 1.705 14750
0.134 1.671 1.695 16449
0.135 1.681 1.695 18326
0.135 1.680 1.685 25416
0.136 1.690 1.685 25040
0.138 1.718 1.701 25041
0.139 1.728 1.701 28417
0.140 1.739 1.701 28299
0.141 1.749 1.701 20726
0.141 1.760 1.701 20753
0.142 1.770 1.701 20467
0.144 1.787 1.706 19056
0.144 1.791 1.701 14519
0.144 1.796 1.696 9536
0.144 1.794 1.685 8803
0.145 1.805 1.685 10668
0.145 1.803 1.675 14135
0.147 1.826 1.684 19585
0.148 1.842 1.689 25556
0.149 1.853 1.689 28933
0.150 1.870 1.693 40467
0.151 1.874 1.688 41880
0.151 1.879 1.682 31674
0.151 1.883 1.676 18355
0.153 1.906 1.686 11179
0.155 1.929 1.695 17143
0.156 1.940 1.694 19812
0.157 1.957 1.698 13866
0.158 1.961 1.692 16233
0.157 1.959 1.681 21671
0.159 1.976 1.685 19020
0.160 1.993 1.689 15861
0.161 2.004 1.688 10630
0.162 2.021 1.691 8853
0.163 2.026 1.685 11027
0.163 2.030 1.679 10585
0.164 2.041 1.678 12397
0.165 2.052 1.677 21098
0.165 2.050 1.666 23317
0.166 2.061 1.665 16593
0.166 2.072 1.663 13185
0.166 2.070 1.652 14685
0.167 2.080 1.651 15601
0.172 2.136 1.681 13643
0.174 2.160 1.689 17182
0.174 2.171 1.687 14488
0.175 2.182 1.685 11541
0.175 2.180 1.674 12147
0.176 2.191 1.672 13650
0.177 2.202 1.670 12516
0.183 2.271 1.708 17059
0.184 2.296 1.714 21712
0.185 2.300 1.708 21661
0.185 2.305 1.701 19350
0.186 2.316 1.698 16893
0.187 2.327 1.696 17028
0.188 2.345 1.698 16184
0.188 2.343 1.686 16920
0.188 2.340 1.675 17132
0.188 2.345 1.668 16527
0.188 2.343 1.657 12926
0.188 2.340 1.646 7368
0.189 2.351 1.643 4730
0.194 2.409 1.670 5341
0.194 2.420 1.667 7240
0.195 2.431 1.664 7185
0.199 2.476 1.681 5884
0.200 2.487 1.678 8161
0.200 2.485 1.667 9370
0.200 2.483 1.655 7320
0.199 2.474 1.640 6019
0.199 2.471 1.628 6405
0.199 2.475 1.621 6723
0.200 2.486 1.618 7080
0.200 2.491 1.610 6021
0.212 2.639 1.686 6380
0.212 2.643 1.678 7836
0.213 2.647 1.670 7033
0.219 2.727 1.705 7019
0.220 2.739 1.701 6326
0.220 2.743 1.693 9204
0.221 2.748 1.685 12683
0.221 2.752 1.677 12665
0.222 2.764 1.673 12794
0.222 2.768 1.664 9626
0.229 2.849 1.697 6656
0.227 2.826 1.674 7414
0.227 2.830 1.666 8893
0.227 2.827 1.654 7306
0.227 2.825 1.642 5901
0.235 2.920 1.681 7702
0.236 2.932 1.676 9717
0.237 2.943 1.671 8735
0.237 2.955 1.666 8002
0.236 2.931 1.643 7432
0.236 2.935 1.634 7612
0.236 2.939 1.625 6644
0.238 2.958 1.624 6130
0.238 2.962 1.615 4595
0.238 2.959 1.603 3112
0.255 3.170 1.694 4260
0.255 3.174 1.684 5928
0.256 3.186 1.678 5399
0.258 3.204 1.676 5032
0.258 3.216 1.670 5172
0.259 3.228 1.663 5468
0.260 3.232 1.654 5468
0.260 3.236 1.644 4554
0.260 3.234 1.632 3668
0.261 3.252 1.629 2718
0.266 3.307 1.642 2753
0.268 3.333 1.641 2598
0.279 3.467 1.689 3077
0.279 3.472 1.679 3077
0.279 3.476 1.669 1538
0.055 0.661 1.681 18468
0.056 0.669 1.686 15437
0.056 0.677 1.691 12998
0.057 0.681 1.689 9935
0.057 0.689 1.694 7162
0.058 0.693 1.692 7162
0.058 0.698 1.690 5942
0.058 0.702 1.688 4723
0.059 0.707 1.686 6190
0.059 0.711 1.684 7658
0.060 0.719 1.689 10880
0.061 0.727 1.694 14300
0.061 0.728 1.685 15819
0.061 0.733 1.682 16885
0.061 0.737 1.680 16226
0.062 0.741 1.678 18052
0.062 0.746 1.676 20042
0.062 0.750 1.673 19532
0.063 0.755 1.671 19023
0.063 0.759 1.669 17522
0.064 0.767 1.674 16179
0.065 0.775 1.678 12270
0.065 0.783 1.683 8837
0.066 0.788 1.681 10339
0.066 0.796 1.685 11913
0.067 0.801 1.683 11406
0.067 0.801 1.673 10931
0.067 0.809 1.678 10658
0.068 0.821 1.689 10855
0.069 0.834 1.701 13392
0.070 0.846 1.712 16169
0.071 0.854 1.716 15713
0.072 0.859 1.714 16902
0.072 0.867 1.718 17975
0.072 0.868 1.709 18718
0.073 0.872 1.706 19715
0.073 0.877 1.703 18430
0.073 0.881 1.701 17145
0.073 0.882 1.691 15550
0.074 0.886 1.689 13404
0.074 0.891 1.686 12938
0.075 0.895 1.683 13410
0.075 0.900 1.681 13835
0.075 0.904 1.678 12921
0.076 0.913 1.682 9351
0.076 0.917 1.679 6513
0.077 0.926 1.683 12985
0.078 0.935 1.687 27931
0.078 0.939 1.684 36322
0.079 0.943 1.681 37985
0.079 0.952 1.685 31986
0.080 0.961 1.689 24980
0.081 0.970 1.693 19083
0.081 0.974 1.690 13458
0.081 0.979 1.687 13696
0.081 0.979 1.678 16037
0.082 0.979 1.668 20292
0.082 0.988 1.672 21539
0.083 0.996 1.675 21598
0.084 1.010 1.685 18919
0.085 1.023 1.695 17746
0.085 1.019 1.679 18858
0.086 1.028 1.683 17414
0.086 1.037 1.686 13812
0.087 1.050 1.696 14074
0.088 1.054 1.693 17279
0.088 1.059 1.690 18696
0.088 1.054 1.674 17954
0.089 1.063 1.677 19851
0.089 1.072 1.680 19849
0.090 1.086 1.690 16186
0.092 1.104 1.706 13627
0.093 1.118 1.715 12058
0.093 1.123 1.712 12344
0.093 1.123 1.702 17675
0.094 1.127 1.699 22126
0.095 1.136 1.702 21708
0.095 1.146 1.705 20062
0.096 1.155 1.708 16185
0.097 1.169 1.717 13382
0.098 1.174 1.713 12000
0.098 1.178 1.710 12079
0.099 1.188 1.713 13919
0.099 1.192 1.709 17660
0.100 1.197 1.705 25202
0.100 1.206 1.708 28428
0.102 1.220 1.717 25775
0.102 1.225 1.713 22059
0.102 1.225 1.703 26085
0.102 1.229 1.700 29715
0.103 1.234 1.696 24062
0.103 1.238 1.692 15688
0.103 1.243 1.689 14838
0.105 1.257 1.697 18294
0.105 1.262 1.693 22009
0.106 1.271 1.696 24542
0.107 1.281 1.698 17731
0.108 1.295 1.706 10706
0.109 1.305 1.708 8966
0.109 1.310 1.705 8320
0.109 1.304 1.689 14250
0.109 1.314 1.691 19091
0.110 1.323 1.693 12698
0.112 1.343 1.707 7583
0.110 1.316 1.667 9756
0.111 1.331 1.675 12975
0.112 1.341 1.677 16905
0.112 1.351 1.679 27467
0.113 1.355 1.675 33521
0.114 1.365 1.677 25102
0.114 1.369 1.672 17239
0.114 1.369 1.663 13677
0.114 1.368 1.653 9595
0.114 1.372 1.649 10048
0.115 1.376 1.645 9818
0.115 1.386 1.646 7086
0.115 1.385 1.636 9961
0.116 1.389 1.632 10982
0.116 1.399 1.634 14733
0.117 1.409 1.635 17553
0.118 1.413 1.631 18411
0.118 1.417 1.627 23672
0.118 1.422 1.623 25101
0.119 1.426 1.618 22462
0.120 1.436 1.620 16459
0.124 1.485 1.660 11148
0.126 1.517 1.684 18782
0.128 1.533 1.690 21411
0.129 1.554 1.702 25093
0.130 1.559 1.698 24746
0.130 1.558 1.688 22502
0.131 1.573 1.694 16698
0.132 1.589 1.700 20551
0.133 1.594 1.696 24791
0.134 1.604 1.696 21358
0.134 1.614 1.697 21312
0.135 1.624 1.698 25277
0.136 1.635 1.698 20500
0.137 1.645 1.699 11287
0.138 1.655 1.699 9619
0.139 1.671 1.705 12716
0.139 1.670 1.695 15640
0.140 1.680 1.695 19291
0.140 1.679 1.685 24808
0.141 1.695 1.690 23501
0.143 1.718 1.701 26692
0.144 1.728 1.701 28853
0.145 1.738 1.701 28019
0.145 1.743 1.696 18957
0.146 1.759 1.701 19975
0.147 1.770 1.701 22876
0.148 1.780 1.701 16863
0.149 1.791 1.701 9915
0.150 1.801 1.701 8354
0.150 1.806 1.696 8123
0.151 1.810 1.690 8016
0.152 1.821 1.690 10083
0.152 1.831 1.689 20272
0.153 1.842 1.689 27391
0.154 1.853 1.689 27845
0.155 1.863 1.688 37541
0.156 1.874 1.688 39979
0.156 1.878 1.682 31752
0.157 1.883 1.676 19288
0.159 1.912 1.691 13321
0.161 1.929 1.695 20227
0.161 1.933 1.689 23433
0.161 1.938 1.683 16449
0.163 1.961 1.692 18826
0.163 1.959 1.681 23169
0.164 1.970 1.680 18892
0.165 1.987 1.684 14654
0.166 1.997 1.683 8771
0.168 2.021 1.691 7400
0.169 2.025 1.685 11927
0.169 2.030 1.679 11512
0.170 2.041 1.678 12107
0.171 2.051 1.677 18231
0.171 2.056 1.671 18900
0.172 2.067 1.669 13315
0.176 2.109 1.691 12350
0.173 2.075 1.657 10656
0.176 2.112 1.674 11986
0.178 2.136 1.681 14371
0.180 2.160 1.689 18235
0.181 2.170 1.687 14724
0.181 2.175 1.680 10836
0.181 2.179 1.674 11144
0.182 2.184 1.667 12788
0.183 2.195 1.665 12513
0.189 2.271 1.708 14349
0.191 2.295 1.714 19610
0.191 2.300 1.708 20616
0.192 2.304 1.701 19099
0.192 2.309 1.694 17796
0.194 2.326 1.696 17389
0.195 2.344 1.698 16041
0.195 2.342 1.686 16918
0.195 2.340 1.675 17076
0.195 2.344 1.668 15789
0.195 2.342 1.657 12709
0.195 2.346 1.650 7898
0.197 2.364 1.651 5856
0.199 2.395 1.661 5363
0.201 2.413 1.662 6872
0.202 2.424 1.659 7449
0.207 2.482 1.685 6275
0.207 2.487 1.678 7952
0.207 2.485 1.667 9122
0.207 2.482 1.655 7506
0.206 2.473 1.640 6468
0.206 2.471 1.628 6779
0.206 2.475 1.621 7184
0.206 2.479 1.614 7589
0.207 2.483 1.606 6552
0.220 2.638 1.686 6187
0.220 2.642 1.678 7419
0.227 2.722 1.713 6976
0.227 2.727 1.705 7777
0.227 2.731 1.697 6943
0.228 2.743 1.693 9559
0.229 2.747 1.685 12856
0.229 2.752 1.677 12444
0.229 2.756 1.669 12033
0.230 2.767 1.664 8864
0.237 2.848 1.697 7850
0.236 2.839 1.682 8898
0.236 2.836 1.669 10528
0.235 2.827 1.654 8280
0.235 2.824 1.642 6526
0.243 2.920 1.681 8330
0.244 2.931 1.676 10680
0.245 2.942 1.671 9732
0.245 2.947 1.662 9015
0.245 2.937 1.646 7936
0.244 2.934 1.634 7885
0.245 2.946 1.629 7134
0.246 2.957 1.624 6763
0.247 2.962 1.615 5500
0.247 2.966 1.606 4222
0.264 3.176 1.697 4064
0.265 3.181 1.688 5698
0.265 3.185 1.678 5437
0.266 3.197 1.672 5299
0.268 3.215 1.670 5124
0.269 3.234 1.667 5395
0.270 3.238 1.657 5395
0.269 3.236 1.644 4587
0.270 3.240 1.635 3781
0.277 3.331 1.664 2704
0.278 3.342 1.658 2837
0.278 3.339 1.645 2648
0.289 3.466 1.689 2937
0.289 3.471 1.679 2937
0.289 3.475 1.669 1468
0.056 0.661 1.681 17785
0.057 0.669 1.686 14841
0.057 0.676 1.691 12598
0.058 0.681 1.689 9733
0.059 0.692 1.702 7324
0.059 0.697 1.700 7324
0.059 0.698 1.690 6547
0.059 0.702 1.688 5832
0.060 0.707 1.686 7265
0.060 0.711 1.684 8697
0.061 0.719 1.689 11674
0.062 0.727 1.694 14895
0.062 0.728 1.685 16230
0.062 0.732 1.682 17084
0.062 0.737 1.680 16422
0.063 0.741 1.678 17968
0.063 0.746 1.676 19677
0.064 0.750 1.673 18689
0.064 0.755 1.671 17700
0.064 0.759 1.669 15610
0.065 0.763 1.667 13520
0.065 0.772 1.671 10326
0.066 0.780 1.676 7488
0.067 0.788 1.681 9344
0.067 0.792 1.678 11322
0.067 0.797 1.676 10848
0.068 0.801 1.673 10374
0.069 0.809 1.678 10552
0.070 0.821 1.689 11248
0.071 0.834 1.701 13920
0.072 0.846 1.712 16720
0.072 0.850 1.710 16281
0.073 0.859 1.714 17471
0.073 0.867 1.718 18598
0.074 0.868 1.709 19824
0.074 0.872 1.706 21380
0.074 0.877 1.703 20056
0.075 0.881 1.701 18733
0.075 0.882 1.691 16844
0.075 0.886 1.689 14729
0.075 0.891 1.686 14543
0.076 0.895 1.683 14696
0.076 0.900 1.681 14790
0.077 0.904 1.678 13032
0.077 0.909 1.675 8831
0.077 0.913 1.672 6327
0.078 0.922 1.676 13626
0.079 0.930 1.680 29597
0.080 0.939 1.684 38224
0.080 0.943 1.681 39088
0.081 0.952 1.685 31072
0.081 0.961 1.689 22994
0.082 0.970 1.693 17486
0.083 0.974 1.690 12240
0.083 0.979 1.687 12392
0.083 0.979 1.678 14575
0.083 0.979 1.668 19583
0.084 0.988 1.672 22237
0.084 0.996 1.675 22910
0.086 1.014 1.692 20101
0.087 1.027 1.702 17805
0.087 1.023 1.686 16998
0.087 1.032 1.689 16291
0.088 1.041 1.693 14980
0.089 1.045 1.690 14243
0.089 1.054 1.693 15913
0.090 1.059 1.690 17884
0.089 1.054 1.674 17430
0.090 1.063 1.677 19249
0.091 1.072 1.680 19881
0.092 1.081 1.683 16643
0.094 1.104 1.706 14943
0.095 1.118 1.715 13182
0.095 1.123 1.712 13193
0.095 1.123 1.702 19379
0.095 1.127 1.699 23619
0.096 1.136 1.702 22048
0.097 1.150 1.711 19556
0.098 1.155 1.708 15782
0.099 1.164 1.711 13881
0.099 1.169 1.707 12285
0.099 1.168 1.697 10874
0.100 1.183 1.706 11253
0.101 1.187 1.703 16255
0.101 1.196 1.705 24822
0.102 1.206 1.708 27277
0.103 1.215 1.711 22980
0.104 1.225 1.713 20439
0.104 1.224 1.703 27222
0.104 1.229 1.700 32504
0.104 1.233 1.696 27041
0.105 1.238 1.692 15404
0.105 1.242 1.689 12004
0.106 1.257 1.697 17242
0.107 1.267 1.700 21259
0.108 1.271 1.696 24286
0.109 1.286 1.704 19254
0.110 1.300 1.712 11157
0.111 1.310 1.714 8770
0.111 1.309 1.705 8272
0.110 1.304 1.689 12840
0.111 1.313 1.691 17132
0.113 1.328 1.699 13449
0.114 1.343 1.707 8141
0.111 1.311 1.661 9710
0.113 1.336 1.681 12875
0.114 1.346 1.683 16611
0.115 1.356 1.685 28103
0.115 1.360 1.681 34267
0.116 1.365 1.677 27154
0.116 1.369 1.672 17907
0.116 1.374 1.668 11179
0.116 1.373 1.658 8547
0.116 1.372 1.649 11758
0.117 1.382 1.650 11350
0.117 1.386 1.646 6427
0.118 1.390 1.642 7222
0.118 1.395 1.638 9728
0.119 1.404 1.639 14423
0.119 1.409 1.635 16713
0.120 1.418 1.637 16646
0.120 1.417 1.627 20094
0.120 1.422 1.623 21643
0.121 1.426 1.618 19234
0.122 1.436 1.620 13982
0.129 1.518 1.694 9119
0.129 1.523 1.689 17775
0.130 1.538 1.696 20808
0.132 1.554 1.702 26821
0.132 1.559 1.698 27358
0.132 1.563 1.693 25151
0.133 1.568 1.689 21558
0.134 1.583 1.695 21127
0.135 1.588 1.690 23911
0.135 1.598 1.691 19881
0.137 1.614 1.697 16533
0.138 1.630 1.703 19920
0.138 1.635 1.698 17700
0.139 1.645 1.699 11940
0.140 1.649 1.694 10153
0.142 1.671 1.705 12161
0.141 1.670 1.695 15140
0.142 1.680 1.695 19091
0.142 1.679 1.685 22523
0.144 1.701 1.696 20919
0.145 1.717 1.701 26424
0.146 1.728 1.701 26968
0.147 1.732 1.696 25151
0.148 1.743 1.696 16477
0.150 1.765 1.707 18691
0.150 1.770 1.701 25453
0.150 1.774 1.696 20871
0.151 1.785 1.696 12576
0.153 1.801 1.701 9742
0.153 1.806 1.696 8588
0.154 1.816 1.695 7725
0.156 1.839 1.705 10972
0.156 1.843 1.700 22146
0.157 1.848 1.694 26988
0.157 1.852 1.689 25461
0.158 1.863 1.688 32557
0.158 1.867 1.683 35066
0.159 1.878 1.682 28864
0.160 1.889 1.681 18826
0.162 1.918 1.695 15069
0.163 1.928 1.695 22006
0.164 1.933 1.689 25323
0.164 1.937 1.683 18339
0.166 1.961 1.692 19763
0.166 1.959 1.681 22693
0.167 1.969 1.680 17977
0.168 1.986 1.684 13572
0.169 1.991 1.678 7575
0.171 2.014 1.687 6061
0.172 2.025 1.685 11441
0.172 2.030 1.679 11465
0.173 2.040 1.678 11771
0.174 2.051 1.677 15719
0.174 2.056 1.671 15260
0.177 2.092 1.688 13346
0.178 2.103 1.686 12260
0.179 2.107 1.680 9562
0.179 2.118 1.678 10677
0.181 2.142 1.686 13716
0.183 2.159 1.689 18019
0.183 2.164 1.682 14261
0.184 2.175 1.680 9651
0.185 2.179 1.674 9406
0.185 2.184 1.667 11188
0.185 2.188 1.661 12076
0.187 2.212 1.668 13240
0.194 2.295 1.714 17127
0.195 2.299 1.708 18811
0.195 2.304 1.701 18085
0.196 2.308 1.694 17409
0.197 2.326 1.696 16447
0.199 2.344 1.698 14864
0.198 2.335 1.682 15613
0.198 2.340 1.675 15328
0.199 2.344 1.668 13623
0.199 2.348 1.661 11427
0.199 2.353 1.654 7673
0.201 2.370 1.656 6552
0.202 2.388 1.657 6291
0.204 2.406 1.658 7161
0.205 2.417 1.655 7775
0.211 2.489 1.690 6233
0.211 2.487 1.678 7180
0.210 2.484 1.667 8157
0.211 2.489 1.659 7110
0.209 2.473 1.640 6417
0.210 2.477 1.632 6795
0.210 2.475 1.621 7198
0.210 2.479 1.614 7662
0.210 2.483 1.606 6698
0.224 2.644 1.690 5909
0.224 2.642 1.678 6773
0.231 2.722 1.713 7104
0.230 2.720 1.701 8081
0.231 2.731 1.697 7205
0.232 2.742 1.693 9327
0.233 2.747 1.685 12265
0.233 2.751 1.677 11558
0.233 2.756 1.669 10850
0.234 2.760 1.661 7841
0.241 2.841 1.694 8524
0.240 2.839 1.682 9821
0.240 2.836 1.669 11485
0.240 2.833 1.657 8899
0.240 2.831 1.645 7031
0.247 2.919 1.681 8787
0.248 2.924 1.672 11331
0.249 2.935 1.667 10539
0.250 2.947 1.662 9900
0.249 2.944 1.650 8635
0.249 2.934 1.634 8056
0.250 2.945 1.629 7324
0.251 2.957 1.624 6877
0.251 2.961 1.615 5899
0.252 2.972 1.610 4910
0.269 3.176 1.697 3933
0.269 3.180 1.688 5499
0.270 3.185 1.678 5402
0.271 3.196 1.672 5414
0.272 3.215 1.670 4903
0.274 3.234 1.667 5191
0.274 3.238 1.657 5191
0.275 3.242 1.648 4401
0.274 3.240 1.635 3683
0.282 3.330 1.664 2765
0.283 3.342 1.658 2920
0.283 3.346 1.648 2720
0.294 3.466 1.689 2527
0.294 3.470 1.679 2527
0.294 3.475 1.669 1263
0.058 0.661 1.681 17829
0.058 0.665 1.679 14661
0.059 0.676 1.691 12336
0.060 0.681 1.689 9554
0.061 0.692 1.702 7387
0.061 0.696 1.700 7387
0.062 0.701 1.697 7078
0.062 0.702 1.688 6840
0.062 0.706 1.686 8345
0.062 0.711 1.684 9849
0.063 0.719 1.689 12643
0.064 0.727 1.694 15673
0.064 0.728 1.685 16786
0.064 0.732 1.682 17395
0.065 0.737 1.680 16706
0.065 0.741 1.678 17873
0.065 0.746 1.676 19201
0.066 0.750 1.673 17503
0.067 0.758 1.678 15842
0.067 0.759 1.669 13074
0.067 0.763 1.667 10342
0.068 0.771 1.671 8092
0.068 0.779 1.676 6250
0.069 0.788 1.681 8328
0.070 0.792 1.678 10726
0.070 0.796 1.676 10294
0.070 0.801 1.673 9862
0.071 0.809 1.678 10425
0.072 0.821 1.689 11464
0.073 0.833 1.701 14315
0.074 0.845 1.712 17472
0.075 0.850 1.710 17317
0.075 0.858 1.714 18664
0.076 0.867 1.718 19890
0.076 0.868 1.709 21361
0.077 0.872 1.706 23179
0.077 0.877 1.703 21763
0.077 0.881 1.701 20346
0.077 0.882 1.691 18486
0.078 0.886 1.689 16543
0.079 0.895 1.693 16687
0.079 0.899 1.690 16532
0.079 0.904 1.687 16278
0.080 0.908 1.685 13570
0.080 0.908 1.675 9448
0.080 0.913 1.672 7972
0.081 0.921 1.676 15279
0.082 0.930 1.680 31739
0.082 0.939 1.684 40437
0.083 0.943 1.681 40333
0.084 0.952 1.685 30139
0.084 0.956 1.682 21080
0.085 0.965 1.686 16651
0.086 0.974 1.690 12108
0.086 0.978 1.687 11883
0.086 0.974 1.671 13796
0.086 0.983 1.675 19452
0.087 0.987 1.672 23173
0.087 0.996 1.675 24492
0.089 1.014 1.692 21899
0.090 1.027 1.702 18409
0.090 1.027 1.692 16203
0.091 1.036 1.696 16570
0.091 1.036 1.686 17215
0.091 1.041 1.683 15381
0.093 1.059 1.699 14751
0.093 1.063 1.696 17140
0.093 1.058 1.680 17009
0.093 1.063 1.677 18158
0.094 1.072 1.680 19024
0.095 1.081 1.683 16394
0.097 1.104 1.706 16022
0.098 1.118 1.715 14474
0.099 1.122 1.712 14087
0.099 1.122 1.702 20929
0.099 1.127 1.699 25096
0.100 1.136 1.702 22412
0.101 1.150 1.711 19131
0.101 1.155 1.708 15417
0.102 1.164 1.711 14768
0.102 1.164 1.701 13659
0.102 1.158 1.685 11138
0.103 1.177 1.700 9146
0.104 1.187 1.703 15078
0.105 1.191 1.699 24259
0.105 1.201 1.702 26558
0.107 1.215 1.711 20833
0.107 1.220 1.707 18843
0.108 1.224 1.703 26984
0.108 1.229 1.700 33792
0.108 1.233 1.696 29624
0.109 1.238 1.692 16083
0.110 1.247 1.695 9752
0.111 1.262 1.703 15497
0.111 1.266 1.700 20351
0.112 1.276 1.702 25717
0.113 1.285 1.704 22769
0.114 1.295 1.706 12829
0.115 1.310 1.714 8419
0.115 1.309 1.705 8272
0.115 1.309 1.695 11595
0.116 1.323 1.703 15198
0.117 1.333 1.705 15025
0.117 1.338 1.701 9492
0.116 1.326 1.679 10323
0.118 1.341 1.687 14633
0.119 1.351 1.689 19053
0.119 1.356 1.685 30053
0.119 1.360 1.681 34696
0.120 1.364 1.677 27717
0.120 1.369 1.672 17812
0.121 1.373 1.668 9980
0.121 1.378 1.664 9401
0.121 1.377 1.654 14724
0.121 1.381 1.650 13111
0.122 1.391 1.652 6331
0.123 1.395 1.648 6827
0.123 1.400 1.644 11777
0.124 1.409 1.645 16061
0.124 1.414 1.641 16798
0.125 1.418 1.637 15150
0.124 1.417 1.627 15828
0.125 1.421 1.623 16044
0.125 1.426 1.618 12889
0.126 1.435 1.620 10148
0.134 1.523 1.699 9486
0.134 1.528 1.695 17720
0.136 1.549 1.707 21085
0.137 1.559 1.708 28955
0.137 1.558 1.698 30265
0.137 1.563 1.693 28657
0.138 1.567 1.689 26958
0.139 1.583 1.695 25833
0.139 1.587 1.690 28650
0.140 1.598 1.691 21018
0.141 1.608 1.692 12199
0.143 1.630 1.703 14136
0.144 1.634 1.698 14537
0.144 1.639 1.693 12819
0.145 1.649 1.694 11535
0.147 1.671 1.705 13617
0.147 1.670 1.695 15555
0.148 1.680 1.695 18894
0.148 1.684 1.690 19952
0.150 1.712 1.706 18795
0.151 1.723 1.706 25164
0.152 1.727 1.701 23898
0.152 1.732 1.696 20915
0.152 1.736 1.691 14335
0.155 1.765 1.707 17843
0.155 1.769 1.701 28082
0.156 1.774 1.696 26375
0.156 1.778 1.691 16952
0.158 1.801 1.701 10994
0.159 1.805 1.696 9682
0.159 1.816 1.695 10386
0.161 1.832 1.700 16031
0.162 1.843 1.700 25284
0.162 1.847 1.694 27064
0.163 1.852 1.689 23251
0.164 1.862 1.688 26527
0.164 1.867 1.683 27863
0.165 1.877 1.682 23672
0.167 1.900 1.691 18670
0.168 1.917 1.695 17507
0.169 1.922 1.690 23689
0.170 1.932 1.689 26666
0.170 1.937 1.683 19931
0.172 1.960 1.692 20298
0.172 1.958 1.681 21538
0.172 1.963 1.676 16745
0.174 1.986 1.684 12295
0.175 1.990 1.678 7075
0.177 2.020 1.691 5380
0.178 2.025 1.685 10452
0.178 2.029 1.679 11392
0.179 2.040 1.678 11992
0.180 2.044 1.672 14106
0.180 2.055 1.671 12465
0.184 2.091 1.688 14375
0.185 2.102 1.686 12526
0.184 2.100 1.675 9253
0.185 2.111 1.674 9080
0.189 2.148 1.690 12702
0.189 2.152 1.684 17550
0.190 2.163 1.682 13690
0.190 2.168 1.676 8201
0.194 2.211 1.696 7261
0.192 2.183 1.667 9312
0.192 2.187 1.661 11783
0.194 2.211 1.668 13501
0.195 2.216 1.661 15318
0.202 2.299 1.708 17005
0.202 2.303 1.701 17079
0.203 2.308 1.694 16668
0.204 2.325 1.696 15109
0.206 2.343 1.698 13483
0.205 2.334 1.682 13669
0.205 2.339 1.675 12552
0.206 2.350 1.672 10550
0.207 2.354 1.665 9459
0.208 2.372 1.667 7765
0.209 2.377 1.660 7310
0.210 2.388 1.657 7717
0.211 2.399 1.654 8545
0.212 2.410 1.651 8990
0.212 2.414 1.644 6498
0.218 2.486 1.678 5860
0.218 2.484 1.667 6431
0.218 2.488 1.659 6160
0.218 2.479 1.644 6068
0.217 2.476 1.632 6467
0.218 2.481 1.625 6925
0.218 2.478 1.614 7477
0.218 2.482 1.606 6668
0.232 2.644 1.690 5606
0.232 2.641 1.678 6040
0.238 2.714 1.710 7196
0.239 2.719 1.701 8542
0.239 2.723 1.693 7670
0.240 2.735 1.689 9156
0.241 2.746 1.685 11452
0.241 2.744 1.673 10425
0.241 2.748 1.665 9425
0.242 2.759 1.661 6627
0.249 2.840 1.694 9372
0.250 2.845 1.685 10917
0.250 2.842 1.673 12748
0.249 2.833 1.657 9823
0.249 2.830 1.645 7884
0.256 2.918 1.681 9699
0.257 2.923 1.672 12606
0.258 2.934 1.667 11953
0.258 2.939 1.658 11408
0.258 2.943 1.650 9800
0.258 2.940 1.637 8611
0.259 2.945 1.629 7624
0.260 2.956 1.624 6971
0.260 2.960 1.615 6132
0.261 2.972 1.610 5269
0.261 2.976 1.601 3879
0.279 3.179 1.688 5208
0.280 3.184 1.678 5282
0.281 3.195 1.672 5425
0.282 3.214 1.670 4714
0.285 3.240 1.670 5214
0.285 3.244 1.661 5214
0.285 3.249 1.651 4499
0.288 3.275 1.651 3857
0.289 3.286 1.645 3017
0.293 3.341 1.658 3144
0.294 3.352 1.651 3036
0.295 3.357 1.641 2931
0.295 3.361 1.631 2931
0.296 3.365 1.621 1465
0.060 0.661 1.681 17350
0.060 0.665 1.679 14201
0.061 0.676 1.691 12025
0.062 0.684 1.697 9466
0.063 0.692 1.702 7488
0.063 0.696 1.700 7488
0.064 0.701 1.697 7524
0.064 0.702 1.688 7577
0.064 0.706 1.686 9085
0.065 0.711 1.684 10593
0.065 0.719 1.689 13193
0.066 0.727 1.694 15997
0.066 0.728 1.685 16842
0.066 0.732 1.682 17156
0.067 0.736 1.680 16425
0.067 0.741 1.678 17290
0.068 0.745 1.676 18315
0.068 0.750 1.673 16190
0.069 0.758 1.678 14283
0.069 0.759 1.669 10887
0.069 0.759 1.659 7874
0.070 0.768 1.664 6544
0.070 0.776 1.669 5574
0.072 0.787 1.681 7567
0.072 0.792 1.678 10091
0.073 0.800 1.683 9707
0.073 0.804 1.680 9369
0.073 0.809 1.678 10029
0.075 0.821 1.689 11118
0.076 0.833 1.701 14057
0.077 0.845 1.712 17540
0.077 0.850 1.710 17693
0.078 0.858 1.714 19288
0.079 0.867 1.718 20682
0.079 0.867 1.709 22425
0.079 0.872 1.706 24505
0.080 0.876 1.703 22991
0.080 0.881 1.701 21476
0.080 0.881 1.691 19623
0.080 0.886 1.689 17759
0.081 0.894 1.693 18095
0.082 0.899 1.690 17721
0.082 0.903 1.687 17187
0.082 0.908 1.685 13890
0.082 0.908 1.675 10322
0.083 0.913 1.672 10146
0.084 0.921 1.676 17382
0.084 0.930 1.680 33203
0.085 0.934 1.678 41749
0.086 0.943 1.681 40545
0.086 0.947 1.679 29250
0.087 0.956 1.682 19462
0.087 0.960 1.680 15905
0.088 0.969 1.683 12174
0.089 0.978 1.687 11720
0.088 0.974 1.671 13162
0.089 0.983 1.675 18868
0.090 0.987 1.672 23160
0.090 0.996 1.675 24811
0.092 1.013 1.692 22755
0.094 1.031 1.709 18388
0.094 1.031 1.699 14931
0.094 1.031 1.689 16784
0.094 1.036 1.686 19338
0.094 1.036 1.677 16799
0.096 1.058 1.699 14192
0.097 1.063 1.696 16838
0.096 1.058 1.680 16684
0.097 1.063 1.677 16719
0.097 1.072 1.680 17360
0.099 1.085 1.690 15441
0.100 1.104 1.706 16576
0.102 1.118 1.715 15390
0.102 1.122 1.712 14228
0.102 1.122 1.702 20663
0.102 1.126 1.699 24445
0.103 1.136 1.702 21224
0.104 1.150 1.711 17638
0.105 1.154 1.708 14689
0.106 1.164 1.711 15389
0.106 1.163 1.701 14718
0.105 1.158 1.685 11370
0.106 1.172 1.694 8023
0.108 1.186 1.703 13951
0.108 1.191 1.699 22977
0.109 1.200 1.702 24764
0.110 1.210 1.704 18707
0.111 1.219 1.707 17194
0.111 1.224 1.703 25810
0.112 1.228 1.700 33108
0.112 1.233 1.696 29744
0.113 1.242 1.699 16657
0.116 1.272 1.725 9635
0.115 1.266 1.709 14527
0.115 1.266 1.700 19804
0.116 1.275 1.702 26687
0.117 1.285 1.704 24894
0.118 1.295 1.706 13909
0.118 1.304 1.708 8296
0.119 1.309 1.705 8629
0.119 1.313 1.701 10822
0.121 1.328 1.709 14623
0.122 1.338 1.711 16582
0.121 1.337 1.701 11451
0.121 1.336 1.691 11890
0.122 1.346 1.693 17201
0.123 1.356 1.695 21533
0.123 1.355 1.685 30451
0.123 1.360 1.681 33677
0.124 1.364 1.677 27108
0.124 1.369 1.672 17044
0.125 1.378 1.674 10072
0.126 1.383 1.670 11298
0.126 1.382 1.660 16240
0.125 1.381 1.650 13644
0.126 1.391 1.652 7070
0.127 1.395 1.648 7823
0.127 1.399 1.644 13813
0.128 1.409 1.645 17282
0.128 1.413 1.641 16285
0.128 1.412 1.631 13545
0.129 1.417 1.627 12994
0.129 1.421 1.623 12668
0.129 1.425 1.618 9081
0.130 1.429 1.614 7020
0.138 1.523 1.699 10239
0.139 1.533 1.701 17628
0.141 1.549 1.707 21629
0.142 1.559 1.708 29198
0.142 1.563 1.703 30409
0.142 1.562 1.693 29837
0.142 1.567 1.689 28888
0.144 1.583 1.695 28554
0.144 1.587 1.690 32807
0.145 1.591 1.685 22121
0.145 1.602 1.686 9987
0.148 1.629 1.703 10593
0.148 1.634 1.698 12548
0.149 1.638 1.693 13492
0.150 1.654 1.699 12849
0.152 1.670 1.705 15482
0.152 1.669 1.695 16504
0.153 1.679 1.695 18674
0.153 1.684 1.690 18471
0.156 1.718 1.711 17510
0.156 1.722 1.706 22838
0.157 1.727 1.701 20547
0.157 1.731 1.696 17430
0.158 1.736 1.691 13260
0.160 1.764 1.707 16925
0.161 1.769 1.701 28166
0.161 1.773 1.696 28505
0.161 1.778 1.691 18536
0.164 1.800 1.701 10781
0.163 1.799 1.690 10226
0.165 1.815 1.695 12886
0.166 1.826 1.695 20063
0.167 1.842 1.700 26476
0.168 1.847 1.694 26806
0.168 1.851 1.689 22420
0.169 1.856 1.683 22644
0.170 1.866 1.683 21563
0.171 1.883 1.687 18328
0.174 1.912 1.701 18680
0.174 1.917 1.695 18433
0.175 1.921 1.690 23904
0.175 1.932 1.689 26155
0.176 1.936 1.683 19717
0.178 1.960 1.692 19625
0.178 1.958 1.681 20043
0.178 1.962 1.676 15386
0.180 1.979 1.679 11005
0.181 1.990 1.678 7195
0.184 2.026 1.696 6075
0.184 2.030 1.690 9782
0.184 2.028 1.679 11286
0.185 2.033 1.673 12198
0.186 2.044 1.672 13328
0.187 2.061 1.675 11455
0.190 2.091 1.688 15408
0.190 2.095 1.682 12879
0.190 2.093 1.671 9418
0.191 2.104 1.669 7841
0.195 2.147 1.690 11925
0.195 2.152 1.684 16366
0.196 2.163 1.682 12548
0.197 2.167 1.676 6991
0.203 2.236 1.714 7002
0.198 2.182 1.667 8120
0.199 2.187 1.661 11701
0.200 2.204 1.663 13339
0.201 2.209 1.657 14922
0.209 2.298 1.708 15088
0.209 2.296 1.696 15701
0.210 2.314 1.698 15339
0.211 2.325 1.696 13658
0.213 2.343 1.698 12381
0.212 2.334 1.682 11874
0.212 2.338 1.675 10019
0.213 2.349 1.672 7938
0.214 2.360 1.670 7816
0.216 2.378 1.671 7885
0.216 2.383 1.664 7555
0.217 2.387 1.657 8528
0.218 2.398 1.654 9720
0.219 2.409 1.651 10065
0.219 2.413 1.644 7399
0.228 2.505 1.690 4814
0.226 2.483 1.667 4731
0.226 2.487 1.659 5097
0.228 2.512 1.664 5562
0.225 2.482 1.636 5916
0.225 2.480 1.625 6456
0.225 2.477 1.614 7042
0.226 2.489 1.610 6464
0.240 2.643 1.690 5235
0.246 2.709 1.718 5467
0.246 2.714 1.710 7027
0.247 2.718 1.701 8586
0.247 2.723 1.693 7860
0.248 2.734 1.689 8783
0.249 2.745 1.685 10494
0.249 2.743 1.673 9270
0.250 2.747 1.665 8061
0.257 2.835 1.702 6703
0.258 2.840 1.694 9720
0.258 2.844 1.685 11446
0.258 2.841 1.673 13338
0.258 2.846 1.665 10274
0.257 2.829 1.645 8353
0.265 2.918 1.681 10131
0.265 2.922 1.672 13209
0.266 2.934 1.667 12661
0.267 2.938 1.658 12328
0.267 2.935 1.646 10494
0.267 2.940 1.637 8953
0.267 2.944 1.629 7645
0.268 2.955 1.624 6654
0.269 2.960 1.615 5931
0.270 2.971 1.610 5193
0.270 2.975 1.601 3901
0.289 3.178 1.688 4881
0.289 3.183 1.678 5061
0.290 3.194 1.672 5257
0.291 3.206 1.666 4386
0.294 3.239 1.670 5011
0.295 3.243 1.661 5011
0.296 3.255 1.654 4438
0.298 3.281 1.655 4138
0.298 3.285 1.645 3302
0.303 3.340 1.658 3162
0.304 3.352 1.651 3130
0.305 3.356 1.641 3100
0.305 3.360 1.631 3100
0.306 3.365 1.621 1550
0.062 0.660 1.681 17306
0.063 0.668 1.686 14514
0.063 0.676 1.691 12678
0.064 0.684 1.697 10610
0.065 0.691 1.702 9064
0.066 0.699 1.707 9125
0.066 0.700 1.697 9085
0.066 0.705 1.695 9106
0.067 0.709 1.693 10360
0.067 0.711 1.684 11654
0.067 0.718 1.689 13972
0.068 0.726 1.694 16381
0.068 0.727 1.685 17051
0.069 0.732 1.682 17138
0.069 0.736 1.680 16343
0.070 0.741 1.678 17181
0.070 0.745 1.676 18182
0.071 0.753 1.680 16042
0.071 0.758 1.678 14255
0.071 0.758 1.669 10190
0.071 0.759 1.659 6826
0.072 0.764 1.657 5886
0.073 0.775 1.669 5228
0.074 0.783 1.674 7047
0.074 0.792 1.678 9483
0.075 0.800 1.683 9166
0.076 0.804 1.680 8906
0.076 0.809 1.678 9779
0.077 0.821 1.689 10846
0.078 0.833 1.701 13680
0.079 0.845 1.712 17250
0.080 0.850 1.710 17603
0.081 0.858 1.714 19087
0.081 0.866 1.718 20476
0.081 0.867 1.709 22836
0.082 0.872 1.706 25636
0.082 0.876 1.703 24275
0.083 0.881 1.701 22914
0.083 0.881 1.691 21058
0.083 0.886 1.689 19285
0.084 0.894 1.693 19865
0.084 0.899 1.690 19289
0.085 0.903 1.687 18520
0.085 0.908 1.685 14909
0.086 0.912 1.682 11700
0.086 0.912 1.672 12096
0.087 0.921 1.676 19154
0.087 0.930 1.680 34204
0.088 0.934 1.678 42738
0.088 0.938 1.675 40834
0.089 0.947 1.679 28331
0.089 0.952 1.676 17996
0.090 0.960 1.680 15233
0.091 0.969 1.683 11677
0.091 0.973 1.680 10949
0.091 0.974 1.671 12134
0.092 0.982 1.675 18249
0.093 0.991 1.678 23226
0.094 0.996 1.675 25290
0.095 1.013 1.692 22895
0.097 1.031 1.709 18067
0.097 1.031 1.699 14586
0.097 1.031 1.689 17372
0.097 1.036 1.686 20971
0.097 1.036 1.677 17886
0.098 1.040 1.674 13970
0.100 1.063 1.696 16791
0.099 1.058 1.680 17149
0.100 1.062 1.677 16760
0.101 1.071 1.680 17292
0.101 1.080 1.683 15519
0.104 1.103 1.706 16911
0.105 1.117 1.715 16255
0.105 1.117 1.706 14587
0.105 1.122 1.702 20360
0.106 1.126 1.699 24040
0.107 1.135 1.702 20390
0.108 1.149 1.711 16301
0.108 1.154 1.708 13650
0.109 1.158 1.704 15439
0.109 1.158 1.694 16030
0.109 1.158 1.685 12657
0.110 1.167 1.688 8192
0.111 1.186 1.703 12989
0.112 1.191 1.699 21915
0.113 1.200 1.702 24197
0.114 1.209 1.704 17821
0.114 1.219 1.707 15434
0.115 1.223 1.703 23994
0.115 1.228 1.700 31966
0.116 1.232 1.696 29395
0.117 1.242 1.699 17216
0.119 1.271 1.725 9484
0.119 1.271 1.715 12755
0.119 1.265 1.700 18414
0.120 1.275 1.702 27141
0.121 1.285 1.704 26020
0.122 1.294 1.706 14261
0.122 1.304 1.708 7768
0.123 1.308 1.705 8329
0.124 1.318 1.707 8899
0.125 1.328 1.709 13202
0.125 1.332 1.705 17449
0.125 1.326 1.689 13613
0.126 1.341 1.697 14400
0.127 1.351 1.699 20999
0.127 1.356 1.695 24522
0.128 1.360 1.691 29798
0.128 1.359 1.681 31948
0.128 1.364 1.677 26444
0.129 1.373 1.678 16834
0.129 1.378 1.674 10427
0.130 1.382 1.670 13412
0.130 1.381 1.660 18132
0.130 1.386 1.656 13717
0.131 1.390 1.652 7413
0.130 1.389 1.642 8585
0.131 1.399 1.644 14224
0.132 1.409 1.645 16637
0.133 1.413 1.641 14535
0.133 1.412 1.631 11120
0.133 1.416 1.627 9857
0.133 1.420 1.623 9382
0.134 1.430 1.624 6801
0.142 1.512 1.698 6801
0.142 1.517 1.694 10354
0.144 1.532 1.701 17422
0.145 1.548 1.707 23029
0.146 1.558 1.708 29255
0.147 1.563 1.703 29944
0.147 1.562 1.693 31701
0.147 1.566 1.689 30824
0.149 1.582 1.695 30660
0.149 1.587 1.690 36583
0.149 1.591 1.685 24881
0.150 1.595 1.681 11393
0.152 1.623 1.698 9583
0.153 1.627 1.693 11675
0.154 1.638 1.693 13843
0.155 1.648 1.694 13861
0.157 1.670 1.705 16666
0.157 1.669 1.695 18143
0.157 1.673 1.690 20090
0.158 1.683 1.690 18669
0.162 1.723 1.717 16163
0.162 1.728 1.712 18823
0.163 1.732 1.706 17365
0.163 1.731 1.696 16130
0.163 1.735 1.691 13908
0.165 1.758 1.701 16264
0.166 1.768 1.701 27263
0.167 1.773 1.696 29437
0.167 1.777 1.691 19687
0.168 1.788 1.691 9847
0.168 1.792 1.685 10525
0.170 1.809 1.690 15549
0.171 1.819 1.690 23441
0.172 1.836 1.695 26381
0.173 1.846 1.694 26808
0.174 1.851 1.689 23955
0.174 1.855 1.683 20974
0.175 1.860 1.678 16001
0.178 1.895 1.697 14834
0.180 1.912 1.701 18366
0.180 1.916 1.695 18795
0.180 1.921 1.690 24208
0.181 1.931 1.689 25802
0.182 1.936 1.683 19725
0.184 1.959 1.692 19343
0.184 1.963 1.686 19678
0.184 1.962 1.676 15133
0.186 1.979 1.679 10473
0.187 1.996 1.683 7913
0.190 2.019 1.691 7601
0.191 2.030 1.690 10076
0.190 2.028 1.679 11794
0.191 2.032 1.673 12994
0.191 2.037 1.667 14159
0.194 2.060 1.675 13068
0.196 2.090 1.688 17122
0.197 2.095 1.682 13887
0.197 2.093 1.671 10277
0.197 2.097 1.665 7484
0.202 2.153 1.695 11679
0.202 2.151 1.684 15245
0.202 2.155 1.678 11530
0.203 2.166 1.676 6371
0.208 2.216 1.701 6453
0.206 2.188 1.672 8508
0.205 2.186 1.661 12798
0.206 2.197 1.659 13836
0.207 2.208 1.657 15123
0.215 2.284 1.699 13431
0.215 2.289 1.692 14421
0.216 2.300 1.690 13470
0.218 2.324 1.696 11705
0.220 2.342 1.698 11051
0.219 2.333 1.682 10188
0.220 2.338 1.675 7917
0.221 2.355 1.677 5906
0.224 2.386 1.687 6857
0.224 2.384 1.675 7762
0.224 2.382 1.664 7273
0.224 2.386 1.657 9076
0.225 2.397 1.654 11183
0.226 2.408 1.651 11638
0.226 2.406 1.640 8841
0.235 2.505 1.690 4319
0.235 2.502 1.679 3595
0.236 2.514 1.676 4805
0.236 2.511 1.664 5623
0.233 2.482 1.636 5619
0.233 2.479 1.625 6118
0.233 2.484 1.618 6665
0.234 2.488 1.610 6232
0.248 2.635 1.686 4776
0.254 2.708 1.718 4886
0.255 2.713 1.710 6766
0.255 2.717 1.701 8647
0.256 2.722 1.693 8222
0.256 2.726 1.685 8658
0.257 2.738 1.681 9715
0.258 2.742 1.673 8289
0.257 2.740 1.661 7037
0.266 2.827 1.698 7109
0.267 2.839 1.694 9938
0.267 2.843 1.685 11868
0.267 2.841 1.673 13893
0.267 2.845 1.665 10892
0.266 2.829 1.645 9095
0.274 2.917 1.681 10458
0.274 2.921 1.672 13676
0.275 2.926 1.663 13393
0.276 2.937 1.658 13262
0.276 2.934 1.646 11329
0.276 2.939 1.637 9549
0.276 2.943 1.629 7885
0.278 2.962 1.627 6530
0.278 2.959 1.615 5856
0.278 2.963 1.606 5152
0.279 2.974 1.601 4044
0.298 3.178 1.688 4137
0.299 3.182 1.678 4403
0.299 3.186 1.669 4669
0.286 3.041 1.589 4436
0.305 3.245 1.673 4950
0.305 3.250 1.664 4950
0.306 3.261 1.658 4648
0.308 3.280 1.655 4532
0.308 3.277 1.642 3703
0.314 3.339 1.658 3065
0.315 3.351 1.651 3145
0.316 3.362 1.644 3234
0.316 3.367 1.634 3234
0.317 3.371 1.625 1617
0.063 0.660 1.681 16906
0.064 0.668 1.686 14412
0.065 0.679 1.699 13093
0.065 0.684 1.697 11412
0.066 0.691 1.702 10237
0.067 0.699 1.707 10362
0.067 0.704 1.705 9956
0.067 0.705 1.695 9570
0.068 0.709 1.693 10746
0.068 0.714 1.691 11922
0.069 0.718 1.689 14069
0.069 0.726 1.694 16297
0.069 0.727 1.685 16795
0.070 0.732 1.682 16691
0.070 0.736 1.680 15858
0.071 0.741 1.678 16658
0.071 0.745 1.676 17607
0.072 0.753 1.680 15470
0.072 0.758 1.678 13652
0.073 0.762 1.676 9259
0.072 0.756 1.652 5776
0.073 0.764 1.657 5147
0.074 0.772 1.662 4596
0.075 0.783 1.674 6125
0.076 0.792 1.678 8452
0.076 0.800 1.683 8362
0.077 0.804 1.680 8289
0.077 0.809 1.678 9255
0.078 0.821 1.689 10290
0.079 0.833 1.701 13072
0.081 0.845 1.712 16772
0.081 0.849 1.710 17275
0.082 0.858 1.714 18648
0.083 0.866 1.718 20072
0.083 0.867 1.709 23089
0.083 0.868 1.699 26686
0.083 0.872 1.697 25440
0.084 0.877 1.694 24146
0.084 0.881 1.691 22195
0.084 0.885 1.689 20382
0.085 0.894 1.693 21140
0.086 0.898 1.690 20413
0.086 0.903 1.687 19486
0.087 0.907 1.685 15792
0.087 0.912 1.682 13320
0.087 0.916 1.679 14342
0.088 0.921 1.676 21331
0.089 0.929 1.680 35289
0.089 0.934 1.678 43375
0.090 0.938 1.675 40666
0.090 0.943 1.672 27551
0.091 0.951 1.676 17165
0.091 0.952 1.666 15748
0.092 0.965 1.677 12488
0.093 0.973 1.680 11375
0.093 0.973 1.671 12108
0.094 0.982 1.675 17932
0.095 0.991 1.678 23374
0.095 1.000 1.682 25522
0.097 1.013 1.692 22926
0.098 1.031 1.709 17354
0.099 1.035 1.705 13596
0.098 1.031 1.689 17532
0.098 1.031 1.680 22497
0.099 1.035 1.677 18773
0.099 1.040 1.674 14020
0.101 1.062 1.696 16318
0.101 1.058 1.680 16533
0.101 1.062 1.677 15551
0.102 1.071 1.680 15794
0.103 1.076 1.677 14497
0.106 1.108 1.712 16905
0.107 1.117 1.715 17080
0.107 1.117 1.706 14559
0.107 1.121 1.702 19075
0.107 1.126 1.699 22489
0.108 1.130 1.696 18683
0.110 1.149 1.711 14113
0.110 1.154 1.708 12522
0.110 1.158 1.704 15908
0.110 1.158 1.694 16932
0.110 1.158 1.685 12638
0.111 1.167 1.688 7917
0.113 1.181 1.697 11842
0.114 1.190 1.699 20089
0.114 1.195 1.696 22592
0.115 1.204 1.698 16317
0.116 1.214 1.701 13283
0.117 1.223 1.703 20899
0.117 1.223 1.694 28738
0.118 1.232 1.696 27076
0.118 1.242 1.699 17025
0.121 1.271 1.725 9197
0.122 1.276 1.722 10951
0.121 1.265 1.700 16369
0.122 1.275 1.702 26709
0.123 1.284 1.704 26381
0.123 1.294 1.706 14390
0.124 1.304 1.708 7437
0.125 1.308 1.705 8058
0.126 1.318 1.707 7576
0.127 1.328 1.709 12205
0.127 1.327 1.699 18554
0.127 1.326 1.689 15797
0.128 1.341 1.697 17369
0.129 1.351 1.699 24144
0.129 1.355 1.695 26202
