0.969 0.816 1.713 24928
0.980 0.825 1.722 35398
0.984 0.828 1.718 44865
0.987 0.831 1.714 49889
0.991 0.834 1.710 53322
0.998 0.841 1.712 49124
1.002 0.844 1.708 28369
1.009 0.850 1.711 13009
1.017 0.856 1.713 17603
1.020 0.859 1.709 25164
1.028 0.865 1.711 23172
1.035 0.872 1.713 20194
1.039 0.874 1.709 18445
1.042 0.877 1.705 12388
1.050 0.884 1.706 14150
1.057 0.890 1.708 22734
1.065 0.896 1.710 20432
1.072 0.903 1.712 14455
1.076 0.906 1.708 11344
1.079 0.909 1.703 13969
1.087 0.915 1.705 18203
1.090 0.918 1.701 21929
1.098 0.924 1.702 26638
1.101 0.927 1.698 17195
1.126 0.948 1.722 7896
1.129 0.951 1.718 10290
1.133 0.954 1.714 15561
1.136 0.957 1.709 13666
1.135 0.956 1.699 12874
1.156 0.973 1.717 20616
1.164 0.980 1.719 22113
1.167 0.983 1.714 22484
1.171 0.986 1.710 23080
1.178 0.992 1.711 16936
1.186 0.999 1.712 12373
1.172 0.987 1.685 9388
1.210 1.019 1.725 15672
1.222 1.029 1.731 19030
1.235 1.040 1.737 19929
1.234 1.039 1.727 24124
1.237 1.042 1.722 21653
1.245 1.048 1.723 32013
1.253 1.055 1.724 41774
1.261 1.062 1.724 24149
1.269 1.068 1.725 18844
1.277 1.075 1.725 23785
1.276 1.074 1.715 14265
1.195 1.006 1.608 10213
1.198 1.009 1.603 14584
1.313 1.106 1.732 18713
1.317 1.109 1.727 25896
1.320 1.112 1.722 20016
1.328 1.119 1.722 10924
1.336 1.125 1.722 8500
1.340 1.128 1.717 9563
1.348 1.135 1.717 13019
1.356 1.142 1.717 17085
1.360 1.145 1.712 13943
1.358 1.144 1.701 8429
1.371 1.154 1.706 10054
1.379 1.161 1.706 18043
1.387 1.168 1.706 25057
1.391 1.171 1.701 23232
1.399 1.178 1.700 17868
1.407 1.185 1.700 18074
1.406 1.184 1.689 20221
1.414 1.190 1.689 15780
1.417 1.193 1.684 12116
1.425 1.200 1.683 12965
1.429 1.203 1.678 13004
1.432 1.206 1.672 12297
1.445 1.217 1.676 13580
1.449 1.220 1.671 10521
1.438 1.211 1.651 6312
1.489 1.253 1.694 8115
1.478 1.244 1.674 10188
1.476 1.243 1.663 9800
1.499 1.262 1.677 10539
1.507 1.269 1.676 13595
1.511 1.272 1.670 12415
1.519 1.279 1.669 9985
1.522 1.282 1.663 10388
1.526 1.284 1.657 8571
1.558 1.312 1.679 6606
1.566 1.319 1.678 5138
1.580 1.330 1.681 5558
1.573 1.325 1.666 5097
1.626 1.369 1.706 6657
1.619 1.363 1.691 8954
1.618 1.362 1.680 11252
1.616 1.361 1.669 11456
1.615 1.360 1.658 8397
1.663 1.400 1.693 6918
1.651 1.390 1.673 7179
1.645 1.385 1.658 5478
1.758 1.480 1.750 4987
1.756 1.479 1.739 7449
1.755 1.477 1.728 10290
1.768 1.489 1.730 7919
1.782 1.500 1.732 10063
1.785 1.503 1.725 13644
1.784 1.502 1.714 14145
1.787 1.505 1.707 14923
1.796 1.512 1.704 12624
1.855 1.562 1.745 11491
1.859 1.565 1.738 11582
1.857 1.564 1.726 10140
1.861 1.567 1.719 8467
1.859 1.565 1.708 8801
1.868 1.573 1.705 8025
1.892 1.593 1.715 8472
1.890 1.591 1.703 9097
1.899 1.599 1.700 9488
1.907 1.606 1.697 9700
1.916 1.613 1.694 8330
1.950 1.642 1.711 6988
1.959 1.649 1.707 8763
1.968 1.657 1.704 7561
2.008 1.690 1.725 4923
2.016 1.698 1.721 3057
2.051 1.727 1.737 4863
2.055 1.730 1.730 8513
2.053 1.728 1.718 10383
2.051 1.727 1.706 9347
2.060 1.734 1.702 7867
2.084 1.755 1.710 5988
2.098 1.767 1.709 5168
2.102 1.770 1.701 4039
2.132 1.795 1.712 2824
2.156 1.816 1.719 2814
2.165 1.823 1.715 5159
2.169 1.826 1.707 7597
2.178 1.833 1.702 8930
2.181 1.836 1.694 10341
2.184 1.839 1.685 8461
2.188 1.842 1.677 6580
2.197 1.850 1.672 4726
2.291 1.929 1.726 3804
2.279 1.919 1.706 4890
2.282 1.922 1.698 6052
2.275 1.915 1.682 5075
2.273 1.914 1.669 4486
2.271 1.912 1.657 4620
2.269 1.910 1.645 4929
2.267 1.908 1.632 4120
2.422 2.039 1.722 3894
2.442 2.056 1.723 3861
2.451 2.064 1.717 4216
2.443 2.057 1.701 4623
2.436 2.051 1.684 5853
2.434 2.049 1.672 5781
2.437 2.052 1.662 5779
2.441 2.055 1.653 4496
2.565 2.160 1.717 5431
2.568 2.162 1.707 5431
2.577 2.170 1.700 5394
2.581 2.173 1.691 5406
2.584 2.176 1.681 6583
2.582 2.174 1.667 7784
2.585 2.177 1.658 7477
2.583 2.175 1.644 7233
2.587 2.178 1.634 7233
2.590 2.181 1.625 3616
0.516 0.432 1.703 5189
0.522 0.437 1.708 3894
0.528 0.442 1.713 2917
0.532 0.445 1.711 3228
0.530 0.444 1.694 3597
0.533 0.447 1.692 3597
0.539 0.452 1.697 3994
0.553 0.463 1.724 4610
0.559 0.468 1.729 6265
0.563 0.471 1.727 7961
0.566 0.474 1.725 9966
0.573 0.479 1.729 12130
0.576 0.482 1.727 11980
0.582 0.488 1.732 9960
0.586 0.491 1.730 8030
0.587 0.491 1.720 5374
0.590 0.494 1.718 2740
0.594 0.497 1.716 2711
0.600 0.502 1.720 2740
0.604 0.505 1.718 3413
0.607 0.508 1.716 4086
0.611 0.511 1.713 4317
0.614 0.514 1.711 4548
0.620 0.519 1.716 3901
0.624 0.522 1.713 3304
0.636 0.532 1.732 4857
0.643 0.538 1.736 6649
0.646 0.541 1.734 7643
0.647 0.541 1.724 8649
0.653 0.547 1.728 7378
0.657 0.550 1.726 6025
0.663 0.555 1.730 5515
0.670 0.561 1.735 6780
0.673 0.564 1.732 8514
0.680 0.569 1.736 10662
0.683 0.572 1.733 12851
0.690 0.578 1.738 14223
0.697 0.583 1.742 16061
0.697 0.584 1.732 16820
0.701 0.586 1.730 15987
0.704 0.589 1.727 14371
0.708 0.592 1.724 13265
0.711 0.595 1.721 12160
0.718 0.601 1.725 10789
0.721 0.604 1.722 6912
0.722 0.604 1.713 4255
0.728 0.610 1.717 6222
0.735 0.615 1.721 9231
0.742 0.621 1.725 12058
0.749 0.627 1.728 14636
0.755 0.632 1.732 14020
0.766 0.641 1.742 13138
0.776 0.649 1.753 13678
0.779 0.652 1.750 13684
0.786 0.658 1.753 12261
0.793 0.664 1.757 8143
0.797 0.667 1.754 8088
0.797 0.667 1.744 11277
0.800 0.670 1.741 15100
0.804 0.673 1.738 17532
0.808 0.676 1.735 15823
0.815 0.682 1.738 15022
0.818 0.685 1.735 17143
0.822 0.688 1.732 24801
0.825 0.691 1.729 30255
0.829 0.694 1.725 31212
0.832 0.697 1.722 26595
0.839 0.703 1.725 19196
0.846 0.708 1.729 18812
0.850 0.711 1.725 21013
0.853 0.714 1.722 18535
0.857 0.717 1.719 11256
0.860 0.720 1.715 5719
0.868 0.726 1.718 5121
0.875 0.732 1.721 7949
0.875 0.732 1.712 13938
0.878 0.735 1.708 17968
0.885 0.741 1.711 21534
0.889 0.744 1.708 23944
0.892 0.747 1.704 22528
0.899 0.753 1.707 21698
0.907 0.759 1.710 19237
0.910 0.762 1.706 17240
0.921 0.771 1.715 22065
0.928 0.777 1.718 30380
0.932 0.780 1.714 34294
0.939 0.786 1.717 34993
0.946 0.792 1.719 31790
0.950 0.795 1.716 27855
0.950 0.795 1.706 25369
0.957 0.801 1.708 24355
0.964 0.807 1.711 23544
0.972 0.813 1.713 24896
0.983 0.823 1.722 31468
0.986 0.826 1.718 39298
0.990 0.829 1.714 45617
0.993 0.832 1.710 52051
1.001 0.838 1.712 48723
1.004 0.841 1.708 27796
1.012 0.847 1.711 12721
1.019 0.853 1.713 18163
1.023 0.856 1.709 26776
1.030 0.862 1.711 25355
1.038 0.869 1.713 22339
1.041 0.872 1.709 21203
1.045 0.874 1.705 14732
1.052 0.881 1.706 13229
1.060 0.887 1.708 21363
1.067 0.893 1.710 20838
1.075 0.900 1.712 15929
1.078 0.903 1.708 13099
1.078 0.902 1.698 14797
1.085 0.908 1.699 18998
1.093 0.915 1.701 23497
1.100 0.921 1.702 29006
1.104 0.924 1.698 18265
1.120 0.938 1.711 6232
1.136 0.951 1.724 6833
1.135 0.950 1.714 9213
1.139 0.953 1.709 9481
1.151 0.963 1.716 12669
1.159 0.970 1.717 21360
1.166 0.976 1.719 23227
1.174 0.983 1.720 23406
1.173 0.982 1.710 22152
1.173 0.982 1.699 15051
1.167 0.977 1.684 12257
1.201 1.005 1.718 11629
1.213 1.016 1.725 14973
1.225 1.026 1.731 14547
1.238 1.036 1.737 19800
1.232 1.032 1.722 25058
1.232 1.031 1.711 21383
1.248 1.045 1.723 31243
1.256 1.052 1.724 42450
1.264 1.058 1.724 28416
1.281 1.072 1.736 20572
1.284 1.075 1.731 18264
1.292 1.082 1.731 9857
1.198 1.003 1.608 10868
1.201 1.005 1.603 15154
1.321 1.106 1.737 17166
1.325 1.109 1.732 22529
1.324 1.108 1.722 21163
1.332 1.115 1.722 13393
1.335 1.118 1.717 7319
1.339 1.121 1.712 4969
1.351 1.131 1.717 6750
1.359 1.138 1.717 13407
1.367 1.145 1.717 17228
1.366 1.144 1.706 17832
1.370 1.147 1.701 19730
1.383 1.157 1.706 20484
1.391 1.164 1.706 19821
1.399 1.171 1.706 17609
1.407 1.178 1.705 14666
1.406 1.177 1.695 14761
1.409 1.180 1.689 16599
1.413 1.183 1.684 13357
1.416 1.185 1.679 9303
1.424 1.192 1.678 10639
1.432 1.199 1.678 13588
1.436 1.202 1.672 14694
1.444 1.209 1.672 14185
1.452 1.216 1.671 9623
1.455 1.218 1.665 5018
1.487 1.245 1.689 9783
1.481 1.240 1.674 13206
1.485 1.243 1.668 10631
1.503 1.258 1.677 10056
1.511 1.265 1.676 14250
1.514 1.268 1.670 13189
1.518 1.270 1.664 9942
1.521 1.273 1.658 9998
1.529 1.280 1.657 8264
1.557 1.303 1.675 6272
1.570 1.314 1.678 5366
1.583 1.325 1.681 6192
1.577 1.320 1.666 5529
1.634 1.368 1.711 7393
1.628 1.363 1.696 8799
1.622 1.357 1.680 10426
1.620 1.356 1.669 10716
1.623 1.359 1.663 7830
1.686 1.412 1.711 6954
1.700 1.423 1.714 6968
1.693 1.418 1.698 5543
1.672 1.400 1.669 4501
1.755 1.469 1.735 7316
1.754 1.468 1.723 10735
1.752 1.467 1.712 8012
1.786 1.495 1.732 10118
1.790 1.498 1.725 13410
1.793 1.501 1.718 12855
1.792 1.500 1.707 13120
1.800 1.507 1.704 12034
1.854 1.552 1.741 11397
1.858 1.555 1.734 11735
1.856 1.554 1.722 10257
1.865 1.561 1.719 8417
1.863 1.560 1.708 9070
1.872 1.567 1.705 8197
1.896 1.587 1.715 7643
1.900 1.590 1.707 8195
1.903 1.593 1.700 8081
1.912 1.600 1.697 7388
1.920 1.608 1.694 6679
1.950 1.632 1.707 7242
1.958 1.639 1.703 8753
1.967 1.647 1.700 7249
2.023 1.693 1.733 5308
2.032 1.701 1.729 3844
2.056 1.721 1.737 5032
2.060 1.724 1.730 8774
2.058 1.723 1.718 11067
2.056 1.721 1.706 10488
2.065 1.728 1.702 9252
2.079 1.740 1.702 6133
2.109 1.765 1.713 4267
2.123 1.777 1.713 4147
2.142 1.793 1.716 4148
2.156 1.805 1.716 3902
2.165 1.813 1.711 5689
2.174 1.820 1.707 7549
2.177 1.823 1.698 8788
2.186 1.830 1.694 10193
2.184 1.829 1.682 8327
2.188 1.831 1.673 6626
2.191 1.834 1.665 4513
2.275 1.905 1.711 3632
2.290 1.917 1.710 4747
2.293 1.920 1.701 6029
2.296 1.922 1.692 5427
2.300 1.925 1.684 4825
2.293 1.919 1.668 4577
2.290 1.917 1.655 4681
2.288 1.916 1.643 4237
2.286 1.914 1.631 3928
2.448 2.049 1.723 3457
2.489 2.084 1.738 4081
2.498 2.092 1.732 4837
2.502 2.094 1.722 5616
2.506 2.097 1.712 4624
2.449 2.050 1.666 4769
2.562 2.145 1.723 4427
2.565 2.148 1.714 5723
2.569 2.151 1.704 5723
2.578 2.158 1.697 5230
2.587 2.166 1.691 4778
2.585 2.164 1.677 6171
2.588 2.167 1.667 7595
2.592 2.170 1.658 7510
2.589 2.168 1.644 7484
2.593 2.170 1.634 7484
2.596 2.173 1.625 3742
0.517 0.431 1.703 5274
0.523 0.436 1.708 3841
0.529 0.441 1.713 2669
0.532 0.444 1.711 2615
0.531 0.443 1.694 2604
0.534 0.446 1.692 2604
0.540 0.451 1.697 3086
0.554 0.462 1.724 4006
0.560 0.467 1.729 5797
0.564 0.470 1.727 7610
0.567 0.473 1.725 9753
0.573 0.478 1.729 12112
0.577 0.481 1.727 11994
0.583 0.487 1.732 9951
0.587 0.490 1.730 7954
0.588 0.490 1.720 5770
0.588 0.491 1.711 3683
0.592 0.494 1.709 3572
0.598 0.499 1.713 3514
0.604 0.504 1.718 4043
0.611 0.510 1.723 4690
0.611 0.510 1.713 4966
0.615 0.513 1.711 5252
0.621 0.518 1.716 4589
0.625 0.521 1.713 3941
0.637 0.531 1.732 5848
0.640 0.534 1.729 7849
0.644 0.537 1.727 8990
0.648 0.540 1.724 10131
0.654 0.546 1.728 8775
0.661 0.551 1.733 7313
0.664 0.554 1.730 6888
0.671 0.560 1.735 7646
0.674 0.563 1.732 8920
0.681 0.568 1.736 10382
0.684 0.571 1.733 11920
0.691 0.576 1.738 12870
0.697 0.582 1.742 14366
0.698 0.582 1.732 15476
0.702 0.585 1.730 15520
0.705 0.588 1.727 14289
0.709 0.591 1.724 12898
0.712 0.594 1.721 11508
0.719 0.600 1.725 10080
0.722 0.603 1.722 6497
0.726 0.606 1.720 4146
0.733 0.611 1.724 6445
0.736 0.614 1.721 9518
0.743 0.620 1.725 11880
0.750 0.626 1.728 14066
0.753 0.628 1.725 13287
0.767 0.640 1.742 12719
0.777 0.648 1.753 14518
0.784 0.654 1.756 15045
0.787 0.657 1.753 13648
0.794 0.663 1.757 9539
0.798 0.666 1.754 8179
0.801 0.669 1.751 9769
0.802 0.669 1.741 12942
0.805 0.672 1.738 15130
0.809 0.675 1.735 13216
0.819 0.683 1.745 12268
0.819 0.684 1.735 15142
0.823 0.687 1.732 23628
0.826 0.690 1.729 29201
0.830 0.692 1.725 30422
0.833 0.695 1.722 26282
0.837 0.698 1.719 19324
0.847 0.707 1.729 19049
0.851 0.710 1.725 21200
0.855 0.713 1.722 18975
0.858 0.716 1.719 11895
0.865 0.722 1.722 5806
0.700 0.584 1.418 5537
0.876 0.731 1.721 7041
0.876 0.731 1.712 12567
0.879 0.734 1.708 16467
0.886 0.740 1.711 19929
0.890 0.743 1.708 22066
0.893 0.745 1.704 20435
0.901 0.751 1.707 20348
0.904 0.754 1.704 19928
0.908 0.757 1.700 18103
0.922 0.770 1.715 21395
0.929 0.776 1.718 28992
0.933 0.779 1.714 32744
0.940 0.785 1.717 33511
0.948 0.791 1.719 30015
0.951 0.794 1.716 26316
0.951 0.793 1.706 24950
0.958 0.799 1.708 24584
0.965 0.806 1.711 23844
0.973 0.812 1.713 24136
0.980 0.818 1.715 28413
0.988 0.824 1.718 34283
0.991 0.827 1.714 40891
0.995 0.830 1.710 49492
1.002 0.836 1.712 47198
1.006 0.839 1.708 26681
1.013 0.845 1.711 12317
1.020 0.852 1.713 17971
1.024 0.854 1.709 26451
1.031 0.861 1.711 25404
1.035 0.864 1.707 23233
1.042 0.870 1.709 23138
1.046 0.873 1.705 17603
1.049 0.876 1.700 13547
1.061 0.885 1.708 19376
1.069 0.892 1.710 19778
1.076 0.898 1.712 16031
1.076 0.898 1.702 14286
1.079 0.900 1.698 15510
1.087 0.907 1.699 18548
1.094 0.913 1.701 23032
1.102 0.920 1.702 28794
1.105 0.922 1.698 18283
1.121 0.936 1.711 6102
1.133 0.946 1.718 6244
1.137 0.949 1.714 8390
1.140 0.952 1.709 10580
1.148 0.958 1.711 13857
1.160 0.968 1.717 19530
1.168 0.974 1.719 21834
1.176 0.981 1.720 22353
1.175 0.980 1.710 19833
1.170 0.976 1.694 13151
1.165 0.972 1.678 12312
1.207 1.007 1.724 19033
1.206 1.006 1.714 19062
1.223 1.020 1.726 14361
1.235 1.030 1.732 19842
1.234 1.030 1.722 23760
1.233 1.029 1.711 19761
1.250 1.043 1.723 28094
1.262 1.053 1.729 39649
1.266 1.056 1.724 31405
1.278 1.067 1.730 22929
1.286 1.073 1.731 15417
1.294 1.080 1.731 10747
1.307 1.090 1.737 11406
1.203 1.004 1.603 14425
1.206 1.006 1.599 16285
1.326 1.107 1.732 19992
1.325 1.106 1.722 23150
1.329 1.109 1.717 19518
1.337 1.116 1.717 13280
1.345 1.122 1.717 9394
1.358 1.133 1.722 13561
1.366 1.140 1.722 19827
1.369 1.143 1.717 16713
1.373 1.145 1.712 11675
1.376 1.148 1.706 13683
1.384 1.155 1.706 15514
1.392 1.162 1.706 14771
1.405 1.173 1.711 14685
1.404 1.172 1.700 14789
1.408 1.175 1.695 13701
1.411 1.177 1.689 13547
1.414 1.180 1.684 11840
1.418 1.183 1.679 7561
1.431 1.194 1.683 7710
1.439 1.201 1.683 12947
1.442 1.204 1.677 15525
1.446 1.206 1.672 14377
1.454 1.213 1.671 8536
1.467 1.224 1.675 4683
1.489 1.243 1.689 10914
1.488 1.242 1.678 14521
1.487 1.241 1.668 10518
1.509 1.259 1.681 9120
1.513 1.262 1.676 13718
1.516 1.265 1.670 12779
1.515 1.264 1.659 9345
1.523 1.271 1.658 9604
1.536 1.282 1.662 8320
1.554 1.297 1.670 6877
1.562 1.304 1.669 6487
1.581 1.319 1.677 7153
1.579 1.318 1.666 6589
1.637 1.366 1.711 7390
1.635 1.364 1.700 8329
1.624 1.355 1.680 9246
1.622 1.354 1.669 9561
1.670 1.394 1.704 8383
1.689 1.409 1.711 6967
1.702 1.420 1.714 7481
1.706 1.423 1.707 5915
1.689 1.409 1.683 4526
1.753 1.463 1.730 7526
1.751 1.461 1.719 10902
1.755 1.464 1.712 7957
1.793 1.497 1.736 10013
1.792 1.495 1.725 12917
1.796 1.498 1.718 11650
1.804 1.505 1.716 11542
1.803 1.504 1.704 11087
1.857 1.549 1.741 11266
1.860 1.552 1.734 11655
1.859 1.551 1.722 10499
1.868 1.558 1.719 8634
1.871 1.561 1.712 9076
1.875 1.564 1.705 7656
1.904 1.589 1.719 6575
1.907 1.592 1.712 7155
1.906 1.590 1.700 6562
1.909 1.593 1.693 5251
1.933 1.613 1.702 5242
1.952 1.629 1.707 7269
1.956 1.632 1.699 8425
1.965 1.639 1.696 6538
2.025 1.690 1.733 4921
2.039 1.702 1.733 4170
2.059 1.718 1.737 5077
2.062 1.721 1.730 8850
2.066 1.724 1.722 11270
2.064 1.722 1.710 10769
2.068 1.725 1.702 9814
2.082 1.737 1.702 6446
2.117 1.766 1.717 4179
2.126 1.774 1.713 4301
2.156 1.799 1.724 4917
2.159 1.802 1.716 5026
2.163 1.805 1.707 6151
2.172 1.812 1.703 7323
2.180 1.819 1.698 8439
2.189 1.827 1.694 9756
2.193 1.830 1.685 8147
2.191 1.828 1.673 6632
2.199 1.835 1.668 4775
2.241 1.870 1.686 3743
2.303 1.922 1.717 4649
2.301 1.920 1.705 5873
2.305 1.923 1.696 5653
2.303 1.922 1.684 5506
2.301 1.920 1.671 4755
2.294 1.914 1.655 4518
2.297 1.917 1.646 3696
2.436 2.033 1.725 3480
2.451 2.045 1.723 2984
2.498 2.085 1.741 3979
2.502 2.088 1.732 4836
2.505 2.091 1.722 5693
2.503 2.089 1.709 4748
2.485 2.073 1.686 4448
2.560 2.136 1.720 4662
2.563 2.139 1.710 5847
2.567 2.142 1.700 5847
2.576 2.149 1.694 5004
2.524 2.106 1.651 4530
2.588 2.160 1.677 5611
2.592 2.163 1.667 7003
2.595 2.165 1.658 7051
2.593 2.164 1.644 7158
2.596 2.166 1.634 7158
2.600 2.169 1.625 3579
0.518 0.429 1.703 5668
0.524 0.434 1.708 4027
0.530 0.439 1.713 2505
0.534 0.442 1.711 2111
0.537 0.445 1.709 1702
0.541 0.448 1.707 1687
0.550 0.455 1.719 2491
0.558 0.462 1.731 3727
0.562 0.465 1.729 5644
0.563 0.466 1.720 7592
0.569 0.471 1.725 9820
0.575 0.476 1.729 12353
0.581 0.482 1.734 12261
0.585 0.485 1.732 10157
0.589 0.487 1.730 8053
0.589 0.488 1.720 6594
0.590 0.489 1.711 5308
0.594 0.492 1.709 5083
0.597 0.495 1.706 4858
0.606 0.502 1.718 5146
0.613 0.507 1.723 5901
0.616 0.510 1.720 5946
0.620 0.513 1.718 5992
0.623 0.516 1.716 5229
0.635 0.526 1.734 4663
0.639 0.529 1.732 7325
0.642 0.532 1.729 9986
0.646 0.535 1.727 11138
0.652 0.540 1.731 12400
0.656 0.543 1.728 10831
0.663 0.549 1.733 9241
0.666 0.552 1.730 8788
0.670 0.555 1.728 8955
0.676 0.560 1.732 9719
0.680 0.563 1.729 10527
0.686 0.568 1.733 11323
0.693 0.574 1.738 11670
0.700 0.579 1.742 12719
0.700 0.580 1.732 14174
0.704 0.583 1.730 15136
0.707 0.586 1.727 14357
0.711 0.589 1.724 12730
0.714 0.592 1.721 11102
0.721 0.597 1.725 9671
0.728 0.603 1.729 6779
0.731 0.606 1.726 5021
0.735 0.609 1.724 7562
0.742 0.614 1.727 10403
0.745 0.617 1.725 12087
0.752 0.623 1.728 13512
0.755 0.626 1.725 12253
0.769 0.637 1.742 12326
0.779 0.645 1.753 15663
0.786 0.651 1.756 16718
0.790 0.654 1.753 15150
0.797 0.660 1.757 10957
0.804 0.666 1.760 8233
0.807 0.669 1.757 8382
0.804 0.666 1.741 10890
0.804 0.666 1.731 13324
0.808 0.669 1.728 11459
0.822 0.680 1.745 9885
0.822 0.681 1.735 13147
0.825 0.684 1.732 22381
0.829 0.686 1.729 27897
0.832 0.689 1.725 29512
0.836 0.692 1.722 26103
0.839 0.695 1.719 19820
0.850 0.704 1.729 19761
0.857 0.710 1.732 22032
0.857 0.710 1.722 20250
0.864 0.716 1.725 13792
0.868 0.719 1.722 7146
0.702 0.581 1.418 5302
0.878 0.728 1.721 6787
0.882 0.731 1.718 11301
0.886 0.733 1.715 15064
0.889 0.736 1.711 18296
0.893 0.739 1.708 20379
0.896 0.742 1.704 18345
0.903 0.748 1.707 18641
0.907 0.751 1.704 20581
0.910 0.754 1.700 19052
0.925 0.766 1.715 20329
0.932 0.772 1.718 27342
0.940 0.778 1.721 31173
0.943 0.781 1.717 31837
0.950 0.787 1.719 27827
0.954 0.790 1.716 24439
0.954 0.790 1.706 24307
0.961 0.796 1.708 24451
0.972 0.805 1.717 23644
0.976 0.808 1.713 23162
0.983 0.814 1.715 25946
0.991 0.820 1.718 29593
0.994 0.823 1.714 35394
0.998 0.826 1.710 46252
1.005 0.832 1.712 45919
1.009 0.835 1.708 25847
1.020 0.845 1.717 12082
1.024 0.848 1.713 17667
1.027 0.851 1.709 25624
1.035 0.857 1.711 25054
1.038 0.860 1.707 24514
1.046 0.866 1.709 25755
1.049 0.869 1.705 21474
1.053 0.872 1.700 14522
1.064 0.882 1.708 17029
1.072 0.888 1.710 18278
1.079 0.894 1.712 15737
1.079 0.894 1.702 15561
1.082 0.897 1.698 16563
1.086 0.899 1.693 18075
1.098 0.909 1.701 21938
1.105 0.915 1.702 27709
1.113 0.922 1.704 17998
1.125 0.932 1.711 6532
1.133 0.938 1.712 6946
1.140 0.944 1.714 9725
1.144 0.947 1.709 12556
1.152 0.954 1.711 14576
1.164 0.964 1.717 18015
1.171 0.970 1.719 21969
1.179 0.977 1.720 20804
1.187 0.983 1.721 14786
1.191 0.986 1.716 9545
1.207 1.000 1.728 13877
1.206 0.999 1.718 25710
1.205 0.998 1.708 24113
1.222 1.012 1.720 18736
1.230 1.019 1.721 23723
1.233 1.022 1.716 22376
1.237 1.025 1.711 17065
1.258 1.042 1.728 25706
1.266 1.049 1.729 38741
1.274 1.055 1.730 33546
1.282 1.062 1.730 25445
1.286 1.065 1.725 17547
1.298 1.075 1.731 15857
1.306 1.082 1.731 19585
1.314 1.089 1.732 15399
1.210 1.002 1.599 14710
1.330 1.102 1.732 19606
1.334 1.105 1.727 27881
1.337 1.108 1.722 27900
1.341 1.111 1.717 18152
1.349 1.117 1.717 10136
1.362 1.128 1.722 13310
1.365 1.131 1.717 24123
1.369 1.134 1.712 25053
1.372 1.137 1.706 15395
1.371 1.136 1.696 7886
1.398 1.158 1.716 8475
1.401 1.161 1.711 11892
1.405 1.164 1.706 14777
1.408 1.167 1.700 17461
1.412 1.169 1.695 14384
1.415 1.172 1.689 11486
1.419 1.175 1.684 11345
1.422 1.178 1.679 9239
1.440 1.193 1.688 7616
1.443 1.195 1.683 12699
1.447 1.198 1.677 15980
1.450 1.201 1.672 14252
1.454 1.204 1.666 7641
1.481 1.227 1.685 5314
1.489 1.233 1.684 12758
1.493 1.236 1.678 16354
1.491 1.235 1.668 10939
1.514 1.254 1.681 8234
1.517 1.257 1.676 12579
1.516 1.256 1.665 11769
1.519 1.258 1.659 8622
1.528 1.265 1.658 9464
1.546 1.280 1.666 9239
1.559 1.291 1.670 8723
1.562 1.294 1.664 8829
1.580 1.309 1.672 8558
1.584 1.312 1.666 7919
1.641 1.360 1.711 7487
1.645 1.363 1.705 8080
1.629 1.349 1.680 7683
1.682 1.393 1.720 8532
1.675 1.388 1.704 9080
1.694 1.403 1.711 6692
1.712 1.418 1.718 7947
1.716 1.421 1.712 6594
1.754 1.453 1.737 4915
1.753 1.452 1.726 8202
1.751 1.451 1.714 11493
1.755 1.454 1.708 8260
1.799 1.490 1.736 10309
1.802 1.493 1.730 12762
1.806 1.496 1.723 10693
1.815 1.503 1.720 10332
1.833 1.519 1.726 10534
1.863 1.543 1.741 11369
1.861 1.541 1.729 12067
1.859 1.540 1.718 10953
1.873 1.552 1.719 8965
1.877 1.554 1.712 9088
1.880 1.557 1.705 7000
1.920 1.590 1.727 6201
1.918 1.589 1.716 6883
1.922 1.592 1.708 5723
1.910 1.582 1.689 3867
1.944 1.611 1.706 4951
1.953 1.618 1.703 7479
1.957 1.621 1.695 8489
1.960 1.623 1.688 6470
2.026 1.678 1.729 4071
1.988 1.647 1.689 3432
2.065 1.710 1.737 4516
2.068 1.713 1.730 9260
2.072 1.716 1.722 12501
2.070 1.715 1.710 11887
2.079 1.722 1.706 11167
2.088 1.729 1.702 7586
2.118 1.754 1.713 4487
2.127 1.762 1.709 4351
2.157 1.787 1.720 5407
2.166 1.794 1.716 6197
2.169 1.797 1.707 6889
2.173 1.800 1.699 7581
2.187 1.811 1.698 8526
2.190 1.814 1.690 9707
2.199 1.822 1.685 7905
2.203 1.824 1.677 6166
2.206 1.827 1.668 4509
2.253 1.866 1.689 4133
2.310 1.914 1.717 4438
2.314 1.917 1.708 5480
2.312 1.915 1.696 5437
2.315 1.918 1.687 5470
2.302 1.907 1.668 4464
2.290 1.896 1.648 4483
2.293 1.899 1.639 3371
2.444 2.024 1.725 3167
2.502 2.073 1.751 2586
2.506 2.076 1.741 3896
2.509 2.078 1.732 4834
2.513 2.081 1.722 5772
2.511 2.080 1.709 4983
2.498 2.069 1.689 4793
2.568 2.127 1.720 5050
2.566 2.125 1.707 6185
2.569 2.128 1.697 6185
2.578 2.135 1.691 4986
2.537 2.101 1.655 4776
2.596 2.150 1.677 5103
2.599 2.153 1.667 6431
2.603 2.156 1.658 6553
2.601 2.154 1.644 6743
2.604 2.157 1.634 6743
2.607 2.160 1.625 3371
0.522 0.430 1.710 5963
0.526 0.433 1.708 4147
0.532 0.438 1.713 2415
0.535 0.441 1.711 1871
0.541 0.446 1.716 1407
0.547 0.451 1.721 1485
0.559 0.460 1.740 2534
0.560 0.461 1.731 3714
0.563 0.464 1.729 5873
0.564 0.465 1.720 8046
0.570 0.470 1.725 10213
0.577 0.475 1.729 12733
0.583 0.480 1.734 12681
0.586 0.483 1.732 10438
0.590 0.486 1.730 8195
0.591 0.486 1.720 7015
0.592 0.487 1.711 6092
0.595 0.490 1.709 5895
0.599 0.493 1.706 5699
0.608 0.500 1.718 5936
0.614 0.506 1.723 6804
0.618 0.509 1.720 6429
0.621 0.511 1.718 6053
0.627 0.517 1.723 5596
0.637 0.524 1.734 5347
0.640 0.527 1.732 8527
0.644 0.530 1.729 11708
0.650 0.536 1.734 12750
0.654 0.539 1.731 14050
0.658 0.541 1.728 12385
0.664 0.547 1.733 10772
0.668 0.550 1.730 10149
0.671 0.553 1.728 9746
0.678 0.558 1.732 10077
0.681 0.561 1.729 10371
0.688 0.567 1.733 10559
0.695 0.572 1.738 10430
0.701 0.577 1.742 11088
0.702 0.578 1.732 12800
0.705 0.581 1.730 14534
0.709 0.584 1.727 14231
0.712 0.587 1.724 12499
0.716 0.590 1.721 10767
0.723 0.595 1.725 9377
0.729 0.601 1.729 7183
0.733 0.604 1.726 6083
0.740 0.609 1.730 8586
0.743 0.612 1.727 11130
0.750 0.618 1.731 12262
0.754 0.621 1.728 12686
0.757 0.624 1.725 10732
0.771 0.635 1.742 11373
0.781 0.643 1.753 15662
0.788 0.649 1.756 17210
0.791 0.652 1.753 15883
0.798 0.657 1.757 12140
0.805 0.663 1.760 8888
0.809 0.666 1.757 8152
0.806 0.664 1.741 10139
0.806 0.664 1.731 12609
0.806 0.664 1.722 11245
0.813 0.670 1.725 9000
0.820 0.675 1.728 11793
0.824 0.678 1.725 20643
0.827 0.681 1.722 25973
0.834 0.687 1.725 27763
0.838 0.690 1.722 25311
0.841 0.693 1.719 20024
0.852 0.702 1.729 20214
0.859 0.708 1.732 22682
0.863 0.710 1.728 21407
0.866 0.713 1.725 15707
0.873 0.719 1.728 9122
0.873 0.719 1.718 6619
0.881 0.725 1.721 6940
0.884 0.728 1.718 10112
0.888 0.731 1.715 13452
0.891 0.734 1.711 16338
0.895 0.737 1.708 18367
0.898 0.740 1.704 16155
0.905 0.746 1.707 16909
0.909 0.748 1.704 20487
0.912 0.751 1.700 19065
0.927 0.764 1.715 18594
0.934 0.770 1.718 25072
0.942 0.776 1.721 29105
0.945 0.778 1.717 29550
0.953 0.785 1.719 25048
0.956 0.787 1.716 21983
0.960 0.790 1.712 22701
0.967 0.796 1.715 23031
0.975 0.803 1.717 22315
0.978 0.805 1.713 21630
0.985 0.812 1.715 23606
0.989 0.814 1.712 25824
0.996 0.821 1.714 30811
1.000 0.823 1.710 42677
1.007 0.830 1.712 43814
1.011 0.833 1.708 24669
1.022 0.842 1.717 11740
1.026 0.845 1.713 17011
1.029 0.848 1.709 23849
1.037 0.854 1.711 23589
1.041 0.857 1.707 24830
1.048 0.863 1.709 27707
1.052 0.866 1.705 24799
1.055 0.869 1.700 15898
1.067 0.878 1.708 14929
1.074 0.885 1.710 16278
1.082 0.891 1.712 14635
1.081 0.891 1.702 15702
1.081 0.890 1.692 17045
1.088 0.896 1.693 17332
1.100 0.906 1.701 20049
1.108 0.912 1.702 25507
1.116 0.919 1.704 17248
1.127 0.928 1.711 7032
1.135 0.935 1.712 6849
1.147 0.945 1.719 8892
1.151 0.948 1.715 12126
1.154 0.951 1.711 14991
1.162 0.957 1.712 16916
1.174 0.967 1.719 20558
1.182 0.973 1.720 18805
1.190 0.980 1.721 12004
1.206 0.993 1.733 9171
1.210 0.996 1.728 15213
1.209 0.996 1.718 27021
1.208 0.995 1.708 25209
1.225 1.009 1.720 22356
1.233 1.015 1.721 25538
1.232 1.015 1.711 18907
1.240 1.021 1.711 16119
1.257 1.035 1.723 27587
1.269 1.045 1.729 40948
1.277 1.052 1.730 35773
1.281 1.055 1.725 25593
1.293 1.065 1.731 18872
1.301 1.071 1.731 21677
1.309 1.078 1.731 25882
1.313 1.081 1.726 20906
1.321 1.088 1.727 13332
1.333 1.098 1.732 16769
1.332 1.097 1.722 27547
1.341 1.104 1.722 28728
1.344 1.107 1.717 17844
1.348 1.110 1.712 7995
1.360 1.120 1.717 8731
1.364 1.123 1.712 18345
1.372 1.130 1.712 20720
1.376 1.133 1.706 11918
1.379 1.136 1.701 6850
1.401 1.154 1.716 9257
1.405 1.157 1.711 11072
1.408 1.160 1.706 13368
1.416 1.166 1.705 16195
1.415 1.165 1.695 13288
1.419 1.168 1.689 10336
1.422 1.171 1.684 11464
1.426 1.174 1.679 10405
1.438 1.185 1.683 8148
1.447 1.191 1.683 11978
1.450 1.194 1.677 15434
1.454 1.197 1.672 13572
1.457 1.200 1.666 7173
1.484 1.222 1.685 5515
1.493 1.229 1.684 13056
1.496 1.232 1.678 16875
1.495 1.231 1.668 11096
1.517 1.250 1.681 7753
1.521 1.252 1.676 11345
1.515 1.247 1.660 10617
1.518 1.250 1.654 8126
1.536 1.265 1.663 9568
1.554 1.280 1.671 10413
1.562 1.287 1.670 10329
1.566 1.290 1.664 10432
1.584 1.305 1.672 9052
1.583 1.303 1.661 8388
1.576 1.298 1.646 8148
1.579 1.301 1.640 7747
1.583 1.303 1.634 6937
1.686 1.388 1.720 8879
1.679 1.383 1.704 9324
1.683 1.386 1.698 6357
1.716 1.413 1.718 7887
1.720 1.416 1.712 6913
1.754 1.444 1.732 5773
1.757 1.447 1.726 8859
1.756 1.446 1.714 11950
1.759 1.449 1.708 8473
1.803 1.485 1.736 10503
1.807 1.488 1.730 12715
1.815 1.495 1.727 10321
1.829 1.506 1.729 10145
1.843 1.518 1.731 10891
1.862 1.533 1.736 11792
1.865 1.536 1.729 12526
1.864 1.535 1.718 11189
1.878 1.546 1.719 8896
1.886 1.553 1.716 8842
1.921 1.582 1.735 7236
1.940 1.598 1.740 6378
1.928 1.588 1.720 7137
1.931 1.591 1.713 6468
1.935 1.593 1.705 4617
1.944 1.601 1.702 5428
1.952 1.608 1.699 7351
1.956 1.611 1.691 8382
1.959 1.614 1.684 7067
1.963 1.616 1.676 4302
2.050 1.689 1.733 3340
2.065 1.700 1.733 4280
2.073 1.707 1.730 9426
2.077 1.710 1.722 13180
2.080 1.713 1.714 12547
2.084 1.716 1.706 11914
2.093 1.723 1.702 8119
2.123 1.748 1.713 4750
2.126 1.751 1.705 4202
2.167 1.785 1.724 5959
2.171 1.788 1.716 7452
2.169 1.786 1.704 7699
2.172 1.789 1.695 7977
2.187 1.801 1.695 8356
2.196 1.808 1.690 9385
2.199 1.811 1.682 7539
2.208 1.818 1.677 5705
2.206 1.817 1.665 4384
2.263 1.864 1.693 3596
2.316 1.907 1.717 3879
2.319 1.910 1.708 4839
2.317 1.908 1.696 4810
2.321 1.911 1.687 4875
2.297 1.892 1.660 3909
2.295 1.890 1.648 4160
2.298 1.893 1.639 3706
2.307 1.900 1.634 3294
2.305 1.898 1.622 2835
2.517 2.073 1.745 3746
2.515 2.071 1.732 4696
2.513 2.070 1.719 5729
2.517 2.073 1.709 5081
2.504 2.062 1.689 5040
2.574 2.119 1.720 5181
2.572 2.118 1.707 6261
2.575 2.121 1.697 6261
2.551 2.101 1.671 5056
2.543 2.094 1.655 4772
2.597 2.138 1.674 4514
2.606 2.146 1.667 5606
2.609 2.149 1.658 5749
2.607 2.147 1.644 5964
2.610 2.150 1.634 5964
2.614 2.152 1.625 2982
0.523 0.428 1.710 6455
0.527 0.431 1.708 4420
0.533 0.436 1.713 2395
0.536 0.439 1.711 1930
0.550 0.450 1.738 1914
0.551 0.451 1.728 2162
0.557 0.456 1.733 3037
0.563 0.461 1.738 4047
0.564 0.462 1.729 6657
0.568 0.465 1.727 9358
0.574 0.470 1.732 11752
0.580 0.475 1.737 14482
0.584 0.478 1.734 14482
0.588 0.481 1.732 11857
0.594 0.486 1.737 9299
0.595 0.487 1.727 7605
0.593 0.485 1.711 6342
0.596 0.488 1.709 6471
0.600 0.491 1.706 6601
0.612 0.501 1.725 6965
0.615 0.504 1.723 7903
0.622 0.509 1.727 6912
0.625 0.512 1.725 6000
0.629 0.515 1.723 6274
0.635 0.520 1.727 6578
0.642 0.526 1.732 10251
0.645 0.528 1.729 13976
0.652 0.534 1.734 14917
0.655 0.537 1.731 16203
0.659 0.540 1.728 14498
0.666 0.545 1.733 12876
0.669 0.548 1.730 11971
0.673 0.551 1.728 10934
0.679 0.556 1.732 10866
0.683 0.559 1.729 10571
0.686 0.562 1.727 10164
0.693 0.568 1.731 9337
0.703 0.576 1.742 9328
0.703 0.576 1.732 11354
0.707 0.579 1.730 13877
0.710 0.582 1.727 14134
0.714 0.585 1.724 12430
0.721 0.590 1.728 10774
0.724 0.593 1.725 9501
0.734 0.601 1.736 8002
0.738 0.604 1.733 7600
0.741 0.607 1.730 10038
0.745 0.610 1.727 12055
0.752 0.616 1.731 12875
0.755 0.619 1.728 12388
0.759 0.622 1.725 9712
0.772 0.633 1.742 10903
0.783 0.641 1.753 15949
0.790 0.647 1.756 18167
0.793 0.650 1.753 17057
0.800 0.655 1.757 13354
0.807 0.661 1.760 9765
0.814 0.667 1.764 8766
0.808 0.661 1.741 10157
0.808 0.662 1.731 12815
0.808 0.662 1.722 12402
0.815 0.667 1.725 10025
0.822 0.673 1.728 11378
0.826 0.676 1.725 18859
0.829 0.679 1.722 23812
0.833 0.682 1.719 25831
0.840 0.688 1.722 24298
0.843 0.691 1.719 20428
0.854 0.699 1.729 21084
0.861 0.705 1.732 23813
0.865 0.708 1.728 23181
0.868 0.711 1.725 18521
0.875 0.717 1.728 12175
0.875 0.717 1.718 9013
0.883 0.723 1.721 7693
0.886 0.726 1.718 9188
0.890 0.729 1.715 11929
0.897 0.734 1.717 14417
0.900 0.737 1.714 16595
0.904 0.740 1.711 14103
0.911 0.746 1.713 15302
0.915 0.749 1.710 20195
0.914 0.749 1.700 18462
0.929 0.761 1.715 16323
0.937 0.767 1.718 22613
0.944 0.773 1.721 27387
0.947 0.776 1.717 27463
0.955 0.782 1.719 21950
0.958 0.785 1.716 19152
0.962 0.788 1.712 20807
0.969 0.794 1.715 21297
0.977 0.800 1.717 20481
0.980 0.803 1.713 19964
0.988 0.809 1.715 21931
0.991 0.812 1.712 23653
0.995 0.815 1.708 27229
1.002 0.821 1.710 39425
1.006 0.824 1.706 42427
1.013 0.830 1.708 24261
1.025 0.839 1.717 11849
1.028 0.842 1.713 16576
1.032 0.845 1.709 21741
1.039 0.851 1.711 21835
1.043 0.854 1.707 25329
1.050 0.860 1.709 30315
1.054 0.863 1.705 29117
1.057 0.866 1.700 19546
1.065 0.872 1.702 14408
1.077 0.882 1.710 13882
1.084 0.888 1.712 13076
1.084 0.888 1.702 15329
1.083 0.887 1.692 17584
1.091 0.893 1.693 16670
1.099 0.900 1.695 17818
1.110 0.909 1.702 22428
1.118 0.916 1.704 16178
1.130 0.925 1.711 7876
1.138 0.932 1.712 6990
1.154 0.945 1.725 8649
1.149 0.941 1.709 12700
1.148 0.940 1.699 16764
1.165 0.954 1.712 15673
1.177 0.964 1.719 16850
1.189 0.974 1.725 12513
1.201 0.984 1.732 10651
1.205 0.987 1.727 11017
1.208 0.989 1.723 16642
1.212 0.992 1.718 27236
1.211 0.992 1.708 24952
1.228 1.005 1.720 25530
1.231 1.008 1.715 25867
1.222 1.000 1.694 15743
1.238 1.014 1.706 14216
1.259 1.031 1.723 25321
1.272 1.042 1.729 37629
1.280 1.048 1.730 35393
1.284 1.051 1.725 24800
1.296 1.061 1.731 21138
1.304 1.068 1.731 28888
1.312 1.075 1.731 32789
1.316 1.077 1.726 29961
1.315 1.077 1.716 17634
1.336 1.094 1.732 13863
1.335 1.094 1.722 27446
1.344 1.100 1.722 32107
1.347 1.103 1.717 21638
1.351 1.106 1.712 8997
1.359 1.113 1.712 6073
1.367 1.119 1.712 12810
1.375 1.126 1.712 14739
1.379 1.129 1.706 9292
1.401 1.147 1.722 6716
1.409 1.154 1.722 10170
1.417 1.160 1.721 10784
1.421 1.163 1.716 11480
1.420 1.162 1.705 15278
1.418 1.161 1.695 14235
1.422 1.164 1.689 10107
1.430 1.171 1.689 11897
1.434 1.174 1.684 11897
1.446 1.185 1.688 8642
1.450 1.187 1.683 11884
1.453 1.190 1.677 15278
1.457 1.193 1.672 13180
1.455 1.192 1.661 7590
1.488 1.218 1.685 5545
1.496 1.225 1.684 12887
1.499 1.228 1.678 16859
1.498 1.227 1.668 11145
1.516 1.241 1.677 7337
1.520 1.244 1.671 10173
1.513 1.239 1.655 10040
1.517 1.242 1.650 8296
1.549 1.269 1.672 11461
1.558 1.276 1.671 13152
1.566 1.282 1.670 13019
1.569 1.285 1.664 12446
1.578 1.292 1.663 9671
1.586 1.299 1.661 9545
1.585 1.298 1.651 10537
1.583 1.296 1.640 10327
1.586 1.299 1.634 8604
1.690 1.384 1.720 8722
1.678 1.374 1.700 9044
1.682 1.377 1.693 6376
1.720 1.409 1.718 7482
1.724 1.412 1.712 7121
1.757 1.439 1.732 6779
1.756 1.438 1.721 9611
1.754 1.437 1.710 12629
1.763 1.444 1.708 8905
1.812 1.484 1.741 10930
1.811 1.483 1.730 12867
1.825 1.494 1.731 10497
1.843 1.510 1.738 11531
1.847 1.513 1.731 12217
1.866 1.528 1.736 13211
1.864 1.527 1.725 13816
1.868 1.530 1.718 11904
1.882 1.541 1.719 9263
1.891 1.548 1.716 8795
1.930 1.581 1.739 7967
1.944 1.592 1.740 7081
1.932 1.582 1.720 7733
1.936 1.585 1.713 7683
1.934 1.584 1.701 6211
1.943 1.591 1.698 6040
1.957 1.602 1.699 7186
1.960 1.605 1.691 8672
1.964 1.608 1.684 8204
1.973 1.615 1.680 5520
2.050 1.679 1.729 5085
2.059 1.686 1.725 5000
2.078 1.702 1.730 9085
2.082 1.705 1.722 13013
2.085 1.708 1.714 12554
2.094 1.715 1.710 12102
2.098 1.718 1.702 8130
2.128 1.742 1.713 4754
2.131 1.745 1.705 3907
2.172 1.779 1.724 6866
2.176 1.782 1.716 9227
2.174 1.780 1.704 9217
2.177 1.783 1.695 9321
2.186 1.790 1.691 8665
2.201 1.802 1.690 9037
2.199 1.800 1.678 7345
2.202 1.803 1.669 5726
2.205 1.806 1.661 4527
2.214 1.813 1.656 3342
2.321 1.901 1.717 3423
2.330 1.908 1.712 4191
2.328 1.906 1.700 3998
2.326 1.905 1.687 3895
2.302 1.885 1.660 3310
2.300 1.884 1.648 3801
2.309 1.891 1.643 3947
2.318 1.898 1.638 4391
2.321 1.901 1.629 3566
2.523 2.066 1.745 3533
2.521 2.064 1.732 4514
2.519 2.063 1.719 5704
2.517 2.061 1.706 5251
2.509 2.055 1.689 5347
2.574 2.108 1.717 5461
2.572 2.106 1.704 6449
2.575 2.109 1.694 6449
2.557 2.094 1.671 5281
2.554 2.092 1.658 4869
2.602 2.131 1.674 3963
2.606 2.134 1.664 4702
2.609 2.137 1.654 4813
2.613 2.140 1.644 4924
2.616 2.142 1.634 4924
2.619 2.145 1.625 2462
0.524 0.427 1.710 6432
0.528 0.430 1.708 4467
0.534 0.435 1.713 2503
0.538 0.438 1.711 2459
0.546 0.445 1.723 2634
0.550 0.448 1.721 2879
0.556 0.453 1.726 3200
0.565 0.460 1.738 3977
0.566 0.461 1.729 6754
0.569 0.464 1.727 9717
0.575 0.469 1.732 12196
0.582 0.474 1.737 14953
0.585 0.477 1.734 14953
0.589 0.480 1.732 12172
0.595 0.485 1.737 9472
0.596 0.485 1.727 7263
0.591 0.482 1.704 5633
0.598 0.487 1.709 6285
0.601 0.490 1.706 7015
0.613 0.499 1.725 7537
0.617 0.502 1.723 8413
0.623 0.508 1.727 7050
0.630 0.513 1.732 5829
0.633 0.516 1.730 6662
0.634 0.516 1.720 7533
0.643 0.524 1.732 11278
0.647 0.527 1.729 15225
0.653 0.532 1.734 16203
0.657 0.535 1.731 17530
0.660 0.538 1.728 15949
0.667 0.543 1.733 14497
0.671 0.546 1.730 13253
0.674 0.549 1.728 11582
0.681 0.554 1.732 11181
0.684 0.557 1.729 10510
0.688 0.560 1.727 9740
0.695 0.566 1.731 8416
0.704 0.574 1.742 7729
0.705 0.574 1.732 10008
0.708 0.577 1.730 13098
0.712 0.580 1.727 13811
0.716 0.583 1.724 12204
0.722 0.588 1.728 10779
0.726 0.591 1.725 9629
0.736 0.599 1.736 8845
0.739 0.602 1.733 9007
0.743 0.605 1.730 11173
0.750 0.611 1.734 12823
0.753 0.614 1.731 13273
0.757 0.617 1.728 12237
0.764 0.622 1.732 9249
0.774 0.630 1.742 10800
0.784 0.639 1.753 16129
0.788 0.642 1.750 18694
0.795 0.647 1.753 17406
0.802 0.653 1.757 13626
0.809 0.659 1.760 10171
0.816 0.665 1.764 9256
0.809 0.659 1.741 10737
0.810 0.659 1.731 13877
0.810 0.660 1.722 13961
0.817 0.665 1.725 11543
0.824 0.671 1.728 11651
0.827 0.674 1.725 17318
0.827 0.674 1.716 21448
0.834 0.680 1.719 23445
0.842 0.685 1.722 22864
0.845 0.688 1.719 20397
0.856 0.697 1.729 21509
0.863 0.703 1.732 24409
0.867 0.706 1.728 24292
0.870 0.709 1.725 20598
0.877 0.715 1.728 14516
0.877 0.714 1.718 10730
0.884 0.720 1.721 8394
0.892 0.726 1.724 8694
0.892 0.726 1.715 10696
0.899 0.732 1.717 12969
0.902 0.735 1.714 15217
0.906 0.738 1.711 13030
0.913 0.744 1.713 14341
0.917 0.747 1.710 19647
0.916 0.746 1.700 17592
0.931 0.759 1.715 14610
0.939 0.764 1.718 20480
0.946 0.770 1.721 25812
0.950 0.773 1.717 25477
0.957 0.779 1.719 19123
0.960 0.782 1.716 16449
0.964 0.785 1.712 18688
0.971 0.791 1.715 19345
0.979 0.797 1.717 18610
0.982 0.800 1.713 18627
0.990 0.806 1.715 20715
0.993 0.809 1.712 22422
0.997 0.812 1.708 25564
1.004 0.818 1.710 37096
1.008 0.821 1.706 41054
1.015 0.827 1.708 24075
1.023 0.833 1.711 12199
1.031 0.839 1.713 16104
1.034 0.842 1.709 19840
1.038 0.845 1.705 20348
1.045 0.851 1.707 25032
1.053 0.857 1.709 31348
1.056 0.860 1.705 31560
1.060 0.863 1.700 22581
1.067 0.869 1.702 14652
1.079 0.879 1.710 11838
1.087 0.885 1.712 11363
1.086 0.885 1.702 14285
1.086 0.884 1.692 17595
1.093 0.890 1.693 15946
1.101 0.897 1.695 15750
1.113 0.906 1.702 19253
1.121 0.913 1.704 14873
1.132 0.922 1.711 8522
1.140 0.929 1.712 8248
1.152 0.939 1.719 9809
1.152 0.938 1.709 12501
1.151 0.937 1.699 15162
1.167 0.951 1.712 13867
1.175 0.957 1.713 12365
1.192 0.970 1.725 9091
1.204 0.980 1.732 10468
1.207 0.983 1.727 10937
1.215 0.990 1.728 15510
1.214 0.989 1.718 22999
1.218 0.992 1.714 22928
1.230 1.002 1.720 27210
1.234 1.005 1.715 26582
1.229 1.001 1.700 16031
1.237 1.007 1.700 11979
1.262 1.028 1.723 19668
1.275 1.038 1.729 29850
1.283 1.045 1.730 29837
1.286 1.048 1.725 21863
1.299 1.058 1.731 22845
1.307 1.064 1.731 32491
1.310 1.067 1.726 35988
1.319 1.074 1.726 34509
1.318 1.073 1.716 20069
1.335 1.087 1.727 12921
1.338 1.090 1.722 26724
1.347 1.097 1.722 31704
1.350 1.100 1.717 21356
1.354 1.102 1.712 9565
1.362 1.109 1.712 4982
1.375 1.120 1.717 8620
1.378 1.122 1.712 11272
1.386 1.129 1.712 8671
1.399 1.140 1.717 8375
1.412 1.150 1.722 11077
1.416 1.153 1.716 10875
1.419 1.156 1.711 10948
1.423 1.159 1.705 15178
1.421 1.158 1.695 15476
1.425 1.161 1.689 10353
1.433 1.167 1.689 11861
1.437 1.170 1.684 12202
1.450 1.181 1.688 8476
1.453 1.183 1.683 11154
1.457 1.186 1.677 14337
1.455 1.185 1.667 12285
1.459 1.188 1.661 8088
1.467 1.195 1.660 6617
1.499 1.221 1.684 11919
1.503 1.224 1.678 16038
1.506 1.227 1.673 11007
1.514 1.234 1.672 7297
1.518 1.236 1.666 9610
1.521 1.239 1.660 9963
1.564 1.274 1.693 9697
1.558 1.269 1.677 13826
1.566 1.275 1.676 15539
1.569 1.278 1.670 14888
1.573 1.281 1.664 13383
1.576 1.284 1.658 9711
1.585 1.291 1.657 9817
1.588 1.293 1.651 11608
1.586 1.292 1.640 11518
1.590 1.295 1.634 9233
1.693 1.379 1.720 8122
1.682 1.370 1.700 8151
1.680 1.368 1.689 6216
1.724 1.404 1.718 6767
1.722 1.403 1.707 7020
1.761 1.435 1.732 7190
1.760 1.433 1.721 9808
1.758 1.432 1.710 12594
1.767 1.439 1.708 8897
1.816 1.479 1.741 10928
1.820 1.482 1.734 12756
1.834 1.493 1.736 10745
1.853 1.509 1.742 12829
1.856 1.512 1.735 13262
1.870 1.523 1.736 14145
1.869 1.522 1.725 14694
1.872 1.525 1.718 12333
1.886 1.536 1.719 9572
1.900 1.547 1.721 8574
1.940 1.580 1.743 8729
1.943 1.583 1.736 7770
1.937 1.577 1.720 7825
1.940 1.580 1.713 7897
1.938 1.579 1.701 6693
1.942 1.582 1.694 6052
1.961 1.597 1.699 7042
1.965 1.600 1.691 9085
1.973 1.607 1.688 9024
1.987 1.619 1.688 6698
2.049 1.669 1.725 7323
2.058 1.676 1.721 6351
2.083 1.696 1.730 9011
2.086 1.699 1.722 12591
2.090 1.702 1.714 12143
2.099 1.709 1.710 11825
2.102 1.712 1.702 7905
2.132 1.737 1.713 4785
2.120 1.727 1.693 3805
2.182 1.777 1.728 7102
2.180 1.776 1.716 9747
2.179 1.774 1.704 9548
2.182 1.777 1.695 9560
2.191 1.785 1.691 8363
2.205 1.796 1.690 7947
2.203 1.795 1.678 6618
2.207 1.797 1.669 5302
2.210 1.800 1.661 4314
2.246 1.830 1.675 3416
2.326 1.894 1.717 3239
2.330 1.897 1.708 3741
2.328 1.896 1.696 3448
2.331 1.899 1.687 3222
2.329 1.897 1.675 3091
2.404 1.958 1.712 3424
2.325 1.894 1.650 3775
2.328 1.896 1.641 4265
2.332 1.899 1.632 3448
2.534 2.064 1.748 3237
2.526 2.058 1.732 4191
2.524 2.056 1.719 5418
2.522 2.054 1.706 5105
2.515 2.048 1.689 5250
2.579 2.101 1.717 5439
2.577 2.099 1.704 6325
2.581 2.102 1.694 6325
2.568 2.091 1.674 5158
2.566 2.090 1.661 4651
2.603 2.120 1.671 3553
2.612 2.127 1.664 3937
2.615 2.130 1.654 3902
2.613 2.128 1.641 3872
2.616 2.131 1.631 3872
2.619 2.134 1.621 1936
0.525 0.426 1.710 6836
0.529 0.429 1.708 4843
0.543 0.440 1.735 2880
0.538 0.437 1.711 3217
0.545 0.442 1.716 3760
0.551 0.447 1.721 4014
0.554 0.449 1.719 3790
0.566 0.459 1.738 3733
0.567 0.459 1.729 6679
0.570 0.462 1.727 9735
0.577 0.467 1.732 12323
0.583 0.473 1.737 15194
0.586 0.475 1.734 15194
0.590 0.478 1.732 12324
0.596 0.483 1.737 9541
0.597 0.484 1.727 6831
0.590 0.478 1.697 4828
0.599 0.485 1.709 5955
0.608 0.493 1.720 7549
0.614 0.498 1.725 8180
0.621 0.503 1.730 9072
0.624 0.506 1.727 7623
0.631 0.511 1.732 6289
0.634 0.514 1.730 7528
0.635 0.515 1.720 8867
0.644 0.522 1.732 12539
0.648 0.525 1.729 16600
0.654 0.531 1.734 17850
0.658 0.534 1.731 19396
0.662 0.536 1.728 17883
0.668 0.542 1.733 16524
0.672 0.545 1.730 14924
0.675 0.548 1.728 12505
0.682 0.553 1.732 11704
0.686 0.556 1.729 10659
0.686 0.556 1.720 9583
0.693 0.562 1.724 7738
0.703 0.570 1.735 6192
0.703 0.570 1.725 8673
0.710 0.575 1.730 12155
0.713 0.578 1.727 13400
0.717 0.581 1.724 11912
0.724 0.587 1.728 10739
0.730 0.592 1.732 9791
0.737 0.598 1.736 9868
0.744 0.603 1.740 10875
0.748 0.606 1.737 12803
0.751 0.609 1.734 13980
0.758 0.615 1.738 14158
0.762 0.618 1.735 12852
0.769 0.623 1.739 9870
0.776 0.629 1.742 10786
0.786 0.637 1.753 15606
0.789 0.640 1.750 18435
0.796 0.646 1.753 17116
0.803 0.651 1.757 13737
0.810 0.657 1.760 10756
0.814 0.660 1.757 10130
0.811 0.657 1.741 12791
0.811 0.658 1.731 16469
0.815 0.660 1.728 16345
0.818 0.663 1.725 13802
0.825 0.669 1.728 12625
0.825 0.669 1.719 16151
0.829 0.672 1.716 19040
0.836 0.678 1.719 20252
0.843 0.684 1.722 20831
0.847 0.686 1.719 20098
0.857 0.695 1.729 21738
0.865 0.701 1.732 24833
0.868 0.704 1.728 25323
0.872 0.707 1.725 22761
0.879 0.713 1.728 17069
0.879 0.713 1.718 12593
0.886 0.718 1.721 9417
0.893 0.724 1.724 8903
0.897 0.727 1.721 10168
0.900 0.730 1.717 11950
0.904 0.733 1.714 14140
0.911 0.739 1.717 12496
0.915 0.742 1.713 13586
0.918 0.745 1.710 18802
0.922 0.747 1.706 16759
0.933 0.756 1.715 13070
0.940 0.762 1.718 18507
0.944 0.765 1.714 24449
0.951 0.771 1.717 23609
0.955 0.774 1.713 16621
0.962 0.780 1.716 13722
0.966 0.783 1.712 16190
0.973 0.789 1.715 17098
0.981 0.795 1.717 16592
0.984 0.798 1.713 17384
0.988 0.801 1.709 19982
0.995 0.807 1.712 21917
0.999 0.810 1.708 24806
1.006 0.816 1.710 35702
1.010 0.819 1.706 40692
1.013 0.822 1.702 25016
1.025 0.831 1.711 12874
1.032 0.837 1.713 15751
1.036 0.840 1.709 18056
1.039 0.843 1.705 19272
1.047 0.849 1.707 25456
1.055 0.855 1.709 32820
1.058 0.858 1.705 34130
1.066 0.864 1.706 25997
1.069 0.867 1.702 15603
1.081 0.876 1.710 10258
1.089 0.883 1.712 9475
1.088 0.882 1.702 12803
1.088 0.882 1.692 17459
1.095 0.888 1.693 15393
1.103 0.894 1.695 13655
1.115 0.904 1.702 16024
1.123 0.910 1.704 13380
1.130 0.916 1.705 9100
1.142 0.926 1.712 9710
1.150 0.932 1.714 11492
1.149 0.932 1.704 11541
1.153 0.935 1.699 12334
1.165 0.945 1.706 11043
1.169 0.947 1.702 8304
1.168 0.947 1.692 8551
1.193 0.967 1.715 10323
1.205 0.977 1.722 10114
1.217 0.987 1.728 15273
1.217 0.986 1.718 20954
1.225 0.993 1.719 21824
1.233 0.999 1.720 27204
1.236 1.002 1.715 24255
1.240 1.005 1.711 14782
1.252 1.015 1.717 12595
1.265 1.025 1.723 19302
1.277 1.035 1.729 23985
1.285 1.042 1.730 24210
1.289 1.045 1.725 20318
1.301 1.055 1.731 24417
1.305 1.058 1.726 34028
1.313 1.064 1.726 36533
1.321 1.071 1.726 36726
1.325 1.074 1.721 22003
1.337 1.084 1.727 12359
1.341 1.087 1.722 23989
1.349 1.094 1.722 29672
1.353 1.097 1.717 20466
1.356 1.099 1.712 10826
1.369 1.110 1.717 6729
1.382 1.120 1.722 8881
1.390 1.127 1.722 11015
1.389 1.126 1.712 10998
1.397 1.133 1.712 12133
1.410 1.143 1.716 11873
1.423 1.154 1.721 10175
1.422 1.153 1.711 10499
1.425 1.155 1.705 14615
1.424 1.154 1.695 15208
1.432 1.161 1.695 10433
1.445 1.172 1.699 12938
1.444 1.171 1.689 12522
1.452 1.177 1.688 8294
1.456 1.180 1.683 10592
1.454 1.179 1.672 13194
1.458 1.182 1.667 10873
1.461 1.185 1.661 8690
1.470 1.191 1.660 8780
1.502 1.218 1.684 10706
1.505 1.221 1.678 14608
1.509 1.223 1.673 10886
1.517 1.230 1.672 7946
1.516 1.229 1.661 9940
1.524 1.236 1.660 10335
1.567 1.270 1.693 12653
1.565 1.269 1.682 17323
1.569 1.272 1.676 18551
1.572 1.275 1.670 16967
1.576 1.277 1.664 13796
1.579 1.280 1.658 9638
1.588 1.287 1.657 11154
1.591 1.290 1.651 13972
1.594 1.293 1.645 13868
1.593 1.291 1.634 10605
1.696 1.375 1.720 7368
1.685 1.366 1.700 7182
1.678 1.361 1.684 6345
1.722 1.396 1.714 5943
1.710 1.387 1.694 7380
1.765 1.431 1.732 7407
1.758 1.425 1.717 10093
1.762 1.428 1.710 12598
1.770 1.435 1.708 8868
1.820 1.475 1.741 10838
1.823 1.478 1.734 12615
1.847 1.498 1.745 11672
1.856 1.505 1.742 14353
1.860 1.508 1.735 14445
1.874 1.519 1.736 15151
1.872 1.518 1.725 15563
1.876 1.521 1.718 12792
1.889 1.532 1.719 10043
1.914 1.552 1.729 8882
1.938 1.571 1.739 9864
1.947 1.578 1.736 8542
1.945 1.577 1.724 8268
1.944 1.576 1.713 8601
1.947 1.579 1.705 8064
1.951 1.581 1.698 6855
1.965 1.593 1.699 7382
1.973 1.600 1.695 9682
1.982 1.607 1.692 9959
2.002 1.623 1.696 8671
2.042 1.656 1.717 10462
2.062 1.671 1.721 8327
2.086 1.691 1.730 9885
2.090 1.694 1.722 12810
2.094 1.697 1.714 12048
2.102 1.704 1.710 11404
2.106 1.707 1.702 7616
2.142 1.736 1.717 5069
2.140 1.735 1.705 3918
2.192 1.777 1.732 7210
2.190 1.775 1.719 9807
2.188 1.774 1.707 9438
2.186 1.772 1.695 9348
2.195 1.780 1.691 8121
2.199 1.782 1.682 7083
2.207 1.790 1.678 5827
2.211 1.792 1.669 4580
2.209 1.791 1.657 4104
2.201 1.785 1.642 3888
2.330 1.889 1.717 3600
2.328 1.888 1.705 4003
2.332 1.891 1.696 3754
2.335 1.893 1.687 3504
2.333 1.892 1.675 3321
2.403 1.948 1.708 3776
2.406 1.951 1.699 3579
2.410 1.954 1.690 3382
2.419 1.961 1.685 2943
2.538 2.058 1.748 2960
2.531 2.052 1.732 3898
2.529 2.050 1.719 5140
2.527 2.049 1.706 4945
2.519 2.043 1.689 5143
2.584 2.095 1.717 5373
2.582 2.093 1.704 6147
2.586 2.096 1.694 6147
2.572 2.086 1.674 5071
2.570 2.084 1.661 4556
2.579 2.091 1.655 3390
2.611 2.117 1.661 3228
2.743 2.224 1.725 3076
2.747 2.227 1.715 3236
2.751 2.230 1.704 3236
2.754 2.233 1.694 1618
0.527 0.424 1.710 7139
0.530 0.427 1.708 5142
0.546 0.440 1.742 3213
0.537 0.433 1.704 3815
0.546 0.440 1.716 4717
0.552 0.445 1.721 5050
0.556 0.448 1.719 4600
0.559 0.451 1.717 4149
0.565 0.456 1.722 6870
0.572 0.461 1.727 9762
0.578 0.466 1.732 12306
0.582 0.469 1.729 15128
0.588 0.474 1.734 15117
0.591 0.477 1.732 12250
0.598 0.482 1.737 9382
0.599 0.482 1.727 6296
0.588 0.474 1.690 3905
0.606 0.488 1.723 5365
0.609 0.491 1.720 7519
0.619 0.498 1.732 8317
0.622 0.501 1.730 9308
0.626 0.504 1.727 8149
0.632 0.509 1.732 7022
0.633 0.510 1.723 8265
0.637 0.513 1.720 9540
0.646 0.520 1.732 13058
0.650 0.523 1.729 17054
0.656 0.529 1.734 18758
0.660 0.532 1.731 20678
0.663 0.534 1.728 19195
0.670 0.540 1.733 17907
0.673 0.543 1.730 16000
0.677 0.546 1.728 12995
0.684 0.551 1.732 11913
0.684 0.551 1.722 10721
0.688 0.554 1.720 9547
0.694 0.560 1.724 7382
0.701 0.565 1.728 5476
0.705 0.568 1.725 7681
0.711 0.573 1.730 11149
0.715 0.576 1.727 12764
0.722 0.582 1.731 11526
0.725 0.584 1.728 10491
0.732 0.590 1.732 9792
0.739 0.595 1.736 10570
0.746 0.601 1.740 12355
0.749 0.604 1.737 14131
0.753 0.607 1.734 14982
0.760 0.612 1.738 15131
0.764 0.615 1.735 13833
0.770 0.621 1.739 10953
0.777 0.626 1.742 10941
0.788 0.635 1.753 14672
0.791 0.638 1.750 17578
0.798 0.643 1.753 16318
0.805 0.649 1.757 13152
0.809 0.652 1.754 10956
0.813 0.655 1.751 11262
0.813 0.655 1.741 14636
0.813 0.655 1.731 18394
0.817 0.658 1.728 18279
0.820 0.661 1.725 15835
0.827 0.667 1.728 14016
0.827 0.667 1.719 15870
0.831 0.670 1.716 17079
0.838 0.675 1.719 17564
0.845 0.681 1.722 18719
0.849 0.684 1.719 19506
0.860 0.692 1.729 21382
0.867 0.698 1.732 24435
0.870 0.701 1.728 25353
0.874 0.704 1.725 23811
0.881 0.710 1.728 18770
0.881 0.710 1.718 14002
0.888 0.716 1.721 10221
0.896 0.721 1.724 9129
0.899 0.724 1.721 9918
0.903 0.727 1.717 11175
0.906 0.730 1.714 13239
0.914 0.736 1.717 12195
0.917 0.739 1.713 12945
0.921 0.742 1.710 17686
0.924 0.745 1.706 15800
0.935 0.754 1.715 11600
0.943 0.759 1.718 16476
0.946 0.762 1.714 23022
0.954 0.768 1.717 21978
0.957 0.771 1.713 14853
0.965 0.777 1.716 11422
