0.216 0.903 1.712 13978
0.216 0.903 1.702 11727
0.213 0.891 1.672 9028
0.217 0.908 1.690 10257
0.218 0.912 1.687 11828
0.220 0.921 1.691 12572
0.221 0.925 1.688 14330
0.223 0.933 1.692 14191
0.226 0.946 1.702 12734
0.228 0.955 1.706 10916
0.230 0.963 1.710 9995
0.231 0.968 1.707 11336
0.232 0.972 1.704 10630
0.235 0.985 1.714 11755
0.236 0.990 1.711 13406
0.238 0.998 1.715 12793
0.240 1.007 1.718 15206
0.242 1.011 1.715 18569
0.243 1.016 1.712 19403
0.245 1.025 1.715 19934
0.246 1.029 1.712 24282
0.246 1.029 1.703 27654
0.246 1.029 1.693 27417
0.247 1.034 1.690 21716
0.248 1.038 1.687 15390
0.250 1.047 1.690 17645
0.251 1.051 1.687 17291
0.252 1.056 1.683 14145
0.255 1.069 1.693 16246
0.257 1.078 1.696 17995
0.260 1.087 1.699 17128
0.262 1.096 1.702 23244
0.263 1.100 1.699 25517
0.264 1.105 1.696 20198
0.265 1.109 1.692 15538
0.267 1.118 1.695 21381
0.269 1.127 1.698 34697
0.270 1.131 1.694 38465
0.271 1.136 1.691 32038
0.272 1.140 1.688 29638
0.273 1.145 1.684 25211
0.275 1.154 1.687 18172
0.279 1.168 1.696 15465
0.281 1.177 1.698 10861
0.281 1.176 1.689 8236
0.283 1.186 1.691 6603
0.284 1.190 1.687 6968
0.285 1.194 1.684 12124
0.287 1.204 1.686 16749
0.287 1.203 1.676 16660
0.288 1.207 1.673 13478
0.291 1.217 1.675 10359
0.290 1.216 1.665 11915
0.293 1.225 1.668 24202
0.295 1.235 1.670 27665
0.298 1.249 1.678 22965
0.298 1.248 1.668 18280
0.299 1.252 1.665 13140
0.304 1.272 1.679 17240
0.305 1.276 1.675 16957
0.306 1.281 1.671 12406
0.309 1.295 1.679 13680
0.310 1.299 1.675 15600
0.314 1.314 1.683 18158
0.315 1.318 1.679 20158
0.315 1.318 1.669 15233
0.317 1.327 1.671 13696
0.318 1.331 1.667 12794
0.318 1.330 1.657 7285
0.322 1.350 1.670 6196
0.324 1.355 1.666 9511
0.325 1.359 1.662 11595
0.328 1.374 1.669 13907
0.330 1.384 1.671 17989
0.334 1.398 1.678 23432
0.336 1.408 1.679 25106
0.337 1.412 1.675 17225
0.340 1.422 1.677 13240
0.341 1.427 1.672 11333
0.343 1.436 1.673 17714
0.345 1.446 1.675 24760
0.348 1.456 1.676 17486
0.351 1.471 1.683 19803
0.352 1.475 1.678 31919
0.353 1.480 1.674 38181
0.356 1.489 1.675 38299
0.357 1.494 1.670 34694
0.358 1.498 1.666 30358
0.359 1.502 1.661 27463
0.361 1.512 1.662 19382
0.362 1.517 1.657 9177
0.366 1.532 1.664 6848
0.367 1.536 1.659 8802
0.371 1.552 1.665 14289
0.374 1.567 1.671 18963
0.377 1.577 1.672 21419
0.379 1.587 1.672 16068
0.381 1.597 1.673 16078
0.385 1.613 1.679 15043
0.390 1.634 1.690 10260
0.390 1.633 1.679 12488
0.395 1.655 1.690 18203
0.398 1.665 1.691 15112
0.403 1.686 1.701 8586
0.407 1.702 1.707 10986
0.408 1.707 1.701 13077
0.411 1.723 1.707 14866
0.412 1.727 1.701 16568
0.412 1.726 1.691 22136
0.415 1.736 1.691 25868
0.418 1.752 1.696 23594
0.421 1.763 1.696 25556
0.423 1.773 1.695 25143
0.427 1.789 1.700 23277
0.428 1.793 1.695 22805
0.428 1.792 1.684 17700
0.430 1.802 1.684 13251
0.434 1.818 1.688 11469
0.438 1.835 1.693 10421
0.441 1.845 1.692 13921
0.440 1.844 1.681 13664
0.438 1.836 1.666 9615
0.455 1.907 1.714 7954
0.458 1.917 1.713 9635
0.459 1.922 1.708 11060
0.460 1.926 1.702 14782
0.461 1.930 1.696 17195
0.463 1.941 1.695 20961
0.469 1.964 1.703 24785
0.474 1.986 1.712 21179
0.475 1.991 1.706 13145
0.476 1.995 1.700 12774
0.478 2.000 1.694 14098
0.480 2.010 1.692 10546
0.490 2.052 1.714 14679
0.493 2.062 1.713 23388
0.495 2.073 1.711 22966
0.498 2.084 1.709 19112
0.500 2.095 1.708 19885
0.500 2.093 1.697 20181
0.499 2.091 1.686 14625
0.500 2.095 1.679 8798
0.507 2.125 1.691 10795
0.510 2.135 1.689 11862
0.514 2.152 1.692 10819
0.518 2.170 1.694 9354
0.522 2.187 1.697 9578
0.523 2.191 1.690 7928
0.535 2.240 1.714 9002
0.537 2.251 1.712 11263
0.540 2.262 1.709 11812
0.543 2.273 1.707 16905
0.541 2.264 1.691 18106
0.542 2.269 1.685 14516
0.544 2.279 1.682 11632
0.545 2.284 1.675 8560
0.548 2.294 1.672 7769
0.560 2.344 1.695 11594
0.559 2.342 1.684 17861
0.559 2.340 1.673 19187
0.561 2.351 1.670 15390
0.567 2.375 1.675 12395
0.568 2.379 1.668 13184
0.568 2.377 1.656 12802
0.570 2.388 1.653 10892
0.574 2.405 1.654 10722
0.577 2.416 1.651 8905
0.586 2.453 1.664 9762
0.585 2.451 1.653 11062
0.583 2.442 1.637 8202
0.583 2.440 1.626 5715
0.585 2.450 1.622 5185
0.593 2.481 1.631 4781
0.597 2.499 1.631 5930
0.598 2.503 1.623 5253
0.628 2.628 1.686 5263
0.630 2.639 1.682 6028
0.631 2.643 1.674 6634
0.632 2.648 1.666 6369
0.635 2.659 1.662 5031
0.644 2.697 1.673 4161
0.650 2.721 1.676 6189
0.649 2.719 1.664 8324
0.650 2.723 1.655 6890
0.668 2.796 1.684 7238
0.669 2.800 1.676 8128
0.671 2.811 1.671 9070
0.674 2.822 1.666 8240
0.677 2.833 1.661 7697
0.678 2.838 1.653 5695
0.697 2.917 1.684 5627
0.698 2.922 1.675 5572
0.697 2.919 1.662 5605
0.700 2.930 1.657 4237
0.717 3.004 1.683 4915
0.722 3.022 1.681 4814
0.726 3.040 1.679 4927
0.722 3.024 1.659 5908
0.723 3.028 1.650 7348
0.726 3.039 1.644 7570
0.728 3.050 1.639 8020
0.729 3.054 1.629 7158
0.734 3.073 1.627 6410
0.735 3.077 1.617 6410
0.747 3.130 1.631 5841
0.750 3.141 1.625 6645
0.749 3.138 1.612 5374
0.749 3.135 1.600 4280
0.780 3.266 1.648 3552
0.781 3.271 1.638 4547
0.782 3.275 1.628 4547
0.783 3.279 1.618 2273
0.353 1.479 0.811 279
0.151 0.626 1.638 9878
0.152 0.630 1.636 9767
0.154 0.638 1.641 9739
0.156 0.648 1.653 16182
0.158 0.656 1.659 23579
0.159 0.660 1.656 23579
0.160 0.664 1.654 26119
0.161 0.669 1.652 28658
0.164 0.679 1.665 26037
0.167 0.690 1.677 29181
0.169 0.698 1.682 23752
0.173 0.716 1.708 20231
0.173 0.717 1.699 20294
0.174 0.721 1.697 19786
0.174 0.722 1.687 19321
0.175 0.727 1.685 17402
0.176 0.731 1.683 15483
0.178 0.739 1.687 21422
0.179 0.743 1.685 27542
0.180 0.748 1.683 27843
0.181 0.748 1.674 28449
0.183 0.756 1.678 24153
0.184 0.761 1.676 20161
0.186 0.769 1.681 15703
0.188 0.780 1.692 12998
0.189 0.785 1.690 12884
0.190 0.789 1.687 12769
0.191 0.793 1.685 12533
0.193 0.798 1.682 12507
0.194 0.802 1.680 15966
0.196 0.810 1.684 21575
0.198 0.818 1.689 25896
0.199 0.826 1.693 25448
0.201 0.831 1.691 23368
0.201 0.831 1.681 22341
0.201 0.832 1.672 23229
0.202 0.836 1.669 23945
0.205 0.848 1.680 24155
0.205 0.849 1.671 18317
0.205 0.849 1.661 10361
0.206 0.853 1.659 6194
0.216 0.893 1.717 8774
0.217 0.898 1.714 12461
0.217 0.898 1.705 13279
0.218 0.902 1.702 11380
0.218 0.903 1.693 8719
0.219 0.907 1.690 9977
0.221 0.916 1.694 11852
0.222 0.920 1.691 12611
0.224 0.929 1.695 14002
0.225 0.933 1.692 13607
0.227 0.941 1.696 12225
0.229 0.950 1.700 10741
0.232 0.963 1.710 9981
0.233 0.967 1.707 11140
0.235 0.972 1.704 9997
0.237 0.980 1.708 10713
0.239 0.989 1.711 12300
0.240 0.993 1.708 11523
0.243 1.006 1.718 13411
0.244 1.011 1.715 16270
0.245 1.015 1.712 16949
0.246 1.020 1.709 18962
0.247 1.024 1.706 24912
0.248 1.029 1.703 27088
0.248 1.029 1.693 25039
0.249 1.033 1.690 19201
0.250 1.037 1.687 16000
0.253 1.046 1.690 20236
0.254 1.051 1.687 17318
0.256 1.059 1.690 12507
0.258 1.068 1.693 14184
0.260 1.077 1.696 15874
0.262 1.086 1.699 16019
0.264 1.095 1.702 22905
0.265 1.100 1.699 26044
0.266 1.104 1.696 20859
0.268 1.108 1.692 16443
0.270 1.117 1.695 23929
0.272 1.126 1.698 38284
0.273 1.131 1.694 42049
0.274 1.135 1.691 35512
0.275 1.140 1.688 33066
0.276 1.144 1.684 27648
0.277 1.148 1.681 18292
0.282 1.167 1.696 14232
0.283 1.171 1.692 9842
0.283 1.171 1.682 7003
0.285 1.180 1.685 6339
0.287 1.189 1.687 8475
0.288 1.194 1.684 14622
0.290 1.203 1.686 19840
0.290 1.202 1.676 21259
0.292 1.212 1.679 18886
0.295 1.221 1.681 14166
0.293 1.215 1.665 15513
0.296 1.224 1.668 30632
0.297 1.229 1.664 35767
0.300 1.243 1.672 31026
0.301 1.247 1.668 25191
0.302 1.252 1.665 19340
0.304 1.261 1.667 23114
0.307 1.270 1.669 22497
0.309 1.280 1.671 16156
0.312 1.294 1.679 15573
0.315 1.304 1.681 18147
0.316 1.308 1.677 18099
0.317 1.312 1.673 16703
0.318 1.317 1.669 13586
0.320 1.326 1.671 13467
0.321 1.331 1.667 10932
0.320 1.324 1.651 5553
0.322 1.334 1.653 5194
0.327 1.354 1.666 7599
0.328 1.358 1.662 11373
0.331 1.373 1.669 15115
0.334 1.383 1.671 18179
0.337 1.398 1.678 22625
0.340 1.407 1.679 22964
0.341 1.412 1.675 15433
0.343 1.421 1.677 11484
0.344 1.426 1.672 9641
0.346 1.435 1.673 17381
0.349 1.445 1.675 25837
0.351 1.455 1.676 20088
0.355 1.470 1.683 21648
0.356 1.474 1.678 32293
0.358 1.484 1.679 35762
0.359 1.489 1.675 34568
0.360 1.493 1.670 33105
0.361 1.497 1.666 30461
0.362 1.502 1.661 26632
0.365 1.511 1.662 17178
0.365 1.510 1.652 8222
0.367 1.520 1.653 10066
0.369 1.530 1.654 13352
0.373 1.545 1.660 15885
0.378 1.566 1.671 18931
0.381 1.576 1.672 20277
0.383 1.586 1.672 14105
0.385 1.596 1.673 12642
0.391 1.618 1.684 14308
0.394 1.634 1.690 12053
0.397 1.644 1.690 12681
0.401 1.659 1.696 18709
0.402 1.664 1.691 16041
0.407 1.685 1.701 10033
0.409 1.696 1.701 12933
0.410 1.700 1.696 15472
0.416 1.722 1.707 16664
0.417 1.726 1.701 17240
0.416 1.725 1.691 21645
0.419 1.735 1.691 25077
0.421 1.745 1.691 22986
0.425 1.761 1.696 24866
0.428 1.772 1.695 24914
0.432 1.788 1.700 23482
0.433 1.792 1.695 22950
0.432 1.791 1.684 17067
0.433 1.795 1.679 10780
0.444 1.841 1.708 8819
0.447 1.852 1.708 10516
0.447 1.850 1.697 14402
0.446 1.848 1.686 14021
0.446 1.847 1.676 9234
0.461 1.911 1.719 7587
0.464 1.922 1.718 10383
0.465 1.926 1.712 10267
0.465 1.925 1.702 12848
0.466 1.929 1.696 16251
0.468 1.940 1.695 19979
0.474 1.962 1.703 22685
0.479 1.985 1.712 20207
0.482 1.996 1.710 13698
0.483 2.000 1.704 13282
0.482 1.998 1.694 13587
0.483 2.003 1.688 9495
0.495 2.051 1.714 10954
0.499 2.067 1.717 20019
0.502 2.078 1.716 20489
0.503 2.083 1.709 17767
0.505 2.093 1.708 18910
0.506 2.098 1.701 19317
0.504 2.090 1.686 14262
0.504 2.088 1.675 8697
0.513 2.123 1.691 9536
0.517 2.140 1.694 10742
0.519 2.151 1.692 10597
0.523 2.168 1.694 8696
0.528 2.185 1.697 8422
0.529 2.190 1.690 7222
0.542 2.245 1.719 7722
0.543 2.250 1.712 9735
0.547 2.267 1.714 11413
0.547 2.265 1.703 17261
0.546 2.263 1.691 18037
0.546 2.261 1.680 14366
0.550 2.278 1.682 12174
0.553 2.289 1.679 10427
0.554 2.293 1.672 8938
0.564 2.336 1.691 11297
0.565 2.341 1.684 17257
0.565 2.339 1.673 18763
0.567 2.349 1.670 15206
0.573 2.373 1.675 11983
0.576 2.384 1.672 12484
0.575 2.382 1.661 11930
0.578 2.393 1.657 10550
0.582 2.410 1.658 11242
0.584 2.421 1.655 9703
0.592 2.452 1.664 10838
0.591 2.450 1.653 12188
0.591 2.447 1.641 8881
0.590 2.445 1.630 5852
0.591 2.449 1.622 4896
0.600 2.486 1.635 3533
0.604 2.504 1.635 4552
0.635 2.629 1.698 4459
0.634 2.626 1.686 5321
0.637 2.637 1.682 6078
0.639 2.649 1.678 6652
0.640 2.653 1.670 6356
0.641 2.657 1.662 4991
0.657 2.722 1.688 4461
0.655 2.713 1.672 6520
0.656 2.717 1.664 8717
0.655 2.715 1.652 7312
0.674 2.794 1.684 6574
0.675 2.798 1.676 7536
0.678 2.809 1.671 8651
0.681 2.821 1.666 7796
0.682 2.825 1.658 7053
0.685 2.836 1.653 5191
0.704 2.916 1.684 5227
0.705 2.920 1.675 5163
0.704 2.917 1.662 5189
0.707 2.929 1.657 3985
0.726 3.009 1.687 4532
0.729 3.020 1.681 4685
0.733 3.038 1.679 5016
0.731 3.029 1.663 5821
0.730 3.026 1.650 7232
0.733 3.037 1.644 7569
0.736 3.048 1.639 8142
0.737 3.053 1.629 7282
0.741 3.071 1.627 6550
0.742 3.075 1.617 6550
0.755 3.128 1.631 6118
0.758 3.139 1.625 7063
0.757 3.137 1.612 5861
0.756 3.134 1.600 4875
0.756 3.131 1.587 3967
0.789 3.269 1.638 4390
0.790 3.273 1.628 4390
0.791 3.277 1.618 2195
0.357 1.478 0.811 270
0.153 0.626 1.638 11032
0.154 0.630 1.636 10467
0.156 0.637 1.641 9994
0.158 0.648 1.653 16138
0.160 0.655 1.659 23370
0.161 0.660 1.656 23370
0.162 0.664 1.654 25960
0.163 0.668 1.652 28550
0.166 0.679 1.665 25909
0.169 0.690 1.677 29259
0.171 0.698 1.682 24149
0.174 0.712 1.701 20784
0.175 0.716 1.699 21007
0.176 0.721 1.697 21037
0.177 0.725 1.694 20844
0.178 0.730 1.692 18834
0.179 0.734 1.690 16824
0.181 0.738 1.687 21780
0.182 0.743 1.685 26736
0.183 0.747 1.683 27126
0.183 0.748 1.674 27576
0.185 0.756 1.678 23503
0.186 0.760 1.676 19490
0.188 0.768 1.681 15409
0.191 0.783 1.699 13171
0.192 0.784 1.690 13523
0.193 0.788 1.687 13923
0.194 0.793 1.685 13889
0.195 0.797 1.682 13988
0.197 0.805 1.687 16852
0.198 0.809 1.684 21921
0.200 0.818 1.689 26170
0.201 0.822 1.686 25935
0.203 0.830 1.691 24024
0.203 0.831 1.681 23872
0.203 0.831 1.672 25078
0.205 0.839 1.676 25822
0.207 0.848 1.680 26122
0.207 0.848 1.671 19590
0.208 0.852 1.668 11501
0.209 0.857 1.666 8063
0.217 0.889 1.710 8168
0.218 0.893 1.708 11575
0.219 0.897 1.705 12400
0.221 0.902 1.702 10801
0.221 0.902 1.693 8426
0.223 0.911 1.697 9898
0.224 0.915 1.694 12061
0.225 0.919 1.691 12702
0.227 0.928 1.695 13765
0.228 0.932 1.692 13204
0.230 0.941 1.696 12060
0.232 0.949 1.700 10684
0.235 0.962 1.710 9828
0.236 0.967 1.707 10855
0.237 0.971 1.704 9332
0.240 0.980 1.708 9569
0.241 0.984 1.705 11100
0.243 0.993 1.708 10242
0.246 1.006 1.718 11402
0.248 1.014 1.722 13879
0.249 1.019 1.719 14813
0.249 1.019 1.709 17995
0.250 1.023 1.706 24485
0.251 1.028 1.703 25702
0.252 1.032 1.699 23324
0.252 1.032 1.690 19214
0.253 1.037 1.687 18400
0.256 1.045 1.690 20787
0.258 1.054 1.693 15968
0.260 1.063 1.696 11244
0.261 1.068 1.693 12304
0.262 1.072 1.690 13363
0.265 1.085 1.699 14524
0.268 1.094 1.702 22224
0.269 1.099 1.699 26254
0.270 1.103 1.696 21390
0.272 1.112 1.698 17351
0.273 1.117 1.695 26028
0.275 1.126 1.698 41301
0.276 1.130 1.694 45086
0.277 1.134 1.691 38090
0.278 1.139 1.688 35403
0.281 1.148 1.690 29366
0.282 1.152 1.687 18007
0.285 1.166 1.696 12926
0.286 1.170 1.692 9084
0.284 1.160 1.670 6355
0.285 1.165 1.666 5982
0.291 1.188 1.687 9740
0.292 1.193 1.684 17374
0.294 1.202 1.686 23923
0.294 1.201 1.676 27475
0.296 1.211 1.679 26917
0.298 1.220 1.681 21386
0.297 1.214 1.665 20705
0.299 1.224 1.668 37466
0.300 1.228 1.664 45263
0.303 1.237 1.666 40909
0.305 1.247 1.668 33360
0.306 1.251 1.665 27989
0.308 1.260 1.667 32648
0.310 1.270 1.669 29922
0.313 1.279 1.671 21087
0.316 1.293 1.679 17427
0.319 1.303 1.681 20695
0.320 1.307 1.677 17672
0.319 1.306 1.667 12690
0.320 1.311 1.663 12477
0.324 1.325 1.671 14022
0.326 1.335 1.672 9911
0.335 1.370 1.703 3998
0.323 1.323 1.641 4693
0.328 1.343 1.654 6294
0.333 1.363 1.668 11229
0.335 1.372 1.669 15405
0.338 1.382 1.671 17410
0.341 1.397 1.678 21512
0.343 1.401 1.674 20921
0.345 1.411 1.675 13587
0.349 1.426 1.682 10561
0.350 1.430 1.678 9317
0.351 1.434 1.673 17580
0.353 1.444 1.675 26805
0.355 1.454 1.676 21962
0.359 1.469 1.683 21276
0.360 1.473 1.678 29901
0.363 1.483 1.679 30626
0.364 1.488 1.675 28076
0.365 1.492 1.670 30044
0.366 1.496 1.666 29361
0.367 1.500 1.661 24574
0.369 1.510 1.662 17195
0.370 1.515 1.657 11533
0.373 1.524 1.658 15668
0.374 1.529 1.654 20234
0.376 1.539 1.654 19394
0.381 1.560 1.666 19504
0.385 1.575 1.672 19390
0.386 1.580 1.667 12990
0.390 1.595 1.673 9693
0.395 1.617 1.684 14689
0.398 1.627 1.684 15884
0.402 1.642 1.690 14610
0.405 1.658 1.696 19590
0.407 1.663 1.691 16693
0.412 1.684 1.701 11273
0.414 1.694 1.701 14831
0.415 1.699 1.696 18187
0.421 1.721 1.707 18139
0.422 1.725 1.701 17486
0.423 1.729 1.696 21565
0.424 1.734 1.691 24806
0.426 1.744 1.691 22889
0.429 1.754 1.690 24367
0.433 1.770 1.695 24566
0.437 1.787 1.700 23686
0.438 1.791 1.695 22629
0.438 1.790 1.684 15818
0.439 1.794 1.679 8730
0.453 1.852 1.718 11061
0.451 1.844 1.703 13219
0.452 1.849 1.697 14868
0.453 1.853 1.691 14699
0.453 1.851 1.681 10339
0.467 1.910 1.719 7745
0.471 1.927 1.723 11850
0.471 1.925 1.712 10901
0.470 1.923 1.702 11605
0.471 1.928 1.696 15169
0.474 1.938 1.695 18266
0.479 1.961 1.703 19473
0.485 1.984 1.712 19455
0.488 1.994 1.710 15062
0.490 2.005 1.709 14141
0.490 2.003 1.698 12969
0.488 1.995 1.683 8482
0.504 2.062 1.724 7975
0.507 2.072 1.722 16828
0.508 2.077 1.716 18243
0.510 2.087 1.714 16121
0.511 2.092 1.708 17065
0.513 2.096 1.701 17508
0.511 2.088 1.686 13241
0.510 2.086 1.675 8307
0.519 2.122 1.691 8365
0.525 2.145 1.698 9583
0.527 2.156 1.696 10285
0.531 2.173 1.699 8715
0.535 2.190 1.701 8848
0.537 2.195 1.694 7923
0.539 2.205 1.692 6628
0.550 2.248 1.712 7862
0.554 2.265 1.714 10955
0.553 2.263 1.703 17802
0.551 2.255 1.687 19261
0.552 2.259 1.680 15646
0.558 2.283 1.686 14253
0.561 2.294 1.684 12869
0.560 2.291 1.672 10123
0.571 2.335 1.691 10865
0.572 2.339 1.684 16321
0.571 2.337 1.673 18147
0.574 2.348 1.670 15010
0.580 2.372 1.675 11482
0.583 2.383 1.672 11575
0.582 2.380 1.661 10756
0.588 2.404 1.666 10175
0.591 2.415 1.662 11645
0.595 2.433 1.663 10747
0.597 2.444 1.660 12028
0.599 2.448 1.653 13342
0.600 2.452 1.645 9743
0.599 2.450 1.634 6202
0.600 2.454 1.626 4826
0.611 2.498 1.643 3543
0.617 2.522 1.647 4068
0.642 2.627 1.698 4575
0.642 2.625 1.686 5430
0.644 2.636 1.682 6144
0.645 2.640 1.674 6593
0.648 2.651 1.670 6214
0.649 2.655 1.662 4865
0.665 2.720 1.688 4825
0.663 2.711 1.672 6950
0.664 2.715 1.664 9254
0.663 2.713 1.652 7951
0.664 2.717 1.643 6652
0.685 2.803 1.680 6758
0.688 2.814 1.675 7947
0.689 2.819 1.666 7112
0.690 2.823 1.658 6278
0.693 2.834 1.653 4582
0.714 2.920 1.687 4779
0.713 2.918 1.675 4623
0.713 2.915 1.662 4621
0.714 2.920 1.653 3672
0.737 3.014 1.690 4013
0.740 3.025 1.685 4444
0.742 3.036 1.679 4930
0.740 3.027 1.663 5618
0.739 3.024 1.650 6955
0.742 3.035 1.644 7414
0.745 3.046 1.639 8122
0.746 3.051 1.629 7343
0.750 3.069 1.627 6677
0.751 3.073 1.617 6677
0.764 3.126 1.631 6095
0.767 3.137 1.625 7160
0.766 3.134 1.612 5987
0.766 3.131 1.600 5080
0.765 3.128 1.587 4163
0.799 3.266 1.638 4166
0.800 3.270 1.628 4166
0.801 3.275 1.618 2083
0.363 1.484 0.814 250
0.154 0.625 1.638 11853
0.155 0.630 1.636 11026
0.157 0.637 1.641 10340
0.159 0.648 1.653 16078
0.161 0.655 1.659 22952
0.162 0.659 1.656 22952
0.163 0.664 1.654 25376
0.164 0.668 1.652 27801
0.168 0.682 1.672 25181
0.170 0.690 1.677 28612
0.172 0.697 1.682 23902
0.174 0.708 1.694 20631
0.175 0.713 1.692 20822
0.177 0.721 1.697 21293
0.178 0.725 1.694 21525
0.179 0.729 1.692 19722
0.181 0.734 1.690 17919
0.182 0.742 1.695 21736
0.184 0.746 1.692 25679
0.184 0.747 1.683 26000
0.185 0.751 1.681 26462
0.186 0.755 1.678 22573
0.187 0.760 1.676 18685
0.189 0.768 1.681 15030
0.193 0.783 1.699 13310
0.193 0.784 1.690 13913
0.193 0.784 1.680 14652
0.195 0.792 1.685 14770
0.196 0.797 1.682 14982
0.198 0.805 1.687 17256
0.199 0.809 1.684 21704
0.201 0.817 1.689 25913
0.202 0.822 1.686 25839
0.204 0.830 1.691 23817
0.204 0.830 1.681 24583
0.204 0.831 1.672 26173
0.206 0.839 1.676 27125
0.209 0.847 1.680 27534
0.210 0.852 1.678 20519
0.210 0.852 1.668 12428
0.211 0.856 1.666 9589
0.218 0.884 1.704 8571
0.220 0.893 1.708 10964
0.221 0.897 1.705 11523
0.222 0.902 1.702 9932
0.222 0.902 1.693 7835
0.224 0.910 1.697 9666
0.225 0.915 1.694 12142
0.226 0.919 1.691 12733
0.228 0.928 1.695 13574
0.229 0.932 1.692 12935
0.231 0.940 1.696 11988
0.234 0.949 1.700 10480
0.237 0.962 1.710 9401
0.238 0.966 1.707 10380
0.239 0.971 1.704 8686
0.241 0.979 1.708 8417
0.242 0.984 1.705 9751
0.244 0.992 1.708 8932
0.247 1.005 1.718 9775
0.250 1.014 1.722 12199
0.251 1.019 1.719 13537
0.251 1.019 1.709 17102
0.252 1.023 1.706 23658
0.253 1.027 1.703 25330
0.253 1.027 1.693 23606
0.254 1.032 1.690 20038
0.255 1.036 1.687 18416
0.257 1.045 1.690 19588
0.259 1.054 1.693 15847
0.260 1.058 1.690 12009
0.263 1.067 1.693 10968
0.265 1.076 1.696 10436
0.267 1.085 1.699 12791
0.269 1.094 1.702 21146
0.270 1.098 1.699 25812
0.271 1.103 1.696 21354
0.274 1.112 1.698 17455
0.275 1.116 1.695 26358
0.277 1.125 1.698 41814
0.278 1.130 1.694 45709
0.279 1.134 1.691 38403
0.280 1.138 1.688 35419
0.282 1.147 1.690 29248
0.283 1.152 1.687 16769
0.287 1.166 1.696 11290
0.288 1.170 1.692 8685
0.284 1.155 1.664 6129
0.287 1.164 1.666 6178
0.292 1.188 1.687 11077
0.295 1.197 1.690 19747
0.296 1.202 1.686 27450
0.296 1.201 1.676 32668
0.298 1.210 1.679 33493
0.300 1.219 1.681 27510
0.300 1.219 1.671 25083
0.301 1.223 1.668 41126
0.302 1.227 1.664 50713
0.304 1.237 1.666 48502
0.307 1.246 1.668 40192
0.308 1.250 1.665 36410
0.310 1.260 1.667 42087
0.312 1.269 1.669 36409
0.313 1.273 1.665 25289
0.318 1.293 1.679 18421
0.322 1.307 1.687 21616
0.322 1.307 1.677 16875
0.320 1.301 1.661 11316
0.322 1.310 1.663 12497
0.326 1.325 1.671 15336
0.330 1.340 1.678 10791
0.335 1.359 1.692 4298
0.325 1.322 1.641 3812
0.334 1.358 1.672 5130
0.337 1.367 1.673 11235
0.338 1.372 1.669 14294
0.340 1.381 1.671 15325
0.344 1.396 1.678 19564
0.345 1.400 1.674 19677
0.347 1.410 1.675 12875
0.352 1.431 1.688 11618
0.353 1.435 1.684 11139
0.353 1.434 1.673 17725
0.355 1.444 1.675 26796
0.358 1.453 1.676 22086
0.361 1.468 1.683 18685
0.362 1.473 1.678 25038
0.365 1.483 1.679 23903
0.366 1.487 1.675 21356
0.367 1.491 1.670 26891
0.368 1.496 1.666 27455
0.369 1.500 1.661 21617
0.373 1.515 1.667 17723
0.374 1.520 1.663 15325
0.375 1.524 1.658 19485
0.376 1.528 1.654 24228
0.379 1.538 1.654 21772
0.384 1.559 1.666 19904
0.388 1.575 1.672 18598
0.389 1.579 1.667 13208
0.391 1.589 1.668 9099
0.399 1.622 1.689 14549
0.400 1.626 1.684 18159
0.404 1.642 1.690 15877
0.408 1.658 1.696 19776
0.409 1.662 1.691 16380
0.413 1.678 1.696 11599
0.417 1.694 1.701 15818
0.418 1.698 1.696 20144
0.422 1.714 1.701 19335
0.424 1.724 1.701 17885
0.425 1.729 1.696 21929
0.427 1.733 1.691 24591
0.429 1.743 1.691 22663
0.432 1.754 1.690 23817
0.436 1.770 1.695 23604
0.440 1.786 1.700 23186
0.441 1.790 1.695 21141
0.440 1.789 1.684 14010
0.456 1.853 1.729 9809
0.456 1.851 1.718 13158
0.452 1.838 1.698 16162
0.453 1.842 1.692 16503
0.456 1.852 1.691 15366
0.458 1.863 1.691 11602
0.470 1.909 1.719 8047
0.474 1.926 1.723 13139
0.474 1.924 1.712 12801
0.473 1.923 1.702 11781
0.473 1.921 1.691 13871
0.477 1.938 1.695 16064
0.482 1.960 1.703 16229
0.490 1.989 1.717 18973
0.489 1.988 1.706 16411
0.493 2.004 1.709 14849
0.493 2.002 1.698 11958
0.492 2.001 1.688 7386
0.509 2.067 1.728 6332
0.510 2.071 1.722 14012
0.511 2.076 1.716 15781
0.514 2.087 1.714 14255
0.515 2.091 1.708 14876
0.514 2.089 1.697 15297
0.514 2.087 1.686 11888
0.512 2.079 1.670 7664
0.522 2.121 1.691 7170
0.529 2.151 1.703 8302
0.532 2.161 1.701 9609
0.536 2.179 1.703 9527
0.539 2.189 1.701 10803
0.540 2.194 1.694 9861
0.541 2.198 1.688 7865
0.542 2.202 1.681 7047
0.557 2.264 1.714 10466
0.555 2.256 1.698 18041
0.555 2.254 1.687 20485
0.556 2.258 1.680 17208
0.563 2.288 1.691 16905
0.564 2.293 1.684 14754
0.565 2.297 1.677 10920
0.568 2.308 1.674 10770
0.575 2.338 1.684 15078
0.575 2.336 1.673 17301
0.578 2.347 1.670 14628
0.583 2.371 1.675 10909
0.588 2.388 1.676 10692
0.587 2.386 1.665 9665
0.593 2.410 1.670 9634
0.596 2.421 1.667 11453
0.598 2.432 1.663 11174
0.601 2.443 1.660 12457
0.602 2.447 1.653 13637
0.603 2.451 1.645 10084
0.606 2.462 1.642 6536
0.609 2.473 1.638 5399
0.615 2.497 1.643 3944
0.622 2.528 1.651 4162
0.646 2.626 1.698 4557
0.646 2.624 1.686 5384
0.648 2.635 1.682 6002
0.649 2.639 1.674 6271
0.651 2.643 1.666 5824
0.655 2.661 1.665 4613
0.669 2.719 1.688 5047
0.667 2.710 1.672 7218
0.666 2.708 1.660 9613
0.667 2.712 1.652 8384
0.668 2.716 1.643 7155
0.690 2.802 1.680 5938
0.692 2.813 1.675 7127
0.693 2.817 1.666 6260
0.694 2.822 1.658 5392
0.697 2.833 1.653 3942
0.718 2.919 1.687 4330
0.718 2.917 1.675 4003
0.716 2.907 1.659 4008
0.718 2.919 1.653 3304
0.741 3.012 1.690 3541
0.744 3.024 1.685 4067
0.747 3.035 1.679 4596
0.745 3.025 1.663 5244
0.744 3.023 1.650 6506
0.747 3.034 1.644 7119
0.749 3.045 1.639 8015
0.750 3.049 1.629 7397
0.755 3.068 1.627 6844
0.756 3.072 1.617 6844
0.769 3.125 1.631 6177
0.772 3.136 1.625 7413
0.771 3.133 1.612 6263
0.770 3.130 1.600 5465
0.770 3.127 1.587 4523
0.802 3.258 1.635 3905
0.803 3.262 1.625 3905
0.804 3.266 1.615 1952
0.365 1.484 0.814 219
0.156 0.625 1.638 13115
0.157 0.629 1.636 12107
0.159 0.636 1.641 11304
0.161 0.647 1.653 16714
0.163 0.655 1.659 23360
0.164 0.659 1.656 23360
0.165 0.663 1.654 25517
0.166 0.667 1.652 27674
0.170 0.682 1.672 25045
0.172 0.689 1.677 28489
0.174 0.697 1.682 24170
0.176 0.708 1.694 21028
0.178 0.712 1.692 21206
0.179 0.720 1.697 21965
0.181 0.724 1.694 22552
0.182 0.729 1.692 21165
0.184 0.737 1.697 19901
0.185 0.741 1.695 22700
0.186 0.745 1.692 25499
0.186 0.746 1.683 25484
0.187 0.751 1.681 25852
0.188 0.755 1.678 22152
0.189 0.759 1.676 18453
0.191 0.767 1.681 15333
0.195 0.782 1.699 14164
0.195 0.783 1.690 15102
0.195 0.784 1.680 16255
0.197 0.792 1.685 16360
0.199 0.800 1.689 16614
0.200 0.804 1.687 18131
0.202 0.809 1.684 21743
0.204 0.817 1.689 25817
0.205 0.821 1.686 25969
0.206 0.825 1.684 24003
0.207 0.830 1.681 25757
0.207 0.830 1.672 27899
0.209 0.838 1.676 29196
0.211 0.847 1.680 29918
0.212 0.851 1.678 22329
0.213 0.855 1.675 14010
0.214 0.860 1.672 11813
0.217 0.872 1.683 10175
0.221 0.888 1.701 10885
0.223 0.896 1.705 11109
0.225 0.901 1.702 9390
0.225 0.901 1.693 7412
0.227 0.910 1.697 9657
0.229 0.918 1.701 12279
0.230 0.922 1.698 12685
0.231 0.927 1.695 13008
0.232 0.931 1.692 12540
0.234 0.940 1.696 12268
0.236 0.948 1.700 10476
0.238 0.957 1.703 9037
0.241 0.965 1.707 9949
0.242 0.970 1.704 8171
0.244 0.979 1.708 7375
0.245 0.983 1.705 8292
0.246 0.987 1.702 7593
0.250 1.005 1.718 8353
0.253 1.013 1.722 10645
0.254 1.018 1.719 12150
0.254 1.018 1.709 16055
0.255 1.022 1.706 23564
0.256 1.027 1.703 26220
0.256 1.027 1.693 25140
0.257 1.031 1.690 20430
0.258 1.035 1.687 16974
0.260 1.044 1.690 19001
0.262 1.053 1.693 16311
0.264 1.057 1.690 12589
0.266 1.066 1.693 9265
0.268 1.075 1.696 7318
0.270 1.084 1.699 10591
0.272 1.093 1.702 19486
0.274 1.098 1.699 25009
0.275 1.102 1.696 21205
0.277 1.111 1.698 17511
0.279 1.120 1.701 26092
0.280 1.124 1.698 41190
0.281 1.129 1.694 45405
0.282 1.133 1.691 37595
0.283 1.137 1.688 34120
0.286 1.147 1.690 27874
0.287 1.151 1.687 14408
0.290 1.165 1.696 9261
0.291 1.169 1.692 9029
0.291 1.169 1.682 7700
0.294 1.178 1.685 8423
0.296 1.187 1.687 13456
0.298 1.196 1.690 23004
0.299 1.201 1.686 31989
0.299 1.200 1.676 38949
0.301 1.209 1.679 41185
0.304 1.219 1.681 34451
0.304 1.218 1.671 29699
0.305 1.222 1.668 44390
0.306 1.227 1.664 54856
0.308 1.236 1.666 55428
0.310 1.245 1.668 48008
0.311 1.249 1.665 46631
0.314 1.259 1.667 53109
0.316 1.268 1.669 44787
0.317 1.272 1.665 31578
0.323 1.297 1.685 20190
0.327 1.312 1.693 23030
0.325 1.306 1.677 17801
0.325 1.305 1.667 13100
0.328 1.314 1.669 15636
0.330 1.324 1.671 18303
0.334 1.339 1.678 14313
0.336 1.348 1.680 6517
0.328 1.316 1.635 3554
0.341 1.367 1.683 5804
0.342 1.372 1.679 11453
0.342 1.371 1.669 13342
0.344 1.380 1.671 13217
0.346 1.390 1.672 17846
0.349 1.399 1.674 19648
0.351 1.409 1.675 13716
0.355 1.424 1.682 14413
0.357 1.434 1.684 14851
0.358 1.438 1.679 18681
0.360 1.443 1.675 26297
0.362 1.452 1.676 21498
0.366 1.467 1.683 15145
0.367 1.472 1.678 18752
0.368 1.476 1.674 16558
0.370 1.486 1.675 15626
0.371 1.490 1.670 24977
0.372 1.495 1.666 25351
0.374 1.499 1.661 17942
0.379 1.520 1.673 18856
0.378 1.518 1.663 19953
0.381 1.528 1.664 22449
0.381 1.527 1.654 26702
0.383 1.537 1.654 22938
0.388 1.558 1.666 19900
0.392 1.574 1.672 17850
0.395 1.584 1.672 13985
0.397 1.593 1.673 10123
0.404 1.621 1.689 14534
0.405 1.625 1.684 19646
0.409 1.641 1.690 17279
0.413 1.656 1.696 19839
0.414 1.661 1.691 15513
0.418 1.677 1.696 11469
0.422 1.693 1.701 16470
0.423 1.697 1.696 22167
0.427 1.713 1.701 20997
0.428 1.717 1.696 18814
0.431 1.728 1.696 22605
0.432 1.732 1.691 24417
0.434 1.742 1.691 22798
0.437 1.752 1.690 23317
0.441 1.769 1.695 21999
0.445 1.785 1.700 21720
0.446 1.789 1.695 18401
0.446 1.788 1.684 11841
0.461 1.851 1.729 11623
0.463 1.856 1.723 15549
0.456 1.830 1.693 19302
0.457 1.835 1.687 17775
0.463 1.857 1.696 17467
0.465 1.867 1.695 15061
0.471 1.890 1.705 9353
0.480 1.925 1.723 14860
0.479 1.923 1.712 15757
0.479 1.921 1.702 12700
0.478 1.920 1.691 12612
0.483 1.936 1.695 13580
0.490 1.965 1.708 13933
0.494 1.982 1.712 19311
0.495 1.986 1.706 18048
0.501 2.009 1.714 15784
0.502 2.013 1.708 12210
0.501 2.012 1.697 6959
0.515 2.065 1.728 5123
0.517 2.076 1.727 10991
0.519 2.081 1.720 12947
0.520 2.085 1.714 12237
0.521 2.089 1.708 12796
0.520 2.088 1.697 13039
0.518 2.079 1.681 10341
0.518 2.078 1.670 6762
0.533 2.138 1.705 6620
0.537 2.156 1.707 7734
0.540 2.166 1.705 9701
0.543 2.177 1.703 10816
0.545 2.188 1.701 12658
0.546 2.192 1.694 11606
0.547 2.196 1.688 9049
0.547 2.194 1.677 8101
0.564 2.263 1.714 10078
0.562 2.254 1.698 18616
0.561 2.252 1.687 21990
0.562 2.257 1.680 19370
0.570 2.287 1.691 19698
0.571 2.291 1.684 16389
0.572 2.295 1.677 11496
0.575 2.306 1.674 11398
0.581 2.330 1.680 14141
0.582 2.334 1.673 16709
0.584 2.345 1.670 14531
0.590 2.369 1.675 10469
0.595 2.386 1.676 9875
0.596 2.391 1.669 8605
0.603 2.421 1.678 9259
0.605 2.426 1.671 11268
0.607 2.437 1.667 11635
0.608 2.441 1.660 13100
0.609 2.445 1.653 14035
0.610 2.449 1.645 10405
0.613 2.460 1.642 6840
0.616 2.471 1.638 6106
0.620 2.489 1.639 4497
0.630 2.526 1.651 4504
0.654 2.624 1.698 4561
0.653 2.622 1.686 5297
0.656 2.633 1.682 5740
0.657 2.637 1.674 5742
0.658 2.641 1.666 5246
0.664 2.666 1.669 4297
0.677 2.717 1.688 5416
0.675 2.708 1.672 7625
0.674 2.706 1.660 10064
0.675 2.710 1.652 8920
0.676 2.714 1.643 7777
0.679 2.725 1.639 5473
0.702 2.818 1.678 6103
0.702 2.815 1.666 5198
0.703 2.820 1.658 4321
0.726 2.913 1.696 3594
0.727 2.917 1.687 3886
0.728 2.922 1.678 3336
0.722 2.898 1.655 3371
0.746 2.992 1.692 2993
0.733 2.941 1.655 3180
0.734 2.946 1.646 3955
0.737 2.957 1.641 4726
0.752 3.016 1.659 5059
0.751 3.014 1.647 6202
0.756 3.032 1.644 6956
0.760 3.050 1.642 8107
0.761 3.054 1.633 7703
0.764 3.065 1.627 7330
0.765 3.069 1.617 7330
0.778 3.122 1.631 7094
0.781 3.134 1.625 8587
0.780 3.131 1.612 7310
0.780 3.128 1.600 6437
0.779 3.125 1.587 5525
0.811 3.256 1.635 3633
0.812 3.260 1.625 3633
0.813 3.264 1.615 1816
0.368 1.476 0.811 223
0.158 0.624 1.638 13830
0.159 0.629 1.636 12762
0.161 0.636 1.641 11913
0.163 0.647 1.653 16879
0.165 0.654 1.659 23191
0.166 0.658 1.656 23191
0.168 0.663 1.654 25087
0.169 0.667 1.652 26983
0.172 0.681 1.672 24354
0.174 0.689 1.677 27668
0.176 0.696 1.682 23828
0.179 0.707 1.694 21045
0.180 0.712 1.692 21331
0.182 0.719 1.697 22490
0.183 0.724 1.694 23388
0.184 0.728 1.692 22500
0.186 0.736 1.697 22006
0.187 0.740 1.695 23585
0.188 0.745 1.692 25164
0.188 0.746 1.683 24747
0.190 0.750 1.681 24945
0.191 0.754 1.678 21590
0.192 0.759 1.676 18235
0.195 0.770 1.688 15780
0.198 0.782 1.699 15256
0.198 0.782 1.690 16504
0.198 0.783 1.680 17919
0.200 0.791 1.685 17852
0.202 0.799 1.689 17892
0.203 0.804 1.687 18769
0.204 0.808 1.684 21709
0.206 0.816 1.689 25564
0.207 0.820 1.686 25761
0.208 0.825 1.684 23885
0.210 0.829 1.681 26401
0.210 0.830 1.672 28936
0.212 0.838 1.676 30643
0.214 0.846 1.680 31743
0.215 0.850 1.678 23725
0.216 0.855 1.675 15399
0.218 0.863 1.679 13830
0.221 0.875 1.690 11856
0.224 0.887 1.701 11398
0.225 0.892 1.698 11338
0.228 0.900 1.702 9542
0.229 0.904 1.699 7626
0.230 0.909 1.697 9570
0.233 0.921 1.707 12048
0.234 0.926 1.704 12420
0.235 0.930 1.702 12404
0.236 0.935 1.699 12633
0.237 0.939 1.696 13136
0.238 0.943 1.693 10731
0.242 0.956 1.703 8249
0.244 0.965 1.707 8863
0.245 0.969 1.704 7066
0.246 0.973 1.701 5787
0.247 0.978 1.698 6245
0.249 0.986 1.702 5690
0.254 1.004 1.718 6671
0.256 1.012 1.722 9037
0.257 1.017 1.719 10613
0.257 1.017 1.709 15256
0.258 1.021 1.706 23805
0.258 1.021 1.696 26760
0.259 1.026 1.693 25472
0.260 1.030 1.690 20135
0.262 1.035 1.687 16308
0.264 1.043 1.690 18649
0.266 1.052 1.693 16131
0.267 1.057 1.690 12417
0.269 1.065 1.693 8278
0.273 1.079 1.703 4930
0.275 1.088 1.706 8278
0.276 1.092 1.702 17273
0.277 1.097 1.699 23140
0.278 1.101 1.696 20031
0.281 1.110 1.698 16853
0.283 1.119 1.701 24469
0.284 1.123 1.698 38318
0.285 1.128 1.694 42613
0.285 1.127 1.685 34580
0.287 1.136 1.688 30790
0.290 1.146 1.690 24984
0.292 1.155 1.693 11885
0.295 1.169 1.702 7787
0.295 1.168 1.692 9897
0.296 1.173 1.689 10352
0.298 1.177 1.685 12118
0.300 1.186 1.687 16278
0.302 1.195 1.690 25394
0.303 1.200 1.686 34282
0.303 1.199 1.676 41674
0.305 1.208 1.679 45249
0.308 1.218 1.681 39104
0.308 1.217 1.671 33440
0.309 1.221 1.668 46428
0.310 1.226 1.664 57053
0.312 1.235 1.666 58977
0.315 1.244 1.668 52678
0.316 1.248 1.665 52426
0.318 1.258 1.667 58077
0.320 1.267 1.669 48897
0.321 1.271 1.665 34638
0.329 1.301 1.691 21926
0.331 1.311 1.693 24290
0.330 1.305 1.677 19646
0.331 1.309 1.673 15742
0.332 1.313 1.669 18015
0.334 1.323 1.671 21218
0.337 1.332 1.672 19399
0.339 1.342 1.674 10277
0.340 1.346 1.670 5256
0.345 1.366 1.683 7722
0.346 1.370 1.679 11432
0.346 1.369 1.669 11952
0.347 1.374 1.665 11399
0.351 1.389 1.672 16965
0.354 1.398 1.674 20006
0.356 1.408 1.675 14697
0.360 1.423 1.682 16791
0.362 1.433 1.684 17907
0.363 1.437 1.679 19598
0.364 1.441 1.675 24708
0.365 1.446 1.670 19378
0.369 1.461 1.677 12461
0.372 1.471 1.678 14598
0.371 1.469 1.668 15187
0.374 1.479 1.669 16868
0.376 1.489 1.670 25050
0.378 1.493 1.666 23901
0.380 1.503 1.667 15389
0.385 1.524 1.678 19661
0.385 1.523 1.668 22527
0.386 1.527 1.664 22998
0.386 1.526 1.654 25698
0.388 1.536 1.654 21026
0.394 1.557 1.666 18445
0.396 1.567 1.666 17120
0.400 1.582 1.672 14878
0.403 1.592 1.673 12879
0.409 1.619 1.689 14610
0.410 1.623 1.684 19224
0.414 1.639 1.690 17638
0.418 1.655 1.696 18855
0.420 1.659 1.691 13560
0.424 1.675 1.696 10260
0.426 1.685 1.696 15787
0.429 1.696 1.696 22417
0.431 1.706 1.696 21442
0.434 1.716 1.696 18834
0.436 1.726 1.696 22374
0.439 1.736 1.696 23662
0.440 1.741 1.691 22430
0.441 1.745 1.685 22125
0.447 1.767 1.695 19287
0.451 1.783 1.700 18898
0.452 1.788 1.695 14833
0.450 1.780 1.679 11349
0.468 1.850 1.729 12982
0.469 1.854 1.723 16710
0.462 1.829 1.693 18450
0.463 1.833 1.687 17793
0.471 1.862 1.701 18402
0.473 1.872 1.700 18022
0.477 1.888 1.705 11889
0.486 1.923 1.723 16250
0.484 1.915 1.708 18168
0.484 1.914 1.697 14013
0.485 1.918 1.691 11859
0.489 1.935 1.695 11490
0.498 1.969 1.713 14584
0.499 1.974 1.707 20894
0.502 1.984 1.706 19335
0.507 2.007 1.714 17401
0.509 2.012 1.708 15282
0.510 2.016 1.702 9285
0.515 2.039 1.710 5312
0.524 2.074 1.727 8395
0.526 2.079 1.720 10206
0.527 2.083 1.714 10111
0.528 2.088 1.708 10754
0.527 2.086 1.697 10647
0.525 2.078 1.681 8521
0.537 2.126 1.707 6085
0.542 2.143 1.709 6811
0.548 2.166 1.716 8221
0.550 2.177 1.714 10649
0.552 2.181 1.708 12151
0.553 2.186 1.701 13872
0.555 2.197 1.699 12450
0.555 2.195 1.688 9102
0.554 2.193 1.677 8010
0.572 2.261 1.714 9719
0.568 2.246 1.694 18767
0.569 2.250 1.687 22311
0.570 2.255 1.680 20185
0.578 2.285 1.691 20926
0.580 2.296 1.688 16861
0.581 2.300 1.681 11509
0.583 2.304 1.674 11586
0.587 2.322 1.675 13327
0.590 2.332 1.673 15703
0.592 2.343 1.670 13958
0.597 2.361 1.671 9921
0.603 2.384 1.676 8715
0.606 2.395 1.673 7440
0.613 2.426 1.682 8915
0.614 2.430 1.675 10774
0.615 2.435 1.667 11883
0.617 2.439 1.660 13630
0.618 2.443 1.653 14266
0.619 2.447 1.645 10507
0.621 2.458 1.642 6762
0.624 2.469 1.638 6183
0.630 2.493 1.643 4823
0.638 2.524 1.651 4973
0.639 2.528 1.643 4692
0.664 2.626 1.690 5020
0.665 2.630 1.682 5193
0.666 2.635 1.674 4821
0.667 2.639 1.666 4276
0.673 2.664 1.669 3856
0.685 2.708 1.684 5765
0.684 2.706 1.672 7901
0.683 2.703 1.660 10238
0.685 2.708 1.652 9204
0.686 2.712 1.643 8171
0.688 2.723 1.639 5976
0.712 2.816 1.678 5105
0.694 2.745 1.630 4252
0.695 2.749 1.621 4227
0.694 2.746 1.609 3637
0.737 2.915 1.687 3520
0.740 2.926 1.682 3003
0.753 2.978 1.698 3591
0.752 2.976 1.685 3342
0.743 2.939 1.655 3757
0.746 2.950 1.650 4585
0.747 2.954 1.641 5377
0.750 2.965 1.635 5299
0.761 3.011 1.647 5771
0.766 3.029 1.644 6499
0.770 3.047 1.642 7814
0.770 3.045 1.629 7510
0.769 3.042 1.617 7231
0.772 3.053 1.611 7223
0.789 3.120 1.631 6607
0.792 3.131 1.625 8352
0.791 3.128 1.612 7492
0.790 3.125 1.600 7005
0.789 3.122 1.587 6110
0.790 3.126 1.577 4043
0.823 3.257 1.625 3323
0.825 3.261 1.615 1661
0.373 1.474 0.811 235
0.160 0.624 1.638 13974
0.161 0.628 1.636 12894
0.163 0.635 1.641 12018
0.166 0.646 1.653 16586
0.168 0.653 1.659 22578
0.169 0.658 1.656 22578
0.170 0.662 1.654 24178
0.171 0.666 1.652 25779
0.174 0.680 1.672 23208
0.176 0.688 1.677 26334
0.178 0.696 1.682 22982
0.181 0.707 1.694 20612
0.182 0.711 1.692 21020
0.184 0.719 1.697 22540
0.185 0.723 1.694 23673
0.187 0.731 1.699 23290
0.189 0.735 1.697 23328
0.190 0.740 1.695 24030
0.191 0.744 1.692 24732
0.192 0.748 1.690 23940
0.192 0.749 1.681 23875
0.193 0.754 1.678 20920
0.195 0.762 1.683 18024
0.197 0.769 1.688 16165
0.200 0.781 1.699 16221
0.200 0.782 1.690 17438
0.201 0.782 1.680 18855
0.203 0.790 1.685 18642
0.205 0.799 1.689 18476
0.206 0.803 1.687 18880
0.206 0.803 1.677 21291
0.208 0.812 1.682 24919
0.210 0.820 1.686 24995
0.211 0.824 1.684 23113
0.212 0.828 1.681 26375
0.213 0.833 1.679 29637
0.216 0.841 1.683 31403
0.217 0.845 1.680 32631
0.218 0.850 1.678 24412
0.220 0.858 1.682 16228
0.221 0.862 1.679 14977
0.224 0.874 1.690 12645
0.227 0.887 1.701 11220
0.228 0.891 1.698 11047
0.231 0.899 1.702 9354
0.232 0.904 1.699 7733
0.234 0.912 1.703 9499
0.236 0.921 1.707 11980
0.237 0.925 1.704 12374
0.238 0.929 1.702 12143
0.239 0.934 1.699 12608
0.240 0.938 1.696 13521
0.242 0.943 1.693 10868
0.245 0.955 1.703 7827
0.247 0.964 1.707 8229
0.249 0.972 1.711 6454
0.249 0.973 1.701 4574
0.249 0.973 1.691 4499
0.252 0.981 1.695 4148
0.257 1.003 1.718 5484
0.259 1.012 1.722 7976
0.260 1.016 1.719 9497
0.260 1.016 1.709 14449
0.262 1.021 1.706 23169
0.263 1.025 1.703 26337
0.263 1.025 1.693 25139
0.264 1.029 1.690 20241
0.265 1.034 1.687 16174
0.267 1.042 1.690 17451
0.269 1.051 1.693 15627
0.271 1.056 1.690 12633
0.273 1.065 1.693 9007
0.276 1.078 1.703 4870
0.279 1.087 1.706 6970
0.280 1.091 1.702 15181
0.281 1.096 1.699 20982
0.282 1.100 1.696 18537
0.284 1.109 1.698 15886
0.287 1.118 1.701 22423
0.288 1.122 1.698 35235
0.289 1.127 1.694 39925
0.289 1.126 1.685 31900
0.291 1.136 1.688 27467
0.293 1.145 1.690 21757
0.297 1.158 1.699 10121
0.298 1.163 1.696 7698
0.299 1.167 1.692 11522
0.302 1.176 1.695 12677
0.301 1.176 1.685 14705
0.304 1.185 1.687 18029
0.306 1.194 1.690 26387
0.307 1.199 1.686 34749
0.307 1.198 1.676 41907
0.309 1.207 1.679 46436
0.312 1.217 1.681 41655
0.312 1.216 1.671 36653
0.313 1.220 1.668 48232
0.314 1.225 1.664 58280
0.316 1.234 1.666 60752
0.319 1.243 1.668 54269
0.320 1.247 1.665 54311
0.322 1.257 1.667 59833
0.325 1.266 1.669 49870
0.326 1.270 1.665 35207
0.333 1.300 1.691 23469
0.336 1.309 1.693 24541
0.334 1.304 1.677 20359
0.335 1.308 1.673 16714
0.338 1.317 1.675 18808
0.339 1.322 1.671 23176
0.341 1.331 1.672 22958
0.342 1.335 1.668 13287
0.342 1.335 1.658 7686
0.349 1.360 1.678 9224
0.351 1.369 1.679 10257
0.349 1.363 1.663 8879
0.353 1.378 1.671 9171
0.356 1.387 1.672 15701
0.358 1.397 1.674 19840
0.361 1.407 1.675 15132
0.364 1.422 1.682 17368
0.366 1.426 1.678 18498
0.368 1.436 1.679 19235
0.369 1.440 1.675 22823
0.370 1.444 1.670 17189
0.371 1.449 1.666 12449
0.375 1.464 1.673 15282
0.376 1.468 1.668 19437
0.379 1.478 1.669 22003
0.381 1.488 1.670 26088
0.382 1.492 1.666 23659
0.385 1.502 1.667 14665
0.390 1.523 1.678 19409
0.390 1.521 1.668 22426
0.391 1.526 1.664 22075
0.392 1.530 1.659 23895
0.393 1.534 1.654 18294
0.399 1.555 1.666 16187
0.401 1.565 1.666 15639
0.405 1.581 1.672 15026
0.408 1.591 1.673 15058
0.413 1.612 1.684 14389
0.416 1.622 1.684 17823
0.420 1.638 1.690 16981
0.422 1.648 1.690 17344
0.425 1.658 1.691 11436
0.429 1.674 1.696 8705
0.432 1.684 1.696 14367
0.433 1.688 1.691 21521
0.435 1.699 1.691 21071
0.438 1.709 1.691 17928
0.442 1.725 1.696 20952
0.445 1.735 1.696 22179
0.447 1.745 1.696 21528
0.447 1.744 1.685 20496
0.453 1.766 1.695 15939
0.457 1.782 1.700 15133
0.459 1.792 1.700 11797
0.457 1.785 1.684 11190
0.459 1.789 1.679 13761
0.475 1.853 1.723 16031
0.468 1.827 1.693 16383
0.473 1.844 1.697 15756
0.478 1.866 1.706 18839
0.481 1.876 1.705 19747
0.484 1.887 1.705 13663
0.492 1.921 1.723 16853
0.491 1.914 1.708 19242
0.490 1.912 1.697 14416
0.491 1.916 1.691 10895
0.497 1.939 1.700 9826
0.504 1.968 1.713 16012
0.506 1.972 1.707 23113
0.507 1.977 1.701 20783
0.514 2.006 1.714 18578
0.515 2.010 1.708 16932
0.515 2.008 1.697 11120
0.516 2.013 1.691 6721
0.517 2.017 1.685 8505
0.520 2.027 1.683 9866
0.521 2.032 1.677 8587
0.535 2.086 1.708 9197
0.534 2.084 1.697 8811
0.532 2.076 1.681 6978
0.548 2.137 1.716 6202
0.550 2.147 1.714 7302
0.555 2.164 1.716 9150
0.558 2.175 1.714 11972
0.559 2.180 1.708 13220
0.560 2.184 1.701 14525
0.563 2.195 1.699 13034
0.564 2.199 1.692 9551
0.563 2.197 1.681 8416
0.569 2.221 1.688 10053
0.575 2.244 1.694 18365
0.576 2.248 1.687 21856
0.579 2.259 1.685 19972
0.585 2.283 1.691 20591
0.588 2.294 1.688 16283
0.591 2.304 1.685 10903
0.590 2.302 1.674 11375
0.593 2.313 1.671 12719
0.597 2.330 1.673 14386
0.600 2.341 1.670 12956
0.605 2.359 1.671 9281
0.611 2.382 1.676 7688
0.617 2.406 1.681 6626
0.623 2.430 1.686 8628
0.622 2.428 1.675 10144
0.624 2.432 1.667 11619
0.623 2.430 1.656 13571
0.624 2.434 1.649 14015
0.627 2.445 1.645 10259
0.628 2.449 1.638 6532
0.632 2.467 1.638 5872
0.639 2.491 1.643 4698
0.646 2.522 1.651 5135
0.646 2.519 1.639 4901
0.643 2.510 1.624 5114
0.674 2.628 1.682 4573
0.675 2.633 1.674 3879
0.674 2.630 1.662 3319
0.693 2.702 1.692 3764
0.694 2.706 1.684 5914
0.693 2.704 1.672 7937
0.692 2.701 1.660 10096
0.693 2.705 1.652 9161
0.695 2.710 1.643 8226
0.697 2.721 1.639 6207
0.700 2.732 1.634 4579
0.703 2.743 1.630 4572
0.704 2.747 1.621 4592
0.705 2.751 1.613 3941
0.704 2.748 1.601 3321
0.758 2.958 1.700 3209
0.761 2.969 1.694 4097
0.760 2.966 1.682 3816
0.754 2.943 1.659 4271
0.756 2.948 1.650 5053
0.758 2.959 1.644 5780
0.759 2.963 1.635 5592
0.762 2.974 1.630 5381
0.774 3.020 1.641 5951
0.779 3.038 1.639 7194
0.780 3.042 1.629 7116
0.779 3.039 1.617 7046
0.780 3.043 1.608 7054
0.801 3.124 1.635 6211
0.804 3.135 1.628 8089
0.803 3.133 1.616 7224
0.802 3.130 1.603 6519
0.802 3.127 1.590 5567
0.804 3.138 1.584 3933
0.809 3.156 1.581 3609
0.810 3.160 1.571 1804
0.378 1.473 0.811 218
0.161 0.620 1.630 15210
0.163 0.628 1.636 14034
0.165 0.635 1.641 13142
0.167 0.646 1.653 17375
0.169 0.653 1.659 22968
0.171 0.657 1.656 22968
0.172 0.661 1.654 24187
0.173 0.666 1.652 25406
0.176 0.680 1.672 22580
0.178 0.687 1.677 25507
0.180 0.695 1.682 22583
0.183 0.706 1.694 20561
0.184 0.711 1.692 21066
0.186 0.718 1.697 22709
0.187 0.723 1.694 23851
0.190 0.730 1.699 24218
0.191 0.735 1.697 25092
0.192 0.739 1.695 25141
0.194 0.747 1.699 25212
0.194 0.748 1.690 24115
0.194 0.749 1.681 23796
0.195 0.753 1.678 21350
0.197 0.761 1.683 19253
0.199 0.769 1.688 17851
0.202 0.780 1.699 18353
0.203 0.781 1.690 19048
0.203 0.782 1.680 20051
0.205 0.790 1.685 19748
0.207 0.798 1.689 19632
0.207 0.799 1.680 19194
0.208 0.803 1.677 20545
0.210 0.811 1.682 23299
0.212 0.815 1.679 23189
0.213 0.820 1.677 21541
0.215 0.828 1.681 26052
0.216 0.832 1.679 30567
0.218 0.840 1.683 32852
0.220 0.848 1.687 34437
0.221 0.853 1.684 26125
0.222 0.857 1.682 18012
0.225 0.865 1.686 17305
0.227 0.874 1.690 14219
0.229 0.882 1.694 11405
0.231 0.890 1.698 10672
0.232 0.895 1.695 8793
0.234 0.903 1.699 7442
0.235 0.907 1.697 9357
0.239 0.920 1.707 12253
0.241 0.928 1.711 12908
0.241 0.929 1.702 12012
0.242 0.933 1.699 12505
0.243 0.937 1.696 14067
0.244 0.942 1.693 11378
0.247 0.950 1.697 8135
0.250 0.963 1.707 8303
0.252 0.972 1.711 6445
0.253 0.976 1.708 4006
0.252 0.972 1.691 3297
0.253 0.976 1.688 4227
0.258 0.994 1.705 6127
0.262 1.011 1.722 7916
0.263 1.015 1.719 9038
0.263 1.015 1.709 13629
0.265 1.020 1.706 21603
0.266 1.024 1.703 25141
0.266 1.024 1.693 24667
0.267 1.029 1.690 20878
0.268 1.033 1.687 16831
0.270 1.042 1.690 17321
0.273 1.051 1.693 16796
0.274 1.055 1.690 14529
0.276 1.064 1.693 11001
0.278 1.073 1.696 5808
0.283 1.091 1.712 5288
0.283 1.090 1.702 11196
0.283 1.090 1.693 17620
0.284 1.095 1.689 16779
0.288 1.108 1.698 14875
0.290 1.117 1.701 19636
0.290 1.117 1.692 31254
0.291 1.121 1.688 37612
0.292 1.126 1.685 29922
0.294 1.135 1.688 25008
0.297 1.144 1.690 18993
0.300 1.158 1.699 9275
0.300 1.157 1.689 8681
0.303 1.166 1.692 13152
0.304 1.171 1.689 14437
0.305 1.175 1.685 16830
0.306 1.179 1.681 19297
0.311 1.198 1.696 26971
0.311 1.198 1.686 36684
0.311 1.197 1.676 45415
0.313 1.206 1.679 50506
0.315 1.216 1.681 46295
0.315 1.215 1.671 41755
0.316 1.219 1.668 50497
0.317 1.224 1.664 58901
0.320 1.233 1.666 61875
0.322 1.242 1.668 54835
0.323 1.246 1.665 54977
0.326 1.256 1.667 59526
0.328 1.265 1.669 53505
0.329 1.269 1.665 42203
0.336 1.294 1.685 26260
0.339 1.308 1.693 23930
0.338 1.303 1.677 20508
0.339 1.307 1.673 16920
0.342 1.316 1.675 18918
0.343 1.321 1.671 25350
0.345 1.330 1.672 28088
0.345 1.329 1.663 18695
0.345 1.328 1.653 11302
0.350 1.348 1.666 12126
0.351 1.353 1.662 10851
0.352 1.357 1.658 8499
0.356 1.372 1.665 9100
0.360 1.386 1.672 13709
0.362 1.396 1.674 19585
0.363 1.400 1.669 15232
0.370 1.426 1.688 15226
0.370 1.425 1.678 15533
0.371 1.429 1.673 17011
0.372 1.434 1.669 20183
0.374 1.443 1.670 16700
0.378 1.458 1.677 17643
0.381 1.468 1.678 22629
0.382 1.472 1.674 25684
0.383 1.477 1.669 26365
0.384 1.481 1.665 27257
0.387 1.491 1.666 23550
0.389 1.501 1.667 14562
0.395 1.522 1.678 16300
0.394 1.520 1.668 18292
0.396 1.525 1.664 19770
0.397 1.529 1.659 22118
0.399 1.539 1.660 13915
0.405 1.560 1.671 11339
0.406 1.564 1.666 12107
0.411 1.585 1.678 15524
0.411 1.584 1.668 18698
0.418 1.611 1.684 13849
0.422 1.627 1.690 15439
0.423 1.631 1.685 15791
0.426 1.641 1.685 14707
0.428 1.651 1.685 8772
0.432 1.667 1.691 6502
0.437 1.683 1.696 11532
0.438 1.687 1.691 18969
0.440 1.697 1.691 19459
0.443 1.707 1.691 16691
0.447 1.723 1.696 18740
0.451 1.739 1.701 19733
0.452 1.744 1.696 20851
0.452 1.742 1.685 18684
0.455 1.752 1.685 12022
0.462 1.780 1.700 9160
0.466 1.797 1.705 8328
0.464 1.789 1.689 12332
0.465 1.793 1.684 16337
0.466 1.798 1.678 13969
0.475 1.832 1.698 13231
0.480 1.848 1.702 13553
0.485 1.871 1.711 17662
0.486 1.875 1.705 20636
0.489 1.885 1.705 15908
0.495 1.908 1.713 16781
0.496 1.912 1.708 19463
0.496 1.911 1.697 14606
0.497 1.915 1.691 9768
0.503 1.938 1.700 8206
0.510 1.966 1.713 17568
0.510 1.965 1.702 26464
0.512 1.975 1.701 23423
0.520 2.004 1.714 19072
0.519 2.002 1.703 18369
0.519 2.001 1.692 13945
0.520 2.005 1.686 9458
0.521 2.009 1.680 10280
0.522 2.014 1.674 9935
0.525 2.024 1.672 8812
0.526 2.028 1.666 8555
0.531 2.045 1.669 7349
0.530 2.043 1.658 4853
0.556 2.141 1.720 5747
0.557 2.146 1.714 8041
0.560 2.157 1.712 11065
0.562 2.167 1.710 14249
0.563 2.172 1.703 14916
0.566 2.182 1.701 15005
0.571 2.199 1.703 13721
0.570 2.197 1.692 9749
0.570 2.195 1.681 7935
0.579 2.232 1.696 10344
0.582 2.242 1.694 18796
0.583 2.247 1.687 21632
0.584 2.251 1.680 19377
0.592 2.281 1.691 19424
0.595 2.292 1.688 15458
0.597 2.303 1.685 10778
0.599 2.307 1.678 11550
0.600 2.311 1.671 12534
0.602 2.322 1.668 13079
0.605 2.333 1.665 11743
0.610 2.350 1.667 8206
0.618 2.381 1.676 5808
0.629 2.424 1.694 6185
0.630 2.429 1.686 8188
0.631 2.433 1.679 9005
0.631 2.431 1.667 10967
0.630 2.428 1.656 13844
0.631 2.433 1.649 14388
0.632 2.437 1.641 10540
0.633 2.441 1.634 6693
0.638 2.458 1.634 5693
0.651 2.509 1.654 4576
0.654 2.520 1.651 5439
0.653 2.518 1.639 5450
0.651 2.508 1.624 5942
0.648 2.499 1.608 4533
0.646 2.490 1.593 3756
0.647 2.494 1.585 2683
0.699 2.693 1.688 3699
0.700 2.697 1.680 6026
0.701 2.702 1.672 7883
0.700 2.699 1.660 9749
0.701 2.703 1.652 9035
0.702 2.708 1.643 8322
0.704 2.712 1.635 6659
0.708 2.730 1.634 5343
0.711 2.741 1.630 5178
0.714 2.752 1.625 5232
0.713 2.749 1.613 4480
0.712 2.746 1.601 3841
0.767 2.956 1.700 3742
0.768 2.960 1.691 4928
0.767 2.957 1.678 4726
0.763 2.941 1.659 5027
0.764 2.945 1.650 5793
0.767 2.956 1.644 6534
0.768 2.961 1.635 6220
0.771 2.972 1.630 5899
0.783 3.017 1.641 5438
0.788 3.036 1.639 6483
0.787 3.033 1.626 6445
0.788 3.037 1.617 6483
0.789 3.041 1.608 6531
0.808 3.115 1.631 6093
0.813 3.133 1.628 8064
0.812 3.130 1.616 7479
0.811 3.127 1.603 6934
0.811 3.124 1.590 5814
0.817 3.150 1.590 4217
0.822 3.168 1.587 4171
0.823 3.172 1.577 2085
0.162 0.620 1.630 15173
0.164 0.627 1.636 13955
0.166 0.635 1.641 13047
0.168 0.645 1.653 16983
0.170 0.653 1.659 22304
0.171 0.657 1.656 22304
0.173 0.661 1.654 23209
0.174 0.665 1.652 24115
0.177 0.680 1.672 21378
0.180 0.691 1.684 24168
0.181 0.695 1.682 21619
0.184 0.706 1.694 20056
0.185 0.710 1.692 20636
0.187 0.718 1.697 22417
0.189 0.722 1.694 23545
0.191 0.730 1.699 24118
0.192 0.735 1.697 25166
0.193 0.739 1.695 24871
0.195 0.747 1.699 24602
0.195 0.748 1.690 23506
0.195 0.748 1.681 23269
