0.546 0.837 1.714 19344
0.551 0.844 1.717 17239
0.553 0.848 1.714 21225
0.556 0.852 1.711 28025
0.556 0.852 1.702 31342
0.556 0.852 1.692 35219
0.561 0.860 1.695 29782
0.563 0.864 1.692 24092
0.563 0.864 1.683 25064
0.566 0.867 1.680 31908
0.568 0.871 1.677 40669
0.571 0.875 1.674 43800
0.576 0.882 1.677 36001
0.578 0.886 1.674 22106
0.580 0.890 1.671 19792
0.583 0.894 1.667 23209
0.588 0.901 1.671 22388
0.593 0.909 1.674 24072
0.595 0.912 1.671 30516
0.595 0.912 1.661 29966
0.608 0.932 1.683 22587
0.615 0.943 1.693 21143
0.615 0.943 1.683 18637
0.618 0.947 1.680 19144
0.623 0.955 1.682 19950
0.628 0.962 1.685 18213
0.633 0.970 1.688 13362
0.635 0.974 1.685 8942
0.646 0.990 1.700 9062
0.648 0.994 1.697 13472
0.651 0.998 1.693 14694
0.648 0.993 1.677 8087
0.650 0.997 1.673 7050
0.661 1.013 1.689 12817
0.666 1.021 1.691 13129
0.674 1.033 1.700 13421
0.679 1.041 1.702 17236
0.684 1.049 1.705 20068
0.684 1.049 1.695 19939
0.686 1.052 1.691 17604
0.694 1.065 1.700 17118
0.697 1.068 1.696 18687
0.699 1.072 1.692 16173
0.702 1.076 1.688 14418
0.710 1.088 1.696 17097
0.712 1.092 1.692 17544
0.715 1.096 1.689 13987
0.729 1.117 1.709 14200
0.728 1.116 1.699 18119
0.731 1.120 1.695 23485
0.736 1.128 1.697 26820
0.744 1.141 1.705 27273
0.750 1.149 1.706 25560
0.749 1.149 1.696 16204
0.752 1.152 1.692 8310
0.757 1.161 1.694 8503
0.757 1.160 1.684 12604
0.762 1.168 1.686 13811
0.773 1.185 1.699 10028
0.779 1.194 1.701 7699
0.775 1.188 1.685 5448
0.778 1.192 1.681 8073
0.780 1.196 1.677 12234
0.789 1.209 1.684 10196
0.797 1.222 1.691 9173
0.799 1.225 1.687 9768
0.802 1.229 1.682 17368
0.807 1.238 1.684 19653
0.813 1.246 1.685 16633
0.818 1.254 1.686 14901
0.824 1.263 1.687 21714
0.826 1.267 1.683 32507
0.829 1.270 1.678 30876
0.828 1.269 1.668 20082
0.837 1.283 1.675 11295
0.851 1.305 1.692 20361
0.854 1.309 1.688 25832
0.856 1.313 1.683 20379
0.862 1.321 1.684 12967
0.874 1.339 1.696 8906
0.876 1.343 1.691 11247
0.885 1.357 1.697 10386
0.891 1.365 1.698 10134
0.890 1.364 1.687 8629
0.896 1.373 1.688 8554
0.901 1.381 1.688 11993
0.907 1.390 1.689 11771
0.909 1.394 1.684 9525
0.915 1.403 1.684 9404
0.921 1.411 1.685 9777
0.926 1.420 1.685 9218
0.929 1.424 1.680 8373
0.931 1.427 1.675 6035
0.937 1.436 1.675 5231
0.939 1.440 1.670 4851
0.942 1.444 1.665 6701
0.944 1.447 1.660 7110
0.950 1.456 1.660 6460
0.956 1.465 1.660 12573
0.958 1.468 1.655 19721
0.960 1.472 1.650 18312
0.959 1.471 1.639 11225
0.965 1.479 1.639 9606
0.971 1.488 1.639 11149
0.973 1.492 1.634 12503
0.992 1.521 1.654 12917
1.001 1.535 1.658 12227
1.004 1.539 1.653 8940
1.003 1.537 1.642 6713
1.005 1.541 1.637 8782
1.011 1.550 1.636 8687
1.013 1.553 1.631 6223
1.029 1.578 1.645 7368
1.028 1.576 1.635 13479
1.031 1.580 1.629 18297
1.033 1.583 1.623 18379
1.035 1.587 1.618 14312
1.038 1.591 1.612 9968
1.047 1.605 1.616 8636
1.053 1.614 1.615 7410
1.117 1.713 1.695 7699
1.120 1.717 1.689 7872
1.112 1.704 1.669 6771
1.132 1.735 1.686 7466
1.138 1.744 1.685 8750
1.151 1.764 1.692 8702
1.153 1.767 1.686 12363
1.155 1.771 1.680 15773
1.158 1.775 1.674 16146
1.164 1.784 1.672 13045
1.191 1.826 1.698 11705
1.197 1.835 1.696 15163
1.203 1.844 1.694 20416
1.206 1.848 1.687 23773
1.204 1.846 1.676 23639
1.207 1.850 1.670 19074
1.209 1.854 1.663 12131
1.212 1.857 1.657 9833
1.214 1.861 1.650 9628
1.224 1.876 1.652 11770
1.230 1.885 1.650 16056
1.232 1.889 1.644 17371
1.238 1.898 1.641 15481
1.240 1.902 1.635 10758
1.246 1.911 1.632 8197
1.249 1.914 1.625 8587
1.251 1.918 1.619 6865
1.305 2.000 1.671 4983
1.300 1.992 1.656 4961
1.291 1.979 1.636 4595
1.286 1.972 1.621 4210
1.344 2.060 1.676 5188
1.331 2.041 1.652 6511
1.330 2.039 1.641 11446
1.333 2.043 1.634 13383
1.339 2.052 1.631 10447
1.363 2.090 1.648 7850
1.347 2.065 1.620 7066
1.390 2.131 1.657 5735
1.389 2.129 1.646 5521
1.391 2.133 1.638 5612
1.375 2.108 1.611 4593
1.422 2.181 1.651 3514
1.406 2.155 1.623 3861
1.408 2.159 1.616 4262
1.475 2.261 1.674 3592
1.477 2.265 1.666 5537
1.480 2.268 1.658 6102
1.478 2.266 1.646 7415
1.477 2.264 1.635 8990
1.483 2.273 1.630 9932
1.485 2.277 1.622 10926
1.488 2.281 1.614 10906
1.494 2.290 1.610 10993
1.496 2.294 1.602 8885
1.533 2.350 1.627 10018
1.532 2.348 1.615 10790
1.534 2.351 1.607 11646
1.540 2.361 1.602 9541
1.542 2.364 1.594 7530
1.549 2.374 1.589 7573
1.555 2.383 1.584 7692
1.553 2.381 1.572 6152
1.552 2.378 1.561 4687
1.635 2.507 1.625 4194
1.645 2.522 1.623 4378
1.667 2.556 1.632 4668
1.674 2.565 1.626 5385
1.738 2.665 1.672 4561
1.749 2.681 1.669 6278
1.743 2.672 1.653 6531
1.738 2.664 1.637 7387
1.740 2.667 1.627 7387
1.746 2.677 1.621 6269
1.749 2.681 1.612 5234
1.751 2.684 1.603 3975
1.836 2.815 1.661 3044
1.835 2.813 1.648 3610
1.837 2.816 1.638 4244
1.840 2.820 1.628 4244
1.842 2.823 1.618 2122
0.843 1.292 0.821 425
0.367 0.560 1.695 20961
0.370 0.564 1.693 22221
0.372 0.568 1.691 23481
0.375 0.571 1.689 26954
0.377 0.575 1.687 30428
0.380 0.579 1.685 30428
0.380 0.580 1.676 31494
0.383 0.584 1.674 32601
0.385 0.587 1.672 30357
0.388 0.591 1.670 28113
0.390 0.595 1.667 26645
0.393 0.598 1.665 25178
0.395 0.602 1.663 23528
0.397 0.606 1.661 21877
0.400 0.610 1.659 19337
0.402 0.613 1.657 16398
0.405 0.617 1.654 15997
0.409 0.624 1.659 11759
0.415 0.633 1.671 8364
0.418 0.637 1.669 5473
0.422 0.644 1.674 2639
0.425 0.647 1.671 3786
0.425 0.648 1.662 4956
0.436 0.664 1.688 6116
0.442 0.674 1.699 8024
0.451 0.687 1.718 8063
0.458 0.697 1.729 9957
0.462 0.705 1.734 11676
0.467 0.712 1.738 13709
0.469 0.715 1.735 14804
0.474 0.723 1.740 16061
0.477 0.726 1.737 15520
0.477 0.727 1.728 14259
0.482 0.734 1.732 13765
0.486 0.741 1.736 12342
0.493 0.752 1.747 10972
0.491 0.749 1.731 14012
0.492 0.750 1.721 17385
0.494 0.753 1.719 17189
0.495 0.754 1.709 13177
0.497 0.758 1.706 9332
0.502 0.765 1.710 10822
0.506 0.772 1.714 12517
0.511 0.779 1.718 11409
0.518 0.790 1.729 13002
0.521 0.794 1.726 15466
0.523 0.798 1.724 16819
0.526 0.802 1.721 16206
0.528 0.805 1.718 13935
0.531 0.809 1.715 11256
0.531 0.810 1.705 9180
0.538 0.821 1.716 12368
0.543 0.828 1.720 18786
0.546 0.832 1.717 19541
0.548 0.836 1.714 17587
0.553 0.843 1.717 16023
0.556 0.847 1.714 20017
0.558 0.851 1.711 26192
0.558 0.851 1.702 29151
0.558 0.851 1.692 33401
0.563 0.858 1.695 28945
0.566 0.862 1.692 23580
0.566 0.862 1.683 22460
0.568 0.866 1.680 27026
0.570 0.870 1.677 36555
0.573 0.873 1.674 40786
0.578 0.881 1.677 33880
0.580 0.885 1.674 20959
0.583 0.888 1.671 17826
0.585 0.892 1.667 20189
0.590 0.900 1.671 19581
0.598 0.911 1.680 20457
0.600 0.915 1.677 25458
0.600 0.915 1.667 24896
0.613 0.934 1.690 20311
0.618 0.942 1.693 20312
0.618 0.942 1.683 18366
0.623 0.949 1.686 18602
0.625 0.953 1.682 19106
0.630 0.961 1.685 17614
0.635 0.969 1.688 14412
0.638 0.972 1.685 9507
0.651 0.992 1.706 9641
0.651 0.992 1.697 14533
0.653 0.996 1.693 14614
0.653 0.996 1.683 7348
0.666 1.016 1.704 6898
0.666 1.015 1.695 12024
0.671 1.023 1.697 12656
0.676 1.031 1.700 14096
0.682 1.039 1.702 18110
0.687 1.047 1.705 20746
0.689 1.051 1.701 19902
0.689 1.051 1.691 15926
0.697 1.063 1.700 15171
0.700 1.067 1.696 18699
0.702 1.070 1.692 17944
0.705 1.074 1.688 15996
0.710 1.082 1.690 17127
0.715 1.090 1.692 16439
0.718 1.094 1.689 13122
0.732 1.115 1.709 14106
0.734 1.119 1.705 18202
0.736 1.123 1.701 23672
0.742 1.131 1.703 27686
0.747 1.139 1.705 29622
0.750 1.143 1.700 28078
0.752 1.147 1.696 15647
0.746 1.137 1.675 6213
0.754 1.150 1.682 6107
0.760 1.158 1.684 10280
0.768 1.171 1.692 11750
0.776 1.183 1.699 10323
0.779 1.187 1.695 9291
0.778 1.186 1.685 6690
0.781 1.190 1.681 9561
0.783 1.194 1.677 14496
0.789 1.202 1.678 10833
0.800 1.220 1.691 8136
0.800 1.219 1.681 8550
0.805 1.227 1.682 15418
0.811 1.236 1.684 18261
0.816 1.244 1.685 14196
0.825 1.257 1.692 13966
0.827 1.261 1.687 25106
0.830 1.265 1.683 38204
0.832 1.268 1.678 38634
0.834 1.272 1.674 23930
0.843 1.285 1.680 11869
0.858 1.308 1.698 22966
0.860 1.312 1.693 26179
0.863 1.315 1.689 19081
0.868 1.324 1.689 12227
0.877 1.337 1.696 8173
0.883 1.346 1.696 11027
0.888 1.354 1.697 11871
0.894 1.363 1.698 12129
0.893 1.362 1.687 8754
0.899 1.371 1.688 7292
0.905 1.379 1.688 10002
0.910 1.388 1.689 9558
0.913 1.392 1.684 7551
0.922 1.405 1.690 7338
0.927 1.414 1.690 9697
0.930 1.418 1.685 12093
0.932 1.421 1.680 11347
0.935 1.425 1.675 6716
0.940 1.434 1.675 4644
0.946 1.442 1.675 5263
0.949 1.446 1.670 9402
0.948 1.445 1.660 12156
0.954 1.454 1.660 9838
0.963 1.467 1.665 13355
0.965 1.471 1.660 20463
0.964 1.470 1.650 19491
0.963 1.468 1.639 11872
0.949 1.446 1.609 8919
0.981 1.496 1.649 11012
0.990 1.510 1.654 12458
0.999 1.524 1.659 13133
1.005 1.532 1.658 12846
1.001 1.526 1.643 9093
1.000 1.524 1.632 6550
1.009 1.538 1.637 9052
1.015 1.547 1.636 10867
1.021 1.556 1.636 8462
1.037 1.580 1.650 8296
1.036 1.579 1.639 12526
1.038 1.582 1.634 16373
1.040 1.586 1.628 16525
1.039 1.584 1.618 12826
1.042 1.588 1.612 9229
1.054 1.607 1.621 8516
1.112 1.696 1.691 7732
1.122 1.710 1.695 8776
1.124 1.714 1.689 8259
1.120 1.707 1.673 6759
1.136 1.732 1.686 8011
1.142 1.741 1.685 9295
1.152 1.755 1.688 8774
1.158 1.765 1.686 13141
1.160 1.768 1.680 17450
1.162 1.772 1.674 17975
1.168 1.781 1.672 14306
1.196 1.823 1.698 10648
1.202 1.832 1.696 13606
1.208 1.841 1.694 19576
1.210 1.845 1.687 23326
1.209 1.843 1.676 22914
1.212 1.847 1.670 17955
1.214 1.851 1.663 11511
1.216 1.854 1.657 9886
1.219 1.858 1.650 8831
1.228 1.873 1.652 10208
1.238 1.887 1.655 16014
1.241 1.891 1.648 18744
1.243 1.895 1.641 17125
1.249 1.904 1.639 11888
1.251 1.908 1.632 7193
1.257 1.917 1.630 6488
1.256 1.915 1.619 5029
1.310 1.997 1.671 5148
1.309 1.995 1.660 5265
1.311 1.998 1.653 4366
1.343 2.047 1.679 4148
1.349 2.056 1.676 5449
1.337 2.038 1.652 6838
1.335 2.036 1.641 11559
1.341 2.045 1.638 13409
1.366 2.083 1.655 11183
1.372 2.092 1.652 8361
1.352 2.061 1.620 7004
1.396 2.128 1.657 5906
1.394 2.126 1.646 5755
1.397 2.129 1.638 6099
1.384 2.110 1.615 5077
1.428 2.177 1.651 3900
1.412 2.152 1.623 4242
1.414 2.155 1.616 4707
1.481 2.257 1.674 3542
1.483 2.261 1.666 5253
1.485 2.264 1.658 5556
1.484 2.262 1.646 6980
1.483 2.260 1.635 8754
1.485 2.264 1.627 9668
1.487 2.267 1.619 10582
1.494 2.277 1.614 10303
1.500 2.286 1.610 10300
1.533 2.337 1.632 9033
1.535 2.340 1.623 10957
1.538 2.344 1.615 11331
1.540 2.347 1.607 11705
1.546 2.357 1.602 9443
1.548 2.360 1.594 7325
1.555 2.370 1.589 7437
1.557 2.373 1.581 7590
1.559 2.377 1.572 6130
1.558 2.374 1.561 4759
1.724 2.627 1.698 4136
1.722 2.625 1.686 4813
1.674 2.552 1.632 4597
1.680 2.561 1.626 5230
1.745 2.660 1.672 4360
1.752 2.670 1.666 5850
1.750 2.668 1.653 6260
1.745 2.659 1.637 7366
1.747 2.663 1.627 7366
1.749 2.667 1.618 6440
1.756 2.676 1.612 5611
1.754 2.674 1.599 4256
1.748 2.665 1.583 3087
1.842 2.808 1.648 3303
1.844 2.812 1.638 4005
1.847 2.815 1.628 4005
1.849 2.819 1.618 2002
0.846 1.290 0.821 415
0.368 0.559 1.695 21167
0.371 0.563 1.693 22424
0.373 0.567 1.691 23681
0.376 0.571 1.689 27154
0.378 0.574 1.687 30628
0.381 0.578 1.685 30628
0.381 0.579 1.676 31369
0.384 0.583 1.674 32219
0.386 0.587 1.672 29670
0.387 0.587 1.662 27134
0.391 0.594 1.667 25905
0.394 0.598 1.665 24689
0.396 0.601 1.663 23537
0.398 0.605 1.661 22385
0.401 0.609 1.659 19804
0.403 0.612 1.657 17254
0.406 0.616 1.654 17284
0.410 0.623 1.659 13320
0.417 0.633 1.671 10227
0.419 0.636 1.669 7072
0.417 0.634 1.652 4153
0.422 0.641 1.657 4214
0.432 0.657 1.683 4817
0.437 0.663 1.688 6147
0.441 0.670 1.692 7754
0.452 0.687 1.718 7404
0.459 0.697 1.729 9230
0.463 0.704 1.734 11059
0.468 0.711 1.738 13102
0.471 0.715 1.735 14320
0.475 0.722 1.740 15664
0.478 0.726 1.737 14926
0.478 0.726 1.728 13218
0.483 0.733 1.732 12468
0.488 0.740 1.736 11225
0.494 0.751 1.747 9952
0.493 0.748 1.731 13134
0.493 0.749 1.721 16635
0.496 0.753 1.719 16503
0.496 0.753 1.709 13019
0.501 0.760 1.713 9507
0.503 0.764 1.710 11597
0.508 0.771 1.714 13944
0.513 0.778 1.718 12618
0.517 0.786 1.722 12840
0.522 0.793 1.726 14428
0.525 0.797 1.724 15513
0.527 0.801 1.721 14737
0.530 0.805 1.718 12462
0.532 0.808 1.715 10079
0.537 0.816 1.719 8022
0.542 0.823 1.722 11215
0.545 0.827 1.720 17294
0.547 0.831 1.717 17887
0.552 0.838 1.720 16109
0.555 0.842 1.717 14818
0.559 0.850 1.721 18457
0.560 0.850 1.711 23823
0.560 0.850 1.702 26182
0.562 0.854 1.699 30199
0.565 0.857 1.695 26655
0.567 0.861 1.692 21958
0.570 0.865 1.689 18756
0.567 0.861 1.673 21326
0.572 0.869 1.677 31592
0.574 0.872 1.674 36920
0.577 0.876 1.670 31374
0.579 0.880 1.667 20850
0.582 0.883 1.664 17541
0.589 0.895 1.674 18469
0.594 0.902 1.677 18039
0.604 0.918 1.693 18553
0.604 0.918 1.683 21241
0.602 0.914 1.667 20225
0.617 0.937 1.696 18201
0.619 0.941 1.693 19222
0.619 0.941 1.683 17671
0.624 0.948 1.686 17544
0.627 0.952 1.682 17659
0.632 0.960 1.685 16853
0.637 0.967 1.688 15486
0.640 0.971 1.685 10750
0.653 0.991 1.706 10729
0.655 0.995 1.703 15400
0.655 0.995 1.693 14346
0.660 1.003 1.696 7388
0.668 1.015 1.704 7684
0.668 1.014 1.695 11886
0.673 1.022 1.697 12826
0.678 1.030 1.700 14825
0.684 1.038 1.702 18772
0.689 1.046 1.705 21113
0.691 1.050 1.701 19656
0.691 1.049 1.691 14427
0.699 1.062 1.700 12919
0.702 1.065 1.696 17632
0.704 1.069 1.692 19052
0.706 1.073 1.688 17424
0.712 1.081 1.690 16666
0.714 1.085 1.686 14698
0.720 1.093 1.689 11857
0.733 1.114 1.709 13802
0.736 1.118 1.705 17084
0.738 1.121 1.701 22650
0.744 1.130 1.703 29060
0.749 1.138 1.705 32554
0.752 1.142 1.700 31302
0.754 1.145 1.696 17651
0.745 1.131 1.669 7477
0.747 1.135 1.665 6231
0.759 1.152 1.678 8072
0.770 1.169 1.692 9190
0.778 1.182 1.699 10176
0.781 1.186 1.695 10835
0.783 1.190 1.691 8023
0.786 1.193 1.687 10364
0.785 1.193 1.677 16145
0.791 1.201 1.678 11539
0.799 1.214 1.685 7109
0.802 1.217 1.681 7510
0.807 1.226 1.682 12981
0.810 1.230 1.678 16564
0.821 1.247 1.690 12859
0.830 1.260 1.697 17642
0.829 1.259 1.687 31030
0.832 1.263 1.683 42940
0.834 1.267 1.678 44408
0.837 1.271 1.674 28530
0.845 1.284 1.680 15424
0.860 1.306 1.698 25724
0.863 1.310 1.693 25790
0.865 1.314 1.689 17844
0.871 1.322 1.689 11579
0.867 1.317 1.674 7282
0.885 1.344 1.696 10941
0.894 1.358 1.702 13131
0.897 1.361 1.698 14627
0.899 1.365 1.693 10162
0.905 1.374 1.693 6206
0.907 1.378 1.688 7028
0.910 1.381 1.684 6122
0.922 1.400 1.695 5262
0.927 1.408 1.695 5835
0.930 1.412 1.690 10074
0.932 1.416 1.685 15190
0.935 1.420 1.680 14603
0.937 1.423 1.675 8667
0.943 1.432 1.675 6313
0.949 1.441 1.675 7694
0.951 1.444 1.670 12848
0.954 1.448 1.665 16806
0.956 1.452 1.660 13942
0.965 1.466 1.665 14340
0.968 1.469 1.660 19749
0.967 1.468 1.650 19600
0.966 1.467 1.639 12511
0.948 1.440 1.604 9606
0.987 1.499 1.654 11129
0.993 1.508 1.654 11974
0.999 1.517 1.654 13086
1.005 1.526 1.653 13305
1.000 1.519 1.638 9864
0.999 1.517 1.627 6523
1.019 1.547 1.647 9487
1.024 1.556 1.646 13340
1.027 1.559 1.641 10510
1.039 1.579 1.650 9624
1.042 1.582 1.644 12321
1.041 1.581 1.634 14193
1.043 1.584 1.628 14083
1.042 1.583 1.618 10976
1.058 1.607 1.631 8642
1.064 1.616 1.630 10094
1.115 1.694 1.691 8185
1.128 1.713 1.700 9416
1.131 1.717 1.694 8497
1.130 1.715 1.683 7013
1.139 1.730 1.686 8094
1.149 1.744 1.689 8978
1.155 1.753 1.688 8303
1.161 1.762 1.686 13381
1.163 1.766 1.680 18301
1.169 1.775 1.678 19251
1.175 1.784 1.677 15196
1.199 1.821 1.698 9254
1.205 1.830 1.696 11662
1.211 1.839 1.694 17960
1.213 1.843 1.687 21799
1.216 1.847 1.681 21099
1.215 1.845 1.670 16007
1.221 1.854 1.668 10385
1.223 1.858 1.661 9509
1.226 1.861 1.655 7820
1.235 1.876 1.657 8867
1.241 1.885 1.655 15817
1.244 1.889 1.648 19477
1.250 1.898 1.646 18541
1.256 1.907 1.643 13321
1.258 1.911 1.636 7083
1.261 1.915 1.630 5310
1.267 1.924 1.627 4280
1.310 1.989 1.667 5176
1.312 1.992 1.660 5387
1.318 2.002 1.657 4734
1.339 2.034 1.671 4418
1.353 2.054 1.676 5520
1.340 2.035 1.652 6968
1.343 2.039 1.645 11210
1.349 2.048 1.642 12998
1.370 2.080 1.655 11992
1.376 2.090 1.652 8709
1.393 2.116 1.661 5966
1.396 2.120 1.653 5811
1.398 2.123 1.646 5657
1.397 2.121 1.634 6256
1.399 2.125 1.627 5400
1.432 2.174 1.651 4156
1.415 2.149 1.623 4483
1.418 2.153 1.616 4963
1.424 2.162 1.612 3783
1.487 2.258 1.666 4849
1.489 2.262 1.658 5060
1.484 2.254 1.643 6714
1.487 2.258 1.635 8560
1.489 2.261 1.627 9466
1.491 2.265 1.619 10372
1.498 2.274 1.614 9783
1.504 2.284 1.610 9644
1.537 2.334 1.632 9724
1.539 2.338 1.623 11668
1.542 2.341 1.615 11501
1.544 2.345 1.607 11333
1.546 2.348 1.599 9008
1.553 2.358 1.594 6810
1.559 2.367 1.589 6989
1.561 2.371 1.581 7192
1.563 2.374 1.572 5841
1.562 2.372 1.561 4583
1.728 2.624 1.698 4356
1.731 2.628 1.689 4983
1.674 2.543 1.628 4521
1.681 2.552 1.623 5150
1.738 2.639 1.661 4027
1.756 2.667 1.666 5192
1.751 2.659 1.649 5720
1.749 2.656 1.637 7041
1.752 2.660 1.627 7041
1.754 2.664 1.618 6407
1.760 2.673 1.612 5855
1.759 2.671 1.599 4496
1.757 2.668 1.587 3279
1.755 2.666 1.574 3228
1.853 2.814 1.641 3690
1.856 2.818 1.631 3690
1.858 2.822 1.621 1845
0.848 1.288 0.821 412
0.370 0.558 1.695 20954
0.372 0.562 1.693 22345
0.375 0.566 1.691 23737
0.377 0.570 1.689 27266
0.380 0.573 1.687 30796
0.382 0.577 1.685 30796
0.383 0.578 1.676 31271
0.385 0.582 1.674 31935
0.388 0.586 1.672 28881
0.389 0.586 1.662 25946
0.393 0.593 1.667 24812
0.395 0.597 1.665 23798
0.398 0.600 1.663 23103
0.400 0.604 1.661 22408
0.403 0.608 1.659 19832
0.407 0.614 1.664 17767
0.409 0.618 1.661 18319
0.412 0.622 1.659 14637
0.418 0.631 1.671 11788
0.419 0.632 1.662 8749
0.417 0.630 1.645 6149
0.422 0.636 1.650 5094
0.434 0.655 1.683 5001
0.437 0.659 1.681 6105
0.441 0.666 1.685 7373
0.454 0.685 1.718 6610
0.463 0.699 1.736 8447
0.465 0.702 1.734 10406
0.470 0.709 1.738 12517
0.473 0.713 1.735 13900
0.477 0.720 1.740 15378
0.480 0.724 1.737 14501
0.480 0.725 1.728 12303
0.485 0.732 1.732 11221
0.490 0.739 1.736 10360
0.497 0.750 1.747 9374
0.493 0.743 1.724 12642
0.495 0.747 1.721 16087
0.498 0.751 1.719 15974
0.498 0.752 1.709 12997
0.503 0.759 1.713 9959
0.505 0.763 1.710 12697
0.510 0.770 1.714 15805
0.515 0.777 1.718 14265
0.520 0.784 1.722 13042
0.524 0.792 1.726 13417
0.525 0.792 1.717 14444
0.527 0.796 1.714 13680
0.532 0.803 1.718 11445
0.532 0.803 1.708 9684
0.539 0.814 1.719 7893
0.544 0.822 1.722 10657
0.547 0.825 1.720 16184
0.549 0.829 1.717 16823
0.554 0.837 1.720 15406
0.557 0.840 1.717 13980
0.562 0.848 1.721 17009
0.562 0.848 1.711 21531
0.562 0.848 1.702 23244
0.565 0.852 1.699 26631
0.567 0.856 1.695 23898
0.570 0.860 1.692 20171
0.572 0.863 1.689 15457
0.570 0.860 1.673 16330
0.574 0.867 1.677 27388
0.577 0.871 1.674 33367
0.579 0.874 1.670 29152
0.582 0.878 1.667 21764
0.584 0.882 1.664 18926
0.592 0.893 1.674 18433
0.597 0.901 1.677 17811
0.607 0.916 1.693 17955
0.609 0.920 1.690 18632
0.607 0.916 1.674 16761
0.620 0.935 1.696 16583
0.622 0.939 1.693 18112
0.622 0.939 1.683 16770
0.627 0.946 1.686 16368
0.630 0.950 1.682 16226
0.635 0.958 1.685 16174
0.640 0.966 1.688 16223
0.642 0.969 1.685 11810
0.656 0.989 1.706 11435
0.658 0.993 1.703 15729
0.658 0.993 1.693 14039
0.663 1.001 1.696 7770
0.671 1.013 1.704 8728
0.671 1.012 1.695 12558
0.676 1.020 1.697 13968
0.681 1.028 1.700 16079
0.686 1.036 1.702 19330
0.692 1.044 1.705 20968
0.694 1.048 1.701 19057
0.697 1.052 1.697 13642
0.699 1.055 1.693 11319
0.702 1.059 1.690 16073
0.707 1.067 1.692 19440
0.710 1.071 1.688 18760
0.712 1.075 1.684 16641
0.717 1.083 1.686 13034
0.723 1.091 1.689 10913
0.737 1.112 1.709 13415
0.739 1.116 1.705 15678
0.742 1.119 1.701 21086
0.747 1.127 1.703 28930
0.752 1.136 1.705 34641
0.755 1.139 1.700 33830
0.757 1.143 1.696 20321
0.754 1.138 1.681 10214
0.759 1.146 1.682 7782
0.765 1.154 1.684 6819
0.770 1.163 1.686 7181
0.782 1.180 1.699 9642
0.784 1.184 1.695 11600
0.790 1.192 1.697 8520
0.789 1.191 1.687 10596
0.789 1.190 1.677 17346
0.794 1.199 1.678 12432
0.800 1.207 1.679 7006
0.802 1.211 1.675 7392
0.808 1.219 1.677 11764
0.810 1.223 1.672 15682
0.825 1.245 1.690 13179
0.833 1.258 1.697 20868
0.833 1.257 1.687 34602
0.835 1.261 1.683 44596
0.841 1.269 1.684 46456
0.840 1.268 1.674 31340
0.849 1.281 1.680 18654
0.861 1.299 1.692 26559
0.866 1.308 1.693 23838
0.872 1.316 1.694 16701
0.875 1.320 1.689 10767
0.871 1.314 1.674 6707
0.892 1.347 1.702 11562
0.898 1.355 1.702 14422
0.900 1.359 1.698 17017
0.903 1.363 1.693 12153
0.912 1.376 1.699 5283
0.914 1.380 1.694 4479
0.872 1.315 1.614 4189
0.874 1.319 1.609 4069
0.938 1.416 1.706 5752
0.937 1.414 1.695 10650
0.936 1.413 1.685 17574
0.939 1.417 1.680 17191
0.941 1.421 1.675 11322
0.947 1.429 1.675 9360
0.953 1.438 1.675 10613
0.955 1.442 1.670 15720
0.958 1.445 1.665 20047
0.960 1.449 1.660 17081
0.969 1.463 1.665 14623
0.975 1.472 1.665 18243
0.971 1.465 1.650 19351
0.970 1.464 1.639 13203
0.952 1.437 1.604 10551
0.951 1.435 1.593 10268
0.994 1.500 1.649 10865
1.003 1.514 1.654 12475
1.006 1.518 1.648 13246
1.005 1.516 1.638 10072
1.004 1.515 1.627 6474
1.026 1.549 1.652 10645
1.032 1.558 1.651 15798
1.031 1.556 1.641 12527
1.044 1.576 1.650 10699
1.046 1.579 1.644 12619
1.045 1.578 1.634 12728
1.044 1.576 1.623 11616
1.050 1.585 1.623 8988
1.073 1.620 1.646 11061
1.072 1.618 1.635 12869
1.075 1.622 1.630 9984
1.133 1.710 1.700 9371
1.136 1.714 1.694 8467
1.135 1.712 1.683 7291
1.144 1.727 1.686 7884
1.154 1.741 1.689 8470
1.163 1.755 1.692 7892
1.169 1.765 1.691 13570
1.172 1.768 1.685 18628
1.174 1.772 1.678 19788
1.180 1.781 1.677 15658
1.200 1.812 1.693 8187
1.210 1.826 1.696 10101
1.216 1.836 1.694 16270
1.219 1.839 1.687 19954
1.221 1.843 1.681 19132
1.220 1.841 1.670 13948
1.230 1.856 1.672 9198
1.232 1.860 1.666 8589
1.231 1.858 1.655 6793
1.241 1.873 1.657 7881
1.250 1.887 1.659 15446
1.253 1.891 1.652 19776
1.255 1.894 1.646 19250
1.261 1.904 1.643 14609
1.264 1.907 1.636 7611
1.270 1.916 1.634 5248
1.302 1.965 1.661 4818
1.315 1.985 1.667 5355
1.318 1.989 1.660 5674
1.324 1.998 1.657 5447
1.337 2.018 1.662 4899
1.358 2.050 1.676 5508
1.342 2.026 1.648 7032
1.348 2.035 1.645 10866
1.366 2.061 1.654 12963
1.376 2.076 1.655 12573
1.382 2.086 1.652 9037
1.396 2.106 1.657 6042
1.402 2.116 1.653 5542
1.404 2.119 1.646 5144
1.403 2.117 1.634 6007
1.405 2.121 1.627 5567
1.396 2.107 1.607 4196
1.418 2.140 1.620 4455
1.424 2.149 1.616 4754
1.426 2.152 1.608 3706
1.493 2.254 1.666 4345
1.496 2.258 1.658 4637
1.491 2.250 1.643 6569
1.489 2.248 1.631 8719
1.495 2.257 1.627 9599
1.498 2.261 1.619 10565
1.504 2.270 1.614 9750
1.510 2.279 1.610 9452
1.544 2.330 1.632 9956
1.546 2.333 1.623 11852
1.548 2.337 1.615 11281
1.551 2.340 1.607 10710
1.553 2.344 1.599 8418
1.559 2.353 1.594 6219
1.565 2.363 1.589 6470
1.568 2.366 1.581 6749
1.570 2.370 1.572 5508
1.568 2.367 1.561 4354
1.736 2.620 1.698 4603
1.738 2.623 1.689 5153
1.682 2.538 1.628 4423
1.688 2.547 1.623 5107
1.742 2.628 1.658 3739
1.764 2.662 1.666 4505
1.754 2.648 1.646 5301
1.753 2.645 1.633 6758
1.755 2.649 1.624 6758
1.762 2.659 1.618 6317
1.768 2.668 1.612 6055
1.766 2.666 1.599 4717
1.765 2.663 1.587 3489
1.767 2.667 1.577 3380
1.861 2.809 1.641 3498
1.864 2.813 1.631 3498
1.866 2.816 1.621 1749
0.852 1.286 0.821 386
0.372 0.557 1.695 20720
0.374 0.561 1.693 22167
0.377 0.565 1.691 23615
0.379 0.569 1.689 27239
0.382 0.572 1.687 30863
0.384 0.576 1.685 30863
0.385 0.577 1.676 31166
0.387 0.581 1.674 31737
0.390 0.584 1.672 28304
0.390 0.585 1.662 25053
0.395 0.592 1.667 23933
0.397 0.595 1.665 22995
0.399 0.599 1.663 22612
0.402 0.603 1.661 22229
0.404 0.607 1.659 19693
0.409 0.613 1.664 18046
0.411 0.617 1.661 19005
0.414 0.620 1.659 15632
0.418 0.627 1.664 12985
0.421 0.631 1.662 10087
0.419 0.628 1.645 7701
0.423 0.635 1.650 6204
0.436 0.654 1.683 5240
0.439 0.658 1.681 6042
0.443 0.665 1.685 7008
0.458 0.687 1.725 6106
0.465 0.697 1.736 7945
0.467 0.701 1.734 9924
0.472 0.708 1.738 12032
0.475 0.712 1.735 13493
0.479 0.719 1.740 15033
0.482 0.723 1.737 14098
0.484 0.727 1.735 11655
0.487 0.731 1.732 10361
0.492 0.738 1.736 9796
0.494 0.742 1.733 9114
0.495 0.742 1.724 12249
0.497 0.746 1.721 15521
0.500 0.750 1.719 15380
0.500 0.750 1.709 12849
0.505 0.757 1.713 10257
0.507 0.761 1.710 13317
0.512 0.768 1.714 16801
0.517 0.776 1.718 15127
0.522 0.783 1.722 13013
0.527 0.790 1.726 12638
0.527 0.790 1.717 13589
0.529 0.794 1.714 12922
0.532 0.798 1.711 10875
0.535 0.802 1.708 9615
0.542 0.813 1.719 8022
0.547 0.820 1.722 10379
0.549 0.824 1.720 15423
0.552 0.828 1.717 16082
0.557 0.835 1.720 14921
0.559 0.839 1.717 13305
0.564 0.846 1.721 15639
0.567 0.850 1.718 19485
0.564 0.847 1.702 20685
0.567 0.850 1.699 23796
0.569 0.854 1.695 21896
0.572 0.858 1.692 18937
0.574 0.862 1.689 13935
0.574 0.862 1.680 13913
0.577 0.865 1.677 24889
0.579 0.869 1.674 30920
0.582 0.873 1.670 27429
0.584 0.876 1.667 22058
0.589 0.884 1.671 19928
0.594 0.892 1.674 18828
0.599 0.899 1.677 17864
0.610 0.914 1.693 17603
0.612 0.918 1.690 17305
0.612 0.918 1.680 14765
0.622 0.933 1.696 15453
0.625 0.937 1.693 17342
0.625 0.937 1.683 16105
0.630 0.945 1.686 15466
0.632 0.948 1.682 15003
0.637 0.956 1.685 15277
0.643 0.964 1.688 16221
0.645 0.968 1.685 12252
0.658 0.987 1.706 11696
0.661 0.991 1.703 15468
0.661 0.991 1.693 13400
0.666 0.999 1.696 7937
0.671 1.007 1.698 9277
0.674 1.010 1.695 12617
0.679 1.018 1.697 14124
0.684 1.026 1.700 16415
0.689 1.034 1.702 19500
0.695 1.042 1.705 20918
0.697 1.046 1.701 18659
0.700 1.050 1.697 13082
0.702 1.053 1.693 10579
0.705 1.057 1.690 15504
0.710 1.065 1.692 19498
0.713 1.069 1.688 18678
0.715 1.073 1.684 15943
0.718 1.076 1.680 12129
0.726 1.089 1.689 10667
0.740 1.110 1.709 13294
0.745 1.118 1.711 14867
0.745 1.117 1.701 20491
0.750 1.125 1.703 29691
0.756 1.133 1.705 35532
0.758 1.137 1.700 34909
0.761 1.141 1.696 21970
0.763 1.145 1.692 11810
0.766 1.149 1.688 9362
0.768 1.152 1.684 6882
0.774 1.160 1.686 6513
0.782 1.173 1.693 9667
0.785 1.177 1.689 12025
0.790 1.185 1.691 8480
0.793 1.189 1.687 10271
0.792 1.188 1.677 17708
0.798 1.196 1.678 13290
0.803 1.205 1.679 7582
0.806 1.208 1.675 8143
0.808 1.212 1.671 11956
0.814 1.220 1.672 15593
0.828 1.242 1.690 13616
0.837 1.255 1.697 22544
0.836 1.255 1.687 35910
0.839 1.258 1.683 44518
0.844 1.267 1.684 46340
0.844 1.266 1.674 32116
0.853 1.279 1.680 19918
0.864 1.297 1.692 26104
0.870 1.305 1.693 21954
0.876 1.314 1.694 15887
0.881 1.322 1.695 10633
0.893 1.340 1.707 6458
0.896 1.344 1.702 11866
0.902 1.353 1.702 15166
0.904 1.356 1.698 18479
0.907 1.360 1.693 13382
0.912 1.369 1.693 4842
0.921 1.382 1.699 4219
0.875 1.313 1.614 3948
0.878 1.317 1.609 4436
0.942 1.413 1.706 6192
0.941 1.412 1.695 11199
0.940 1.411 1.685 18924
0.943 1.414 1.680 18670
0.945 1.418 1.675 13056
0.951 1.427 1.675 11406
0.954 1.430 1.670 12505
0.959 1.439 1.670 17129
0.962 1.443 1.665 21478
0.964 1.446 1.660 18501
0.973 1.460 1.665 14336
0.979 1.469 1.665 17046
0.975 1.462 1.650 19039
0.974 1.461 1.639 13538
0.956 1.434 1.604 11020
0.955 1.433 1.593 10742
0.961 1.441 1.593 10455
1.007 1.511 1.654 12248
1.010 1.515 1.648 13280
1.005 1.508 1.633 10022
1.008 1.512 1.627 6514
1.034 1.551 1.657 11898
1.037 1.555 1.651 17847
1.039 1.559 1.646 13484
1.048 1.573 1.650 11040
1.051 1.576 1.644 13251
1.050 1.575 1.634 11990
1.049 1.573 1.623 9888
1.058 1.587 1.627 8461
1.078 1.617 1.646 12735
1.077 1.615 1.635 14736
1.079 1.619 1.630 11706
1.138 1.707 1.700 8983
1.140 1.711 1.694 8153
1.136 1.704 1.678 7490
1.149 1.723 1.686 7959
1.159 1.738 1.689 8230
1.168 1.752 1.692 7551
1.178 1.767 1.696 13629
1.177 1.765 1.685 18890
1.183 1.774 1.683 20186
1.185 1.778 1.677 15948
1.206 1.808 1.693 7744
1.215 1.823 1.696 9379
1.218 1.827 1.689 15257
1.224 1.836 1.687 18680
1.226 1.840 1.681 17745
1.229 1.843 1.674 12664
1.239 1.858 1.677 8488
1.237 1.856 1.666 7909
1.240 1.860 1.659 6096
1.253 1.880 1.666 7371
1.256 1.884 1.659 15027
1.258 1.887 1.652 19510
1.264 1.896 1.650 19343
1.267 1.900 1.643 15205
1.273 1.909 1.641 8142
1.316 1.974 1.681 5642
1.311 1.966 1.665 5372
1.321 1.981 1.667 5307
1.323 1.985 1.660 5759
1.330 1.994 1.657 5860
1.339 2.009 1.658 5331
1.364 2.046 1.676 5344
1.348 2.022 1.648 6981
1.354 2.031 1.645 10461
1.375 2.063 1.658 13415
1.382 2.072 1.655 13180
1.388 2.082 1.652 9508
1.402 2.102 1.657 6293
1.404 2.106 1.649 5364
1.414 2.121 1.650 4718
1.413 2.119 1.638 5621
1.411 2.117 1.627 5556
1.406 2.109 1.611 4453
1.420 2.130 1.616 4331
1.426 2.139 1.612 4377
1.428 2.143 1.604 3626
1.500 2.250 1.666 4055
1.502 2.253 1.658 4438
1.497 2.245 1.643 6496
1.496 2.243 1.631 8829
1.498 2.247 1.623 9730
1.504 2.256 1.619 10749
1.510 2.266 1.614 9818
1.517 2.275 1.610 9379
1.546 2.319 1.628 9886
1.553 2.329 1.623 11690
1.555 2.332 1.615 10932
1.557 2.336 1.607 10174
1.560 2.339 1.599 7953
1.566 2.349 1.594 5802
1.572 2.358 1.589 6075
1.575 2.362 1.581 6386
1.577 2.365 1.572 5219
1.745 2.617 1.711 4189
1.743 2.615 1.698 4658
1.746 2.618 1.689 5153
1.744 2.616 1.677 4268
1.695 2.543 1.623 4966
1.698 2.546 1.614 3608
1.771 2.657 1.666 4126
1.758 2.637 1.643 5081
1.760 2.640 1.633 6513
1.763 2.644 1.624 6513
1.769 2.654 1.618 6144
1.775 2.663 1.612 6061
1.778 2.667 1.603 4773
1.776 2.664 1.590 3582
1.774 2.662 1.577 3436
1.873 2.810 1.644 3450
1.876 2.813 1.634 3450
1.878 2.817 1.625 1725
0.856 1.283 0.821 366
0.373 0.557 1.695 20523
0.375 0.560 1.693 21958
0.378 0.564 1.691 23393
0.380 0.568 1.689 27207
0.383 0.572 1.687 31022
0.385 0.575 1.685 31022
0.388 0.579 1.683 30990
0.388 0.580 1.674 31358
0.391 0.584 1.672 27422
0.391 0.585 1.662 23686
0.394 0.588 1.660 22547
0.398 0.595 1.665 21567
0.401 0.598 1.663 21516
0.403 0.602 1.661 21465
0.405 0.606 1.659 19081
0.410 0.612 1.664 18088
0.412 0.616 1.661 19519
0.417 0.623 1.666 16475
0.419 0.626 1.664 14105
0.422 0.630 1.662 11312
0.420 0.628 1.645 9293
0.425 0.634 1.650 7433
0.429 0.641 1.655 5928
0.440 0.657 1.681 6136
0.444 0.664 1.685 6658
0.461 0.689 1.732 5540
0.466 0.696 1.736 7322
0.469 0.700 1.734 9322
0.473 0.707 1.738 11446
0.476 0.711 1.735 12929
0.481 0.718 1.740 14490
0.483 0.722 1.737 13481
0.486 0.726 1.735 10776
0.488 0.730 1.732 9258
0.493 0.737 1.736 9200
0.496 0.741 1.733 9046
0.496 0.741 1.724 11839
0.499 0.745 1.721 14765
0.501 0.749 1.719 14470
0.502 0.749 1.709 12492
0.506 0.756 1.713 10659
0.511 0.764 1.717 14091
0.514 0.767 1.714 17891
0.518 0.775 1.718 16036
0.523 0.782 1.722 12715
0.528 0.789 1.726 11388
0.528 0.789 1.717 12035
0.531 0.793 1.714 11556
0.534 0.797 1.711 10043
0.536 0.801 1.708 9524
0.543 0.812 1.719 8356
0.548 0.819 1.722 10136
0.553 0.826 1.726 14565
0.553 0.827 1.717 15093
0.558 0.834 1.720 14226
0.561 0.838 1.717 12472
0.566 0.845 1.721 14135
0.568 0.849 1.718 17360
0.566 0.846 1.702 17826
0.569 0.849 1.699 20210
0.571 0.853 1.695 18998
0.574 0.857 1.692 16949
0.576 0.861 1.689 12402
0.576 0.861 1.680 12161
0.579 0.864 1.677 22233
0.581 0.868 1.674 27863
0.583 0.872 1.670 24931
0.586 0.875 1.667 21590
0.591 0.883 1.671 20518
0.596 0.890 1.674 18877
0.601 0.898 1.677 17838
0.611 0.913 1.693 17318
0.614 0.917 1.690 15833
0.616 0.921 1.686 12211
0.624 0.932 1.696 13876
0.627 0.936 1.693 16214
0.626 0.936 1.683 15073
0.632 0.944 1.686 14074
0.634 0.947 1.682 13031
0.642 0.959 1.692 13879
0.644 0.963 1.688 15828
0.647 0.966 1.685 12194
0.660 0.986 1.706 11962
0.663 0.990 1.703 15103
0.662 0.990 1.693 12367
0.668 0.998 1.696 8038
0.673 1.005 1.698 9992
0.678 1.013 1.701 12625
0.681 1.017 1.697 14160
0.686 1.025 1.700 16600
0.691 1.033 1.702 19366
0.697 1.041 1.705 20841
0.699 1.045 1.701 18533
0.702 1.048 1.697 12761
0.707 1.056 1.700 9769
0.707 1.056 1.690 14466
0.712 1.064 1.692 19200
0.715 1.068 1.688 18335
0.717 1.071 1.684 14826
0.720 1.075 1.680 10997
0.728 1.087 1.689 10002
0.742 1.108 1.709 13056
0.747 1.116 1.711 13585
0.750 1.120 1.707 19025
0.752 1.124 1.703 30571
0.758 1.132 1.705 37660
0.760 1.136 1.700 37031
0.763 1.140 1.696 24907
0.765 1.143 1.692 15594
0.771 1.152 1.694 11907
0.773 1.155 1.690 7014
0.773 1.155 1.680 6592
0.781 1.167 1.688 10591
0.787 1.175 1.689 12362
0.792 1.184 1.691 8070
0.792 1.183 1.681 9772
0.794 1.187 1.677 17739
0.797 1.190 1.672 14009
0.802 1.199 1.674 8190
0.805 1.202 1.669 9743
0.810 1.211 1.671 13672
0.813 1.214 1.667 16188
0.828 1.236 1.685 14055
0.839 1.254 1.697 24451
0.839 1.253 1.687 36600
0.841 1.257 1.683 43151
0.847 1.265 1.684 44532
0.849 1.269 1.679 30518
0.855 1.277 1.680 18672
0.867 1.295 1.692 24263
0.873 1.304 1.693 19609
0.878 1.312 1.694 15275
0.884 1.321 1.695 11116
0.899 1.343 1.712 7285
0.902 1.347 1.707 12587
0.907 1.356 1.708 16715
0.910 1.359 1.703 20783
0.909 1.358 1.693 14919
0.915 1.367 1.693 5359
0.924 1.380 1.699 5556
0.926 1.384 1.694 5506
0.936 1.398 1.700 5823
0.941 1.406 1.700 7405
0.944 1.410 1.695 12305
0.943 1.409 1.685 20599
0.946 1.413 1.680 20771
0.948 1.416 1.675 15971
0.954 1.425 1.675 14668
0.956 1.429 1.670 15321
0.962 1.437 1.670 18971
0.965 1.441 1.665 23031
0.967 1.445 1.660 19742
0.976 1.458 1.665 13488
0.982 1.467 1.665 15489
0.978 1.461 1.650 18514
0.977 1.459 1.639 13569
0.959 1.432 1.604 11331
0.961 1.436 1.599 10931
0.998 1.490 1.644 10532
1.007 1.504 1.649 12488
1.009 1.508 1.643 13526
1.008 1.506 1.633 10055
1.011 1.510 1.627 6478
1.041 1.555 1.662 12950
1.043 1.558 1.656 19772
1.045 1.562 1.651 15101
1.051 1.571 1.650 12486
1.054 1.574 1.644 14962
1.053 1.573 1.634 11744
1.059 1.582 1.633 8393
1.072 1.601 1.642 9534
1.081 1.615 1.646 14881
1.083 1.618 1.640 16823
1.082 1.617 1.630 13503
1.088 1.626 1.629 9119
1.144 1.708 1.694 8040
1.139 1.702 1.678 7739
1.156 1.727 1.691 8166
1.162 1.736 1.689 8367
1.175 1.755 1.697 7790
1.181 1.764 1.696 13970
1.184 1.768 1.689 19160
1.186 1.772 1.683 20512
1.189 1.776 1.677 15858
1.209 1.806 1.693 7636
1.219 1.821 1.696 8880
1.221 1.824 1.689 14120
1.227 1.834 1.687 17137
1.230 1.837 1.681 16075
1.236 1.846 1.679 11230
1.246 1.861 1.681 8175
1.252 1.870 1.679 7634
1.258 1.879 1.677 5872
1.260 1.883 1.670 7475
1.259 1.881 1.659 14146
1.262 1.885 1.652 18480
1.268 1.894 1.650 18790
1.274 1.903 1.647 15197
1.276 1.907 1.641 8452
1.320 1.971 1.681 7118
1.315 1.964 1.665 6196
1.325 1.979 1.667 5528
1.327 1.983 1.660 5982
1.333 1.992 1.657 6266
1.339 2.001 1.654 5651
1.368 2.044 1.676 5295
1.352 2.019 1.648 6803
1.377 2.057 1.666 10126
1.383 2.066 1.662 14131
1.389 2.075 1.659 14111
1.395 2.085 1.656 10340
1.402 2.094 1.653 6877
1.408 2.103 1.649 5257
1.422 2.124 1.654 4083
1.413 2.111 1.634 5082
1.411 2.109 1.623 5556
1.410 2.106 1.611 4803
1.416 2.116 1.608 4190
1.426 2.131 1.608 3742
1.436 2.146 1.608 3382
1.504 2.247 1.666 3552
1.506 2.251 1.658 4051
1.497 2.237 1.639 6271
1.500 2.241 1.631 8724
1.502 2.244 1.623 9658
1.508 2.253 1.619 10693
1.511 2.257 1.611 9695
1.521 2.272 1.610 9078
1.551 2.316 1.628 9711
1.557 2.326 1.623 11351
1.559 2.329 1.615 10365
1.562 2.333 1.607 9378
1.564 2.337 1.599 7247
1.570 2.346 1.594 5150
1.577 2.355 1.589 5378
1.579 2.359 1.581 5659
1.581 2.362 1.572 4612
1.749 2.613 1.711 4460
1.748 2.611 1.698 4803
1.750 2.615 1.689 5188
1.697 2.536 1.632 4181
1.704 2.545 1.626 4869
1.702 2.543 1.614 3654
1.776 2.654 1.666 3465
1.759 2.628 1.639 4559
1.761 2.631 1.630 5889
1.764 2.635 1.621 5889
1.774 2.650 1.618 5657
1.780 2.660 1.612 5884
1.783 2.663 1.603 4720
1.781 2.661 1.590 3596
1.779 2.658 1.577 3360
1.883 2.812 1.648 3357
1.885 2.816 1.638 3357
1.887 2.820 1.628 1678
0.858 1.282 0.821 347
0.374 0.555 1.695 19997
0.377 0.559 1.693 21398
0.379 0.563 1.691 22800
0.382 0.567 1.689 26945
0.384 0.570 1.687 31089
0.387 0.574 1.685 31089
0.389 0.578 1.683 31068
0.390 0.579 1.674 31233
0.392 0.582 1.672 26671
0.393 0.583 1.662 22218
0.396 0.587 1.660 20894
0.400 0.594 1.665 19595
0.402 0.597 1.663 20008
0.405 0.601 1.661 20422
0.407 0.605 1.659 18110
0.412 0.611 1.664 17691
0.414 0.615 1.661 19609
0.419 0.621 1.666 16937
0.421 0.625 1.664 14813
0.424 0.629 1.662 11934
0.422 0.626 1.645 9716
0.427 0.633 1.650 7953
0.433 0.643 1.662 6489
0.440 0.653 1.674 6182
0.444 0.659 1.678 6245
0.466 0.691 1.739 5017
0.470 0.698 1.743 6571
0.473 0.702 1.740 8689
0.476 0.706 1.738 10807
0.478 0.710 1.735 12339
0.483 0.717 1.740 13941
0.485 0.720 1.737 12847
0.488 0.724 1.735 9881
0.491 0.728 1.732 8151
0.495 0.735 1.736 8763
0.498 0.739 1.733 9283
0.498 0.740 1.724 11540
0.501 0.743 1.721 13916
0.501 0.744 1.712 13403
0.504 0.748 1.709 12225
0.509 0.755 1.713 11442
0.513 0.762 1.717 15156
0.516 0.766 1.714 19202
0.521 0.773 1.718 17083
0.526 0.780 1.722 12292
0.531 0.787 1.726 9839
0.531 0.788 1.717 10067
0.533 0.792 1.714 9871
0.536 0.795 1.711 9254
0.538 0.799 1.708 9556
0.546 0.810 1.719 8802
0.553 0.821 1.729 9920
0.556 0.825 1.726 13531
0.556 0.825 1.717 14066
0.558 0.829 1.714 13570
0.563 0.836 1.717 11632
0.571 0.847 1.727 12519
0.571 0.847 1.718 15071
0.569 0.844 1.702 14882
0.571 0.848 1.699 16006
0.574 0.851 1.695 15097
0.576 0.855 1.692 14131
0.579 0.859 1.689 10526
0.579 0.859 1.680 10290
0.581 0.863 1.677 18993
0.584 0.866 1.674 23911
0.586 0.870 1.670 21705
0.589 0.874 1.667 20635
0.594 0.881 1.671 20929
0.599 0.889 1.674 18811
0.604 0.896 1.677 17548
0.611 0.908 1.687 16763
0.617 0.915 1.690 13952
0.619 0.919 1.686 9667
0.627 0.930 1.696 11996
0.629 0.934 1.693 14783
0.629 0.934 1.683 13872
0.634 0.942 1.686 12776
0.637 0.945 1.682 10961
0.645 0.957 1.692 12182
0.647 0.961 1.688 14769
0.653 0.968 1.691 11594
0.663 0.984 1.706 11794
0.666 0.988 1.703 14120
0.665 0.988 1.693 10935
0.671 0.996 1.696 8202
0.676 1.003 1.698 10861
0.679 1.007 1.695 12659
0.684 1.015 1.697 14189
0.689 1.023 1.700 16630
0.694 1.031 1.702 18986
0.697 1.034 1.699 20581
0.700 1.038 1.695 18116
0.705 1.046 1.697 11982
0.710 1.054 1.700 8753
0.710 1.054 1.690 13365
0.712 1.057 1.686 18407
0.715 1.061 1.682 16802
0.717 1.065 1.678 12795
0.723 1.073 1.680 9422
0.734 1.089 1.695 9110
0.745 1.106 1.709 12239
0.751 1.114 1.711 11581
0.753 1.118 1.707 17148
0.756 1.122 1.703 30259
0.761 1.130 1.705 38919
0.764 1.134 1.700 38947
0.766 1.137 1.696 27941
0.769 1.141 1.692 20379
0.774 1.149 1.694 15564
0.780 1.157 1.696 8075
0.779 1.157 1.686 7711
0.782 1.160 1.682 12664
0.787 1.169 1.683 12894
0.790 1.172 1.679 7198
0.789 1.171 1.669 9134
0.798 1.184 1.677 17024
0.800 1.188 1.672 14543
0.806 1.196 1.674 9320
0.808 1.200 1.669 12146
0.811 1.203 1.665 17355
0.816 1.212 1.667 18077
0.831 1.234 1.685 15078
0.840 1.247 1.692 25005
0.843 1.250 1.687 34897
0.845 1.254 1.683 38996
0.851 1.263 1.684 39667
0.853 1.266 1.679 27222
0.859 1.275 1.680 16033
0.871 1.292 1.692 20708
0.877 1.301 1.693 16665
0.882 1.309 1.694 15101
0.891 1.323 1.700 12938
0.903 1.341 1.712 9030
0.906 1.344 1.707 13455
0.912 1.353 1.708 18398
0.914 1.357 1.703 22740
0.913 1.356 1.693 16144
0.916 1.359 1.688 7052
0.925 1.373 1.694 8186
0.931 1.381 1.694 8296
0.936 1.390 1.695 8237
0.942 1.398 1.695 9295
0.945 1.402 1.690 13531
0.947 1.406 1.685 21852
0.950 1.410 1.680 22601
0.952 1.413 1.675 18721
0.958 1.422 1.675 17567
0.961 1.426 1.670 17708
0.966 1.434 1.670 20870
0.969 1.438 1.665 24821
0.968 1.437 1.655 20783
0.977 1.450 1.660 12153
0.983 1.459 1.660 12969
0.982 1.458 1.650 17297
0.978 1.451 1.634 13126
0.963 1.430 1.604 10952
0.966 1.433 1.599 10580
0.999 1.482 1.639 11167
1.011 1.501 1.649 12991
1.014 1.505 1.643 13438
1.013 1.503 1.633 9682
1.001 1.486 1.608 6947
1.049 1.556 1.667 13827
1.048 1.555 1.656 21711
1.050 1.559 1.651 18158
1.056 1.567 1.650 14989
1.059 1.571 1.644 17193
1.061 1.575 1.639 13318
1.067 1.583 1.638 9724
1.080 1.603 1.647 11905
1.086 1.612 1.646 16871
1.088 1.615 1.640 18972
1.091 1.619 1.634 15127
1.093 1.622 1.629 10166
1.096 1.626 1.623 8548
1.141 1.693 1.673 7971
1.161 1.723 1.691 7524
1.174 1.743 1.699 8203
1.180 1.752 1.697 8894
1.186 1.761 1.696 14609
1.189 1.765 1.689 19425
1.191 1.768 1.683 20098
1.198 1.777 1.681 15385
1.214 1.802 1.693 7690
1.224 1.817 1.696 8675
1.227 1.821 1.689 12936
1.233 1.830 1.687 15266
1.235 1.834 1.681 13892
1.245 1.848 1.683 9630
1.259 1.868 1.690 8286
1.261 1.872 1.683 7821
1.264 1.876 1.677 6081
1.266 1.879 1.670 7445
1.269 1.883 1.663 12886
1.271 1.887 1.657 16718
1.274 1.890 1.650 17381
1.280 1.899 1.647 14617
1.319 1.958 1.684 10344
1.326 1.967 1.681 9509
1.324 1.966 1.670 7669
1.327 1.969 1.663 5745
1.333 1.978 1.660 5567
1.339 1.988 1.657 6018
1.345 1.997 1.654 5653
1.355 2.012 1.655 4915
1.358 2.015 1.648 6249
1.387 2.058 1.670 10322
1.393 2.068 1.667 14821
1.396 2.071 1.659 14973
1.402 2.081 1.656 11278
1.408 2.090 1.653 7635
1.411 2.093 1.645 5443
1.436 2.131 1.662 3843
1.419 2.106 1.634 4730
1.418 2.104 1.623 5725
1.416 2.102 1.611 5398
1.419 2.106 1.604 4309
1.425 2.115 1.600 3254
1.466 2.176 1.631 3289
1.464 2.174 1.620 4162
1.467 2.177 1.612 4383
1.504 2.232 1.639 6111
1.507 2.236 1.631 8717
1.509 2.240 1.623 9710
1.515 2.249 1.619 10755
1.518 2.252 1.611 9667
1.524 2.262 1.606 8734
1.558 2.312 1.628 9261
1.560 2.315 1.620 10726
1.562 2.319 1.611 9547
1.569 2.328 1.607 8375
1.571 2.332 1.599 6390
1.573 2.335 1.590 4404
1.584 2.351 1.589 4471
1.590 2.360 1.584 4644
1.668 2.475 1.643 4118
1.757 2.608 1.711 4648
1.756 2.606 1.698 4872
1.758 2.610 1.689 5131
1.709 2.537 1.635 4078
1.712 2.540 1.626 4719
1.710 2.538 1.614 3738
1.760 2.613 1.645 2990
1.767 2.622 1.639 4153
1.769 2.626 1.630 5358
1.772 2.629 1.621 5358
1.782 2.645 1.618 5148
1.793 2.660 1.615 5846
1.791 2.658 1.603 4792
1.793 2.661 1.593 3762
1.792 2.659 1.580 3374
1.899 2.819 1.654 3333
1.902 2.822 1.644 3333
1.904 2.826 1.634 1666
0.862 1.279 0.821 348
0.375 0.555 1.695 19213
0.378 0.559 1.693 20558
0.380 0.562 1.691 21903
0.383 0.566 1.689 26484
0.385 0.570 1.687 31065
0.388 0.574 1.685 31065
0.390 0.577 1.683 31232
0.393 0.581 1.681 31400
0.393 0.582 1.672 26153
0.396 0.586 1.670 20960
0.396 0.586 1.660 18986
0.399 0.590 1.658 17086
0.403 0.597 1.663 17778
0.406 0.600 1.661 18611
0.408 0.604 1.659 16720
0.413 0.610 1.664 17170
0.415 0.614 1.661 19585
0.420 0.621 1.666 17115
0.422 0.624 1.664 15172
0.425 0.628 1.662 12471
0.423 0.626 1.645 10651
0.428 0.632 1.650 8418
0.434 0.642 1.662 6831
0.441 0.652 1.674 6187
0.445 0.659 1.678 5850
0.469 0.693 1.746 4454
0.471 0.697 1.743 5683
0.474 0.701 1.740 7790
0.477 0.705 1.738 9897
0.479 0.709 1.735 11501
0.484 0.716 1.740 13127
0.487 0.720 1.737 11988
0.489 0.724 1.735 8861
0.492 0.727 1.732 6986
0.497 0.734 1.736 8381
0.499 0.738 1.733 9673
0.500 0.739 1.724 11379
0.502 0.743 1.721 13125
0.502 0.743 1.712 12441
0.505 0.747 1.709 12178
0.510 0.754 1.713 12486
0.515 0.761 1.717 16358
0.517 0.765 1.714 20612
0.522 0.772 1.718 18274
0.525 0.776 1.716 11880
0.532 0.787 1.726 7997
0.532 0.787 1.717 7933
0.532 0.787 1.707 8439
0.537 0.795 1.711 9129
0.542 0.802 1.715 10148
0.547 0.809 1.719 9238
0.554 0.820 1.729 9279
0.557 0.824 1.726 11982
0.557 0.824 1.717 12836
0.560 0.828 1.714 12884
0.565 0.835 1.717 10844
0.570 0.843 1.721 11066
0.572 0.846 1.718 13136
0.572 0.847 1.708 12761
0.572 0.847 1.699 11986
0.572 0.847 1.689 10635
0.577 0.854 1.692 10638
0.583 0.862 1.696 8416
0.580 0.858 1.680 8433
0.583 0.862 1.677 15524
0.585 0.865 1.674 19533
0.587 0.869 1.670 18486
0.590 0.873 1.667 19599
0.595 0.880 1.671 20916
0.600 0.888 1.674 18562
0.605 0.895 1.677 17033
0.610 0.903 1.680 15769
0.615 0.910 1.683 12062
0.623 0.922 1.693 7443
0.628 0.929 1.696 10111
0.631 0.933 1.693 13488
0.631 0.933 1.683 12887
0.636 0.941 1.686 11990
0.641 0.948 1.689 9820
0.646 0.956 1.692 10841
0.652 0.964 1.694 13670
0.654 0.967 1.691 10749
0.665 0.983 1.706 10873
0.667 0.987 1.703 12497
0.667 0.987 1.693 9325
0.672 0.994 1.696 8248
0.678 1.002 1.698 11477
0.680 1.006 1.695 12607
0.685 1.014 1.697 13918
0.691 1.022 1.700 15921
0.696 1.030 1.702 17647
0.699 1.033 1.699 19466
0.701 1.037 1.695 17441
0.704 1.041 1.691 11443
0.709 1.049 1.693 7843
0.712 1.053 1.690 11809
0.714 1.056 1.686 16626
0.719 1.064 1.688 14143
0.719 1.064 1.678 9902
0.722 1.067 1.674 7663
0.736 1.088 1.695 7813
0.744 1.101 1.703 10606
0.755 1.117 1.717 9316
0.758 1.121 1.713 15603
0.760 1.125 1.709 29551
0.763 1.129 1.705 37950
0.766 1.132 1.700 39042
0.768 1.136 1.696 29875
0.771 1.140 1.692 24169
0.776 1.148 1.694 19046
0.782 1.156 1.696 9807
0.784 1.160 1.692 9594
0.784 1.159 1.682 14608
0.786 1.163 1.678 13342
0.786 1.162 1.668 7985
0.788 1.166 1.663 10426
0.794 1.174 1.665 17029
0.802 1.187 1.672 14798
0.811 1.199 1.679 11058
0.810 1.199 1.669 15012
0.813 1.202 1.665 21515
0.818 1.210 1.667 20612
0.830 1.228 1.679 16062
0.842 1.245 1.692 23680
0.844 1.249 1.687 30755
0.847 1.253 1.683 32447
0.853 1.261 1.684 33485
0.852 1.260 1.674 26160
0.858 1.269 1.675 15796
0.873 1.291 1.692 17396
0.875 1.295 1.688 14718
0.884 1.308 1.694 15516
0.890 1.316 1.695 15125
0.905 1.339 1.712 10618
0.911 1.348 1.713 13847
0.917 1.356 1.713 18673
0.916 1.355 1.703 22530
0.915 1.354 1.693 16294
0.918 1.358 1.688 9343
0.927 1.371 1.694 11094
0.930 1.375 1.689 10514
0.935 1.384 1.689 10020
0.944 1.397 1.695 11125
0.947 1.401 1.690 14383
0.950 1.404 1.685 21798
0.952 1.408 1.680 22740
0.955 1.412 1.675 19537
0.960 1.420 1.675 18123
0.963 1.424 1.670 17659
0.965 1.428 1.665 21655
0.971 1.436 1.665 26089
0.970 1.435 1.655 21486
0.976 1.444 1.655 11385
0.982 1.452 1.655 10959
0.981 1.451 1.644 15797
0.980 1.450 1.634 12632
0.969 1.433 1.609 9992
0.971 1.437 1.604 9554
1.001 1.481 1.639 11591
1.003 1.484 1.633 13440
1.016 1.503 1.643 12696
1.019 1.507 1.638 9359
1.004 1.485 1.608 7991
1.055 1.560 1.672 13828
1.050 1.553 1.656 23168
1.053 1.557 1.651 21046
1.059 1.566 1.650 17138
1.061 1.569 1.644 19207
1.067 1.578 1.644 15891
1.076 1.592 1.648 12676
1.082 1.601 1.647 13938
1.088 1.610 1.646 17642
1.091 1.613 1.640 20019
1.093 1.617 1.634 15767
1.096 1.621 1.629 10343
1.098 1.624 1.623 8887
1.143 1.691 1.673 8513
1.164 1.721 1.691 7649
1.177 1.741 1.699 10072
1.179 1.745 1.692 10898
1.189 1.759 1.696 14408
1.192 1.763 1.689 18390
1.198 1.772 1.688 19073
1.200 1.775 1.681 14626
1.217 1.801 1.693 7727
1.227 1.815 1.696 8741
1.230 1.819 1.689 11820
1.236 1.828 1.687 13157
1.242 1.837 1.685 11331
1.252 1.852 1.688 7940
1.265 1.872 1.694 8246
1.264 1.870 1.683 7803
1.252 1.852 1.659 6232
1.265 1.872 1.666 6913
1.272 1.881 1.663 11146
1.274 1.885 1.657 14500
1.277 1.888 1.650 15286
1.283 1.897 1.647 13321
1.322 1.956 1.684 12706
1.329 1.965 1.681 11741
1.331 1.969 1.674 9277
1.334 1.973 1.667 6039
1.336 1.976 1.660 5265
1.339 1.980 1.653 5787
1.345 1.989 1.650 5377
1.359 2.010 1.655 4732
1.361 2.013 1.648 5566
1.394 2.062 1.674 10550
1.396 2.065 1.667 15271
1.403 2.075 1.663 15507
1.405 2.078 1.656 12027
1.411 2.088 1.653 8340
1.414 2.091 1.645 6080
1.443 2.135 1.666 4039
1.419 2.098 1.630 4821
1.417 2.096 1.619 5883
1.420 2.100 1.611 5966
1.422 2.103 1.604 4566
1.424 2.107 1.596 3167
1.469 2.173 1.631 3514
1.472 2.177 1.624 4650
1.474 2.180 1.616 4843
1.508 2.230 1.639 6085
1.510 2.234 1.631 8815
1.512 2.237 1.623 9885
1.515 2.241 1.615 10956
1.521 2.250 1.611 9682
1.524 2.254 1.603 8445
1.561 2.309 1.628 8538
1.564 2.313 1.620 9954
1.566 2.316 1.611 8732
1.568 2.320 1.603 7510
1.571 2.323 1.595 5641
1.648 2.438 1.655 4674
1.659 2.453 1.653 4137
1.669 2.469 1.652 4057
1.671 2.472 1.643 4429
1.674 2.476 1.634 4800
1.760 2.603 1.698 4716
1.762 2.607 1.689 4886
1.713 2.534 1.635 3822
1.716 2.538 1.626 4407
1.714 2.535 1.614 3808
1.716 2.539 1.605 3225
1.763 2.608 1.633 3889
1.769 2.617 1.627 4897
1.772 2.621 1.617 4897
1.790 2.648 1.621 4840
1.797 2.658 1.615 5999
1.799 2.661 1.606 5040
1.801 2.665 1.596 4081
1.800 2.662 1.584 3509
1.912 2.828 1.660 3444
1.914 2.831 1.650 3444
1.917 2.835 1.640 1722
0.864 1.278 0.821 329
0.377 0.554 1.695 18676
0.380 0.557 1.693 19925
0.382 0.561 1.691 21173
0.385 0.565 1.689 26342
0.387 0.569 1.687 31510
0.390 0.572 1.685 31510
0.392 0.576 1.683 32029
0.395 0.580 1.681 32547
0.395 0.581 1.672 26444
0.398 0.584 1.670 20641
0.400 0.588 1.667 17501
0.401 0.589 1.658 14671
0.403 0.592 1.656 15534
0.408 0.599 1.661 16584
0.410 0.602 1.659 14934
0.415 0.609 1.664 16419
0.417 0.613 1.661 19419
0.422 0.619 1.666 17257
0.424 0.623 1.664 15487
0.427 0.627 1.662 12843
0.425 0.624 1.645 10968
0.430 0.631 1.650 9030
0.436 0.641 1.662 7412
0.441 0.647 1.667 6320
0.445 0.654 1.671 5533
0.448 0.658 1.669 4295
0.474 0.696 1.743 4884
0.476 0.700 1.740 6946
0.477 0.700 1.731 9022
0.482 0.707 1.735 10678
0.484 0.711 1.733 12348
0.489 0.718 1.737 11170
0.492 0.722 1.735 8119
0.494 0.726 1.732 6315
0.497 0.730 1.729 8589
0.499 0.733 1.727 10755
0.502 0.737 1.724 11832
0.505 0.741 1.721 12908
