-0.259 0.665 1.684 5410
-0.259 0.666 1.675 6979
-0.261 0.670 1.672 8584
-0.262 0.674 1.670 10237
-0.264 0.679 1.668 11889
-0.265 0.683 1.666 11857
-0.266 0.683 1.657 12793
-0.267 0.688 1.654 13867
-0.269 0.692 1.652 14316
-0.271 0.696 1.650 14765
-0.272 0.700 1.648 12867
-0.275 0.707 1.652 11000
-0.275 0.708 1.643 9593
-0.277 0.712 1.641 8217
-0.279 0.716 1.639 13395
-0.280 0.720 1.636 18648
-0.282 0.724 1.634 18841
-0.285 0.732 1.639 17781
-0.286 0.736 1.636 13730
-0.288 0.740 1.634 10911
-0.293 0.755 1.652 12568
-0.295 0.759 1.650 16363
-0.297 0.763 1.647 19270
-0.300 0.770 1.652 23103
-0.303 0.778 1.656 27812
-0.304 0.782 1.654 28171
-0.306 0.786 1.651 28530
-0.307 0.791 1.649 24420
-0.308 0.791 1.639 18880
-0.309 0.795 1.637 17537
-0.312 0.803 1.641 12270
-0.309 0.795 1.618 7364
-0.326 0.837 1.683 8141
-0.327 0.842 1.681 10474
-0.329 0.846 1.678 14682
-0.331 0.850 1.675 19183
-0.334 0.858 1.679 20863
-0.335 0.862 1.676 18595
-0.340 0.874 1.687 12467
-0.343 0.882 1.691 9163
-0.343 0.882 1.681 6605
-0.343 0.883 1.672 7633
-0.345 0.887 1.669 10673
-0.346 0.891 1.666 11627
-0.351 0.903 1.677 10690
-0.358 0.919 1.694 10323
-0.359 0.923 1.691 11683
-0.361 0.928 1.688 11944
-0.364 0.936 1.691 11031
-0.366 0.940 1.688 11137
-0.370 0.953 1.699 12505
-0.370 0.953 1.689 12165
-0.369 0.949 1.673 10872
-0.375 0.965 1.689 10042
-0.384 0.986 1.712 10594
-0.385 0.990 1.709 10978
-0.384 0.986 1.693 12110
-0.384 0.986 1.683 12733
-0.380 0.978 1.661 14752
-0.382 0.982 1.658 17390
-0.385 0.990 1.661 17026
-0.385 0.990 1.651 13263
-0.392 1.007 1.667 13976
-0.393 1.011 1.664 13963
-0.398 1.024 1.674 8810
-0.402 1.032 1.677 6438
-0.401 1.032 1.667 9078
-0.403 1.036 1.664 8254
-0.412 1.058 1.686 5969
-0.413 1.062 1.682 5815
-0.413 1.062 1.673 7415
-0.415 1.066 1.669 10448
-0.418 1.075 1.672 11306
-0.423 1.088 1.681 11952
-0.427 1.097 1.684 13301
-0.428 1.101 1.681 10735
-0.430 1.105 1.677 5695
-0.433 1.114 1.680 5464
-0.437 1.123 1.682 9937
-0.440 1.131 1.685 11837
-0.445 1.145 1.694 9575
-0.445 1.144 1.684 8026
-0.445 1.144 1.674 8397
-0.443 1.139 1.658 11990
-0.444 1.143 1.655 14930
-0.446 1.147 1.651 12163
-0.449 1.156 1.653 11347
-0.457 1.174 1.668 10822
-0.458 1.178 1.664 10960
-0.460 1.182 1.660 13625
-0.463 1.191 1.662 12356
-0.463 1.190 1.653 15719
-0.465 1.195 1.649 23707
-0.468 1.203 1.651 19933
-0.475 1.222 1.665 14741
-0.477 1.226 1.661 12646
-0.479 1.230 1.657 13135
-0.478 1.230 1.647 11785
-0.474 1.219 1.626 8442
-0.476 1.223 1.622 10193
-0.485 1.247 1.641 12880
-0.490 1.261 1.649 15601
-0.492 1.265 1.645 13221
-0.494 1.269 1.641 10757
-0.497 1.278 1.643 10638
-0.499 1.282 1.639 12505
-0.498 1.281 1.629 13055
-0.500 1.285 1.625 15905
-0.501 1.289 1.621 21328
-0.503 1.293 1.617 22124
-0.506 1.302 1.618 18853
-0.512 1.316 1.625 18515
-0.512 1.315 1.616 20703
-0.513 1.319 1.611 19924
-0.517 1.328 1.613 16716
-0.526 1.353 1.631 14780
-0.530 1.363 1.632 19540
-0.534 1.372 1.634 24337
-0.535 1.376 1.629 26745
-0.537 1.380 1.625 22250
-0.536 1.379 1.615 12842
-0.546 1.404 1.633 16647
-0.550 1.413 1.634 29126
-0.553 1.422 1.635 28912
-0.555 1.426 1.630 19344
-0.552 1.420 1.615 12632
-0.554 1.424 1.610 9739
-0.566 1.455 1.633 8974
-0.567 1.459 1.628 12442
-0.584 1.501 1.661 15209
-0.589 1.516 1.667 11663
-0.593 1.525 1.668 12630
-0.593 1.524 1.657 17842
-0.596 1.533 1.658 15066
-0.602 1.548 1.664 13700
-0.606 1.558 1.664 19693
-0.608 1.562 1.659 18812
-0.609 1.566 1.654 12838
-0.613 1.576 1.654 8019
-0.621 1.597 1.665 7679
-0.627 1.612 1.670 9578
-0.628 1.616 1.665 9867
-0.630 1.620 1.660 11721
-0.634 1.630 1.660 13118
-0.640 1.645 1.665 12688
-0.641 1.649 1.660 9674
-0.647 1.665 1.665 8266
-0.653 1.680 1.670 8615
-0.657 1.690 1.669 10976
-0.659 1.694 1.664 14139
-0.665 1.710 1.669 12118
-0.673 1.731 1.678 12961
-0.677 1.741 1.678 10864
-0.685 1.762 1.687 8164
-0.687 1.766 1.681 6266
-0.689 1.771 1.676 5603
-0.688 1.769 1.665 6227
-0.692 1.779 1.665 9669
-0.693 1.783 1.659 16786
-0.697 1.793 1.658 20416
-0.701 1.803 1.657 18851
-0.712 1.830 1.671 14880
-0.729 1.876 1.699 18746
-0.731 1.880 1.693 18701
-0.735 1.890 1.691 13138
-0.741 1.906 1.695 12320
-0.741 1.904 1.684 10430
-0.740 1.902 1.673 7509
-0.739 1.901 1.663 9686
-0.745 1.917 1.666 12021
-0.756 1.945 1.679 10919
-0.760 1.955 1.677 8872
-0.760 1.953 1.666 6806
-0.756 1.945 1.651 10875
-0.756 1.943 1.640 16043
-0.757 1.947 1.634 14281
-0.780 2.006 1.669 15059
-0.784 2.016 1.667 19470
-0.786 2.020 1.660 21761
-0.785 2.018 1.649 20372
-0.782 2.010 1.634 17417
-0.783 2.014 1.628 12760
-0.790 2.030 1.630 10759
-0.791 2.034 1.624 12374
-0.793 2.038 1.617 18868
-0.794 2.042 1.611 22294
-0.796 2.046 1.604 20842
-0.797 2.050 1.598 16200
-0.799 2.054 1.592 13032
-0.798 2.052 1.581 13605
-0.799 2.056 1.574 11634
-0.803 2.066 1.572 7666
-0.868 2.232 1.675 5172
-0.882 2.267 1.689 6133
-0.883 2.271 1.682 6688
-0.885 2.276 1.675 7181
-0.884 2.273 1.664 7325
-0.883 2.271 1.652 6289
-0.895 2.301 1.662 5027
-0.901 2.317 1.662 6827
-0.905 2.328 1.659 7138
-0.914 2.351 1.664 6468
-0.926 2.380 1.673 6759
-0.927 2.384 1.665 5842
-0.929 2.389 1.658 4925
-0.950 2.444 1.682 5580
-0.952 2.448 1.674 6674
-0.954 2.452 1.666 6251
-0.955 2.456 1.659 5299
-0.954 2.454 1.647 4351
-0.968 2.490 1.659 5283
-0.970 2.494 1.651 6001
-1.004 2.582 1.693 6817
-1.001 2.573 1.677 7019
-1.000 2.571 1.665 7844
-0.999 2.569 1.653 7659
-0.998 2.566 1.641 7743
-1.002 2.577 1.637 6161
-1.022 2.627 1.655 5971
-1.026 2.637 1.650 4847
-1.027 2.641 1.642 3742
-1.044 2.685 1.655 4308
-1.051 2.702 1.654 5849
-1.052 2.706 1.645 5746
-1.054 2.710 1.637 5644
-1.053 2.707 1.625 4383
-1.116 2.870 1.701 4231
-1.087 2.795 1.650 4406
-1.088 2.799 1.641 4847
-1.090 2.803 1.632 5064
-1.094 2.813 1.627 5247
-1.106 2.844 1.632 4654
-1.110 2.855 1.626 4675
-1.145 2.945 1.661 5434
-1.150 2.956 1.655 7682
-1.159 2.980 1.656 7788
-1.163 2.991 1.650 8316
-1.165 2.995 1.641 8316
-1.156 2.972 1.618 6909
-1.155 2.970 1.605 7174
-1.154 2.967 1.593 5486
-1.148 2.951 1.574 4065
-1.149 2.954 1.564 4065
-1.151 2.958 1.555 3145
-1.170 3.009 1.568 2571
-1.172 3.013 1.558 1285
-0.240 0.622 1.688 17520
-0.242 0.626 1.686 17346
-0.245 0.633 1.691 17318
-0.246 0.637 1.689 15391
-0.248 0.642 1.687 13465
-0.250 0.646 1.685 13465
-0.252 0.653 1.690 11345
-0.254 0.657 1.688 9384
-0.256 0.661 1.686 7776
-0.254 0.656 1.662 6216
-0.256 0.663 1.667 8135
-0.258 0.668 1.665 10059
-0.260 0.672 1.663 11754
-0.261 0.676 1.661 13450
-0.264 0.683 1.666 13155
-0.266 0.687 1.664 13787
-0.266 0.688 1.654 14847
-0.268 0.692 1.652 15291
-0.269 0.696 1.650 15736
-0.271 0.700 1.648 13847
-0.274 0.708 1.652 11964
-0.274 0.709 1.643 10065
-0.275 0.713 1.641 8171
-0.277 0.717 1.639 13610
-0.279 0.721 1.636 19125
-0.280 0.725 1.634 19591
-0.282 0.729 1.632 18692
-0.283 0.733 1.629 15170
-0.285 0.737 1.627 12993
-0.291 0.752 1.645 14378
-0.294 0.759 1.650 18644
-0.295 0.763 1.647 21567
-0.298 0.771 1.652 24665
-0.301 0.779 1.656 28686
-0.303 0.783 1.654 28808
-0.304 0.787 1.651 28930
-0.306 0.791 1.649 24268
-0.306 0.791 1.639 18079
-0.308 0.796 1.637 16676
-0.311 0.803 1.641 11585
-0.324 0.838 1.693 7258
-0.325 0.842 1.690 8056
-0.326 0.842 1.681 9946
-0.327 0.846 1.678 14216
-0.329 0.851 1.675 18660
-0.332 0.859 1.679 20305
-0.334 0.863 1.676 18061
-0.337 0.871 1.680 11749
-0.341 0.883 1.691 8275
-0.341 0.883 1.681 5872
-0.341 0.883 1.672 7414
-0.343 0.887 1.669 10714
-0.345 0.892 1.666 11806
-0.349 0.904 1.677 11410
-0.356 0.920 1.694 11907
-0.357 0.924 1.691 13749
-0.360 0.932 1.694 14090
-0.362 0.937 1.691 12751
-0.365 0.945 1.695 12974
-0.369 0.953 1.699 15263
-0.370 0.958 1.695 14209
-0.367 0.949 1.673 11896
-0.375 0.970 1.696 12129
-0.382 0.987 1.712 12886
-0.382 0.987 1.703 13424
-0.382 0.987 1.693 15421
-0.382 0.987 1.683 15716
-0.378 0.978 1.661 16605
-0.381 0.987 1.664 19960
-0.383 0.991 1.661 20214
-0.385 0.995 1.658 16038
-0.388 1.003 1.661 15971
-0.391 1.012 1.664 14838
-0.394 1.020 1.667 9078
-0.399 1.033 1.677 6395
-0.398 1.029 1.661 9161
-0.396 1.024 1.645 8780
-0.397 1.028 1.642 5226
-0.411 1.063 1.682 5401
-0.411 1.063 1.673 7534
-0.412 1.067 1.669 9721
-0.418 1.080 1.678 10313
-0.421 1.089 1.681 11638
-0.424 1.098 1.684 13977
-0.426 1.102 1.681 12024
-0.428 1.106 1.677 6682
-0.431 1.115 1.680 5985
-0.434 1.123 1.682 10152
-0.439 1.137 1.691 11635
-0.443 1.146 1.694 10533
-0.443 1.145 1.684 9767
-0.443 1.145 1.674 9108
-0.441 1.140 1.658 13005
-0.442 1.144 1.655 17061
-0.444 1.148 1.651 13520
-0.449 1.161 1.659 11881
-0.454 1.175 1.668 12823
-0.456 1.179 1.664 13158
-0.459 1.188 1.666 14004
-0.461 1.192 1.662 13784
-0.461 1.191 1.653 19748
-0.462 1.195 1.649 27189
-0.466 1.204 1.651 21309
-0.473 1.223 1.665 15850
-0.473 1.222 1.655 15205
-0.476 1.231 1.657 17467
-0.478 1.235 1.653 15152
-0.479 1.240 1.649 9408
-0.479 1.239 1.640 12767
-0.484 1.253 1.647 17883
-0.488 1.262 1.649 20860
-0.489 1.266 1.645 17017
-0.491 1.270 1.641 13718
-0.494 1.279 1.643 13164
-0.494 1.278 1.633 14966
-0.496 1.282 1.629 17895
-0.497 1.286 1.625 18728
-0.499 1.290 1.621 20702
-0.500 1.294 1.617 20954
-0.502 1.298 1.612 16271
-0.509 1.318 1.625 16954
-0.509 1.316 1.616 22035
-0.510 1.320 1.611 21384
-0.514 1.330 1.613 18248
-0.522 1.349 1.625 15756
-0.527 1.364 1.632 17841
-0.529 1.368 1.628 22398
-0.530 1.372 1.624 25285
-0.532 1.376 1.619 21130
-0.533 1.380 1.615 16344
-0.541 1.400 1.627 18190
-0.547 1.414 1.634 25564
-0.550 1.424 1.635 26476
-0.552 1.428 1.630 20205
-0.551 1.426 1.620 15007
-0.557 1.441 1.626 13458
-0.561 1.450 1.627 13059
-0.564 1.460 1.628 15566
-0.578 1.496 1.656 16537
-0.586 1.517 1.667 12604
-0.588 1.521 1.662 14627
-0.590 1.525 1.657 18800
-0.593 1.535 1.658 13702
-0.601 1.555 1.669 13891
-0.603 1.559 1.664 20009
-0.604 1.563 1.659 18030
-0.606 1.567 1.654 11595
-0.610 1.577 1.654 6197
-0.618 1.598 1.665 5548
-0.628 1.624 1.681 9530
-0.627 1.623 1.670 12125
-0.629 1.627 1.665 14012
-0.633 1.637 1.665 16268
-0.634 1.641 1.660 13770
-0.642 1.662 1.670 9905
-0.648 1.677 1.675 11414
-0.650 1.682 1.670 11274
-0.652 1.686 1.664 12109
-0.655 1.696 1.664 15651
-0.661 1.711 1.669 12589
-0.672 1.738 1.683 12187
-0.676 1.748 1.683 10766
-0.682 1.764 1.687 9243
-0.683 1.768 1.681 7471
-0.685 1.772 1.676 6084
-0.684 1.770 1.665 7058
-0.686 1.775 1.660 11221
-0.690 1.784 1.659 17385
-0.691 1.789 1.653 18410
-0.697 1.804 1.657 14660
-0.710 1.838 1.676 13514
-0.726 1.877 1.699 19151
-0.727 1.881 1.693 19079
-0.731 1.891 1.691 13587
-0.737 1.907 1.695 12314
-0.737 1.906 1.684 10046
-0.736 1.904 1.673 8440
-0.738 1.908 1.667 10274
-0.744 1.924 1.671 12443
-0.750 1.940 1.674 12139
-0.756 1.956 1.677 9226
-0.756 1.955 1.666 7084
-0.755 1.953 1.655 10932
-0.752 1.945 1.640 16521
-0.753 1.949 1.634 14664
-0.776 2.007 1.669 15774
-0.780 2.017 1.667 20292
-0.781 2.022 1.660 22607
-0.781 2.020 1.649 22284
-0.778 2.011 1.634 21581
-0.779 2.016 1.628 17512
-0.783 2.026 1.626 15257
-0.787 2.036 1.624 14563
-0.789 2.040 1.617 19075
-0.790 2.044 1.611 22209
-0.792 2.048 1.604 20405
-0.793 2.052 1.598 15566
-0.795 2.056 1.592 11962
-0.794 2.053 1.581 12889
-0.795 2.057 1.574 11165
-0.797 2.061 1.568 7423
-0.861 2.227 1.671 6122
-0.877 2.269 1.689 7206
-0.879 2.273 1.682 7513
-0.878 2.271 1.671 7534
-0.877 2.269 1.659 7648
-0.879 2.273 1.652 6562
-0.888 2.296 1.657 5126
-0.896 2.319 1.662 6721
-0.901 2.330 1.659 7308
-0.909 2.353 1.664 7097
-0.916 2.369 1.665 6700
-0.920 2.380 1.661 5308
-0.944 2.441 1.690 4400
-0.945 2.446 1.682 6237
-0.947 2.450 1.674 7165
-0.949 2.454 1.666 6257
-0.950 2.458 1.659 4943
-0.979 2.533 1.694 4612
-0.978 2.531 1.682 5550
-0.995 2.574 1.697 6482
-0.999 2.584 1.693 8050
-0.998 2.582 1.681 7983
-0.995 2.573 1.665 8549
-0.994 2.571 1.653 8056
-0.993 2.568 1.641 7996
-0.997 2.579 1.637 6348
-1.019 2.635 1.658 6482
-1.020 2.639 1.650 5446
-1.024 2.650 1.645 4410
-1.039 2.687 1.655 5140
-1.043 2.697 1.650 6630
-1.044 2.701 1.642 6095
-1.046 2.706 1.633 5559
-1.047 2.710 1.625 4221
-1.080 2.793 1.659 4369
-1.081 2.797 1.650 4719
-1.083 2.801 1.641 5069
-1.084 2.805 1.632 5264
-1.114 2.882 1.662 5727
-1.103 2.853 1.635 5288
-1.104 2.857 1.626 5338
-1.124 2.908 1.641 5775
-1.131 2.925 1.639 7162
-1.156 2.989 1.660 7647
-1.157 2.993 1.650 8706
-1.159 2.997 1.641 8706
-1.160 3.002 1.631 6944
-1.149 2.972 1.605 6461
-1.150 2.976 1.596 5007
-1.201 3.108 1.648 4080
-1.151 2.977 1.574 3553
-1.160 3.001 1.574 2955
-1.201 3.107 1.612 2901
-1.202 3.110 1.602 1450
-0.239 0.622 1.688 17310
-0.240 0.627 1.686 17136
-0.243 0.634 1.691 17110
-0.245 0.638 1.689 15088
-0.246 0.642 1.687 13066
-0.248 0.646 1.685 13066
-0.251 0.654 1.690 11048
-0.254 0.661 1.695 9135
-0.254 0.662 1.686 7999
-0.252 0.657 1.662 7263
-0.255 0.664 1.667 9264
-0.256 0.668 1.665 11346
-0.258 0.672 1.663 12957
-0.260 0.676 1.661 14569
-0.262 0.684 1.666 13936
-0.264 0.688 1.664 14134
-0.264 0.689 1.654 14955
-0.266 0.693 1.652 15473
-0.267 0.697 1.650 15991
-0.269 0.701 1.648 14182
-0.271 0.705 1.645 12372
-0.272 0.709 1.643 10094
-0.272 0.710 1.634 7911
-0.275 0.717 1.639 13005
-0.277 0.721 1.636 18241
-0.278 0.726 1.634 18896
-0.280 0.730 1.632 18370
-0.281 0.734 1.629 15750
-0.283 0.738 1.627 14325
-0.289 0.752 1.645 15637
-0.292 0.760 1.650 19816
-0.293 0.764 1.647 22414
-0.296 0.772 1.652 24573
-0.299 0.780 1.656 27638
-0.301 0.784 1.654 27578
-0.302 0.788 1.651 27517
-0.304 0.792 1.649 22502
-0.304 0.792 1.639 15891
-0.305 0.796 1.637 14481
-0.308 0.804 1.641 10004
-0.323 0.842 1.700 7400
-0.323 0.843 1.690 7478
-0.323 0.843 1.681 8661
-0.325 0.847 1.678 12690
-0.328 0.855 1.682 16790
-0.330 0.859 1.679 18274
-0.331 0.864 1.676 16152
-0.334 0.872 1.680 10141
-0.339 0.884 1.691 6806
-0.338 0.880 1.675 4841
-0.338 0.880 1.665 7072
-0.341 0.888 1.669 10289
-0.342 0.892 1.666 11456
-0.349 0.909 1.683 11859
-0.353 0.921 1.694 13045
-0.355 0.925 1.691 15329
-0.357 0.929 1.688 16021
-0.358 0.934 1.685 14428
-0.364 0.950 1.702 14968
-0.368 0.958 1.705 18194
-0.368 0.958 1.695 16285
-0.369 0.963 1.692 13201
-0.373 0.971 1.696 14419
-0.377 0.984 1.706 15230
-0.379 0.988 1.703 15792
-0.379 0.988 1.693 18465
-0.379 0.988 1.683 18201
-0.377 0.984 1.667 17818
-0.379 0.988 1.664 21753
-0.380 0.992 1.661 22738
-0.382 0.996 1.658 18380
-0.385 1.004 1.661 17140
-0.387 1.008 1.658 14759
-0.392 1.021 1.667 9301
-0.395 1.030 1.670 6874
-0.393 1.025 1.654 9232
-0.393 1.025 1.645 9305
-0.396 1.033 1.648 5919
-0.408 1.064 1.682 5775
-0.408 1.064 1.673 8056
-0.410 1.068 1.669 8671
-0.415 1.081 1.678 8631
-0.418 1.090 1.681 10581
-0.421 1.099 1.684 13710
-0.423 1.103 1.681 12584
-0.425 1.107 1.677 7596
-0.428 1.116 1.680 6356
-0.431 1.125 1.682 9756
-0.437 1.138 1.691 11583
-0.440 1.147 1.694 11676
-0.440 1.146 1.684 11238
-0.440 1.146 1.674 10208
-0.438 1.141 1.658 14505
-0.439 1.145 1.655 19775
-0.441 1.149 1.651 16257
-0.446 1.162 1.659 13030
-0.451 1.176 1.668 14241
-0.453 1.180 1.664 14818
-0.456 1.189 1.666 13627
-0.458 1.193 1.662 14360
-0.458 1.193 1.653 23001
-0.459 1.197 1.649 29584
-0.463 1.206 1.651 21999
-0.472 1.229 1.671 16729
-0.469 1.224 1.655 18110
-0.473 1.233 1.657 22308
-0.474 1.237 1.653 18494
-0.478 1.246 1.655 12047
-0.478 1.245 1.645 16426
-0.481 1.254 1.647 23068
-0.483 1.258 1.643 25256
-0.486 1.267 1.645 19159
-0.488 1.271 1.641 16413
-0.491 1.280 1.643 15908
-0.491 1.279 1.633 16610
-0.492 1.283 1.629 21268
-0.494 1.287 1.625 20553
-0.495 1.291 1.621 19022
-0.497 1.295 1.617 17695
-0.497 1.294 1.607 12195
-0.506 1.319 1.625 14439
-0.505 1.318 1.616 23271
-0.509 1.327 1.617 22935
-0.511 1.331 1.613 17631
-0.516 1.345 1.620 14845
-0.524 1.365 1.632 16301
-0.523 1.364 1.622 20649
-0.527 1.373 1.624 22665
-0.530 1.382 1.625 18388
-0.532 1.386 1.620 18695
-0.537 1.401 1.627 17126
-0.545 1.421 1.639 20246
-0.549 1.430 1.640 27731
-0.548 1.429 1.630 24135
-0.550 1.433 1.626 21047
-0.551 1.437 1.621 22818
-0.555 1.446 1.622 19727
-0.559 1.456 1.623 19002
-0.560 1.460 1.618 18668
-0.578 1.507 1.656 13256
-0.584 1.522 1.662 16218
-0.586 1.526 1.657 19307
-0.589 1.536 1.658 13398
-0.597 1.557 1.669 14583
-0.599 1.561 1.664 19344
-0.600 1.565 1.659 16428
-0.602 1.569 1.654 11222
-0.603 1.573 1.649 7060
-0.614 1.599 1.665 7004
-0.624 1.626 1.681 10729
-0.623 1.625 1.670 13950
-0.625 1.629 1.665 17481
-0.629 1.638 1.665 19014
-0.632 1.648 1.665 14511
-0.643 1.675 1.680 11862
-0.644 1.679 1.675 15407
-0.646 1.683 1.670 13727
-0.647 1.687 1.664 12316
-0.651 1.697 1.664 15819
-0.657 1.713 1.669 13416
-0.667 1.740 1.683 12540
-0.671 1.750 1.683 10901
-0.675 1.760 1.682 10125
-0.677 1.764 1.676 7993
-0.689 1.797 1.695 6039
-0.680 1.772 1.665 7913
-0.681 1.776 1.660 12667
-0.687 1.792 1.664 18069
-0.689 1.796 1.658 16649
-0.704 1.835 1.681 11003
-0.717 1.869 1.700 12443
-0.719 1.873 1.694 19349
-0.722 1.883 1.693 18740
-0.726 1.893 1.691 13663
-0.728 1.898 1.685 12441
-0.727 1.896 1.675 11534
-0.731 1.906 1.673 11538
-0.735 1.916 1.672 12183
-0.739 1.926 1.671 13705
-0.745 1.942 1.674 14008
-0.749 1.952 1.672 10062
-0.751 1.956 1.666 7200
-0.750 1.955 1.655 10338
-0.747 1.947 1.640 15766
-0.748 1.951 1.634 13812
-0.771 2.009 1.669 15520
-0.775 2.019 1.667 19996
-0.776 2.024 1.660 22381
-0.776 2.022 1.649 23554
-0.772 2.013 1.634 26035
-0.774 2.017 1.628 22807
-0.778 2.028 1.626 20153
-0.779 2.032 1.619 17578
-0.781 2.036 1.613 19483
-0.782 2.040 1.607 21512
-0.784 2.044 1.600 19059
-0.788 2.054 1.598 14706
-0.787 2.052 1.587 11377
-0.789 2.055 1.581 12127
-0.790 2.059 1.574 10447
-0.851 2.219 1.674 6916
-0.853 2.223 1.667 6849
-0.871 2.271 1.689 8301
-0.873 2.275 1.682 8258
-0.874 2.280 1.675 7466
-0.871 2.271 1.659 7267
-0.873 2.275 1.652 6258
-0.882 2.298 1.657 4940
-0.888 2.315 1.658 6112
-0.895 2.332 1.659 7019
-0.903 2.355 1.664 7433
-0.907 2.365 1.661 6618
-0.943 2.459 1.709 4920
-0.947 2.469 1.706 6202
-0.946 2.467 1.694 7879
-0.946 2.465 1.682 7909
-0.945 2.463 1.670 6351
-0.966 2.518 1.694 4761
-0.970 2.529 1.690 4977
-0.972 2.533 1.682 5794
-0.988 2.576 1.697 7242
-0.992 2.587 1.693 9272
-0.991 2.585 1.681 8868
-0.991 2.582 1.669 8941
-0.987 2.573 1.653 7863
-0.986 2.571 1.641 7609
-0.990 2.581 1.637 5997
-1.014 2.644 1.662 6705
-1.016 2.648 1.654 5766
-1.018 2.653 1.645 4828
-1.029 2.683 1.652 5540
-1.036 2.700 1.650 6803
-1.037 2.704 1.642 5891
-1.039 2.708 1.633 4980
-1.066 2.778 1.660 3795
-1.072 2.796 1.659 4402
-1.071 2.793 1.646 4561
-1.073 2.797 1.638 4762
-1.103 2.874 1.667 5934
-1.107 2.885 1.662 7091
-1.111 2.896 1.656 6316
-1.115 2.906 1.650 5788
-1.117 2.911 1.641 6242
-1.118 2.915 1.632 6697
-1.148 2.992 1.660 6801
-1.152 3.003 1.653 8482
-1.154 3.007 1.644 8482
-1.158 3.018 1.638 7028
-1.170 3.049 1.641 5946
-1.174 3.060 1.635 5473
-1.191 3.104 1.645 5827
-1.190 3.102 1.632 5186
-1.191 3.106 1.622 4602
-1.193 3.110 1.612 4602
-1.194 3.114 1.602 2301
-0.237 0.623 1.688 16387
-0.239 0.627 1.686 16378
-0.242 0.634 1.691 16472
-0.243 0.639 1.689 14566
-0.245 0.643 1.687 12660
-0.246 0.647 1.685 12660
-0.249 0.654 1.690 10615
-0.252 0.662 1.695 8689
-0.252 0.663 1.686 7728
-0.250 0.657 1.662 7380
-0.253 0.665 1.667 9445
-0.255 0.669 1.665 11656
-0.256 0.673 1.663 13178
-0.258 0.677 1.661 14699
-0.261 0.685 1.666 14024
-0.262 0.689 1.664 13925
-0.263 0.689 1.654 14508
-0.264 0.694 1.652 15116
-0.266 0.698 1.650 15725
-0.267 0.702 1.648 13973
-0.269 0.706 1.645 12221
-0.270 0.710 1.643 9869
-0.271 0.711 1.634 7686
-0.272 0.715 1.632 12417
-0.275 0.722 1.636 17199
-0.277 0.726 1.634 17987
-0.278 0.730 1.632 17813
-0.278 0.731 1.622 15934
-0.281 0.738 1.627 14838
-0.287 0.753 1.645 15810
-0.290 0.761 1.650 19670
-0.291 0.765 1.647 21971
-0.294 0.773 1.652 24054
-0.297 0.780 1.656 26973
-0.299 0.784 1.654 26717
-0.300 0.789 1.651 26462
-0.302 0.793 1.649 21191
-0.302 0.793 1.639 14479
-0.304 0.797 1.637 13326
-0.306 0.805 1.641 9323
-0.321 0.843 1.700 7179
-0.323 0.847 1.697 7039
-0.321 0.844 1.681 7973
-0.323 0.848 1.678 11763
-0.326 0.856 1.682 15674
-0.328 0.860 1.679 17100
-0.329 0.864 1.676 15031
-0.332 0.872 1.680 9123
-0.337 0.885 1.691 5872
-0.332 0.873 1.661 4400
-0.335 0.881 1.665 7112
-0.339 0.889 1.669 10326
-0.340 0.893 1.666 11521
-0.346 0.910 1.683 12001
-0.351 0.922 1.694 13262
-0.353 0.926 1.691 15502
-0.354 0.930 1.688 16444
-0.356 0.934 1.685 15145
-0.362 0.951 1.702 15559
-0.365 0.959 1.705 19192
-0.367 0.964 1.702 17143
-0.367 0.964 1.692 14156
-0.370 0.972 1.696 15533
-0.375 0.985 1.706 15894
-0.375 0.985 1.696 16078
-0.377 0.989 1.693 18813
-0.377 0.989 1.683 18201
-0.375 0.984 1.667 17205
-0.376 0.989 1.664 21650
-0.378 0.993 1.661 23219
-0.380 0.997 1.658 18992
-0.383 1.005 1.661 17292
-0.384 1.009 1.658 14573
-0.389 1.022 1.667 9478
-0.393 1.031 1.670 7347
-0.392 1.031 1.661 9396
-0.392 1.030 1.651 9752
-0.394 1.034 1.648 6801
-0.404 1.061 1.676 6743
-0.405 1.065 1.673 9142
-0.407 1.069 1.669 8600
-0.412 1.082 1.678 8064
-0.415 1.091 1.681 10143
-0.419 1.100 1.684 13092
-0.419 1.099 1.674 12419
-0.420 1.103 1.671 8191
-0.424 1.112 1.673 7003
-0.429 1.126 1.682 9966
-0.435 1.144 1.697 11961
-0.437 1.148 1.694 12089
-0.437 1.147 1.684 11184
-0.437 1.147 1.674 10413
-0.435 1.142 1.658 15172
-0.436 1.146 1.655 21335
-0.440 1.155 1.657 18258
-0.443 1.164 1.659 13696
-0.448 1.177 1.668 14513
-0.450 1.181 1.664 15565
-0.451 1.185 1.660 13540
-0.455 1.194 1.662 14245
-0.455 1.194 1.653 23708
-0.456 1.198 1.649 30185
-0.458 1.202 1.645 21927
-0.469 1.230 1.671 16069
-0.466 1.225 1.655 18769
-0.470 1.234 1.657 24217
-0.471 1.238 1.653 19949
-0.475 1.247 1.655 13267
-0.474 1.246 1.645 17492
-0.478 1.255 1.647 24974
-0.479 1.259 1.643 27171
-0.481 1.263 1.639 19842
-0.484 1.272 1.641 17399
-0.486 1.276 1.637 17145
-0.488 1.281 1.633 17078
-0.489 1.285 1.629 22072
-0.491 1.289 1.625 21094
-0.492 1.293 1.621 18602
-0.494 1.297 1.617 16645
-0.491 1.290 1.601 11422
-0.501 1.315 1.620 13871
-0.502 1.319 1.616 24645
-0.506 1.328 1.617 24141
-0.507 1.332 1.613 17225
-0.513 1.347 1.620 14989
-0.518 1.361 1.627 16221
-0.520 1.365 1.622 19424
-0.525 1.380 1.629 22560
-0.527 1.384 1.625 19269
-0.528 1.388 1.620 19221
-0.534 1.402 1.627 16599
-0.544 1.428 1.645 20720
-0.543 1.426 1.635 30237
-0.545 1.430 1.630 26458
-0.546 1.434 1.626 23452
-0.548 1.438 1.621 26178
-0.551 1.448 1.622 22492
-0.555 1.457 1.623 21173
-0.556 1.461 1.618 21162
-0.558 1.465 1.613 14668
-0.578 1.518 1.657 16221
-0.582 1.528 1.657 19038
-0.585 1.538 1.658 13405
-0.591 1.553 1.664 14048
-0.595 1.562 1.664 18181
-0.596 1.566 1.659 15517
-0.598 1.571 1.654 11478
-0.602 1.580 1.654 8680
-0.610 1.601 1.665 8405
-0.620 1.627 1.681 11863
-0.621 1.632 1.675 14497
-0.623 1.636 1.670 16490
-0.627 1.646 1.670 19623
-0.628 1.650 1.665 14823
-0.638 1.676 1.680 12527
-0.640 1.681 1.675 16551
-0.642 1.685 1.670 14256
-0.643 1.689 1.664 11957
-0.647 1.699 1.664 15652
-0.655 1.720 1.674 14256
-0.663 1.741 1.683 12797
-0.665 1.746 1.678 10946
-0.668 1.756 1.677 10562
-0.670 1.760 1.672 8018
-0.685 1.799 1.695 5683
-0.675 1.774 1.665 8702
-0.677 1.778 1.660 13654
-0.683 1.794 1.664 19233
-0.687 1.804 1.663 17682
-0.702 1.843 1.686 10879
-0.712 1.871 1.700 11602
-0.714 1.875 1.694 18487
-0.715 1.879 1.688 17621
-0.719 1.889 1.687 12777
-0.721 1.893 1.681 12256
-0.723 1.898 1.675 12365
-0.726 1.908 1.673 12615
-0.730 1.918 1.672 13002
-0.736 1.934 1.675 14697
-0.740 1.944 1.674 15008
-0.742 1.948 1.668 10544
-0.746 1.958 1.666 7165
-0.747 1.962 1.660 9820
-0.742 1.948 1.640 15149
-0.743 1.953 1.634 13278
-0.766 2.011 1.669 14729
-0.770 2.021 1.667 18822
-0.771 2.025 1.660 21140
-0.770 2.024 1.649 22997
-0.767 2.015 1.634 26738
-0.769 2.019 1.628 24086
-0.773 2.030 1.626 21461
-0.774 2.034 1.619 18381
-0.776 2.038 1.613 19568
-0.777 2.042 1.607 21140
-0.779 2.046 1.600 18445
-0.780 2.050 1.594 14716
-0.782 2.053 1.587 11742
-0.781 2.051 1.576 12329
-0.785 2.061 1.574 10581
-0.786 2.065 1.568 6704
-0.845 2.219 1.663 6868
-0.866 2.273 1.689 8316
-0.843 2.215 1.640 8379
-0.869 2.282 1.675 7069
-0.866 2.273 1.659 6741
-0.867 2.277 1.652 5907
-0.876 2.300 1.657 4902
-0.882 2.317 1.658 5791
-0.889 2.334 1.659 6748
-0.898 2.357 1.664 7491
-0.899 2.361 1.657 6623
-0.937 2.461 1.709 5623
-0.941 2.472 1.706 7347
-0.943 2.476 1.698 8914
-0.940 2.467 1.682 8367
-0.941 2.472 1.674 6490
-0.957 2.514 1.690 5274
-0.961 2.525 1.686 5228
-0.963 2.529 1.678 6016
-0.984 2.585 1.701 7542
-0.986 2.589 1.693 9737
-0.985 2.587 1.681 9221
-0.984 2.585 1.669 9045
-0.981 2.576 1.653 7671
-0.980 2.573 1.641 7367
-0.984 2.584 1.637 5817
-1.008 2.647 1.662 6883
-1.009 2.651 1.654 5961
-1.011 2.655 1.645 5040
-1.023 2.685 1.652 5637
-1.027 2.696 1.647 6755
-1.028 2.700 1.638 5710
-1.030 2.704 1.630 4665
-1.056 2.774 1.657 3694
-1.093 2.871 1.698 4294
-1.092 2.869 1.685 4453
-1.094 2.873 1.676 4680
-1.095 2.877 1.667 6253
-1.100 2.888 1.662 7755
-1.104 2.898 1.656 7056
-1.110 2.916 1.654 6720
-1.109 2.913 1.641 6696
-1.111 2.917 1.632 6707
-1.112 2.921 1.623 7228
-1.147 3.013 1.657 8093
-1.113 2.923 1.601 8320
-1.153 3.028 1.641 7099
-1.162 3.052 1.641 6589
-1.164 3.056 1.632 6105
-1.183 3.107 1.645 6453
-1.182 3.105 1.632 5853
-1.184 3.109 1.622 5284
-1.185 3.113 1.612 5284
-1.187 3.117 1.602 2642
-0.235 0.624 1.688 15654
-0.237 0.628 1.686 15651
-0.240 0.635 1.691 15736
-0.241 0.639 1.689 13903
-0.243 0.644 1.687 12071
-0.244 0.648 1.685 12071
-0.247 0.655 1.690 10125
-0.250 0.662 1.695 8227
-0.250 0.664 1.686 7540
-0.248 0.658 1.662 7739
-0.251 0.665 1.667 9736
-0.254 0.673 1.672 11996
-0.255 0.677 1.670 13186
-0.257 0.681 1.668 14376
-0.259 0.685 1.666 13694
-0.260 0.689 1.664 13262
-0.260 0.690 1.654 13564
-0.262 0.694 1.652 14359
-0.264 0.698 1.650 15155
-0.265 0.703 1.648 13545
-0.267 0.707 1.645 11935
-0.268 0.711 1.643 9518
-0.268 0.711 1.634 7319
-0.270 0.715 1.632 11556
-0.271 0.719 1.629 15754
-0.273 0.724 1.627 16795
-0.276 0.731 1.632 17125
-0.276 0.732 1.622 16102
-0.279 0.739 1.627 15291
-0.284 0.754 1.645 15826
-0.287 0.762 1.650 19324
-0.289 0.766 1.647 21267
-0.292 0.773 1.652 23035
-0.295 0.781 1.656 25620
-0.296 0.785 1.654 25197
-0.298 0.789 1.651 24775
-0.299 0.794 1.649 19392
-0.300 0.794 1.639 12748
-0.301 0.798 1.637 11839
-0.304 0.806 1.641 8449
-0.320 0.848 1.706 6823
-0.320 0.848 1.697 6543
-0.319 0.845 1.681 7238
-0.320 0.849 1.678 10695
-0.323 0.857 1.682 14167
-0.325 0.861 1.679 15336
-0.327 0.865 1.676 13331
-0.330 0.874 1.680 7803
-0.334 0.886 1.691 4803
-0.328 0.870 1.655 4308
-0.333 0.882 1.665 7066
-0.336 0.890 1.669 10204
-0.339 0.898 1.673 11419
-0.344 0.911 1.683 12096
-0.348 0.923 1.694 13225
-0.350 0.927 1.691 15509
-0.351 0.931 1.688 17075
-0.353 0.935 1.685 16357
-0.359 0.952 1.702 16508
-0.362 0.960 1.705 20381
-0.364 0.965 1.702 18232
-0.366 0.969 1.699 15368
-0.369 0.977 1.702 16918
-0.372 0.986 1.706 16787
-0.372 0.986 1.696 16661
-0.374 0.990 1.693 19441
-0.373 0.990 1.683 18303
-0.373 0.990 1.674 16616
-0.375 0.994 1.671 21423
-0.375 0.994 1.661 23411
-0.377 0.998 1.658 19192
-0.380 1.006 1.661 17046
-0.381 1.011 1.658 14156
-0.386 1.023 1.667 9974
-0.391 1.036 1.677 8524
-0.389 1.032 1.661 10230
-0.389 1.031 1.651 10912
-0.392 1.040 1.654 8186
-0.401 1.062 1.676 8265
-0.402 1.066 1.673 9827
-0.406 1.075 1.676 7688
-0.410 1.088 1.685 7026
-0.412 1.092 1.681 8902
-0.415 1.101 1.684 11757
-0.415 1.101 1.674 11833
-0.417 1.105 1.671 8307
-0.420 1.114 1.673 7791
-0.425 1.127 1.682 10754
-0.430 1.140 1.691 11954
-0.434 1.149 1.694 11712
-0.432 1.144 1.678 11301
-0.433 1.148 1.674 11069
-0.433 1.148 1.664 15113
-0.433 1.147 1.655 21369
-0.436 1.156 1.657 19293
-0.439 1.165 1.659 14086
-0.445 1.179 1.668 14555
-0.446 1.183 1.664 15469
-0.448 1.187 1.660 12704
-0.449 1.191 1.656 13518
-0.449 1.190 1.647 23519
-0.451 1.194 1.643 30129
-0.454 1.203 1.645 21764
-0.465 1.232 1.671 15388
-0.463 1.226 1.655 19492
-0.466 1.235 1.657 26177
-0.468 1.239 1.653 21428
-0.471 1.248 1.655 14864
-0.473 1.252 1.651 19019
-0.474 1.257 1.647 26907
-0.476 1.261 1.643 28926
-0.477 1.265 1.639 20276
-0.481 1.274 1.641 18245
-0.482 1.278 1.637 18348
-0.484 1.282 1.633 17521
-0.485 1.286 1.629 22653
-0.487 1.290 1.625 21281
-0.488 1.294 1.621 17876
-0.488 1.293 1.611 15333
-0.487 1.292 1.601 10764
-0.499 1.322 1.625 13705
-0.500 1.326 1.621 25770
-0.502 1.330 1.617 24893
-0.503 1.334 1.613 16101
-0.509 1.348 1.620 15377
-0.514 1.363 1.627 17383
-0.516 1.367 1.622 17995
-0.521 1.381 1.629 23233
-0.523 1.385 1.625 22120
-0.526 1.395 1.626 21300
-0.530 1.404 1.627 20841
-0.537 1.424 1.639 25476
-0.539 1.428 1.635 35992
-0.540 1.432 1.630 29693
-0.542 1.436 1.626 25467
-0.543 1.440 1.621 29243
-0.547 1.450 1.622 25177
-0.548 1.454 1.617 23400
-0.550 1.458 1.613 23385
-0.553 1.467 1.613 16799
-0.574 1.520 1.657 16003
-0.577 1.530 1.657 18216
-0.581 1.539 1.658 13076
-0.586 1.554 1.664 12809
-0.588 1.559 1.659 16274
-0.592 1.568 1.659 14089
-0.595 1.578 1.659 12436
-0.599 1.588 1.659 12385
-0.605 1.603 1.665 12079
-0.613 1.624 1.675 13716
-0.616 1.634 1.675 15360
-0.618 1.638 1.670 16494
-0.622 1.647 1.670 19682
-0.623 1.652 1.665 14823
-0.633 1.678 1.680 13117
-0.637 1.688 1.680 17438
-0.636 1.687 1.670 14710
-0.638 1.691 1.664 11417
-0.642 1.701 1.664 15221
-0.650 1.722 1.674 15663
-0.658 1.743 1.683 13625
-0.659 1.748 1.678 11337
-0.663 1.758 1.677 11323
-0.665 1.762 1.672 8655
-0.673 1.783 1.681 6161
-0.670 1.776 1.665 10007
-0.674 1.786 1.665 14683
-0.680 1.802 1.669 20886
-0.683 1.812 1.668 20786
-0.694 1.839 1.681 12492
-0.702 1.861 1.690 11344
-0.708 1.877 1.694 17829
-0.710 1.881 1.688 16809
-0.714 1.891 1.687 12270
-0.715 1.896 1.681 12392
-0.714 1.894 1.670 13433
-0.721 1.910 1.673 14102
-0.724 1.920 1.672 14105
-0.730 1.936 1.675 15853
-0.734 1.946 1.674 15929
-0.736 1.950 1.668 10995
-0.740 1.961 1.666 6973
-0.741 1.965 1.660 9098
-0.736 1.951 1.640 13972
-0.735 1.949 1.629 12312
-0.760 2.013 1.669 13364
-0.763 2.024 1.667 17226
-0.765 2.028 1.660 19642
-0.764 2.026 1.649 22246
-0.761 2.018 1.634 27381
-0.763 2.022 1.628 25390
-0.767 2.032 1.626 22759
-0.768 2.036 1.619 19380
-0.770 2.040 1.613 20107
-0.771 2.044 1.607 21129
-0.773 2.048 1.600 18046
-0.774 2.052 1.594 15103
-0.776 2.056 1.587 12700
-0.775 2.054 1.576 13100
-0.779 2.064 1.574 11176
-0.780 2.068 1.568 6818
-0.838 2.222 1.663 6888
-0.840 2.226 1.656 8548
-0.837 2.217 1.640 8706
-0.836 2.215 1.629 7148
-0.856 2.270 1.655 6221
-0.860 2.280 1.652 5640
-0.867 2.297 1.653 5128
-0.873 2.314 1.654 5501
-0.882 2.337 1.659 6324
-0.890 2.360 1.664 7375
-0.892 2.364 1.657 6499
-0.930 2.464 1.709 6710
-0.934 2.475 1.706 8974
-0.935 2.479 1.698 10382
-0.934 2.477 1.686 9212
-0.936 2.481 1.678 6994
-0.947 2.511 1.686 6253
-0.951 2.521 1.682 5944
-0.953 2.526 1.674 6673
-0.976 2.588 1.701 8055
-0.978 2.592 1.693 10404
-0.977 2.590 1.681 9666
-0.979 2.594 1.673 9226
-0.978 2.592 1.661 7412
-0.972 2.576 1.641 7015
-0.976 2.587 1.637 5551
-1.000 2.650 1.662 6972
-1.001 2.654 1.654 6047
-1.003 2.658 1.645 5122
-1.012 2.682 1.648 5609
-1.016 2.693 1.643 6477
-1.017 2.697 1.635 5399
-1.019 2.701 1.626 4322
-1.050 2.784 1.660 3553
-1.082 2.868 1.694 4227
-1.083 2.872 1.685 4470
-1.085 2.876 1.676 4714
-1.087 2.880 1.667 6501
-1.091 2.891 1.662 8241
-1.097 2.908 1.659 7733
-1.101 2.919 1.654 7651
-1.100 2.917 1.641 6870
-1.102 2.921 1.632 6202
-1.103 2.925 1.623 7262
-1.105 2.929 1.613 8549
-1.106 2.933 1.604 8776
-1.111 2.944 1.598 7756
-1.150 3.049 1.638 7421
-1.152 3.053 1.629 6861
-1.171 3.104 1.642 7179
-1.173 3.108 1.632 6612
-1.174 3.112 1.622 6044
-1.176 3.116 1.612 6044
-1.177 3.120 1.602 3022
-0.234 0.624 1.688 15191
-0.235 0.628 1.686 14924
-0.238 0.636 1.691 14855
-0.240 0.640 1.689 13019
-0.242 0.647 1.694 11209
-0.244 0.651 1.692 11209
-0.246 0.656 1.690 9629
-0.247 0.660 1.688 8050
-0.248 0.661 1.679 7646
-0.247 0.659 1.662 8259
-0.249 0.666 1.667 10171
-0.252 0.673 1.672 12470
-0.254 0.678 1.670 13170
-0.255 0.682 1.668 13870
-0.257 0.686 1.666 13224
-0.258 0.690 1.664 12470
-0.259 0.691 1.654 12488
-0.260 0.695 1.652 13475
-0.262 0.699 1.650 14462
-0.263 0.703 1.648 12808
-0.265 0.707 1.645 11154
-0.265 0.708 1.636 8862
-0.267 0.712 1.634 6859
-0.268 0.716 1.632 10673
-0.270 0.720 1.629 14453
-0.271 0.724 1.627 15776
-0.273 0.728 1.625 16603
-0.274 0.732 1.622 16176
-0.277 0.740 1.627 15634
-0.281 0.751 1.638 15972
-0.286 0.762 1.650 18952
-0.287 0.766 1.647 20446
-0.290 0.774 1.652 21801
-0.293 0.782 1.656 23944
-0.294 0.786 1.654 23285
-0.296 0.790 1.651 22627
-0.297 0.794 1.649 17262
-0.298 0.795 1.639 10839
-0.299 0.799 1.637 10037
-0.301 0.803 1.634 7463
-0.318 0.849 1.706 6685
-0.318 0.849 1.697 6226
-0.318 0.849 1.687 6572
-0.318 0.850 1.678 9523
-0.321 0.858 1.682 12493
-0.323 0.862 1.679 13327
-0.324 0.866 1.676 11474
-0.327 0.874 1.680 6663
-0.332 0.886 1.691 4033
-0.326 0.871 1.655 4372
-0.331 0.883 1.665 7008
-0.334 0.891 1.669 9812
-0.337 0.899 1.673 11246
-0.341 0.911 1.683 12287
-0.346 0.924 1.694 12995
-0.348 0.928 1.691 15589
-0.349 0.932 1.688 18222
-0.351 0.936 1.685 18263
-0.357 0.953 1.702 18402
-0.360 0.961 1.705 22545
-0.362 0.966 1.702 20026
-0.363 0.970 1.699 17116
-0.366 0.978 1.702 18642
-0.370 0.987 1.706 18014
-0.370 0.987 1.696 17677
-0.371 0.991 1.693 20566
-0.373 0.995 1.690 18993
-0.373 0.995 1.680 16554
-0.373 0.995 1.671 21792
-0.374 0.999 1.667 23776
-0.376 1.003 1.664 19102
-0.377 1.007 1.661 16348
-0.379 1.012 1.658 13326
-0.384 1.024 1.667 10708
-0.389 1.037 1.677 10668
-0.388 1.037 1.667 11413
-0.388 1.037 1.658 12055
-0.390 1.041 1.654 9287
-0.400 1.067 1.682 9699
-0.401 1.072 1.679 10382
-0.405 1.080 1.682 7284
-0.408 1.089 1.685 5510
-0.409 1.093 1.681 7077
-0.413 1.102 1.684 10366
-0.413 1.102 1.674 11624
-0.414 1.106 1.671 8567
-0.417 1.115 1.673 8242
-0.421 1.123 1.676 11067
-0.427 1.141 1.691 11127
-0.431 1.150 1.694 10801
-0.427 1.141 1.672 11697
-0.429 1.145 1.668 12025
-0.430 1.149 1.664 14769
-0.432 1.153 1.661 19833
-0.433 1.157 1.657 18756
-0.437 1.166 1.659 14013
-0.444 1.184 1.674 14894
-0.443 1.184 1.664 15280
-0.445 1.188 1.660 11790
-0.446 1.192 1.656 12531
-0.446 1.191 1.647 23003
-0.448 1.195 1.643 30024
-0.451 1.204 1.645 21805
-0.462 1.233 1.671 15479
-0.460 1.227 1.655 20414
-0.463 1.236 1.657 27678
-0.466 1.245 1.659 22979
-0.470 1.254 1.661 17391
-0.470 1.254 1.651 21327
-0.471 1.258 1.647 29217
-0.473 1.262 1.643 30912
-0.474 1.266 1.639 20782
-0.478 1.275 1.641 18416
-0.479 1.279 1.637 18456
-0.481 1.283 1.633 17653
-0.482 1.287 1.629 22671
-0.484 1.291 1.625 20675
-0.485 1.295 1.621 16973
-0.485 1.294 1.611 14112
-0.484 1.293 1.601 10047
-0.497 1.328 1.631 14747
-0.497 1.327 1.621 26773
-0.498 1.331 1.617 25822
-0.500 1.335 1.613 15866
-0.505 1.349 1.620 17398
-0.511 1.364 1.627 19028
-0.512 1.368 1.622 16527
-0.518 1.382 1.629 22694
-0.521 1.392 1.630 24000
-0.523 1.396 1.626 24249
-0.526 1.405 1.627 27611
-0.532 1.420 1.634 34294
-0.535 1.429 1.635 42942
-0.537 1.433 1.630 33031
-0.538 1.437 1.626 27259
-0.540 1.441 1.621 31536
-0.541 1.445 1.616 28265
-0.545 1.455 1.617 26598
-0.546 1.459 1.613 24898
-0.548 1.463 1.608 18222
-0.568 1.516 1.651 14893
-0.573 1.531 1.657 16379
-0.575 1.535 1.653 12159
-0.583 1.556 1.664 10306
-0.584 1.560 1.659 12862
-0.588 1.570 1.659 11244
-0.591 1.579 1.659 13273
-0.597 1.595 1.665 17484
-0.601 1.604 1.665 16144
-0.609 1.625 1.675 16743
-0.612 1.635 1.675 16552
-0.614 1.639 1.670 14658
-0.618 1.649 1.670 18849
-0.621 1.659 1.670 14790
-0.629 1.680 1.680 13922
-0.633 1.690 1.680 18608
-0.632 1.688 1.670 15596
-0.634 1.692 1.664 11000
-0.640 1.708 1.669 14728
-0.648 1.729 1.679 17903
-0.651 1.739 1.678 15420
-0.655 1.749 1.678 12357
-0.659 1.759 1.677 13006
-0.660 1.763 1.672 10817
-0.668 1.785 1.681 8326
-0.668 1.783 1.670 11752
-0.672 1.793 1.669 15458
-0.675 1.803 1.669 22966
-0.679 1.813 1.668 25446
-0.689 1.841 1.681 16574
-0.695 1.857 1.685 12725
-0.701 1.873 1.689 17987
-0.705 1.883 1.688 16827
-0.707 1.887 1.682 12457
-0.708 1.891 1.676 13055
-0.710 1.896 1.670 14917
-0.716 1.912 1.673 16146
-0.720 1.922 1.672 15527
-0.726 1.938 1.675 17126
-0.727 1.942 1.669 16850
-0.729 1.946 1.663 11344
-0.721 1.926 1.639 6974
-0.739 1.973 1.665 8406
-0.729 1.946 1.636 12351
-0.730 1.951 1.629 10871
-0.755 2.015 1.669 11405
-0.759 2.026 1.667 15291
-0.760 2.030 1.660 18069
-0.757 2.022 1.645 21482
-0.756 2.020 1.634 28156
-0.758 2.024 1.628 26842
-0.762 2.034 1.626 24027
-0.761 2.032 1.615 20465
-0.765 2.042 1.613 20759
-0.766 2.046 1.607 21068
-0.768 2.050 1.600 17513
-0.771 2.060 1.598 15368
-0.771 2.058 1.587 13489
-0.772 2.062 1.581 13562
-0.774 2.066 1.574 11399
-0.777 2.076 1.572 6764
-0.833 2.224 1.663 6813
-0.853 2.278 1.689 8689
-0.831 2.219 1.640 8602
-0.828 2.211 1.625 7215
-0.851 2.272 1.655 5618
-0.857 2.288 1.656 5423
-0.861 2.299 1.653 5538
-0.863 2.303 1.646 5482
-0.876 2.339 1.659 5841
-0.885 2.362 1.664 7008
-0.927 2.475 1.725 6277
-0.926 2.473 1.713 8623
-0.928 2.477 1.706 11488
-0.929 2.481 1.698 12678
-0.931 2.485 1.690 10897
-0.935 2.496 1.686 8548
-0.939 2.507 1.682 7923
-0.943 2.517 1.678 7363
-0.942 2.515 1.666 8049
-0.970 2.590 1.701 8914
-0.972 2.595 1.693 11427
-0.973 2.599 1.684 10461
-0.972 2.596 1.673 9530
-0.974 2.601 1.664 7259
-0.963 2.572 1.637 6498
-0.994 2.655 1.674 5327
-0.996 2.659 1.666 6900
-0.997 2.663 1.657 5947
-0.999 2.667 1.649 4995
-1.003 2.678 1.644 5400
-1.007 2.688 1.639 6005
-1.008 2.692 1.631 5042
-1.010 2.697 1.623 4080
-1.071 2.859 1.700 3331
-1.075 2.870 1.694 4381
-1.077 2.874 1.685 4624
-1.078 2.879 1.676 4867
-1.082 2.890 1.671 6774
-1.086 2.900 1.665 8684
-1.090 2.911 1.659 8450
-1.094 2.922 1.654 8634
-1.093 2.919 1.641 6976
-1.095 2.923 1.632 5482
-1.099 2.934 1.626 6782
-1.103 2.945 1.620 8405
-1.102 2.942 1.608 8534
-1.139 3.041 1.644 7967
-1.143 3.051 1.638 8514
-1.144 3.055 1.629 7779
-1.164 3.107 1.642 8200
-1.165 3.111 1.632 7604
-1.167 3.115 1.622 7008
-1.168 3.119 1.612 7008
-1.170 3.123 1.602 3504
-0.233 0.625 1.688 14474
-0.234 0.629 1.686 14143
-0.237 0.636 1.691 14068
-0.239 0.640 1.689 12159
-0.241 0.648 1.694 10298
-0.243 0.652 1.692 10298
-0.245 0.656 1.690 8973
-0.246 0.660 1.688 7648
-0.245 0.658 1.672 7567
-0.246 0.659 1.662 8440
-0.248 0.666 1.667 10158
-0.251 0.674 1.672 12383
-0.253 0.678 1.670 12706
-0.254 0.682 1.668 13029
-0.256 0.686 1.666 12517
-0.257 0.690 1.664 11621
-0.258 0.691 1.654 11463
-0.259 0.695 1.652 12565
-0.261 0.700 1.650 13666
-0.262 0.704 1.648 11967
-0.264 0.708 1.645 10267
-0.264 0.708 1.636 8192
-0.266 0.712 1.634 6329
-0.267 0.717 1.632 9728
-0.269 0.721 1.629 13128
-0.270 0.725 1.627 14756
-0.272 0.729 1.625 16102
-0.273 0.733 1.622 16140
-0.276 0.740 1.627 15734
-0.280 0.752 1.638 15969
-0.284 0.763 1.650 18258
-0.286 0.767 1.647 19308
-0.289 0.775 1.652 20434
-0.292 0.782 1.656 22279
-0.293 0.787 1.654 21477
-0.295 0.791 1.651 20675
-0.296 0.795 1.649 15417
-0.296 0.795 1.639 9215
-0.298 0.799 1.637 8441
-0.301 0.807 1.641 6722
-0.316 0.849 1.706 6632
-0.318 0.853 1.704 6052
-0.317 0.850 1.687 6071
-0.318 0.854 1.685 8462
-0.320 0.858 1.682 10980
-0.321 0.863 1.679 11640
-0.323 0.867 1.676 9867
-0.325 0.871 1.674 5777
-0.325 0.871 1.664 3675
-0.325 0.871 1.655 4305
-0.331 0.887 1.672 6900
-0.334 0.896 1.676 9387
-0.335 0.900 1.673 11023
-0.340 0.912 1.683 12383
-0.344 0.924 1.694 12906
-0.346 0.928 1.691 15577
-0.348 0.933 1.688 18859
-0.348 0.933 1.678 19538
-0.355 0.953 1.702 19857
-0.359 0.962 1.705 24213
-0.360 0.966 1.702 21230
-0.362 0.970 1.699 18054
-0.365 0.979 1.702 19413
-0.368 0.987 1.706 18333
-0.368 0.987 1.696 17876
-0.370 0.991 1.693 20786
-0.371 0.996 1.690 19068
-0.371 0.996 1.680 16313
-0.371 0.996 1.671 21665
-0.373 1.000 1.667 23775
-0.374 1.004 1.664 19013
-0.376 1.008 1.661 15561
-0.377 1.012 1.658 12485
-0.382 1.025 1.667 11319
-0.387 1.038 1.677 11889
-0.388 1.042 1.674 11705
-0.387 1.037 1.658 11784
-0.388 1.042 1.654 9381
-0.398 1.068 1.682 9623
-0.400 1.072 1.679 10797
-0.403 1.081 1.682 7528
-0.408 1.094 1.691 4179
-0.409 1.098 1.688 5745
-0.411 1.103 1.684 10090
-0.411 1.102 1.674 12522
-0.412 1.106 1.671 9483
-0.416 1.115 1.673 9002
-0.419 1.124 1.676 11818
-0.424 1.137 1.685 10773
-0.427 1.146 1.687 9631
-0.425 1.141 1.672 10803
-0.427 1.145 1.668 12231
-0.428 1.149 1.664 14188
-0.430 1.154 1.661 18046
-0.432 1.158 1.657 17912
-0.437 1.171 1.665 13353
-0.442 1.185 1.674 13901
-0.442 1.184 1.664 13699
-0.443 1.189 1.660 10305
-0.443 1.188 1.650 11456
-0.444 1.192 1.647 21864
-0.446 1.196 1.643 28878
-0.449 1.205 1.645 21092
-0.460 1.234 1.671 14559
-0.460 1.233 1.661 20273
-0.461 1.237 1.657 28175
-0.464 1.246 1.659 24556
-0.468 1.255 1.661 19902
-0.468 1.254 1.651 22220
-0.469 1.258 1.647 29224
-0.471 1.263 1.643 31104
-0.472 1.267 1.639 20750
-0.476 1.276 1.641 17693
-0.477 1.280 1.637 17133
-0.479 1.284 1.633 16421
-0.482 1.293 1.635 20658
-0.482 1.292 1.625 18118
-0.483 1.296 1.621 14772
-0.485 1.300 1.617 13206
-0.486 1.304 1.612 10707
-0.499 1.339 1.642 16289
-0.495 1.328 1.621 25715
-0.496 1.332 1.617 24524
-0.500 1.341 1.618 14862
-0.505 1.355 1.625 17869
-0.509 1.365 1.627 18692
-0.510 1.369 1.622 14921
-0.520 1.394 1.640 22463
-0.521 1.398 1.636 26052
-0.523 1.402 1.631 27515
-0.524 1.406 1.627 32707
-0.530 1.421 1.634 41424
-0.531 1.425 1.629 47149
-0.535 1.434 1.630 34656
-0.536 1.438 1.626 27999
-0.538 1.442 1.621 31999
-0.539 1.446 1.616 29451
-0.543 1.456 1.617 29019
-0.544 1.460 1.613 25336
-0.546 1.464 1.608 18980
-0.559 1.501 1.635 15626
-0.571 1.532 1.657 14317
-0.573 1.536 1.653 11834
-0.578 1.551 1.658 8436
-0.582 1.561 1.659 9127
-0.587 1.576 1.664 8519
-0.591 1.586 1.664 14236
-0.595 1.596 1.665 21960
-0.600 1.611 1.670 19679
-0.606 1.626 1.675 18919
-0.612 1.642 1.681 17096
-0.611 1.640 1.670 12320
-0.615 1.650 1.670 16108
-0.621 1.665 1.675 13990
-0.629 1.687 1.685 14248
-0.630 1.691 1.680 18954
-0.630 1.689 1.670 16141
-0.631 1.693 1.664 11027
-0.639 1.715 1.674 14759
-0.645 1.730 1.679 19560
-0.649 1.740 1.678 16682
-0.650 1.745 1.673 13245
-0.656 1.760 1.677 14850
-0.660 1.770 1.676 13790
-0.664 1.780 1.676 10936
-0.665 1.784 1.670 13168
-0.671 1.800 1.674 15953
-0.675 1.810 1.674 24427
-0.678 1.820 1.673 28997
-0.684 1.836 1.677 20310
-0.690 1.852 1.680 14197
-0.698 1.874 1.689 17976
-0.702 1.884 1.688 16785
-0.704 1.888 1.682 12853
-0.703 1.887 1.671 13610
-0.707 1.897 1.670 15826
-0.711 1.907 1.669 17161
-0.717 1.923 1.672 16163
-0.723 1.939 1.675 17893
-0.724 1.943 1.669 17439
-0.726 1.947 1.663 11858
-0.718 1.927 1.639 7826
-0.740 1.986 1.674 8127
-0.726 1.948 1.636 10759
-0.725 1.946 1.625 9567
-0.752 2.016 1.669 8850
-0.755 2.027 1.667 13037
-0.757 2.031 1.660 16420
-0.754 2.023 1.645 20275
-0.753 2.021 1.634 27412
-0.755 2.025 1.628 26405
-0.756 2.029 1.621 23539
-0.758 2.033 1.615 20344
-0.762 2.043 1.613 20839
-0.763 2.047 1.607 20967
-0.764 2.051 1.600 17246
-0.768 2.061 1.598 15476
-0.798 2.140 1.643 13972
-0.769 2.063 1.581 13554
-0.773 2.073 1.578 11353
-0.776 2.083 1.576 6812
-0.848 2.275 1.697 6661
-0.850 2.279 1.689 8780
-0.828 2.221 1.640 8208
-0.822 2.206 1.621 7212
-0.819 2.197 1.606 5540
-0.858 2.302 1.665 5550
-0.857 2.300 1.653 5950
-0.859 2.304 1.646 5801
-0.870 2.334 1.655 5624
-0.886 2.376 1.672 6551
-0.923 2.476 1.725 7699
-0.922 2.474 1.713 10466
-0.921 2.472 1.702 13817
-0.925 2.483 1.698 14724
-0.927 2.487 1.690 12570
-0.931 2.497 1.686 10145
-0.932 2.502 1.678 9514
-0.936 2.512 1.674 8958
-0.938 2.516 1.666 9639
-0.966 2.592 1.701 9624
-0.968 2.596 1.693 12214
-0.969 2.600 1.684 11056
-0.971 2.605 1.676 9898
-0.970 2.602 1.664 7203
-0.959 2.574 1.637 6139
-0.990 2.656 1.674 5238
-0.992 2.660 1.666 6789
-0.993 2.665 1.657 5874
-0.997 2.675 1.653 4978
-0.999 2.679 1.644 5297
-1.000 2.683 1.636 5616
-1.002 2.687 1.627 4836
-1.003 2.691 1.619 4055
-1.059 2.841 1.689 3654
-1.068 2.865 1.691 4536
-1.070 2.870 1.682 4736
-1.074 2.880 1.676 4980
-1.078 2.891 1.671 6896
-1.082 2.902 1.665 8830
-1.086 2.913 1.659 8837
-1.090 2.924 1.654 9252
-1.091 2.928 1.644 7111
-1.090 2.925 1.632 5121
-1.094 2.936 1.626 6401
-1.098 2.947 1.620 8123
-1.100 2.951 1.611 8123
-1.134 3.042 1.644 8268
-1.138 3.053 1.638 9238
-1.140 3.057 1.629 8411
-1.159 3.109 1.642 8977
-1.160 3.113 1.632 8328
-1.162 3.117 1.622 7680
-1.163 3.121 1.612 7680
-1.165 3.125 1.602 3840
-0.795 2.134 1.136 236
-0.231 0.625 1.688 13842
-0.233 0.629 1.686 13492
-0.236 0.637 1.691 13330
-0.237 0.641 1.689 11367
-0.240 0.648 1.694 9507
-0.241 0.652 1.692 9507
-0.243 0.657 1.690 8329
-0.245 0.661 1.688 7150
-0.244 0.659 1.672 7239
-0.244 0.660 1.662 8152
-0.247 0.667 1.667 9704
-0.250 0.674 1.672 11801
-0.251 0.679 1.670 11971
-0.253 0.683 1.668 12142
-0.254 0.687 1.666 11730
-0.256 0.691 1.664 10760
-0.256 0.692 1.654 10510
-0.258 0.696 1.652 11541
-0.259 0.700 1.650 12571
-0.261 0.704 1.648 10896
-0.262 0.708 1.645 9221
-0.262 0.709 1.636 7299
-0.264 0.713 1.634 5605
-0.265 0.717 1.632 8531
-0.267 0.721 1.629 11528
-0.268 0.725 1.627 13555
-0.270 0.729 1.625 15496
-0.271 0.733 1.622 15967
-0.274 0.741 1.627 15669
-0.278 0.752 1.638 15767
-0.281 0.760 1.643 17254
-0.284 0.768 1.647 17857
-0.287 0.775 1.652 18830
-0.290 0.783 1.656 20530
-0.291 0.787 1.654 19662
-0.293 0.791 1.651 18793
-0.294 0.795 1.649 13619
-0.295 0.796 1.639 7787
-0.296 0.800 1.637 7149
-0.299 0.808 1.641 6196
-0.314 0.850 1.706 6051
-0.316 0.854 1.704 5822
-0.315 0.851 1.687 5909
-0.316 0.855 1.685 7730
-0.318 0.859 1.682 9520
-0.319 0.863 1.679 9946
-0.321 0.867 1.676 8380
-0.323 0.872 1.674 5019
-0.328 0.888 1.691 3406
-0.324 0.876 1.661 4036
-0.329 0.888 1.672 6719
-0.332 0.896 1.676 9025
-0.335 0.904 1.680 10876
-0.338 0.913 1.683 12184
-0.342 0.925 1.694 12267
-0.344 0.929 1.691 14969
-0.345 0.933 1.688 19158
-0.345 0.934 1.678 20648
-0.353 0.954 1.702 20883
-0.356 0.963 1.705 24948
-0.359 0.971 1.709 21980
-0.359 0.971 1.699 19147
-0.363 0.980 1.702 20561
-0.366 0.988 1.706 19087
-0.366 0.988 1.696 18256
-0.367 0.992 1.693 21142
-0.369 0.997 1.690 19197
-0.370 1.001 1.687 16076
-0.370 1.001 1.677 21460
-0.370 1.001 1.667 23464
-0.372 1.005 1.664 18658
-0.373 1.009 1.661 14636
-0.375 1.013 1.658 11602
-0.381 1.030 1.674 12248
-0.386 1.043 1.683 13674
-0.386 1.043 1.674 12561
-0.384 1.038 1.658 11705
-0.387 1.047 1.661 9776
-0.396 1.069 1.682 10981
-0.397 1.073 1.679 11739
-0.402 1.086 1.688 8090
-0.405 1.095 1.691 3870
-0.405 1.095 1.681 4498
-0.407 1.099 1.678 9944
-0.408 1.103 1.674 13950
-0.410 1.107 1.671 11491
-0.413 1.116 1.673 10049
-0.415 1.120 1.670 12030
-0.421 1.138 1.685 10199
-0.425 1.147 1.687 8491
-0.423 1.142 1.672 9994
-0.424 1.146 1.668 12291
-0.426 1.150 1.664 13956
-0.427 1.155 1.661 16525
-0.429 1.159 1.657 16481
-0.434 1.172 1.665 12058
-0.439 1.186 1.674 13099
-0.439 1.186 1.664 13051
-0.438 1.185 1.654 10133
-0.438 1.184 1.644 10984
-0.442 1.193 1.647 20251
-0.443 1.197 1.643 27797
-0.445 1.201 1.639 20671
-0.457 1.235 1.671 13442
-0.457 1.234 1.661 19333
-0.458 1.238 1.657 27088
-0.462 1.247 1.659 24427
-0.465 1.256 1.661 20394
-0.465 1.255 1.651 21828
-0.466 1.260 1.647 28942
-0.468 1.264 1.643 32135
-0.469 1.268 1.639 22348
-0.471 1.272 1.635 18050
-0.472 1.276 1.631 16513
-0.477 1.290 1.639 16319
-0.479 1.294 1.635 20025
-0.479 1.293 1.625 16927
-0.480 1.297 1.621 14424
-0.482 1.301 1.617 14047
-0.485 1.310 1.618 13383
-0.496 1.340 1.642 18170
-0.492 1.329 1.621 26031
-0.493 1.333 1.617 24464
-0.497 1.342 1.618 16004
-0.502 1.357 1.625 20352
-0.504 1.361 1.621 19577
-0.507 1.370 1.622 13528
-0.516 1.395 1.640 22722
-0.518 1.399 1.636 28359
-0.519 1.403 1.631 29120
-0.521 1.407 1.627 35148
-0.524 1.417 1.628 45460
-0.528 1.426 1.629 48602
-0.531 1.435 1.630 33882
-0.535 1.445 1.631 27278
-0.534 1.444 1.621 30112
-0.536 1.448 1.616 28747
-0.539 1.457 1.617 31739
-0.541 1.461 1.613 25988
-0.546 1.476 1.619 20282
-0.552 1.491 1.625 20225
-0.561 1.517 1.641 13038
-0.571 1.543 1.658 12181
-0.577 1.558 1.664 7889
-0.580 1.568 1.664 6012
-0.582 1.572 1.659 6083
-0.587 1.587 1.664 14668
-0.591 1.597 1.665 25783
-0.595 1.607 1.665 22695
-0.600 1.622 1.670 20079
-0.608 1.643 1.681 16553
-0.610 1.647 1.675 9416
-0.611 1.651 1.670 12306
-0.619 1.673 1.680 12478
-0.625 1.688 1.685 14172
-0.626 1.692 1.680 18701
-0.628 1.696 1.675 16682
-0.629 1.701 1.669 11835
-0.637 1.722 1.679 15260
-0.641 1.732 1.679 20353
-0.642 1.736 1.673 17660
-0.646 1.746 1.673 14451
-0.650 1.756 1.672 16901
-0.656 1.772 1.676 17195
-0.657 1.776 1.671 13678
-0.661 1.786 1.670 14280
-0.665 1.796 1.669 16446
-0.670 1.812 1.674 25399
