0.348 1.168 1.681 11393
0.352 1.182 1.690 15208
0.354 1.191 1.692 20409
0.356 1.195 1.689 18083
0.355 1.195 1.679 11176
0.358 1.204 1.681 6892
0.364 1.223 1.696 6239
0.362 1.217 1.680 11845
0.362 1.217 1.670 20782
0.363 1.221 1.666 24477
0.366 1.230 1.668 25587
0.369 1.239 1.671 20268
0.370 1.243 1.667 11871
0.371 1.248 1.663 10279
0.378 1.272 1.683 13899
0.378 1.271 1.673 14562
0.380 1.275 1.669 12253
0.382 1.285 1.671 14146
0.384 1.289 1.667 12921
0.386 1.298 1.669 14264
0.389 1.308 1.671 21895
0.392 1.317 1.672 19643
0.393 1.321 1.668 11120
0.394 1.326 1.664 7662
0.399 1.340 1.672 6855
0.402 1.350 1.673 9645
0.404 1.359 1.675 16349
0.406 1.363 1.671 15469
0.409 1.373 1.672 10027
0.413 1.388 1.679 10802
0.414 1.392 1.675 8706
0.411 1.380 1.654 8220
0.415 1.395 1.661 10996
0.421 1.415 1.673 13170
0.422 1.420 1.669 12985
0.427 1.435 1.676 13822
0.428 1.439 1.671 21258
0.429 1.443 1.667 22598
0.432 1.453 1.668 15729
0.435 1.462 1.669 9770
0.438 1.472 1.670 10209
0.439 1.476 1.666 14739
0.442 1.486 1.667 20173
0.445 1.496 1.667 15831
0.448 1.505 1.668 12788
0.451 1.515 1.669 14244
0.454 1.525 1.670 13952
0.457 1.535 1.671 10422
0.460 1.545 1.671 9035
0.463 1.554 1.672 10214
0.464 1.559 1.667 9391
0.467 1.568 1.668 10177
0.471 1.584 1.673 8985
0.476 1.599 1.679 7834
0.479 1.609 1.679 7261
0.478 1.608 1.669 5148
0.480 1.612 1.664 5755
0.483 1.622 1.664 6721
0.486 1.632 1.665 7136
0.489 1.642 1.665 11128
0.490 1.646 1.660 11667
0.495 1.662 1.665 9601
0.499 1.678 1.670 10945
0.504 1.693 1.675 9156
0.509 1.709 1.680 5091
0.506 1.702 1.665 2199
0.518 1.741 1.690 2962
0.519 1.745 1.685 4960
0.528 1.773 1.700 6435
0.531 1.783 1.699 8911
0.537 1.805 1.709 9038
0.542 1.821 1.713 12210
0.547 1.838 1.717 14450
0.550 1.848 1.717 16623
0.551 1.852 1.711 18477
0.552 1.857 1.705 18657
0.552 1.855 1.695 15362
0.553 1.859 1.689 14297
0.555 1.864 1.683 16798
0.558 1.874 1.682 17339
0.557 1.872 1.672 13138
0.557 1.870 1.661 8665
0.563 1.893 1.670 7815
0.570 1.915 1.678 8489
0.575 1.931 1.682 5945
0.594 1.997 1.723 4043
0.597 2.007 1.722 4203
0.597 2.005 1.711 4210
0.593 1.991 1.691 3659
0.610 2.051 1.727 2857
0.615 2.067 1.730 6441
0.617 2.072 1.723 8986
0.616 2.070 1.712 9391
0.615 2.068 1.701 8208
0.619 2.079 1.700 5443
0.627 2.108 1.711 3363
0.632 2.125 1.714 4673
0.635 2.135 1.712 6798
0.637 2.140 1.705 7143
0.638 2.144 1.699 5768
0.639 2.148 1.692 5344
0.641 2.153 1.686 6998
0.640 2.151 1.675 6393
0.638 2.142 1.659 5458
0.659 2.216 1.701 4837
0.665 2.233 1.703 7070
0.668 2.244 1.700 10561
0.669 2.248 1.693 11843
0.670 2.252 1.686 11701
0.672 2.257 1.679 9871
0.673 2.261 1.672 8184
0.674 2.265 1.665 5626
0.691 2.321 1.692 3636
0.696 2.338 1.694 3996
0.697 2.342 1.686 3710
0.696 2.340 1.675 3907
0.698 2.344 1.668 4433
0.699 2.349 1.661 3954
0.714 2.398 1.682 5950
0.717 2.409 1.679 7446
0.726 2.439 1.688 6840
0.731 2.457 1.688 6644
0.734 2.468 1.685 5465
0.737 2.478 1.681 6260
0.739 2.483 1.674 7161
0.740 2.487 1.666 7549
0.741 2.491 1.658 7146
0.745 2.502 1.655 6438
0.746 2.506 1.647 4878
0.755 2.537 1.655 3686
0.772 2.594 1.678 3653
0.775 2.605 1.674 4283
0.774 2.602 1.662 4023
0.776 2.607 1.654 2627
0.809 2.717 1.707 1480
0.804 2.702 1.687 1364
0.803 2.699 1.675 1564
0.820 2.757 1.696 1915
0.822 2.761 1.688 2692
0.821 2.759 1.676 3576
0.822 2.763 1.667 4562
0.824 2.768 1.659 4113
0.823 2.765 1.647 3681
0.836 2.810 1.660 3164
0.837 2.814 1.651 2933
0.863 2.899 1.685 2293
0.864 2.904 1.676 3178
0.865 2.908 1.668 3350
0.865 2.905 1.655 3530
0.866 2.910 1.646 3373
0.867 2.914 1.637 3205
0.870 2.925 1.632 2973
0.876 2.943 1.630 2849
0.879 2.954 1.624 2585
0.907 3.047 1.659 3102
0.908 3.051 1.649 2932
0.909 3.055 1.640 2763
0.910 3.060 1.631 2763
0.912 3.064 1.621 1959
0.929 3.123 1.638 1945
0.931 3.127 1.629 1415
0.924 3.104 1.606 919
0.964 3.239 1.658 1358
0.965 3.244 1.648 1825
0.966 3.248 1.638 1825
0.968 3.252 1.628 912
0.184 0.610 1.623 14079
0.186 0.618 1.628 11982
0.188 0.625 1.634 10538
0.190 0.632 1.639 10010
0.193 0.640 1.644 9903
0.195 0.647 1.649 9884
0.197 0.654 1.654 10606
0.198 0.659 1.652 11653
0.204 0.676 1.679 12871
0.206 0.683 1.684 15065
0.208 0.691 1.689 16720
0.210 0.699 1.694 18857
0.212 0.703 1.692 17042
0.216 0.717 1.711 19435
0.217 0.722 1.708 23498
0.219 0.726 1.706 19956
0.220 0.730 1.704 16413
0.221 0.735 1.702 23184
0.223 0.739 1.699 29954
0.224 0.743 1.697 31997
0.224 0.744 1.688 34181
0.227 0.752 1.692 32791
0.229 0.760 1.697 31563
0.231 0.768 1.702 30739
0.234 0.776 1.706 32069
0.236 0.784 1.711 26712
0.240 0.795 1.722 22660
0.241 0.799 1.720 19703
0.243 0.808 1.724 17452
0.246 0.816 1.728 13627
0.245 0.813 1.712 10636
0.246 0.817 1.710 14097
0.250 0.829 1.721 21347
0.251 0.833 1.718 26894
0.251 0.834 1.709 27773
0.253 0.838 1.706 29320
0.253 0.839 1.697 24426
0.253 0.839 1.687 20314
0.255 0.847 1.691 18635
0.258 0.856 1.695 17631
0.259 0.860 1.693 18479
0.260 0.864 1.690 19777
0.263 0.872 1.694 21207
0.265 0.881 1.698 18789
0.267 0.885 1.695 19079
0.269 0.893 1.699 21862
0.270 0.898 1.697 16858
0.274 0.910 1.707 10450
0.278 0.922 1.718 9730
0.280 0.931 1.722 9449
0.283 0.939 1.725 7916
0.284 0.944 1.722 5896
0.286 0.948 1.720 5251
0.284 0.944 1.703 5650
0.287 0.953 1.707 5303
0.290 0.961 1.711 8357
0.292 0.970 1.714 14930
0.295 0.978 1.718 18613
0.296 0.983 1.715 19368
0.297 0.987 1.712 16789
0.299 0.991 1.709 18087
0.300 0.996 1.705 23215
0.303 1.004 1.709 23019
0.304 1.009 1.706 17063
0.305 1.013 1.703 14060
0.307 1.017 1.699 16764
0.308 1.022 1.696 19984
0.309 1.026 1.693 22904
0.310 1.030 1.690 21934
0.314 1.044 1.700 20949
0.316 1.048 1.696 19343
0.317 1.052 1.693 18637
0.318 1.057 1.690 17679
0.321 1.065 1.693 15214
0.322 1.070 1.690 12019
0.324 1.074 1.686 11460
0.326 1.083 1.689 12268
0.329 1.092 1.692 13890
0.330 1.096 1.689 13908
0.329 1.091 1.673 15188
0.330 1.095 1.669 19890
0.331 1.100 1.666 18668
0.334 1.108 1.669 10954
0.342 1.136 1.697 5939
0.341 1.131 1.681 4618
0.339 1.126 1.665 7649
0.339 1.125 1.655 9854
0.342 1.134 1.658 11957
0.346 1.148 1.666 12876
0.351 1.167 1.681 11942
0.356 1.180 1.690 15385
0.358 1.190 1.692 19536
0.360 1.194 1.689 16897
0.360 1.193 1.679 9958
0.361 1.198 1.675 6054
0.362 1.202 1.671 5528
0.365 1.211 1.674 13215
0.366 1.215 1.670 24735
0.367 1.220 1.666 26939
0.370 1.229 1.668 24966
0.373 1.238 1.671 19634
0.374 1.242 1.667 13524
0.375 1.246 1.663 12523
0.381 1.266 1.677 15445
0.381 1.265 1.667 17553
0.384 1.274 1.669 15200
0.387 1.283 1.671 17031
0.388 1.288 1.667 14741
0.391 1.297 1.669 16756
0.394 1.306 1.671 25428
0.395 1.311 1.667 21872
0.398 1.320 1.668 11788
0.400 1.329 1.670 8492
0.403 1.339 1.672 7737
0.406 1.348 1.673 10412
0.409 1.358 1.675 18025
0.410 1.362 1.671 17061
0.413 1.371 1.672 10450
0.418 1.386 1.679 11685
0.419 1.390 1.675 10120
0.415 1.379 1.654 8636
0.418 1.388 1.655 9879
0.426 1.414 1.673 11080
0.429 1.423 1.675 11060
0.432 1.433 1.676 12803
0.433 1.437 1.671 20562
0.433 1.436 1.661 22623
0.436 1.446 1.663 15963
0.434 1.439 1.647 8602
0.440 1.460 1.659 5808
0.444 1.475 1.666 10506
0.447 1.484 1.667 16949
0.450 1.494 1.667 15450
0.455 1.509 1.674 13882
0.456 1.514 1.669 14552
0.459 1.523 1.670 12315
0.462 1.533 1.671 9205
0.465 1.543 1.671 9457
0.468 1.553 1.672 11107
0.469 1.557 1.667 10727
0.472 1.567 1.668 12144
0.475 1.577 1.668 10331
0.481 1.598 1.679 8898
0.484 1.608 1.679 8574
0.486 1.612 1.674 5890
0.485 1.611 1.664 7058
0.488 1.620 1.664 8658
0.491 1.630 1.665 10583
0.494 1.640 1.665 15946
0.495 1.645 1.660 15770
0.498 1.655 1.660 11738
0.503 1.670 1.665 11301
0.508 1.686 1.670 8612
0.516 1.713 1.685 5319
0.524 1.741 1.701 2417
0.526 1.745 1.695 3821
0.525 1.744 1.685 6286
0.530 1.760 1.689 7715
0.535 1.776 1.694 9564
0.545 1.809 1.714 8709
0.548 1.819 1.713 12315
0.551 1.830 1.712 15405
0.554 1.840 1.712 17398
0.557 1.850 1.711 18596
0.559 1.855 1.705 17600
0.560 1.859 1.700 13933
0.560 1.857 1.689 13702
0.561 1.862 1.683 16138
0.562 1.866 1.678 15933
0.563 1.870 1.672 12237
0.565 1.874 1.666 7757
0.571 1.897 1.675 7601
0.575 1.907 1.674 7980
0.581 1.930 1.682 5710
0.586 1.946 1.685 4238
0.602 1.999 1.717 4343
0.602 1.997 1.706 5931
0.601 1.995 1.696 4948
0.619 2.055 1.731 2895
0.622 2.065 1.730 6422
0.624 2.070 1.723 8371
0.623 2.068 1.712 8703
0.624 2.072 1.706 7943
0.627 2.083 1.704 5656
0.634 2.106 1.711 4057
0.638 2.116 1.709 4153
0.641 2.127 1.707 5347
0.644 2.138 1.705 5495
0.642 2.129 1.690 4723
0.643 2.134 1.683 5270
0.646 2.144 1.681 6422
0.651 2.161 1.683 5727
0.664 2.203 1.703 5276
0.665 2.208 1.696 5291
0.672 2.231 1.703 7661
0.675 2.242 1.700 9904
0.678 2.252 1.698 10018
0.680 2.257 1.691 9502
0.681 2.261 1.684 8016
0.682 2.265 1.677 7047
0.686 2.276 1.674 4979
0.697 2.312 1.688 3892
0.702 2.329 1.689 3679
0.701 2.327 1.678 2905
0.702 2.331 1.671 3233
0.704 2.336 1.664 4294
0.705 2.340 1.656 3911
0.724 2.402 1.686 6263
0.725 2.407 1.679 7404
0.736 2.443 1.692 7882
0.739 2.454 1.688 8067
0.743 2.465 1.685 6700
0.746 2.476 1.681 7778
0.749 2.487 1.678 8996
0.748 2.484 1.666 9584
0.750 2.489 1.658 9435
0.753 2.499 1.655 8793
0.754 2.504 1.647 6798
0.757 2.514 1.643 4899
0.759 2.519 1.635 4092
0.784 2.602 1.674 4138
0.787 2.613 1.670 3860
0.786 2.611 1.658 2489
0.816 2.708 1.703 1826
0.811 2.692 1.683 1724
0.812 2.697 1.675 1884
0.830 2.754 1.696 1753
0.831 2.759 1.688 2523
0.830 2.756 1.676 3400
0.830 2.754 1.664 4404
0.831 2.758 1.655 4087
0.832 2.762 1.647 3770
0.848 2.814 1.663 3191
0.849 2.818 1.655 2962
0.850 2.822 1.646 2235
0.874 2.901 1.676 2736
0.875 2.905 1.668 3000
0.874 2.903 1.655 3284
0.876 2.907 1.646 3232
0.877 2.911 1.637 3185
0.880 2.922 1.632 2906
0.886 2.940 1.630 2815
0.889 2.951 1.624 2517
0.917 3.044 1.659 2956
0.918 3.048 1.649 2738
0.920 3.052 1.640 2520
0.921 3.056 1.631 2520
0.922 3.061 1.621 1823
0.940 3.120 1.638 1802
0.941 3.124 1.629 1390
0.934 3.100 1.606 1067
0.981 3.257 1.667 1199
0.980 3.254 1.654 1638
0.982 3.258 1.644 1638
0.983 3.263 1.634 819
0.186 0.610 1.623 13571
0.188 0.617 1.628 11263
0.191 0.627 1.641 9420
0.193 0.635 1.646 9939
0.196 0.642 1.651 10886
0.197 0.646 1.649 10909
0.199 0.654 1.654 11793
0.201 0.661 1.660 13052
0.206 0.675 1.679 13799
0.208 0.683 1.684 15217
0.210 0.690 1.689 16817
0.213 0.698 1.694 19294
0.215 0.705 1.699 17771
0.218 0.717 1.711 20885
0.220 0.721 1.708 25408
0.221 0.725 1.706 21731
0.224 0.736 1.718 18344
0.224 0.734 1.702 23700
0.225 0.738 1.699 29346
0.226 0.743 1.697 30973
0.227 0.743 1.688 32730
0.229 0.751 1.692 30936
0.230 0.756 1.690 29273
0.234 0.767 1.702 28661
0.236 0.775 1.706 30337
0.239 0.783 1.711 26007
0.242 0.794 1.722 23162
0.245 0.802 1.727 20668
0.246 0.807 1.724 18770
0.248 0.815 1.728 14882
0.247 0.812 1.712 11550
0.250 0.820 1.716 14393
0.251 0.824 1.714 21476
0.254 0.832 1.718 27018
0.254 0.833 1.709 28211
0.255 0.837 1.706 29828
0.255 0.838 1.697 25213
0.256 0.838 1.687 21341
0.257 0.843 1.684 20341
0.259 0.851 1.689 18833
0.261 0.855 1.686 18968
0.263 0.863 1.690 19850
0.266 0.872 1.694 20809
0.268 0.880 1.698 18842
0.269 0.884 1.695 20007
0.272 0.892 1.699 23060
0.273 0.897 1.697 17852
0.277 0.909 1.707 10093
0.281 0.921 1.718 8218
0.283 0.930 1.722 7539
0.286 0.938 1.725 6082
0.287 0.943 1.722 4781
0.287 0.943 1.713 5208
0.287 0.943 1.703 6551
0.285 0.935 1.680 6766
0.291 0.956 1.704 9015
0.295 0.969 1.714 15107
0.298 0.977 1.718 18542
0.299 0.982 1.715 19083
0.301 0.986 1.712 15933
0.302 0.990 1.709 16534
0.303 0.995 1.705 21535
0.304 0.999 1.702 21692
0.307 1.008 1.706 15956
0.308 1.012 1.703 13183
0.310 1.017 1.699 15968
0.311 1.021 1.696 18575
0.312 1.025 1.693 21316
0.315 1.034 1.696 21189
0.318 1.043 1.700 21065
0.319 1.047 1.696 19619
0.320 1.051 1.693 19339
0.323 1.060 1.696 19352
0.324 1.064 1.693 16604
0.326 1.069 1.690 12384
0.327 1.073 1.686 12021
0.330 1.082 1.689 12433
0.332 1.091 1.692 12892
0.334 1.095 1.689 12208
0.334 1.095 1.679 14370
0.333 1.094 1.669 20178
0.335 1.099 1.666 18169
0.337 1.107 1.669 10061
0.347 1.140 1.703 6161
0.344 1.130 1.681 4538
0.344 1.129 1.671 6720
0.344 1.129 1.661 8645
0.348 1.143 1.670 11716
0.351 1.152 1.673 13331
0.354 1.161 1.675 12071
0.359 1.179 1.690 14296
0.362 1.188 1.692 17360
0.363 1.193 1.689 15152
0.365 1.197 1.685 9569
0.366 1.201 1.681 7208
0.366 1.201 1.671 7698
0.369 1.210 1.674 15326
0.370 1.214 1.670 27050
0.371 1.218 1.666 27367
0.373 1.223 1.662 22959
0.377 1.237 1.671 17991
0.380 1.246 1.673 14066
0.379 1.245 1.663 13050
0.384 1.259 1.671 15605
0.385 1.264 1.667 19188
0.388 1.273 1.669 18774
0.391 1.282 1.671 21728
0.394 1.292 1.673 17654
0.396 1.301 1.675 19354
0.398 1.305 1.671 27735
0.399 1.309 1.667 23213
0.402 1.319 1.668 12210
0.405 1.328 1.670 9038
0.406 1.332 1.666 8373
0.410 1.347 1.673 10637
0.413 1.356 1.675 18794
0.415 1.361 1.671 18090
0.418 1.370 1.672 10205
0.424 1.390 1.685 11068
0.423 1.389 1.675 11281
0.421 1.383 1.659 9760
0.423 1.387 1.655 10036
0.429 1.407 1.668 9277
0.435 1.427 1.680 9310
0.435 1.426 1.670 12778
0.436 1.431 1.666 20463
0.437 1.435 1.661 22986
0.439 1.439 1.657 17359
0.443 1.454 1.664 10950
0.444 1.458 1.659 5798
0.447 1.468 1.660 6148
0.452 1.483 1.667 12768
0.457 1.498 1.673 14319
0.460 1.508 1.674 13485
0.461 1.512 1.669 13321
0.462 1.516 1.664 9490
0.467 1.532 1.671 7167
0.470 1.541 1.671 9890
0.473 1.551 1.672 12670
0.476 1.561 1.672 12874
0.477 1.565 1.668 14737
0.480 1.575 1.668 12133
0.485 1.591 1.674 9765
0.489 1.606 1.679 9042
0.491 1.610 1.674 6688
0.489 1.603 1.659 8977
0.492 1.613 1.659 10176
0.498 1.635 1.670 12903
0.499 1.639 1.665 18702
0.501 1.643 1.660 18165
0.502 1.647 1.655 13199
0.508 1.669 1.665 11229
0.512 1.679 1.665 8075
0.522 1.712 1.685 4704
0.532 1.745 1.706 3600
0.533 1.749 1.700 5222
0.531 1.742 1.685 7212
0.530 1.740 1.674 9049
0.539 1.768 1.689 9238
0.551 1.808 1.714 8134
0.556 1.824 1.718 11353
0.557 1.828 1.712 15062
0.560 1.838 1.712 17282
0.563 1.849 1.711 18007
0.565 1.853 1.705 15529
0.566 1.857 1.700 11710
0.567 1.862 1.694 12243
0.567 1.860 1.683 13482
0.568 1.864 1.678 12650
0.569 1.868 1.672 9942
0.573 1.879 1.671 6488
0.579 1.901 1.679 6968
0.581 1.905 1.674 6612
0.589 1.934 1.687 4554
0.592 1.944 1.685 3441
0.607 1.991 1.713 5083
0.608 1.995 1.706 7398
0.607 1.993 1.696 6068
0.607 1.992 1.685 3281
0.629 2.063 1.730 5255
0.630 2.068 1.723 6108
0.630 2.066 1.712 6197
0.633 2.077 1.711 5994
0.640 2.099 1.718 5014
0.641 2.104 1.711 3973
0.646 2.121 1.714 3730
0.648 2.125 1.707 4038
0.645 2.117 1.692 3862
0.644 2.115 1.681 4120
0.648 2.125 1.679 5064
0.653 2.142 1.681 5104
0.668 2.190 1.705 5529
0.669 2.195 1.699 5559
0.674 2.212 1.701 6135
0.679 2.229 1.703 9400
0.680 2.233 1.696 10077
0.682 2.237 1.689 8459
0.685 2.248 1.686 7183
0.688 2.259 1.684 5919
0.692 2.269 1.681 5966
0.699 2.293 1.687 5193
0.704 2.310 1.688 4175
0.715 2.346 1.702 3647
0.726 2.383 1.716 3003
0.729 2.393 1.713 2981
0.711 2.333 1.664 3906
0.732 2.402 1.698 4421
0.731 2.400 1.686 6318
0.731 2.398 1.675 6970
0.744 2.441 1.692 8418
0.747 2.452 1.688 8868
0.750 2.463 1.685 7488
0.754 2.473 1.681 8891
0.757 2.484 1.678 10495
0.758 2.489 1.670 11180
0.758 2.486 1.658 11335
0.761 2.497 1.655 10757
0.762 2.501 1.647 8693
0.765 2.512 1.643 6662
0.765 2.509 1.631 5660
0.766 2.514 1.624 4692
0.798 2.617 1.673 3717
0.801 2.628 1.669 2597
0.822 2.699 1.699 2255
0.820 2.690 1.683 2261
0.819 2.687 1.671 2416
0.820 2.692 1.663 1868
0.842 2.763 1.692 2215
0.839 2.754 1.676 2982
0.838 2.751 1.664 3953
0.840 2.755 1.655 3831
0.841 2.760 1.647 3708
0.859 2.818 1.667 3034
0.860 2.822 1.658 2842
0.861 2.826 1.650 2243
0.883 2.898 1.676 1993
0.882 2.895 1.664 2344
0.884 2.900 1.655 2708
0.885 2.904 1.646 2857
0.886 2.908 1.637 3017
0.890 2.919 1.632 2694
0.895 2.937 1.630 2570
0.900 2.955 1.627 2333
0.925 3.034 1.655 2643
0.905 2.970 1.613 2308
0.906 2.974 1.603 2141
0.933 3.060 1.634 1986
0.919 3.016 1.602 1593
0.952 3.124 1.641 1684
0.951 3.121 1.629 1372
0.942 3.091 1.603 1141
0.996 3.268 1.674 1146
0.997 3.272 1.664 1558
0.998 3.276 1.653 1558
1.000 3.280 1.643 779
0.188 0.612 1.630 13150
0.191 0.620 1.636 10955
0.192 0.624 1.634 8872
0.196 0.637 1.653 10135
0.197 0.642 1.651 11820
0.199 0.646 1.649 11839
0.201 0.653 1.654 12809
0.204 0.664 1.667 14249
0.207 0.675 1.679 14429
0.210 0.682 1.684 15102
0.212 0.690 1.689 16523
0.214 0.697 1.694 19039
0.217 0.705 1.699 17782
0.220 0.716 1.711 21741
0.223 0.724 1.716 26818
0.224 0.728 1.713 23450
0.226 0.736 1.718 20346
0.227 0.737 1.709 24128
0.227 0.738 1.699 28481
0.228 0.742 1.697 29603
0.228 0.743 1.688 30772
0.231 0.751 1.692 28622
0.232 0.755 1.690 26519
0.236 0.766 1.702 26303
0.239 0.778 1.713 28593
0.242 0.786 1.718 25267
0.244 0.794 1.722 23466
0.247 0.802 1.727 21226
0.248 0.806 1.724 19495
0.250 0.814 1.728 15672
0.251 0.815 1.719 12354
0.252 0.819 1.716 14506
0.253 0.824 1.714 21015
0.256 0.832 1.718 26188
0.256 0.832 1.709 27664
0.257 0.837 1.706 29404
0.257 0.837 1.697 25370
0.259 0.842 1.694 22183
0.259 0.842 1.684 21709
0.261 0.850 1.689 19675
0.262 0.851 1.679 19100
0.265 0.863 1.690 19570
0.268 0.871 1.694 20169
0.270 0.879 1.698 18510
0.272 0.883 1.695 20147
0.274 0.892 1.699 23230
0.276 0.896 1.697 17992
0.279 0.908 1.707 9806
0.282 0.917 1.711 7506
0.286 0.929 1.722 6397
0.287 0.934 1.719 4945
0.290 0.942 1.722 4651
0.290 0.942 1.713 6040
0.287 0.934 1.690 8089
0.287 0.935 1.680 8574
0.294 0.955 1.704 10258
0.298 0.968 1.714 15362
0.300 0.977 1.718 18588
0.302 0.981 1.715 18713
0.302 0.981 1.705 15514
0.303 0.985 1.702 15858
0.304 0.990 1.699 20557
0.307 0.998 1.702 20745
0.310 1.007 1.706 14972
0.311 1.011 1.703 13013
0.312 1.016 1.699 16311
0.314 1.020 1.696 18110
0.315 1.024 1.693 20285
0.318 1.033 1.696 20880
0.320 1.042 1.700 21409
0.322 1.046 1.696 20211
0.323 1.050 1.693 20342
0.326 1.059 1.696 21119
0.327 1.064 1.693 18084
0.328 1.068 1.690 13349
0.330 1.072 1.686 12944
0.332 1.081 1.689 12423
0.335 1.090 1.692 11722
0.336 1.094 1.689 10931
0.336 1.094 1.679 14243
0.336 1.093 1.669 20291
0.338 1.098 1.666 17603
0.340 1.107 1.669 9643
0.349 1.134 1.697 6692
0.346 1.124 1.674 5461
0.347 1.129 1.671 7185
0.350 1.138 1.673 8282
0.353 1.147 1.676 11269
0.355 1.156 1.679 12798
0.357 1.160 1.675 11849
0.361 1.174 1.684 13482
0.365 1.187 1.692 15031
0.366 1.192 1.689 12965
0.368 1.196 1.685 8607
0.369 1.200 1.681 7436
0.369 1.200 1.671 9288
0.372 1.209 1.674 16785
0.373 1.213 1.670 26783
0.374 1.217 1.666 25384
0.376 1.222 1.662 20002
0.380 1.236 1.671 15695
0.383 1.245 1.673 14115
0.383 1.244 1.663 12728
0.387 1.258 1.671 15276
0.388 1.263 1.667 20046
0.393 1.277 1.675 21987
0.394 1.281 1.671 27069
0.397 1.291 1.673 21829
0.400 1.300 1.675 21502
0.401 1.304 1.671 28115
0.402 1.308 1.667 22272
0.405 1.318 1.668 10895
0.408 1.327 1.670 7915
0.409 1.331 1.666 7454
0.414 1.346 1.673 9772
0.417 1.355 1.675 18217
0.418 1.360 1.671 18089
0.421 1.369 1.672 9524
0.427 1.389 1.685 9523
0.424 1.378 1.664 12280
0.425 1.382 1.659 11011
0.426 1.386 1.655 10394
0.431 1.401 1.662 9639
0.435 1.416 1.669 9293
0.438 1.425 1.670 14160
0.440 1.429 1.666 20560
0.441 1.434 1.661 23618
0.444 1.443 1.663 19957
0.450 1.464 1.675 15402
0.453 1.473 1.676 10812
0.454 1.478 1.671 7164
0.457 1.487 1.672 9880
0.460 1.497 1.673 13010
0.462 1.501 1.668 11520
0.463 1.506 1.664 11291
0.464 1.510 1.659 7490
0.472 1.536 1.676 5747
0.475 1.546 1.677 10764
0.477 1.550 1.672 15400
0.480 1.560 1.672 15948
0.481 1.564 1.668 17776
0.482 1.568 1.663 14253
0.489 1.589 1.674 10481
0.493 1.605 1.679 8715
0.493 1.604 1.669 7425
0.493 1.602 1.659 10871
0.496 1.612 1.659 10717
0.502 1.633 1.670 12733
0.504 1.637 1.665 17889
0.505 1.642 1.660 17668
0.506 1.646 1.655 13459
0.511 1.662 1.660 11107
0.516 1.677 1.665 7981
0.515 1.676 1.655 4914
0.534 1.738 1.701 5697
0.536 1.742 1.695 7114
0.535 1.741 1.685 7214
0.535 1.739 1.674 7692
0.536 1.743 1.669 7753
0.554 1.800 1.709 7211
0.560 1.822 1.718 9724
0.562 1.827 1.712 13628
0.565 1.837 1.712 16277
0.568 1.847 1.711 16880
0.569 1.851 1.705 13174
0.572 1.862 1.705 9706
0.574 1.866 1.699 10657
0.573 1.864 1.688 9926
0.573 1.863 1.678 8389
0.576 1.873 1.677 6989
0.590 1.919 1.705 6284
0.590 1.918 1.694 6578
0.585 1.904 1.674 4506
0.600 1.950 1.701 2712
0.608 1.979 1.714 3222
0.610 1.983 1.708 5952
0.613 1.994 1.706 7688
0.614 1.998 1.700 6312
0.614 1.996 1.689 4091
0.636 2.068 1.734 3962
0.637 2.072 1.728 4025
0.639 2.077 1.722 3958
0.647 2.106 1.734 4517
0.647 2.104 1.722 4791
0.648 2.108 1.716 4780
0.653 2.125 1.718 4598
0.653 2.123 1.707 4069
0.650 2.115 1.692 3807
0.650 2.113 1.681 3144
0.653 2.124 1.679 3090
0.676 2.197 1.721 4202
0.675 2.195 1.710 5565
0.670 2.181 1.690 6001
0.681 2.216 1.705 6975
0.683 2.221 1.698 11163
0.684 2.225 1.691 10932
0.685 2.229 1.685 8273
0.689 2.240 1.682 5736
0.700 2.276 1.696 4690
0.701 2.280 1.689 5738
0.704 2.291 1.687 5723
0.710 2.308 1.688 4352
0.725 2.357 1.710 4057
0.728 2.368 1.707 3476
0.735 2.392 1.713 3283
0.743 2.415 1.718 3646
0.740 2.407 1.702 4845
0.741 2.411 1.694 6115
0.747 2.428 1.695 6302
0.750 2.439 1.692 8359
0.753 2.450 1.688 9007
0.757 2.461 1.685 7742
0.762 2.478 1.685 9356
0.763 2.482 1.678 11118
0.765 2.487 1.670 12030
0.764 2.484 1.658 12488
0.767 2.495 1.655 12001
0.768 2.499 1.647 9885
0.770 2.503 1.639 7769
0.771 2.508 1.631 6829
0.772 2.512 1.624 5889
0.774 2.516 1.616 4469
0.807 2.626 1.669 2722
0.823 2.677 1.688 2644
0.822 2.674 1.676 2798
0.824 2.679 1.667 2972
0.825 2.683 1.659 2290
0.851 2.767 1.695 2027
0.846 2.751 1.676 2580
0.845 2.749 1.664 3443
0.847 2.753 1.655 3561
0.848 2.757 1.647 3678
0.847 2.755 1.635 2772
0.869 2.826 1.662 2616
0.870 2.831 1.653 2229
0.872 2.835 1.645 1843
0.869 2.825 1.629 1919
0.868 2.823 1.617 2060
0.892 2.902 1.646 2374
0.893 2.906 1.637 2758
0.897 2.917 1.632 2429
0.902 2.935 1.630 2202
0.912 2.966 1.634 2100
0.930 3.025 1.652 2330
0.915 2.974 1.616 2178
0.916 2.978 1.607 2066
0.917 2.982 1.598 1941
0.923 3.000 1.595 1539
0.962 3.128 1.645 1643
0.961 3.126 1.632 1410
0.960 3.123 1.619 1198
1.006 3.272 1.677 1244
1.007 3.276 1.667 1636
1.009 3.281 1.657 1636
1.010 3.285 1.647 818
0.190 0.612 1.630 13271
0.193 0.622 1.643 10236
0.198 0.639 1.670 8208
0.198 0.640 1.661 10087
0.200 0.644 1.659 12151
0.201 0.649 1.656 12151
0.202 0.653 1.654 13167
0.206 0.663 1.667 14587
0.209 0.674 1.679 14417
0.211 0.682 1.684 14770
0.214 0.689 1.689 16059
0.216 0.697 1.694 18547
0.218 0.704 1.699 17417
0.222 0.715 1.711 21812
0.224 0.723 1.716 27269
0.226 0.728 1.713 24199
0.228 0.735 1.718 21425
0.228 0.736 1.709 23981
0.229 0.737 1.699 27015
0.230 0.741 1.697 27498
0.231 0.746 1.695 27981
0.233 0.750 1.692 25844
0.234 0.754 1.690 23708
0.237 0.766 1.702 24087
0.241 0.777 1.713 26996
0.243 0.785 1.718 24460
0.246 0.793 1.722 23308
0.248 0.801 1.727 21416
0.250 0.806 1.724 19937
0.251 0.810 1.722 16324
0.252 0.814 1.719 13015
0.254 0.819 1.716 14579
0.255 0.823 1.714 20153
0.258 0.831 1.718 24706
0.258 0.832 1.709 26402
0.259 0.836 1.706 28339
0.259 0.837 1.697 24954
0.261 0.841 1.694 22400
0.261 0.841 1.684 22031
0.263 0.850 1.689 19744
0.262 0.846 1.672 18938
0.267 0.862 1.690 19055
0.270 0.870 1.694 19380
0.272 0.879 1.698 17962
0.274 0.883 1.695 19920
0.275 0.887 1.693 23062
0.278 0.895 1.697 17826
0.281 0.908 1.707 9465
0.284 0.916 1.711 7035
0.287 0.924 1.715 5841
0.289 0.933 1.719 4419
0.292 0.941 1.722 4716
0.291 0.938 1.706 6763
0.289 0.934 1.690 9370
0.290 0.934 1.680 10145
0.295 0.951 1.697 11532
0.299 0.963 1.708 16037
0.301 0.972 1.711 19097
0.303 0.976 1.708 18898
0.304 0.980 1.705 15421
0.305 0.985 1.702 15333
0.307 0.989 1.699 19629
0.309 0.998 1.702 19813
0.312 1.006 1.706 14357
0.313 1.011 1.703 13250
0.315 1.015 1.699 16866
0.316 1.019 1.696 18069
0.317 1.024 1.693 19654
0.320 1.032 1.696 20461
0.323 1.041 1.700 21326
0.324 1.045 1.696 20345
0.325 1.050 1.693 20745
0.328 1.058 1.696 21944
0.329 1.063 1.693 18894
0.331 1.067 1.690 14324
0.331 1.067 1.680 13916
0.333 1.076 1.683 12500
0.338 1.089 1.692 10895
0.339 1.093 1.689 10413
0.337 1.088 1.673 14597
0.339 1.093 1.669 20090
0.340 1.097 1.666 16724
0.343 1.106 1.669 9231
0.351 1.133 1.697 6985
0.347 1.119 1.668 6367
0.350 1.128 1.671 7223
0.352 1.137 1.673 7905
0.357 1.150 1.682 11135
0.358 1.155 1.679 12633
0.359 1.159 1.675 11368
0.362 1.168 1.678 12343
0.368 1.187 1.692 12888
0.369 1.191 1.689 10904
0.371 1.195 1.685 7502
0.370 1.195 1.675 7054
0.372 1.199 1.671 9709
0.375 1.208 1.674 17184
0.376 1.212 1.670 25309
0.377 1.217 1.666 22571
0.378 1.221 1.662 17122
0.383 1.235 1.671 14217
0.387 1.249 1.679 14514
0.387 1.248 1.669 12685
0.390 1.258 1.671 15068
0.391 1.262 1.667 19725
0.396 1.276 1.675 23544
0.398 1.285 1.677 30316
0.400 1.290 1.673 24464
0.403 1.299 1.675 22538
0.404 1.303 1.671 27643
0.405 1.307 1.667 20903
0.408 1.317 1.668 9698
0.411 1.326 1.670 6907
0.408 1.315 1.649 6890
0.417 1.345 1.673 8591
0.420 1.354 1.675 16722
0.421 1.359 1.671 17371
0.423 1.363 1.667 8844
0.430 1.388 1.685 8380
0.427 1.377 1.664 12696
0.428 1.381 1.659 11597
0.429 1.385 1.655 10996
0.432 1.395 1.657 11406
0.437 1.409 1.663 11200
0.440 1.419 1.665 15220
0.443 1.428 1.666 19147
0.444 1.433 1.661 22364
0.449 1.448 1.668 21312
0.453 1.463 1.675 17669
0.456 1.472 1.676 14068
0.458 1.477 1.671 10035
0.459 1.481 1.667 9820
0.464 1.496 1.673 11634
0.465 1.500 1.668 9215
0.466 1.504 1.664 9709
0.468 1.509 1.659 7839
0.476 1.535 1.676 5306
0.479 1.545 1.677 11508
0.480 1.549 1.672 17755
0.483 1.559 1.672 18373
0.485 1.563 1.668 19822
0.486 1.567 1.663 15607
0.491 1.583 1.668 10735
0.497 1.604 1.679 8141
0.497 1.602 1.669 8145
0.495 1.595 1.654 12236
0.498 1.605 1.654 10652
0.506 1.632 1.670 10902
0.507 1.636 1.665 15132
0.509 1.641 1.660 15389
0.512 1.650 1.660 12527
0.515 1.660 1.660 10750
0.520 1.676 1.665 7974
0.532 1.715 1.691 5374
0.538 1.737 1.701 7047
0.540 1.741 1.695 8469
0.539 1.739 1.685 7584
0.539 1.738 1.674 6876
0.540 1.742 1.669 7664
0.541 1.746 1.664 6663
0.563 1.815 1.713 8068
0.566 1.825 1.712 11458
0.569 1.836 1.712 14129
0.570 1.840 1.706 14904
0.574 1.850 1.705 10873
0.577 1.860 1.705 8365
0.580 1.871 1.704 9399
0.579 1.869 1.693 7312
0.579 1.867 1.682 5451
0.582 1.878 1.681 5052
0.595 1.918 1.705 6358
0.596 1.922 1.699 6222
0.601 1.939 1.702 3560
0.608 1.961 1.710 3305
0.611 1.971 1.709 4491
0.614 1.982 1.708 6238
0.618 1.992 1.706 6965
0.619 1.997 1.700 5812
0.620 2.001 1.694 4438
0.637 2.054 1.725 3122
0.644 2.077 1.733 2963
0.655 2.112 1.749 4000
0.654 2.110 1.738 5110
0.652 2.103 1.722 5224
0.651 2.101 1.711 4831
0.655 2.111 1.709 4926
0.656 2.116 1.703 5792
0.655 2.114 1.692 6298
0.657 2.118 1.685 4971
0.658 2.122 1.679 4153
0.659 2.127 1.672 4619
0.672 2.168 1.692 5809
0.672 2.166 1.681 6825
0.687 2.215 1.705 7440
0.688 2.219 1.698 11773
0.689 2.223 1.691 11163
0.691 2.228 1.685 8291
0.694 2.238 1.682 5210
0.705 2.274 1.696 4303
0.706 2.279 1.689 5814
0.710 2.289 1.687 6062
0.713 2.300 1.684 4541
0.730 2.356 1.710 4153
0.734 2.366 1.707 3614
0.717 2.313 1.662 3322
0.748 2.414 1.718 3693
0.746 2.405 1.702 4896
0.749 2.416 1.699 5926
0.752 2.427 1.695 5853
0.756 2.437 1.692 7809
0.759 2.448 1.688 8493
0.762 2.459 1.685 7397
0.768 2.476 1.685 9094
0.769 2.481 1.678 10884
0.770 2.485 1.670 11884
0.770 2.483 1.658 12530
0.771 2.487 1.651 12093
0.774 2.497 1.647 10030
0.776 2.502 1.639 7993
0.777 2.506 1.631 7159
0.778 2.510 1.624 6325
0.779 2.514 1.616 4810
0.816 2.631 1.673 2647
0.827 2.668 1.684 2896
0.829 2.672 1.676 3094
0.830 2.677 1.667 3292
0.831 2.681 1.659 2512
0.857 2.765 1.695 1983
0.852 2.750 1.676 2360
0.852 2.747 1.664 3004
0.853 2.751 1.655 3300
0.852 2.749 1.643 3642
0.851 2.746 1.631 2909
0.876 2.824 1.662 2349
0.877 2.829 1.653 2141
0.878 2.833 1.645 1933
0.875 2.823 1.629 1901
0.875 2.821 1.617 2001
0.899 2.900 1.646 2028
0.900 2.904 1.637 2528
0.904 2.915 1.632 2228
0.907 2.926 1.626 1943
0.921 2.971 1.638 1943
0.927 2.989 1.635 2174
0.924 2.979 1.619 2079
0.923 2.976 1.607 1996
0.926 2.987 1.601 1913
0.929 2.998 1.595 1497
0.971 3.133 1.648 1637
0.973 3.137 1.638 1460
0.972 3.134 1.625 1295
1.016 3.277 1.680 1265
1.015 3.274 1.667 1607
1.016 3.278 1.657 1607
1.018 3.282 1.647 803
0.193 0.618 1.645 12857
0.195 0.622 1.643 10326
0.200 0.638 1.670 8551
0.200 0.640 1.661 10567
0.201 0.641 1.651 12840
0.202 0.645 1.649 12858
0.204 0.652 1.654 13762
0.208 0.663 1.667 15194
0.211 0.674 1.679 14747
0.213 0.681 1.684 14752
0.216 0.689 1.689 15811
0.219 0.700 1.701 18103
0.221 0.707 1.706 17070
0.225 0.718 1.718 21982
0.226 0.723 1.716 27871
0.228 0.727 1.713 25120
0.230 0.735 1.718 22696
0.230 0.736 1.709 23915
0.231 0.737 1.699 25476
0.232 0.741 1.697 25283
0.233 0.745 1.695 25090
0.235 0.749 1.692 22895
0.237 0.757 1.697 20779
0.241 0.769 1.709 21952
0.243 0.777 1.713 25227
0.246 0.784 1.718 23423
0.248 0.792 1.722 22894
0.251 0.800 1.727 21433
0.252 0.805 1.724 20254
0.253 0.809 1.722 16896
0.255 0.814 1.719 13725
0.256 0.818 1.716 14857
0.257 0.822 1.714 19263
0.260 0.830 1.718 23025
0.260 0.831 1.709 24827
0.262 0.835 1.706 26928
0.262 0.836 1.697 24031
0.263 0.840 1.694 21958
0.263 0.841 1.684 21957
0.265 0.845 1.682 19850
0.265 0.845 1.672 19262
0.268 0.857 1.683 18593
0.272 0.870 1.694 18376
0.275 0.878 1.698 17408
0.276 0.882 1.695 20104
0.278 0.886 1.693 23539
0.279 0.891 1.690 18235
0.283 0.903 1.701 9340
0.287 0.915 1.711 6501
0.287 0.916 1.702 5461
0.287 0.916 1.692 4119
0.294 0.941 1.722 4454
0.293 0.937 1.706 6931
0.292 0.933 1.690 10193
0.292 0.933 1.680 11316
0.296 0.946 1.691 12780
0.301 0.962 1.708 17328
0.304 0.971 1.711 20425
0.305 0.975 1.708 19598
0.307 0.980 1.705 15628
0.305 0.975 1.689 15275
0.309 0.988 1.699 18567
0.312 0.997 1.702 18715
0.313 1.001 1.699 14065
0.316 1.010 1.703 14005
0.318 1.014 1.699 17834
0.319 1.018 1.696 18396
0.322 1.027 1.700 19242
0.323 1.031 1.696 20154
0.326 1.040 1.700 21223
0.327 1.044 1.696 20331
0.328 1.049 1.693 20814
0.331 1.058 1.696 22367
0.332 1.062 1.693 19442
0.334 1.066 1.690 15091
0.334 1.066 1.680 14853
0.336 1.075 1.683 13146
0.339 1.084 1.686 10804
0.339 1.083 1.676 10489
0.340 1.087 1.673 14722
0.342 1.092 1.669 19409
0.343 1.096 1.666 15738
0.346 1.105 1.669 8670
0.355 1.132 1.697 6972
0.350 1.118 1.668 6727
0.353 1.127 1.671 6981
0.357 1.140 1.680 7492
0.363 1.159 1.695 11623
0.361 1.154 1.679 12927
0.363 1.158 1.675 10996
0.365 1.167 1.678 11460
0.371 1.186 1.692 10832
0.374 1.195 1.695 8573
0.374 1.194 1.685 6013
0.372 1.189 1.669 6588
0.375 1.198 1.671 9899
0.378 1.207 1.674 17171
0.379 1.211 1.670 22635
0.381 1.215 1.666 18291
0.383 1.225 1.668 13417
0.388 1.239 1.677 13330
0.391 1.248 1.679 14857
0.392 1.252 1.675 12921
0.393 1.256 1.671 15252
0.395 1.261 1.667 19368
0.399 1.275 1.675 24865
0.402 1.284 1.677 33068
0.403 1.288 1.673 26351
0.406 1.298 1.675 22745
0.408 1.302 1.671 26786
0.409 1.306 1.667 19518
0.412 1.316 1.668 8877
0.413 1.320 1.664 6162
0.410 1.309 1.643 6334
0.421 1.344 1.673 7065
0.422 1.348 1.669 14499
0.423 1.352 1.665 16435
0.426 1.362 1.667 9201
0.433 1.382 1.679 8177
0.431 1.375 1.664 12981
0.432 1.380 1.659 11996
0.435 1.389 1.661 10885
0.438 1.399 1.662 11861
0.441 1.408 1.663 11784
0.444 1.418 1.665 15224
0.445 1.422 1.660 17018
0.448 1.431 1.661 19936
0.453 1.446 1.668 21361
0.458 1.461 1.675 18299
0.461 1.471 1.676 15781
0.462 1.475 1.671 12626
0.463 1.480 1.667 10717
0.466 1.489 1.667 10426
0.466 1.488 1.657 6736
0.471 1.503 1.664 8714
0.472 1.507 1.659 8868
0.473 1.512 1.654 5100
0.483 1.543 1.677 12178
0.485 1.548 1.672 19697
0.488 1.557 1.672 20445
0.489 1.562 1.668 21441
0.490 1.566 1.663 16764
0.493 1.576 1.663 11349
0.498 1.591 1.669 7998
0.501 1.601 1.669 9238
0.501 1.600 1.659 13672
0.502 1.604 1.654 10511
0.507 1.619 1.659 8453
0.512 1.635 1.665 11447
0.513 1.639 1.660 11978
0.516 1.649 1.660 10923
0.521 1.665 1.665 10445
0.526 1.680 1.670 8000
0.536 1.713 1.691 6281
0.543 1.735 1.701 7788
0.545 1.739 1.695 8601
0.544 1.738 1.685 7383
0.544 1.736 1.674 6536
0.543 1.735 1.664 7289
0.544 1.739 1.659 6840
0.566 1.808 1.708 6437
0.571 1.824 1.712 8848
0.572 1.828 1.707 11529
0.576 1.838 1.706 12595
0.579 1.849 1.705 9090
0.584 1.865 1.709 7917
0.585 1.869 1.704 8672
0.587 1.873 1.698 5593
0.588 1.878 1.692 3764
0.597 1.906 1.706 4063
0.602 1.922 1.709 6022
0.605 1.933 1.708 5676
0.608 1.943 1.707 4123
0.612 1.953 1.706 4986
0.617 1.970 1.709 5765
0.620 1.980 1.708 6376
0.623 1.991 1.706 5988
0.626 2.001 1.705 5138
0.628 2.005 1.699 4738
0.631 2.016 1.697 3550
0.652 2.081 1.737 2981
0.655 2.092 1.735 5061
0.658 2.102 1.734 6066
0.660 2.107 1.727 5402
0.661 2.111 1.720 3952
0.660 2.109 1.709 4948
0.662 2.114 1.703 7151
0.663 2.118 1.696 7772
0.665 2.122 1.690 6122
0.666 2.127 1.683 5015
0.671 2.143 1.686 5425
0.676 2.160 1.688 6651
0.678 2.165 1.681 7880
0.693 2.213 1.705 7971
0.694 2.217 1.698 11732
0.694 2.215 1.687 10818
0.695 2.219 1.680 7958
0.698 2.230 1.678 4992
0.711 2.272 1.696 4054
0.713 2.277 1.689 6009
0.714 2.281 1.682 6471
0.713 2.279 1.671 5025
0.737 2.353 1.710 4108
0.740 2.364 1.707 3593
0.721 2.304 1.658 3557
0.755 2.411 1.718 3480
0.754 2.409 1.706 4642
0.756 2.414 1.699 5555
0.749 2.392 1.675 5388
0.762 2.435 1.692 7006
0.766 2.446 1.688 7651
0.777 2.483 1.701 6828
0.775 2.474 1.685 8501
0.776 2.478 1.678 10277
0.777 2.483 1.670 11328
0.777 2.480 1.658 12137
0.778 2.485 1.651 11771
0.781 2.495 1.647 9654
0.783 2.499 1.639 7632
0.784 2.504 1.631 6907
0.783 2.501 1.620 6212
0.786 2.512 1.616 4729
0.823 2.628 1.673 2527
0.833 2.659 1.680 2958
0.836 2.670 1.676 3209
0.837 2.674 1.667 3470
0.839 2.679 1.659 2683
0.842 2.689 1.655 1924
0.858 2.740 1.672 2236
0.859 2.745 1.664 2658
0.859 2.742 1.652 3162
0.858 2.740 1.639 3784
0.859 2.744 1.631 3219
0.858 2.741 1.619 2736
0.862 2.752 1.614 2097
0.888 2.837 1.648 2002
0.881 2.814 1.625 1902
0.882 2.818 1.617 1956
0.907 2.897 1.646 1810
0.910 2.908 1.641 2362
0.912 2.912 1.632 2084
0.913 2.916 1.623 1798
0.931 2.975 1.641 1803
0.935 2.986 1.635 2070
0.934 2.983 1.623 1971
0.933 2.980 1.610 1906
0.937 2.991 1.604 1877
0.979 3.126 1.658 1428
0.982 3.137 1.651 1669
0.981 3.134 1.638 1504
0.983 3.138 1.629 1364
0.982 3.136 1.616 1212
1.024 3.271 1.667 1499
1.025 3.275 1.657 1499
1.027 3.280 1.647 749
0.196 0.620 1.652 13087
0.199 0.631 1.665 9989
0.202 0.638 1.670 8488
0.203 0.642 1.668 10706
0.203 0.643 1.659 13339
0.205 0.647 1.656 13339
0.207 0.655 1.662 14232
0.210 0.666 1.674 15764
0.213 0.673 1.679 14979
0.215 0.681 1.684 14504
0.217 0.688 1.689 15415
0.221 0.699 1.701 17595
0.223 0.707 1.706 16621
0.227 0.718 1.718 21832
0.228 0.722 1.716 27869
0.229 0.726 1.713 25396
0.232 0.734 1.718 23308
0.232 0.735 1.709 23335
0.234 0.739 1.706 23746
0.234 0.740 1.697 22867
0.235 0.745 1.695 22102
0.237 0.749 1.692 19922
0.239 0.757 1.697 18001
0.243 0.768 1.709 19830
0.245 0.776 1.713 23328
0.248 0.784 1.718 22105
0.250 0.792 1.722 22073
0.253 0.800 1.727 21081
0.254 0.804 1.724 20221
0.255 0.809 1.722 17221
0.257 0.813 1.719 14299
0.258 0.817 1.716 14945
0.260 0.822 1.714 17953
0.262 0.830 1.718 20760
0.262 0.830 1.709 22525
0.262 0.831 1.699 24676
0.264 0.835 1.697 22327
0.265 0.840 1.694 20860
0.265 0.840 1.684 21488
0.265 0.841 1.675 19867
0.267 0.845 1.672 19496
0.271 0.857 1.683 18044
0.274 0.869 1.694 17171
0.277 0.877 1.698 16655
0.278 0.881 1.695 20026
0.280 0.886 1.693 23736
0.281 0.890 1.690 18394
0.285 0.902 1.701 9050
0.289 0.915 1.711 5938
0.289 0.915 1.702 5403
0.289 0.915 1.692 4482
0.296 0.936 1.716 4640
0.294 0.932 1.700 7541
0.294 0.932 1.690 11257
0.294 0.932 1.680 12665
0.298 0.945 1.691 14088
0.304 0.962 1.708 18516
0.306 0.970 1.711 21763
0.308 0.974 1.708 20528
0.309 0.979 1.705 16277
0.308 0.975 1.689 15561
0.312 0.987 1.699 18302
0.315 0.996 1.702 18407
0.316 1.000 1.699 14272
0.317 1.005 1.696 14745
0.319 1.009 1.693 18495
0.321 1.018 1.696 18575
0.324 1.026 1.700 18699
0.326 1.031 1.696 19474
0.328 1.039 1.700 20752
0.330 1.044 1.696 19981
0.331 1.048 1.693 20481
0.334 1.057 1.696 22312
0.335 1.061 1.693 19711
0.336 1.065 1.690 15938
0.336 1.065 1.680 15976
0.339 1.074 1.683 14007
0.341 1.078 1.680 11292
0.342 1.082 1.676 11278
0.343 1.087 1.673 15328
0.346 1.095 1.676 19490
0.347 1.100 1.672 15588
0.353 1.118 1.688 8352
0.357 1.131 1.697 6731
0.353 1.117 1.668 6547
0.356 1.126 1.671 6523
0.361 1.144 1.686 7137
0.366 1.158 1.695 11951
0.366 1.158 1.685 13325
0.365 1.157 1.675 10351
0.367 1.161 1.672 9919
0.373 1.180 1.686 8873
0.377 1.194 1.695 6573
0.375 1.188 1.679 5385
0.375 1.188 1.669 6336
0.378 1.197 1.671 9028
0.381 1.206 1.674 16744
0.382 1.210 1.670 20415
0.384 1.215 1.666 14157
0.388 1.229 1.674 10204
0.391 1.238 1.677 12503
0.394 1.247 1.679 14643
0.397 1.256 1.681 12805
0.398 1.260 1.677 14919
0.399 1.265 1.673 18959
0.402 1.274 1.675 26121
0.405 1.283 1.677 34635
0.407 1.287 1.673 27023
0.410 1.297 1.675 22451
0.411 1.301 1.671 25230
0.412 1.305 1.667 17360
0.415 1.315 1.668 8330
0.415 1.314 1.658 5690
0.413 1.308 1.643 4798
0.422 1.338 1.668 5244
0.425 1.347 1.669 12144
0.427 1.351 1.665 15707
0.431 1.366 1.672 10865
0.436 1.381 1.679 9110
0.432 1.369 1.658 13215
0.435 1.379 1.659 12098
0.438 1.388 1.661 10248
0.441 1.397 1.662 11375
0.446 1.412 1.669 11729
0.447 1.417 1.665 14245
0.449 1.421 1.660 13868
0.452 1.430 1.661 16124
0.456 1.445 1.668 19664
0.461 1.460 1.675 17246
0.466 1.475 1.681 15922
0.466 1.474 1.671 14071
0.467 1.478 1.667 11766
0.468 1.483 1.662 9884
0.470 1.487 1.657 5192
0.476 1.507 1.669 8718
0.476 1.506 1.659 9560
0.477 1.510 1.654 4967
0.487 1.542 1.677 12472
0.488 1.546 1.672 20457
0.492 1.556 1.672 21352
0.493 1.560 1.668 22031
0.494 1.565 1.663 17374
0.497 1.574 1.663 11853
0.500 1.584 1.664 8294
0.505 1.600 1.669 10027
0.505 1.598 1.659 14721
0.506 1.603 1.654 10169
0.509 1.612 1.654 5749
0.516 1.634 1.665 7461
0.519 1.644 1.665 7913
0.526 1.665 1.675 9249
0.531 1.681 1.681 10688
0.536 1.696 1.686 8446
0.537 1.701 1.680 6620
0.548 1.734 1.701 7301
0.549 1.738 1.695 7484
0.548 1.737 1.685 6599
0.544 1.723 1.664 6841
0.546 1.728 1.659 7003
0.549 1.738 1.659 6374
0.558 1.765 1.673 6031
0.577 1.828 1.717 6081
0.577 1.827 1.707 8863
0.578 1.831 1.701 10448
0.582 1.841 1.700 8267
0.589 1.863 1.709 8117
0.592 1.874 1.709 8124
0.593 1.878 1.703 4754
0.596 1.888 1.702 3231
0.600 1.898 1.701 3623
0.609 1.927 1.714 5200
0.612 1.937 1.713 4908
0.613 1.941 1.707 4727
0.615 1.946 1.701 6734
0.618 1.956 1.700 6578
0.625 1.979 1.708 6168
0.626 1.983 1.702 5079
0.632 1.999 1.705 4452
0.635 2.010 1.703 4881
0.640 2.026 1.706 4147
0.645 2.043 1.709 3226
0.660 2.090 1.735 5567
0.662 2.095 1.729 6439
0.665 2.105 1.727 5498
0.668 2.116 1.725 3742
0.666 2.108 1.709 4587
0.667 2.112 1.703 7473
0.670 2.123 1.701 8506
0.672 2.127 1.694 7028
0.673 2.131 1.688 6219
0.676 2.142 1.686 6628
0.680 2.152 1.683 7642
0.681 2.157 1.677 8936
0.684 2.167 1.674 8257
0.700 2.215 1.698 10915
0.699 2.213 1.687 9505
0.698 2.211 1.676 6884
0.702 2.222 1.673 4678
0.713 2.258 1.688 4090
0.719 2.275 1.689 6237
0.720 2.279 1.682 6809
0.719 2.277 1.671 5479
0.743 2.352 1.710 3853
0.722 2.285 1.657 3655
0.727 2.303 1.658 3642
0.729 2.307 1.651 3436
0.762 2.414 1.710 4145
0.762 2.412 1.699 4966
0.755 2.390 1.675 4939
0.769 2.433 1.692 5938
0.772 2.444 1.688 6448
0.784 2.481 1.701 5818
0.781 2.472 1.685 7459
0.782 2.476 1.678 9220
0.781 2.474 1.666 10245
0.783 2.478 1.658 11059
0.784 2.483 1.651 10732
0.788 2.493 1.647 8620
0.789 2.497 1.639 6671
0.790 2.502 1.631 6088
0.789 2.499 1.620 5579
0.793 2.510 1.616 4233
0.830 2.626 1.673 2378
0.839 2.657 1.680 2811
0.843 2.668 1.676 3104
0.844 2.672 1.667 3445
0.847 2.683 1.663 2743
0.851 2.694 1.658 2123
0.863 2.732 1.668 2265
0.864 2.736 1.660 2516
0.863 2.733 1.648 3218
0.863 2.731 1.636 4035
0.864 2.735 1.627 3603
0.865 2.739 1.619 3171
0.869 2.750 1.614 2423
0.895 2.835 1.648 2010
0.888 2.812 1.625 1913
0.887 2.809 1.613 1917
0.916 2.902 1.650 1754
0.918 2.906 1.641 2292
0.919 2.910 1.632 2006
0.920 2.914 1.623 1728
0.939 2.973 1.641 1679
0.942 2.984 1.635 1888
0.944 2.988 1.626 1832
0.943 2.985 1.613 1790
0.946 2.996 1.608 1794
0.989 3.130 1.661 1359
0.992 3.141 1.655 1595
0.991 3.139 1.642 1412
0.988 3.129 1.625 1302
0.990 3.133 1.616 1159
1.030 3.262 1.664 1356
1.032 3.266 1.653 1356
1.033 3.270 1.643 678
0.197 0.620 1.652 14498
0.200 0.630 1.665 11021
0.203 0.638 1.670 8868
0.203 0.639 1.661 11189
0.203 0.640 1.651 13966
0.205 0.644 1.649 13954
0.207 0.651 1.654 14653
0.211 0.665 1.674 16269
0.214 0.673 1.679 15190
0.216 0.680 1.684 14355
0.219 0.688 1.689 14903
0.222 0.699 1.701 16519
0.224 0.706 1.706 15652
0.228 0.717 1.718 21214
0.229 0.722 1.716 27312
0.231 0.726 1.713 25171
0.233 0.734 1.718 23471
0.234 0.735 1.709 22454
0.235 0.739 1.706 21879
0.235 0.740 1.697 20451
0.237 0.744 1.695 19284
0.239 0.752 1.699 17169
0.242 0.760 1.704 15457
0.244 0.768 1.709 17686
0.247 0.775 1.713 21269
0.250 0.787 1.725 20592
0.253 0.795 1.729 20999
0.254 0.799 1.727 20579
0.255 0.804 1.724 20159
0.257 0.808 1.722 17633
0.258 0.813 1.719 15116
0.260 0.817 1.716 15335
0.262 0.825 1.721 16791
0.264 0.829 1.718 18516
0.264 0.830 1.709 20017
0.264 0.831 1.699 22036
0.267 0.839 1.703 20269
0.267 0.839 1.694 19366
0.267 0.840 1.684 20527
0.267 0.840 1.675 19685
0.267 0.840 1.666 19565
0.271 0.852 1.677 17518
0.276 0.868 1.694 15798
0.279 0.877 1.698 16000
0.280 0.881 1.695 20464
0.281 0.885 1.693 24600
0.283 0.889 1.690 19103
0.287 0.902 1.701 9263
0.291 0.914 1.711 5825
0.291 0.914 1.702 5939
0.291 0.915 1.692 5243
0.297 0.935 1.716 5110
0.296 0.931 1.700 8151
0.296 0.932 1.690 12163
0.296 0.932 1.680 13741
0.300 0.944 1.691 15237
0.304 0.957 1.701 19704
0.308 0.970 1.711 23110
0.310 0.974 1.708 21645
0.311 0.978 1.705 17069
0.311 0.978 1.695 15906
0.312 0.983 1.692 18169
0.316 0.995 1.702 18277
0.318 1.000 1.699 14531
0.319 1.004 1.696 15113
0.321 1.008 1.693 18757
0.323 1.017 1.696 18082
0.326 1.026 1.700 17243
0.327 1.030 1.696 17771
0.330 1.039 1.700 19272
0.332 1.043 1.696 18686
0.333 1.047 1.693 19285
0.336 1.056 1.696 21540
0.337 1.060 1.693 19532
0.338 1.065 1.690 16576
0.338 1.064 1.680 16997
0.341 1.073 1.683 14915
0.343 1.077 1.680 11994
0.344 1.082 1.676 11842
0.347 1.091 1.679 15427
0.348 1.095 1.676 18998
0.349 1.099 1.672 15081
0.355 1.117 1.688 7717
0.361 1.135 1.703 6144
0.359 1.130 1.687 6057
0.359 1.130 1.677 5958
0.365 1.148 1.692 6856
0.368 1.157 1.695 11955
0.368 1.157 1.685 13438
0.368 1.156 1.675 9514
0.369 1.161 1.672 8395
0.373 1.174 1.680 7414
0.376 1.183 1.683 5532
0.376 1.183 1.673 6592
0.377 1.187 1.669 8092
0.380 1.196 1.671 9161
0.383 1.205 1.674 15477
0.386 1.214 1.676 18282
0.387 1.219 1.672 11743
0.390 1.228 1.674 9342
0.393 1.237 1.677 12226
0.396 1.246 1.679 13744
0.399 1.255 1.681 12079
0.400 1.260 1.677 14694
0.402 1.264 1.673 19534
0.405 1.273 1.675 27088
0.408 1.282 1.677 34977
0.409 1.287 1.673 26669
0.410 1.291 1.669 21448
0.413 1.300 1.671 23044
0.415 1.304 1.667 14942
0.416 1.309 1.663 8388
0.416 1.308 1.653 5991
0.415 1.307 1.643 3510
0.418 1.316 1.645 3864
0.426 1.341 1.663 10091
0.429 1.350 1.665 15101
0.436 1.370 1.678 13123
0.439 1.380 1.679 10878
0.435 1.368 1.658 13337
0.438 1.378 1.659 11575
0.441 1.387 1.661 9325
0.444 1.397 1.662 10661
0.449 1.411 1.669 11563
0.448 1.410 1.659 13086
0.450 1.415 1.655 10811
0.454 1.429 1.661 11996
0.459 1.444 1.668 17040
0.464 1.459 1.675 15546
0.469 1.474 1.681 15020
0.470 1.479 1.677 14555
0.470 1.477 1.667 12534
0.471 1.482 1.662 10591
0.474 1.491 1.663 5625
0.479 1.507 1.669 9370
0.478 1.505 1.659 9439
0.480 1.509 1.654 4654
0.490 1.541 1.677 12100
0.491 1.545 1.672 19566
0.494 1.555 1.672 20745
0.496 1.560 1.668 21660
0.497 1.564 1.663 17414
0.498 1.568 1.658 11994
0.503 1.583 1.664 8479
0.508 1.599 1.669 10576
0.508 1.597 1.659 15432
0.507 1.596 1.649 9740
0.510 1.606 1.649 3639
0.517 1.627 1.660 4096
0.528 1.660 1.681 4756
0.533 1.675 1.686 8844
0.536 1.685 1.686 11808
0.539 1.695 1.686 9377
0.540 1.700 1.680 7597
0.549 1.727 1.696 7265
0.552 1.737 1.695 7198
0.550 1.730 1.680 8075
0.549 1.728 1.669 8993
0.551 1.732 1.664 7163
0.554 1.742 1.664 6278
0.561 1.764 1.673 6671
0.562 1.768 1.668 4854
0.578 1.820 1.702 6798
0.580 1.824 1.696 8824
0.583 1.834 1.695 7786
0.592 1.862 1.709 8160
0.595 1.872 1.709 7634
0.597 1.877 1.703 4576
0.598 1.881 1.697 3321
0.597 1.879 1.686 3769
0.612 1.926 1.714 4068
0.617 1.942 1.718 3992
0.617 1.940 1.707 4998
0.616 1.939 1.696 7786
0.621 1.955 1.700 6845
0.627 1.971 1.703 5838
0.628 1.976 1.697 4773
0.635 1.998 1.705 4076
0.638 2.009 1.703 4951
0.644 2.025 1.706 4517
0.649 2.042 1.709 3671
0.664 2.089 1.735 5659
0.665 2.093 1.729 6755
0.669 2.104 1.727 5708
0.649 2.040 1.670 3872
0.672 2.113 1.714 4020
0.673 2.117 1.707 8171
0.674 2.121 1.701 9961
0.676 2.126 1.694 8607
0.677 2.130 1.688 7986
0.680 2.141 1.686 7862
0.682 2.145 1.679 8368
0.685 2.155 1.677 9829
0.688 2.166 1.674 9138
0.704 2.214 1.698 9686
0.703 2.212 1.687 7469
0.701 2.204 1.672 5229
0.708 2.227 1.678 4023
0.713 2.244 1.679 4427
0.721 2.267 1.685 6505
0.724 2.278 1.682 7076
0.723 2.276 1.671 5750
0.725 2.280 1.664 3914
0.728 2.291 1.661 3667
0.731 2.301 1.658 3473
0.735 2.312 1.655 3364
0.767 2.413 1.710 3568
0.764 2.404 1.694 4296
0.759 2.389 1.675 4542
0.771 2.425 1.688 4707
0.776 2.443 1.688 5022
0.788 2.479 1.701 4721
0.783 2.464 1.681 6276
0.787 2.475 1.678 7976
0.786 2.473 1.666 8846
0.787 2.477 1.658 9377
0.789 2.481 1.651 9009
0.790 2.485 1.643 6988
0.793 2.496 1.639 5103
0.795 2.500 1.631 4669
0.794 2.498 1.620 4329
0.797 2.508 1.616 3298
0.834 2.625 1.673 2350
0.844 2.656 1.680 2503
0.848 2.666 1.676 2863
0.851 2.677 1.671 3268
0.852 2.682 1.663 2756
0.862 2.712 1.669 2335
0.866 2.723 1.665 2522
0.867 2.728 1.656 2750
0.866 2.725 1.644 3550
0.868 2.729 1.636 4397
0.869 2.733 1.627 3973
0.870 2.737 1.619 3549
0.874 2.748 1.614 2693
0.879 2.766 1.613 2098
0.891 2.804 1.622 1924
0.892 2.808 1.613 1880
0.922 2.900 1.650 1755
0.925 2.911 1.644 2277
0.927 2.915 1.635 1951
0.924 2.905 1.619 1662
0.947 2.978 1.644 1549
0.952 2.995 1.642 1604
0.951 2.993 1.629 1588
0.953 2.997 1.620 1576
0.952 2.994 1.608 1585
0.994 3.129 1.661 1281
1.000 3.146 1.658 1543
0.999 3.144 1.645 1313
0.994 3.127 1.625 1264
0.995 3.131 1.616 1116
1.034 3.253 1.660 1221
1.035 3.257 1.650 1221
1.037 3.261 1.640 610
0.199 0.619 1.652 15426
0.202 0.630 1.665 11726
0.204 0.637 1.670 9057
0.205 0.638 1.661 11603
0.206 0.642 1.659 14757
0.207 0.647 1.656 14757
0.210 0.654 1.662 15381
0.214 0.668 1.681 17424
0.217 0.675 1.686 15956
0.218 0.680 1.684 14633
0.220 0.687 1.689 14603
0.224 0.698 1.701 15381
0.227 0.709 1.713 14733
0.230 0.717 1.718 20954
0.231 0.721 1.716 27297
0.234 0.729 1.720 25718
0.235 0.733 1.718 24455
0.237 0.737 1.716 22346
0.237 0.738 1.706 20523
0.238 0.743 1.704 18590
0.240 0.747 1.702 16657
0.242 0.755 1.706 14589
0.245 0.763 1.711 13149
0.247 0.770 1.716 16014
0.250 0.778 1.720 19811
0.252 0.786 1.725 19459
0.255 0.794 1.729 20077
0.256 0.799 1.727 19994
0.258 0.803 1.724 19910
0.259 0.807 1.722 17924
0.260 0.812 1.719 15944
0.262 0.816 1.716 15685
0.263 0.821 1.714 14897
0.266 0.829 1.718 14870
0.266 0.829 1.709 15969
0.266 0.830 1.699 17658
0.269 0.838 1.703 17040
0.268 0.835 1.687 17364
0.269 0.839 1.684 19275
0.269 0.839 1.675 19340
0.269 0.840 1.666 19514
0.272 0.848 1.670 16808
0.276 0.860 1.681 14386
0.281 0.876 1.698 15505
0.282 0.880 1.695 21595
0.284 0.884 1.693 26399
0.285 0.889 1.690 20476
0.289 0.901 1.701 10074
0.293 0.913 1.711 6454
0.293 0.914 1.702 7096
0.295 0.918 1.699 6513
0.297 0.926 1.702 5868
0.299 0.931 1.700 9013
0.299 0.931 1.690 13257
0.300 0.935 1.687 14958
0.303 0.943 1.691 16654
0.307 0.956 1.701 21597
0.309 0.965 1.705 25517
0.311 0.969 1.702 23712
0.314 0.977 1.705 18612
0.314 0.977 1.695 16800
0.316 0.986 1.699 19126
0.319 0.995 1.702 19498
0.321 0.999 1.699 15489
0.322 1.003 1.696 15271
0.323 1.008 1.693 18675
0.326 1.016 1.696 17214
0.327 1.020 1.693 15027
0.330 1.029 1.696 14893
0.333 1.038 1.700 16468
0.334 1.042 1.696 16092
0.336 1.046 1.693 16806
0.339 1.055 1.696 19778
0.340 1.059 1.693 18813
0.341 1.064 1.690 17471
0.343 1.068 1.686 18915
0.344 1.072 1.683 16556
0.347 1.081 1.686 12724
0.347 1.081 1.676 11557
0.350 1.090 1.679 14360
0.351 1.094 1.676 17759
0.354 1.103 1.678 14575
0.364 1.135 1.713 6927
0.367 1.144 1.715 6414
0.367 1.143 1.705 6940
0.368 1.148 1.702 6661
0.371 1.157 1.704 7730
0.371 1.156 1.695 12157
0.371 1.156 1.685 13614
0.371 1.155 1.675 8378
0.372 1.160 1.672 6322
