0.285 0.716 1.709 13935
0.285 0.717 1.699 15863
0.287 0.721 1.697 12539
0.286 0.719 1.681 9769
0.289 0.726 1.685 10090
0.292 0.734 1.690 10650
0.292 0.735 1.681 15712
0.294 0.739 1.678 20787
0.296 0.743 1.676 21022
0.297 0.747 1.673 21256
0.299 0.751 1.671 15795
0.299 0.752 1.662 11375
0.301 0.756 1.659 13013
0.301 0.756 1.650 17264
0.303 0.760 1.647 21578
0.304 0.764 1.645 23189
0.307 0.772 1.649 24822
0.308 0.773 1.640 23069
0.309 0.777 1.637 21339
0.311 0.781 1.635 19117
0.314 0.788 1.639 14124
0.323 0.811 1.671 13391
0.329 0.826 1.689 15398
0.331 0.831 1.686 17183
0.334 0.839 1.690 19534
0.337 0.847 1.694 22086
0.339 0.851 1.691 20850
0.339 0.851 1.682 18509
0.339 0.851 1.672 17719
0.339 0.852 1.663 17057
0.344 0.864 1.674 15989
0.350 0.879 1.691 19241
0.352 0.884 1.688 20430
0.355 0.892 1.692 18210
0.357 0.896 1.689 15134
0.360 0.904 1.693 20250
0.360 0.904 1.683 22193
0.360 0.904 1.674 19682
0.362 0.908 1.671 24393
0.363 0.913 1.668 25026
0.368 0.925 1.678 21321
0.370 0.929 1.675 22725
0.376 0.945 1.692 24793
0.380 0.954 1.695 20670
0.381 0.958 1.692 15111
0.385 0.966 1.696 15276
0.390 0.979 1.706 15484
0.393 0.987 1.709 12763
0.396 0.996 1.712 11119
0.398 1.000 1.709 9612
0.398 1.000 1.700 9964
0.400 1.004 1.696 12577
0.401 1.008 1.693 10735
0.405 1.017 1.696 8175
0.406 1.021 1.693 10266
0.408 1.025 1.690 13875
0.410 1.029 1.686 11877
0.413 1.038 1.690 11910
0.417 1.046 1.693 16847
0.418 1.051 1.689 17335
0.422 1.059 1.692 15010
0.422 1.059 1.682 12983
0.425 1.068 1.685 9687
0.427 1.072 1.682 6336
0.432 1.085 1.691 10183
0.435 1.094 1.694 16592
0.439 1.102 1.697 15566
0.441 1.107 1.693 15513
0.444 1.115 1.696 17872
0.447 1.124 1.698 23875
0.449 1.128 1.695 31071
0.451 1.132 1.691 29236
0.454 1.141 1.694 16671
0.460 1.155 1.702 6681
0.461 1.159 1.699 8179
0.463 1.163 1.695 13300
0.465 1.167 1.691 13628
0.468 1.176 1.693 15779
0.470 1.180 1.690 21604
0.473 1.189 1.692 18097
0.477 1.198 1.694 10138
0.481 1.207 1.696 16912
0.482 1.211 1.692 33038
0.484 1.216 1.689 33526
0.486 1.220 1.685 25070
0.489 1.229 1.687 19626
0.493 1.238 1.689 15202
0.498 1.252 1.697 12658
0.502 1.261 1.699 13525
0.504 1.265 1.695 12411
0.505 1.269 1.691 11584
0.507 1.273 1.686 8530
0.509 1.278 1.682 7405
0.508 1.277 1.672 7933
0.520 1.306 1.698 6811
0.518 1.300 1.682 12357
0.515 1.294 1.666 16689
0.517 1.298 1.662 14154
0.524 1.317 1.675 14393
0.530 1.332 1.682 14235
0.534 1.341 1.684 9726
0.535 1.345 1.679 8930
0.537 1.349 1.675 16159
0.539 1.353 1.671 21810
0.540 1.357 1.667 24679
0.544 1.367 1.668 26953
0.546 1.371 1.663 21749
0.547 1.375 1.659 11145
0.553 1.389 1.666 9872
0.557 1.399 1.667 9876
0.559 1.403 1.663 16250
0.560 1.407 1.658 21371
0.564 1.416 1.659 23867
0.565 1.420 1.655 22814
0.569 1.430 1.656 13768
0.573 1.439 1.657 8558
0.581 1.459 1.668 6765
0.585 1.469 1.669 13908
0.588 1.478 1.670 15276
0.597 1.498 1.681 12631
0.600 1.508 1.682 18013
0.600 1.507 1.672 17133
0.606 1.522 1.678 18102
0.607 1.526 1.673 20784
0.611 1.535 1.673 14007
0.615 1.545 1.674 15078
0.619 1.555 1.674 19275
0.618 1.553 1.664 19320
0.618 1.552 1.654 16682
0.622 1.561 1.654 19165
0.625 1.571 1.654 21412
0.627 1.575 1.649 16697
0.624 1.568 1.634 15614
0.628 1.578 1.634 11298
0.650 1.632 1.675 10477
0.651 1.636 1.670 16958
0.651 1.634 1.660 14240
0.664 1.667 1.680 19525
0.665 1.671 1.675 32100
0.667 1.675 1.670 35606
0.666 1.673 1.659 30124
0.668 1.678 1.654 26111
0.674 1.693 1.659 25844
0.682 1.714 1.668 24474
0.686 1.724 1.668 28081
0.686 1.722 1.657 27875
0.687 1.726 1.652 20621
0.689 1.731 1.646 18663
0.693 1.740 1.646 19478
0.699 1.756 1.650 21460
0.701 1.760 1.644 23799
0.702 1.764 1.639 19122
0.711 1.786 1.648 12025
0.722 1.813 1.661 10808
0.726 1.823 1.660 10990
0.730 1.833 1.659 9671
0.734 1.843 1.658 8247
0.738 1.853 1.657 8721
0.739 1.857 1.651 9952
0.739 1.855 1.640 8687
0.759 1.907 1.672 13305
0.763 1.917 1.671 12816
0.710 1.784 1.558 9684
0.781 1.961 1.686 8886
0.782 1.965 1.680 13279
0.784 1.969 1.674 14611
0.786 1.973 1.668 12931
0.797 2.001 1.679 9176
0.801 2.011 1.678 11462
0.805 2.022 1.676 9056
0.809 2.032 1.674 5924
0.808 2.030 1.663 6206
0.805 2.022 1.648 8636
0.804 2.020 1.637 9712
0.803 2.018 1.626 10118
0.805 2.022 1.619 9407
0.826 2.075 1.648 8002
0.825 2.073 1.637 6319
0.807 2.027 1.596 7602
0.809 2.031 1.589 7315
0.808 2.029 1.579 5663
0.851 2.138 1.645 5213
0.880 2.210 1.685 5998
0.879 2.208 1.674 7009
0.881 2.212 1.667 7017
0.907 2.279 1.702 5950
0.911 2.289 1.699 6899
0.916 2.300 1.696 9036
0.920 2.310 1.693 10409
0.921 2.314 1.685 11149
0.920 2.312 1.674 10939
0.922 2.316 1.667 9954
0.924 2.320 1.659 7805
0.925 2.324 1.652 7064
0.927 2.329 1.644 8473
0.931 2.339 1.641 9703
0.935 2.349 1.638 11475
0.939 2.360 1.634 10052
0.949 2.383 1.639 6692
0.963 2.419 1.651 5664
0.965 2.423 1.643 6387
0.969 2.433 1.639 7115
0.970 2.437 1.631 6135
1.028 2.583 1.708 5668
1.027 2.581 1.696 7229
1.029 2.585 1.688 8502
1.033 2.595 1.684 9835
1.032 2.593 1.672 10421
1.031 2.591 1.660 11297
1.030 2.588 1.648 8534
1.029 2.586 1.636 5903
1.073 2.694 1.687 6066
1.077 2.705 1.682 8667
1.078 2.709 1.673 9906
1.083 2.719 1.668 11164
1.092 2.743 1.671 9254
1.104 2.774 1.676 8670
1.106 2.778 1.668 7959
1.118 2.808 1.673 8590
1.120 2.812 1.664 7342
1.116 2.803 1.648 6404
1.118 2.807 1.639 4996
1.169 2.937 1.696 4567
1.168 2.935 1.683 5110
1.167 2.932 1.671 5833
1.166 2.930 1.658 5392
1.168 2.934 1.649 5009
1.169 2.938 1.639 4986
1.168 2.935 1.627 4990
1.170 2.939 1.617 4990
1.174 2.950 1.611 4475
1.208 3.034 1.641 5261
1.207 3.031 1.629 4558
1.208 3.035 1.619 3862
1.247 3.133 1.654 3178
1.249 3.137 1.644 3796
1.251 3.142 1.634 3796
1.252 3.146 1.625 1898
0.251 0.625 1.703 19762
0.253 0.629 1.701 17740
0.255 0.636 1.706 15783
0.257 0.640 1.704 14501
0.259 0.644 1.702 13219
0.261 0.649 1.700 13219
0.263 0.656 1.705 13702
0.266 0.663 1.710 15067
0.271 0.674 1.722 11412
0.274 0.681 1.727 8693
0.277 0.689 1.732 11192
0.278 0.693 1.729 13849
0.279 0.694 1.720 14109
0.281 0.698 1.718 16218
0.282 0.703 1.716 17865
0.284 0.707 1.713 14823
0.290 0.721 1.732 11882
0.286 0.712 1.702 13580
0.288 0.716 1.699 15362
0.288 0.717 1.690 12404
0.288 0.718 1.681 10060
0.291 0.725 1.685 10343
0.294 0.733 1.690 11175
0.295 0.734 1.681 16934
0.296 0.738 1.678 22808
0.298 0.742 1.676 23254
0.300 0.746 1.673 23700
0.301 0.750 1.671 17531
0.303 0.754 1.669 12273
0.303 0.755 1.659 13505
0.305 0.759 1.657 17727
0.305 0.759 1.647 22163
0.307 0.764 1.645 23741
0.308 0.768 1.642 25319
0.310 0.772 1.640 23702
0.312 0.776 1.637 22085
0.313 0.780 1.635 20381
0.316 0.787 1.639 15398
0.325 0.810 1.671 13247
0.332 0.825 1.689 15856
0.333 0.830 1.686 17914
0.336 0.838 1.690 19912
0.338 0.842 1.687 22403
0.340 0.846 1.685 21932
0.341 0.850 1.682 20443
0.342 0.850 1.672 19916
0.342 0.851 1.663 19026
0.346 0.862 1.674 18045
0.351 0.874 1.684 21321
0.354 0.882 1.688 22026
0.358 0.891 1.692 18827
0.359 0.895 1.689 15219
0.363 0.903 1.693 20150
0.361 0.899 1.677 22199
0.358 0.891 1.654 20328
0.364 0.907 1.671 24335
0.366 0.911 1.668 24378
0.369 0.920 1.672 20191
0.373 0.928 1.675 23693
0.379 0.944 1.692 26794
0.383 0.953 1.695 23029
0.383 0.953 1.686 17411
0.386 0.961 1.689 15915
0.393 0.978 1.706 14095
0.396 0.986 1.709 12868
0.398 0.990 1.706 12318
0.400 0.994 1.703 10591
0.399 0.994 1.693 10484
0.401 0.999 1.690 12730
0.405 1.007 1.693 10743
0.406 1.011 1.690 7899
0.410 1.020 1.693 9099
0.411 1.024 1.690 11640
0.415 1.032 1.693 10614
0.418 1.041 1.696 12782
0.420 1.045 1.693 17706
0.422 1.049 1.689 17252
0.425 1.058 1.692 14673
0.427 1.062 1.689 11885
0.428 1.066 1.685 8394
0.432 1.075 1.688 5841
0.437 1.088 1.697 10089
0.439 1.092 1.694 16656
0.442 1.101 1.697 14918
0.444 1.105 1.693 14037
0.447 1.114 1.696 17519
0.451 1.123 1.698 24175
0.453 1.127 1.695 30545
0.456 1.136 1.697 29741
0.458 1.140 1.694 18344
0.465 1.158 1.708 8168
0.465 1.157 1.699 8032
0.465 1.157 1.689 12348
0.468 1.166 1.691 11598
0.472 1.175 1.693 12065
0.474 1.179 1.690 16777
0.477 1.188 1.692 14558
0.481 1.197 1.694 9287
0.484 1.206 1.696 17465
0.486 1.210 1.692 34134
0.488 1.214 1.689 35520
0.489 1.218 1.685 27378
0.493 1.227 1.687 21497
0.497 1.236 1.689 17566
0.500 1.245 1.691 16217
0.506 1.259 1.699 14804
0.508 1.263 1.695 11941
0.509 1.268 1.691 11333
0.511 1.272 1.686 9792
0.511 1.271 1.677 8688
0.512 1.275 1.672 8948
0.520 1.294 1.686 8598
0.522 1.298 1.682 12070
0.521 1.297 1.672 14005
0.527 1.312 1.679 11645
0.533 1.326 1.687 13871
0.536 1.335 1.688 15731
0.538 1.339 1.684 11311
0.540 1.343 1.679 9074
0.541 1.348 1.675 16481
0.543 1.352 1.671 22306
0.545 1.356 1.667 24433
0.548 1.365 1.668 27649
0.552 1.374 1.669 22874
0.552 1.373 1.659 10995
0.557 1.388 1.666 9480
0.561 1.397 1.667 9333
0.561 1.396 1.657 13255
0.562 1.400 1.653 19865
0.568 1.415 1.659 23285
0.570 1.419 1.655 22502
0.574 1.428 1.656 15203
0.577 1.437 1.657 8985
0.581 1.447 1.657 6656
0.587 1.462 1.664 10720
0.584 1.455 1.648 11610
0.603 1.502 1.687 11865
0.603 1.501 1.677 18132
0.605 1.505 1.672 17939
0.608 1.514 1.672 17985
0.614 1.529 1.678 20316
0.618 1.539 1.679 13229
0.624 1.554 1.684 13481
0.624 1.553 1.674 18363
0.623 1.551 1.664 22840
0.623 1.550 1.654 22967
0.626 1.559 1.654 22476
0.630 1.569 1.654 23879
0.632 1.573 1.649 18664
0.634 1.577 1.644 14807
0.635 1.581 1.639 10699
0.652 1.624 1.670 10183
0.654 1.628 1.665 15650
0.656 1.632 1.660 15610
0.669 1.665 1.680 21514
0.670 1.669 1.675 31922
0.672 1.673 1.670 32375
0.671 1.671 1.659 25084
0.673 1.675 1.654 22078
0.679 1.691 1.659 23614
0.688 1.712 1.668 22857
0.692 1.722 1.668 26762
0.691 1.720 1.657 26128
0.693 1.724 1.652 19025
0.697 1.734 1.651 18436
0.698 1.738 1.646 19499
0.702 1.748 1.645 20056
0.706 1.758 1.644 22027
0.708 1.762 1.639 18719
0.716 1.783 1.648 13710
0.727 1.811 1.661 12695
0.729 1.815 1.655 12304
0.735 1.831 1.659 9003
0.742 1.846 1.663 7323
0.746 1.856 1.662 9214
0.745 1.855 1.651 11060
0.747 1.859 1.645 9632
0.765 1.904 1.672 13518
0.769 1.914 1.671 13773
0.718 1.788 1.562 9405
0.784 1.952 1.682 9618
0.788 1.962 1.680 13452
0.790 1.967 1.674 14434
0.792 1.971 1.668 12245
0.803 1.999 1.679 8711
0.805 2.003 1.673 11700
0.801 1.995 1.658 9810
0.803 1.999 1.651 6738
0.805 2.003 1.645 7354
0.811 2.019 1.648 9813
0.810 2.017 1.637 10759
0.810 2.015 1.626 10942
0.811 2.019 1.619 9667
0.832 2.072 1.648 8737
0.836 2.082 1.646 6927
0.813 2.025 1.596 6480
0.815 2.029 1.589 6307
0.854 2.125 1.647 5508
0.858 2.135 1.645 6010
0.862 2.146 1.643 5701
0.886 2.205 1.674 6194
0.885 2.203 1.663 6597
0.914 2.276 1.702 6502
0.918 2.286 1.699 7096
0.923 2.297 1.696 8640
0.927 2.307 1.693 9644
0.929 2.311 1.685 10360
0.928 2.309 1.674 10592
0.929 2.313 1.667 10063
0.931 2.318 1.659 7616
0.933 2.322 1.652 6279
0.932 2.319 1.640 7398
0.941 2.342 1.645 9023
0.945 2.353 1.642 11280
0.947 2.357 1.634 9704
0.959 2.386 1.643 6199
0.973 2.422 1.655 5714
0.975 2.426 1.647 6435
0.976 2.430 1.639 7157
0.975 2.428 1.628 6040
1.034 2.573 1.705 5648
1.035 2.577 1.696 7356
1.037 2.582 1.688 8275
1.041 2.592 1.684 9273
1.040 2.590 1.672 9542
1.037 2.581 1.656 10256
1.038 2.585 1.648 7780
1.051 2.615 1.655 5435
1.081 2.691 1.687 6446
1.085 2.701 1.682 9398
1.087 2.705 1.673 10480
1.091 2.716 1.668 11638
1.098 2.733 1.667 9253
1.113 2.770 1.676 7486
1.114 2.774 1.668 6916
1.129 2.811 1.676 7997
1.128 2.809 1.664 6819
1.125 2.800 1.648 5936
1.126 2.804 1.639 4629
1.176 2.927 1.693 4895
1.177 2.931 1.683 5527
1.176 2.928 1.671 6287
1.175 2.926 1.658 5806
1.177 2.930 1.649 5402
1.179 2.934 1.639 5396
1.178 2.931 1.627 5392
1.179 2.935 1.617 5392
1.183 2.946 1.611 4981
1.220 3.037 1.645 5926
1.219 3.034 1.632 5062
1.218 3.032 1.619 4347
1.222 3.042 1.613 3472
1.259 3.134 1.644 3968
1.260 3.138 1.634 3968
1.262 3.142 1.625 1984
0.253 0.624 1.703 19228
0.255 0.628 1.701 17258
0.256 0.632 1.699 15287
0.259 0.639 1.704 13617
0.261 0.644 1.702 11999
0.263 0.648 1.700 11999
0.266 0.655 1.705 12803
0.270 0.666 1.717 14661
0.273 0.673 1.722 11599
0.276 0.680 1.727 9165
0.279 0.688 1.732 11911
0.281 0.692 1.729 14864
0.281 0.693 1.720 15222
0.283 0.697 1.718 17694
0.284 0.702 1.716 19501
0.285 0.703 1.706 15756
0.287 0.707 1.704 12230
0.288 0.711 1.702 13525
0.289 0.712 1.692 14888
0.289 0.713 1.683 12545
0.291 0.717 1.681 10709
0.294 0.724 1.685 10975
0.298 0.735 1.697 12117
0.298 0.736 1.688 18496
0.299 0.737 1.678 25155
0.300 0.741 1.676 25873
0.302 0.745 1.673 26591
0.304 0.749 1.671 19764
0.305 0.753 1.669 13615
0.306 0.754 1.659 14112
0.307 0.758 1.657 18171
0.307 0.759 1.647 22716
0.309 0.763 1.645 24300
0.311 0.767 1.642 25884
0.312 0.771 1.640 24359
0.314 0.775 1.637 22834
0.316 0.779 1.635 21664
0.319 0.786 1.639 16783
0.326 0.805 1.664 13432
0.334 0.824 1.689 16448
0.336 0.829 1.686 18763
0.339 0.836 1.690 20316
0.341 0.841 1.687 22886
0.342 0.845 1.685 23212
0.344 0.849 1.682 22487
0.346 0.853 1.679 21965
0.346 0.853 1.670 20649
0.349 0.861 1.674 19918
0.354 0.873 1.684 23745
0.357 0.881 1.688 24063
0.361 0.889 1.692 19783
0.362 0.894 1.689 15516
0.366 0.902 1.693 20290
0.364 0.898 1.677 22308
0.361 0.890 1.654 21465
0.366 0.902 1.664 24387
0.369 0.910 1.668 23779
0.372 0.918 1.672 19723
0.376 0.927 1.675 25095
0.382 0.943 1.692 29488
0.386 0.951 1.695 26394
0.386 0.951 1.686 20737
0.389 0.960 1.689 17002
0.394 0.972 1.699 12591
0.399 0.985 1.709 12978
0.399 0.985 1.699 13811
0.401 0.989 1.696 11829
0.403 0.993 1.693 11460
0.404 0.997 1.690 13659
0.408 1.006 1.693 11556
0.409 1.010 1.690 8361
0.411 1.014 1.687 8031
0.415 1.023 1.690 9059
0.418 1.031 1.693 9925
0.421 1.040 1.696 14116
0.423 1.044 1.693 18442
0.425 1.048 1.689 17070
0.428 1.057 1.692 14343
0.430 1.061 1.689 11080
0.432 1.065 1.685 7157
0.435 1.074 1.688 5340
0.440 1.087 1.697 9913
0.442 1.091 1.694 16282
0.446 1.100 1.697 14113
0.447 1.104 1.693 13025
0.451 1.112 1.696 17604
0.454 1.121 1.698 24130
0.458 1.130 1.701 28947
0.460 1.134 1.697 28668
0.461 1.138 1.694 19291
0.469 1.156 1.708 10871
0.470 1.161 1.705 8481
0.468 1.156 1.689 10696
0.468 1.155 1.679 10007
0.476 1.173 1.693 8305
0.477 1.177 1.690 11076
0.481 1.186 1.692 10310
0.481 1.186 1.682 8659
0.486 1.199 1.690 17391
0.490 1.208 1.692 32862
0.490 1.208 1.683 35687
0.493 1.217 1.685 28983
0.497 1.226 1.687 23763
0.498 1.230 1.683 20515
0.504 1.244 1.691 20604
0.508 1.253 1.693 16390
0.511 1.262 1.695 10952
0.513 1.266 1.691 9712
0.515 1.270 1.686 10264
0.515 1.269 1.677 10050
0.518 1.278 1.678 9679
0.526 1.298 1.692 10075
0.528 1.302 1.688 11385
0.529 1.306 1.683 12396
0.533 1.315 1.685 11023
0.539 1.329 1.692 13690
0.540 1.333 1.688 16563
0.540 1.333 1.678 12699
0.542 1.337 1.674 9188
0.546 1.346 1.675 16544
0.547 1.350 1.671 22364
0.549 1.354 1.667 23504
0.553 1.363 1.668 26215
0.556 1.373 1.669 20839
0.558 1.377 1.665 9268
0.564 1.391 1.671 9227
0.568 1.401 1.673 10368
0.567 1.399 1.663 12604
0.569 1.403 1.658 17968
0.573 1.413 1.659 20843
0.574 1.417 1.655 19067
0.578 1.426 1.656 14184
0.582 1.436 1.657 8873
0.584 1.440 1.652 5172
0.596 1.470 1.675 6183
0.602 1.485 1.681 8955
0.606 1.495 1.681 10268
0.607 1.499 1.677 16489
0.609 1.503 1.672 17711
0.613 1.512 1.672 16625
0.619 1.527 1.678 18436
0.623 1.537 1.679 16743
0.629 1.552 1.684 18368
0.629 1.551 1.674 19955
0.628 1.549 1.664 25414
0.627 1.548 1.654 25757
0.631 1.557 1.654 24691
0.635 1.567 1.654 25480
0.637 1.571 1.649 19469
0.638 1.575 1.644 14347
0.642 1.585 1.644 10499
0.660 1.628 1.675 8809
0.659 1.626 1.665 12325
0.661 1.630 1.660 16264
0.672 1.657 1.675 24241
0.676 1.667 1.675 31763
0.677 1.671 1.670 30475
0.677 1.669 1.659 21889
0.681 1.679 1.659 18840
0.684 1.689 1.659 21177
0.693 1.710 1.668 20563
0.695 1.714 1.663 23200
0.696 1.718 1.657 21286
0.698 1.722 1.652 15705
0.702 1.732 1.651 17849
0.704 1.736 1.646 19978
0.708 1.746 1.645 19019
0.712 1.756 1.644 18603
0.716 1.766 1.644 17082
0.724 1.787 1.652 16423
0.731 1.803 1.656 15470
0.735 1.813 1.655 14611
0.736 1.817 1.650 8906
0.686 1.692 1.539 6788
0.752 1.854 1.662 9868
0.751 1.852 1.651 13210
0.752 1.856 1.645 11405
0.773 1.908 1.677 13100
0.777 1.918 1.675 14817
0.779 1.922 1.669 11973
0.783 1.932 1.668 11246
0.792 1.954 1.675 13378
0.794 1.958 1.669 13673
0.795 1.962 1.663 11326
0.807 1.990 1.675 8364
0.808 1.994 1.669 11946
0.808 1.992 1.658 11030
0.809 1.997 1.651 8233
0.813 2.007 1.649 9363
0.817 2.017 1.648 11587
0.817 2.015 1.637 11447
0.816 2.013 1.626 11249
0.820 2.023 1.624 9665
0.836 2.063 1.644 9000
0.838 2.067 1.637 6895
0.820 2.022 1.596 5864
0.821 2.026 1.589 5888
0.818 2.018 1.574 4393
0.862 2.127 1.641 4976
0.866 2.137 1.638 5674
0.893 2.203 1.674 5099
0.917 2.263 1.705 6117
0.921 2.273 1.702 7233
0.926 2.284 1.699 7691
0.930 2.294 1.696 8717
0.931 2.298 1.689 9293
0.933 2.302 1.681 9769
0.935 2.306 1.674 10022
0.937 2.311 1.667 9798
0.938 2.315 1.659 7086
0.950 2.344 1.668 5460
0.944 2.329 1.649 6266
0.951 2.346 1.649 8733
0.952 2.350 1.642 11342
0.957 2.360 1.638 9566
0.963 2.377 1.639 5560
0.981 2.419 1.655 5646
0.982 2.423 1.647 6327
0.984 2.427 1.639 7008
0.985 2.431 1.631 5740
1.039 2.564 1.701 5830
1.043 2.574 1.696 7542
1.048 2.585 1.692 8000
1.049 2.589 1.684 8554
1.046 2.580 1.668 8409
1.042 2.571 1.652 9007
1.044 2.575 1.644 6950
1.061 2.618 1.658 5687
1.089 2.687 1.687 6900
1.094 2.698 1.682 10290
1.098 2.709 1.677 11113
1.102 2.719 1.672 12075
1.106 2.730 1.667 9197
1.111 2.741 1.662 6464
1.107 2.732 1.646 6093
1.141 2.814 1.680 7216
1.140 2.812 1.668 6041
1.136 2.803 1.652 5177
1.180 2.912 1.698 4735
1.185 2.923 1.693 5280
1.186 2.927 1.683 6000
1.185 2.925 1.671 6886
1.184 2.922 1.658 6402
1.183 2.920 1.645 6022
1.185 2.924 1.636 5878
1.189 2.934 1.630 5767
1.191 2.938 1.621 5767
1.247 3.076 1.677 5796
1.235 3.046 1.651 6847
1.228 3.030 1.632 5589
1.227 3.028 1.619 4898
1.232 3.038 1.613 4059
1.269 3.130 1.644 4071
1.270 3.134 1.634 4071
1.272 3.138 1.625 2035
0.254 0.623 1.703 17509
0.256 0.627 1.701 15688
0.258 0.632 1.699 13867
0.261 0.639 1.704 12338
0.262 0.643 1.702 10859
0.264 0.647 1.700 10859
0.267 0.654 1.705 11882
0.271 0.665 1.717 14073
0.274 0.672 1.722 11461
0.278 0.680 1.727 9341
0.281 0.687 1.732 12216
0.282 0.691 1.729 15317
0.284 0.696 1.727 15708
0.284 0.697 1.718 18423
0.286 0.701 1.716 20371
0.287 0.702 1.706 16405
0.288 0.706 1.704 12689
0.289 0.707 1.695 13504
0.290 0.711 1.692 14394
0.291 0.712 1.683 12584
0.292 0.716 1.681 11155
0.295 0.724 1.685 11430
0.301 0.738 1.704 12858
0.300 0.735 1.688 19384
0.301 0.736 1.678 26370
0.302 0.740 1.676 27325
0.304 0.744 1.673 28280
0.306 0.748 1.671 21110
0.307 0.753 1.669 14406
0.309 0.757 1.666 14363
0.309 0.757 1.657 18012
0.309 0.758 1.647 22421
0.311 0.762 1.645 23917
0.313 0.766 1.642 25413
0.314 0.770 1.640 24055
0.316 0.774 1.637 22696
0.318 0.778 1.635 21937
0.321 0.786 1.639 17302
0.328 0.804 1.664 13530
0.336 0.824 1.689 16811
0.338 0.828 1.686 19224
0.341 0.836 1.690 20402
0.343 0.840 1.687 22877
0.345 0.844 1.685 23617
0.346 0.848 1.682 23189
0.348 0.852 1.679 22738
0.348 0.852 1.670 21104
0.353 0.864 1.680 20584
0.356 0.872 1.684 24847
0.359 0.880 1.688 24997
0.363 0.889 1.692 20188
0.366 0.897 1.696 15661
0.368 0.901 1.693 20098
0.366 0.897 1.677 21945
0.365 0.893 1.661 21543
0.368 0.901 1.664 23814
0.371 0.909 1.668 22782
0.375 0.918 1.672 19033
0.378 0.926 1.675 25247
0.385 0.942 1.692 30486
0.388 0.950 1.695 27945
0.390 0.955 1.692 22304
0.390 0.955 1.683 17218
0.397 0.971 1.699 11337
0.400 0.980 1.703 12641
0.402 0.984 1.699 14313
0.403 0.988 1.696 12298
0.405 0.992 1.693 12099
0.407 0.996 1.690 14795
0.410 1.005 1.693 12595
0.412 1.009 1.690 9011
0.414 1.013 1.687 7434
0.417 1.022 1.690 7216
0.422 1.034 1.699 9299
0.424 1.039 1.696 14254
0.426 1.043 1.693 18158
0.427 1.047 1.689 16491
0.431 1.056 1.692 13775
0.433 1.060 1.689 10305
0.436 1.068 1.692 6208
0.443 1.086 1.707 5166
0.443 1.086 1.697 9350
0.445 1.090 1.694 15372
0.448 1.098 1.697 13076
0.450 1.103 1.693 12071
0.454 1.111 1.696 17171
0.457 1.120 1.698 23111
0.461 1.129 1.701 26700
0.463 1.133 1.697 26515
0.466 1.142 1.700 19569
0.472 1.155 1.708 13090
0.473 1.159 1.705 8911
0.469 1.150 1.683 8983
0.471 1.154 1.679 9095
0.477 1.167 1.687 6197
0.480 1.176 1.690 6844
0.484 1.185 1.692 7078
0.484 1.185 1.682 8363
0.489 1.198 1.690 16998
0.493 1.207 1.692 29851
0.493 1.207 1.683 33715
0.496 1.215 1.685 28621
0.500 1.224 1.687 24390
0.502 1.229 1.683 22140
0.507 1.242 1.691 23031
0.511 1.251 1.693 17712
0.513 1.256 1.689 10130
0.518 1.270 1.696 8032
0.520 1.274 1.692 10732
0.520 1.273 1.682 11757
0.523 1.282 1.684 10297
0.529 1.296 1.692 10308
0.531 1.300 1.688 10439
0.533 1.305 1.683 11364
0.538 1.319 1.691 10891
0.542 1.328 1.692 13129
0.544 1.332 1.688 15820
0.543 1.331 1.678 12335
0.545 1.335 1.674 8861
0.549 1.344 1.675 15934
0.551 1.349 1.671 20908
0.552 1.353 1.667 21804
0.558 1.367 1.673 24722
0.562 1.376 1.675 18683
0.564 1.380 1.670 8554
0.570 1.395 1.677 10061
0.571 1.399 1.673 13036
0.573 1.403 1.668 14130
0.575 1.407 1.664 16566
0.576 1.411 1.659 18801
0.578 1.415 1.655 16330
0.584 1.430 1.661 12724
0.588 1.439 1.662 8727
0.589 1.444 1.657 8885
0.591 1.448 1.653 10359
0.601 1.473 1.670 11640
0.596 1.461 1.649 11839
0.607 1.487 1.666 15623
0.606 1.485 1.656 18302
0.617 1.511 1.672 15064
0.621 1.520 1.673 14808
0.629 1.541 1.684 16796
0.631 1.545 1.679 21683
0.632 1.549 1.674 23148
0.634 1.553 1.669 26832
0.631 1.546 1.654 27022
0.635 1.556 1.654 25046
0.639 1.565 1.654 25832
0.641 1.570 1.649 19962
0.642 1.574 1.644 13497
0.646 1.583 1.644 10674
0.653 1.598 1.650 7427
0.666 1.630 1.670 9402
0.667 1.634 1.665 15731
0.676 1.655 1.675 24823
0.680 1.665 1.675 30676
0.681 1.669 1.670 28599
0.683 1.673 1.664 19273
0.685 1.677 1.659 16335
0.689 1.687 1.659 19261
0.697 1.708 1.668 19649
0.699 1.712 1.663 21071
0.701 1.716 1.657 17797
0.705 1.726 1.657 13625
0.706 1.730 1.651 17220
0.710 1.740 1.651 19743
0.712 1.744 1.645 18156
0.716 1.754 1.644 16589
0.722 1.769 1.648 16320
0.731 1.791 1.657 18400
0.738 1.807 1.661 17462
0.739 1.811 1.655 16130
0.736 1.803 1.640 10140
0.690 1.690 1.539 5336
0.756 1.852 1.662 8904
0.755 1.850 1.651 12555
0.757 1.854 1.645 10769
0.778 1.906 1.677 12106
0.782 1.916 1.675 14705
0.784 1.920 1.669 13296
0.788 1.930 1.668 12637
0.794 1.946 1.671 13233
0.799 1.956 1.669 13120
0.800 1.960 1.663 10662
0.809 1.982 1.670 7744
0.813 1.992 1.669 11410
0.813 1.990 1.658 10973
0.814 1.995 1.651 8633
0.818 2.005 1.649 10269
0.823 2.015 1.648 12175
0.822 2.013 1.637 11338
0.821 2.011 1.626 11084
0.825 2.021 1.624 9529
0.842 2.061 1.644 8989
0.853 2.090 1.655 7767
0.857 2.100 1.652 6854
0.824 2.018 1.585 5718
0.823 2.016 1.574 4066
0.867 2.124 1.641 4116
0.874 2.141 1.643 4579
0.898 2.200 1.674 4280
0.925 2.267 1.709 6269
0.927 2.271 1.702 7588
0.931 2.281 1.699 8092
0.933 2.285 1.692 9105
0.937 2.296 1.689 9440
0.939 2.300 1.681 9375
0.941 2.304 1.674 9190
0.942 2.308 1.667 9071
0.944 2.312 1.659 6410
0.959 2.348 1.672 4985
0.955 2.339 1.657 5842
0.957 2.343 1.649 8348
0.958 2.347 1.642 10855
0.963 2.358 1.638 9004
0.969 2.374 1.639 5006
0.987 2.417 1.655 5188
0.988 2.421 1.647 5851
0.990 2.425 1.639 6515
0.992 2.429 1.631 5222
1.046 2.561 1.701 5822
1.050 2.571 1.696 7513
1.054 2.582 1.692 7636
1.056 2.586 1.684 7874
1.052 2.577 1.668 7417
1.049 2.569 1.652 8089
1.050 2.573 1.644 6279
1.068 2.616 1.658 5768
1.096 2.685 1.687 6814
1.103 2.702 1.686 10416
1.105 2.706 1.677 11126
1.109 2.716 1.672 11990
1.113 2.727 1.667 8937
1.118 2.738 1.662 5912
1.157 2.833 1.703 5899
1.150 2.818 1.684 6723
1.147 2.809 1.668 5479
1.181 2.892 1.701 4777
1.185 2.903 1.695 4793
1.192 2.920 1.693 5280
1.191 2.918 1.680 5972
1.193 2.922 1.671 6838
1.192 2.919 1.658 6456
1.191 2.917 1.645 6205
1.195 2.927 1.639 5978
1.197 2.931 1.630 5847
1.198 2.935 1.621 5847
1.254 3.073 1.677 6328
1.245 3.050 1.655 7229
1.241 3.041 1.638 5734
1.235 3.025 1.619 5010
1.242 3.042 1.616 4296
1.249 3.059 1.612 4255
1.251 3.063 1.603 4255
1.252 3.067 1.593 2127
0.589 1.442 0.827 238
0.256 0.622 1.703 15028
0.258 0.627 1.701 13645
0.261 0.634 1.706 12399
0.264 0.641 1.711 11554
0.264 0.642 1.702 10605
0.266 0.646 1.700 10605
0.270 0.657 1.712 11912
0.274 0.664 1.717 14517
0.277 0.671 1.722 12308
0.280 0.679 1.727 10555
0.283 0.686 1.732 13334
0.284 0.691 1.729 16205
0.286 0.695 1.727 16696
0.287 0.696 1.718 19595
0.288 0.700 1.716 21717
0.290 0.704 1.713 17493
0.290 0.705 1.704 13621
0.291 0.706 1.695 13592
0.293 0.710 1.692 13621
0.293 0.711 1.683 12680
0.295 0.715 1.681 11931
0.298 0.723 1.685 12281
0.304 0.737 1.704 14145
0.303 0.734 1.688 20861
0.303 0.735 1.678 28286
0.305 0.739 1.676 29401
0.306 0.743 1.673 30517
0.308 0.748 1.671 22825
0.310 0.752 1.669 15429
0.311 0.756 1.666 14913
0.312 0.756 1.657 18081
0.312 0.757 1.647 22203
0.313 0.761 1.645 23305
0.315 0.765 1.642 24408
0.317 0.769 1.640 23180
0.317 0.769 1.631 22070
0.320 0.777 1.635 21723
0.323 0.785 1.639 17653
0.331 0.803 1.664 14015
0.339 0.822 1.689 17411
0.340 0.827 1.686 19798
0.344 0.835 1.690 20893
0.345 0.839 1.687 23416
0.347 0.843 1.685 24368
0.349 0.847 1.682 23698
0.351 0.851 1.679 22886
0.351 0.851 1.670 20673
0.356 0.863 1.680 20888
0.360 0.875 1.691 26015
0.362 0.879 1.688 26174
0.366 0.887 1.692 21200
0.369 0.896 1.696 16641
0.371 0.900 1.693 20870
0.369 0.896 1.677 21913
0.367 0.892 1.661 21154
0.372 0.904 1.671 23079
0.376 0.912 1.675 22110
0.377 0.916 1.672 18408
0.381 0.925 1.675 24841
0.388 0.941 1.692 30853
0.391 0.949 1.695 28415
0.393 0.953 1.692 22437
0.394 0.958 1.689 16182
0.403 0.978 1.712 10432
0.403 0.978 1.703 12629
0.405 0.983 1.699 14758
0.406 0.987 1.696 12502
0.408 0.991 1.693 13128
0.410 0.995 1.690 16963
0.413 1.004 1.693 14286
0.415 1.008 1.690 10059
0.419 1.016 1.693 7207
0.424 1.029 1.703 6006
0.427 1.037 1.706 8901
0.427 1.037 1.696 14060
0.429 1.041 1.693 17686
0.431 1.046 1.689 15964
0.434 1.054 1.692 13212
0.438 1.063 1.695 9403
0.443 1.076 1.704 5899
0.447 1.084 1.707 5331
0.447 1.084 1.697 8544
0.448 1.088 1.694 13878
0.450 1.093 1.690 11737
0.452 1.097 1.687 11201
0.457 1.110 1.696 16630
0.461 1.119 1.698 22076
0.464 1.127 1.701 24250
0.466 1.132 1.697 23624
0.470 1.140 1.700 19802
0.473 1.149 1.702 15550
0.477 1.158 1.705 9251
0.475 1.153 1.689 6295
0.475 1.152 1.679 6947
0.478 1.161 1.681 4672
0.486 1.179 1.696 4029
0.488 1.184 1.692 5190
0.489 1.188 1.688 8649
0.493 1.197 1.690 16464
0.495 1.201 1.686 26256
0.496 1.205 1.683 30834
0.500 1.214 1.685 27453
0.504 1.223 1.687 24235
0.505 1.227 1.683 23612
0.511 1.241 1.691 25611
0.513 1.245 1.687 19627
0.517 1.254 1.689 9637
0.524 1.273 1.702 6726
0.524 1.272 1.692 11450
0.526 1.276 1.688 13016
0.532 1.290 1.696 11415
0.535 1.300 1.698 10753
0.537 1.304 1.693 9666
0.539 1.308 1.689 10270
0.542 1.317 1.691 10382
0.546 1.326 1.692 12275
0.548 1.330 1.688 14404
0.548 1.329 1.678 10601
0.551 1.339 1.679 8840
0.553 1.343 1.675 16125
0.555 1.347 1.671 19039
0.559 1.356 1.672 19612
0.564 1.370 1.679 23333
0.566 1.375 1.675 17843
0.570 1.384 1.676 10566
0.574 1.393 1.677 13305
0.578 1.402 1.678 17143
0.577 1.401 1.668 16490
0.579 1.405 1.664 15803
0.581 1.410 1.659 18164
0.584 1.419 1.660 14430
0.588 1.428 1.661 11407
0.592 1.438 1.662 11477
0.594 1.442 1.657 15321
0.598 1.451 1.658 15967
0.604 1.466 1.664 16676
0.603 1.465 1.654 14799
0.605 1.469 1.650 15277
0.613 1.489 1.661 16228
0.622 1.509 1.672 12366
0.625 1.518 1.673 11352
0.632 1.533 1.679 17623
0.636 1.543 1.679 27606
0.637 1.547 1.674 29106
0.639 1.551 1.669 29023
0.638 1.550 1.659 25605
0.640 1.554 1.654 23610
0.644 1.563 1.654 23202
0.646 1.568 1.649 19560
0.647 1.572 1.644 14268
0.649 1.576 1.639 7972
0.669 1.624 1.675 7619
0.673 1.634 1.675 9231
0.675 1.638 1.670 15912
0.679 1.648 1.670 25197
0.685 1.663 1.675 30028
0.689 1.673 1.675 27409
0.688 1.671 1.664 17470
0.690 1.675 1.659 12883
0.696 1.691 1.664 15858
0.705 1.712 1.673 19252
0.707 1.716 1.668 20044
0.708 1.720 1.662 15414
0.712 1.730 1.662 12468
0.714 1.734 1.656 16746
0.716 1.738 1.651 19405
0.717 1.742 1.645 17500
0.721 1.752 1.644 15161
0.730 1.773 1.653 16332
0.737 1.789 1.657 21167
0.743 1.804 1.661 20640
0.745 1.808 1.655 18573
0.742 1.801 1.640 12466
0.741 1.799 1.630 5524
0.762 1.850 1.662 8206
0.761 1.848 1.651 12297
0.763 1.852 1.645 10328
0.786 1.909 1.681 11576
0.788 1.913 1.675 14777
0.790 1.917 1.669 14758
0.791 1.922 1.663 14311
0.801 1.944 1.671 13662
0.805 1.954 1.669 13435
0.806 1.958 1.663 10689
0.811 1.968 1.661 7538
0.820 1.990 1.669 10679
0.821 1.994 1.662 10590
0.830 2.016 1.669 9137
0.827 2.008 1.654 11239
0.829 2.012 1.648 12510
0.828 2.010 1.637 10558
0.827 2.008 1.626 9987
0.831 2.018 1.624 8458
0.848 2.059 1.644 8498
0.862 2.093 1.659 8467
0.866 2.103 1.657 8099
0.868 2.107 1.650 6403
0.870 2.112 1.643 4349
0.871 2.116 1.636 3875
0.883 2.144 1.647 4329
0.928 2.253 1.712 4155
0.932 2.264 1.709 6937
0.934 2.268 1.702 8499
0.938 2.278 1.699 8948
0.940 2.282 1.692 9606
0.942 2.287 1.684 9596
0.946 2.297 1.681 8959
0.950 2.307 1.678 8370
0.952 2.311 1.671 8281
0.954 2.316 1.663 5817
0.968 2.351 1.676 4954
0.968 2.349 1.665 5631
0.967 2.347 1.653 7824
0.968 2.351 1.646 10017
0.973 2.361 1.642 8131
0.987 2.397 1.654 4575
0.997 2.420 1.659 5093
0.998 2.424 1.651 5655
1.000 2.428 1.643 6216
1.002 2.432 1.635 4687
1.051 2.551 1.697 6195
1.058 2.568 1.696 7823
1.062 2.579 1.692 7578
1.064 2.583 1.684 7458
1.063 2.581 1.672 6441
1.054 2.559 1.649 7068
1.056 2.563 1.641 5536
1.079 2.619 1.662 5720
1.110 2.694 1.694 6870
1.111 2.698 1.686 10648
1.116 2.709 1.681 11320
1.120 2.719 1.676 12162
1.122 2.724 1.667 8835
1.164 2.826 1.712 5742
1.166 2.830 1.703 6364
1.167 2.834 1.694 6987
1.158 2.812 1.671 5194
1.190 2.888 1.701 5046
1.194 2.899 1.695 5106
1.201 2.916 1.693 5497
1.200 2.914 1.680 6093
1.202 2.918 1.671 6781
1.201 2.915 1.658 6447
1.200 2.913 1.645 6296
1.201 2.917 1.636 5849
1.263 3.067 1.700 6327
1.265 3.071 1.690 6327
1.264 3.069 1.677 7042
1.263 3.066 1.664 7882
1.254 3.044 1.642 5884
1.247 3.027 1.622 4945
1.254 3.045 1.619 4366
1.259 3.055 1.612 4394
1.260 3.059 1.603 4394
1.262 3.063 1.593 2197
0.590 1.433 0.824 286
0.257 0.622 1.703 15515
0.259 0.626 1.701 13960
0.262 0.633 1.706 12510
0.265 0.641 1.711 10906
0.265 0.642 1.702 9213
0.267 0.646 1.700 9213
0.273 0.659 1.719 10888
0.274 0.664 1.717 13651
0.278 0.671 1.722 11765
0.281 0.678 1.727 10152
0.284 0.686 1.732 13653
0.285 0.690 1.729 17383
0.287 0.694 1.727 17883
0.288 0.695 1.718 20977
0.289 0.700 1.716 23179
0.290 0.701 1.706 18732
0.290 0.702 1.697 14715
0.292 0.706 1.695 14183
0.294 0.710 1.692 13651
0.294 0.711 1.683 13170
0.296 0.715 1.681 12773
0.300 0.726 1.692 13043
0.305 0.737 1.704 14970
0.304 0.734 1.688 21567
0.304 0.735 1.678 29092
0.306 0.739 1.676 30445
0.307 0.743 1.673 31797
0.309 0.747 1.671 24061
0.312 0.755 1.675 16561
0.312 0.755 1.666 15443
0.313 0.756 1.657 17903
0.314 0.760 1.654 21675
0.314 0.760 1.645 22674
0.316 0.764 1.642 23678
0.318 0.768 1.640 22655
0.318 0.769 1.631 21808
0.321 0.776 1.635 21691
0.324 0.784 1.639 17894
0.332 0.803 1.664 13995
0.340 0.822 1.689 17460
0.342 0.826 1.686 19882
0.345 0.834 1.690 20532
0.347 0.838 1.687 22849
0.348 0.842 1.685 24094
0.350 0.846 1.682 23646
0.352 0.851 1.679 22902
0.352 0.851 1.670 20726
0.357 0.863 1.680 21335
0.362 0.875 1.691 26636
0.363 0.879 1.688 26640
0.367 0.887 1.692 21423
0.370 0.895 1.696 16934
0.372 0.899 1.693 20793
0.370 0.895 1.677 21582
0.369 0.891 1.661 21346
0.372 0.900 1.664 22506
0.377 0.912 1.675 21522
0.380 0.920 1.678 18574
0.382 0.924 1.675 25256
0.389 0.940 1.692 31614
0.392 0.949 1.695 29800
0.394 0.953 1.692 24036
0.396 0.957 1.689 16381
0.404 0.978 1.712 9386
0.404 0.978 1.703 12051
0.404 0.978 1.693 14479
0.408 0.986 1.696 12367
0.410 0.990 1.693 13699
0.411 0.994 1.690 18240
0.415 1.003 1.693 15527
0.417 1.007 1.690 11045
0.418 1.011 1.687 7267
0.425 1.028 1.703 5081
0.429 1.037 1.706 8716
0.429 1.037 1.696 14348
0.431 1.041 1.693 17207
0.432 1.045 1.689 15023
0.438 1.058 1.698 12402
0.439 1.062 1.695 9396
0.445 1.075 1.704 6606
0.448 1.084 1.707 5844
0.448 1.084 1.697 8113
0.450 1.088 1.694 13048
0.452 1.092 1.690 11130
0.455 1.101 1.693 10318
0.461 1.114 1.702 16012
0.462 1.118 1.698 21017
0.466 1.127 1.701 22053
0.470 1.136 1.703 21521
0.471 1.140 1.700 19615
0.475 1.148 1.702 17064
0.477 1.153 1.699 10350
0.475 1.148 1.683 6214
0.474 1.147 1.673 7195
0.474 1.146 1.663 5158
0.476 1.151 1.659 3504
0.483 1.169 1.674 4776
0.491 1.187 1.688 9190
0.495 1.196 1.690 15433
0.496 1.200 1.686 22896
0.498 1.204 1.683 28632
0.502 1.213 1.685 27585
0.505 1.222 1.687 24219
0.507 1.226 1.683 23901
0.513 1.240 1.691 26929
0.515 1.244 1.687 20731
0.516 1.248 1.683 9542
0.528 1.277 1.708 6236
0.526 1.271 1.692 12364
0.528 1.276 1.688 14696
0.533 1.290 1.696 12244
0.535 1.294 1.692 10351
0.539 1.303 1.693 9247
0.541 1.307 1.689 10715
0.544 1.316 1.691 11631
0.548 1.325 1.692 12242
0.550 1.330 1.688 13104
0.552 1.334 1.684 9841
0.553 1.338 1.679 9101
0.555 1.342 1.675 16199
0.557 1.346 1.671 18341
0.561 1.355 1.672 18682
0.566 1.370 1.679 22137
0.570 1.379 1.680 17661
0.576 1.393 1.687 11452
0.578 1.397 1.683 13892
0.580 1.402 1.678 19495
0.579 1.401 1.668 18268
0.581 1.405 1.664 15756
0.583 1.409 1.659 18144
0.587 1.418 1.660 14190
0.590 1.427 1.661 12760
0.594 1.437 1.662 14036
0.598 1.446 1.663 18161
0.602 1.455 1.664 19828
0.606 1.465 1.664 20039
0.608 1.469 1.660 15975
0.611 1.478 1.660 15517
0.613 1.482 1.656 16590
0.613 1.481 1.646 12333
0.625 1.512 1.668 9281
0.634 1.532 1.679 14548
0.638 1.542 1.679 25453
0.639 1.546 1.674 29210
0.641 1.550 1.669 29625
0.641 1.549 1.659 25208
0.642 1.553 1.654 22537
0.646 1.563 1.654 23709
0.648 1.567 1.649 18374
0.652 1.576 1.649 10202
0.654 1.580 1.644 7468
0.669 1.617 1.670 6746
0.675 1.633 1.675 8100
0.677 1.637 1.670 15555
0.681 1.647 1.670 24661
0.687 1.662 1.675 27713
0.691 1.672 1.675 24941
0.691 1.670 1.664 15497
0.692 1.674 1.659 10891
0.701 1.695 1.669 14130
0.708 1.711 1.673 18382
0.709 1.715 1.668 18547
0.711 1.719 1.662 13462
0.715 1.729 1.662 12522
0.717 1.733 1.656 17843
0.718 1.737 1.651 20020
0.720 1.741 1.645 17424
0.724 1.751 1.644 14943
0.733 1.772 1.653 16659
0.739 1.788 1.657 22065
0.746 1.803 1.661 22306
0.748 1.807 1.655 20046
0.744 1.800 1.640 13887
0.746 1.804 1.634 6500
0.765 1.849 1.662 6935
0.764 1.847 1.651 11501
0.766 1.851 1.645 10023
0.787 1.902 1.677 10690
0.791 1.912 1.675 14006
0.793 1.916 1.669 14924
0.794 1.920 1.663 14687
0.803 1.942 1.671 13216
0.808 1.952 1.669 12881
0.807 1.951 1.658 10240
0.811 1.961 1.657 6797
0.822 1.989 1.669 9950
0.824 1.993 1.662 11058
0.831 2.009 1.665 10928
0.830 2.007 1.654 12856
0.832 2.011 1.648 13295
0.833 2.015 1.641 10319
0.830 2.007 1.626 9502
0.834 2.017 1.624 7613
0.851 2.057 1.644 7486
0.865 2.092 1.659 8602
0.869 2.102 1.657 8637
0.871 2.106 1.650 7007
0.873 2.110 1.643 4851
0.877 2.120 1.641 4282
0.884 2.137 1.643 4710
0.885 2.141 1.636 4129
0.936 2.262 1.709 6879
0.937 2.267 1.702 8568
0.942 2.277 1.699 8969
0.943 2.281 1.692 9562
0.945 2.285 1.684 9533
0.949 2.296 1.681 8571
0.951 2.300 1.674 7617
0.955 2.310 1.671 7388
0.957 2.314 1.663 5493
0.972 2.350 1.676 5247
0.974 2.354 1.669 6280
0.973 2.352 1.657 8057
0.974 2.356 1.650 9899
0.976 2.360 1.642 7790
0.991 2.395 1.654 4678
1.000 2.419 1.659 5170
1.002 2.423 1.651 5671
1.004 2.427 1.643 6172
1.005 2.431 1.635 4558
1.055 2.550 1.697 6395
1.059 2.560 1.693 7824
1.066 2.577 1.692 7275
1.068 2.581 1.684 6925
1.069 2.586 1.676 5721
1.055 2.551 1.645 6577
1.057 2.555 1.637 5303
1.082 2.617 1.662 5599
1.114 2.692 1.694 6940
1.118 2.703 1.689 10672
1.120 2.707 1.681 11201
1.124 2.718 1.676 11874
1.126 2.722 1.667 8484
1.168 2.824 1.712 5821
1.170 2.828 1.703 6358
1.171 2.832 1.694 6895
1.176 2.843 1.689 5106
1.194 2.886 1.701 4835
1.198 2.897 1.695 4975
1.205 2.915 1.693 5324
1.204 2.912 1.680 5940
1.206 2.916 1.671 6590
1.202 2.907 1.655 6367
1.204 2.911 1.645 6322
1.206 2.915 1.636 5733
1.268 3.065 1.700 6323
1.269 3.069 1.690 6323
1.268 3.067 1.677 7139
1.267 3.064 1.664 8068
1.261 3.048 1.645 5955
1.251 3.026 1.622 4918
1.259 3.043 1.619 4486
1.263 3.054 1.612 4609
1.265 3.058 1.603 4609
1.266 3.061 1.593 2304
0.598 1.446 0.830 215
0.259 0.621 1.703 19414
0.261 0.625 1.701 17396
0.264 0.633 1.706 15427
0.266 0.637 1.704 12071
0.269 0.644 1.709 8837
0.269 0.645 1.700 8715
0.275 0.659 1.719 11115
0.277 0.663 1.717 13965
0.278 0.667 1.715 12084
0.281 0.674 1.720 10435
0.285 0.682 1.725 13678
0.288 0.689 1.729 17480
0.288 0.690 1.720 18138
0.290 0.694 1.718 21679
0.292 0.699 1.716 24258
0.292 0.700 1.706 19917
0.292 0.701 1.697 16013
0.294 0.705 1.695 14526
0.294 0.706 1.685 13122
0.296 0.710 1.683 13070
0.298 0.714 1.681 13018
0.302 0.725 1.692 13397
0.307 0.736 1.704 15469
0.306 0.733 1.688 22059
0.306 0.734 1.678 29732
0.308 0.738 1.676 31464
0.310 0.742 1.673 33197
0.313 0.750 1.678 25483
0.315 0.754 1.675 17758
0.316 0.758 1.673 15947
0.315 0.755 1.657 17485
0.317 0.759 1.654 20854
0.318 0.763 1.652 21855
0.320 0.767 1.649 22855
0.320 0.767 1.640 22227
0.320 0.768 1.631 21780
0.324 0.775 1.635 21820
0.327 0.783 1.639 18099
0.333 0.798 1.657 13887
0.343 0.821 1.689 17649
0.344 0.825 1.686 20006
0.348 0.833 1.690 19854
0.349 0.837 1.687 21664
0.350 0.837 1.678 23300
0.353 0.845 1.682 23186
0.355 0.849 1.679 22704
0.355 0.850 1.670 20727
0.360 0.862 1.680 21672
0.363 0.870 1.684 26960
0.366 0.878 1.688 26661
0.370 0.886 1.692 21181
0.376 0.902 1.709 16863
0.375 0.898 1.693 20403
0.373 0.894 1.677 21596
0.372 0.890 1.661 22140
0.375 0.898 1.664 22445
0.380 0.911 1.675 21007
0.383 0.919 1.678 19187
0.385 0.923 1.675 26330
0.392 0.939 1.692 32667
0.395 0.947 1.695 31403
0.397 0.952 1.692 26043
0.399 0.956 1.689 17124
0.404 0.968 1.699 8184
0.406 0.972 1.696 11274
0.408 0.976 1.693 14210
0.409 0.981 1.690 12232
0.411 0.985 1.687 13826
0.415 0.993 1.690 18790
0.418 1.002 1.693 16610
0.420 1.006 1.690 12211
0.421 1.010 1.687 7811
0.421 1.010 1.677 5124
0.430 1.031 1.699 9128
0.432 1.035 1.696 14555
0.434 1.039 1.693 16081
0.436 1.044 1.689 13447
0.441 1.057 1.698 11591
0.443 1.061 1.695 9573
0.448 1.074 1.704 7283
0.452 1.082 1.707 6715
0.452 1.082 1.697 8267
0.453 1.086 1.694 12217
0.457 1.095 1.697 10445
0.459 1.099 1.693 9481
0.464 1.112 1.702 15068
0.466 1.117 1.698 19046
0.470 1.125 1.701 19354
0.473 1.134 1.703 19195
0.475 1.138 1.700 18883
0.479 1.147 1.702 17916
0.480 1.151 1.699 11577
0.476 1.141 1.676 7253
0.478 1.145 1.673 7742
0.482 1.154 1.675 7020
0.485 1.163 1.678 6342
0.487 1.167 1.674 6529
0.495 1.185 1.688 10119
0.497 1.190 1.684 15028
0.498 1.194 1.680 20367
0.502 1.203 1.683 26499
0.508 1.216 1.691 27482
0.509 1.221 1.687 23757
0.511 1.225 1.683 23812
0.517 1.238 1.691 27247
0.519 1.243 1.687 21119
0.520 1.247 1.683 9423
0.530 1.270 1.702 5952
0.528 1.265 1.686 13336
0.530 1.269 1.682 16595
0.538 1.288 1.696 12708
0.537 1.287 1.686 9928
0.541 1.296 1.688 9890
0.543 1.300 1.683 12430
0.549 1.314 1.691 13310
0.552 1.324 1.692 11998
0.554 1.328 1.688 11068
0.556 1.332 1.684 8899
0.558 1.336 1.679 9298
0.559 1.340 1.675 16078
0.561 1.344 1.671 17700
0.565 1.353 1.672 17719
0.571 1.368 1.679 19805
0.577 1.382 1.686 17207
0.581 1.391 1.687 11828
0.582 1.396 1.683 13683
0.584 1.400 1.678 22267
0.584 1.399 1.668 20023
0.585 1.403 1.664 16097
0.587 1.407 1.659 19421
0.591 1.416 1.660 17055
0.595 1.425 1.661 17790
0.597 1.430 1.657 18130
0.603 1.444 1.663 20529
0.607 1.454 1.664 23067
0.611 1.463 1.664 21497
0.612 1.467 1.660 16692
0.614 1.471 1.655 18484
0.616 1.475 1.650 18025
0.617 1.479 1.646 11097
0.621 1.489 1.646 9049
0.639 1.530 1.679 12622
0.643 1.540 1.679 21026
0.644 1.544 1.674 26490
0.646 1.548 1.669 29882
0.646 1.547 1.659 27091
0.647 1.551 1.654 22968
0.651 1.560 1.654 22672
0.653 1.564 1.649 22787
0.655 1.569 1.644 19282
0.656 1.573 1.639 12117
0.665 1.593 1.650 5333
0.678 1.625 1.670 6640
0.682 1.635 1.670 14063
0.686 1.644 1.670 22703
0.693 1.660 1.675 25301
0.697 1.669 1.675 22697
0.698 1.673 1.669 13924
0.700 1.678 1.664 9453
0.707 1.693 1.669 12709
0.713 1.708 1.673 16372
0.715 1.712 1.668 15907
0.716 1.717 1.662 11737
0.723 1.732 1.667 13431
0.722 1.730 1.656 19681
0.724 1.734 1.651 21319
0.726 1.738 1.645 17218
0.730 1.748 1.644 13797
0.739 1.770 1.653 16810
0.745 1.785 1.657 22417
0.749 1.795 1.656 22857
0.751 1.799 1.651 21042
0.750 1.797 1.640 15476
0.752 1.801 1.634 7304
0.761 1.823 1.643 6729
0.767 1.839 1.646 11536
0.772 1.849 1.645 9970
0.790 1.894 1.672 9754
0.792 1.898 1.666 12918
0.796 1.908 1.665 14524
0.800 1.918 1.663 14272
0.810 1.940 1.671 12561
0.811 1.944 1.665 12220
0.811 1.942 1.654 9781
0.820 1.964 1.661 5924
0.829 1.986 1.669 9380
0.831 1.990 1.662 11846
0.837 2.006 1.665 12479
0.836 2.004 1.654 14529
0.838 2.008 1.648 14160
0.840 2.012 1.641 10319
0.839 2.010 1.630 9133
0.841 2.014 1.624 7342
0.858 2.055 1.644 6636
0.872 2.089 1.659 8562
0.876 2.099 1.657 8849
0.878 2.103 1.650 7189
0.880 2.107 1.643 5157
0.886 2.124 1.645 4909
0.891 2.134 1.643 5549
0.895 2.144 1.640 4903
0.940 2.253 1.705 6224
0.945 2.263 1.702 7840
0.949 2.274 1.699 8361
0.951 2.278 1.692 9185
0.952 2.282 1.684 9277
0.954 2.286 1.677 8088
0.959 2.297 1.674 6894
0.960 2.301 1.667 6664
0.965 2.311 1.663 5598
0.977 2.340 1.672 5707
0.981 2.351 1.669 6956
0.980 2.348 1.657 8153
0.982 2.353 1.650 9467
0.984 2.357 1.642 7284
0.998 2.392 1.654 4912
1.008 2.415 1.659 5171
1.010 2.419 1.651 5656
1.014 2.430 1.647 6150
1.016 2.434 1.639 4525
1.060 2.540 1.693 6180
1.067 2.557 1.693 7330
1.074 2.574 1.692 6661
1.079 2.584 1.688 6362
1.064 2.550 1.657 5188
1.061 2.541 1.641 6425
1.060 2.539 1.629 5530
1.091 2.614 1.662 5423
1.125 2.695 1.698 6820
1.127 2.699 1.689 10514
1.131 2.710 1.684 10922
1.133 2.714 1.676 11502
1.135 2.718 1.667 8155
1.174 2.814 1.709 5607
1.179 2.824 1.703 6042
1.181 2.829 1.694 6510
1.182 2.833 1.685 4963
1.203 2.883 1.701 4360
1.208 2.893 1.695 4561
1.212 2.904 1.689 4859
1.211 2.902 1.677 5519
1.213 2.906 1.667 6223
1.212 2.903 1.655 6249
1.213 2.907 1.645 6358
1.218 2.918 1.639 5670
1.278 3.061 1.700 5977
1.279 3.065 1.690 5977
1.278 3.063 1.677 6856
1.277 3.060 1.664 7847
1.271 3.044 1.645 5840
1.261 3.022 1.622 4812
1.268 3.039 1.619 4587
1.273 3.050 1.612 4842
1.274 3.054 1.603 4842
1.276 3.057 1.593 2421
0.597 1.430 0.824 249
0.260 0.621 1.703 18690
0.262 0.625 1.701 16907
0.264 0.629 1.699 15124
0.267 0.636 1.704 11145
0.273 0.653 1.730 7689
0.275 0.657 1.728 7364
0.277 0.661 1.726 10275
0.278 0.662 1.717 13429
0.279 0.667 1.715 12132
0.282 0.674 1.720 10837
0.285 0.681 1.725 14328
0.289 0.689 1.729 18496
0.289 0.690 1.720 19202
0.291 0.694 1.718 22959
0.293 0.698 1.716 25753
0.293 0.699 1.706 21331
0.293 0.700 1.697 17475
0.294 0.701 1.687 15132
0.295 0.705 1.685 12854
0.297 0.709 1.683 13341
0.300 0.717 1.688 13852
0.303 0.724 1.692 14444
0.308 0.735 1.704 16721
0.307 0.733 1.688 23197
0.307 0.733 1.678 30970
0.309 0.737 1.676 32931
0.311 0.742 1.673 34892
0.314 0.749 1.678 27174
0.317 0.757 1.682 19170
0.317 0.757 1.673 16700
0.316 0.754 1.657 16650
0.318 0.758 1.654 19259
0.319 0.762 1.652 19952
0.321 0.767 1.649 20645
0.321 0.767 1.640 20610
0.321 0.767 1.631 20763
0.325 0.775 1.635 21202
0.329 0.786 1.646 17990
0.334 0.798 1.657 13888
0.344 0.820 1.689 17777
0.345 0.825 1.686 19997
0.349 0.832 1.690 19117
0.350 0.837 1.687 20388
0.351 0.837 1.678 22301
0.354 0.845 1.682 21822
0.356 0.849 1.679 21175
0.356 0.849 1.670 19721
0.361 0.861 1.680 21518
0.364 0.869 1.684 26937
0.367 0.877 1.688 26390
0.371 0.885 1.692 20875
0.378 0.901 1.709 17111
0.376 0.897 1.693 20208
0.374 0.894 1.677 21306
0.373 0.890 1.661 21583
0.376 0.898 1.664 21367
0.381 0.910 1.675 19778
0.385 0.918 1.678 18901
0.386 0.922 1.675 25769
0.393 0.939 1.692 32092
0.397 0.947 1.695 31178
0.398 0.951 1.692 26106
0.400 0.955 1.689 16693
0.405 0.968 1.699 7463
0.405 0.968 1.690 10581
0.407 0.972 1.686 13551
0.411 0.980 1.690 11742
0.412 0.984 1.687 14704
0.416 0.993 1.690 20821
0.419 1.001 1.693 18530
0.421 1.005 1.690 13726
0.423 1.009 1.687 8610
0.425 1.013 1.683 5513
0.432 1.031 1.699 9832
0.434 1.035 1.696 14443
0.435 1.039 1.693 14603
0.437 1.043 1.689 11649
0.442 1.056 1.698 10049
0.444 1.060 1.695 8736
0.450 1.073 1.704 8622
0.451 1.077 1.701 9008
0.453 1.082 1.697 8757
0.455 1.086 1.694 10780
0.458 1.094 1.697 9379
0.462 1.103 1.699 8306
0.466 1.112 1.702 12978
0.468 1.116 1.698 15754
0.471 1.125 1.701 15332
0.475 1.133 1.703 15546
0.477 1.138 1.700 17685
0.480 1.146 1.702 18871
0.482 1.150 1.699 12952
0.480 1.145 1.683 7697
0.484 1.154 1.685 8371
0.487 1.163 1.687 10268
0.489 1.167 1.684 10357
0.491 1.171 1.680 9418
0.498 1.190 1.694 11998
0.500 1.194 1.690 15251
0.500 1.193 1.680 17090
0.504 1.202 1.683 22667
0.509 1.216 1.691 26054
0.511 1.220 1.687 21973
0.513 1.224 1.683 23362
0.519 1.238 1.691 27785
0.520 1.242 1.687 21845
0.522 1.246 1.683 10061
0.528 1.260 1.691 6352
0.530 1.264 1.686 14322
0.531 1.268 1.682 17806
0.535 1.277 1.684 13530
0.537 1.281 1.680 10739
0.543 1.295 1.688 11278
0.547 1.305 1.689 14465
0.548 1.309 1.685 14854
0.552 1.318 1.687 11510
0.556 1.327 1.688 8087
0.558 1.331 1.684 7598
0.559 1.335 1.679 10989
0.561 1.339 1.675 16771
0.563 1.344 1.671 16255
0.569 1.358 1.678 16164
0.573 1.367 1.679 17750
0.577 1.376 1.680 18174
0.578 1.380 1.676 15183
0.584 1.395 1.683 16227
0.586 1.399 1.678 25015
0.588 1.403 1.674 21062
0.587 1.402 1.664 16382
0.589 1.406 1.659 20419
0.593 1.415 1.660 20789
0.597 1.425 1.661 22927
0.601 1.434 1.662 22194
0.607 1.449 1.668 24833
0.609 1.453 1.664 27226
0.613 1.462 1.664 23108
0.614 1.466 1.660 19443
0.614 1.465 1.650 22175
0.618 1.474 1.650 18662
0.617 1.473 1.640 10517
0.623 1.488 1.646 10464
0.632 1.508 1.657 13057
0.645 1.539 1.679 18811
0.647 1.543 1.674 25952
0.648 1.547 1.669 31878
0.648 1.546 1.659 28031
0.652 1.555 1.659 19741
0.653 1.560 1.654 23028
0.655 1.564 1.649 24150
0.657 1.568 1.644 15141
0.661 1.577 1.644 6826
0.674 1.609 1.665 4957
0.680 1.624 1.670 6912
0.684 1.634 1.670 13330
0.689 1.643 1.670 19891
0.695 1.659 1.675 21066
0.699 1.668 1.675 19675
0.701 1.672 1.669 12545
0.705 1.682 1.669 8135
0.711 1.698 1.674 11455
0.715 1.707 1.673 15308
0.717 1.711 1.668 14616
0.721 1.721 1.667 11624
0.725 1.731 1.667 14596
0.725 1.729 1.656 20764
0.726 1.733 1.651 22264
0.728 1.737 1.645 16709
0.734 1.753 1.649 12336
0.741 1.769 1.653 16735
0.748 1.784 1.657 23136
0.752 1.794 1.656 24467
0.753 1.798 1.651 23134
0.753 1.796 1.640 17639
0.757 1.806 1.639 9577
0.763 1.822 1.643 9603
0.765 1.826 1.637 11936
0.774 1.847 1.645 8959
0.778 1.857 1.644 10534
0.782 1.867 1.643 14038
0.796 1.901 1.660 14356
0.803 1.917 1.663 13756
0.810 1.933 1.666 12144
0.811 1.937 1.660 11932
0.806 1.923 1.640 10412
0.815 1.945 1.648 5721
0.832 1.985 1.669 8956
0.833 1.989 1.662 12777
0.837 1.999 1.660 14583
0.837 1.997 1.649 16424
0.838 2.001 1.643 15096
0.843 2.011 1.641 9652
0.844 2.015 1.635 7820
0.846 2.019 1.628 6894
0.848 2.023 1.622 5688
0.875 2.088 1.659 8192
0.876 2.092 1.652 8979
0.881 2.102 1.650 7341
0.885 2.112 1.647 5477
0.889 2.123 1.645 5289
0.896 2.139 1.647 6028
0.898 2.143 1.640 5373
0.943 2.252 1.705 5879
0.948 2.262 1.702 7569
0.952 2.273 1.699 8251
0.954 2.277 1.692 9163
0.953 2.275 1.680 9266
0.957 2.285 1.677 7685
0.962 2.295 1.674 5892
0.966 2.306 1.671 5503
0.970 2.316 1.667 5712
0.980 2.339 1.672 6478
0.984 2.349 1.669 7417
0.986 2.353 1.661 8171
0.988 2.357 1.654 8926
0.992 2.368 1.650 7218
1.002 2.391 1.654 5329
1.009 2.408 1.655 5366
1.013 2.418 1.651 5653
1.017 2.428 1.647 6088
1.035 2.471 1.662 4499
1.064 2.538 1.693 6187
1.071 2.555 1.693 7091
1.078 2.572 1.692 6154
1.082 2.583 1.688 5814
1.084 2.587 1.679 4528
1.064 2.540 1.641 5870
1.063 2.537 1.629 5708
1.062 2.535 1.618 5881
1.129 2.694 1.698 6833
1.130 2.698 1.689 10416
1.135 2.709 1.684 10735
1.137 2.713 1.676 11124
1.138 2.717 1.667 7791
1.178 2.812 1.709 5647
1.183 2.823 1.703 5931
1.187 2.833 1.698 6327
1.186 2.831 1.685 5020
1.177 2.809 1.662 4720
1.209 2.885 1.691 4228
1.213 2.896 1.686 4553
1.215 2.900 1.677 5118
1.217 2.904 1.667 5682
1.216 2.902 1.655 5902
1.215 2.899 1.642 6138
1.219 2.910 1.636 5243
1.282 3.059 1.700 5663
1.283 3.064 1.690 5663
1.282 3.061 1.677 6559
1.281 3.058 1.664 7554
1.275 3.043 1.645 5506
1.234 2.947 1.587 4790
1.236 2.950 1.577 4746
1.277 3.048 1.612 4680
1.279 3.052 1.603 4680
1.280 3.056 1.593 2340
0.604 1.443 0.830 291
0.262 0.623 1.710 13581
