0.336 2.634 1.639 5186
0.355 2.783 1.712 5329
0.357 2.794 1.707 5531
0.358 2.805 1.703 5870
0.358 2.803 1.691 7144
0.358 2.808 1.682 8468
0.359 2.812 1.674 8713
0.359 2.816 1.666 8958
0.363 2.842 1.668 7162
0.367 2.874 1.675 7525
0.366 2.871 1.663 6154
0.366 2.869 1.650 5102
0.377 2.957 1.685 5289
0.375 2.940 1.666 6011
0.378 2.959 1.664 6245
0.379 2.970 1.659 6643
0.387 3.031 1.678 6223
0.388 3.042 1.673 7635
0.391 3.061 1.671 7957
0.392 3.072 1.665 8464
0.393 3.077 1.656 7115
0.392 3.074 1.643 6112
0.394 3.085 1.638 5167
0.397 3.111 1.639 4915
0.407 3.186 1.663 5025
0.407 3.191 1.653 5875
0.408 3.195 1.644 5875
0.409 3.206 1.638 4884
0.412 3.225 1.635 4134
0.412 3.229 1.625 3579
0.415 3.255 1.625 3102
0.421 3.302 1.635 3083
0.426 3.335 1.638 4505
0.426 3.340 1.628 4505
0.427 3.344 1.618 2252
0.208 1.631 0.864 2084
0.086 0.664 1.695 9402
0.088 0.675 1.708 11133
0.089 0.683 1.713 13895
0.089 0.687 1.711 16376
0.090 0.692 1.709 19081
0.091 0.696 1.707 19305
0.091 0.701 1.705 21845
0.092 0.705 1.702 24385
0.092 0.710 1.700 26789
0.093 0.714 1.698 29193
0.094 0.719 1.696 30037
0.095 0.727 1.701 30894
0.095 0.731 1.699 28727
0.095 0.732 1.689 24365
0.096 0.737 1.687 22213
0.096 0.741 1.685 17329
0.096 0.739 1.669 13119
0.098 0.750 1.680 12329
0.099 0.758 1.685 12535
0.100 0.766 1.690 11145
0.101 0.774 1.695 10069
0.102 0.782 1.699 8728
0.102 0.787 1.697 7448
0.103 0.795 1.702 6734
0.104 0.800 1.699 6076
0.105 0.804 1.697 5801
0.107 0.820 1.715 5631
0.105 0.809 1.685 6431
0.105 0.810 1.675 7524
0.106 0.814 1.673 7729
0.107 0.819 1.671 7523
0.107 0.823 1.668 6955
0.110 0.843 1.693 9059
0.111 0.851 1.697 12285
0.111 0.856 1.695 14612
0.112 0.860 1.692 16938
0.113 0.865 1.690 16227
0.114 0.873 1.694 15720
0.115 0.882 1.698 18214
0.116 0.890 1.702 23721
0.116 0.895 1.700 26460
0.117 0.899 1.697 24573
0.118 0.904 1.694 23244
0.118 0.908 1.691 25150
0.118 0.908 1.682 29595
0.119 0.913 1.679 32822
0.119 0.917 1.676 33449
0.121 0.926 1.680 29563
0.121 0.930 1.678 25563
0.122 0.935 1.675 21547
0.123 0.943 1.679 16172
0.124 0.952 1.682 15918
0.125 0.961 1.686 12707
0.127 0.974 1.697 11561
0.128 0.982 1.700 13410
0.130 0.995 1.711 12135
0.131 1.004 1.714 14663
0.131 1.009 1.711 18890
0.131 1.009 1.702 27013
0.132 1.014 1.699 39507
0.133 1.022 1.702 43405
0.134 1.031 1.705 43483
0.135 1.036 1.702 43525
0.135 1.040 1.699 35090
0.135 1.040 1.690 29460
0.135 1.040 1.680 31783
0.137 1.049 1.683 36138
0.137 1.054 1.680 36070
0.138 1.063 1.683 22577
0.139 1.072 1.687 10411
0.138 1.062 1.664 6735
0.139 1.067 1.661 7016
0.140 1.076 1.664 7275
0.142 1.094 1.680 10261
0.145 1.112 1.696 16998
0.146 1.122 1.699 16262
0.147 1.131 1.702 12529
0.148 1.135 1.698 9844
0.148 1.135 1.689 9502
0.149 1.144 1.692 12092
0.150 1.154 1.694 14519
0.151 1.163 1.697 12412
0.153 1.172 1.700 13579
0.154 1.181 1.703 16029
0.154 1.186 1.699 11489
0.153 1.176 1.677 8648
0.154 1.185 1.680 8687
0.158 1.214 1.707 8635
0.159 1.223 1.710 10903
0.159 1.223 1.700 11517
0.160 1.232 1.702 15014
0.162 1.242 1.705 20239
0.163 1.251 1.707 21399
0.163 1.256 1.703 14698
0.165 1.265 1.706 8041
0.165 1.265 1.696 11835
0.166 1.274 1.698 17545
0.167 1.284 1.700 20567
0.168 1.288 1.696 19757
0.169 1.298 1.698 13083
0.170 1.308 1.701 9793
0.171 1.312 1.697 11063
0.171 1.317 1.693 13298
0.172 1.321 1.689 18176
0.173 1.331 1.691 22506
0.175 1.346 1.699 27326
0.176 1.350 1.695 28557
0.176 1.355 1.691 31763
0.177 1.359 1.686 27948
0.177 1.364 1.682 24393
0.179 1.373 1.684 27168
0.180 1.383 1.686 23730
0.181 1.393 1.688 17290
0.183 1.403 1.689 12727
0.184 1.412 1.691 11725
0.185 1.422 1.692 17087
0.186 1.427 1.688 25571
0.188 1.442 1.695 23674
0.189 1.452 1.697 19940
0.190 1.456 1.692 21409
0.190 1.461 1.688 31769
0.191 1.465 1.684 26835
0.191 1.470 1.679 15097
0.193 1.480 1.680 17681
0.193 1.484 1.676 17521
0.194 1.494 1.677 10951
0.185 1.421 1.594 7365
0.185 1.419 1.585 4618
0.183 1.407 1.564 1875
0.197 1.517 1.665 1949
0.181 1.392 1.533 2180
0.181 1.391 1.524 3139
0.182 1.395 1.519 4566
0.181 1.393 1.510 5852
0.182 1.397 1.506 5801
0.182 1.401 1.501 4607
0.183 1.405 1.497 3350
0.183 1.403 1.488 3419
0.183 1.407 1.483 3289
0.184 1.410 1.479 1825
0.183 1.409 1.470 1581
0.183 1.407 1.460 2093
0.182 1.399 1.445 1868
0.183 1.408 1.446 1858
0.184 1.412 1.442 2477
0.184 1.416 1.438 2556
0.186 1.425 1.439 2338
0.186 1.429 1.435 1924
0.190 1.456 1.451 1633
0.190 1.460 1.447 1287
0.225 1.731 1.675 3266
0.225 1.730 1.665 5501
0.226 1.734 1.660 7233
0.227 1.745 1.660 9206
0.228 1.749 1.655 11012
0.228 1.753 1.649 11599
0.228 1.752 1.639 9701
0.228 1.750 1.629 8980
0.229 1.760 1.629 8237
0.230 1.771 1.628 5749
0.245 1.884 1.713 4637
0.244 1.877 1.698 3458
0.242 1.863 1.677 3535
0.244 1.873 1.676 4192
0.245 1.884 1.676 4119
0.232 1.784 1.587 3989
0.249 1.911 1.679 4264
0.249 1.910 1.669 6244
0.265 2.038 1.760 6209
0.265 2.036 1.749 6559
0.266 2.041 1.743 6606
0.266 2.046 1.737 6768
0.266 2.044 1.726 6085
0.261 2.005 1.687 4481
0.260 1.996 1.671 3143
0.260 2.001 1.665 2767
0.272 2.087 1.720 2870
0.272 2.092 1.714 3297
0.273 2.096 1.708 2698
0.239 1.834 1.506 1781
0.242 1.857 1.515 2466
0.242 1.861 1.509 2961
0.244 1.871 1.508 2625
0.286 2.196 1.732 2318
0.285 2.187 1.716 3783
0.284 2.185 1.705 4600
0.286 2.196 1.703 8982
0.287 2.207 1.701 13642
0.288 2.212 1.694 19132
0.289 2.223 1.692 25018
0.290 2.227 1.686 21841
0.290 2.232 1.679 18011
0.293 2.249 1.681 17355
0.294 2.260 1.679 18215
0.294 2.258 1.668 20023
0.294 2.262 1.661 20286
0.295 2.267 1.654 16629
0.305 2.344 1.695 14492
0.305 2.341 1.684 14848
0.304 2.339 1.672 15553
0.306 2.350 1.670 13276
0.313 2.401 1.692 14719
0.312 2.399 1.681 16346
0.313 2.403 1.674 13857
0.314 2.414 1.671 11325
0.315 2.419 1.664 11517
0.316 2.430 1.661 12633
0.317 2.434 1.653 10908
0.318 2.445 1.650 8059
0.317 2.436 1.635 6858
0.337 2.589 1.717 5045
0.328 2.519 1.665 5260
0.339 2.605 1.705 5650
0.340 2.609 1.698 6328
0.340 2.614 1.690 8675
0.342 2.625 1.686 11424
0.344 2.643 1.686 13232
0.345 2.647 1.678 11776
0.345 2.652 1.670 10321
0.352 2.704 1.690 8886
0.344 2.640 1.643 5251
0.362 2.782 1.712 5196
0.364 2.793 1.707 5326
0.366 2.811 1.707 5625
0.365 2.802 1.691 7102
0.365 2.807 1.682 8638
0.366 2.811 1.674 9002
0.367 2.822 1.669 9490
0.370 2.841 1.668 7850
0.373 2.866 1.671 7818
0.374 2.870 1.663 6270
0.373 2.868 1.650 4756
0.385 2.956 1.685 5203
0.383 2.939 1.666 6110
0.385 2.958 1.664 6216
0.386 2.969 1.659 6559
0.394 3.030 1.678 6431
0.396 3.041 1.673 7809
0.398 3.060 1.671 8256
0.400 3.071 1.665 9008
0.400 3.076 1.656 7727
0.401 3.080 1.647 6809
0.402 3.091 1.641 5931
0.405 3.110 1.639 5972
0.405 3.114 1.629 5488
0.415 3.190 1.653 6151
0.416 3.194 1.644 6151
0.417 3.205 1.638 5152
0.420 3.224 1.635 4488
0.420 3.228 1.625 4014
0.420 3.225 1.613 3547
0.431 3.309 1.638 2978
0.434 3.334 1.638 4431
0.435 3.339 1.628 4431
0.435 3.343 1.618 2215
0.212 1.631 0.864 1400
0.088 0.664 1.695 8351
0.090 0.675 1.708 10604
0.091 0.683 1.713 13580
0.091 0.684 1.704 16905
0.092 0.688 1.702 20571
0.093 0.696 1.707 20637
0.093 0.701 1.705 23018
0.094 0.705 1.702 25399
0.095 0.710 1.700 27212
0.095 0.714 1.698 29025
0.096 0.719 1.696 29823
0.097 0.727 1.701 30679
0.097 0.731 1.699 28804
0.098 0.732 1.689 24759
0.098 0.737 1.687 22594
0.099 0.741 1.685 18178
0.099 0.742 1.676 14397
0.100 0.750 1.680 13264
0.101 0.758 1.685 13035
0.102 0.766 1.690 11632
0.103 0.774 1.695 10553
0.104 0.782 1.699 8926
0.105 0.787 1.697 7549
0.105 0.791 1.695 6507
0.106 0.796 1.692 5466
0.107 0.804 1.697 5499
0.108 0.808 1.694 5546
0.108 0.809 1.685 6767
0.108 0.810 1.675 8078
0.108 0.814 1.673 8307
0.110 0.822 1.677 8089
0.110 0.823 1.668 7447
0.112 0.843 1.693 9243
0.113 0.851 1.697 12361
0.114 0.855 1.695 15074
0.114 0.856 1.685 17926
0.115 0.864 1.690 17118
0.116 0.873 1.694 16564
0.117 0.881 1.698 18454
0.119 0.890 1.702 23142
0.119 0.890 1.693 25720
0.120 0.899 1.697 23571
0.120 0.903 1.694 21968
0.121 0.908 1.691 23490
0.121 0.908 1.682 28572
0.122 0.912 1.679 32548
0.122 0.917 1.676 33330
0.123 0.925 1.680 28786
0.124 0.930 1.678 24080
0.124 0.934 1.675 19704
0.126 0.947 1.685 14838
0.127 0.956 1.689 15120
0.129 0.969 1.700 13473
0.130 0.977 1.703 13744
0.131 0.986 1.707 16337
0.133 0.999 1.717 15631
0.134 1.004 1.714 16051
0.134 1.004 1.705 18512
0.134 1.009 1.702 28486
0.135 1.013 1.699 43523
0.136 1.022 1.702 45973
0.137 1.031 1.705 43941
0.138 1.035 1.702 42373
0.139 1.040 1.699 34494
0.139 1.040 1.690 32906
0.139 1.040 1.680 37702
0.140 1.049 1.683 39945
0.140 1.053 1.680 36014
0.142 1.062 1.683 19875
0.143 1.076 1.693 8059
0.141 1.057 1.658 4541
0.143 1.071 1.667 4626
0.143 1.075 1.664 5878
0.146 1.094 1.680 10012
0.148 1.112 1.696 14543
0.149 1.121 1.699 13897
0.151 1.130 1.702 10929
0.151 1.135 1.698 8780
0.151 1.135 1.689 9169
0.152 1.144 1.692 12948
0.154 1.153 1.694 16278
0.155 1.162 1.697 14626
0.156 1.172 1.700 16227
0.157 1.176 1.697 19073
0.158 1.185 1.699 13335
0.157 1.180 1.683 10095
0.158 1.185 1.680 10545
0.161 1.209 1.701 9731
0.163 1.223 1.710 12822
0.163 1.223 1.700 14547
0.164 1.232 1.702 16796
0.165 1.241 1.705 18798
0.167 1.251 1.707 17428
0.167 1.255 1.703 10663
0.169 1.265 1.706 6877
0.169 1.269 1.702 13151
0.170 1.274 1.698 18919
0.170 1.278 1.694 19201
0.172 1.288 1.696 17001
0.173 1.298 1.698 12511
0.175 1.312 1.707 11641
0.175 1.317 1.703 10845
0.175 1.316 1.693 12804
0.176 1.321 1.689 19315
0.177 1.330 1.691 24568
0.179 1.345 1.699 29527
0.180 1.350 1.695 28615
0.180 1.354 1.691 30374
0.181 1.359 1.686 27312
0.182 1.363 1.682 23650
0.183 1.373 1.684 23459
0.184 1.382 1.686 18463
0.185 1.392 1.688 14768
0.187 1.402 1.689 10444
0.190 1.423 1.702 8408
0.190 1.427 1.698 15624
0.190 1.426 1.688 25637
0.192 1.441 1.695 26494
0.193 1.451 1.697 24827
0.194 1.456 1.692 24292
0.195 1.460 1.688 32766
0.195 1.465 1.684 25916
0.196 1.469 1.679 14007
0.197 1.479 1.680 18676
0.198 1.489 1.682 18169
0.199 1.494 1.677 11017
0.189 1.420 1.594 8262
0.190 1.424 1.590 4525
0.187 1.406 1.564 2179
0.203 1.522 1.670 2120
0.185 1.392 1.533 2215
0.186 1.396 1.529 2883
0.186 1.400 1.525 3943
0.185 1.392 1.510 5158
0.186 1.396 1.506 5239
0.187 1.406 1.507 4588
0.188 1.410 1.503 3411
0.188 1.408 1.493 2972
0.188 1.412 1.489 2994
0.189 1.421 1.490 1819
0.189 1.420 1.480 1527
0.187 1.406 1.460 1939
0.188 1.410 1.456 1459
0.188 1.414 1.452 1220
0.189 1.417 1.447 2305
0.189 1.421 1.443 2813
0.190 1.425 1.439 2650
0.191 1.434 1.440 2655
0.193 1.450 1.446 2257
0.194 1.460 1.447 1500
0.235 1.760 1.701 2613
0.232 1.741 1.675 4273
0.232 1.739 1.665 5820
0.233 1.750 1.665 7620
0.234 1.754 1.660 8896
0.233 1.753 1.649 9113
0.232 1.745 1.634 7883
0.233 1.749 1.629 7396
0.234 1.759 1.629 6204
0.236 1.770 1.628 4706
0.237 1.780 1.628 4408
0.238 1.784 1.623 3708
0.249 1.868 1.682 3506
0.250 1.879 1.681 4442
0.251 1.883 1.676 4130
0.238 1.783 1.587 4655
0.239 1.793 1.586 4612
0.254 1.909 1.669 6310
0.271 2.037 1.760 6858
0.271 2.036 1.749 6791
0.273 2.046 1.748 6278
0.272 2.045 1.737 6257
0.271 2.037 1.721 6069
0.267 2.004 1.687 4823
0.267 2.002 1.676 3310
0.267 2.006 1.670 3070
0.241 1.809 1.513 2272
0.279 2.091 1.714 2516
0.281 2.108 1.717 2249
0.243 1.827 1.502 2245
0.246 1.850 1.510 2483
0.249 1.867 1.514 2770
0.249 1.871 1.508 2597
0.291 2.182 1.722 3077
0.290 2.180 1.711 5316
0.290 2.178 1.700 7722
0.292 2.189 1.698 11869
0.293 2.200 1.696 15460
0.295 2.211 1.694 20131
0.296 2.222 1.692 25178
0.297 2.226 1.686 21998
0.298 2.237 1.683 17364
0.299 2.242 1.677 15700
0.301 2.259 1.679 16218
0.302 2.264 1.672 18252
0.301 2.261 1.661 18668
0.302 2.266 1.654 15485
0.312 2.343 1.695 14681
0.312 2.341 1.684 14638
0.312 2.338 1.672 15475
0.313 2.349 1.670 13185
0.320 2.400 1.692 15713
0.320 2.405 1.685 17650
0.320 2.402 1.674 14986
0.322 2.414 1.671 11791
0.323 2.425 1.668 11488
0.324 2.429 1.661 12650
0.324 2.433 1.653 10697
0.326 2.444 1.650 7701
0.326 2.449 1.643 6279
0.345 2.588 1.717 5296
0.346 2.599 1.713 5512
0.347 2.604 1.705 5519
0.348 2.615 1.702 5784
0.348 2.613 1.690 8466
0.350 2.624 1.686 11628
0.351 2.635 1.682 13237
0.353 2.646 1.678 11325
0.360 2.699 1.698 9869
0.360 2.703 1.690 8935
0.352 2.646 1.647 5590
0.353 2.650 1.639 5539
0.356 2.675 1.643 5209
0.358 2.686 1.638 5598
0.373 2.801 1.691 6885
0.374 2.805 1.682 8326
0.375 2.817 1.678 8863
0.377 2.828 1.673 9639
0.379 2.846 1.672 8543
0.382 2.865 1.671 8626
0.382 2.869 1.663 7029
0.382 2.867 1.650 5477
0.389 2.920 1.667 5658
0.391 2.931 1.662 6456
0.395 2.964 1.668 6334
0.397 2.982 1.666 6843
0.403 3.022 1.675 6776
0.404 3.033 1.669 8036
0.407 3.058 1.671 8663
0.409 3.070 1.665 9738
0.410 3.074 1.656 8487
0.410 3.079 1.647 7616
0.413 3.097 1.644 6962
0.414 3.109 1.639 7224
0.415 3.113 1.629 6548
0.425 3.188 1.653 6720
0.425 3.193 1.644 6720
0.427 3.204 1.638 5725
0.429 3.223 1.635 5080
0.430 3.227 1.625 4602
0.430 3.224 1.613 4151
0.441 3.307 1.638 2955
0.444 3.333 1.638 4428
0.445 3.337 1.628 4428
0.445 3.342 1.618 2214
0.217 1.630 0.864 1065
0.090 0.667 1.703 7732
0.092 0.678 1.715 9987
0.093 0.682 1.713 12812
0.093 0.687 1.711 16409
0.093 0.688 1.702 20439
0.094 0.693 1.700 20439
0.095 0.700 1.705 22670
0.096 0.705 1.702 24910
0.096 0.709 1.700 26489
0.097 0.714 1.698 28068
0.097 0.718 1.696 28861
0.098 0.726 1.701 29766
0.099 0.731 1.699 28062
0.099 0.732 1.689 24173
0.100 0.736 1.687 22011
0.100 0.741 1.685 18021
0.101 0.742 1.676 14651
0.102 0.750 1.680 13388
0.103 0.758 1.685 13046
0.104 0.766 1.690 11780
0.105 0.774 1.695 10809
0.106 0.778 1.692 9362
0.107 0.786 1.697 8033
0.107 0.791 1.695 6924
0.108 0.795 1.692 5814
0.108 0.800 1.690 5565
0.109 0.804 1.687 5316
0.110 0.809 1.685 6500
0.110 0.809 1.675 7688
0.110 0.814 1.673 7824
0.111 0.818 1.671 7621
0.112 0.826 1.675 7147
0.114 0.842 1.693 8994
0.115 0.851 1.697 12087
0.115 0.851 1.688 15022
0.116 0.856 1.685 18000
0.117 0.864 1.690 17175
0.118 0.873 1.694 16695
0.119 0.881 1.698 18380
0.120 0.885 1.695 22699
0.121 0.890 1.693 25152
0.122 0.898 1.697 22639
0.122 0.903 1.694 20678
0.122 0.903 1.685 21791
0.123 0.908 1.682 27253
0.124 0.912 1.679 31781
0.124 0.917 1.676 32722
0.125 0.925 1.680 27841
0.126 0.930 1.678 22669
0.127 0.938 1.681 18152
0.129 0.951 1.692 13782
0.130 0.960 1.696 14772
0.132 0.973 1.706 14222
0.134 0.986 1.717 15732
0.134 0.990 1.714 18758
0.135 0.999 1.717 18253
0.135 0.999 1.708 17348
0.136 1.004 1.705 18822
0.137 1.008 1.702 29669
0.137 1.013 1.699 45807
0.139 1.022 1.702 46988
0.139 1.026 1.699 43484
0.140 1.035 1.702 40316
0.141 1.040 1.699 33233
0.140 1.035 1.683 35359
0.141 1.040 1.680 40610
0.142 1.044 1.677 40946
0.143 1.053 1.680 34040
0.145 1.066 1.690 17524
0.146 1.080 1.700 7296
0.149 1.098 1.716 3608
0.145 1.071 1.667 3952
0.146 1.075 1.664 5456
0.148 1.093 1.680 8857
0.151 1.112 1.696 12263
0.152 1.121 1.699 11879
0.153 1.125 1.696 9499
0.154 1.135 1.698 7953
0.154 1.139 1.695 9196
0.155 1.143 1.692 13781
0.156 1.153 1.694 17815
0.158 1.162 1.697 16477
0.158 1.166 1.694 17661
0.159 1.176 1.697 20203
0.160 1.180 1.693 14297
0.160 1.180 1.683 10984
0.161 1.184 1.680 11469
0.163 1.203 1.695 9957
0.166 1.223 1.710 13472
0.166 1.222 1.700 16020
0.167 1.232 1.702 17224
0.168 1.241 1.705 16964
0.170 1.251 1.707 13953
0.171 1.260 1.709 8126
0.172 1.270 1.712 6702
0.172 1.269 1.702 13742
0.172 1.268 1.692 18745
0.173 1.278 1.694 17662
0.175 1.288 1.696 15141
0.176 1.297 1.698 12568
0.178 1.312 1.707 13401
0.178 1.316 1.703 11943
0.179 1.321 1.699 13839
0.179 1.320 1.689 19964
0.181 1.335 1.697 25191
0.182 1.345 1.699 29313
0.183 1.349 1.695 26821
0.184 1.354 1.691 28077
0.184 1.358 1.686 26206
0.185 1.363 1.682 22461
0.186 1.372 1.684 19991
0.188 1.387 1.692 14350
0.189 1.392 1.688 12532
0.189 1.396 1.683 8470
0.194 1.428 1.708 7138
0.193 1.427 1.698 14830
0.193 1.426 1.688 24242
0.195 1.441 1.695 27181
0.197 1.451 1.697 27467
0.197 1.455 1.692 25070
0.198 1.460 1.688 31538
0.199 1.470 1.689 24047
0.200 1.474 1.685 13015
0.201 1.479 1.680 19140
0.202 1.489 1.682 18125
0.202 1.493 1.677 10414
0.192 1.420 1.594 8203
0.194 1.429 1.596 4417
0.191 1.406 1.564 2481
0.190 1.404 1.554 2613
0.189 1.397 1.539 2538
0.189 1.395 1.529 2779
0.190 1.399 1.525 3497
0.189 1.398 1.515 4524
0.189 1.396 1.506 4616
0.191 1.405 1.507 4509
0.192 1.415 1.508 3855
0.192 1.413 1.498 3046
0.191 1.411 1.489 2754
0.193 1.421 1.490 1782
0.192 1.419 1.480 1560
0.191 1.411 1.465 1950
0.191 1.409 1.456 1637
0.193 1.425 1.462 1603
0.193 1.423 1.453 2433
0.193 1.421 1.443 2855
0.193 1.424 1.439 2737
0.194 1.434 1.440 2930
0.196 1.444 1.441 2677
0.198 1.459 1.447 1744
0.239 1.766 1.706 2143
0.237 1.746 1.681 3234
0.239 1.763 1.686 4583
0.242 1.785 1.696 6631
0.239 1.760 1.665 6977
0.238 1.752 1.649 6882
0.237 1.744 1.634 6143
0.236 1.743 1.624 5818
0.239 1.759 1.629 4550
0.242 1.787 1.643 4286
0.241 1.780 1.628 4892
0.242 1.784 1.623 4474
0.241 1.776 1.608 3635
0.256 1.884 1.686 4268
0.255 1.883 1.676 3733
0.243 1.789 1.592 4902
0.243 1.793 1.586 4862
0.259 1.908 1.669 6187
0.276 2.036 1.760 7032
0.277 2.041 1.754 6733
0.277 2.046 1.748 5921
0.278 2.050 1.742 5681
0.275 2.030 1.717 5751
0.272 2.003 1.687 4823
0.272 2.008 1.681 3353
0.272 2.006 1.670 3120
0.245 1.808 1.513 2457
0.247 1.819 1.513 2413
0.247 1.822 1.507 2422
0.248 1.826 1.502 2576
0.293 2.161 1.737 3003
0.294 2.166 1.731 3550
0.294 2.170 1.724 3305
0.295 2.175 1.718 3849
0.296 2.179 1.711 6325
0.295 2.177 1.700 10128
0.297 2.188 1.698 14666
0.298 2.199 1.696 17462
0.299 2.204 1.690 21090
0.301 2.221 1.692 24500
0.303 2.232 1.690 21227
0.303 2.237 1.683 16385
0.304 2.241 1.677 14312
0.305 2.252 1.674 14456
0.307 2.263 1.672 16363
0.307 2.261 1.661 16679
0.318 2.344 1.706 14440
0.318 2.342 1.695 14517
0.317 2.340 1.684 14087
0.317 2.338 1.672 14797
0.318 2.342 1.665 12547
0.325 2.399 1.692 15697
0.326 2.404 1.685 17729
0.326 2.402 1.674 15099
0.327 2.413 1.671 11470
0.329 2.424 1.668 10795
0.329 2.428 1.661 12005
0.331 2.439 1.657 10165
0.332 2.450 1.654 7368
0.340 2.509 1.680 6522
0.340 2.506 1.668 5397
0.352 2.598 1.713 5456
0.353 2.603 1.705 5226
0.354 2.614 1.702 5322
0.354 2.612 1.690 8127
0.356 2.623 1.686 11359
0.357 2.634 1.682 12670
0.358 2.639 1.674 10444
0.366 2.698 1.698 9279
0.366 2.702 1.690 8582
0.364 2.686 1.670 5702
0.359 2.649 1.639 5730
0.363 2.674 1.643 5671
0.364 2.685 1.638 6112
0.380 2.800 1.691 6510
0.380 2.805 1.682 7676
0.382 2.816 1.678 8304
0.383 2.827 1.673 9258
0.386 2.846 1.672 8428
0.387 2.857 1.667 8347
0.388 2.861 1.659 6854
0.389 2.866 1.650 5362
0.399 2.940 1.678 5412
0.400 2.951 1.673 6066
0.403 2.970 1.671 6232
0.405 2.988 1.669 6803
0.408 3.007 1.668 6794
0.411 3.032 1.669 7824
0.415 3.058 1.671 8475
0.416 3.069 1.665 9696
0.417 3.073 1.656 8478
0.417 3.078 1.647 7621
0.420 3.096 1.644 7163
0.421 3.108 1.639 7571
0.422 3.112 1.629 6856
0.432 3.187 1.653 6757
0.433 3.192 1.644 6757
0.434 3.203 1.638 5879
0.437 3.222 1.635 5309
0.437 3.226 1.625 4863
0.437 3.223 1.613 4467
0.436 3.213 1.597 3026
0.452 3.332 1.638 4144
0.452 3.336 1.628 4144
0.453 3.341 1.618 2072
0.221 1.629 0.864 696
0.093 0.670 1.710 7015
0.094 0.678 1.715 9363
0.095 0.682 1.713 11881
0.095 0.683 1.704 15972
0.095 0.688 1.702 20564
0.096 0.692 1.700 20564
0.097 0.700 1.705 22320
0.098 0.705 1.702 24267
0.098 0.709 1.700 25453
0.099 0.714 1.698 26640
0.100 0.718 1.696 27504
0.101 0.726 1.701 28525
0.101 0.731 1.699 27074
0.101 0.732 1.689 23539
0.102 0.736 1.687 21436
0.103 0.740 1.685 17882
0.103 0.741 1.676 14892
0.104 0.749 1.680 13521
0.105 0.757 1.685 13072
0.106 0.765 1.690 11783
0.107 0.773 1.695 10706
0.108 0.778 1.692 9544
0.108 0.782 1.690 8383
0.109 0.787 1.688 7559
0.110 0.791 1.685 6735
0.111 0.799 1.690 5880
0.111 0.804 1.687 5100
0.112 0.808 1.685 6016
0.112 0.809 1.675 6886
0.113 0.813 1.673 6988
0.114 0.822 1.677 7148
0.115 0.826 1.675 7244
0.116 0.838 1.686 9034
0.117 0.846 1.691 11874
0.118 0.851 1.688 14991
0.119 0.855 1.685 18108
0.120 0.864 1.690 17188
0.121 0.872 1.694 16747
0.122 0.881 1.698 18487
0.123 0.885 1.695 23004
0.123 0.890 1.693 25602
0.125 0.898 1.697 22482
0.125 0.903 1.694 19953
0.125 0.903 1.685 20477
0.126 0.907 1.682 25986
0.126 0.912 1.679 31193
0.127 0.916 1.676 32390
0.128 0.925 1.680 27115
0.129 0.933 1.684 21520
0.131 0.942 1.688 16723
0.132 0.955 1.699 13358
0.134 0.964 1.702 15020
0.135 0.972 1.706 15754
0.137 0.985 1.717 18634
0.137 0.990 1.714 22100
0.138 0.994 1.711 22080
0.139 0.999 1.708 19794
0.139 1.003 1.705 19427
0.139 1.004 1.695 31098
0.140 1.012 1.699 47999
0.142 1.021 1.702 47453
0.142 1.026 1.699 42502
0.143 1.035 1.702 37037
0.143 1.035 1.693 31250
0.143 1.035 1.683 37505
0.144 1.039 1.680 42192
0.145 1.044 1.677 40511
0.147 1.057 1.687 31079
0.148 1.066 1.690 16968
0.150 1.084 1.706 8382
0.152 1.093 1.709 4696
0.148 1.066 1.661 5146
0.149 1.075 1.664 6166
0.151 1.088 1.674 7505
0.154 1.111 1.696 9706
0.155 1.120 1.699 9506
0.156 1.125 1.696 7599
0.157 1.134 1.698 7147
0.158 1.139 1.695 9732
0.159 1.148 1.698 15099
0.160 1.152 1.694 20084
0.160 1.157 1.691 19389
0.162 1.166 1.694 19773
0.163 1.175 1.697 21299
0.164 1.180 1.693 15403
0.164 1.179 1.683 12373
0.164 1.184 1.680 12546
0.166 1.198 1.689 10050
0.169 1.222 1.710 13918
0.169 1.222 1.700 17380
0.171 1.231 1.702 17640
0.172 1.241 1.705 14986
0.173 1.250 1.707 10220
0.175 1.260 1.709 6936
0.176 1.269 1.712 8303
0.177 1.274 1.708 14477
0.177 1.273 1.698 17958
0.177 1.277 1.694 15777
0.178 1.287 1.696 13823
0.180 1.302 1.705 14546
0.182 1.311 1.707 16778
0.182 1.316 1.703 14923
0.183 1.320 1.699 16599
0.184 1.325 1.695 21158
0.185 1.334 1.697 25336
0.186 1.344 1.699 28267
0.187 1.349 1.695 24078
0.188 1.353 1.691 25561
0.188 1.358 1.686 25279
0.189 1.362 1.682 21099
0.190 1.372 1.684 16273
0.194 1.397 1.703 10766
0.193 1.391 1.688 10463
0.193 1.390 1.678 6704
0.197 1.422 1.702 6994
0.197 1.421 1.692 15074
0.198 1.425 1.688 22043
0.200 1.440 1.695 26881
0.201 1.450 1.697 29643
0.202 1.455 1.692 25257
0.202 1.459 1.688 29178
0.204 1.469 1.689 21736
0.205 1.479 1.690 12536
0.206 1.484 1.686 20344
0.206 1.488 1.682 18646
0.196 1.415 1.599 10000
0.197 1.419 1.594 8327
0.197 1.423 1.590 4879
0.195 1.405 1.564 3369
0.194 1.398 1.548 3408
0.194 1.396 1.539 2985
0.193 1.395 1.529 2608
0.194 1.399 1.525 3133
0.194 1.403 1.521 4379
0.194 1.401 1.511 4368
0.195 1.405 1.507 4618
0.196 1.414 1.508 4489
0.196 1.413 1.498 3274
0.196 1.411 1.489 2506
0.196 1.415 1.485 1773
0.197 1.424 1.486 1560
0.196 1.417 1.471 1713
0.196 1.415 1.461 1932
0.197 1.424 1.462 2493
0.197 1.422 1.453 3056
0.197 1.420 1.443 3046
0.197 1.424 1.439 2620
0.199 1.433 1.440 3037
0.200 1.443 1.441 3074
0.202 1.459 1.447 2076
0.245 1.765 1.706 1642
0.244 1.758 1.691 2298
0.246 1.774 1.696 3624
0.247 1.784 1.696 5382
0.249 1.795 1.696 5481
0.244 1.757 1.655 4769
0.241 1.738 1.629 4539
0.242 1.742 1.624 4391
0.254 1.831 1.689 3824
0.248 1.787 1.643 3808
0.247 1.779 1.628 5280
0.247 1.783 1.623 5266
0.247 1.781 1.613 4442
0.260 1.877 1.681 3559
0.246 1.777 1.592 3819
0.248 1.788 1.592 5240
0.248 1.792 1.586 5064
0.264 1.907 1.669 5759
0.282 2.036 1.760 7250
0.283 2.040 1.754 6802
0.284 2.051 1.753 5835
0.285 2.056 1.747 5290
0.280 2.017 1.707 5494
0.278 2.002 1.687 4837
0.278 2.007 1.681 3407
0.277 1.999 1.665 3097
0.251 1.808 1.513 2864
0.252 1.818 1.513 2669
0.297 2.145 1.745 2907
0.298 2.149 1.739 3456
0.299 2.154 1.733 4731
0.299 2.158 1.726 5533
0.300 2.163 1.720 5263
0.301 2.168 1.713 5083
0.301 2.172 1.707 7614
0.303 2.183 1.705 13289
0.303 2.188 1.698 18810
0.304 2.192 1.692 21313
0.305 2.203 1.690 23660
0.307 2.214 1.688 24681
0.309 2.231 1.690 20663
0.310 2.236 1.683 15107
0.310 2.234 1.672 12757
0.312 2.251 1.674 12533
0.314 2.262 1.672 14031
0.313 2.260 1.661 14153
0.325 2.343 1.706 14089
0.326 2.348 1.699 14442
0.324 2.339 1.684 13631
0.324 2.337 1.672 14082
0.325 2.341 1.665 11862
0.333 2.398 1.692 15054
0.333 2.403 1.685 16896
0.333 2.401 1.674 14443
0.333 2.405 1.667 10782
0.336 2.423 1.668 10026
0.337 2.427 1.661 11233
0.338 2.438 1.657 9588
0.347 2.503 1.687 7626
0.348 2.507 1.680 7738
0.347 2.505 1.668 6215
0.360 2.597 1.713 5252
0.362 2.609 1.709 4924
0.362 2.613 1.702 4922
0.362 2.611 1.690 7911
0.363 2.615 1.682 11354
0.364 2.626 1.678 12155
0.366 2.638 1.674 9439
0.374 2.697 1.698 8625
0.375 2.701 1.690 8182
0.372 2.685 1.670 5893
0.367 2.648 1.639 5624
0.371 2.673 1.643 5996
0.372 2.684 1.638 6588
0.388 2.799 1.691 6038
0.389 2.803 1.682 6773
0.391 2.822 1.682 7670
0.393 2.833 1.677 9030
0.394 2.844 1.672 8465
0.395 2.849 1.664 8203
0.396 2.853 1.655 6626
0.396 2.858 1.647 5049
0.407 2.939 1.678 5529
0.408 2.943 1.669 6227
0.412 2.968 1.671 6318
0.414 2.987 1.669 6913
0.417 3.005 1.668 6912
0.419 3.024 1.666 7569
0.424 3.056 1.671 8218
0.425 3.068 1.665 9605
0.426 3.072 1.656 8436
0.427 3.076 1.647 7604
0.430 3.102 1.648 7347
0.432 3.113 1.642 7951
0.431 3.111 1.629 7213
0.442 3.186 1.653 6921
0.442 3.190 1.644 6921
0.444 3.202 1.638 6100
0.447 3.220 1.635 5529
0.446 3.217 1.622 5111
0.447 3.222 1.613 4745
0.445 3.212 1.597 3258
0.462 3.331 1.638 3890
0.462 3.335 1.628 3890
0.463 3.339 1.618 1945
0.226 1.629 0.864 394
0.095 0.670 1.710 6540
0.096 0.677 1.715 8677
0.096 0.682 1.713 10833
0.097 0.683 1.704 15224
0.097 0.688 1.702 20092
0.098 0.692 1.700 20092
0.099 0.700 1.705 21380
0.100 0.704 1.702 23001
0.100 0.709 1.700 23832
0.101 0.713 1.698 24662
0.101 0.718 1.696 25669
0.103 0.726 1.701 26874
0.103 0.730 1.699 25650
0.103 0.731 1.689 22493
0.104 0.736 1.687 20520
0.105 0.740 1.685 17300
0.105 0.741 1.676 14603
0.106 0.749 1.680 13268
0.107 0.757 1.685 12901
0.108 0.765 1.690 11566
0.109 0.770 1.688 10360
0.110 0.778 1.692 9321
0.111 0.782 1.690 8285
0.111 0.787 1.688 7861
0.112 0.791 1.685 7436
0.112 0.795 1.683 6257
0.114 0.804 1.687 5133
0.114 0.808 1.685 5735
0.115 0.816 1.689 6301
0.116 0.821 1.687 6401
0.117 0.825 1.684 7128
0.117 0.830 1.682 7644
0.118 0.838 1.686 9206
0.120 0.846 1.691 11459
0.120 0.851 1.688 14675
0.121 0.855 1.685 17892
0.122 0.863 1.690 16901
0.123 0.872 1.694 16529
0.124 0.880 1.698 18395
0.125 0.885 1.695 23127
0.126 0.889 1.693 25819
0.127 0.898 1.697 22211
0.128 0.902 1.694 19276
0.128 0.903 1.685 19652
0.128 0.907 1.682 25309
0.129 0.911 1.679 30998
0.129 0.916 1.676 32391
0.131 0.924 1.680 26831
0.132 0.933 1.684 21002
0.133 0.942 1.688 16164
0.135 0.954 1.699 13581
0.136 0.963 1.702 15609
0.138 0.976 1.713 17143
0.139 0.985 1.717 20958
0.140 0.989 1.714 24980
0.140 0.994 1.711 25463
0.141 0.999 1.708 22033
0.141 0.999 1.698 20507
0.142 1.003 1.695 32450
0.143 1.012 1.699 49411
0.144 1.016 1.695 47900
0.145 1.025 1.699 41417
0.146 1.030 1.696 33665
0.146 1.034 1.693 29153
0.146 1.034 1.683 37789
0.147 1.039 1.680 41928
0.147 1.043 1.677 38760
0.149 1.057 1.687 28528
0.151 1.070 1.696 17944
0.153 1.084 1.706 10461
0.154 1.088 1.703 6408
0.152 1.074 1.674 5211
0.154 1.093 1.690 5094
0.156 1.106 1.699 5499
0.157 1.111 1.696 7569
0.158 1.115 1.693 7720
0.159 1.124 1.696 6282
0.160 1.134 1.698 7141
0.161 1.138 1.695 10714
0.162 1.147 1.698 16199
0.163 1.152 1.694 21822
0.163 1.156 1.691 21907
0.165 1.166 1.694 21198
0.166 1.175 1.697 21525
0.167 1.179 1.693 15907
0.167 1.179 1.683 13152
0.167 1.183 1.680 12840
0.169 1.198 1.689 9678
0.173 1.222 1.710 13754
0.173 1.221 1.700 17778
0.174 1.231 1.702 17187
0.175 1.240 1.705 12883
0.177 1.250 1.707 7261
0.178 1.259 1.709 6426
0.179 1.269 1.712 9918
0.180 1.273 1.708 14895
0.180 1.273 1.698 16207
0.180 1.272 1.688 13908
0.182 1.287 1.696 13329
0.184 1.301 1.705 17193
0.185 1.306 1.701 20252
0.185 1.310 1.697 18244
0.187 1.320 1.699 18871
0.187 1.324 1.695 21641
0.189 1.334 1.697 24656
0.190 1.344 1.699 25817
0.191 1.348 1.695 20415
0.191 1.353 1.691 23043
0.192 1.357 1.686 24237
0.192 1.362 1.682 19518
0.195 1.377 1.690 13591
0.197 1.397 1.703 9000
0.196 1.385 1.682 9503
0.191 1.352 1.637 6989
0.200 1.416 1.697 8431
0.201 1.420 1.692 15492
0.201 1.425 1.688 19229
0.204 1.440 1.695 24882
0.205 1.450 1.697 29637
0.206 1.454 1.692 24152
0.207 1.464 1.694 26036
0.208 1.469 1.689 19368
0.209 1.479 1.690 12807
0.210 1.483 1.686 21673
0.210 1.487 1.682 18999
0.200 1.414 1.599 10989
0.200 1.418 1.594 8662
0.200 1.417 1.585 5488
0.198 1.404 1.564 3735
0.197 1.397 1.548 4084
0.198 1.401 1.544 3568
0.197 1.394 1.529 2536
0.198 1.404 1.530 3054
0.199 1.408 1.526 4451
0.198 1.400 1.511 4347
0.198 1.404 1.507 4679
0.200 1.414 1.508 4786
0.200 1.418 1.504 3293
0.199 1.410 1.489 2163
0.200 1.414 1.485 1724
0.201 1.424 1.486 1476
0.201 1.422 1.476 1510
0.200 1.414 1.461 2092
0.201 1.424 1.462 3041
0.202 1.427 1.458 3566
0.201 1.425 1.448 3232
0.202 1.429 1.444 2363
0.203 1.433 1.440 2805
0.204 1.443 1.441 3170
0.206 1.458 1.447 2268
0.208 1.474 1.453 1930
0.249 1.763 1.696 1674
0.251 1.779 1.701 2784
0.253 1.790 1.701 4112
0.254 1.794 1.696 4360
0.255 1.805 1.695 3208
0.218 1.544 1.467 3283
0.219 1.548 1.462 4285
0.260 1.836 1.694 3383
0.252 1.780 1.638 3511
0.251 1.778 1.628 5438
0.252 1.783 1.623 5585
0.252 1.781 1.613 4792
0.251 1.773 1.597 3364
0.251 1.777 1.592 4006
0.281 1.990 1.754 5530
0.253 1.791 1.586 4993
0.289 2.043 1.776 5380
0.288 2.035 1.760 7070
0.288 2.040 1.754 6548
0.290 2.050 1.753 5563
0.291 2.061 1.751 4861
0.282 1.997 1.693 5249
0.283 2.002 1.687 4566
0.284 2.006 1.681 3229
0.255 1.803 1.519 3279
0.255 1.807 1.513 3252
0.257 1.817 1.513 2896
0.303 2.144 1.745 3433
0.304 2.149 1.739 4510
0.304 2.153 1.733 6258
0.305 2.158 1.726 7380
0.306 2.162 1.720 7165
0.306 2.167 1.713 6243
0.307 2.171 1.707 8521
0.308 2.182 1.705 15623
0.309 2.187 1.698 22194
0.310 2.191 1.692 24773
0.310 2.196 1.685 26029
0.313 2.213 1.688 24843
0.315 2.230 1.690 19460
0.316 2.235 1.683 13464
0.316 2.239 1.677 11371
0.318 2.250 1.674 10964
0.321 2.268 1.676 12085
0.320 2.266 1.665 11879
0.331 2.342 1.706 13540
0.332 2.347 1.699 14202
0.330 2.338 1.684 13085
0.329 2.329 1.668 13118
0.331 2.340 1.665 10865
0.339 2.398 1.692 13647
0.339 2.402 1.685 15066
0.339 2.400 1.674 12860
0.340 2.404 1.667 9606
0.343 2.429 1.672 9158
0.344 2.433 1.665 10505
0.345 2.444 1.662 9213
0.354 2.502 1.687 8349
0.354 2.507 1.680 8564
0.354 2.504 1.668 6996
0.354 2.502 1.657 5482
0.369 2.608 1.709 4565
0.369 2.612 1.702 4567
0.367 2.596 1.682 7667
0.369 2.614 1.682 11086
0.371 2.625 1.678 11550
0.372 2.630 1.670 8394
0.381 2.696 1.698 7942
0.382 2.700 1.690 7646
0.379 2.684 1.670 5794
0.377 2.668 1.650 5330
0.378 2.672 1.643 5970
0.379 2.683 1.638 6661
0.395 2.798 1.691 5322
0.396 2.802 1.682 5646
0.399 2.821 1.682 6836
0.400 2.832 1.677 8468
0.402 2.843 1.672 8123
0.402 2.848 1.664 7919
0.403 2.852 1.655 6514
0.404 2.856 1.647 5109
0.414 2.931 1.674 5339
0.416 2.942 1.669 5882
0.419 2.967 1.671 6068
0.422 2.986 1.669 6714
0.424 2.997 1.664 6693
0.427 3.023 1.666 7009
0.432 3.055 1.671 7610
0.433 3.067 1.665 9084
0.434 3.071 1.656 8031
0.435 3.075 1.647 7277
0.438 3.101 1.648 7107
0.440 3.112 1.642 7736
0.439 3.109 1.629 7035
0.451 3.192 1.657 6712
0.452 3.196 1.647 6712
0.452 3.201 1.638 6114
0.454 3.212 1.632 5592
0.455 3.216 1.622 5223
0.455 3.221 1.613 4854
0.454 3.210 1.597 3377
0.471 3.329 1.638 3539
0.471 3.334 1.628 3539
0.472 3.338 1.618 1769
0.096 0.673 1.717 6237
0.097 0.677 1.715 8117
0.098 0.685 1.720 10027
0.098 0.683 1.704 14665
0.098 0.687 1.702 19767
0.099 0.692 1.700 19767
0.100 0.700 1.705 20544
0.101 0.704 1.702 21721
0.101 0.709 1.700 22246
0.102 0.713 1.698 22770
0.103 0.718 1.696 24045
0.104 0.726 1.701 25576
0.104 0.730 1.699 24588
0.105 0.731 1.689 21835
0.105 0.736 1.687 20012
0.106 0.740 1.685 16925
0.106 0.741 1.676 14260
0.107 0.749 1.680 12989
0.108 0.757 1.685 12628
0.109 0.765 1.690 11165
0.111 0.773 1.695 9844
0.111 0.774 1.685 8987
0.111 0.778 1.683 8169
0.113 0.786 1.688 8268
0.113 0.791 1.685 8440
0.114 0.795 1.683 6946
0.114 0.800 1.680 5452
0.116 0.808 1.685 5706
0.118 0.827 1.710 6253
0.118 0.824 1.694 6540
0.119 0.829 1.691 7928
0.119 0.833 1.689 8614
0.120 0.838 1.686 9499
0.121 0.846 1.691 10835
0.122 0.850 1.688 14039
0.122 0.855 1.685 17243
0.124 0.863 1.690 16172
0.125 0.872 1.694 15860
0.126 0.880 1.698 18005
0.127 0.885 1.695 23210
0.127 0.889 1.693 26068
0.128 0.893 1.690 22149
0.129 0.898 1.687 18788
0.129 0.902 1.685 19066
0.129 0.903 1.675 24932
0.130 0.911 1.679 30908
0.131 0.916 1.676 32509
0.132 0.924 1.680 26744
0.133 0.933 1.684 20695
0.135 0.946 1.695 16203
0.137 0.958 1.705 14460
0.138 0.963 1.702 16540
0.140 0.976 1.713 18485
0.141 0.985 1.717 23191
0.142 0.989 1.714 27983
0.142 0.994 1.711 29043
0.142 0.994 1.701 25080
0.143 0.998 1.698 22159
0.144 1.003 1.695 34263
0.144 1.007 1.692 51356
0.145 1.016 1.695 48768
0.146 1.021 1.692 41168
0.147 1.030 1.696 31181
0.147 1.030 1.686 26791
0.148 1.034 1.683 36731
0.149 1.038 1.680 40556
0.149 1.043 1.677 36137
0.151 1.056 1.687 26506
0.153 1.070 1.696 19967
0.154 1.079 1.700 13327
0.156 1.088 1.703 8800
0.156 1.088 1.693 7201
0.157 1.097 1.696 5684
0.158 1.106 1.699 5263
0.160 1.115 1.702 6403
0.160 1.115 1.693 6430
0.159 1.110 1.677 5892
0.162 1.133 1.698 7531
0.164 1.143 1.701 12054
0.164 1.147 1.698 17360
0.165 1.152 1.694 23240
0.165 1.156 1.691 24087
0.167 1.165 1.694 22565
0.168 1.175 1.697 21767
0.169 1.179 1.693 16502
0.169 1.179 1.683 13912
0.169 1.183 1.680 12825
0.171 1.197 1.689 9149
0.175 1.221 1.710 13132
0.175 1.221 1.700 17646
0.176 1.230 1.702 16349
0.177 1.235 1.699 10832
0.178 1.244 1.701 5815
0.180 1.259 1.709 7102
0.181 1.263 1.706 11625
0.182 1.273 1.708 15035
0.182 1.272 1.698 13920
0.182 1.272 1.688 12419
0.184 1.286 1.696 13567
0.186 1.301 1.705 20374
0.187 1.305 1.701 24610
0.187 1.310 1.697 21927
0.188 1.314 1.693 20421
0.189 1.324 1.695 21680
0.192 1.339 1.703 23738
0.192 1.343 1.699 22542
0.194 1.353 1.700 16604
0.194 1.358 1.696 21364
0.194 1.357 1.686 23704
0.196 1.366 1.688 18158
0.198 1.381 1.696 12219
0.199 1.391 1.698 8186
0.198 1.385 1.682 8935
0.193 1.347 1.631 7405
0.203 1.415 1.697 11151
0.203 1.420 1.692 16763
0.204 1.424 1.688 16732
0.206 1.440 1.695 21410
0.207 1.449 1.697 27552
0.208 1.454 1.692 22006
0.209 1.464 1.694 22523
0.211 1.474 1.695 17880
0.212 1.484 1.696 14170
0.212 1.483 1.686 23547
0.213 1.487 1.682 19354
0.202 1.414 1.599 10730
0.203 1.418 1.594 8239
0.203 1.417 1.585 5738
0.201 1.404 1.564 3655
0.200 1.397 1.548 4259
0.201 1.401 1.544 3773
0.219 1.529 1.661 2667
0.202 1.409 1.536 3065
0.201 1.407 1.526 4615
0.201 1.406 1.517 4381
0.201 1.404 1.507 4662
0.202 1.414 1.508 4810
0.203 1.418 1.504 3173
0.202 1.410 1.489 1791
0.202 1.414 1.485 1675
0.204 1.423 1.486 1345
0.203 1.421 1.476 1293
0.203 1.420 1.467 2113
0.204 1.423 1.462 3458
0.204 1.427 1.458 4000
0.204 1.425 1.448 3413
0.204 1.429 1.444 2281
0.206 1.438 1.445 2688
0.207 1.448 1.446 3215
0.209 1.458 1.447 2348
0.211 1.473 1.453 2046
0.211 1.477 1.448 1839
0.255 1.779 1.701 1941
0.256 1.789 1.701 2917
0.258 1.800 1.701 3397
0.259 1.810 1.700 2728
0.221 1.544 1.467 3730
0.221 1.548 1.462 5202
0.222 1.551 1.458 3544
0.268 1.871 1.714 3437
0.254 1.778 1.628 4890
0.255 1.782 1.623 5516
0.256 1.786 1.618 5112
0.254 1.772 1.597 3524
0.254 1.776 1.592 4339
0.285 1.990 1.754 5745
0.257 1.797 1.591 4976
0.292 2.042 1.776 5187
0.291 2.034 1.760 6586
0.292 2.039 1.754 6071
0.294 2.056 1.757 5255
0.295 2.061 1.751 4433
0.286 1.997 1.693 4879
0.286 2.001 1.687 4174
0.286 1.999 1.676 2940
0.257 1.796 1.514 3524
0.259 1.806 1.513 3449
0.259 1.810 1.508 2940
0.307 2.143 1.745 3868
0.307 2.148 1.739 5489
0.308 2.153 1.733 7746
0.309 2.157 1.726 9234
0.310 2.168 1.724 9146
0.310 2.166 1.713 7553
0.311 2.171 1.707 9426
0.312 2.182 1.705 17605
0.313 2.186 1.698 25356
0.314 2.191 1.692 28198
0.314 2.195 1.685 28836
0.316 2.206 1.683 26108
0.319 2.230 1.690 18399
0.321 2.241 1.688 12000
0.319 2.232 1.672 10202
0.321 2.243 1.670 9718
0.325 2.274 1.681 10507
0.334 2.331 1.709 10270
0.335 2.342 1.706 13017
0.336 2.346 1.699 13900
0.335 2.344 1.688 12791
0.334 2.335 1.672 12058
0.335 2.340 1.665 9785
0.344 2.404 1.697 11852
0.344 2.401 1.685 12690
0.343 2.399 1.674 10745
0.344 2.404 1.667 8056
0.348 2.435 1.676 8352
0.349 2.439 1.669 9692
0.351 2.450 1.666 8988
0.357 2.495 1.683 9139
0.359 2.506 1.680 9370
0.358 2.504 1.668 7849
0.358 2.501 1.657 6296
0.359 2.506 1.649 4901
0.371 2.591 1.690 4308
0.371 2.596 1.682 7606
0.373 2.607 1.678 10865
0.375 2.618 1.674 11059
0.374 2.616 1.663 8015
0.386 2.695 1.698 7336
0.386 2.700 1.690 7140
0.384 2.683 1.670 5578
0.382 2.667 1.650 4964
0.383 2.678 1.646 5736
0.384 2.683 1.638 6510
0.385 2.687 1.630 5117
0.401 2.802 1.682 4500
0.405 2.827 1.685 6085
0.406 2.838 1.681 7877
0.407 2.843 1.672 7755
0.407 2.847 1.664 7632
0.408 2.851 1.655 6383
0.409 2.856 1.647 5134
0.420 2.937 1.678 4989
0.422 2.948 1.673 5562
0.425 2.967 1.671 5837
0.427 2.985 1.669 6393
0.429 2.996 1.664 6363
0.430 3.008 1.659 6427
0.437 3.054 1.671 6876
0.439 3.066 1.665 8380
0.439 3.070 1.656 7408
0.440 3.075 1.647 6699
0.444 3.100 1.648 6589
0.445 3.111 1.642 7261
0.446 3.116 1.633 6601
0.457 3.191 1.657 6456
0.457 3.195 1.647 6456
0.458 3.200 1.638 5976
0.460 3.211 1.632 5517
0.460 3.216 1.622 5174
0.461 3.220 1.613 4830
0.460 3.217 1.600 3387
0.476 3.329 1.638 3143
0.477 3.333 1.628 3143
0.478 3.337 1.618 1571
0.099 0.672 1.717 5827
0.100 0.680 1.722 7464
0.101 0.685 1.720 9122
0.100 0.683 1.704 14087
0.101 0.687 1.702 19407
0.102 0.692 1.700 19407
0.103 0.699 1.705 19595
0.103 0.704 1.702 20376
0.104 0.708 1.700 20643
0.104 0.709 1.691 20924
0.105 0.717 1.696 22369
0.107 0.725 1.701 24165
0.107 0.730 1.699 23445
0.107 0.731 1.689 21132
0.108 0.735 1.687 19424
0.109 0.740 1.685 16540
0.109 0.740 1.676 13962
0.110 0.748 1.680 12700
0.111 0.756 1.685 12322
0.112 0.764 1.690 10685
0.114 0.773 1.695 9176
0.114 0.777 1.692 8923
0.114 0.778 1.683 8681
0.116 0.786 1.688 9216
0.116 0.790 1.685 9761
0.117 0.795 1.683 7875
0.117 0.795 1.673 6092
0.119 0.811 1.692 6046
0.122 0.831 1.717 7143
0.122 0.831 1.708 7778
0.122 0.832 1.698 9662
0.123 0.837 1.696 10329
0.123 0.837 1.686 9941
0.124 0.842 1.684 10174
0.125 0.850 1.688 13234
0.126 0.854 1.685 16440
0.127 0.863 1.690 15321
0.128 0.871 1.694 15092
0.129 0.876 1.691 17440
0.130 0.884 1.695 22904
0.131 0.888 1.693 25831
0.131 0.893 1.690 21738
0.132 0.897 1.687 18209
0.132 0.898 1.678 18782
0.133 0.902 1.675 24778
0.134 0.911 1.679 30706
0.135 0.915 1.676 32597
0.136 0.924 1.680 26705
0.138 0.936 1.691 20569
0.140 0.949 1.702 16743
0.141 0.958 1.705 16190
0.141 0.962 1.702 18394
0.143 0.975 1.713 20388
0.144 0.980 1.710 25882
0.145 0.989 1.714 31333
0.146 0.993 1.711 33026
0.146 0.993 1.701 28592
0.147 0.998 1.698 24231
0.147 1.002 1.695 36227
0.148 1.007 1.692 53034
0.149 1.011 1.689 49260
0.150 1.020 1.692 41454
0.151 1.025 1.689 29117
0.151 1.029 1.686 23425
0.152 1.033 1.683 34113
0.153 1.038 1.680 38253
0.154 1.047 1.683 33339
0.156 1.060 1.693 26170
0.157 1.069 1.696 22253
0.158 1.078 1.700 16966
0.159 1.083 1.696 12871
0.160 1.087 1.693 9823
0.160 1.092 1.690 6814
0.160 1.092 1.680 6745
0.161 1.096 1.677 7132
0.162 1.105 1.680 6906
0.163 1.109 1.677 6256
0.166 1.133 1.698 8685
0.168 1.142 1.701 13938
0.169 1.146 1.698 18546
0.169 1.151 1.694 23672
0.170 1.155 1.691 25057
0.171 1.165 1.694 23659
0.173 1.174 1.697 22182
0.173 1.178 1.693 17392
0.174 1.183 1.689 15010
0.174 1.182 1.680 12654
0.176 1.197 1.689 8485
0.179 1.221 1.710 12132
0.179 1.220 1.700 16585
0.181 1.230 1.702 14976
0.181 1.234 1.699 8961
0.181 1.229 1.683 5673
0.184 1.253 1.703 8331
0.186 1.263 1.706 13297
0.187 1.272 1.708 14922
0.187 1.272 1.698 11007
0.187 1.271 1.688 10734
0.189 1.286 1.696 14253
0.191 1.300 1.705 23580
0.192 1.305 1.701 29362
0.192 1.304 1.691 25723
0.192 1.308 1.687 21180
0.195 1.328 1.701 20774
0.197 1.338 1.703 23128
0.198 1.348 1.705 19417
0.199 1.352 1.700 13674
0.199 1.357 1.696 21121
0.200 1.361 1.692 24039
0.202 1.371 1.694 17384
0.203 1.381 1.696 11812
0.204 1.390 1.698 7496
0.203 1.384 1.682 8271
0.197 1.341 1.625 8215
0.208 1.415 1.697 14187
0.209 1.424 1.698 18486
0.210 1.429 1.694 14918
0.211 1.439 1.695 17108
0.213 1.449 1.697 23372
0.214 1.453 1.692 18733
0.215 1.463 1.694 18494
0.216 1.473 1.695 16483
0.218 1.483 1.696 16184
0.219 1.487 1.692 26628
0.219 1.492 1.687 20169
0.208 1.413 1.599 10334
0.208 1.417 1.594 8566
0.209 1.422 1.590 5942
0.206 1.403 1.564 3415
0.206 1.402 1.554 4129
0.207 1.406 1.550 4009
0.225 1.534 1.667 2833
0.208 1.414 1.541 3253
0.208 1.412 1.532 4605
0.207 1.411 1.522 4086
0.207 1.409 1.512 4265
0.208 1.413 1.508 4495
0.208 1.417 1.504 2985
0.208 1.415 1.494 1464
0.208 1.413 1.485 1616
0.209 1.423 1.486 1301
0.210 1.427 1.481 1262
0.209 1.419 1.467 2210
0.209 1.423 1.462 3649
0.210 1.426 1.458 4257
0.210 1.430 1.454 3655
0.211 1.434 1.449 2476
0.211 1.438 1.445 2557
0.213 1.447 1.446 3038
0.214 1.457 1.447 2362
0.216 1.473 1.453 2041
0.218 1.482 1.454 1965
0.224 1.522 1.480 2125
0.226 1.538 1.486 3001
0.226 1.535 1.476 2794
0.225 1.533 1.466 2335
0.227 1.543 1.467 4027
0.227 1.547 1.462 6015
0.228 1.551 1.458 4317
0.276 1.876 1.719 3708
0.260 1.771 1.623 4399
0.262 1.781 1.623 5505
0.262 1.785 1.618 5637
0.261 1.777 1.602 4014
0.261 1.775 1.592 4735
0.292 1.989 1.754 5717
0.264 1.796 1.591 4948
0.300 2.041 1.776 4883
0.299 2.033 1.760 5877
0.300 2.038 1.754 5355
0.302 2.055 1.757 4703
0.303 2.060 1.751 3824
0.293 1.996 1.693 4245
0.293 1.994 1.682 3560
0.263 1.791 1.519 2756
0.264 1.795 1.514 3583
0.264 1.799 1.509 3515
0.266 1.809 1.508 2796
0.314 2.136 1.741 4256
0.316 2.147 1.739 6403
0.317 2.158 1.737 9338
0.318 2.162 1.731 11245
0.318 2.167 1.724 11206
0.319 2.171 1.718 9027
0.320 2.176 1.711 10320
0.320 2.180 1.705 19179
0.321 2.185 1.698 28130
0.322 2.189 1.692 31361
0.322 2.194 1.685 31535
0.324 2.205 1.683 28068
0.327 2.222 1.686 18787
0.328 2.233 1.683 11108
0.328 2.231 1.672 9525
0.330 2.248 1.674 8713
0.335 2.279 1.685 9421
0.342 2.329 1.709 10188
0.344 2.340 1.706 12760
0.345 2.345 1.699 13626
0.344 2.343 1.688 12434
0.343 2.334 1.672 10760
0.352 2.398 1.704 8492
0.353 2.402 1.697 9573
0.354 2.407 1.689 9577
0.351 2.391 1.670 7720
0.353 2.402 1.667 5911
0.359 2.440 1.680 7431
0.358 2.438 1.669 8878
0.362 2.462 1.674 9144
0.366 2.487 1.679 9973
0.368 2.505 1.680 10065
0.368 2.502 1.668 8652
0.368 2.507 1.661 7168
0.369 2.511 1.653 5913
0.370 2.515 1.646 4659
0.381 2.594 1.682 7569
0.382 2.599 1.674 10639
0.384 2.610 1.670 10631
0.383 2.607 1.659 8267
0.396 2.694 1.698 6820
0.396 2.691 1.686 6711
0.377 2.566 1.605 5984
0.377 2.563 1.593 4687
0.393 2.677 1.646 5292
0.394 2.681 1.638 6135
0.395 2.686 1.630 4856
0.395 2.690 1.622 3576
0.416 2.832 1.689 5042
0.417 2.837 1.681 6880
0.418 2.841 1.672 6828
0.417 2.839 1.660 6833
0.419 2.850 1.655 5773
0.420 2.854 1.647 4771
0.431 2.935 1.678 4637
0.434 2.954 1.676 5327
0.436 2.965 1.671 5483
0.439 2.983 1.669 5859
0.439 2.988 1.661 5868
0.436 2.964 1.638 6000
0.450 3.060 1.674 5941
0.450 3.064 1.665 7385
0.452 3.076 1.659 6527
0.452 3.073 1.647 5856
0.455 3.098 1.648 5757
0.457 3.110 1.642 6426
0.458 3.114 1.633 5830
0.470 3.196 1.660 6083
0.470 3.201 1.651 6083
0.471 3.205 1.641 5745
0.471 3.202 1.628 5446
0.471 3.207 1.619 5039
0.473 3.218 1.613 4654
0.473 3.215 1.600 3279
0.489 3.327 1.638 2728
0.490 3.331 1.628 2728
0.490 3.335 1.618 1364
0.100 0.672 1.717 5295
0.101 0.677 1.715 6731
0.102 0.684 1.720 8210
0.102 0.682 1.704 13176
0.102 0.684 1.694 18433
0.103 0.688 1.692 18433
0.104 0.696 1.697 18250
0.105 0.704 1.702 18494
0.106 0.708 1.700 18768
0.106 0.709 1.691 19181
0.107 0.717 1.696 20706
0.108 0.725 1.701 22822
0.109 0.729 1.699 22310
0.109 0.730 1.689 20237
0.110 0.735 1.687 18589
0.110 0.739 1.685 15950
0.111 0.740 1.676 13514
0.112 0.748 1.680 12423
0.113 0.756 1.685 12192
0.114 0.764 1.690 10403
0.115 0.772 1.695 8782
0.116 0.777 1.692 8909
0.117 0.781 1.690 9035
0.117 0.786 1.688 9682
0.118 0.790 1.685 10329
0.119 0.794 1.683 8256
0.119 0.795 1.673 6225
0.122 0.815 1.699 6406
0.124 0.830 1.717 7989
0.124 0.831 1.708 9106
0.125 0.836 1.705 11279
0.125 0.840 1.703 11762
0.126 0.841 1.693 10166
0.125 0.837 1.677 9600
0.126 0.846 1.681 12263
0.128 0.854 1.685 15304
0.129 0.862 1.690 14308
0.130 0.871 1.694 14295
0.131 0.875 1.691 16873
0.132 0.884 1.695 22237
0.133 0.888 1.693 25037
0.133 0.893 1.690 20890
0.134 0.897 1.687 17327
0.134 0.897 1.678 18407
0.135 0.902 1.675 24550
0.135 0.906 1.672 30385
0.137 0.915 1.676 32291
0.138 0.923 1.680 26239
0.140 0.936 1.691 20063
0.142 0.949 1.702 17294
0.143 0.958 1.705 17570
0.144 0.962 1.702 19782
0.146 0.975 1.713 21693
0.146 0.980 1.710 27618
0.148 0.988 1.714 33352
0.148 0.989 1.704 35704
0.148 0.993 1.701 31211
0.149 0.998 1.698 26200
0.150 1.002 1.695 37942
0.150 1.006 1.692 54120
0.151 1.011 1.689 50085
0.152 1.020 1.692 41699
0.152 1.020 1.683 28638
0.153 1.024 1.680 21799
0.154 1.029 1.677 31761
0.155 1.038 1.680 36290
0.156 1.046 1.683 31373
0.158 1.060 1.693 26134
0.160 1.069 1.696 24804
0.161 1.078 1.700 19833
0.162 1.082 1.696 15122
0.162 1.087 1.693 11877
0.163 1.091 1.690 8547
0.164 1.096 1.686 7704
0.165 1.105 1.690 7216
0.166 1.114 1.693 6801
0.168 1.123 1.696 6738
0.169 1.132 1.698 9820
0.171 1.142 1.701 15158
0.171 1.146 1.698 19012
0.172 1.150 1.694 22997
0.173 1.155 1.691 24747
0.174 1.164 1.694 24234
0.175 1.173 1.697 22815
0.176 1.178 1.693 18495
0.177 1.187 1.696 16248
0.177 1.187 1.686 12758
0.179 1.196 1.689 7795
0.182 1.215 1.703 10647
0.182 1.220 1.700 14994
0.184 1.229 1.702 13253
0.184 1.234 1.699 7599
0.183 1.223 1.676 5969
0.186 1.248 1.697 9146
0.188 1.257 1.700 14108
0.189 1.267 1.702 14500
0.190 1.271 1.698 9379
0.190 1.270 1.688 9677
0.193 1.290 1.702 14572
0.194 1.300 1.705 25124
0.195 1.304 1.701 32363
0.195 1.304 1.691 27639
0.195 1.308 1.687 20216
0.198 1.328 1.701 19610
0.201 1.343 1.709 23168
0.201 1.347 1.705 17424
0.202 1.352 1.700 12701
0.203 1.356 1.696 21613
0.203 1.361 1.692 23888
0.205 1.370 1.694 16972
0.206 1.380 1.696 11505
0.207 1.385 1.692 6537
0.207 1.384 1.682 7507
0.199 1.335 1.620 9008
0.211 1.414 1.697 15930
0.213 1.424 1.698 19555
0.213 1.428 1.694 14791
0.215 1.438 1.695 14027
0.216 1.448 1.697 18831
0.217 1.453 1.692 15698
0.219 1.468 1.699 15758
0.221 1.478 1.700 15118
0.221 1.482 1.696 17264
0.222 1.487 1.692 28682
0.224 1.497 1.693 21237
0.211 1.413 1.599 11121
0.212 1.417 1.594 9660
0.212 1.421 1.590 5936
0.227 1.520 1.680 3417
0.209 1.401 1.554 4012
0.210 1.405 1.550 4431
0.211 1.415 1.551 3110
0.212 1.419 1.547 3537
0.211 1.412 1.532 4437
0.211 1.410 1.522 3786
0.211 1.414 1.518 3789
0.212 1.418 1.513 4383
0.212 1.422 1.509 3288
0.212 1.420 1.500 1518
0.212 1.418 1.490 1571
0.212 1.422 1.486 1468
0.213 1.426 1.481 1512
0.213 1.424 1.472 2356
0.212 1.422 1.462 3522
0.213 1.426 1.458 4161
0.214 1.430 1.454 3751
0.214 1.433 1.449 2728
0.216 1.443 1.450 2669
0.216 1.447 1.446 2921
0.218 1.456 1.447 2287
0.220 1.472 1.453 1795
0.223 1.494 1.464 1715
0.228 1.527 1.485 2406
0.230 1.537 1.486 3302
0.229 1.535 1.476 3158
0.229 1.533 1.466 2688
0.230 1.542 1.467 4182
0.232 1.552 1.467 6383
0.232 1.556 1.463 4775
0.281 1.881 1.724 3707
0.263 1.764 1.618 4358
0.265 1.774 1.618 5727
0.267 1.785 1.618 6205
0.266 1.783 1.607 4692
0.265 1.775 1.592 4949
0.297 1.988 1.754 5541
0.268 1.795 1.591 4551
0.306 2.046 1.781 4384
0.305 2.039 1.765 4959
0.304 2.037 1.754 4439
0.307 2.054 1.757 3952
0.308 2.059 1.751 3137
0.298 1.995 1.693 3335
0.298 1.993 1.682 2814
0.267 1.791 1.519 2610
0.267 1.788 1.509 3564
0.268 1.792 1.504 3462
0.269 1.802 1.503 2708
0.319 2.135 1.741 4226
0.321 2.146 1.739 6655
0.322 2.157 1.737 10169
0.323 2.162 1.731 12403
0.324 2.166 1.724 12268
0.324 2.171 1.718 9734
0.325 2.175 1.711 10577
0.326 2.180 1.705 19588
0.326 2.184 1.698 29210
0.328 2.195 1.696 32812
0.328 2.193 1.685 32634
0.328 2.198 1.679 29617
0.331 2.215 1.681 20395
0.332 2.226 1.679 12001
0.333 2.230 1.672 9187
0.337 2.254 1.679 8211
0.340 2.278 1.685 9315
0.349 2.335 1.713 10088
0.349 2.339 1.706 12475
0.350 2.344 1.699 13057
0.350 2.342 1.688 11736
0.349 2.340 1.677 9658
0.359 2.404 1.708 7687
0.360 2.408 1.701 7966
0.360 2.413 1.694 7443
0.362 2.424 1.691 5471
0.365 2.441 1.692 5265
0.365 2.446 1.684 6568
0.365 2.444 1.673 8187
0.368 2.461 1.674 9338
0.371 2.486 1.679 10413
0.373 2.497 1.676 10222
0.374 2.501 1.668 8942
0.374 2.506 1.661 7727
0.375 2.510 1.653 6781
0.376 2.514 1.646 5834
0.387 2.593 1.682 7438
0.388 2.598 1.674 10404
0.389 2.602 1.666 10271
0.388 2.600 1.655 8553
0.389 2.604 1.647 7074
