0.172 1.245 1.691 12446
0.172 1.249 1.687 15432
0.174 1.259 1.690 14902
0.177 1.283 1.710 16386
0.178 1.288 1.706 22163
0.177 1.287 1.696 21368
0.179 1.297 1.698 17913
0.180 1.306 1.701 16851
0.181 1.316 1.703 20868
0.183 1.326 1.705 21744
0.183 1.325 1.695 13780
0.184 1.335 1.697 9275
0.187 1.355 1.710 13147
0.187 1.354 1.700 17963
0.187 1.353 1.691 26664
0.187 1.358 1.686 29290
0.188 1.362 1.682 24956
0.190 1.377 1.690 16886
0.193 1.403 1.709 10350
0.193 1.402 1.699 14354
0.195 1.412 1.701 18646
0.195 1.416 1.697 17137
0.195 1.415 1.687 11995
0.195 1.415 1.677 6627
0.198 1.435 1.689 10817
0.198 1.440 1.685 19902
0.200 1.449 1.687 19693
0.201 1.459 1.688 11413
0.203 1.469 1.689 14951
0.203 1.474 1.685 21304
0.205 1.484 1.686 16574
0.208 1.510 1.704 19087
0.210 1.520 1.705 21492
0.210 1.525 1.701 23183
0.211 1.529 1.696 24366
0.211 1.534 1.691 22131
0.212 1.538 1.687 21895
0.214 1.554 1.693 19205
0.217 1.575 1.705 26194
0.219 1.585 1.706 31129
0.219 1.590 1.701 27377
0.220 1.594 1.696 18198
0.222 1.610 1.702 20179
0.223 1.615 1.698 30940
0.223 1.619 1.693 29561
0.224 1.624 1.688 20144
0.224 1.628 1.683 10624
0.227 1.644 1.689 3924
0.229 1.660 1.695 4918
0.230 1.671 1.695 7795
0.233 1.687 1.701 12215
0.233 1.691 1.696 23190
0.234 1.696 1.691 29612
0.234 1.700 1.685 16757
0.239 1.734 1.707 8825
0.239 1.733 1.696 10547
0.242 1.755 1.707 17549
0.243 1.759 1.701 28297
0.243 1.764 1.696 34863
0.245 1.774 1.696 32848
0.246 1.785 1.696 20463
0.247 1.789 1.690 12101
0.247 1.794 1.685 13446
0.250 1.810 1.690 12829
0.253 1.833 1.700 13098
0.257 1.861 1.714 16147
0.258 1.872 1.714 16391
0.260 1.882 1.713 15209
0.261 1.893 1.712 16106
0.261 1.891 1.702 17265
0.261 1.896 1.696 18525
0.264 1.913 1.700 18754
0.264 1.917 1.695 11486
0.268 1.940 1.704 5114
0.272 1.969 1.717 4218
0.271 1.968 1.707 3279
0.270 1.960 1.691 3833
0.274 1.989 1.705 4503
0.275 1.994 1.699 6838
0.275 1.992 1.688 8884
0.274 1.990 1.677 9019
0.278 2.013 1.685 9162
0.279 2.024 1.684 10281
0.281 2.041 1.688 11508
0.282 2.046 1.681 10083
0.284 2.056 1.680 10234
0.287 2.080 1.688 16594
0.289 2.097 1.691 18819
0.291 2.108 1.689 19566
0.291 2.112 1.683 18621
0.293 2.123 1.681 14973
0.298 2.159 1.698 13282
0.299 2.170 1.696 13208
0.300 2.175 1.689 14413
0.301 2.186 1.687 16983
0.301 2.184 1.676 16423
0.303 2.195 1.674 12203
0.306 2.219 1.681 11642
0.307 2.223 1.675 13660
0.307 2.227 1.668 13149
0.308 2.232 1.661 11630
0.309 2.243 1.659 12049
0.321 2.326 1.704 14224
0.322 2.337 1.702 15700
0.323 2.341 1.695 13517
0.323 2.339 1.684 8195
0.320 2.324 1.664 5502
0.332 2.407 1.708 5124
0.331 2.399 1.692 8414
0.331 2.403 1.685 9811
0.333 2.414 1.682 9820
0.334 2.425 1.679 12165
0.335 2.430 1.672 13681
0.336 2.434 1.665 12762
0.336 2.439 1.657 9412
0.339 2.456 1.658 7427
0.344 2.494 1.671 6983
0.345 2.505 1.668 9411
0.346 2.510 1.661 10613
0.347 2.514 1.653 8130
0.347 2.519 1.646 5647
0.347 2.516 1.634 5447
0.363 2.629 1.690 7774
0.364 2.640 1.686 10359
0.365 2.645 1.678 10461
0.365 2.649 1.670 10563
0.367 2.660 1.666 7922
0.375 2.720 1.689 5850
0.375 2.717 1.677 5907
0.374 2.715 1.665 6265
0.375 2.719 1.657 6675
0.384 2.786 1.683 6781
0.384 2.783 1.671 8189
0.384 2.787 1.663 6630
0.384 2.785 1.651 5140
0.384 2.782 1.639 4060
0.396 2.870 1.675 3105
0.395 2.867 1.663 3529
0.396 2.872 1.654 4014
0.395 2.862 1.638 3601
0.415 3.006 1.701 4088
0.412 2.990 1.682 4457
0.412 2.987 1.669 5457
0.411 2.978 1.653 5431
0.422 3.059 1.683 6316
0.422 3.064 1.674 8265
0.423 3.068 1.665 9674
0.424 3.072 1.656 9950
0.424 3.077 1.647 10766
0.426 3.088 1.641 9163
0.428 3.107 1.639 8017
0.440 3.189 1.666 7728
0.439 3.186 1.653 8909
0.440 3.191 1.644 8909
0.442 3.202 1.638 7581
0.443 3.214 1.632 6406
0.444 3.218 1.622 5489
0.444 3.222 1.613 4573
0.456 3.305 1.638 3629
0.457 3.317 1.632 4693
0.458 3.321 1.622 4693
0.458 3.325 1.612 2346
0.094 0.670 1.710 16579
0.095 0.674 1.708 19677
0.096 0.679 1.706 22774
0.096 0.680 1.697 24796
0.097 0.684 1.694 26824
0.097 0.689 1.692 26824
0.098 0.697 1.697 25206
0.099 0.704 1.702 23872
0.100 0.709 1.700 21164
0.101 0.717 1.705 18597
0.101 0.718 1.696 16342
0.101 0.719 1.687 14239
0.102 0.723 1.685 14219
0.103 0.728 1.682 14234
0.104 0.736 1.687 14140
0.104 0.740 1.685 13895
0.105 0.745 1.683 13650
0.106 0.753 1.687 10321
0.107 0.761 1.692 7201
0.108 0.765 1.690 5344
0.111 0.784 1.716 4097
0.112 0.792 1.720 3834
0.113 0.800 1.725 3626
0.111 0.787 1.688 4600
0.112 0.791 1.685 5778
0.112 0.795 1.683 6628
0.113 0.800 1.680 7478
0.114 0.812 1.692 7927
0.117 0.831 1.717 9411
0.117 0.832 1.708 15527
0.118 0.837 1.705 23417
0.119 0.841 1.703 25870
0.119 0.846 1.700 23110
0.120 0.850 1.697 19643
0.121 0.855 1.695 13793
0.123 0.875 1.720 8599
0.122 0.863 1.690 9161
0.122 0.868 1.687 10388
0.123 0.872 1.684 11404
0.124 0.881 1.689 12426
0.125 0.885 1.686 12367
0.125 0.886 1.677 14342
0.126 0.890 1.674 16454
0.126 0.894 1.671 14200
0.127 0.903 1.675 11909
0.128 0.907 1.672 12049
0.129 0.916 1.676 12000
0.132 0.933 1.694 13277
0.132 0.937 1.691 14423
0.133 0.946 1.695 14487
0.133 0.946 1.685 17587
0.134 0.951 1.682 20782
0.136 0.963 1.693 25988
0.137 0.972 1.697 34374
0.138 0.977 1.694 38015
0.139 0.985 1.697 31493
0.140 0.990 1.694 26784
0.140 0.990 1.685 29138
0.141 0.999 1.688 38581
0.142 1.008 1.692 47965
0.143 1.012 1.689 35278
0.143 1.017 1.686 23296
0.144 1.021 1.683 19628
0.145 1.030 1.686 17493
0.146 1.034 1.683 20469
0.147 1.039 1.680 21719
0.148 1.048 1.683 24445
0.149 1.057 1.687 24890
0.150 1.066 1.690 15094
0.153 1.084 1.706 10484
0.153 1.084 1.696 11979
0.154 1.093 1.699 13106
0.156 1.107 1.709 10974
0.156 1.106 1.699 9902
0.157 1.116 1.702 12483
0.159 1.129 1.712 14176
0.160 1.134 1.708 15497
0.161 1.143 1.711 16487
0.163 1.152 1.714 12323
0.165 1.166 1.723 8079
0.164 1.166 1.713 13088
0.164 1.166 1.704 22997
0.165 1.170 1.700 25718
0.166 1.180 1.703 27056
0.166 1.179 1.693 29365
0.168 1.189 1.696 24184
0.168 1.193 1.692 16613
0.170 1.202 1.695 12542
0.171 1.212 1.697 16205
0.172 1.216 1.694 19768
0.173 1.226 1.696 13854
0.174 1.235 1.699 7790
0.176 1.245 1.701 8813
0.175 1.244 1.691 12089
0.176 1.249 1.687 14629
0.178 1.263 1.696 14133
0.181 1.283 1.710 15686
0.182 1.287 1.706 19537
0.182 1.292 1.702 18753
0.184 1.301 1.705 16524
0.185 1.311 1.707 16186
0.186 1.315 1.703 21309
0.186 1.320 1.699 23424
0.186 1.319 1.689 15241
0.187 1.329 1.691 10615
0.190 1.349 1.705 12144
0.190 1.348 1.695 15210
0.191 1.353 1.691 22125
0.191 1.357 1.686 23391
0.192 1.362 1.682 21715
0.194 1.377 1.690 16392
0.198 1.402 1.709 9731
0.198 1.401 1.699 10990
0.198 1.406 1.695 13284
0.200 1.416 1.697 11819
0.200 1.415 1.687 10330
0.201 1.425 1.688 8952
0.202 1.435 1.689 9497
0.204 1.444 1.691 14358
0.204 1.449 1.687 17137
0.206 1.459 1.688 12149
0.206 1.463 1.684 15880
0.208 1.473 1.685 22301
0.210 1.489 1.692 19403
0.213 1.510 1.704 20669
0.214 1.520 1.705 20845
0.215 1.524 1.701 22072
0.216 1.529 1.696 23917
0.216 1.533 1.691 24558
0.218 1.543 1.692 26815
0.219 1.553 1.693 22206
0.221 1.569 1.700 21457
0.224 1.585 1.706 27078
0.224 1.589 1.701 26337
0.225 1.594 1.696 19433
0.227 1.610 1.702 22146
0.228 1.614 1.698 33085
0.228 1.619 1.693 29751
0.228 1.617 1.683 18922
0.230 1.627 1.683 12872
0.232 1.643 1.689 8801
0.233 1.654 1.689 8018
0.235 1.664 1.690 9397
0.238 1.686 1.701 11846
0.238 1.690 1.696 21352
0.238 1.689 1.685 26876
0.240 1.699 1.685 15300
0.244 1.727 1.701 9869
0.245 1.738 1.701 13269
0.247 1.754 1.707 19157
0.248 1.758 1.701 28373
0.249 1.763 1.696 34553
0.250 1.773 1.696 30928
0.252 1.784 1.696 18779
0.253 1.794 1.696 11871
0.254 1.799 1.690 14984
0.255 1.809 1.690 16229
0.258 1.832 1.700 14503
0.262 1.854 1.709 15778
0.264 1.871 1.714 19175
0.265 1.876 1.708 19974
0.266 1.886 1.708 17576
0.266 1.885 1.697 17559
0.267 1.895 1.696 20561
0.269 1.906 1.695 21683
0.270 1.916 1.695 13905
0.276 1.958 1.718 7647
0.277 1.962 1.712 8073
0.277 1.967 1.707 5430
0.276 1.959 1.691 3714
0.281 1.995 1.709 4118
0.282 1.999 1.703 5968
0.281 1.991 1.688 9375
0.281 1.989 1.677 10737
0.283 2.006 1.681 10193
0.284 2.017 1.679 11699
0.286 2.028 1.678 11899
0.287 2.038 1.677 10247
0.289 2.049 1.675 10438
0.294 2.085 1.692 15148
0.296 2.096 1.691 18821
0.296 2.100 1.685 20356
0.298 2.111 1.683 19596
0.298 2.116 1.677 16118
0.304 2.159 1.698 12058
0.306 2.169 1.696 13121
0.307 2.174 1.689 15018
0.308 2.185 1.687 17827
0.309 2.189 1.681 17197
0.309 2.194 1.674 12869
0.313 2.218 1.681 11460
0.312 2.215 1.670 12969
0.314 2.226 1.668 11927
0.315 2.231 1.661 10310
0.316 2.242 1.659 11876
0.317 2.246 1.652 14397
0.329 2.336 1.702 14051
0.330 2.340 1.695 12319
0.330 2.338 1.684 8080
0.329 2.336 1.672 5810
0.339 2.406 1.708 5095
0.339 2.404 1.697 7158
0.339 2.402 1.685 7944
0.341 2.420 1.686 9422
0.342 2.424 1.679 13183
0.343 2.429 1.672 14740
0.343 2.433 1.665 13402
0.344 2.437 1.657 9703
0.346 2.455 1.658 7509
0.352 2.493 1.671 7417
0.353 2.504 1.668 10063
0.354 2.509 1.661 11178
0.353 2.506 1.649 8482
0.351 2.490 1.630 5975
0.354 2.508 1.630 5706
0.371 2.628 1.690 7672
0.372 2.639 1.686 10624
0.373 2.644 1.678 10869
0.373 2.648 1.670 11113
0.374 2.652 1.662 8551
0.375 2.657 1.655 5446
0.384 2.723 1.681 5572
0.384 2.720 1.669 5994
0.383 2.718 1.657 6574
0.385 2.729 1.653 6384
0.392 2.782 1.671 7222
0.392 2.779 1.659 5799
0.392 2.777 1.647 4402
0.392 2.781 1.639 3576
0.412 2.924 1.704 3156
0.406 2.880 1.670 3157
0.406 2.877 1.658 3391
0.404 2.868 1.642 3054
0.424 3.005 1.701 3881
0.421 2.988 1.682 4395
0.421 2.986 1.669 5422
0.420 2.976 1.653 5713
0.417 2.959 1.634 6876
0.432 3.062 1.674 7486
0.434 3.074 1.668 8897
0.434 3.078 1.659 9417
0.434 3.075 1.647 10400
0.435 3.087 1.641 9144
0.438 3.105 1.639 8231
0.450 3.188 1.666 7667
0.450 3.192 1.657 8640
0.451 3.196 1.647 8640
0.451 3.201 1.638 7205
0.453 3.212 1.632 5824
0.454 3.216 1.622 5043
0.453 3.214 1.609 4295
0.466 3.304 1.638 3381
0.468 3.315 1.632 4230
0.468 3.319 1.622 4230
0.469 3.324 1.612 2115
0.216 1.535 0.824 214
0.095 0.670 1.710 15278
0.096 0.674 1.708 18077
0.097 0.679 1.706 20876
0.097 0.680 1.697 23058
0.098 0.684 1.694 25332
0.098 0.689 1.692 25332
0.099 0.696 1.697 23622
0.100 0.701 1.695 22237
0.101 0.709 1.700 19800
0.102 0.717 1.705 17507
0.102 0.718 1.696 15404
0.103 0.722 1.694 13430
0.104 0.727 1.692 13161
0.104 0.728 1.682 12854
0.105 0.736 1.687 12745
0.105 0.740 1.685 12650
0.107 0.748 1.690 12656
0.107 0.752 1.687 9657
0.108 0.760 1.692 6900
0.110 0.772 1.704 5321
0.112 0.787 1.723 4806
0.113 0.792 1.720 4592
0.114 0.797 1.718 4378
0.113 0.790 1.695 4871
0.113 0.791 1.685 5974
0.113 0.795 1.683 6608
0.114 0.800 1.680 7242
0.116 0.815 1.699 8000
0.118 0.831 1.717 10017
0.119 0.832 1.708 16246
0.119 0.836 1.705 24501
0.120 0.841 1.703 27231
0.120 0.845 1.700 24431
0.121 0.850 1.697 20843
0.122 0.854 1.695 14241
0.124 0.871 1.713 8011
0.123 0.863 1.690 8616
0.124 0.868 1.687 9559
0.125 0.876 1.691 11013
0.126 0.881 1.689 12776
0.126 0.885 1.686 12859
0.126 0.885 1.677 14676
0.127 0.890 1.674 16769
0.127 0.894 1.671 14749
0.129 0.903 1.675 13498
0.129 0.907 1.672 14748
0.131 0.916 1.676 14430
0.132 0.928 1.687 15092
0.133 0.933 1.684 16348
0.134 0.941 1.688 16222
0.135 0.946 1.685 19269
0.135 0.950 1.682 22299
0.137 0.963 1.693 26464
0.139 0.972 1.697 33971
0.140 0.981 1.700 37995
0.140 0.985 1.697 33097
0.141 0.990 1.694 29846
0.141 0.990 1.685 32144
0.142 0.999 1.688 40838
0.144 1.007 1.692 48457
0.144 1.012 1.689 35317
0.145 1.016 1.686 23601
0.145 1.016 1.676 20595
0.146 1.025 1.680 18041
0.147 1.034 1.683 18707
0.149 1.043 1.686 19078
0.149 1.047 1.683 22176
0.151 1.056 1.687 23843
0.152 1.065 1.690 15562
0.154 1.084 1.706 11378
0.154 1.083 1.696 13021
0.156 1.093 1.699 14969
0.157 1.102 1.703 12777
0.158 1.111 1.706 11191
0.159 1.115 1.702 13837
0.161 1.129 1.712 15250
0.162 1.134 1.708 16233
0.163 1.143 1.711 17050
0.164 1.147 1.708 12492
0.166 1.161 1.717 7725
0.165 1.161 1.707 13470
0.165 1.161 1.697 25162
0.167 1.170 1.700 28555
0.168 1.179 1.703 28690
0.168 1.179 1.693 30045
0.169 1.188 1.696 25786
0.170 1.193 1.692 18230
0.171 1.202 1.695 12997
0.173 1.217 1.703 15729
0.173 1.216 1.694 19192
0.175 1.225 1.696 13253
0.176 1.235 1.699 7159
0.177 1.244 1.701 8594
0.177 1.244 1.691 12347
0.177 1.243 1.681 14275
0.180 1.263 1.696 13455
0.183 1.282 1.710 14554
0.183 1.287 1.706 17098
0.184 1.291 1.702 16988
0.186 1.306 1.711 16722
0.187 1.311 1.707 16426
0.187 1.315 1.703 21492
0.188 1.320 1.699 23840
0.188 1.319 1.689 16331
0.189 1.329 1.691 12717
0.191 1.343 1.699 13016
0.192 1.348 1.695 13984
0.193 1.352 1.691 18576
0.193 1.357 1.686 18941
0.194 1.361 1.682 19138
0.197 1.382 1.696 15509
0.200 1.402 1.709 8757
0.200 1.401 1.699 8069
0.200 1.406 1.695 9209
0.201 1.410 1.691 8045
0.202 1.420 1.692 10150
0.204 1.430 1.694 12848
0.204 1.434 1.689 9793
0.206 1.444 1.691 10672
0.206 1.449 1.687 15144
0.208 1.458 1.688 12856
0.208 1.463 1.684 16124
0.210 1.473 1.685 22188
0.212 1.488 1.692 22223
0.215 1.509 1.704 20988
0.217 1.519 1.705 17671
0.217 1.524 1.701 18845
0.218 1.528 1.696 22061
0.218 1.533 1.691 24185
0.220 1.543 1.692 29247
0.221 1.553 1.693 24831
0.223 1.563 1.694 17709
0.226 1.584 1.706 22226
0.226 1.589 1.701 24196
0.226 1.588 1.691 19505
0.229 1.609 1.702 22526
0.230 1.614 1.698 33426
0.231 1.618 1.693 29058
0.230 1.617 1.683 18937
0.233 1.633 1.688 16650
0.234 1.643 1.689 14310
0.236 1.653 1.689 11846
0.237 1.664 1.690 11093
0.238 1.668 1.685 11138
0.241 1.690 1.696 18590
0.241 1.689 1.685 23724
0.242 1.699 1.685 14411
0.246 1.727 1.701 10350
0.248 1.737 1.701 14204
0.251 1.760 1.712 19875
0.251 1.758 1.701 27752
0.251 1.763 1.696 33207
0.252 1.767 1.691 28280
0.253 1.777 1.691 18106
0.255 1.788 1.690 13039
0.256 1.798 1.690 15889
0.257 1.803 1.685 17563
0.260 1.825 1.695 14912
0.263 1.848 1.704 16202
0.266 1.865 1.709 20880
0.267 1.875 1.708 23109
0.269 1.886 1.708 18952
0.269 1.890 1.702 17875
0.270 1.895 1.696 21767
0.272 1.905 1.695 23472
0.273 1.916 1.695 15319
0.279 1.957 1.718 9418
0.280 1.962 1.712 10798
0.280 1.966 1.707 7617
0.280 1.965 1.696 5295
0.282 1.975 1.695 5332
0.285 1.999 1.703 6975
0.285 1.997 1.693 11447
0.284 1.995 1.682 13444
0.286 2.006 1.681 11646
0.287 2.016 1.679 12251
0.288 2.021 1.673 10768
0.290 2.032 1.672 8086
0.296 2.080 1.699 8165
0.298 2.091 1.697 13929
0.299 2.096 1.691 19000
0.299 2.100 1.685 21034
0.301 2.111 1.683 20551
0.301 2.115 1.677 17090
0.307 2.152 1.693 10890
0.309 2.169 1.696 12932
0.310 2.173 1.689 15203
0.311 2.184 1.687 17722
0.312 2.189 1.681 17011
0.313 2.193 1.674 12771
0.315 2.211 1.677 11189
0.316 2.215 1.670 12435
0.316 2.219 1.663 10693
0.319 2.237 1.666 9152
0.319 2.241 1.659 11577
0.319 2.239 1.648 14557
0.320 2.243 1.641 13055
0.333 2.340 1.695 10963
0.334 2.344 1.688 7725
0.334 2.342 1.677 6066
0.337 2.366 1.682 5226
0.342 2.397 1.692 6102
0.342 2.402 1.685 6230
0.346 2.426 1.691 9080
0.345 2.424 1.679 13661
0.346 2.428 1.672 15170
0.346 2.426 1.661 13520
0.346 2.430 1.653 9642
0.349 2.448 1.654 7481
0.355 2.493 1.671 7462
0.356 2.497 1.664 10253
0.357 2.501 1.657 11280
0.357 2.506 1.649 8506
0.354 2.483 1.626 6101
0.357 2.508 1.630 5688
0.374 2.627 1.690 7511
0.376 2.639 1.686 10726
0.377 2.643 1.678 11129
0.377 2.647 1.670 11532
0.377 2.645 1.659 9135
0.378 2.649 1.651 5794
0.390 2.736 1.689 5500
0.389 2.727 1.673 5711
0.388 2.724 1.661 6264
0.389 2.729 1.653 6086
0.394 2.767 1.664 6157
0.394 2.765 1.652 5000
0.395 2.769 1.643 3855
0.414 2.905 1.705 3388
0.416 2.917 1.700 3564
0.412 2.893 1.677 3181
0.412 2.891 1.665 3222
0.427 2.993 1.707 2763
0.427 2.997 1.698 3651
0.426 2.988 1.682 4309
0.425 2.985 1.669 5354
0.423 2.969 1.650 5920
0.422 2.959 1.634 7240
0.437 3.069 1.678 6785
0.438 3.073 1.668 8021
0.439 3.078 1.659 8652
0.438 3.075 1.647 9682
0.440 3.086 1.641 8703
0.442 3.105 1.639 7978
0.455 3.194 1.670 7483
0.455 3.191 1.657 8278
0.455 3.196 1.647 8278
0.456 3.200 1.638 6729
0.458 3.212 1.632 5211
0.457 3.209 1.619 4535
0.458 3.213 1.609 3891
0.471 3.303 1.638 3139
0.471 3.307 1.628 3804
0.472 3.312 1.619 3804
0.473 3.316 1.609 1902
0.219 1.534 0.824 252
0.097 0.669 1.710 13790
0.098 0.674 1.708 16325
0.099 0.678 1.706 18861
0.099 0.679 1.697 21249
0.100 0.684 1.694 23828
0.100 0.688 1.692 23828
0.101 0.693 1.690 22175
0.102 0.701 1.695 20958
0.103 0.708 1.700 18518
0.104 0.716 1.705 16438
0.105 0.717 1.696 14527
0.105 0.722 1.694 12720
0.106 0.726 1.692 12369
0.106 0.727 1.682 11852
0.107 0.735 1.687 11686
0.108 0.740 1.685 11660
0.109 0.748 1.690 11965
0.110 0.756 1.695 9293
0.111 0.764 1.699 7010
0.113 0.779 1.718 5913
0.115 0.787 1.723 5677
0.115 0.792 1.720 5442
0.116 0.796 1.718 5207
0.116 0.793 1.702 5306
0.115 0.790 1.685 6075
0.116 0.795 1.683 6666
0.116 0.799 1.680 7257
0.119 0.819 1.706 8332
0.121 0.831 1.717 10707
0.121 0.832 1.708 16957
0.122 0.836 1.705 25448
0.122 0.841 1.703 28383
0.123 0.845 1.700 25500
0.124 0.850 1.697 21795
0.124 0.854 1.695 14764
0.126 0.862 1.699 7788
0.126 0.863 1.690 8329
0.126 0.867 1.687 8875
0.128 0.876 1.691 10983
0.128 0.880 1.689 13503
0.129 0.885 1.686 13801
0.129 0.885 1.677 15198
0.130 0.889 1.674 17152
0.130 0.890 1.664 15507
0.131 0.902 1.675 15121
0.133 0.911 1.679 17485
0.133 0.911 1.670 16203
0.135 0.924 1.680 15906
0.136 0.932 1.684 17385
0.137 0.941 1.688 17133
0.138 0.946 1.685 20136
0.138 0.950 1.682 22809
0.140 0.963 1.693 26945
0.142 0.972 1.697 34712
0.143 0.980 1.700 39318
0.143 0.985 1.697 35376
0.144 0.989 1.694 33041
0.144 0.989 1.685 35160
0.145 0.998 1.688 42781
0.147 1.007 1.692 47959
0.147 1.007 1.682 35002
0.147 1.011 1.679 24721
0.148 1.016 1.676 22865
0.149 1.020 1.673 19794
0.150 1.029 1.677 17130
0.152 1.043 1.686 17156
0.153 1.052 1.690 20150
0.154 1.061 1.693 22586
0.156 1.070 1.696 15984
0.157 1.079 1.700 12361
0.158 1.083 1.696 14335
0.159 1.092 1.699 17234
0.160 1.101 1.703 15081
0.162 1.110 1.706 12486
0.162 1.115 1.702 14823
0.164 1.129 1.712 16111
0.165 1.133 1.708 16906
0.166 1.142 1.711 17518
0.167 1.147 1.708 12606
0.169 1.161 1.717 7482
0.169 1.161 1.707 14142
0.169 1.160 1.697 27275
0.170 1.170 1.700 31353
0.172 1.179 1.703 30251
0.172 1.179 1.693 30630
0.172 1.183 1.689 27499
0.174 1.192 1.692 19679
0.175 1.202 1.695 13445
0.177 1.216 1.703 15234
0.178 1.220 1.700 18374
0.178 1.225 1.696 12472
0.180 1.234 1.699 6533
0.181 1.244 1.701 8396
0.181 1.243 1.691 12668
0.181 1.243 1.681 14225
0.184 1.262 1.696 12773
0.187 1.282 1.710 13332
0.187 1.286 1.706 14688
0.188 1.291 1.702 15346
0.191 1.311 1.717 17365
0.192 1.315 1.713 17167
0.192 1.315 1.703 21625
0.192 1.319 1.699 23821
0.192 1.318 1.689 17160
0.193 1.328 1.691 14761
0.195 1.338 1.693 14600
0.196 1.347 1.695 13444
0.198 1.357 1.696 15391
0.197 1.351 1.681 15080
0.198 1.361 1.682 16808
0.201 1.381 1.696 14426
0.204 1.401 1.709 7788
0.204 1.401 1.699 5734
0.205 1.405 1.695 7357
0.205 1.409 1.691 8155
0.207 1.419 1.692 12467
0.208 1.429 1.694 17774
0.210 1.439 1.695 13937
0.211 1.449 1.697 10640
0.212 1.453 1.692 13706
0.212 1.458 1.688 13840
0.213 1.462 1.684 15902
0.214 1.472 1.685 21394
0.218 1.493 1.697 25332
0.220 1.509 1.704 20457
0.221 1.519 1.705 12426
0.222 1.523 1.701 13882
0.223 1.528 1.696 19738
0.224 1.538 1.697 22763
0.225 1.548 1.698 30078
0.226 1.552 1.693 27514
0.227 1.557 1.689 15545
0.231 1.584 1.706 17228
0.231 1.588 1.701 21434
0.231 1.587 1.691 18914
0.234 1.603 1.697 22145
0.235 1.613 1.698 33018
0.235 1.612 1.687 28608
0.236 1.622 1.688 20123
0.238 1.632 1.688 21624
0.239 1.642 1.689 20671
0.241 1.653 1.689 16224
0.242 1.663 1.690 12825
0.243 1.667 1.685 10200
0.246 1.689 1.696 14886
0.246 1.688 1.685 19904
0.247 1.698 1.685 13807
0.251 1.720 1.696 10963
0.254 1.742 1.707 14804
0.256 1.759 1.712 20801
0.256 1.757 1.701 27014
0.257 1.762 1.696 31036
0.258 1.772 1.696 25038
0.260 1.783 1.696 18636
0.260 1.787 1.690 15790
0.262 1.798 1.690 16840
0.263 1.802 1.685 18867
0.266 1.825 1.695 16600
0.268 1.841 1.699 17895
0.271 1.858 1.704 23513
0.272 1.868 1.703 25953
0.275 1.885 1.708 19806
0.275 1.889 1.702 17954
0.276 1.894 1.696 22297
0.277 1.905 1.695 24216
0.279 1.915 1.695 16093
0.285 1.957 1.718 10675
0.286 1.961 1.712 13011
0.286 1.966 1.707 9597
0.286 1.964 1.696 7663
0.288 1.975 1.695 8360
0.290 1.991 1.699 9634
0.291 1.996 1.693 15294
0.291 2.000 1.687 17342
0.292 2.005 1.681 13959
0.294 2.016 1.679 13414
0.294 2.020 1.673 10135
0.296 2.031 1.672 6020
0.304 2.086 1.703 8044
0.304 2.090 1.697 13515
0.305 2.095 1.691 19678
0.306 2.099 1.685 22098
0.306 2.104 1.678 21593
0.309 2.121 1.681 17989
0.313 2.151 1.693 10153
0.316 2.168 1.696 12568
0.316 2.173 1.689 15128
0.318 2.183 1.687 17363
0.319 2.188 1.681 16592
0.319 2.192 1.674 12739
0.321 2.203 1.672 11354
0.322 2.208 1.666 12340
0.321 2.205 1.655 9872
0.326 2.236 1.666 8251
0.325 2.234 1.655 11221
0.326 2.238 1.648 14042
0.327 2.242 1.641 12356
0.342 2.345 1.699 9367
0.342 2.350 1.692 7300
0.343 2.354 1.685 6648
0.345 2.365 1.682 6140
0.351 2.409 1.701 5332
0.354 2.427 1.702 5318
0.353 2.425 1.691 9180
0.354 2.429 1.683 14050
0.354 2.427 1.672 15319
0.353 2.425 1.661 13344
0.354 2.429 1.653 9490
0.355 2.440 1.650 7519
0.362 2.485 1.667 7370
0.364 2.496 1.664 10273
0.364 2.500 1.657 11180
0.365 2.505 1.649 8344
0.362 2.482 1.626 6090
0.365 2.507 1.630 5578
0.383 2.626 1.690 7443
0.384 2.637 1.686 10891
0.385 2.642 1.678 11442
0.386 2.646 1.670 11993
0.385 2.644 1.659 9714
0.386 2.648 1.651 6217
0.399 2.742 1.693 5546
0.399 2.739 1.681 5643
0.398 2.730 1.665 5894
0.398 2.734 1.657 5619
0.398 2.732 1.645 5369
0.401 2.750 1.644 4320
0.421 2.893 1.710 3516
0.423 2.904 1.705 3774
0.424 2.909 1.697 4042
0.422 2.899 1.681 3562
0.421 2.890 1.665 3407
0.422 2.894 1.656 2777
0.436 2.996 1.698 3501
0.435 2.987 1.682 4283
0.435 2.984 1.669 5313
0.432 2.967 1.650 6127
0.431 2.958 1.634 7569
0.447 3.067 1.678 6049
0.447 3.072 1.668 7047
0.448 3.076 1.659 7708
0.448 3.073 1.647 8738
0.449 3.085 1.641 7993
0.452 3.103 1.639 7466
0.465 3.193 1.670 7218
0.465 3.190 1.657 7825
0.465 3.194 1.647 7825
0.466 3.199 1.638 6220
0.468 3.210 1.632 4655
0.467 3.207 1.619 4017
0.468 3.211 1.609 3419
0.481 3.302 1.638 2887
0.482 3.306 1.628 3436
0.482 3.310 1.619 3436
0.483 3.314 1.609 1718
0.222 1.526 0.821 212
0.100 0.669 1.710 15089
0.100 0.673 1.708 17326
0.101 0.678 1.706 19563
0.101 0.679 1.697 21974
0.102 0.684 1.694 24890
0.102 0.688 1.692 24890
0.103 0.693 1.690 22394
0.104 0.697 1.688 19898
0.105 0.705 1.693 16788
0.106 0.713 1.698 14013
0.107 0.717 1.696 12560
0.107 0.722 1.694 11107
0.108 0.726 1.692 10516
0.108 0.727 1.682 9480
0.109 0.731 1.680 8829
0.110 0.739 1.685 8782
0.111 0.747 1.690 9004
0.112 0.755 1.695 7160
0.114 0.767 1.706 5703
0.116 0.782 1.725 5298
0.118 0.790 1.730 5565
0.118 0.791 1.720 6024
0.118 0.792 1.711 6619
0.118 0.793 1.702 6684
0.118 0.794 1.692 6955
0.118 0.795 1.683 7081
0.119 0.799 1.680 7281
0.122 0.818 1.706 8960
0.124 0.830 1.717 11900
0.124 0.831 1.708 18099
0.124 0.836 1.705 26639
0.125 0.840 1.703 29593
0.126 0.845 1.700 26456
0.126 0.849 1.697 22591
0.127 0.854 1.695 15308
0.128 0.858 1.692 8025
0.128 0.863 1.690 7633
0.129 0.867 1.687 7097
0.130 0.875 1.691 9793
0.132 0.884 1.695 13769
0.132 0.884 1.686 14868
0.132 0.885 1.677 15835
0.132 0.885 1.667 17789
0.132 0.889 1.664 16639
0.134 0.902 1.675 16852
0.136 0.910 1.679 20118
0.136 0.911 1.670 17688
0.137 0.923 1.680 16883
0.139 0.932 1.684 18771
0.140 0.941 1.688 18219
0.141 0.945 1.685 20619
0.141 0.950 1.682 22812
0.143 0.962 1.693 26631
0.145 0.971 1.697 34327
0.146 0.980 1.700 39494
0.147 0.984 1.697 37738
0.147 0.989 1.694 37545
0.148 0.993 1.691 39533
0.149 0.998 1.688 45267
0.149 1.002 1.685 47640
0.150 1.007 1.682 36527
0.150 1.007 1.673 28866
0.150 1.011 1.670 27449
0.152 1.020 1.673 23026
0.153 1.029 1.677 18140
0.155 1.042 1.686 18307
0.156 1.051 1.690 20510
0.158 1.060 1.693 22812
0.159 1.069 1.696 17637
0.160 1.078 1.700 14443
0.161 1.083 1.696 16609
0.162 1.092 1.699 20224
0.163 1.096 1.696 17963
0.164 1.105 1.699 13613
0.166 1.114 1.702 15496
0.168 1.128 1.712 16851
0.169 1.133 1.708 17416
0.169 1.137 1.705 17652
0.171 1.146 1.708 12264
0.170 1.141 1.692 7398
0.172 1.155 1.701 15305
0.173 1.160 1.697 29401
0.174 1.169 1.700 33640
0.175 1.178 1.703 31522
0.176 1.183 1.699 30552
0.177 1.187 1.696 29027
0.177 1.192 1.692 22475
0.179 1.201 1.695 13899
0.181 1.215 1.703 14158
0.182 1.220 1.700 17130
0.182 1.224 1.696 11174
0.184 1.239 1.705 5538
0.185 1.243 1.701 8137
0.186 1.248 1.697 12390
0.186 1.247 1.687 13466
0.188 1.262 1.696 12414
0.191 1.281 1.710 11491
0.191 1.286 1.706 11881
0.193 1.295 1.708 13874
0.195 1.310 1.717 18200
0.195 1.309 1.707 17794
0.196 1.314 1.703 20758
0.196 1.318 1.699 22313
0.195 1.313 1.683 17790
0.197 1.322 1.685 16817
0.198 1.332 1.687 16993
0.199 1.336 1.683 13951
0.202 1.356 1.696 12981
0.202 1.356 1.686 12533
0.202 1.360 1.682 15022
0.205 1.380 1.696 13125
0.208 1.395 1.703 7698
0.209 1.405 1.705 6065
0.210 1.410 1.701 9978
0.210 1.414 1.697 13295
0.211 1.419 1.692 17706
0.213 1.428 1.694 24381
0.213 1.433 1.689 21299
0.215 1.443 1.691 12979
0.216 1.453 1.692 12494
0.217 1.457 1.688 15471
0.218 1.467 1.689 15638
0.220 1.477 1.690 19905
0.223 1.498 1.703 27114
0.224 1.508 1.704 21834
0.225 1.512 1.699 9862
0.226 1.517 1.695 9215
0.227 1.527 1.696 16231
0.229 1.537 1.697 19329
0.230 1.547 1.698 28190
0.230 1.546 1.688 28146
0.231 1.550 1.683 14141
0.234 1.572 1.695 12699
0.235 1.576 1.690 19004
0.236 1.586 1.691 17969
0.238 1.602 1.697 21612
0.239 1.607 1.692 32093
0.240 1.611 1.687 28615
0.241 1.621 1.688 22671
0.244 1.637 1.694 27858
0.244 1.642 1.689 28304
0.246 1.652 1.689 21481
0.247 1.662 1.690 14894
0.247 1.661 1.679 8911
0.251 1.689 1.696 9789
0.251 1.687 1.685 15235
0.252 1.692 1.680 14031
0.255 1.714 1.691 12103
0.259 1.742 1.707 14841
0.262 1.758 1.712 20770
0.261 1.757 1.701 24861
0.262 1.761 1.696 26822
0.264 1.771 1.696 21690
0.265 1.782 1.696 21392
0.266 1.786 1.690 20923
0.267 1.797 1.690 18284
0.268 1.801 1.685 19784
0.271 1.824 1.695 19060
0.274 1.840 1.699 21109
0.275 1.851 1.699 27366
0.278 1.867 1.703 28903
0.280 1.878 1.703 19741
0.281 1.889 1.702 17157
0.282 1.893 1.696 22042
0.283 1.904 1.695 24029
0.285 1.914 1.695 16608
0.287 1.931 1.699 11311
0.292 1.960 1.712 13794
0.292 1.965 1.707 10842
0.293 1.969 1.701 10550
0.294 1.974 1.695 12520
0.296 1.991 1.699 14247
0.297 1.995 1.693 21237
0.298 1.999 1.687 22502
0.298 2.004 1.681 17465
0.301 2.021 1.684 15405
0.302 2.032 1.683 10281
0.306 2.055 1.691 7576
0.309 2.078 1.699 8928
0.311 2.089 1.697 13602
0.312 2.094 1.691 20762
0.311 2.092 1.680 23542
0.313 2.103 1.678 23338
0.316 2.120 1.681 19956
0.317 2.131 1.679 11735
0.322 2.161 1.691 12257
0.324 2.178 1.694 14817
0.326 2.189 1.692 16764
0.326 2.193 1.685 16160
0.327 2.198 1.679 13974
0.328 2.202 1.672 12451
0.327 2.200 1.661 12148
0.327 2.198 1.650 9099
0.334 2.241 1.670 7085
0.332 2.233 1.655 10589
0.333 2.237 1.648 13146
0.334 2.241 1.641 11201
0.334 2.246 1.635 7452
0.351 2.355 1.696 6684
0.351 2.360 1.689 7323
0.352 2.364 1.682 7023
0.360 2.421 1.709 5093
0.362 2.433 1.706 6202
0.362 2.430 1.695 10083
0.361 2.428 1.683 14524
0.361 2.426 1.672 15289
0.361 2.424 1.661 12860
0.361 2.428 1.653 9171
0.363 2.439 1.650 7657
0.369 2.477 1.663 7152
0.371 2.495 1.664 10317
0.372 2.499 1.657 11188
0.373 2.504 1.649 8141
0.369 2.481 1.626 5832
0.372 2.499 1.626 5253
0.391 2.625 1.690 7431
0.392 2.636 1.686 11070
0.393 2.641 1.678 11779
0.394 2.645 1.670 12488
0.393 2.643 1.659 10396
0.394 2.647 1.651 6890
0.393 2.638 1.635 5770
0.408 2.738 1.681 5543
0.408 2.742 1.673 5712
0.407 2.733 1.657 5081
0.405 2.724 1.641 4953
0.407 2.735 1.637 3788
0.430 2.891 1.710 3690
0.431 2.896 1.702 4097
0.432 2.900 1.693 4505
0.431 2.898 1.681 4103
0.431 2.895 1.668 3898
0.431 2.893 1.656 3156
0.445 2.988 1.694 3259
0.443 2.978 1.678 4202
0.443 2.976 1.666 5279
0.441 2.966 1.650 6367
0.440 2.956 1.634 7952
0.440 2.953 1.622 5806
0.458 3.077 1.672 5715
0.458 3.075 1.659 6285
0.457 3.072 1.647 7232
0.459 3.083 1.641 6773
0.461 3.095 1.635 6494
0.475 3.191 1.670 6590
0.476 3.196 1.660 7050
0.476 3.200 1.651 7050
0.477 3.204 1.641 5595
0.478 3.209 1.632 4140
0.478 3.213 1.622 3489
0.478 3.210 1.609 2927
0.491 3.300 1.638 2599
0.491 3.297 1.625 3159
0.491 3.301 1.615 3159
0.492 3.306 1.606 1579
0.101 0.672 1.717 12512
0.102 0.676 1.715 14187
0.102 0.678 1.706 16032
0.102 0.679 1.697 18929
0.102 0.680 1.687 22553
0.103 0.685 1.685 22553
0.104 0.689 1.683 20760
0.105 0.697 1.688 19103
0.106 0.705 1.693 16396
0.107 0.712 1.698 14367
0.108 0.720 1.703 12902
0.109 0.725 1.701 11476
0.110 0.729 1.699 10822
0.110 0.730 1.689 9572
0.110 0.735 1.687 8947
0.112 0.743 1.692 9387
0.113 0.751 1.697 10197
0.114 0.759 1.702 8542
0.115 0.767 1.706 7438
0.117 0.778 1.718 6525
0.118 0.787 1.723 6289
0.119 0.791 1.720 6547
0.119 0.792 1.711 6856
0.119 0.793 1.702 6565
0.120 0.797 1.699 6402
0.120 0.798 1.690 6812
0.120 0.799 1.680 7262
0.124 0.822 1.713 9146
0.125 0.830 1.717 11872
0.125 0.831 1.708 18032
0.126 0.835 1.705 26809
0.126 0.840 1.703 30126
0.127 0.844 1.700 27216
0.128 0.849 1.697 23401
0.128 0.853 1.695 16004
0.129 0.858 1.692 8608
0.130 0.862 1.690 8096
0.131 0.871 1.694 7512
0.132 0.875 1.691 10169
0.133 0.884 1.695 14113
0.133 0.884 1.686 15152
0.133 0.884 1.677 16180
0.133 0.885 1.667 18403
0.134 0.889 1.664 17406
0.136 0.902 1.675 17961
0.137 0.910 1.679 21809
0.138 0.915 1.676 19028
0.139 0.923 1.680 17155
0.139 0.928 1.678 18364
0.141 0.940 1.688 17818
0.142 0.945 1.685 20419
0.143 0.949 1.682 22686
0.145 0.962 1.693 26204
0.147 0.975 1.703 33638
0.147 0.980 1.700 39033
0.148 0.984 1.697 38554
0.149 0.989 1.694 39682
0.149 0.993 1.691 41741
0.150 0.998 1.688 46517
0.151 1.002 1.685 47832
0.151 1.006 1.682 38408
0.152 1.011 1.679 32445
0.153 1.015 1.676 30186
0.153 1.015 1.667 23857
0.155 1.029 1.677 18248
0.157 1.042 1.686 19661
0.158 1.051 1.690 21194
0.159 1.060 1.693 22960
0.161 1.069 1.696 17715
0.162 1.078 1.700 14810
0.163 1.082 1.696 17528
0.164 1.091 1.699 21628
0.165 1.096 1.696 19391
0.166 1.105 1.699 14148
0.167 1.114 1.702 15767
0.170 1.128 1.712 16783
0.170 1.132 1.708 17036
0.171 1.137 1.705 17335
0.172 1.141 1.701 12021
0.171 1.136 1.685 8119
0.173 1.150 1.694 15545
0.174 1.160 1.697 30045
0.176 1.169 1.700 34986
0.177 1.178 1.703 31673
0.177 1.178 1.693 31161
0.178 1.182 1.689 29901
0.179 1.192 1.692 22203
0.181 1.201 1.695 14088
0.183 1.215 1.703 13804
0.183 1.220 1.700 16186
0.184 1.224 1.696 10137
0.186 1.238 1.705 4826
0.188 1.248 1.707 7793
0.188 1.247 1.697 12332
0.186 1.237 1.675 13059
0.190 1.261 1.696 11510
0.193 1.281 1.710 10461
0.193 1.286 1.706 10550
0.195 1.295 1.708 13268
0.197 1.310 1.717 18339
0.197 1.309 1.707 17776
0.197 1.314 1.703 19744
0.197 1.313 1.693 20799
0.197 1.312 1.683 17403
0.199 1.322 1.685 17519
0.199 1.326 1.681 17635
0.202 1.341 1.689 13812
0.204 1.356 1.696 12504
0.204 1.355 1.686 12171
0.204 1.360 1.682 14433
0.207 1.380 1.696 12337
0.210 1.395 1.703 8397
0.211 1.405 1.705 7945
0.212 1.409 1.701 12585
0.213 1.414 1.697 16247
0.213 1.418 1.692 20311
0.215 1.428 1.694 27672
0.215 1.433 1.689 24748
0.217 1.443 1.691 14568
0.218 1.447 1.687 12720
0.220 1.462 1.694 16636
0.220 1.467 1.689 16053
0.223 1.482 1.696 19583
0.225 1.498 1.703 26997
0.227 1.508 1.704 23492
0.227 1.512 1.699 13619
0.228 1.517 1.695 10899
0.229 1.521 1.690 14463
0.231 1.537 1.697 16009
0.233 1.547 1.698 25538
0.232 1.546 1.688 26928
0.233 1.550 1.683 13654
0.235 1.566 1.689 11816
0.237 1.576 1.690 17616
0.238 1.586 1.691 17225
0.241 1.602 1.697 21107
0.241 1.606 1.692 30972
0.242 1.611 1.687 28215
0.244 1.621 1.688 23662
0.246 1.637 1.694 30306
0.247 1.641 1.689 31665
0.248 1.652 1.689 23796
0.250 1.662 1.690 15726
0.250 1.660 1.679 8472
0.254 1.688 1.696 7313
0.254 1.687 1.685 13098
0.254 1.691 1.680 14577
0.257 1.707 1.686 13029
0.262 1.741 1.707 15073
0.264 1.758 1.712 20727
0.265 1.762 1.706 23567
0.265 1.761 1.696 24143
0.266 1.771 1.696 20025
0.268 1.781 1.696 22848
0.268 1.786 1.690 23288
0.269 1.790 1.685 18590
0.272 1.807 1.690 19319
0.274 1.823 1.695 19993
0.277 1.840 1.699 22457
0.278 1.850 1.699 29110
0.280 1.861 1.698 30072
0.282 1.878 1.703 19510
0.284 1.888 1.702 16333
0.285 1.893 1.696 20922
0.286 1.903 1.695 22897
0.288 1.914 1.695 16486
0.290 1.931 1.699 11350
0.294 1.954 1.708 13307
0.295 1.964 1.707 11007
0.296 1.969 1.701 11907
0.297 1.973 1.695 14664
0.299 1.990 1.699 16878
0.300 1.995 1.693 23997
0.301 1.999 1.687 24207
0.301 2.003 1.681 18365
0.304 2.020 1.684 15527
0.307 2.044 1.692 11076
0.310 2.061 1.696 9783
0.312 2.078 1.699 9864
0.314 2.089 1.697 13870
0.315 2.093 1.691 21109
0.314 2.091 1.680 23696
0.316 2.102 1.678 24120
0.319 2.119 1.681 20674
0.320 2.130 1.679 12516
0.325 2.160 1.691 11758
0.327 2.177 1.694 14282
0.329 2.188 1.692 16001
0.330 2.193 1.685 15641
0.331 2.204 1.683 14752
0.331 2.202 1.672 12905
0.331 2.200 1.661 11234
0.330 2.197 1.650 7985
0.337 2.241 1.670 7260
0.336 2.232 1.655 10864
0.336 2.236 1.648 12943
0.337 2.241 1.641 10476
0.337 2.245 1.635 6230
0.355 2.361 1.701 6331
0.355 2.359 1.689 7424
0.355 2.364 1.682 7244
0.365 2.428 1.713 5527
0.367 2.439 1.710 7308
0.366 2.437 1.699 10889
0.365 2.428 1.683 14654
0.366 2.432 1.676 15083
0.365 2.430 1.665 12332
0.365 2.428 1.653 8768
0.367 2.439 1.650 7600
0.371 2.470 1.659 7075
0.375 2.494 1.664 10115
0.377 2.505 1.661 10986
0.376 2.503 1.649 7899
0.373 2.480 1.626 5438
0.376 2.498 1.626 4935
0.395 2.624 1.690 7405
0.396 2.636 1.686 11089
0.397 2.640 1.678 11883
0.398 2.645 1.670 12676
0.397 2.642 1.659 10665
0.397 2.640 1.647 7273
0.396 2.637 1.635 6267
0.413 2.744 1.684 5421
0.412 2.742 1.673 5633
0.410 2.726 1.653 4887
0.409 2.723 1.641 4870
0.410 2.727 1.633 3695
0.435 2.891 1.710 3716
0.435 2.895 1.702 4194
0.435 2.893 1.689 4685
0.436 2.897 1.681 4372
0.435 2.895 1.668 4220
0.435 2.892 1.656 3436
0.419 2.785 1.590 3188
0.447 2.971 1.675 4127
0.447 2.975 1.666 5174
0.445 2.958 1.646 6362
0.444 2.956 1.634 7978
0.444 2.953 1.622 5779
0.463 3.077 1.672 5006
0.462 3.074 1.659 5425
0.462 3.071 1.647 6262
0.463 3.083 1.641 5940
0.480 3.193 1.682 5797
0.480 3.191 1.670 6192
0.480 3.195 1.660 6654
0.481 3.199 1.651 6654
0.482 3.204 1.641 5321
0.482 3.208 1.632 3988
0.483 3.212 1.622 3299
0.481 3.202 1.606 2722
0.487 3.242 1.613 2440
0.493 3.282 1.619 3076
0.494 3.286 1.609 3076
0.495 3.291 1.599 1538
0.230 1.533 0.824 217
0.103 0.672 1.717 11428
0.104 0.676 1.715 12964
0.104 0.677 1.706 14515
0.104 0.679 1.697 17775
0.104 0.680 1.687 22313
0.105 0.684 1.685 22313
0.106 0.689 1.683 20444
0.106 0.693 1.681 18574
0.108 0.701 1.686 15456
0.109 0.712 1.698 13128
0.110 0.717 1.696 11802
0.111 0.725 1.701 10577
0.112 0.729 1.699 9801
0.112 0.730 1.689 8236
0.113 0.734 1.687 7569
0.114 0.742 1.692 8436
0.115 0.750 1.697 9647
0.116 0.758 1.702 8515
0.118 0.766 1.706 7877
0.119 0.774 1.711 6939
0.121 0.790 1.730 6725
0.121 0.791 1.720 7248
0.122 0.792 1.711 7942
0.122 0.792 1.702 7368
0.122 0.797 1.699 6903
0.123 0.801 1.697 7023
0.124 0.810 1.701 7196
0.126 0.822 1.713 9428
0.127 0.830 1.717 12169
0.127 0.831 1.708 18337
0.128 0.835 1.705 27082
0.129 0.840 1.703 30427
0.130 0.844 1.700 27503
0.130 0.849 1.697 23630
0.131 0.853 1.695 16306
0.132 0.857 1.692 8982
0.132 0.862 1.690 8232
0.134 0.870 1.694 7470
0.135 0.879 1.698 10160
0.136 0.883 1.695 14141
0.136 0.884 1.686 15209
0.136 0.884 1.677 16263
0.136 0.884 1.667 18708
0.136 0.889 1.664 18015
0.138 0.901 1.675 19025
0.140 0.910 1.679 23366
0.141 0.918 1.683 19858
0.142 0.923 1.680 17140
0.143 0.931 1.684 17995
0.144 0.940 1.688 17618
0.145 0.944 1.685 19594
0.146 0.949 1.682 21403
0.148 0.966 1.700 25827
0.150 0.975 1.703 33583
0.150 0.979 1.700 38670
0.151 0.984 1.697 39275
0.152 0.988 1.694 41938
0.152 0.993 1.691 44468
0.153 0.997 1.688 47883
0.154 1.001 1.685 47047
0.154 1.006 1.682 39831
0.155 1.010 1.679 36866
0.156 1.015 1.676 34097
0.156 1.015 1.667 25613
0.158 1.028 1.677 19744
0.160 1.041 1.686 22270
0.161 1.050 1.690 22546
0.163 1.059 1.693 23025
0.164 1.068 1.696 17505
0.165 1.073 1.693 15169
0.166 1.082 1.696 18622
0.167 1.091 1.699 23155
0.168 1.095 1.696 21102
0.170 1.104 1.699 15199
0.171 1.114 1.702 16110
0.173 1.127 1.712 16817
0.174 1.132 1.708 16857
0.174 1.136 1.705 16952
0.175 1.141 1.701 11721
0.174 1.131 1.679 9265
0.176 1.145 1.688 17050
0.178 1.159 1.697 31279
0.179 1.168 1.700 35725
0.181 1.178 1.703 31619
0.181 1.177 1.693 31014
0.181 1.182 1.689 30341
0.184 1.196 1.698 22497
0.185 1.205 1.701 13837
0.186 1.215 1.703 12858
0.187 1.219 1.700 14846
0.187 1.219 1.690 9224
0.184 1.198 1.656 5018
0.192 1.252 1.713 7606
0.191 1.247 1.697 11684
0.189 1.231 1.669 13016
0.190 1.236 1.665 11100
0.197 1.280 1.710 9642
0.197 1.285 1.706 9381
0.199 1.294 1.708 12495
0.201 1.309 1.717 18163
0.201 1.309 1.707 17361
0.202 1.313 1.703 17976
0.201 1.312 1.693 18296
0.201 1.312 1.683 16543
0.203 1.321 1.685 17496
0.203 1.326 1.681 17183
0.206 1.341 1.689 13607
0.209 1.361 1.702 12839
0.209 1.360 1.692 12176
0.209 1.359 1.682 13468
0.212 1.379 1.696 11703
0.214 1.394 1.703 9807
0.216 1.404 1.705 10836
0.217 1.414 1.707 15615
0.217 1.413 1.697 18917
0.218 1.418 1.692 22946
0.219 1.428 1.694 31402
0.220 1.432 1.689 27960
0.221 1.442 1.691 15900
0.222 1.446 1.687 13223
0.224 1.462 1.694 18219
0.226 1.472 1.695 17463
0.228 1.487 1.702 20027
0.230 1.497 1.703 25991
0.231 1.507 1.704 24826
0.232 1.511 1.699 18407
0.234 1.527 1.706 13917
0.233 1.520 1.690 11759
0.237 1.542 1.702 11285
0.238 1.552 1.703 22710
0.238 1.550 1.693 26265
0.238 1.549 1.683 14511
0.240 1.565 1.689 12181
0.242 1.575 1.690 15087
0.243 1.585 1.691 16297
0.245 1.595 1.692 20408
0.246 1.606 1.692 28819
0.247 1.610 1.687 27131
0.249 1.620 1.688 24097
0.251 1.636 1.694 32001
0.252 1.641 1.689 34539
0.253 1.651 1.689 26046
0.255 1.661 1.690 16929
0.255 1.660 1.679 8753
0.257 1.676 1.685 5374
0.259 1.686 1.685 11252
0.259 1.690 1.680 15279
0.262 1.707 1.686 14506
0.267 1.740 1.707 16249
0.269 1.751 1.707 21177
0.270 1.761 1.706 22381
0.270 1.760 1.696 20917
0.272 1.770 1.696 17838
0.273 1.781 1.696 24154
0.274 1.785 1.690 25515
0.275 1.790 1.685 18390
0.277 1.806 1.690 18136
0.281 1.829 1.700 20520
0.282 1.839 1.699 23557
0.284 1.850 1.699 30566
0.286 1.860 1.698 31060
0.287 1.871 1.698 18974
0.289 1.881 1.697 14675
0.290 1.892 1.696 18867
0.292 1.902 1.695 21158
0.293 1.907 1.690 16448
0.294 1.917 1.689 11586
0.300 1.953 1.708 11845
0.301 1.963 1.707 10650
0.302 1.968 1.701 13305
0.303 1.972 1.695 17084
0.305 1.989 1.699 20067
0.306 1.994 1.693 27601
0.307 1.998 1.687 25974
0.307 2.003 1.681 18949
0.311 2.026 1.689 16785
0.315 2.049 1.697 14104
0.316 2.060 1.696 12818
0.319 2.077 1.699 11297
0.320 2.088 1.697 14157
0.321 2.092 1.691 21285
0.321 2.090 1.680 24293
0.323 2.101 1.678 24376
0.325 2.118 1.681 20892
0.327 2.129 1.679 12988
0.329 2.146 1.682 11045
0.334 2.176 1.694 13313
0.336 2.187 1.692 14700
0.336 2.192 1.685 14683
0.338 2.203 1.683 15184
0.338 2.201 1.672 13014
0.337 2.199 1.661 10073
0.337 2.196 1.650 6970
0.344 2.240 1.670 7351
0.343 2.238 1.659 9905
0.344 2.242 1.652 10610
0.345 2.246 1.646 8174
0.366 2.382 1.725 5308
0.363 2.367 1.705 6054
0.363 2.365 1.694 7385
0.363 2.362 1.682 7223
0.373 2.433 1.718 6652
0.374 2.438 1.710 9108
0.374 2.435 1.699 12274
0.373 2.433 1.688 15053
0.373 2.431 1.676 14813
0.373 2.429 1.665 11567
0.372 2.426 1.653 7983
0.375 2.444 1.654 7206
0.378 2.462 1.655 7097
0.384 2.500 1.668 9896
0.384 2.504 1.661 10810
0.384 2.502 1.649 7592
0.381 2.479 1.626 4818
0.396 2.578 1.674 4706
0.403 2.623 1.690 7376
0.404 2.634 1.686 11089
0.405 2.639 1.678 11931
0.406 2.643 1.670 12773
0.405 2.641 1.659 10820
0.406 2.645 1.651 7672
0.406 2.643 1.639 6786
0.406 2.647 1.631 5428
0.421 2.741 1.673 5592
0.417 2.717 1.649 4971
0.417 2.715 1.637 4979
0.418 2.726 1.633 3721
0.443 2.889 1.710 3734
0.443 2.887 1.698 4264
0.444 2.891 1.689 4877
0.443 2.889 1.677 4687
0.444 2.893 1.668 4622
0.444 2.891 1.656 3814
0.428 2.790 1.594 3498
0.456 2.969 1.675 4025
0.456 2.974 1.666 5013
0.452 2.943 1.639 6317
0.453 2.954 1.634 7871
0.453 2.951 1.622 5648
0.473 3.082 1.675 4308
0.474 3.087 1.666 4376
0.471 3.070 1.647 4968
0.473 3.081 1.641 4794
0.490 3.192 1.682 5365
0.491 3.196 1.673 5766
0.491 3.201 1.663 6166
0.492 3.205 1.654 6166
0.492 3.202 1.641 5030
0.492 3.206 1.632 3908
0.493 3.211 1.622 3202
0.491 3.201 1.606 2584
0.497 3.241 1.613 2508
0.502 3.273 1.616 3287
0.503 3.278 1.606 3287
0.504 3.282 1.596 1643
0.104 0.671 1.717 9851
0.105 0.676 1.715 11789
0.106 0.681 1.713 13728
0.105 0.675 1.689 17126
0.105 0.676 1.680 22526
0.106 0.681 1.678 22526
0.106 0.685 1.676 20384
0.107 0.690 1.674 18242
0.108 0.697 1.679 14857
0.110 0.709 1.691 12377
0.112 0.720 1.703 11221
0.112 0.724 1.701 10469
0.113 0.729 1.699 9498
0.114 0.733 1.697 7438
0.114 0.738 1.694 6349
0.116 0.746 1.699 7701
0.117 0.754 1.704 9186
0.118 0.762 1.709 8686
0.119 0.766 1.706 8569
0.120 0.774 1.711 7722
0.122 0.790 1.730 7638
0.123 0.791 1.720 8455
0.123 0.791 1.711 9556
0.123 0.796 1.709 8659
0.124 0.797 1.699 7779
0.125 0.805 1.704 7142
0.126 0.813 1.708 6548
0.127 0.821 1.713 8979
0.129 0.830 1.717 11713
0.129 0.830 1.708 18034
0.129 0.835 1.705 26821
0.130 0.839 1.703 30289
0.131 0.844 1.700 27523
0.132 0.848 1.697 23663
0.132 0.853 1.695 16481
0.132 0.853 1.685 9301
0.134 0.862 1.690 8329
0.135 0.870 1.694 7325
0.136 0.879 1.698 9988
0.137 0.883 1.695 14107
0.137 0.883 1.686 15366
0.137 0.884 1.677 16466
0.137 0.884 1.667 19002
0.138 0.889 1.664 18613
0.140 0.901 1.675 19896
0.142 0.914 1.686 24656
0.142 0.918 1.683 20481
0.144 0.927 1.687 17422
0.144 0.931 1.684 18541
0.146 0.944 1.695 18261
0.146 0.944 1.685 19194
0.147 0.949 1.682 20335
0.150 0.966 1.700 25279
0.151 0.974 1.703 33113
0.152 0.979 1.700 37944
0.153 0.983 1.697 39151
0.153 0.988 1.694 42920
0.154 0.992 1.691 45950
0.155 0.997 1.688 48502
0.155 1.001 1.685 45852
0.156 1.006 1.682 40682
0.157 1.010 1.679 40716
0.157 1.015 1.676 36982
0.158 1.019 1.673 26888
0.160 1.032 1.683 22073
0.161 1.041 1.686 25657
0.164 1.055 1.696 24593
0.165 1.064 1.700 23347
0.166 1.068 1.696 17249
0.166 1.068 1.687 15818
0.168 1.082 1.696 19957
0.169 1.091 1.699 24658
0.170 1.095 1.696 22616
0.171 1.104 1.699 15749
0.173 1.113 1.702 15988
0.175 1.127 1.712 16927
0.175 1.132 1.708 16704
0.176 1.136 1.705 16167
0.177 1.141 1.701 11048
0.175 1.131 1.679 10795
0.177 1.140 1.682 19381
0.180 1.159 1.697 31393
0.181 1.168 1.700 35076
0.183 1.177 1.703 30999
0.183 1.177 1.693 30273
0.183 1.181 1.689 30070
0.185 1.196 1.698 22437
0.187 1.205 1.701 13814
0.188 1.214 1.703 11764
0.189 1.219 1.700 12934
0.188 1.213 1.684 8093
0.186 1.198 1.656 4947
0.194 1.252 1.713 7617
0.194 1.252 1.703 10668
0.191 1.231 1.669 12947
0.196 1.266 1.702 10217
0.199 1.280 1.710 9066
0.199 1.285 1.706 8502
0.201 1.299 1.714 12173
0.203 1.309 1.717 17955
0.204 1.313 1.713 16448
0.204 1.313 1.703 15257
0.204 1.317 1.699 15236
0.204 1.317 1.689 15615
0.205 1.321 1.685 16493
0.206 1.325 1.681 15262
0.208 1.340 1.689 13352
0.211 1.360 1.702 13895
0.211 1.360 1.692 12745
0.212 1.364 1.688 12404
0.214 1.379 1.696 11439
0.215 1.389 1.698 11958
0.218 1.404 1.705 14065
0.219 1.414 1.707 18071
0.219 1.413 1.697 20082
0.221 1.423 1.698 24743
0.221 1.427 1.694 34824
0.222 1.432 1.689 30007
0.224 1.441 1.691 16693
0.225 1.451 1.692 14185
0.227 1.461 1.694 20160
0.228 1.471 1.695 19931
0.231 1.492 1.707 20873
0.233 1.502 1.709 24232
0.233 1.501 1.698 25150
0.234 1.511 1.699 22774
0.237 1.527 1.706 18784
0.236 1.520 1.690 10729
0.241 1.552 1.714 10335
0.241 1.551 1.703 23207
0.240 1.550 1.693 25632
0.241 1.555 1.689 15610
0.243 1.565 1.689 11524
0.244 1.575 1.690 12288
0.246 1.585 1.691 16003
0.247 1.595 1.692 19202
0.249 1.605 1.692 25353
0.250 1.610 1.687 25176
0.251 1.620 1.688 23302
0.254 1.636 1.694 31835
0.254 1.640 1.689 35526
0.256 1.650 1.689 27310
0.258 1.661 1.690 18113
0.257 1.659 1.679 9881
0.258 1.664 1.674 5075
0.261 1.686 1.685 10007
0.263 1.696 1.685 16109
0.265 1.706 1.686 16835
0.269 1.734 1.701 18535
0.271 1.750 1.707 22054
0.272 1.755 1.701 21138
0.273 1.759 1.696 17324
0.275 1.776 1.701 15310
0.276 1.780 1.696 24623
0.277 1.785 1.690 26796
0.277 1.789 1.685 17540
0.280 1.806 1.690 15962
0.283 1.822 1.695 20059
0.285 1.839 1.699 24027
0.287 1.849 1.699 31582
0.288 1.860 1.698 31689
0.289 1.864 1.693 18765
0.292 1.881 1.697 13289
0.293 1.891 1.696 16178
0.296 1.908 1.700 18784
0.296 1.906 1.690 16209
0.296 1.911 1.684 11800
0.303 1.952 1.708 9169
0.305 1.969 1.711 9581
0.305 1.967 1.701 14369
0.306 1.972 1.695 19124
0.308 1.989 1.699 23075
0.309 1.993 1.693 31158
0.310 1.998 1.687 27230
0.311 2.008 1.685 19331
0.315 2.032 1.694 18950
0.319 2.055 1.702 17541
0.319 2.059 1.696 15967
0.322 2.076 1.699 13011
0.324 2.087 1.697 14927
0.323 2.085 1.686 21398
0.324 2.090 1.680 24142
0.326 2.101 1.678 23700
0.328 2.118 1.681 20269
0.330 2.129 1.679 12873
0.332 2.139 1.678 10274
0.338 2.182 1.698 12178
0.339 2.187 1.692 13091
0.341 2.198 1.690 13527
0.342 2.202 1.683 14975
0.341 2.200 1.672 12393
0.342 2.204 1.666 8599
0.356 2.293 1.716 7404
0.360 2.324 1.727 7184
0.348 2.244 1.663 8757
0.348 2.241 1.652 8841
0.348 2.246 1.646 6769
0.370 2.388 1.729 5712
0.367 2.366 1.705 6139
0.368 2.371 1.698 7471
0.366 2.362 1.682 7119
0.377 2.432 1.718 8446
0.378 2.437 1.710 11504
0.378 2.435 1.699 14221
0.377 2.433 1.688 15749
0.377 2.430 1.676 14549
0.378 2.435 1.669 10871
0.377 2.433 1.657 6999
0.380 2.450 1.658 6701
0.382 2.461 1.655 7100
0.388 2.499 1.668 9573
0.389 2.510 1.665 10596
0.390 2.515 1.657 7300
0.394 2.539 1.662 4859
0.400 2.578 1.674 5037
0.406 2.616 1.686 7372
0.408 2.634 1.686 11052
0.409 2.638 1.678 11905
0.410 2.643 1.670 12758
0.409 2.640 1.659 10901
0.410 2.645 1.651 8145
0.410 2.642 1.639 7422
0.411 2.653 1.635 6001
0.424 2.733 1.669 5652
0.421 2.717 1.649 5374
0.421 2.714 1.637 5336
0.423 2.725 1.633 3914
0.448 2.889 1.710 3718
0.448 2.886 1.698 4310
0.448 2.891 1.689 4957
0.448 2.888 1.677 5035
0.449 2.893 1.668 5154
0.448 2.890 1.656 4323
0.433 2.790 1.594 3726
0.453 2.920 1.650 4048
0.455 2.931 1.645 4975
0.455 2.935 1.636 6281
0.457 2.946 1.631 7643
0.456 2.944 1.618 5422
0.479 3.089 1.679 3707
0.487 3.142 1.694 3866
0.489 3.154 1.688 4899
0.492 3.172 1.685 4563
0.495 3.191 1.682 4817
0.496 3.195 1.673 5285
0.496 3.200 1.663 5752
0.497 3.204 1.654 5752
0.498 3.208 1.644 4918
0.498 3.213 1.635 4084
0.498 3.210 1.622 3307
0.497 3.207 1.609 2597
0.504 3.247 1.616 2641
0.508 3.273 1.616 3570
0.508 3.277 1.606 3570
0.509 3.281 1.596 1785
0.107 0.674 1.724 8465
0.107 0.676 1.715 9989
0.107 0.677 1.706 11618
0.106 0.672 1.682 17055
0.106 0.673 1.673 23867
0.107 0.677 1.671 23867
0.108 0.682 1.669 21711
0.108 0.686 1.667 19555
0.109 0.690 1.665 15643
0.110 0.698 1.670 11780
0.112 0.706 1.675 9822
0.114 0.724 1.701 8777
0.116 0.732 1.706 7942
0.116 0.736 1.704 6161
0.117 0.737 1.694 5213
0.118 0.745 1.699 6429
0.119 0.753 1.704 7793
0.120 0.758 1.702 7566
0.121 0.766 1.706 7564
0.122 0.774 1.711 7165
0.125 0.789 1.730 7508
0.124 0.787 1.713 8995
0.125 0.791 1.711 10862
0.126 0.796 1.709 9618
0.127 0.800 1.706 8373
0.127 0.805 1.704 7831
0.129 0.813 1.708 7435
0.130 0.821 1.713 9777
0.131 0.829 1.717 12377
0.131 0.830 1.708 18659
0.132 0.834 1.705 27495
0.133 0.839 1.703 31226
0.133 0.843 1.700 28694
0.134 0.848 1.697 24879
0.135 0.852 1.695 17472
0.135 0.853 1.685 10085
0.136 0.861 1.690 8612
0.138 0.870 1.694 7115
0.139 0.878 1.698 9252
0.139 0.879 1.689 13229
0.139 0.879 1.679 15101
0.140 0.883 1.677 16664
0.140 0.884 1.667 19428
0.140 0.888 1.664 19050
0.142 0.901 1.675 20398
0.144 0.913 1.686 25301
0.146 0.922 1.690 20908
0.146 0.926 1.687 18443
0.148 0.935 1.691 20408
0.149 0.943 1.695 19724
0.150 0.948 1.692 19083
0.151 0.952 1.689 19543
0.153 0.965 1.700 24053
0.154 0.974 1.703 31724
0.155 0.979 1.700 36476
0.155 0.983 1.697 38600
0.156 0.987 1.694 43575
0.157 0.992 1.691 46892
0.158 0.996 1.688 48685
0.158 0.996 1.679 45584
0.159 1.005 1.682 43456
0.160 1.010 1.679 46381
0.160 1.014 1.676 40877
0.161 1.018 1.673 28793
0.163 1.032 1.683 24948
0.165 1.041 1.686 29198
0.167 1.054 1.696 26488
0.168 1.063 1.700 23619
0.169 1.068 1.696 17316
0.169 1.067 1.687 16778
0.170 1.076 1.690 21263
0.172 1.090 1.699 25569
0.173 1.095 1.696 23229
0.175 1.104 1.699 16273
0.176 1.113 1.702 16442
0.177 1.122 1.705 17057
