0.501 0.968 1.700 18152
0.501 0.968 1.690 22312
0.503 0.972 1.687 22104
0.508 0.980 1.690 20264
0.514 0.992 1.699 18686
0.516 0.996 1.696 17371
0.520 1.004 1.699 15969
0.522 1.008 1.696 15643
0.524 1.012 1.692 14123
0.522 1.008 1.676 10207
0.531 1.025 1.692 12393
0.535 1.033 1.694 22667
0.537 1.037 1.691 21321
0.539 1.041 1.688 14105
0.541 1.045 1.684 10495
0.555 1.071 1.712 9803
0.557 1.075 1.708 10021
0.556 1.074 1.698 11598
0.561 1.083 1.701 11232
0.565 1.091 1.703 16788
0.565 1.091 1.694 27017
0.569 1.099 1.696 28348
0.571 1.103 1.692 23431
0.576 1.112 1.695 20758
0.580 1.120 1.697 20623
0.582 1.124 1.693 17705
0.582 1.124 1.684 16878
0.586 1.132 1.686 14285
0.593 1.145 1.694 11209
0.595 1.149 1.690 11819
0.600 1.158 1.692 13893
0.604 1.166 1.695 10373
0.606 1.170 1.691 6502
0.599 1.156 1.663 7560
0.606 1.169 1.671 9235
0.617 1.192 1.691 9434
0.622 1.200 1.693 11066
0.624 1.204 1.689 12087
0.626 1.208 1.685 7734
0.625 1.208 1.675 5512
0.628 1.212 1.671 9265
0.630 1.215 1.667 10278
0.632 1.219 1.663 6667
0.634 1.223 1.658 6836
0.636 1.227 1.654 10321
0.643 1.241 1.662 9952
0.650 1.254 1.669 9602
0.654 1.263 1.671 12792
0.656 1.267 1.667 18517
0.658 1.271 1.662 23632
0.660 1.275 1.658 24757
0.660 1.274 1.648 19368
0.664 1.283 1.650 14476
0.669 1.291 1.651 11957
0.689 1.330 1.686 11650
0.691 1.334 1.682 16459
0.696 1.343 1.683 19406
0.705 1.362 1.695 22009
0.705 1.361 1.685 28053
0.707 1.365 1.680 23435
0.709 1.369 1.676 16481
0.706 1.363 1.660 22229
0.710 1.372 1.661 30828
0.712 1.376 1.657 33275
0.714 1.379 1.652 35187
0.719 1.388 1.653 29591
0.721 1.392 1.648 17914
0.736 1.422 1.671 17853
0.741 1.431 1.671 31745
0.743 1.435 1.666 33463
0.745 1.439 1.662 16626
0.739 1.427 1.641 4391
0.757 1.462 1.668 4274
0.762 1.471 1.668 9286
0.764 1.475 1.664 16659
0.766 1.479 1.659 16151
0.771 1.488 1.659 14050
0.776 1.498 1.659 18341
0.780 1.507 1.659 18181
0.791 1.526 1.670 17304
0.795 1.536 1.670 24236
0.797 1.540 1.665 20755
0.800 1.544 1.660 13955
0.799 1.542 1.650 13062
0.809 1.562 1.660 12879
0.817 1.577 1.665 13301
0.822 1.586 1.665 12180
0.821 1.585 1.654 13067
0.826 1.594 1.654 14215
0.828 1.598 1.649 13411
0.827 1.596 1.638 8460
0.834 1.611 1.643 7958
0.839 1.620 1.643 12148
0.847 1.635 1.647 18149
0.852 1.645 1.647 26546
0.851 1.643 1.636 34021
0.856 1.652 1.636 39465
0.858 1.656 1.630 43927
0.860 1.660 1.625 44328
0.862 1.664 1.619 40325
0.864 1.668 1.614 32057
0.866 1.671 1.608 20085
0.868 1.675 1.603 9436
0.867 1.673 1.592 5125
0.872 1.683 1.591 7756
0.876 1.692 1.591 13265
0.881 1.701 1.590 14660
0.883 1.705 1.584 12300
0.885 1.709 1.578 11412
0.887 1.713 1.573 11661
0.889 1.716 1.567 10746
0.894 1.726 1.566 7446
0.902 1.741 1.569 7807
0.909 1.756 1.573 12192
0.911 1.760 1.567 11791
0.916 1.769 1.566 9869
0.918 1.773 1.560 10825
0.926 1.788 1.563 9971
0.931 1.797 1.561 8630
0.999 1.928 1.654 9821
1.004 1.938 1.652 13753
1.006 1.942 1.646 13143
1.005 1.940 1.635 10881
1.007 1.944 1.628 8955
1.036 2.000 1.661 10517
1.041 2.010 1.659 14852
1.046 2.020 1.657 14213
1.030 1.989 1.624 10798
1.041 2.010 1.630 7883
1.071 2.067 1.662 9305
1.079 2.083 1.664 12054
1.087 2.099 1.665 10631
1.095 2.114 1.667 8960
1.094 2.112 1.656 7505
1.093 2.110 1.644 8334
1.089 2.102 1.629 9308
1.091 2.106 1.622 9282
1.096 2.116 1.619 7519
1.110 2.144 1.629 8067
1.112 2.148 1.622 8335
1.124 2.169 1.627 7697
1.135 2.191 1.632 6785
1.150 2.219 1.640 6913
1.148 2.217 1.629 5469
1.144 2.209 1.614 4493
1.174 2.267 1.642 4631
1.176 2.271 1.635 7967
1.178 2.275 1.627 10156
1.180 2.279 1.620 9912
1.182 2.283 1.612 9667
1.188 2.293 1.608 7276
1.221 2.358 1.639 8687
1.223 2.362 1.631 8269
1.257 2.427 1.662 8266
1.262 2.437 1.657 9105
1.264 2.441 1.649 9349
1.266 2.445 1.641 9593
1.272 2.455 1.637 7432
1.283 2.478 1.640 5943
1.301 2.513 1.650 5140
1.307 2.523 1.645 6396
1.305 2.520 1.633 6922
1.304 2.518 1.621 8033
1.309 2.528 1.617 7589
1.315 2.538 1.612 7666
1.323 2.554 1.611 6441
1.332 2.571 1.609 5829
1.386 2.675 1.657 5438
1.384 2.673 1.645 6034
1.396 2.696 1.646 5527
1.405 2.712 1.644 6024
1.407 2.716 1.635 5625
1.412 2.726 1.630 5189
1.414 2.730 1.621 4326
1.416 2.734 1.612 3464
1.415 2.731 1.599 3430
1.519 2.933 1.694 4165
1.521 2.937 1.684 4165
1.533 2.960 1.684 3671
1.538 2.970 1.677 3663
1.540 2.974 1.668 3141
1.526 2.946 1.642 2661
1.548 2.988 1.651 3037
1.550 2.992 1.641 3457
1.552 2.996 1.631 3457
1.554 3.000 1.621 1728
0.308 0.591 1.688 21354
0.310 0.595 1.686 23338
0.313 0.599 1.684 25322
0.315 0.603 1.682 24254
0.315 0.604 1.673 23381
0.317 0.608 1.671 23381
0.321 0.615 1.676 24940
0.323 0.619 1.674 26694
0.327 0.626 1.679 23291
0.329 0.630 1.677 19958
0.331 0.634 1.675 14628
0.333 0.638 1.672 9298
0.335 0.641 1.670 7822
0.338 0.649 1.675 6425
0.342 0.656 1.680 6590
0.343 0.656 1.671 7113
0.341 0.654 1.654 8031
0.345 0.661 1.659 8377
0.349 0.668 1.664 8953
0.351 0.672 1.662 7100
0.353 0.676 1.659 5248
0.357 0.683 1.664 4857
0.362 0.694 1.676 4733
0.380 0.727 1.737 4179
0.382 0.731 1.734 5948
0.382 0.732 1.725 6635
0.382 0.733 1.715 7601
0.385 0.737 1.713 6301
0.376 0.721 1.669 5430
0.375 0.718 1.652 5736
0.377 0.722 1.650 5711
0.377 0.722 1.640 5764
0.402 0.771 1.728 8370
0.404 0.775 1.725 10451
0.390 0.748 1.661 11373
0.396 0.759 1.672 14512
0.402 0.770 1.683 12923
0.407 0.781 1.694 11558
0.411 0.788 1.698 14603
0.415 0.796 1.702 19422
0.419 0.803 1.706 21336
0.419 0.804 1.697 21766
0.422 0.808 1.694 22276
0.424 0.812 1.691 23507
0.428 0.819 1.695 23919
0.432 0.827 1.699 23941
0.434 0.831 1.697 18897
0.438 0.839 1.701 9921
0.442 0.847 1.704 6126
0.444 0.851 1.702 6318
0.444 0.851 1.692 11370
0.448 0.859 1.696 17106
0.450 0.863 1.693 24769
0.454 0.870 1.697 31423
0.456 0.874 1.694 31892
0.458 0.878 1.691 25192
0.459 0.879 1.681 15717
0.459 0.879 1.672 12996
0.465 0.890 1.682 19843
0.471 0.902 1.692 33225
0.477 0.914 1.702 35661
0.479 0.918 1.699 32614
0.483 0.926 1.702 28290
0.485 0.930 1.699 17412
0.485 0.930 1.690 8180
0.502 0.962 1.732 4980
0.509 0.974 1.742 6146
0.513 0.983 1.745 5704
0.504 0.966 1.709 9747
0.504 0.966 1.700 17112
0.504 0.966 1.690 20543
0.506 0.970 1.687 20213
0.513 0.982 1.696 19094
0.517 0.991 1.699 19544
0.519 0.995 1.696 19113
0.523 1.003 1.699 15705
0.528 1.011 1.702 13727
0.530 1.015 1.698 11550
0.527 1.011 1.682 7639
0.538 1.031 1.704 12368
0.538 1.031 1.694 21908
0.543 1.040 1.697 20078
0.542 1.039 1.688 13971
0.547 1.048 1.690 10716
0.558 1.069 1.712 8991
0.562 1.077 1.714 9724
0.562 1.077 1.704 10886
0.564 1.081 1.701 10838
0.569 1.089 1.703 16594
0.568 1.089 1.694 25823
0.573 1.097 1.696 26313
0.575 1.101 1.692 21164
0.579 1.110 1.695 17872
0.584 1.118 1.697 18126
0.586 1.122 1.693 15868
0.585 1.122 1.684 15387
0.590 1.130 1.686 13450
0.597 1.143 1.694 11728
0.599 1.147 1.690 13373
0.603 1.156 1.692 14680
0.608 1.164 1.695 11055
0.612 1.173 1.697 7701
0.610 1.168 1.681 7680
0.609 1.167 1.671 8736
0.621 1.190 1.691 8385
0.625 1.198 1.693 10683
0.628 1.202 1.689 11986
0.627 1.202 1.679 7955
0.607 1.163 1.622 5163
0.631 1.210 1.671 7406
0.633 1.213 1.667 9529
0.638 1.222 1.668 7643
0.640 1.226 1.664 9952
0.639 1.225 1.654 14697
0.644 1.234 1.656 11473
0.656 1.257 1.675 10051
0.661 1.266 1.677 13890
0.660 1.265 1.667 21069
0.662 1.269 1.662 28382
0.664 1.273 1.658 30950
0.664 1.272 1.648 28211
0.666 1.276 1.644 23184
0.670 1.284 1.645 18837
0.678 1.298 1.652 14935
0.695 1.332 1.682 16379
0.700 1.341 1.683 16903
0.710 1.360 1.695 18917
0.709 1.359 1.685 27420
0.711 1.363 1.680 25086
0.718 1.377 1.687 16204
0.710 1.360 1.660 22026
0.712 1.364 1.656 34132
0.717 1.373 1.657 34328
0.719 1.377 1.652 33115
0.721 1.381 1.647 26198
0.723 1.385 1.643 14471
0.744 1.425 1.676 18162
0.746 1.429 1.671 29451
0.748 1.433 1.666 28313
0.750 1.436 1.662 13576
0.757 1.451 1.668 4003
0.762 1.460 1.668 4156
0.769 1.474 1.674 8152
0.771 1.478 1.669 15575
0.773 1.482 1.664 16010
0.776 1.486 1.659 15030
0.780 1.495 1.659 21131
0.785 1.504 1.659 22107
0.793 1.519 1.665 20153
0.800 1.533 1.670 25028
0.802 1.537 1.665 21468
0.807 1.546 1.665 15522
0.806 1.545 1.655 12913
0.814 1.560 1.660 10536
0.824 1.580 1.670 11170
0.829 1.589 1.670 12591
0.831 1.593 1.664 14809
0.833 1.597 1.659 15161
0.835 1.601 1.654 14139
0.840 1.610 1.654 10027
0.842 1.614 1.648 10009
0.844 1.618 1.643 13212
0.852 1.633 1.647 18092
0.857 1.642 1.647 25424
0.856 1.640 1.636 32306
0.861 1.650 1.636 37223
0.863 1.653 1.630 41206
0.865 1.657 1.625 41610
0.867 1.661 1.619 37326
0.869 1.665 1.614 29034
0.871 1.669 1.608 17913
0.876 1.678 1.607 7648
0.866 1.659 1.583 4709
0.874 1.674 1.587 8900
0.879 1.684 1.586 14448
0.884 1.693 1.585 14398
0.888 1.702 1.584 10741
0.890 1.706 1.578 9589
0.892 1.710 1.573 10664
0.894 1.713 1.567 10613
0.899 1.723 1.566 8249
0.910 1.744 1.574 8277
0.915 1.753 1.573 10954
0.917 1.757 1.567 10542
0.919 1.760 1.561 8559
0.924 1.770 1.560 9309
0.935 1.791 1.567 8893
0.940 1.800 1.566 8151
1.005 1.925 1.654 10084
1.010 1.935 1.652 14587
1.012 1.939 1.646 14801
1.011 1.937 1.635 12771
1.016 1.947 1.633 10400
1.042 1.997 1.661 10148
1.047 2.007 1.659 14631
1.053 2.017 1.657 14274
1.039 1.991 1.628 11530
1.041 1.995 1.622 8786
1.080 2.070 1.666 9091
1.088 2.085 1.668 11751
1.097 2.101 1.670 11031
1.102 2.111 1.667 9249
1.104 2.115 1.660 7360
1.103 2.113 1.649 7764
1.099 2.105 1.633 7954
1.097 2.103 1.622 7639
1.112 2.130 1.632 7222
1.117 2.140 1.629 8285
1.119 2.144 1.622 8515
1.130 2.166 1.627 7377
1.142 2.188 1.632 5793
1.160 2.222 1.644 6565
1.158 2.220 1.633 4828
1.151 2.205 1.614 3805
1.185 2.270 1.646 3860
1.187 2.274 1.639 6699
1.189 2.278 1.631 8716
1.191 2.281 1.623 8589
1.193 2.285 1.616 8462
1.220 2.338 1.639 6868
1.229 2.354 1.639 8979
1.231 2.358 1.631 8589
1.265 2.423 1.662 7024
1.270 2.433 1.657 7644
1.272 2.437 1.649 8168
1.277 2.447 1.645 8719
1.286 2.464 1.644 7533
1.291 2.474 1.640 6774
1.296 2.484 1.635 5421
1.314 2.519 1.645 6565
1.313 2.516 1.633 6713
1.309 2.508 1.618 7556
1.317 2.524 1.617 6957
1.326 2.540 1.615 7081
1.331 2.550 1.611 6102
1.340 2.567 1.609 5699
1.397 2.677 1.661 4869
1.393 2.668 1.645 5592
1.405 2.691 1.646 5666
1.413 2.708 1.644 6642
1.415 2.712 1.635 6070
1.421 2.722 1.630 5516
1.423 2.726 1.621 4651
1.428 2.736 1.615 3791
1.423 2.727 1.599 3720
1.528 2.928 1.694 3951
1.530 2.932 1.684 3951
1.542 2.955 1.684 3593
1.551 2.972 1.681 3628
1.553 2.976 1.671 3178
1.555 2.980 1.661 2729
1.557 2.983 1.651 3310
1.559 2.987 1.641 3891
1.561 2.991 1.631 3891
1.563 2.995 1.621 1945
0.309 0.590 1.688 22599
0.311 0.594 1.686 24299
0.314 0.598 1.684 25999
0.316 0.602 1.682 25367
0.316 0.603 1.673 24737
0.318 0.607 1.671 24737
0.322 0.614 1.676 26369
0.324 0.618 1.674 28004
0.328 0.625 1.679 24510
0.330 0.629 1.677 21155
0.332 0.633 1.675 15868
0.334 0.637 1.672 10581
0.336 0.641 1.670 8372
0.339 0.648 1.675 6175
0.342 0.652 1.673 6316
0.344 0.656 1.671 6998
0.342 0.654 1.654 8229
0.346 0.661 1.659 8695
0.350 0.668 1.664 9446
0.352 0.672 1.662 7576
0.354 0.676 1.659 5705
0.356 0.679 1.657 5631
0.360 0.687 1.662 5626
0.362 0.690 1.660 4315
0.383 0.731 1.734 5870
0.383 0.731 1.725 6441
0.384 0.732 1.715 7258
0.386 0.736 1.713 5888
0.375 0.717 1.662 5097
0.376 0.717 1.652 5191
0.376 0.718 1.643 5420
0.378 0.722 1.640 5802
0.403 0.770 1.728 8266
0.406 0.774 1.725 9573
0.393 0.751 1.667 9984
0.397 0.758 1.672 12813
0.401 0.765 1.676 11316
0.409 0.780 1.694 9729
0.413 0.787 1.698 12546
0.417 0.795 1.702 17642
0.421 0.803 1.706 19863
0.421 0.803 1.697 20047
0.423 0.807 1.694 20311
0.425 0.811 1.691 21790
0.429 0.819 1.695 23045
0.433 0.826 1.699 23722
0.435 0.830 1.697 19280
0.439 0.838 1.701 11242
0.441 0.842 1.698 7711
0.443 0.846 1.695 7344
0.445 0.850 1.692 11951
0.449 0.858 1.696 17545
0.452 0.862 1.693 24957
0.456 0.870 1.697 31132
0.458 0.874 1.694 31449
0.460 0.878 1.691 24702
0.460 0.878 1.681 15121
0.460 0.878 1.672 12390
0.466 0.890 1.682 20119
0.472 0.901 1.692 34923
0.476 0.909 1.695 37936
0.481 0.917 1.699 35033
0.483 0.921 1.696 30160
0.485 0.925 1.693 18711
0.487 0.929 1.690 9748
0.487 0.929 1.680 7051
0.489 0.933 1.677 6330
0.495 0.945 1.687 5548
0.504 0.961 1.703 9833
0.506 0.965 1.700 16424
0.506 0.965 1.690 19008
0.510 0.973 1.693 18520
0.514 0.982 1.696 18165
0.519 0.990 1.699 20301
0.521 0.994 1.696 20672
0.525 1.002 1.699 15925
0.531 1.014 1.708 12363
0.536 1.023 1.711 10159
0.538 1.027 1.708 7429
0.540 1.031 1.704 12792
0.540 1.030 1.694 21229
0.544 1.039 1.697 19029
0.548 1.047 1.700 14008
0.551 1.051 1.697 10803
0.559 1.068 1.712 8672
0.564 1.076 1.714 10003
0.566 1.080 1.711 10781
0.566 1.080 1.701 10562
0.570 1.088 1.703 15983
0.570 1.088 1.694 23985
0.572 1.092 1.690 24360
0.577 1.100 1.692 19631
0.581 1.109 1.695 15549
0.585 1.117 1.697 15475
0.587 1.121 1.693 14057
0.590 1.125 1.690 13636
0.594 1.134 1.692 13012
0.598 1.142 1.694 12387
0.601 1.146 1.690 14629
0.605 1.155 1.692 15582
0.610 1.164 1.695 11931
0.616 1.177 1.703 9001
0.614 1.172 1.687 8248
0.611 1.166 1.671 8428
0.620 1.184 1.685 7784
0.627 1.197 1.693 10457
0.629 1.201 1.689 11993
0.629 1.201 1.679 8561
0.609 1.162 1.622 5075
0.616 1.176 1.630 6371
0.635 1.213 1.667 8474
0.640 1.221 1.668 9210
0.642 1.225 1.664 13423
0.641 1.224 1.654 19042
0.646 1.233 1.656 13824
0.658 1.256 1.675 10109
0.663 1.265 1.677 14248
0.662 1.264 1.667 23889
0.664 1.268 1.662 33894
0.666 1.272 1.658 38011
0.666 1.271 1.648 38167
0.668 1.275 1.644 32891
0.672 1.283 1.645 26917
0.677 1.292 1.647 21437
0.697 1.331 1.682 16131
0.704 1.345 1.688 15145
0.712 1.358 1.695 15112
0.711 1.358 1.685 24222
0.713 1.361 1.680 26672
0.718 1.370 1.681 18527
0.712 1.359 1.660 23909
0.714 1.363 1.656 36211
0.719 1.372 1.657 34689
0.721 1.376 1.652 31330
0.723 1.380 1.647 23096
0.722 1.379 1.637 11545
0.748 1.429 1.681 18721
0.748 1.427 1.671 27049
0.750 1.431 1.666 23350
0.755 1.440 1.667 11138
0.765 1.460 1.678 5822
0.764 1.459 1.668 5995
0.772 1.473 1.674 8336
0.774 1.477 1.669 15439
0.776 1.481 1.664 16616
0.778 1.485 1.659 15745
0.783 1.494 1.659 22895
0.787 1.503 1.659 25165
0.795 1.518 1.665 21990
0.803 1.532 1.670 24906
0.807 1.541 1.670 22451
0.809 1.545 1.665 18316
0.809 1.544 1.655 13465
0.816 1.558 1.660 8502
0.830 1.584 1.675 9708
0.835 1.593 1.675 13421
0.837 1.597 1.670 16846
0.839 1.601 1.664 16836
0.841 1.605 1.659 15385
0.843 1.609 1.654 12168
0.845 1.613 1.648 12149
0.847 1.616 1.643 13947
0.855 1.631 1.647 17362
0.857 1.635 1.642 23441
0.859 1.639 1.636 29542
0.864 1.648 1.636 33820
0.866 1.652 1.630 37006
0.868 1.656 1.625 37007
0.870 1.660 1.619 32401
0.872 1.664 1.614 24522
0.873 1.667 1.608 14841
0.878 1.677 1.607 6422
0.872 1.664 1.587 5510
0.876 1.673 1.587 12310
0.881 1.682 1.586 16747
0.886 1.692 1.585 14630
0.888 1.695 1.579 9542
0.890 1.699 1.574 8398
0.895 1.708 1.573 10445
0.897 1.712 1.567 11081
0.905 1.727 1.570 9737
0.916 1.748 1.579 9261
0.918 1.752 1.573 10049
0.917 1.750 1.562 9411
0.921 1.759 1.561 7489
0.929 1.774 1.564 8199
0.937 1.789 1.567 8303
0.942 1.799 1.566 8108
1.008 1.924 1.654 10144
1.013 1.933 1.652 15281
1.015 1.937 1.646 16236
1.017 1.941 1.639 14450
1.019 1.945 1.633 11643
1.027 1.961 1.635 10061
1.051 2.005 1.659 14219
1.056 2.015 1.657 14273
1.042 1.990 1.628 12031
1.044 1.993 1.622 9716
1.083 2.068 1.666 9017
1.092 2.084 1.668 11329
1.100 2.099 1.670 11066
1.105 2.109 1.667 9435
1.110 2.119 1.664 7487
1.109 2.117 1.653 7469
1.111 2.121 1.646 6881
1.116 2.131 1.643 6248
1.118 2.135 1.636 7181
1.120 2.139 1.629 8218
1.122 2.142 1.622 8322
1.131 2.158 1.623 7046
1.164 2.222 1.656 5199
1.166 2.226 1.649 6187
1.171 2.236 1.645 4721
1.183 2.258 1.650 3601
1.188 2.268 1.646 3801
1.190 2.272 1.639 5772
1.192 2.276 1.631 7481
1.194 2.280 1.623 7469
1.196 2.283 1.616 7458
1.230 2.348 1.647 6915
1.232 2.352 1.639 9072
1.237 2.362 1.635 8817
1.268 2.421 1.662 6130
1.274 2.431 1.657 6416
1.279 2.441 1.653 7339
1.284 2.451 1.649 8320
1.290 2.462 1.644 7938
1.292 2.465 1.636 7655
1.300 2.482 1.635 5990
1.318 2.517 1.645 6865
1.317 2.514 1.633 6496
1.313 2.506 1.618 7008
1.321 2.522 1.617 6207
1.330 2.538 1.615 6562
1.338 2.554 1.614 5833
1.347 2.571 1.613 5656
1.349 2.575 1.604 4515
1.394 2.660 1.641 5282
1.412 2.695 1.650 5861
1.417 2.706 1.644 7161
1.423 2.716 1.639 6424
1.428 2.726 1.633 5759
1.430 2.730 1.624 4904
1.432 2.734 1.615 4048
1.427 2.725 1.599 3879
1.536 2.932 1.697 3824
1.538 2.936 1.687 3824
1.550 2.959 1.687 3580
1.556 2.969 1.681 3637
1.558 2.973 1.671 3261
1.560 2.977 1.661 2886
1.562 2.981 1.651 3656
1.564 2.985 1.641 4426
1.566 2.989 1.631 4426
1.568 2.993 1.621 2213
0.311 0.590 1.688 23857
0.313 0.594 1.686 25148
0.315 0.597 1.684 26440
0.317 0.601 1.682 26237
0.319 0.605 1.680 26035
0.322 0.609 1.678 26035
0.324 0.613 1.676 27640
0.326 0.617 1.674 29246
0.329 0.624 1.679 25701
0.331 0.628 1.677 22324
0.334 0.632 1.675 17232
0.336 0.636 1.672 12140
0.338 0.640 1.670 9284
0.340 0.644 1.668 6428
0.343 0.651 1.673 6471
0.344 0.652 1.664 7198
0.343 0.649 1.647 8528
0.346 0.656 1.652 9177
0.350 0.663 1.657 10046
0.352 0.667 1.655 8217
0.356 0.674 1.659 6426
0.358 0.678 1.657 6699
0.362 0.685 1.662 6982
0.362 0.686 1.653 5332
0.385 0.730 1.734 6153
0.385 0.730 1.725 6643
0.386 0.731 1.715 7339
0.388 0.735 1.713 5890
0.379 0.719 1.669 4789
0.378 0.716 1.652 4670
0.378 0.717 1.643 5129
0.404 0.765 1.730 5972
0.406 0.769 1.728 8277
0.410 0.777 1.732 9162
0.410 0.777 1.722 8711
0.398 0.753 1.665 10419
0.405 0.768 1.683 9700
0.411 0.779 1.694 9334
0.415 0.786 1.698 11685
0.419 0.794 1.702 15952
0.423 0.801 1.706 17977
0.423 0.802 1.697 17611
0.425 0.806 1.694 17471
0.427 0.810 1.691 19579
0.433 0.821 1.702 22455
0.435 0.825 1.699 23730
0.438 0.829 1.697 19801
0.442 0.837 1.701 12448
0.444 0.841 1.698 9072
0.446 0.845 1.695 8637
0.446 0.845 1.685 13031
0.450 0.853 1.689 18385
0.454 0.861 1.693 25416
0.458 0.868 1.697 30842
0.460 0.872 1.694 30881
0.462 0.876 1.691 24130
0.463 0.876 1.681 15320
0.463 0.877 1.672 13330
0.469 0.888 1.682 21426
0.475 0.900 1.692 36559
0.479 0.908 1.695 39744
0.483 0.916 1.699 36694
0.485 0.920 1.696 31647
0.488 0.924 1.693 19866
0.488 0.924 1.683 11332
0.490 0.928 1.680 9157
0.492 0.932 1.677 7892
0.498 0.944 1.687 6963
0.504 0.956 1.696 10455
0.509 0.964 1.700 15880
0.511 0.968 1.696 17479
0.513 0.972 1.693 16613
0.517 0.980 1.696 16919
0.521 0.988 1.699 20688
0.524 0.992 1.696 21868
0.526 0.996 1.693 16434
0.534 1.013 1.708 11723
0.539 1.021 1.711 10232
0.541 1.025 1.708 8172
0.543 1.029 1.704 13421
0.545 1.033 1.701 20369
0.547 1.037 1.697 17827
0.554 1.050 1.706 14329
0.554 1.049 1.697 10995
0.563 1.066 1.712 8905
0.567 1.075 1.714 10579
0.569 1.079 1.711 10654
0.571 1.083 1.707 9937
0.573 1.087 1.703 15084
0.573 1.086 1.694 21894
0.575 1.090 1.690 22023
0.577 1.094 1.686 18872
0.582 1.103 1.689 14572
0.586 1.111 1.691 13194
0.588 1.115 1.687 12712
0.593 1.124 1.690 12803
0.597 1.132 1.692 13414
0.602 1.141 1.694 13676
0.604 1.145 1.690 16011
0.606 1.149 1.686 16207
0.613 1.162 1.695 12521
0.620 1.175 1.703 9890
0.620 1.174 1.693 8738
0.617 1.169 1.677 8061
0.624 1.182 1.685 7333
0.631 1.196 1.693 10361
0.633 1.199 1.689 11996
0.633 1.199 1.679 9354
0.617 1.170 1.634 5266
0.619 1.174 1.630 6822
0.631 1.196 1.649 7044
0.646 1.224 1.674 10826
0.645 1.223 1.664 16707
0.645 1.222 1.654 22870
0.647 1.226 1.650 16364
0.664 1.259 1.681 9637
0.666 1.263 1.677 13472
0.666 1.262 1.667 25701
0.668 1.266 1.662 38693
0.668 1.265 1.652 44795
0.670 1.269 1.648 47678
0.674 1.278 1.650 42530
0.676 1.281 1.645 35167
0.678 1.285 1.641 28920
0.680 1.289 1.637 20304
0.708 1.342 1.688 16490
0.713 1.351 1.689 13653
0.713 1.350 1.679 20876
0.715 1.354 1.675 26016
0.719 1.363 1.676 21180
0.716 1.357 1.660 26155
0.718 1.361 1.656 36415
0.723 1.370 1.657 33786
0.722 1.369 1.646 29199
0.724 1.373 1.642 19995
0.751 1.422 1.686 8844
0.753 1.426 1.681 19660
0.752 1.425 1.671 24569
0.754 1.429 1.666 18806
0.762 1.443 1.672 10092
0.769 1.458 1.678 9242
0.771 1.462 1.673 8729
0.776 1.471 1.674 9033
0.778 1.475 1.669 15556
0.780 1.478 1.664 17492
0.782 1.482 1.659 16372
0.787 1.492 1.659 24059
0.792 1.501 1.659 27461
0.800 1.515 1.665 22742
0.807 1.530 1.670 23905
0.812 1.539 1.670 23440
0.814 1.543 1.665 21235
0.816 1.547 1.660 14510
0.835 1.583 1.685 7527
0.837 1.587 1.680 9035
0.842 1.596 1.680 14421
0.844 1.600 1.675 18673
0.846 1.604 1.669 18304
0.848 1.608 1.664 16111
0.850 1.612 1.659 13882
0.853 1.615 1.653 13879
0.855 1.619 1.648 14079
0.859 1.629 1.647 15887
0.862 1.633 1.642 20515
0.864 1.636 1.636 25498
0.868 1.646 1.636 28996
0.870 1.650 1.630 31146
0.873 1.653 1.625 30329
0.875 1.657 1.619 25537
0.877 1.661 1.614 18666
0.879 1.665 1.608 11062
0.889 1.685 1.617 6238
0.880 1.667 1.592 8095
0.881 1.670 1.587 16330
0.886 1.680 1.586 19803
0.888 1.683 1.580 15525
0.893 1.693 1.579 8973
0.898 1.702 1.578 7943
0.900 1.706 1.573 10658
0.905 1.715 1.572 11892
0.913 1.730 1.575 11333
0.921 1.745 1.579 10546
0.923 1.749 1.573 9530
0.922 1.747 1.562 8274
0.927 1.756 1.561 6232
0.935 1.771 1.564 6956
0.943 1.786 1.567 7672
0.948 1.796 1.566 7955
1.014 1.921 1.654 9859
1.019 1.930 1.652 15463
1.021 1.934 1.646 16958
1.023 1.938 1.639 15445
1.025 1.942 1.633 12297
1.030 1.952 1.631 9955
1.060 2.008 1.663 13748
1.062 2.012 1.657 14233
1.048 1.986 1.628 12110
1.050 1.990 1.622 10257
1.059 2.006 1.624 9273
1.073 2.033 1.634 10739
1.106 2.096 1.670 10555
1.114 2.112 1.671 9363
1.117 2.116 1.664 7572
1.119 2.120 1.657 7212
1.121 2.124 1.650 6445
1.126 2.133 1.647 6109
1.128 2.137 1.640 6951
1.127 2.135 1.629 7754
1.129 2.139 1.622 7669
1.134 2.149 1.619 6405
1.174 2.225 1.660 4752
1.176 2.229 1.653 5723
1.181 2.239 1.649 4883
1.190 2.255 1.650 4382
1.195 2.264 1.646 3959
1.200 2.274 1.643 5001
1.202 2.278 1.635 6198
1.201 2.276 1.623 6200
1.203 2.280 1.616 6336
1.241 2.351 1.651 7039
1.243 2.355 1.643 9100
1.245 2.358 1.635 9030
1.247 2.362 1.627 6373
1.278 2.421 1.654 5611
1.286 2.438 1.653 6876
1.292 2.448 1.649 8278
1.297 2.458 1.644 8362
1.299 2.462 1.636 8522
1.304 2.472 1.632 6568
1.326 2.513 1.645 7179
1.321 2.504 1.630 6259
1.320 2.502 1.618 6293
1.332 2.524 1.620 5371
1.341 2.540 1.619 6066
1.346 2.550 1.614 5660
1.354 2.567 1.613 5755
1.356 2.570 1.604 4603
1.402 2.656 1.641 5316
1.420 2.691 1.650 5949
1.426 2.701 1.644 7366
1.431 2.711 1.639 6500
1.440 2.728 1.636 5781
1.442 2.732 1.627 5023
1.484 2.812 1.659 4295
1.439 2.727 1.602 3985
1.545 2.927 1.697 3800
1.547 2.931 1.687 3800
1.559 2.954 1.687 3645
1.564 2.965 1.681 3715
1.567 2.969 1.671 3405
1.569 2.972 1.661 3095
1.571 2.976 1.651 4020
1.573 2.980 1.641 4945
1.575 2.984 1.631 4945
1.577 2.988 1.621 2472
0.312 0.589 1.688 25254
0.314 0.593 1.686 26034
0.316 0.597 1.684 26815
0.318 0.601 1.682 26890
0.320 0.605 1.680 26965
0.323 0.609 1.678 26965
0.325 0.613 1.676 28474
0.327 0.617 1.674 29983
0.330 0.624 1.679 26546
0.332 0.628 1.677 23302
0.335 0.632 1.675 18363
0.337 0.635 1.672 13424
0.339 0.639 1.670 10182
0.341 0.643 1.668 6941
0.345 0.650 1.673 6807
0.343 0.648 1.657 7569
0.344 0.649 1.647 8924
0.347 0.656 1.652 9560
0.351 0.663 1.657 10499
0.353 0.667 1.655 8720
0.355 0.671 1.652 6940
0.359 0.678 1.657 7473
0.361 0.682 1.655 8043
0.363 0.686 1.653 6240
0.386 0.729 1.734 5856
0.387 0.730 1.725 6287
0.387 0.730 1.715 6966
0.389 0.735 1.713 5609
0.391 0.739 1.710 4252
0.397 0.749 1.722 4790
0.401 0.757 1.726 5775
0.403 0.761 1.723 6945
0.407 0.768 1.728 8195
0.411 0.776 1.732 8286
0.411 0.777 1.722 7709
0.401 0.756 1.672 9212
0.406 0.767 1.683 8455
0.410 0.775 1.687 7878
0.416 0.786 1.698 9572
0.420 0.793 1.702 13425
0.424 0.801 1.706 15417
0.424 0.801 1.697 15044
0.426 0.805 1.694 14795
0.431 0.813 1.698 17735
0.435 0.820 1.702 22238
0.439 0.828 1.706 23848
0.441 0.832 1.703 20152
0.441 0.832 1.694 13361
0.443 0.836 1.691 10189
0.445 0.840 1.688 10065
0.447 0.844 1.685 14281
0.451 0.852 1.689 19151
0.455 0.860 1.693 25708
0.458 0.864 1.690 30366
0.462 0.872 1.694 30096
0.464 0.876 1.691 23378
0.464 0.876 1.681 15086
0.466 0.880 1.678 13545
0.470 0.888 1.682 21911
0.476 0.899 1.692 37106
0.481 0.907 1.695 41163
0.485 0.915 1.699 38552
0.487 0.919 1.696 33558
0.489 0.923 1.693 21437
0.489 0.923 1.683 12815
0.491 0.927 1.680 10853
0.493 0.931 1.677 9437
0.500 0.943 1.687 8784
0.504 0.951 1.690 12159
0.510 0.963 1.700 15933
0.512 0.967 1.696 16413
0.514 0.971 1.693 14862
0.519 0.979 1.696 15821
0.523 0.987 1.699 21280
0.523 0.987 1.690 23074
0.527 0.995 1.693 16880
0.532 1.004 1.696 11956
0.538 1.016 1.705 11530
0.540 1.020 1.701 9958
0.542 1.024 1.698 14156
0.547 1.032 1.701 19911
0.549 1.036 1.697 17200
0.558 1.053 1.713 14964
0.558 1.053 1.703 11818
0.562 1.061 1.705 9958
0.566 1.069 1.708 12022
0.571 1.078 1.711 11311
0.571 1.077 1.701 9854
0.575 1.086 1.703 14263
0.577 1.090 1.700 19998
0.577 1.089 1.690 20082
0.577 1.089 1.680 19649
0.581 1.097 1.683 16167
0.586 1.106 1.685 12900
0.588 1.110 1.681 12234
0.595 1.123 1.690 12663
0.599 1.131 1.692 14197
0.604 1.140 1.694 15090
0.606 1.144 1.690 17157
0.608 1.148 1.686 16365
0.617 1.165 1.701 12645
0.622 1.174 1.703 10419
0.622 1.173 1.693 8901
0.619 1.168 1.677 7683
0.626 1.181 1.685 7259
0.633 1.195 1.693 10420
0.635 1.199 1.689 11979
0.634 1.198 1.679 10104
0.639 1.206 1.681 7811
0.624 1.177 1.636 7219
0.643 1.214 1.672 6930
0.648 1.223 1.674 12425
0.647 1.222 1.664 19545
0.647 1.221 1.654 25809
0.649 1.225 1.650 18581
0.659 1.243 1.663 9387
0.668 1.262 1.677 12249
0.668 1.261 1.667 26290
0.670 1.265 1.662 41664
0.669 1.264 1.652 48529
0.672 1.268 1.648 52680
0.676 1.276 1.650 48665
0.678 1.280 1.645 41282
0.680 1.284 1.641 35112
0.680 1.283 1.631 25707
0.711 1.341 1.688 19834
0.713 1.345 1.684 15286
0.715 1.349 1.679 18555
0.717 1.353 1.675 24395
0.719 1.357 1.670 22780
0.718 1.356 1.660 26664
0.720 1.360 1.656 34272
0.725 1.369 1.657 31476
0.724 1.368 1.646 26986
0.727 1.372 1.642 18709
0.750 1.416 1.681 10191
0.755 1.425 1.681 20156
0.757 1.429 1.677 23076
0.759 1.433 1.672 16679
0.767 1.447 1.678 10818
0.771 1.456 1.678 12386
0.774 1.460 1.673 11151
0.778 1.469 1.674 9554
0.783 1.479 1.674 15730
0.785 1.482 1.669 18316
0.785 1.481 1.659 16527
0.789 1.490 1.659 23602
0.794 1.499 1.659 27815
0.802 1.514 1.665 22437
0.810 1.528 1.670 22549
0.814 1.538 1.670 24404
0.817 1.541 1.665 24010
0.819 1.545 1.660 15887
0.835 1.576 1.680 8077
0.840 1.585 1.680 9127
0.845 1.595 1.680 15098
0.847 1.598 1.675 19751
0.852 1.608 1.674 19242
0.851 1.606 1.664 16354
0.853 1.610 1.659 14772
0.855 1.614 1.653 14783
0.857 1.618 1.648 13745
0.862 1.627 1.647 14089
0.864 1.631 1.642 17420
0.866 1.635 1.636 21174
0.871 1.644 1.636 23437
0.873 1.648 1.630 24210
0.875 1.652 1.625 22454
0.874 1.650 1.614 17854
0.879 1.660 1.614 12162
0.881 1.663 1.608 7572
0.889 1.678 1.612 6878
0.885 1.671 1.597 11302
0.884 1.669 1.587 20111
0.889 1.678 1.586 23090
0.891 1.682 1.580 16939
0.896 1.691 1.579 9091
0.904 1.706 1.583 7978
0.906 1.710 1.577 11014
0.908 1.714 1.572 12444
0.916 1.729 1.575 12680
0.924 1.744 1.579 11990
0.926 1.747 1.573 9525
0.921 1.740 1.558 7352
0.920 1.738 1.547 5222
0.941 1.776 1.569 6312
0.945 1.785 1.567 7688
0.947 1.789 1.561 8418
1.017 1.919 1.654 9291
1.022 1.929 1.652 15011
1.024 1.933 1.646 16790
1.026 1.937 1.639 15529
1.028 1.940 1.633 12278
1.033 1.950 1.631 9625
1.063 2.006 1.663 13498
1.068 2.016 1.661 14387
1.054 1.991 1.633 11922
1.053 1.989 1.622 10459
1.065 2.010 1.628 9764
1.076 2.032 1.634 12034
1.113 2.100 1.674 9708
1.118 2.110 1.671 9055
1.120 2.114 1.664 7499
1.122 2.118 1.657 6901
1.127 2.128 1.654 6134
1.129 2.132 1.647 5953
1.131 2.136 1.640 6571
1.130 2.133 1.629 7065
1.132 2.137 1.622 6861
1.137 2.147 1.619 5675
1.181 2.229 1.664 4372
1.183 2.233 1.657 5285
1.188 2.243 1.653 5114
1.193 2.253 1.650 5046
1.195 2.257 1.642 4414
1.204 2.273 1.643 4415
1.215 2.295 1.647 5290
1.221 2.305 1.643 5376
1.226 2.314 1.639 5585
1.247 2.355 1.655 7030
1.249 2.359 1.647 8942
1.251 2.363 1.639 9072
1.254 2.366 1.631 6797
1.278 2.413 1.650 5595
1.284 2.423 1.646 6902
1.292 2.439 1.645 8476
1.301 2.456 1.644 8744
1.303 2.459 1.636 9201
1.308 2.470 1.632 7047
1.330 2.511 1.645 7327
1.329 2.508 1.633 5967
1.324 2.500 1.618 5477
1.339 2.528 1.624 4813
1.348 2.545 1.623 5728
1.353 2.555 1.618 5613
1.358 2.565 1.613 5855
1.364 2.575 1.608 4718
1.402 2.647 1.638 5704
1.424 2.689 1.650 5900
1.430 2.699 1.644 7327
1.435 2.709 1.639 6366
1.457 2.751 1.650 5703
1.446 2.729 1.627 4982
1.488 2.809 1.659 4783
1.490 2.813 1.649 4180
1.553 2.931 1.700 3774
1.555 2.935 1.690 3774
1.564 2.952 1.687 3671
1.569 2.962 1.681 3746
1.571 2.966 1.671 3535
1.573 2.970 1.661 3324
1.575 2.974 1.651 4383
1.577 2.978 1.641 5442
1.579 2.982 1.631 5442
1.581 2.985 1.621 2721
0.315 0.587 1.688 28243
0.317 0.591 1.686 28543
0.319 0.595 1.684 28843
0.321 0.599 1.682 29074
0.324 0.603 1.680 29305
0.326 0.607 1.678 29305
0.328 0.611 1.676 30732
0.330 0.615 1.674 32159
0.334 0.622 1.679 28853
0.336 0.626 1.677 25717
0.338 0.630 1.675 21080
0.340 0.634 1.672 16443
0.342 0.638 1.670 12703
0.341 0.635 1.654 9133
0.343 0.639 1.652 8811
0.345 0.643 1.650 9461
0.347 0.647 1.647 10429
0.351 0.654 1.652 11006
0.355 0.661 1.657 11914
0.357 0.665 1.655 10019
0.359 0.669 1.652 8124
0.361 0.673 1.650 8933
0.363 0.677 1.648 9741
0.367 0.684 1.653 7618
0.369 0.688 1.650 5540
0.392 0.731 1.732 5906
0.391 0.728 1.715 6587
0.393 0.732 1.713 5170
0.395 0.737 1.710 3754
0.401 0.747 1.722 4778
0.403 0.751 1.719 6100
0.407 0.759 1.723 7035
0.411 0.766 1.728 8642
0.413 0.770 1.725 9136
0.415 0.774 1.722 8743
0.416 0.775 1.713 8477
0.414 0.772 1.697 6551
0.416 0.776 1.694 4521
0.420 0.783 1.698 6490
0.426 0.795 1.709 10801
0.428 0.799 1.706 12746
0.429 0.799 1.697 12333
0.429 0.799 1.687 12404
0.435 0.811 1.698 16410
0.439 0.818 1.702 22620
0.443 0.826 1.706 24789
0.445 0.830 1.703 21189
0.445 0.830 1.694 14564
0.447 0.834 1.691 11485
0.449 0.838 1.688 12313
0.452 0.842 1.685 17141
0.456 0.850 1.689 21691
0.460 0.857 1.693 27168
0.462 0.861 1.690 30113
0.466 0.869 1.694 28994
0.468 0.873 1.691 22221
0.470 0.877 1.688 15093
0.470 0.877 1.678 14740
0.475 0.885 1.682 23186
0.481 0.897 1.692 38089
0.485 0.905 1.695 43083
0.489 0.913 1.699 40970
0.492 0.917 1.696 36621
0.494 0.921 1.693 24805
0.492 0.917 1.677 15795
0.494 0.920 1.674 13319
0.498 0.928 1.677 11765
0.504 0.940 1.687 11782
0.509 0.948 1.690 15476
0.513 0.956 1.693 17035
0.515 0.960 1.690 16115
0.519 0.968 1.693 13305
0.526 0.981 1.703 14574
0.526 0.981 1.693 21881
0.528 0.984 1.690 24052
0.532 0.993 1.693 17318
0.537 1.001 1.696 13625
0.541 1.009 1.698 15546
0.543 1.013 1.695 14237
0.548 1.021 1.698 15916
0.552 1.029 1.701 20102
0.556 1.038 1.704 17128
0.563 1.050 1.713 15805
0.565 1.054 1.709 14232
0.565 1.054 1.699 13847
0.570 1.062 1.702 15934
0.574 1.071 1.704 14120
0.574 1.070 1.695 10881
0.581 1.083 1.703 13176
0.583 1.087 1.700 18256
0.580 1.082 1.684 19135
0.582 1.086 1.680 22762
0.587 1.094 1.683 21322
0.589 1.098 1.679 15631
0.591 1.102 1.675 12990
0.598 1.115 1.684 13639
0.605 1.128 1.692 15477
0.610 1.137 1.694 16991
0.612 1.141 1.690 18540
0.614 1.144 1.686 15929
0.623 1.162 1.701 12164
0.628 1.171 1.703 10868
0.628 1.170 1.693 8982
0.625 1.165 1.677 7499
0.632 1.178 1.685 7680
0.639 1.191 1.693 10996
0.639 1.191 1.683 12390
0.641 1.195 1.679 11645
0.645 1.203 1.681 12306
0.647 1.207 1.677 10183
0.652 1.216 1.678 9169
0.652 1.215 1.668 15751
0.651 1.214 1.658 23935
0.653 1.218 1.654 29423
0.655 1.222 1.650 21762
0.660 1.230 1.652 12583
0.662 1.234 1.648 12070
0.674 1.257 1.667 25609
0.676 1.261 1.662 43240
0.676 1.260 1.652 51023
0.681 1.269 1.654 55156
0.683 1.273 1.650 52477
0.685 1.277 1.645 46426
0.684 1.276 1.635 40874
0.686 1.280 1.631 31092
0.717 1.338 1.688 25349
0.720 1.342 1.684 20416
0.719 1.341 1.674 16609
0.724 1.350 1.675 21285
0.723 1.348 1.665 24514
0.725 1.352 1.660 26058
0.727 1.356 1.656 29723
0.732 1.365 1.657 26749
0.732 1.364 1.646 22571
0.736 1.373 1.647 18449
0.757 1.412 1.681 14393
0.762 1.421 1.681 21197
0.764 1.425 1.677 24263
0.769 1.434 1.677 19188
0.774 1.443 1.678 14025
0.779 1.452 1.678 15766
0.781 1.456 1.673 13283
0.786 1.465 1.674 9843
0.791 1.474 1.674 16082
0.793 1.478 1.669 19635
0.792 1.477 1.659 16016
0.797 1.486 1.659 20802
0.802 1.495 1.659 25884
0.810 1.510 1.665 20589
0.817 1.524 1.670 20337
0.825 1.539 1.675 25726
0.827 1.543 1.670 27090
0.829 1.546 1.665 17932
0.843 1.572 1.680 10506
0.848 1.581 1.680 10109
0.853 1.590 1.680 15364
0.855 1.594 1.675 20185
0.860 1.603 1.674 20106
0.862 1.607 1.669 16491
0.861 1.606 1.659 14611
0.863 1.610 1.653 14762
0.865 1.614 1.648 12761
0.870 1.623 1.647 11665
0.875 1.632 1.647 13971
0.875 1.631 1.636 16306
0.877 1.634 1.631 16527
0.879 1.638 1.625 14602
0.881 1.642 1.620 11240
0.877 1.635 1.605 7242
0.870 1.622 1.585 5204
0.890 1.659 1.608 5386
0.895 1.668 1.607 9257
0.894 1.666 1.597 15562
0.896 1.670 1.591 25762
0.898 1.674 1.586 28591
0.900 1.677 1.580 19920
0.902 1.681 1.575 10491
0.913 1.702 1.583 8555
0.918 1.711 1.582 11454
0.920 1.715 1.576 13277
0.928 1.730 1.580 14521
0.930 1.733 1.574 14475
0.932 1.737 1.568 10281
0.927 1.729 1.553 6674
0.926 1.727 1.543 4902
0.953 1.776 1.573 6216
0.955 1.780 1.567 8214
0.957 1.784 1.561 9488
0.962 1.793 1.560 8354
1.032 1.924 1.652 13401
1.034 1.927 1.646 15293
1.036 1.931 1.639 14416
1.038 1.935 1.633 11357
1.077 2.009 1.679 9147
1.076 2.007 1.668 14211
1.078 2.011 1.661 15473
1.077 2.009 1.650 12183
1.064 1.983 1.622 10714
1.081 2.016 1.636 11003
1.087 2.026 1.634 14551
1.092 2.036 1.631 12295
1.129 2.104 1.671 8173
1.131 2.108 1.664 7143
1.136 2.118 1.661 6288
1.138 2.122 1.654 5474
1.140 2.126 1.647 5451
1.139 2.124 1.636 6033
1.141 2.128 1.629 6389
1.143 2.131 1.622 6094
1.145 2.135 1.614 5052
1.195 2.229 1.668 3988
1.197 2.233 1.661 4917
1.200 2.237 1.653 5277
1.202 2.240 1.646 5637
1.207 2.250 1.642 4918
1.245 2.321 1.678 4209
1.247 2.325 1.670 5727
1.249 2.328 1.663 5824
1.277 2.381 1.686 6093
1.260 2.348 1.655 7144
1.262 2.352 1.647 9031
1.264 2.356 1.639 9604
1.269 2.366 1.635 7996
1.287 2.401 1.646 6782
1.290 2.404 1.638 8088
1.298 2.420 1.637 9598
1.310 2.443 1.641 9413
1.315 2.453 1.636 9946
1.321 2.463 1.632 7650
1.343 2.504 1.645 7589
1.342 2.501 1.633 5757
1.334 2.486 1.614 4606
1.359 2.534 1.631 4620
1.361 2.538 1.623 5803
1.366 2.548 1.618 6023
1.372 2.558 1.613 6431
1.377 2.568 1.608 5146
1.413 2.634 1.634 6632
1.438 2.682 1.650 6045
1.444 2.692 1.644 7481
1.449 2.702 1.639 6370
1.471 2.743 1.650 6096
1.477 2.754 1.644 5107
1.499 2.795 1.655 5690
1.501 2.799 1.646 4981
1.503 2.803 1.637 4273
1.505 2.807 1.627 4273
1.579 2.944 1.687 3908
1.584 2.954 1.681 4010
1.586 2.958 1.671 3974
1.589 2.962 1.661 3937
1.591 2.966 1.651 5208
1.593 2.970 1.641 6479
1.595 2.973 1.631 6479
1.597 2.977 1.621 3239
0.317 0.586 1.688 28945
0.319 0.590 1.686 28443
0.321 0.594 1.684 27941
0.323 0.598 1.682 28370
0.325 0.602 1.680 28799
0.327 0.606 1.678 28799
0.330 0.610 1.676 30263
0.332 0.614 1.674 31726
0.335 0.621 1.679 28852
0.338 0.625 1.677 26065
0.340 0.629 1.675 21925
0.342 0.633 1.672 17786
0.344 0.637 1.670 14038
0.343 0.634 1.654 10841
0.345 0.638 1.652 10503
0.347 0.642 1.650 10680
0.349 0.646 1.647 11181
0.353 0.653 1.652 11673
0.355 0.657 1.650 12527
0.359 0.664 1.655 10599
0.361 0.668 1.652 8726
0.363 0.672 1.650 9649
0.365 0.675 1.648 10571
0.367 0.679 1.646 8249
0.371 0.686 1.650 6023
0.393 0.727 1.725 5248
0.391 0.724 1.708 6129
0.395 0.731 1.713 4743
0.397 0.735 1.710 3385
0.401 0.743 1.715 4171
0.402 0.743 1.705 5368
0.395 0.730 1.668 6424
0.413 0.765 1.728 7366
0.415 0.769 1.725 7992
0.420 0.777 1.729 7543
0.422 0.781 1.727 6958
0.416 0.771 1.697 5591
0.418 0.775 1.694 4503
0.423 0.782 1.698 5862
0.429 0.793 1.709 9662
0.431 0.797 1.706 11724
0.433 0.801 1.704 11068
0.431 0.798 1.687 10666
0.439 0.813 1.705 15182
0.441 0.817 1.702 22015
0.445 0.824 1.706 24492
0.448 0.828 1.703 21036
0.448 0.829 1.694 14653
0.450 0.833 1.691 11701
0.452 0.837 1.688 13240
0.454 0.841 1.685 18405
0.458 0.848 1.689 22690
0.462 0.856 1.693 27131
0.465 0.860 1.690 28499
0.469 0.868 1.694 26635
0.471 0.872 1.691 20366
0.473 0.876 1.688 14858
0.475 0.880 1.685 15619
0.479 0.887 1.688 23214
0.484 0.895 1.692 36676
0.488 0.903 1.695 42198
0.490 0.907 1.692 41096
0.494 0.915 1.696 37231
0.496 0.919 1.693 26204
0.494 0.915 1.677 16396
0.496 0.919 1.674 13211
0.501 0.927 1.677 11982
0.507 0.939 1.687 13234
0.512 0.947 1.690 17249
0.516 0.955 1.693 17726
0.518 0.959 1.690 16097
0.520 0.963 1.687 12880
0.527 0.975 1.696 13760
0.529 0.979 1.693 21596
0.531 0.983 1.690 23656
0.535 0.991 1.693 17645
0.540 0.999 1.696 15594
0.544 1.007 1.698 18907
0.544 1.007 1.689 17570
0.551 1.019 1.698 16856
0.555 1.028 1.701 20123
0.560 1.036 1.704 17316
0.566 1.048 1.713 15682
0.569 1.052 1.709 15652
0.568 1.052 1.699 16917
0.573 1.060 1.702 19017
0.575 1.064 1.698 17066
0.572 1.060 1.682 13009
0.584 1.081 1.703 11747
0.586 1.085 1.700 16153
0.584 1.080 1.684 18033
0.583 1.080 1.674 23809
0.588 1.088 1.676 24502
0.590 1.092 1.673 18130
0.594 1.100 1.675 14095
0.599 1.109 1.678 14675
0.606 1.122 1.686 15685
0.613 1.135 1.694 17305
0.615 1.139 1.690 18381
0.617 1.143 1.686 14384
0.627 1.160 1.701 10922
0.631 1.169 1.703 10529
0.631 1.168 1.693 8451
0.631 1.168 1.683 7119
0.635 1.176 1.685 7912
0.642 1.189 1.693 11124
0.642 1.189 1.683 12485
0.647 1.197 1.685 12352
0.651 1.206 1.686 15029
0.654 1.210 1.682 13690
0.656 1.214 1.678 11330
0.655 1.213 1.668 18068
0.657 1.217 1.664 25690
0.657 1.216 1.654 29672
0.659 1.220 1.650 22488
0.664 1.228 1.652 15227
0.663 1.228 1.642 14915
0.676 1.251 1.661 22872
0.680 1.259 1.662 39970
0.680 1.258 1.652 49244
0.682 1.262 1.648 54328
0.687 1.271 1.650 51801
0.689 1.275 1.645 45604
0.688 1.274 1.635 40267
0.693 1.282 1.637 31123
0.721 1.335 1.688 27767
0.724 1.339 1.684 22491
0.723 1.338 1.674 15095
0.731 1.352 1.680 18934
0.727 1.346 1.665 23412
0.727 1.345 1.655 23126
0.734 1.359 1.661 24705
0.736 1.363 1.657 21807
0.736 1.362 1.646 18761
0.743 1.376 1.653 18548
0.762 1.410 1.681 16870
0.767 1.419 1.681 21375
0.771 1.428 1.682 26574
0.774 1.432 1.677 23940
0.778 1.441 1.678 16217
0.783 1.450 1.678 15340
0.785 1.454 1.673 12458
0.790 1.463 1.674 8751
0.795 1.472 1.674 14821
0.797 1.476 1.669 18741
0.797 1.475 1.659 14629
0.802 1.484 1.659 17655
0.809 1.498 1.665 22320
0.814 1.507 1.665 18016
0.822 1.522 1.670 18354
0.830 1.536 1.675 25184
0.832 1.540 1.670 26221
0.837 1.549 1.670 18419
0.848 1.569 1.680 12979
0.850 1.573 1.675 10741
0.855 1.582 1.675 14107
0.860 1.592 1.675 18720
0.865 1.601 1.674 19050
0.867 1.605 1.669 15128
0.866 1.603 1.659 12748
0.871 1.612 1.658 12896
0.870 1.611 1.648 10562
0.875 1.620 1.647 9002
0.880 1.629 1.647 11552
0.882 1.633 1.641 13984
0.884 1.637 1.636 13387
0.886 1.641 1.630 9648
0.871 1.612 1.596 5638
0.867 1.605 1.580 5808
0.884 1.636 1.599 6277
0.892 1.651 1.603 8122
0.897 1.660 1.603 10206
0.899 1.664 1.597 16705
0.901 1.667 1.591 27529
0.903 1.671 1.586 30370
0.905 1.675 1.580 20970
0.907 1.678 1.575 11087
0.918 1.699 1.583 8377
0.923 1.708 1.582 11114
0.925 1.712 1.576 13111
0.930 1.721 1.575 14890
0.935 1.730 1.574 15375
0.937 1.734 1.568 10695
0.933 1.726 1.553 6184
0.928 1.719 1.538 5215
0.958 1.774 1.573 6498
0.957 1.771 1.563 8894
0.962 1.781 1.561 10156
0.970 1.796 1.564 9068
1.037 1.920 1.652 10848
1.040 1.924 1.646 12583
0.970 1.795 1.537 12622
1.044 1.932 1.633 9608
1.083 2.005 1.679 9164
1.082 2.003 1.668 14401
1.084 2.007 1.661 15827
1.083 2.005 1.650 12410
1.073 1.986 1.626 10020
1.091 2.019 1.641 11412
1.096 2.029 1.638 15701
1.098 2.032 1.631 13741
1.103 2.042 1.629 8112
1.121 2.075 1.643 6870
1.142 2.115 1.661 5316
1.144 2.119 1.654 4528
1.140 2.111 1.639 4657
1.136 2.102 1.623 5771
1.147 2.124 1.629 6224
1.153 2.134 1.626 6016
1.152 2.132 1.614 4962
1.131 2.094 1.579 3548
1.207 2.235 1.665 4412
1.206 2.233 1.653 4919
1.208 2.237 1.646 5462
1.210 2.241 1.638 4835
1.252 2.317 1.678 4299
1.254 2.321 1.670 5781
1.256 2.325 1.663 5768
1.284 2.377 1.686 5942
1.270 2.351 1.659 6681
1.272 2.355 1.651 8666
1.274 2.358 1.643 9582
1.279 2.368 1.639 8661
1.285 2.378 1.635 7904
1.293 2.394 1.634 8888
1.299 2.404 1.630 10055
1.317 2.439 1.641 9237
1.323 2.449 1.636 9700
1.328 2.459 1.632 7584
1.347 2.493 1.642 7220
1.342 2.485 1.626 5358
1.341 2.482 1.614 3894
1.367 2.530 1.631 4457
1.372 2.540 1.626 5771
1.374 2.543 1.618 6084
1.379 2.553 1.613 6581
1.385 2.563 1.608 5227
1.421 2.630 1.634 6867
1.426 2.640 1.629 5801
1.452 2.687 1.644 6978
1.461 2.704 1.642 5930
1.480 2.739 1.650 6199
1.499 2.774 1.658 5464
1.508 2.791 1.655 6122
1.510 2.795 1.646 5313
1.512 2.798 1.637 4503
1.514 2.802 1.627 4503
1.584 2.933 1.684 3794
1.590 2.943 1.677 3896
1.595 2.953 1.671 4046
1.597 2.957 1.661 4211
1.600 2.961 1.651 5529
1.602 2.965 1.641 6848
1.604 2.969 1.631 6848
1.606 2.972 1.621 3424
0.318 0.586 1.688 29416
0.320 0.590 1.686 28377
0.322 0.594 1.684 27339
0.324 0.598 1.682 27715
0.326 0.602 1.680 28091
0.328 0.606 1.678 28091
0.331 0.610 1.676 29574
0.333 0.614 1.674 31058
0.336 0.620 1.679 28661
0.339 0.624 1.677 26305
0.341 0.628 1.675 22573
0.343 0.632 1.672 18841
0.345 0.636 1.670 15154
0.344 0.634 1.654 12161
0.346 0.638 1.652 11789
0.348 0.642 1.650 11623
0.350 0.645 1.647 11801
0.354 0.652 1.652 12131
0.356 0.656 1.650 12777
0.358 0.660 1.648 10907
0.362 0.667 1.652 9126
0.364 0.671 1.650 10225
0.366 0.675 1.648 11325
0.368 0.679 1.646 8967
0.372 0.686 1.650 6615
0.374 0.690 1.648 5268
0.392 0.723 1.708 5756
0.396 0.731 1.713 4391
0.387 0.715 1.669 3633
0.391 0.722 1.673 4132
0.397 0.733 1.684 5723
0.396 0.730 1.668 6530
0.414 0.764 1.728 6995
0.419 0.772 1.732 7345
0.423 0.779 1.736 6851
0.423 0.780 1.727 6025
0.425 0.784 1.724 5731
0.424 0.781 1.708 5464
0.430 0.792 1.719 6182
0.432 0.796 1.716 9062
0.434 0.800 1.713 11196
0.436 0.804 1.710 10249
0.438 0.808 1.708 9302
0.440 0.812 1.705 14182
0.445 0.820 1.709 21306
0.447 0.824 1.706 23996
0.449 0.828 1.703 20759
0.449 0.828 1.694 14734
0.449 0.828 1.684 11968
0.453 0.836 1.688 14072
0.455 0.840 1.685 19582
0.460 0.848 1.689 23726
0.464 0.855 1.693 27312
0.466 0.859 1.690 27234
0.470 0.867 1.694 24618
0.472 0.871 1.691 18782
0.474 0.875 1.688 14488
0.477 0.879 1.685 16030
0.481 0.887 1.688 23022
0.485 0.895 1.692 35491
0.489 0.902 1.695 41459
0.491 0.906 1.692 41067
0.496 0.914 1.696 37411
0.496 0.914 1.686 27085
0.496 0.914 1.677 16613
0.498 0.918 1.674 12629
0.500 0.922 1.670 11891
0.509 0.938 1.687 14155
0.513 0.946 1.690 18440
0.517 0.954 1.693 18559
0.517 0.954 1.683 16759
0.522 0.962 1.687 13219
0.526 0.970 1.690 13670
0.530 0.978 1.693 21647
0.533 0.982 1.690 23343
0.537 0.990 1.693 17988
0.541 0.998 1.696 17380
0.543 1.002 1.692 21561
0.546 1.006 1.689 20352
0.552 1.019 1.698 17700
0.557 1.027 1.701 20127
0.561 1.035 1.704 17432
0.568 1.048 1.713 15591
0.570 1.052 1.709 16856
0.570 1.051 1.699 19380
0.572 1.055 1.696 21467
0.574 1.059 1.692 19843
0.574 1.059 1.682 15579
0.581 1.071 1.691 11286
0.588 1.084 1.700 15057
0.585 1.079 1.684 18334
0.587 1.083 1.680 24727
0.590 1.087 1.676 26465
0.592 1.091 1.673 20003
0.594 1.095 1.669 15370
0.601 1.108 1.678 15699
0.608 1.121 1.686 15745
0.615 1.134 1.694 17223
0.617 1.138 1.690 18121
0.619 1.142 1.686 13150
0.629 1.159 1.701 10116
0.633 1.168 1.703 10275
0.633 1.167 1.693 7993
0.630 1.162 1.677 7043
0.640 1.180 1.691 8479
0.644 1.188 1.693 11471
0.644 1.188 1.683 12690
0.649 1.196 1.685 12923
0.653 1.205 1.686 16942
0.655 1.209 1.682 16753
0.658 1.213 1.678 13607
0.657 1.212 1.668 20028
0.659 1.216 1.664 26490
0.659 1.215 1.654 28646
0.661 1.219 1.650 22364
0.666 1.227 1.652 17048
0.665 1.226 1.642 17018
0.678 1.250 1.661 20248
0.682 1.258 1.662 35431
0.682 1.257 1.652 46025
0.684 1.261 1.648 52346
0.689 1.270 1.650 49704
0.691 1.274 1.645 42718
0.690 1.273 1.635 37061
0.695 1.281 1.637 29258
0.726 1.339 1.694 28849
0.726 1.338 1.684 22869
0.731 1.347 1.685 15184
0.735 1.356 1.686 19911
0.735 1.355 1.676 22732
0.731 1.349 1.660 20479
0.736 1.358 1.661 21759
0.741 1.367 1.662 19383
0.738 1.361 1.646 16235
0.751 1.385 1.664 18742
0.761 1.404 1.675 18383
0.769 1.418 1.681 21361
0.774 1.427 1.682 28426
0.776 1.431 1.677 27619
0.781 1.440 1.678 17118
0.786 1.449 1.678 13498
0.788 1.453 1.673 10869
0.795 1.467 1.679 8024
0.798 1.471 1.674 13842
0.802 1.480 1.674 17645
0.802 1.479 1.664 13972
0.804 1.483 1.659 15516
0.812 1.497 1.665 19588
0.819 1.511 1.670 17150
0.824 1.520 1.670 18377
0.832 1.535 1.675 24564
0.834 1.539 1.670 24478
0.839 1.548 1.670 18907
0.847 1.562 1.675 15779
0.849 1.566 1.670 11911
0.854 1.576 1.670 13179
0.862 1.590 1.675 17267
0.867 1.599 1.674 17801
0.869 1.603 1.669 13678
0.869 1.602 1.659 10740
0.874 1.611 1.658 10845
0.876 1.615 1.653 8576
0.878 1.619 1.647 7001
0.883 1.628 1.647 9984
0.885 1.632 1.641 13266
0.887 1.636 1.636 13066
0.889 1.640 1.630 9318
0.891 1.643 1.625 6529
0.893 1.647 1.619 7884
0.892 1.645 1.609 9970
0.894 1.649 1.603 10583
0.899 1.658 1.603 10604
0.901 1.662 1.597 16875
0.903 1.666 1.591 28057
0.905 1.670 1.586 30848
0.907 1.673 1.580 21145
0.909 1.677 1.575 11243
0.920 1.697 1.583 8232
0.925 1.707 1.582 10831
0.927 1.710 1.576 13059
0.932 1.720 1.575 15100
0.938 1.729 1.574 15829
0.940 1.733 1.568 11014
0.938 1.731 1.558 5910
0.931 1.717 1.538 5490
0.958 1.766 1.569 6960
0.960 1.770 1.563 9622
0.965 1.779 1.561 10751
0.973 1.794 1.564 9884
0.972 1.792 1.554 10229
0.971 1.790 1.543 12802
0.969 1.788 1.533 13678
0.968 1.786 1.523 10195
1.086 2.004 1.679 9034
1.085 2.002 1.668 14486
1.088 2.006 1.661 16014
1.086 2.004 1.650 12488
1.079 1.990 1.630 9283
1.094 2.017 1.641 11717
1.099 2.027 1.638 16500
1.101 2.031 1.631 14811
1.110 2.046 1.633 9850
1.121 2.068 1.639 7867
1.117 2.060 1.624 5701
1.109 2.046 1.604 4435
1.137 2.097 1.630 4445
1.126 2.077 1.607 6197
1.131 2.087 1.604 6798
1.153 2.126 1.622 6222
1.139 2.100 1.594 5105
1.131 2.086 1.575 4386
1.211 2.233 1.665 3974
1.210 2.231 1.653 4478
1.212 2.235 1.646 5030
1.214 2.239 1.638 4536
1.255 2.315 1.678 4240
1.257 2.319 1.670 5614
1.259 2.323 1.663 5502
1.288 2.375 1.686 5565
1.274 2.349 1.659 6167
1.276 2.353 1.651 8299
1.281 2.362 1.647 9543
1.286 2.372 1.643 9116
1.289 2.376 1.635 8818
1.291 2.380 1.627 9464
1.299 2.396 1.626 10336
1.321 2.437 1.641 8858
1.327 2.447 1.636 9226
1.332 2.457 1.632 7367
1.351 2.491 1.642 6794
1.346 2.483 1.626 5023
1.345 2.480 1.614 3376
1.374 2.534 1.635 4479
1.376 2.537 1.626 5905
1.381 2.547 1.621 6250
1.383 2.551 1.613 6765
1.389 2.561 1.608 5303
1.421 2.621 1.631 6796
1.427 2.631 1.625 5654
1.456 2.685 1.644 6412
1.465 2.701 1.642 5487
1.487 2.743 1.654 6144
1.503 2.772 1.658 5753
1.509 2.782 1.652 6404
1.511 2.786 1.643 5518
1.516 2.796 1.637 4669
1.518 2.800 1.627 4669
1.527 2.816 1.625 3997
1.577 2.909 1.661 4055
1.600 2.951 1.671 4145
1.602 2.955 1.661 4460
1.604 2.958 1.651 5750
1.606 2.962 1.641 7041
1.608 2.966 1.631 7041
1.610 2.970 1.621 3520
0.728 1.343 0.814 229
0.320 0.585 1.688 31047
0.322 0.589 1.686 29235
0.324 0.593 1.684 27422
0.326 0.597 1.682 27720
0.328 0.601 1.680 28018
0.330 0.605 1.678 28018
0.332 0.609 1.676 29638
0.336 0.615 1.681 31334
0.338 0.619 1.679 29390
0.340 0.623 1.677 27446
0.343 0.627 1.675 24215
0.345 0.631 1.672 20984
0.345 0.632 1.663 17311
0.346 0.633 1.654 14392
0.348 0.637 1.652 13873
0.350 0.641 1.650 13217
0.352 0.644 1.647 13041
0.356 0.651 1.652 12977
0.358 0.655 1.650 13141
0.360 0.659 1.648 11452
0.364 0.666 1.652 9895
0.366 0.670 1.650 11409
0.368 0.674 1.648 12924
0.370 0.678 1.646 10416
0.372 0.681 1.643 7907
0.376 0.689 1.648 6119
0.394 0.722 1.708 5418
0.388 0.710 1.671 4364
0.390 0.713 1.669 4156
0.392 0.717 1.666 4586
0.396 0.725 1.671 5958
0.396 0.725 1.661 6877
0.417 0.763 1.728 6781
0.419 0.767 1.725 7686
0.423 0.775 1.729 7019
0.423 0.775 1.720 6272
0.426 0.779 1.717 6622
0.430 0.787 1.721 7004
0.432 0.791 1.719 7020
0.434 0.795 1.716 9125
0.438 0.802 1.720 11216
0.438 0.803 1.710 10019
0.441 0.807 1.708 8823
0.443 0.811 1.705 13677
0.447 0.818 1.709 21120
0.449 0.822 1.706 23814
0.451 0.826 1.703 20613
0.452 0.827 1.694 14553
0.452 0.827 1.684 11882
0.456 0.835 1.688 14743
0.460 0.842 1.692 20979
0.462 0.846 1.689 24984
0.466 0.854 1.693 27799
0.469 0.858 1.690 25882
0.471 0.862 1.687 22211
0.473 0.866 1.684 16830
0.477 0.874 1.688 14010
0.479 0.877 1.685 16662
0.484 0.885 1.688 22841
0.488 0.893 1.692 33936
0.492 0.901 1.695 40294
0.494 0.905 1.692 40668
