-0.715 2.987 1.664 6679
-0.715 2.984 1.651 7103
-0.717 2.995 1.646 6757
-0.719 3.000 1.636 6394
-0.744 3.108 1.678 6184
-0.746 3.112 1.669 8191
-0.747 3.117 1.660 8137
-0.744 3.107 1.643 8426
-0.745 3.111 1.634 8426
-0.746 3.115 1.625 7752
-0.747 3.120 1.615 7077
-0.750 3.131 1.609 5528
-0.753 3.142 1.603 4228
-0.808 3.371 1.696 3279
-0.810 3.383 1.689 4225
-0.811 3.387 1.679 4225
-0.812 3.391 1.669 2112
-0.375 1.564 0.849 2251
-0.153 0.645 1.681 7400
-0.155 0.653 1.686 7848
-0.156 0.657 1.684 8507
-0.157 0.662 1.682 9026
-0.159 0.669 1.687 9727
-0.160 0.674 1.685 9727
-0.160 0.675 1.676 13552
-0.161 0.679 1.674 17558
-0.162 0.683 1.672 20789
-0.163 0.688 1.670 24021
-0.165 0.695 1.675 26309
-0.166 0.700 1.672 28807
-0.167 0.704 1.670 25385
-0.167 0.705 1.661 22326
-0.168 0.709 1.659 20306
-0.169 0.710 1.650 13986
-0.168 0.707 1.633 11225
-0.169 0.712 1.631 9339
-0.177 0.747 1.692 8768
-0.178 0.748 1.683 8229
-0.177 0.746 1.667 8750
-0.179 0.753 1.671 9026
-0.181 0.761 1.676 9655
-0.182 0.766 1.674 13975
-0.184 0.774 1.678 18295
-0.184 0.774 1.669 16803
-0.185 0.779 1.666 15313
-0.187 0.787 1.671 12663
-0.189 0.795 1.675 9778
-0.190 0.803 1.680 11519
-0.192 0.807 1.677 13437
-0.190 0.800 1.654 14188
-0.191 0.804 1.652 11916
-0.197 0.831 1.691 10556
-0.198 0.836 1.688 13782
-0.199 0.840 1.685 17008
-0.200 0.845 1.683 17248
-0.202 0.853 1.687 17170
-0.203 0.857 1.684 14256
-0.204 0.862 1.682 11818
-0.206 0.870 1.686 12195
-0.207 0.874 1.683 12410
-0.208 0.875 1.674 12736
-0.208 0.875 1.664 12064
-0.210 0.883 1.668 12276
-0.211 0.888 1.666 13461
-0.211 0.888 1.656 15923
-0.213 0.896 1.660 16449
-0.215 0.905 1.664 15185
-0.217 0.913 1.668 14576
-0.219 0.921 1.672 15696
-0.220 0.926 1.669 17339
-0.221 0.930 1.666 13714
-0.223 0.939 1.670 7402
-0.225 0.947 1.674 4821
-0.216 0.909 1.605 5491
-0.219 0.922 1.615 6099
-0.222 0.934 1.625 6311
-0.223 0.939 1.623 5391
-0.209 0.883 1.528 4278
-0.209 0.882 1.519 4306
-0.212 0.895 1.529 4792
-0.213 0.899 1.526 6387
-0.213 0.898 1.517 7378
-0.213 0.898 1.508 6330
-0.213 0.897 1.498 3941
-0.212 0.892 1.483 2547
-0.214 0.900 1.486 2240
-0.211 0.891 1.464 2053
-0.214 0.903 1.474 2713
-0.215 0.907 1.472 3737
-0.216 0.911 1.469 4840
-0.219 0.924 1.479 6687
-0.221 0.932 1.482 8582
-0.222 0.936 1.479 8186
-0.223 0.940 1.477 6025
-0.225 0.948 1.480 5789
-0.227 0.956 1.483 7918
-0.228 0.960 1.480 8647
-0.230 0.969 1.484 7483
-0.231 0.973 1.481 5523
-0.234 0.986 1.490 4875
-0.263 1.108 1.644 4714
-0.262 1.102 1.628 4742
-0.261 1.102 1.618 4539
-0.266 1.120 1.634 4188
-0.270 1.139 1.649 7112
-0.271 1.143 1.645 9630
-0.271 1.142 1.636 7722
-0.271 1.142 1.626 5634
-0.286 1.204 1.696 6195
-0.289 1.219 1.705 4373
-0.269 1.135 1.591 3707
-0.270 1.139 1.587 5278
-0.271 1.143 1.584 7499
-0.272 1.147 1.580 8851
-0.273 1.151 1.577 9083
-0.273 1.150 1.567 8169
-0.275 1.159 1.570 5608
-0.275 1.158 1.560 5548
-0.276 1.162 1.557 8643
-0.276 1.161 1.547 9889
-0.277 1.165 1.544 10168
-0.277 1.169 1.540 8797
-0.298 1.255 1.631 9152
-0.299 1.259 1.628 9169
-0.301 1.268 1.630 8419
-0.304 1.283 1.638 6961
-0.303 1.277 1.622 6608
-0.303 1.276 1.612 8227
-0.305 1.285 1.614 11754
-0.307 1.294 1.616 9814
-0.311 1.309 1.624 5730
-0.313 1.318 1.625 6877
-0.313 1.317 1.616 11855
-0.312 1.316 1.606 16874
-0.313 1.320 1.602 20503
-0.314 1.325 1.598 22407
-0.317 1.334 1.599 15729
-0.330 1.392 1.652 15285
-0.331 1.396 1.648 13196
-0.319 1.346 1.587 11746
-0.333 1.404 1.640 21424
-0.334 1.409 1.635 32091
-0.337 1.418 1.637 34640
-0.338 1.422 1.632 31584
-0.339 1.427 1.628 24191
-0.340 1.431 1.624 21711
-0.339 1.430 1.614 33454
-0.340 1.434 1.609 51291
-0.341 1.438 1.605 59389
-0.342 1.442 1.601 61814
-0.343 1.446 1.596 63817
-0.344 1.450 1.592 62486
-0.345 1.454 1.587 62068
-0.346 1.458 1.583 59427
-0.347 1.462 1.578 48734
-0.349 1.472 1.579 31069
-0.352 1.482 1.580 21486
-0.351 1.480 1.570 21868
-0.352 1.484 1.566 20323
-0.353 1.488 1.561 15985
-0.353 1.487 1.552 11368
-0.352 1.485 1.542 6545
-0.327 1.380 1.437 6424
-0.328 1.383 1.433 7721
-0.329 1.387 1.428 7520
-0.329 1.385 1.419 8294
-0.331 1.394 1.420 9740
-0.332 1.398 1.416 9797
-0.333 1.401 1.411 6643
-0.404 1.703 1.670 3823
-0.407 1.713 1.670 6866
-0.406 1.712 1.660 8668
-0.406 1.710 1.650 7865
-0.408 1.720 1.649 7531
-0.413 1.742 1.659 8207
-0.416 1.752 1.659 10539
-0.418 1.763 1.659 15318
-0.422 1.779 1.664 19190
-0.425 1.789 1.663 21574
-0.427 1.799 1.663 19772
-0.429 1.810 1.662 18862
-0.429 1.808 1.652 19238
-0.429 1.806 1.641 12912
-0.430 1.811 1.636 5959
-0.441 1.857 1.665 9332
-0.440 1.855 1.654 16294
-0.440 1.854 1.644 17479
-0.442 1.864 1.643 14993
-0.453 1.911 1.671 14499
-0.457 1.927 1.675 16058
-0.461 1.944 1.678 14644
-0.464 1.955 1.677 14601
-0.466 1.965 1.676 9954
-0.467 1.969 1.670 5099
-0.477 2.011 1.692 9526
-0.477 2.009 1.681 15620
-0.476 2.007 1.671 14360
-0.480 2.024 1.674 14597
-0.481 2.028 1.668 16390
-0.482 2.033 1.662 14031
-0.485 2.043 1.660 9184
-0.490 2.066 1.668 5832
-0.497 2.096 1.679 10346
-0.498 2.100 1.673 15973
-0.501 2.111 1.671 15221
-0.503 2.121 1.669 13278
-0.506 2.132 1.667 15920
-0.508 2.143 1.665 22384
-0.510 2.147 1.659 23116
-0.511 2.151 1.652 20281
-0.516 2.175 1.659 16833
-0.522 2.198 1.666 14826
-0.518 2.183 1.646 9589
-0.513 2.162 1.622 6920
-0.540 2.276 1.689 7387
-0.541 2.280 1.682 8179
-0.544 2.291 1.679 9889
-0.545 2.295 1.672 11081
-0.544 2.293 1.661 10037
-0.545 2.297 1.654 8837
-0.551 2.321 1.660 8827
-0.560 2.358 1.674 6304
-0.581 2.448 1.721 7008
-0.582 2.452 1.713 7469
-0.583 2.456 1.706 6938
-0.584 2.461 1.699 5688
-0.583 2.459 1.687 5018
-0.584 2.463 1.680 4051
-0.595 2.507 1.696 6653
-0.594 2.505 1.685 10669
-0.597 2.516 1.681 12877
-0.600 2.527 1.678 15152
-0.602 2.538 1.674 12127
-0.627 2.642 1.726 6841
-0.630 2.653 1.721 8015
-0.631 2.658 1.713 10116
-0.632 2.662 1.705 12217
-0.634 2.673 1.701 11146
-0.635 2.678 1.693 8893
-0.635 2.676 1.681 7644
-0.634 2.673 1.669 6431
-0.635 2.677 1.661 5227
-0.636 2.682 1.653 4187
-0.652 2.747 1.679 4596
-0.655 2.758 1.674 5601
-0.659 2.776 1.673 6879
-0.661 2.787 1.668 6501
-0.667 2.812 1.671 6992
-0.670 2.823 1.666 6027
-0.676 2.848 1.668 5353
-0.677 2.852 1.660 5599
-0.702 2.960 1.705 6529
-0.702 2.957 1.693 7654
-0.703 2.961 1.684 8814
-0.705 2.973 1.678 7365
-0.711 2.998 1.680 6867
-0.711 2.995 1.667 6672
-0.710 2.993 1.655 6839
-0.711 2.997 1.646 6255
-0.712 3.001 1.636 5653
-0.738 3.110 1.678 5816
-0.739 3.114 1.669 7856
-0.740 3.118 1.660 7945
-0.738 3.109 1.643 8393
-0.739 3.113 1.634 8393
-0.740 3.117 1.625 7773
-0.741 3.121 1.615 7152
-0.743 3.132 1.609 5681
-0.746 3.144 1.603 4411
-0.747 3.148 1.593 3349
-0.803 3.384 1.689 4276
-0.804 3.389 1.679 4276
-0.805 3.393 1.669 2138
-0.371 1.564 0.849 881
-0.151 0.646 1.681 7964
-0.153 0.653 1.686 8344
-0.154 0.658 1.684 8950
-0.155 0.662 1.682 9528
-0.157 0.670 1.687 10346
-0.158 0.674 1.685 10346
-0.158 0.675 1.676 14067
-0.159 0.680 1.674 18027
-0.160 0.684 1.672 21335
-0.161 0.688 1.670 24643
-0.163 0.696 1.675 26984
-0.164 0.700 1.672 29647
-0.165 0.705 1.670 26043
-0.165 0.705 1.661 22791
-0.166 0.710 1.659 20610
-0.167 0.714 1.657 14079
-0.167 0.711 1.640 11096
-0.168 0.716 1.638 8720
-0.175 0.748 1.692 8782
-0.175 0.749 1.683 8187
-0.175 0.746 1.667 8495
-0.177 0.754 1.671 9155
-0.179 0.762 1.676 10128
-0.180 0.766 1.674 14808
-0.181 0.774 1.678 19552
-0.182 0.778 1.676 18000
-0.183 0.779 1.666 16513
-0.184 0.787 1.671 13785
-0.186 0.795 1.675 10677
-0.189 0.807 1.687 12683
-0.189 0.808 1.677 14493
-0.189 0.808 1.668 14313
-0.192 0.820 1.679 11409
-0.195 0.832 1.691 10035
-0.196 0.836 1.688 13281
-0.197 0.841 1.685 16527
-0.199 0.849 1.690 16741
-0.200 0.853 1.687 16707
-0.201 0.858 1.684 13961
-0.203 0.866 1.689 12309
-0.204 0.870 1.686 13303
-0.205 0.875 1.683 14776
-0.205 0.875 1.674 15730
-0.206 0.879 1.671 14050
-0.207 0.884 1.668 13860
-0.207 0.884 1.659 15032
-0.208 0.888 1.656 17197
-0.210 0.897 1.660 17996
-0.212 0.905 1.664 17877
-0.214 0.914 1.668 17811
-0.216 0.922 1.672 19236
-0.217 0.926 1.669 20320
-0.219 0.935 1.673 16217
-0.220 0.939 1.670 9868
-0.222 0.948 1.674 7606
-0.214 0.914 1.611 6077
-0.217 0.927 1.622 6651
-0.219 0.935 1.625 6531
-0.220 0.939 1.623 5273
-0.207 0.883 1.528 5043
-0.207 0.883 1.519 4666
-0.210 0.895 1.529 4199
-0.211 0.899 1.526 4976
-0.211 0.899 1.517 5705
-0.212 0.903 1.514 5162
-0.212 0.907 1.511 3259
-0.214 0.915 1.515 1442
-0.212 0.905 1.493 1467
-0.212 0.905 1.484 2323
-0.213 0.909 1.481 3196
-0.214 0.912 1.478 4559
-0.215 0.916 1.475 6223
-0.217 0.924 1.479 8646
-0.219 0.933 1.482 10594
-0.219 0.937 1.479 9818
-0.220 0.940 1.477 7159
-0.221 0.944 1.474 6238
-0.224 0.957 1.483 7735
-0.225 0.961 1.480 8341
-0.227 0.969 1.484 7337
-0.228 0.973 1.481 5176
-0.231 0.986 1.490 3846
-0.260 1.108 1.644 3718
-0.259 1.103 1.628 4174
-0.258 1.102 1.618 4556
-0.262 1.116 1.627 4385
-0.266 1.135 1.643 6730
-0.268 1.144 1.645 8774
-0.267 1.138 1.629 7050
-0.267 1.138 1.620 5638
-0.282 1.205 1.696 6942
-0.286 1.219 1.705 5010
-0.265 1.131 1.585 4173
-0.266 1.135 1.581 5985
-0.267 1.139 1.578 8404
-0.269 1.148 1.580 9839
-0.270 1.152 1.577 9586
-0.270 1.151 1.567 8149
-0.272 1.160 1.570 5466
-0.273 1.164 1.566 4775
-0.273 1.163 1.557 6949
-0.272 1.162 1.547 7962
-0.273 1.166 1.544 8211
-0.274 1.170 1.540 7401
-0.294 1.256 1.631 8187
-0.295 1.260 1.628 9244
-0.296 1.264 1.624 9001
-0.297 1.268 1.620 6470
-0.298 1.272 1.616 5114
-0.298 1.271 1.606 6528
-0.300 1.281 1.608 10045
-0.304 1.295 1.616 8304
-0.312 1.331 1.647 4547
-0.309 1.319 1.625 5093
-0.309 1.318 1.616 8827
-0.309 1.317 1.606 12659
-0.310 1.321 1.602 16106
-0.311 1.325 1.598 17868
-0.313 1.335 1.599 13482
-0.326 1.392 1.652 17245
-0.327 1.397 1.648 16977
-0.330 1.406 1.650 11953
-0.329 1.405 1.640 19072
-0.332 1.415 1.641 33150
-0.333 1.419 1.637 35923
-0.334 1.423 1.632 29853
-0.335 1.428 1.628 21287
-0.336 1.432 1.624 17439
-0.335 1.430 1.614 26696
-0.336 1.435 1.609 45277
-0.337 1.439 1.605 54346
-0.338 1.443 1.601 56058
-0.339 1.447 1.596 58778
-0.340 1.451 1.592 56238
-0.341 1.455 1.587 50455
-0.342 1.459 1.583 39402
-0.343 1.463 1.578 23992
-0.345 1.473 1.579 14205
-0.346 1.477 1.575 16742
-0.346 1.476 1.565 20594
-0.347 1.480 1.561 18472
-0.348 1.484 1.556 14213
-0.349 1.488 1.552 9561
-0.347 1.480 1.536 5626
-0.324 1.381 1.437 4668
-0.353 1.505 1.543 6310
-0.325 1.388 1.428 6853
-0.325 1.386 1.419 8036
-0.327 1.395 1.420 8902
-0.328 1.399 1.416 8615
-0.329 1.402 1.411 5564
-0.398 1.698 1.665 5443
-0.400 1.709 1.665 5704
-0.401 1.713 1.660 8342
-0.402 1.717 1.655 8025
-0.405 1.727 1.655 5887
-0.410 1.749 1.664 6267
-0.412 1.760 1.664 10281
-0.415 1.770 1.664 17350
-0.417 1.780 1.664 21612
-0.420 1.790 1.663 22496
-0.421 1.795 1.658 19084
-0.423 1.805 1.657 17995
-0.425 1.815 1.657 20042
-0.425 1.813 1.646 13499
-0.425 1.812 1.636 6630
-0.436 1.858 1.665 11813
-0.435 1.857 1.654 20429
-0.435 1.855 1.644 20031
-0.439 1.871 1.648 17545
-0.442 1.888 1.652 15863
-0.449 1.916 1.665 16390
-0.453 1.933 1.669 14913
-0.457 1.950 1.672 14519
-0.459 1.960 1.671 9690
-0.458 1.952 1.656 5790
-0.470 2.006 1.688 9199
-0.470 2.004 1.677 15394
-0.469 2.002 1.666 15029
-0.473 2.019 1.669 14801
-0.474 2.023 1.663 16867
-0.477 2.034 1.662 15286
-0.479 2.045 1.660 10305
-0.485 2.068 1.668 7031
-0.490 2.091 1.675 11249
-0.493 2.102 1.673 16147
-0.495 2.112 1.671 14174
-0.498 2.123 1.669 11971
-0.500 2.134 1.667 13388
-0.503 2.144 1.665 17580
-0.505 2.155 1.663 18592
-0.505 2.153 1.652 16813
-0.513 2.189 1.668 16377
-0.516 2.200 1.666 15058
-0.512 2.185 1.646 9812
-0.507 2.163 1.622 7320
-0.532 2.271 1.685 7236
-0.535 2.282 1.682 7706
-0.537 2.292 1.679 9599
-0.538 2.297 1.672 10999
-0.538 2.295 1.661 10598
-0.542 2.312 1.663 10274
-0.546 2.329 1.664 11004
-0.553 2.360 1.674 7947
-0.574 2.449 1.721 7186
-0.575 2.454 1.713 7060
-0.576 2.458 1.706 6282
-0.577 2.463 1.699 4509
-0.578 2.467 1.691 3513
-0.579 2.471 1.684 3163
-0.586 2.502 1.692 6332
-0.587 2.507 1.685 10572
-0.590 2.518 1.681 12817
-0.593 2.529 1.678 15230
-0.595 2.540 1.674 12051
-0.620 2.644 1.726 6109
-0.622 2.655 1.721 7220
-0.623 2.660 1.713 9619
-0.624 2.664 1.705 12017
-0.629 2.682 1.705 11508
-0.630 2.686 1.697 9429
-0.627 2.677 1.681 7845
-0.627 2.675 1.669 6451
-0.628 2.679 1.661 5158
-0.629 2.683 1.653 4031
-0.646 2.756 1.682 4024
-0.648 2.767 1.678 5000
-0.649 2.771 1.669 6142
-0.654 2.789 1.668 5778
-0.659 2.814 1.671 6193
-0.669 2.852 1.681 6155
-0.670 2.857 1.672 6461
-0.669 2.854 1.660 6637
-0.692 2.955 1.701 6912
-0.694 2.959 1.693 8210
-0.695 2.963 1.684 9509
-0.696 2.968 1.675 7790
-0.703 3.000 1.680 6933
-0.702 2.997 1.667 6683
-0.702 2.995 1.655 6636
-0.703 2.999 1.646 5763
-0.704 3.003 1.636 4921
-0.729 3.112 1.678 5322
-0.730 3.116 1.669 7364
-0.731 3.120 1.660 7601
-0.729 3.111 1.643 8178
-0.730 3.115 1.634 8178
-0.731 3.119 1.625 7655
-0.732 3.123 1.615 7133
-0.735 3.134 1.609 5797
-0.737 3.146 1.603 4586
-0.761 3.248 1.638 3470
-0.794 3.387 1.689 4329
-0.795 3.391 1.679 4329
-0.796 3.395 1.669 2164
-0.150 0.646 1.681 7979
-0.152 0.654 1.686 8370
-0.153 0.658 1.684 8948
-0.155 0.666 1.689 9584
-0.156 0.670 1.687 10450
-0.157 0.674 1.685 10450
-0.157 0.675 1.676 13923
-0.158 0.680 1.674 17671
-0.159 0.684 1.672 20841
-0.160 0.688 1.670 24012
-0.161 0.693 1.667 26278
-0.163 0.700 1.672 28877
-0.163 0.701 1.663 25291
-0.164 0.706 1.661 22039
-0.165 0.710 1.659 19855
-0.166 0.714 1.657 13579
-0.165 0.712 1.640 10608
-0.166 0.716 1.638 8067
-0.174 0.748 1.692 8414
-0.174 0.749 1.683 7846
-0.174 0.750 1.674 7973
-0.176 0.758 1.678 8934
-0.177 0.762 1.676 10081
-0.179 0.770 1.681 14866
-0.180 0.774 1.678 19732
-0.181 0.779 1.676 18233
-0.181 0.779 1.666 16832
-0.183 0.787 1.671 14138
-0.186 0.799 1.682 11061
-0.188 0.807 1.687 13216
-0.189 0.812 1.684 14814
-0.189 0.812 1.675 14206
-0.192 0.824 1.686 11154
-0.194 0.836 1.697 9395
-0.195 0.841 1.695 12393
-0.196 0.845 1.692 15391
-0.198 0.849 1.690 15471
-0.199 0.858 1.694 15402
-0.200 0.862 1.691 13074
-0.201 0.866 1.689 12316
-0.202 0.871 1.686 13770
-0.204 0.875 1.683 16266
-0.205 0.879 1.681 17860
-0.206 0.884 1.678 15705
-0.206 0.884 1.668 14878
-0.206 0.884 1.659 15658
-0.207 0.889 1.656 17571
-0.209 0.897 1.660 18900
-0.211 0.905 1.664 20020
-0.213 0.914 1.668 20327
-0.214 0.922 1.672 21620
-0.216 0.931 1.676 22108
-0.217 0.935 1.673 17865
-0.219 0.944 1.677 11715
-0.220 0.948 1.674 9846
-0.221 0.952 1.671 7044
-0.217 0.931 1.628 6756
-0.218 0.935 1.625 6314
-0.205 0.880 1.530 5328
-0.205 0.884 1.528 5623
-0.206 0.887 1.525 5010
-0.208 0.896 1.529 3758
-0.209 0.900 1.526 3710
-0.210 0.904 1.523 4262
-0.210 0.903 1.514 4288
-0.211 0.907 1.511 3469
-0.212 0.911 1.509 1950
-0.211 0.906 1.493 2081
-0.210 0.905 1.484 3226
-0.211 0.909 1.481 4099
-0.212 0.913 1.478 5538
-0.213 0.916 1.475 7522
-0.215 0.925 1.479 10158
-0.217 0.933 1.482 11933
-0.218 0.937 1.479 10849
-0.218 0.936 1.470 7949
-0.220 0.944 1.474 6418
-0.222 0.953 1.477 7061
-0.224 0.961 1.480 7456
-0.226 0.970 1.484 6612
-0.226 0.974 1.481 4708
-0.228 0.982 1.484 3327
-0.231 0.995 1.494 3254
-0.258 1.108 1.634 3734
-0.256 1.103 1.618 4461
-0.259 1.112 1.621 4492
-0.264 1.135 1.643 6071
-0.266 1.144 1.645 7549
-0.265 1.139 1.629 6233
-0.264 1.133 1.614 5603
-0.280 1.206 1.696 7139
-0.284 1.220 1.705 5138
-0.263 1.131 1.585 5056
-0.264 1.135 1.581 6456
-0.265 1.139 1.578 8636
-0.267 1.148 1.580 9911
-0.268 1.152 1.577 9378
-0.268 1.151 1.567 7598
-0.270 1.160 1.570 4918
-0.271 1.165 1.566 4129
-0.271 1.163 1.557 5580
-0.270 1.162 1.547 6199
-0.271 1.166 1.544 6409
-0.272 1.170 1.540 6017
-0.291 1.251 1.626 6580
-0.293 1.260 1.628 8446
-0.294 1.264 1.624 8731
-0.295 1.269 1.620 5951
-0.296 1.273 1.616 3706
-0.296 1.272 1.606 4797
-0.298 1.281 1.608 7883
-0.301 1.296 1.616 6541
-0.312 1.342 1.658 3924
-0.308 1.325 1.631 4374
-0.308 1.324 1.621 6438
-0.306 1.318 1.606 8649
-0.307 1.322 1.602 11906
-0.308 1.326 1.598 13415
-0.311 1.335 1.599 11033
-0.324 1.393 1.652 17316
-0.325 1.397 1.648 19004
-0.327 1.407 1.650 13230
-0.327 1.406 1.640 16483
-0.329 1.415 1.641 29685
-0.330 1.420 1.637 33096
-0.331 1.424 1.632 29319
-0.332 1.428 1.628 24680
-0.332 1.427 1.618 18438
-0.333 1.431 1.614 21201
-0.334 1.435 1.609 38236
-0.335 1.439 1.605 45520
-0.336 1.443 1.601 44291
-0.337 1.448 1.596 47282
-0.338 1.452 1.592 41723
-0.339 1.456 1.587 27700
-0.338 1.454 1.577 15372
-0.338 1.453 1.568 10075
-0.340 1.462 1.569 12315
-0.342 1.472 1.570 18686
-0.343 1.476 1.565 20914
-0.344 1.480 1.561 17670
-0.345 1.484 1.556 12711
-0.346 1.488 1.552 7682
-0.346 1.486 1.542 4849
-0.348 1.496 1.542 5510
-0.350 1.506 1.543 6640
-0.322 1.383 1.423 6537
-0.322 1.386 1.419 7215
-0.323 1.390 1.415 7170
-0.325 1.399 1.416 6758
-0.395 1.701 1.675 7972
-0.396 1.705 1.670 7840
-0.397 1.709 1.665 6004
-0.400 1.719 1.665 7562
-0.401 1.724 1.660 8017
-0.402 1.728 1.655 4546
-0.412 1.774 1.685 4554
-0.411 1.766 1.669 9570
-0.412 1.771 1.664 18237
-0.414 1.781 1.664 22331
-0.417 1.791 1.663 21406
-0.418 1.795 1.658 17155
-0.420 1.806 1.657 16450
-0.422 1.816 1.657 20049
-0.423 1.820 1.651 13991
-0.423 1.818 1.641 7235
-0.432 1.859 1.665 13512
-0.432 1.857 1.654 21952
-0.433 1.862 1.648 20372
-0.437 1.878 1.652 18686
-0.441 1.895 1.656 17598
-0.444 1.911 1.660 17633
-0.448 1.928 1.664 16144
-0.452 1.944 1.668 14445
-0.455 1.955 1.666 9292
-0.454 1.953 1.656 6407
-0.464 1.994 1.678 8637
-0.466 2.005 1.677 14419
-0.466 2.003 1.666 14940
-0.468 2.014 1.665 14714
-0.471 2.024 1.663 17163
-0.473 2.035 1.662 16694
-0.477 2.052 1.665 11758
-0.482 2.075 1.672 8052
-0.486 2.092 1.675 11670
-0.487 2.096 1.669 15733
-0.491 2.113 1.671 12922
-0.494 2.124 1.669 10736
-0.496 2.134 1.667 11198
-0.500 2.151 1.670 13190
-0.501 2.156 1.663 14073
-0.505 2.173 1.666 13746
-0.511 2.196 1.672 15679
-0.512 2.201 1.666 14621
-0.510 2.192 1.650 9501
-0.503 2.164 1.622 7251
-0.527 2.265 1.680 6889
-0.529 2.276 1.678 7208
-0.533 2.293 1.679 9267
-0.533 2.291 1.668 10733
-0.535 2.302 1.665 10754
-0.539 2.319 1.667 11298
-0.543 2.337 1.668 12242
-0.549 2.361 1.674 8831
-0.570 2.450 1.721 6963
-0.571 2.455 1.713 6369
-0.572 2.459 1.706 5373
-0.553 2.378 1.645 3388
-0.552 2.375 1.634 3166
-0.596 2.565 1.741 2870
-0.581 2.497 1.688 5878
-0.583 2.508 1.685 9819
-0.586 2.519 1.681 11998
-0.588 2.530 1.678 14392
-0.591 2.541 1.674 11329
-0.595 2.558 1.674 5351
-0.618 2.656 1.721 6196
-0.619 2.661 1.713 8720
-0.621 2.672 1.709 11282
-0.624 2.683 1.705 11438
-0.625 2.687 1.697 9685
-0.624 2.685 1.685 7803
-0.624 2.683 1.673 6202
-0.623 2.680 1.661 4763
-0.624 2.685 1.653 3773
-0.641 2.757 1.682 3596
-0.644 2.768 1.678 4372
-0.645 2.772 1.669 5234
-0.669 2.879 1.716 4959
-0.667 2.870 1.700 5548
-0.665 2.860 1.684 6313
-0.666 2.865 1.676 7223
-0.666 2.862 1.663 7259
-0.665 2.860 1.651 7375
-0.688 2.960 1.693 8268
-0.689 2.965 1.684 9586
-0.690 2.969 1.675 7743
-0.698 3.001 1.680 6593
-0.697 2.998 1.667 6364
-0.697 2.996 1.655 6201
-0.698 3.000 1.646 5188
-0.699 3.004 1.636 4242
-0.724 3.113 1.678 4649
-0.725 3.117 1.669 6538
-0.726 3.122 1.660 6818
-0.724 3.112 1.643 7393
-0.725 3.116 1.634 7393
-0.726 3.120 1.625 7003
-0.728 3.132 1.619 6618
-0.729 3.136 1.609 5475
-0.732 3.147 1.603 4397
-0.756 3.250 1.638 4060
-0.788 3.388 1.689 4109
-0.789 3.392 1.679 4109
-0.790 3.397 1.669 2054
-0.148 0.647 1.681 7922
-0.150 0.654 1.686 8345
-0.151 0.658 1.684 8891
-0.153 0.666 1.689 9645
-0.154 0.670 1.687 10587
-0.155 0.675 1.685 10587
-0.155 0.676 1.676 13841
-0.156 0.680 1.674 17403
-0.157 0.685 1.672 20427
-0.158 0.689 1.670 23450
-0.159 0.693 1.667 25688
-0.161 0.701 1.672 28191
-0.161 0.702 1.663 24643
-0.162 0.706 1.661 21359
-0.164 0.714 1.666 19199
-0.164 0.715 1.657 13133
-0.163 0.712 1.640 10156
-0.166 0.723 1.652 7653
-0.172 0.749 1.692 8061
-0.172 0.750 1.683 7550
-0.172 0.750 1.674 7504
-0.174 0.758 1.678 8674
-0.176 0.766 1.683 9952
-0.177 0.771 1.681 14821
-0.178 0.775 1.678 19691
-0.179 0.779 1.676 18265
-0.179 0.780 1.666 16979
-0.181 0.788 1.671 14381
-0.183 0.800 1.682 11449
-0.185 0.808 1.687 13697
-0.186 0.812 1.684 15155
-0.186 0.813 1.675 14068
-0.189 0.825 1.686 10943
-0.192 0.837 1.697 8975
-0.193 0.841 1.695 11480
-0.194 0.846 1.692 13984
-0.195 0.850 1.690 13889
-0.197 0.858 1.694 13920
-0.198 0.863 1.691 12142
-0.199 0.867 1.689 12288
-0.200 0.871 1.686 14154
-0.201 0.876 1.683 17525
-0.202 0.880 1.681 19798
-0.205 0.897 1.698 17916
-0.204 0.889 1.675 15763
-0.204 0.889 1.666 16060
-0.204 0.889 1.656 17762
-0.206 0.898 1.660 19611
-0.209 0.910 1.671 21783
-0.210 0.915 1.668 22426
-0.212 0.923 1.672 23712
-0.214 0.932 1.676 23891
-0.215 0.936 1.673 19643
-0.216 0.940 1.670 13955
-0.217 0.945 1.667 12516
-0.218 0.953 1.671 9082
-0.214 0.932 1.628 6910
-0.216 0.940 1.632 6133
-0.202 0.880 1.530 5717
-0.203 0.884 1.528 6206
-0.204 0.888 1.525 5465
-0.205 0.896 1.529 3470
-0.205 0.896 1.520 2669
-0.206 0.900 1.517 3127
-0.207 0.904 1.514 3721
-0.208 0.908 1.511 3891
-0.208 0.907 1.502 2717
-0.208 0.906 1.493 2897
-0.208 0.906 1.484 4100
-0.208 0.910 1.481 4987
-0.209 0.913 1.478 6599
-0.210 0.917 1.475 8931
-0.212 0.925 1.479 11735
-0.213 0.929 1.476 13337
-0.214 0.933 1.473 11929
-0.215 0.937 1.470 8829
-0.216 0.941 1.467 6702
-0.219 0.954 1.477 6433
-0.221 0.962 1.480 6592
-0.221 0.966 1.478 5864
-0.223 0.974 1.481 4254
-0.224 0.978 1.478 3131
-0.227 0.991 1.487 3239
-0.227 0.990 1.478 3753
-0.253 1.104 1.618 4446
-0.254 1.108 1.615 4573
-0.260 1.136 1.643 5360
-0.262 1.145 1.645 6362
-0.260 1.135 1.623 5616
-0.273 1.192 1.687 5777
-0.277 1.207 1.696 7246
-0.259 1.128 1.588 5514
-0.259 1.132 1.585 5953
-0.260 1.136 1.581 6854
-0.261 1.140 1.578 8587
-0.263 1.149 1.580 9588
-0.264 1.153 1.577 8904
-0.264 1.152 1.567 6911
-0.285 1.241 1.666 5081
-0.283 1.236 1.650 3825
-0.268 1.169 1.563 4616
-0.268 1.168 1.553 4883
-0.268 1.167 1.544 4999
-0.268 1.171 1.540 4830
-0.285 1.242 1.614 5091
-0.288 1.256 1.622 7324
-0.290 1.265 1.624 7909
-0.290 1.264 1.614 5162
-0.291 1.269 1.610 3202
-0.293 1.278 1.612 4092
-0.295 1.287 1.614 5880
-0.296 1.291 1.610 4929
-0.309 1.348 1.664 3983
-0.308 1.342 1.649 4632
-0.304 1.325 1.621 4817
-0.303 1.324 1.612 5749
-0.303 1.323 1.602 8543
-0.304 1.327 1.598 9518
-0.319 1.390 1.657 10011
-0.320 1.394 1.652 16399
-0.321 1.398 1.648 19940
-0.323 1.408 1.650 15820
-0.324 1.412 1.645 15607
-0.325 1.417 1.641 25304
-0.326 1.421 1.637 28783
-0.327 1.425 1.632 26654
-0.328 1.429 1.628 25515
-0.327 1.428 1.618 18495
-0.328 1.432 1.614 15743
-0.329 1.436 1.609 27812
-0.330 1.440 1.605 34208
-0.331 1.445 1.601 30390
-0.332 1.449 1.596 28799
-0.334 1.458 1.597 27036
-0.335 1.462 1.593 20480
-0.336 1.467 1.588 12571
-0.336 1.465 1.578 11570
-0.337 1.469 1.574 16084
-0.338 1.473 1.570 20021
-0.339 1.477 1.565 20296
-0.340 1.481 1.561 16000
-0.313 1.365 1.444 11388
-0.314 1.369 1.440 5870
-0.342 1.493 1.547 4336
-0.343 1.497 1.542 6311
-0.345 1.507 1.543 6546
-0.317 1.384 1.423 6085
-0.317 1.382 1.414 6070
-0.319 1.391 1.415 5316
-0.389 1.697 1.681 5431
-0.390 1.702 1.675 9999
-0.391 1.706 1.670 9955
-0.393 1.716 1.670 6633
-0.394 1.721 1.665 6982
-0.395 1.725 1.660 7735
-0.396 1.729 1.655 3889
-0.406 1.769 1.680 3549
-0.405 1.768 1.669 9223
-0.406 1.772 1.664 18631
-0.407 1.776 1.659 22262
-0.409 1.786 1.658 19759
-0.410 1.791 1.653 14991
-0.414 1.807 1.657 14836
-0.417 1.817 1.657 19969
-0.418 1.822 1.651 14922
-0.421 1.838 1.655 7996
-0.426 1.860 1.665 14860
-0.427 1.865 1.659 22719
-0.428 1.869 1.653 20335
-0.432 1.886 1.657 19829
-0.435 1.896 1.656 19389
-0.438 1.913 1.660 19057
-0.441 1.923 1.659 18059
-0.445 1.940 1.663 14692
-0.447 1.950 1.662 9091
-0.448 1.954 1.656 6678
-0.456 1.990 1.673 8103
-0.458 2.000 1.672 13528
-0.459 2.005 1.666 14700
-0.462 2.015 1.665 14686
-0.466 2.032 1.668 17666
-0.468 2.043 1.666 18054
-0.471 2.053 1.665 12965
-0.476 2.076 1.672 8781
-0.478 2.087 1.670 12524
-0.481 2.098 1.669 16084
-0.482 2.102 1.662 12374
-0.487 2.125 1.669 9695
-0.488 2.130 1.663 9858
-0.495 2.159 1.674 9757
-0.497 2.170 1.672 10603
-0.501 2.187 1.675 11857
-0.505 2.204 1.677 15084
-0.505 2.202 1.666 13997
-0.501 2.187 1.646 9155
-0.496 2.166 1.622 7295
-0.518 2.260 1.676 6770
-0.522 2.278 1.678 6915
-0.526 2.295 1.679 8824
-0.526 2.293 1.668 10181
-0.528 2.304 1.665 10712
-0.534 2.328 1.671 12152
-0.536 2.338 1.668 13058
-0.540 2.356 1.670 9318
-0.561 2.445 1.717 6666
-0.563 2.456 1.713 5589
-0.566 2.467 1.710 4345
-0.545 2.380 1.645 3450
-0.546 2.384 1.638 3222
-0.587 2.560 1.737 2692
-0.573 2.498 1.688 5531
-0.575 2.509 1.685 8975
-0.578 2.520 1.681 11110
-0.580 2.531 1.678 13483
-0.583 2.542 1.674 10602
-0.587 2.560 1.674 4913
-0.609 2.658 1.721 5111
-0.610 2.663 1.713 7702
-0.613 2.674 1.709 10434
-0.615 2.685 1.705 11135
-0.616 2.689 1.697 9812
-0.616 2.687 1.685 7853
-0.615 2.685 1.673 5984
-0.615 2.682 1.661 4329
-0.616 2.687 1.653 3533
-0.632 2.759 1.682 3501
-0.635 2.770 1.678 3921
-0.662 2.890 1.733 4557
-0.660 2.881 1.716 4777
-0.660 2.879 1.704 5297
-0.658 2.869 1.688 6463
-0.657 2.867 1.676 7945
-0.657 2.864 1.663 7804
-0.656 2.862 1.651 7816
-0.679 2.962 1.693 8269
-0.680 2.967 1.684 9559
-0.681 2.971 1.675 7609
-0.687 2.996 1.676 6178
-0.688 3.001 1.667 6011
-0.689 3.005 1.658 5815
-0.688 3.002 1.646 4758
-0.689 3.006 1.636 3808
-0.714 3.115 1.678 3977
-0.715 3.120 1.669 5635
-0.716 3.124 1.660 5924
-0.714 3.114 1.643 6473
-0.715 3.118 1.634 6473
-0.716 3.123 1.625 6246
-0.718 3.134 1.619 6080
-0.721 3.145 1.612 5098
-0.746 3.255 1.651 4697
-0.745 3.252 1.638 4660
-0.745 3.249 1.625 4683
-0.746 3.253 1.615 4683
-0.747 3.258 1.606 2341
-0.147 0.647 1.681 7718
-0.149 0.654 1.686 8202
-0.150 0.659 1.684 8731
-0.152 0.666 1.689 9576
-0.153 0.671 1.687 10570
-0.154 0.675 1.685 10570
-0.154 0.676 1.676 13625
-0.155 0.681 1.674 17015
-0.156 0.685 1.672 19899
-0.157 0.689 1.670 22783
-0.158 0.694 1.667 25000
-0.160 0.701 1.672 27420
-0.160 0.702 1.663 23913
-0.161 0.706 1.661 20609
-0.163 0.714 1.666 18513
-0.163 0.715 1.657 12624
-0.162 0.712 1.640 9617
-0.165 0.724 1.652 7418
-0.171 0.749 1.692 7667
-0.171 0.750 1.683 7241
-0.172 0.754 1.681 7050
-0.173 0.759 1.678 8348
-0.175 0.767 1.683 9756
-0.176 0.771 1.681 14561
-0.177 0.775 1.678 19366
-0.178 0.780 1.676 18022
-0.178 0.780 1.666 16877
-0.179 0.788 1.671 14422
-0.182 0.800 1.682 11708
-0.184 0.808 1.687 14056
-0.185 0.813 1.684 15355
-0.186 0.817 1.682 14003
-0.189 0.829 1.693 10756
-0.193 0.848 1.718 9109
-0.192 0.841 1.695 10604
-0.193 0.846 1.692 12458
-0.194 0.854 1.697 12204
-0.195 0.859 1.694 12249
-0.196 0.863 1.691 11189
-0.197 0.867 1.689 12366
-0.198 0.872 1.686 14611
-0.199 0.876 1.683 18628
-0.201 0.884 1.687 21574
-0.204 0.897 1.698 19990
-0.202 0.889 1.675 16606
-0.203 0.889 1.666 16207
-0.203 0.890 1.656 17767
-0.204 0.898 1.660 20245
-0.207 0.911 1.671 23295
-0.209 0.919 1.675 24276
-0.210 0.923 1.672 25540
-0.212 0.932 1.676 25538
-0.213 0.936 1.673 21447
-0.214 0.941 1.670 16223
-0.215 0.945 1.667 15091
-0.217 0.953 1.671 11053
-0.213 0.936 1.635 7141
-0.214 0.941 1.632 6047
-0.201 0.881 1.530 6081
-0.201 0.884 1.528 6712
-0.203 0.893 1.532 5956
-0.203 0.892 1.522 3303
-0.203 0.892 1.513 2097
-0.204 0.896 1.510 2460
-0.205 0.900 1.508 3441
-0.206 0.903 1.505 4337
-0.207 0.907 1.502 3384
-0.206 0.907 1.493 3497
-0.206 0.906 1.484 4749
-0.207 0.910 1.481 5728
-0.208 0.914 1.478 7576
-0.209 0.917 1.475 10231
-0.211 0.926 1.479 13138
-0.212 0.930 1.476 14606
-0.213 0.933 1.473 13008
-0.213 0.937 1.470 9740
-0.214 0.941 1.467 7079
-0.217 0.954 1.477 5900
-0.219 0.962 1.480 5755
-0.220 0.966 1.478 5068
-0.222 0.975 1.481 3839
-0.223 0.978 1.478 3248
-0.225 0.987 1.481 3634
-0.226 0.991 1.478 4132
-0.251 1.104 1.618 4521
-0.252 1.108 1.615 4699
-0.259 1.136 1.643 4553
-0.261 1.145 1.645 5143
-0.257 1.130 1.617 5013
-0.272 1.193 1.687 5933
-0.275 1.207 1.696 7184
-0.257 1.128 1.588 6378
-0.258 1.132 1.585 6709
-0.259 1.136 1.581 7058
-0.260 1.140 1.578 8211
-0.262 1.150 1.580 8919
-0.263 1.154 1.577 8204
-0.262 1.153 1.567 6206
-0.283 1.242 1.666 6188
-0.281 1.236 1.650 4843
-0.266 1.170 1.563 3863
-0.266 1.169 1.553 3871
-0.266 1.168 1.544 3871
-0.267 1.172 1.540 3953
-0.282 1.237 1.608 4579
-0.286 1.256 1.622 6226
-0.287 1.261 1.618 6910
-0.287 1.260 1.608 4293
-0.290 1.274 1.616 3343
-0.295 1.294 1.630 4846
-0.296 1.298 1.626 4589
-0.294 1.292 1.610 3785
-0.307 1.349 1.664 4001
-0.307 1.348 1.654 5146
-0.301 1.320 1.616 4494
-0.303 1.330 1.617 4959
-0.303 1.329 1.608 6339
-0.303 1.333 1.604 6327
-0.318 1.396 1.662 8656
-0.318 1.395 1.652 14393
-0.319 1.399 1.648 19315
-0.321 1.408 1.650 17602
-0.322 1.413 1.645 15563
-0.323 1.417 1.641 22606
-0.324 1.421 1.637 25528
-0.325 1.425 1.632 22062
-0.326 1.430 1.628 22143
-0.325 1.428 1.618 17811
-0.325 1.427 1.608 12798
-0.328 1.442 1.615 19602
-0.328 1.441 1.605 28709
-0.329 1.445 1.601 28707
-0.330 1.449 1.596 22662
-0.331 1.453 1.592 20723
-0.333 1.463 1.593 20691
-0.334 1.467 1.588 17266
-0.334 1.466 1.578 15980
-0.335 1.470 1.574 17468
-0.336 1.474 1.570 18813
-0.336 1.478 1.565 17454
-0.310 1.362 1.448 14507
-0.311 1.366 1.444 11890
-0.312 1.370 1.440 6589
-0.340 1.494 1.547 4428
-0.341 1.498 1.542 6601
-0.343 1.507 1.543 5942
-0.315 1.384 1.423 5413
-0.315 1.382 1.414 4828
-0.317 1.391 1.415 3702
-0.387 1.698 1.681 6585
-0.388 1.702 1.675 11350
-0.389 1.707 1.670 11393
-0.391 1.717 1.670 7584
-0.392 1.721 1.665 6742
-0.393 1.726 1.660 7326
-0.394 1.730 1.655 4694
-0.400 1.758 1.670 4216
-0.403 1.768 1.669 9200
-0.404 1.772 1.664 18311
-0.405 1.777 1.659 21082
-0.407 1.787 1.658 17237
-0.408 1.791 1.653 12654
-0.410 1.802 1.652 13259
-0.415 1.824 1.662 19865
-0.416 1.828 1.656 16150
-0.417 1.833 1.651 9264
-0.424 1.861 1.665 15718
-0.425 1.865 1.659 22991
-0.426 1.870 1.653 20345
-0.429 1.886 1.657 21334
-0.432 1.897 1.656 20901
-0.436 1.913 1.660 20141
-0.438 1.924 1.659 19530
-0.442 1.940 1.663 14829
-0.443 1.945 1.657 8924
-0.445 1.955 1.656 6847
-0.450 1.978 1.664 8131
-0.456 2.001 1.672 12684
-0.455 1.999 1.661 14129
-0.458 2.010 1.660 14328
-0.463 2.033 1.668 17972
-0.465 2.043 1.666 19159
-0.468 2.054 1.665 13967
-0.473 2.077 1.672 9136
-0.475 2.088 1.670 12877
-0.476 2.092 1.664 16191
-0.479 2.103 1.662 12197
-0.484 2.126 1.669 8956
-0.484 2.124 1.658 9450
-0.486 2.135 1.656 8444
-0.488 2.145 1.654 8665
-0.506 2.220 1.697 11477
-0.505 2.218 1.685 14645
-0.503 2.209 1.670 13302
-0.497 2.182 1.642 8716
-0.493 2.166 1.622 7256
-0.515 2.261 1.676 6492
-0.519 2.278 1.678 6632
-0.523 2.296 1.679 8533
-0.524 2.300 1.672 9759
-0.526 2.311 1.670 10558
-0.530 2.328 1.671 12434
-0.533 2.339 1.668 13261
-0.537 2.357 1.670 9424
-0.557 2.446 1.717 6260
-0.558 2.451 1.709 4906
-0.543 2.383 1.656 3803
-0.542 2.380 1.645 3461
-0.579 2.543 1.736 3554
-0.580 2.548 1.728 2829
-0.571 2.506 1.692 5229
-0.572 2.510 1.685 8052
-0.574 2.521 1.681 10149
-0.577 2.532 1.678 12482
-0.579 2.543 1.674 9856
-0.583 2.561 1.674 4684
-0.605 2.659 1.721 4052
-0.608 2.670 1.717 6661
-0.611 2.681 1.713 9410
-0.612 2.686 1.705 10606
-0.613 2.690 1.697 9801
-0.612 2.688 1.685 7871
-0.613 2.692 1.677 5868
-0.611 2.683 1.661 3882
-0.627 2.755 1.691 3477
-0.625 2.746 1.675 3587
-0.629 2.764 1.674 3519
-0.658 2.891 1.733 4246
-0.658 2.889 1.720 4505
-0.657 2.886 1.708 5000
-0.654 2.870 1.688 6477
-0.653 2.868 1.676 8448
-0.652 2.865 1.663 8163
-0.652 2.863 1.651 8085
-0.675 2.963 1.693 8128
-0.676 2.968 1.684 9361
-0.677 2.972 1.675 7346
-0.682 2.997 1.676 5673
-0.683 3.002 1.667 5617
-0.684 3.006 1.658 5502
-0.685 3.010 1.649 4440
-0.685 3.007 1.636 3568
-0.708 3.109 1.675 3413
-0.711 3.121 1.669 4655
-0.710 3.118 1.656 4921
-0.709 3.115 1.643 5347
-0.710 3.119 1.634 5347
-0.713 3.131 1.628 5354
-0.715 3.142 1.622 5481
-0.716 3.146 1.612 4701
-0.741 3.256 1.651 5350
-0.741 3.253 1.638 5285
-0.742 3.257 1.628 5287
-0.743 3.262 1.619 5287
-0.744 3.266 1.609 2643
-0.146 0.650 1.688 7411
-0.147 0.655 1.686 7943
-0.148 0.659 1.684 8475
-0.150 0.667 1.689 9426
-0.151 0.671 1.687 10478
-0.152 0.676 1.685 10478
-0.152 0.677 1.676 13319
-0.153 0.681 1.674 16521
-0.154 0.685 1.672 19254
-0.155 0.690 1.670 21988
-0.156 0.694 1.667 24160
-0.158 0.702 1.672 26474
-0.158 0.703 1.663 23028
-0.159 0.707 1.661 19723
-0.161 0.715 1.666 17701
-0.161 0.719 1.664 11995
-0.160 0.713 1.640 8942
-0.163 0.724 1.652 7126
-0.168 0.749 1.692 7243
-0.169 0.750 1.683 6932
-0.169 0.755 1.681 6732
-0.170 0.759 1.678 8017
-0.173 0.771 1.690 9507
-0.173 0.771 1.681 14186
-0.174 0.776 1.678 18886
-0.174 0.776 1.669 17633
-0.175 0.781 1.666 16618
-0.177 0.789 1.671 14374
-0.180 0.801 1.682 11996
-0.182 0.809 1.687 14338
-0.183 0.813 1.684 15308
-0.184 0.817 1.682 13678
-0.186 0.829 1.693 10709
-0.190 0.845 1.711 9678
-0.190 0.846 1.702 10004
-0.190 0.846 1.692 10814
-0.192 0.855 1.697 10432
-0.194 0.863 1.701 10297
-0.194 0.863 1.691 10097
-0.195 0.868 1.689 12465
-0.196 0.872 1.686 15031
-0.197 0.877 1.683 19528
-0.199 0.885 1.687 23139
-0.202 0.897 1.698 21763
-0.202 0.898 1.689 17408
-0.200 0.890 1.666 15826
-0.200 0.890 1.656 17360
-0.203 0.903 1.667 20867
-0.205 0.911 1.671 24804
-0.207 0.920 1.675 26170
-0.208 0.928 1.679 27292
-0.209 0.932 1.676 26821
-0.210 0.937 1.673 22895
-0.211 0.941 1.670 18300
-0.212 0.945 1.667 17632
-0.214 0.954 1.671 13121
-0.210 0.937 1.635 7686
-0.211 0.941 1.632 6175
-0.198 0.881 1.530 6436
-0.200 0.889 1.534 7190
-0.201 0.893 1.532 6475
-0.202 0.897 1.529 3402
-0.199 0.888 1.507 1838
-0.200 0.892 1.504 2176
-0.201 0.896 1.501 3343
-0.203 0.904 1.505 4627
-0.203 0.903 1.496 3795
-0.203 0.903 1.486 3884
-0.204 0.907 1.484 5176
-0.204 0.910 1.481 6287
-0.205 0.914 1.478 8474
-0.206 0.918 1.475 11525
-0.208 0.926 1.479 14507
-0.209 0.930 1.476 15768
-0.210 0.934 1.473 13963
-0.211 0.938 1.470 10571
-0.211 0.941 1.467 7471
-0.214 0.955 1.477 5542
-0.216 0.963 1.480 5058
-0.218 0.971 1.484 4322
-0.219 0.975 1.481 3486
-0.220 0.979 1.478 3488
-0.221 0.983 1.475 4202
-0.223 0.991 1.478 4576
-0.248 1.105 1.618 4568
-0.249 1.109 1.615 4799
-0.252 1.123 1.624 3927
-0.259 1.151 1.651 3924
-0.254 1.131 1.617 4508
-0.268 1.194 1.687 5939
-0.270 1.203 1.690 6999
-0.254 1.129 1.588 6922
-0.254 1.133 1.585 7148
-0.255 1.137 1.581 7042
-0.256 1.141 1.578 7590
-0.258 1.150 1.580 7991
-0.259 1.154 1.577 7300
-0.278 1.238 1.670 5453
-0.278 1.238 1.660 7351
-0.278 1.237 1.650 6040
-0.276 1.231 1.635 4566
-0.281 1.251 1.649 3687
-0.282 1.255 1.645 4646
-0.280 1.249 1.629 5579
-0.279 1.243 1.614 4623
-0.282 1.257 1.622 5255
-0.283 1.262 1.618 5517
-0.284 1.266 1.614 3458
-0.288 1.280 1.622 3987
-0.292 1.300 1.636 5903
-0.294 1.309 1.637 4526
-0.290 1.293 1.610 3781
-0.292 1.302 1.612 4380
-0.304 1.354 1.660 5438
-0.296 1.316 1.610 5519
-0.298 1.325 1.612 5900
-0.300 1.335 1.613 5682
-0.311 1.387 1.661 4505
-0.314 1.397 1.662 7229
-0.315 1.401 1.658 11393
-0.316 1.405 1.654 16782
-0.317 1.409 1.650 17225
-0.317 1.414 1.645 15210
-0.317 1.413 1.635 21628
-0.318 1.417 1.631 24643
-0.320 1.426 1.632 17938
-0.321 1.431 1.628 16258
-0.321 1.429 1.618 15979
-0.321 1.428 1.608 12690
-0.324 1.443 1.615 15914
-0.324 1.442 1.605 27787
-0.325 1.446 1.601 34266
-0.326 1.450 1.596 28098
-0.327 1.454 1.592 22767
-0.328 1.458 1.587 21411
-0.328 1.462 1.583 19037
-0.329 1.467 1.578 16756
-0.332 1.476 1.579 15706
-0.331 1.475 1.570 14801
-0.305 1.359 1.452 12650
-0.306 1.363 1.448 13301
-0.307 1.367 1.444 11553
-0.307 1.365 1.435 6961
-0.337 1.500 1.552 5101
-0.338 1.504 1.548 6252
-0.339 1.508 1.543 4898
-0.311 1.385 1.423 4414
-0.312 1.389 1.419 3672
-0.379 1.689 1.680 3746
-0.382 1.699 1.681 7419
-0.383 1.704 1.675 12069
-0.384 1.708 1.670 12181
-0.386 1.718 1.670 8343
-0.388 1.728 1.670 6857
-0.388 1.727 1.660 7332
-0.390 1.737 1.660 6336
-0.392 1.747 1.659 6663
-0.396 1.763 1.664 9622
-0.397 1.768 1.659 17317
-0.399 1.778 1.659 18793
-0.402 1.788 1.658 14068
-0.403 1.792 1.653 10064
-0.405 1.803 1.652 11653
-0.410 1.825 1.662 20095
-0.411 1.829 1.656 17511
-0.412 1.834 1.651 10251
-0.418 1.862 1.665 15563
-0.419 1.867 1.659 22053
-0.422 1.877 1.658 19799
-0.424 1.887 1.657 22383
-0.426 1.898 1.656 22009
-0.430 1.914 1.660 20890
-0.432 1.925 1.659 20487
-0.435 1.935 1.658 14887
-0.437 1.946 1.657 8661
-0.438 1.950 1.651 6700
-0.446 1.985 1.669 8535
-0.448 1.996 1.667 11936
-0.449 2.000 1.661 13164
-0.453 2.017 1.665 13549
-0.458 2.040 1.672 17977
-0.459 2.045 1.666 19979
-0.462 2.055 1.665 14790
-0.467 2.078 1.672 9468
-0.469 2.089 1.670 13054
-0.470 2.093 1.664 16250
-0.471 2.098 1.658 11995
-0.473 2.108 1.656 8302
-0.476 2.119 1.654 9937
-0.477 2.123 1.648 10458
-0.481 2.140 1.650 9525
-0.499 2.221 1.697 11357
-0.500 2.226 1.690 14251
-0.498 2.217 1.674 12346
-0.487 2.170 1.633 8332
-0.487 2.168 1.622 6963
-0.510 2.269 1.680 6024
-0.514 2.286 1.682 6422
-0.516 2.297 1.679 8169
-0.517 2.302 1.672 9179
-0.521 2.319 1.674 10275
-0.523 2.330 1.671 12392
-0.524 2.334 1.664 13120
-0.528 2.352 1.665 9250
-0.539 2.402 1.688 6198
-0.542 2.413 1.684 4902
-0.541 2.411 1.673 3910
-0.566 2.521 1.731 3371
-0.570 2.538 1.732 4023
-0.568 2.530 1.716 3428
-0.565 2.514 1.696 4995
-0.564 2.512 1.685 7062
-0.568 2.530 1.685 9148
-0.569 2.534 1.678 11412
-0.572 2.545 1.674 9134
-0.576 2.563 1.674 4612
-0.596 2.654 1.718 3175
-0.600 2.672 1.717 5560
-0.603 2.683 1.713 8285
-0.605 2.694 1.709 9837
-0.605 2.692 1.697 9576
-0.606 2.697 1.689 7777
-0.607 2.701 1.681 5766
-0.609 2.712 1.676 3838
-0.618 2.750 1.687 3729
-0.616 2.741 1.671 3782
-0.621 2.766 1.674 3166
-0.650 2.893 1.733 3846
-0.649 2.891 1.720 4144
-0.649 2.888 1.708 4643
-0.645 2.872 1.688 6352
-0.644 2.870 1.676 8699
-0.644 2.867 1.663 8305
-0.643 2.865 1.651 8141
-0.666 2.965 1.693 7873
-0.667 2.970 1.684 9002
-0.668 2.974 1.675 6961
-0.672 2.992 1.673 5112
-0.675 3.004 1.667 5215
-0.676 3.008 1.658 5238
-0.676 3.012 1.649 4266
-0.676 3.009 1.636 3466
-0.696 3.097 1.668 3034
-0.700 3.116 1.666 3629
-0.699 3.113 1.653 3810
-0.700 3.117 1.643 4061
-0.701 3.122 1.634 4061
-0.705 3.140 1.631 4367
-0.709 3.158 1.628 4933
-0.731 3.254 1.661 4709
-0.732 3.258 1.651 6017
-0.731 3.255 1.638 5915
-0.732 3.260 1.628 5874
-0.733 3.264 1.619 5874
-0.734 3.268 1.609 2937
-0.145 0.651 1.688 7052
-0.146 0.655 1.686 7640
-0.147 0.659 1.684 8229
-0.149 0.667 1.689 9320
-0.150 0.671 1.687 10458
-0.151 0.676 1.685 10458
-0.151 0.677 1.676 13058
-0.152 0.681 1.674 16044
-0.153 0.686 1.672 18606
-0.154 0.690 1.670 21168
-0.155 0.694 1.667 23242
-0.157 0.702 1.672 25395
-0.157 0.703 1.663 22019
-0.158 0.707 1.661 18721
-0.159 0.715 1.666 16783
-0.160 0.719 1.664 11313
-0.159 0.713 1.640 8137
-0.162 0.724 1.652 6731
-0.167 0.750 1.692 6773
-0.167 0.751 1.683 6603
-0.168 0.755 1.681 6451
-0.170 0.763 1.685 7763
-0.173 0.775 1.697 9324
-0.172 0.772 1.681 13754
-0.173 0.776 1.678 18329
-0.173 0.777 1.669 17183
-0.174 0.781 1.666 16301
-0.176 0.789 1.671 14245
-0.179 0.801 1.682 12280
-0.180 0.809 1.687 14556
-0.181 0.813 1.684 15153
-0.183 0.821 1.689 13324
-0.185 0.830 1.693 10879
-0.189 0.846 1.711 10438
-0.189 0.846 1.702 9797
-0.190 0.851 1.699 9495
-0.191 0.855 1.697 8717
-0.193 0.867 1.708 8349
-0.193 0.868 1.698 8990
-0.194 0.868 1.689 12427
-0.194 0.869 1.679 15226
-0.196 0.877 1.683 20047
-0.198 0.889 1.694 24414
-0.200 0.898 1.698 23229
-0.201 0.902 1.695 18246
-0.199 0.890 1.666 15053
-0.199 0.891 1.656 16610
-0.201 0.903 1.667 21268
-0.203 0.911 1.671 25840
-0.205 0.920 1.675 27748
-0.207 0.928 1.679 28955
-0.208 0.933 1.676 28118
-0.209 0.937 1.673 24486
-0.210 0.941 1.670 20564
-0.211 0.946 1.667 20275
-0.213 0.954 1.671 15246
-0.210 0.942 1.642 8274
-0.210 0.942 1.632 6204
-0.197 0.881 1.530 6722
-0.198 0.890 1.534 7614
-0.199 0.894 1.532 6924
-0.201 0.902 1.535 3765
-0.198 0.888 1.507 1828
-0.198 0.888 1.497 2229
-0.200 0.896 1.501 3390
-0.202 0.904 1.505 4794
-0.202 0.904 1.496 4031
-0.201 0.903 1.486 4061
-0.202 0.907 1.484 5404
-0.203 0.911 1.481 6684
-0.204 0.915 1.478 9238
-0.205 0.918 1.475 12629
-0.207 0.927 1.479 15637
-0.207 0.930 1.476 16697
-0.208 0.934 1.473 14754
-0.209 0.938 1.470 11289
-0.210 0.942 1.467 7803
-0.212 0.950 1.471 5300
-0.215 0.963 1.480 4432
-0.217 0.972 1.484 3606
-0.218 0.976 1.481 3112
-0.218 0.979 1.478 3641
-0.219 0.983 1.475 4617
-0.221 0.992 1.478 4894
-0.246 1.105 1.618 4520
-0.247 1.109 1.615 4841
-0.249 1.118 1.618 3560
-0.259 1.161 1.664 3005
-0.251 1.127 1.611 4057
-0.266 1.194 1.687 5927
-0.268 1.203 1.690 6762
-0.252 1.129 1.588 7059
-0.253 1.133 1.585 7211
-0.254 1.138 1.581 6761
-0.255 1.142 1.578 6732
-0.257 1.151 1.580 6764
-0.257 1.155 1.577 6186
-0.275 1.234 1.664 6271
-0.276 1.238 1.660 8552
-0.275 1.232 1.644 7408
-0.273 1.227 1.629 5716
-0.278 1.246 1.643 4587
-0.279 1.250 1.639 5952
-0.280 1.254 1.635 7551
-0.280 1.254 1.626 5605
-0.280 1.258 1.622 4697
-0.281 1.262 1.618 4082
-0.283 1.271 1.620 2844
-0.286 1.281 1.622 4677
-0.291 1.306 1.641 7041
-0.292 1.310 1.637 5520
-0.288 1.293 1.610 4936
-0.289 1.297 1.606 5096
-0.291 1.307 1.608 5622
-0.292 1.311 1.604 6747
-0.296 1.326 1.612 6932
-0.297 1.330 1.608 6074
-0.309 1.387 1.661 4900
-0.313 1.402 1.668 6438
-0.312 1.401 1.658 8384
-0.313 1.406 1.654 12927
-0.314 1.410 1.650 14607
-0.315 1.414 1.645 13280
-0.315 1.413 1.635 20186
-0.316 1.417 1.631 24574
-0.317 1.421 1.627 15482
-0.318 1.426 1.622 10852
-0.319 1.430 1.618 13499
-0.320 1.434 1.614 13896
-0.321 1.438 1.609 14843
-0.322 1.442 1.605 25913
-0.323 1.446 1.601 36226
-0.323 1.451 1.596 32487
-0.324 1.455 1.592 25388
-0.325 1.459 1.587 21463
-0.326 1.463 1.583 18136
-0.327 1.467 1.578 14559
-0.329 1.477 1.579 11753
-0.329 1.475 1.570 9185
-0.303 1.360 1.452 10418
-0.304 1.364 1.448 11378
-0.305 1.367 1.444 10337
-0.304 1.365 1.435 6703
-0.335 1.501 1.552 4947
-0.336 1.505 1.548 5162
-0.336 1.509 1.543 3575
-0.309 1.386 1.423 3496
-0.376 1.685 1.686 3120
-0.377 1.690 1.680 4487
-0.378 1.694 1.675 7817
-0.380 1.704 1.675 12051
-0.381 1.708 1.670 12214
-0.385 1.725 1.675 8732
-0.385 1.729 1.670 7551
-0.386 1.733 1.665 8453
-0.389 1.743 1.665 8643
-0.390 1.748 1.659 9559
-0.392 1.758 1.659 10295
-0.394 1.768 1.659 15522
-0.395 1.773 1.654 15637
-0.399 1.789 1.658 10538
-0.400 1.793 1.653 7395
-0.407 1.827 1.672 9963
-0.408 1.832 1.667 19901
-0.408 1.830 1.656 18184
-0.409 1.834 1.651 10693
-0.415 1.863 1.665 14896
-0.416 1.867 1.659 20383
-0.420 1.884 1.663 18680
-0.422 1.894 1.662 23007
-0.423 1.899 1.656 22544
-0.427 1.915 1.660 20850
-0.429 1.926 1.659 20637
-0.432 1.936 1.658 14629
-0.433 1.940 1.652 8576
-0.441 1.976 1.670 6953
-0.443 1.986 1.669 9320
-0.445 1.997 1.667 11525
-0.446 2.001 1.661 11963
-0.450 2.018 1.665 12190
-0.455 2.041 1.672 17276
-0.456 2.045 1.666 19784
-0.458 2.056 1.665 15037
-0.464 2.079 1.672 9466
-0.466 2.090 1.670 12725
-0.467 2.094 1.664 16048
-0.468 2.098 1.658 12043
-0.470 2.109 1.656 8411
-0.473 2.120 1.654 10720
-0.474 2.124 1.648 12939
-0.476 2.135 1.646 11639
-0.478 2.145 1.644 11279
-0.496 2.227 1.690 13404
-0.495 2.218 1.674 11296
-0.484 2.171 1.633 7978
-0.484 2.169 1.622 6604
-0.508 2.276 1.685 5772
-0.510 2.287 1.682 6268
-0.512 2.298 1.679 7564
-0.515 2.309 1.677 8393
-0.517 2.320 1.674 9678
-0.520 2.331 1.671 11822
-0.521 2.335 1.664 12463
-0.525 2.352 1.665 8761
-0.536 2.403 1.688 6258
-0.538 2.414 1.684 5142
-0.539 2.418 1.677 4410
-0.559 2.508 1.723 3999
-0.565 2.533 1.728 4532
-0.564 2.530 1.716 4127
-0.564 2.528 1.705 4938
-0.563 2.526 1.693 6168
-0.564 2.530 1.685 8332
-0.567 2.541 1.682 10528
-0.568 2.546 1.674 8629
-0.570 2.557 1.670 4707
-0.591 2.648 1.714 2631
-0.598 2.680 1.721 4484
-0.598 2.684 1.713 6999
-0.601 2.695 1.709 8860
-0.600 2.693 1.697 9096
-0.601 2.697 1.689 7584
-0.604 2.709 1.684 5647
-0.612 2.747 1.695 4202
-0.610 2.738 1.679 3990
-0.611 2.742 1.671 3900
-0.614 2.753 1.667 2885
-0.645 2.894 1.733 3384
-0.645 2.892 1.720 3705
-0.646 2.896 1.711 4142
-0.641 2.873 1.688 6084
-0.640 2.871 1.676 8625
-0.640 2.868 1.663 8160
-0.639 2.866 1.651 7915
-0.661 2.966 1.693 7500
-0.662 2.971 1.684 8497
-0.663 2.975 1.675 6471
-0.666 2.986 1.669 4577
-0.670 3.005 1.667 4807
-0.671 3.009 1.658 5030
-0.672 3.013 1.649 4191
-0.671 3.011 1.636 3498
-0.691 3.098 1.668 2867
-0.690 3.096 1.655 2920
-0.693 3.107 1.649 2854
-0.720 3.230 1.697 2986
-0.721 3.235 1.687 2986
-0.702 3.148 1.635 3522
-0.708 3.173 1.635 4673
-0.726 3.255 1.661 5207
-0.727 3.259 1.651 6660
-0.726 3.256 1.638 6507
-0.727 3.261 1.628 6397
-0.728 3.265 1.619 6397
-0.729 3.269 1.609 3198
-0.143 0.651 1.688 6859
-0.143 0.656 1.686 7546
-0.145 0.663 1.691 8250
-0.146 0.668 1.689 9504
-0.147 0.672 1.687 10758
-0.148 0.676 1.685 10758
-0.148 0.677 1.676 13089
-0.149 0.682 1.674 15859
-0.150 0.686 1.672 18244
-0.151 0.690 1.670 20630
-0.152 0.695 1.667 22624
-0.153 0.699 1.665 24618
-0.154 0.703 1.663 21239
-0.155 0.708 1.661 17861
-0.157 0.716 1.666 15981
-0.158 0.720 1.664 10650
-0.156 0.714 1.640 7228
-0.159 0.728 1.659 6344
-0.163 0.747 1.685 6401
-0.164 0.751 1.683 6446
-0.165 0.756 1.681 6491
-0.167 0.764 1.685 7742
-0.170 0.779 1.704 9375
-0.169 0.772 1.681 13485
-0.170 0.777 1.678 17945
-0.170 0.777 1.669 16846
-0.171 0.782 1.666 16054
-0.173 0.790 1.671 14260
-0.175 0.802 1.682 12800
-0.177 0.810 1.687 15052
-0.178 0.814 1.684 15237
-0.180 0.822 1.689 13296
-0.183 0.834 1.700 11796
-0.185 0.846 1.711 11693
-0.185 0.847 1.702 10240
-0.185 0.847 1.692 8994
-0.187 0.856 1.697 7281
-0.192 0.876 1.721 6398
-0.191 0.872 1.705 7888
-0.190 0.869 1.689 12691
-0.190 0.869 1.679 15890
-0.192 0.878 1.683 21108
-0.195 0.890 1.694 26415
-0.197 0.898 1.698 25361
-0.198 0.903 1.695 19685
-0.198 0.903 1.686 15032
-0.196 0.895 1.663 16024
-0.198 0.904 1.667 21535
-0.200 0.912 1.671 26675
-0.202 0.921 1.675 29251
-0.203 0.929 1.679 30598
-0.204 0.934 1.676 29391
-0.205 0.938 1.673 26268
-0.206 0.942 1.670 23331
-0.207 0.947 1.667 23517
-0.209 0.955 1.671 17902
-0.209 0.955 1.661 9368
-0.207 0.947 1.639 6523
-0.194 0.886 1.537 7167
-0.195 0.890 1.534 8160
-0.197 0.899 1.538 7526
-0.198 0.903 1.535 4476
-0.198 0.907 1.533 2309
-0.194 0.884 1.491 2592
-0.195 0.892 1.495 3547
-0.198 0.905 1.505 4842
-0.198 0.905 1.496 4086
-0.199 0.908 1.493 4093
-0.199 0.908 1.484 5552
-0.200 0.912 1.481 7107
-0.200 0.915 1.478 10188
-0.202 0.924 1.482 14051
-0.203 0.927 1.479 17112
-0.204 0.931 1.476 17954
-0.205 0.935 1.473 15874
-0.205 0.939 1.470 12300
-0.206 0.943 1.467 8414
-0.207 0.946 1.464 5460
-0.211 0.964 1.480 4081
-0.213 0.973 1.484 3021
-0.215 0.981 1.487 2835
-0.215 0.980 1.478 3836
-0.215 0.984 1.475 5050
-0.217 0.993 1.478 5283
-0.218 0.996 1.475 4847
-0.243 1.110 1.615 4803
-0.245 1.119 1.618 3300
-0.259 1.181 1.689 2723
-0.246 1.123 1.605 3656
-0.260 1.190 1.681 5931
-0.264 1.204 1.690 6412
-0.247 1.130 1.588 6952
-0.248 1.134 1.585 6962
-0.249 1.139 1.581 6164
-0.250 1.143 1.578 5588
-0.265 1.211 1.653 5344
-0.269 1.231 1.668 5542
-0.270 1.235 1.664 6977
-0.270 1.234 1.654 9674
-0.270 1.233 1.644 8828
-0.269 1.228 1.629 7087
-0.273 1.247 1.643 5810
-0.274 1.251 1.639 7599
-0.275 1.256 1.635 9912
-0.275 1.255 1.626 7384
-0.276 1.259 1.622 4476
-0.278 1.268 1.624 3139
-0.280 1.278 1.626 2919
-0.283 1.292 1.634 5705
-0.286 1.307 1.641 8536
-0.286 1.306 1.632 6857
-0.282 1.289 1.604 6461
-0.283 1.293 1.600 5926
-0.284 1.297 1.596 6551
-0.286 1.307 1.598 7965
-0.289 1.322 1.606 7622
-0.289 1.320 1.596 7031
-0.286 1.308 1.575 6511
-0.286 1.307 1.565 7182
-0.287 1.311 1.561 8833
-0.289 1.321 1.563 9962
-0.291 1.330 1.565 12168
-0.293 1.340 1.566 10577
-0.310 1.414 1.635 15396
-0.310 1.418 1.631 22194
-0.311 1.423 1.627 15240
-0.311 1.421 1.617 8060
-0.314 1.437 1.624 12494
-0.315 1.441 1.619 18501
-0.315 1.439 1.609 16146
-0.315 1.438 1.599 20459
-0.317 1.448 1.601 30559
-0.318 1.452 1.596 30103
-0.319 1.456 1.592 24326
-0.320 1.460 1.587 19265
-0.320 1.464 1.583 14528
-0.321 1.468 1.578 10108
-0.323 1.478 1.579 6524
-0.297 1.357 1.457 6948
-0.298 1.361 1.452 8584
-0.299 1.365 1.448 9589
-0.299 1.368 1.444 9029
-0.299 1.366 1.435 6250
-0.329 1.502 1.552 3496
-0.331 1.512 1.553 3289
-0.303 1.383 1.427 2668
-0.304 1.387 1.423 2456
-0.369 1.687 1.686 3621
-0.370 1.691 1.680 5060
-0.371 1.695 1.675 7951
-0.373 1.706 1.675 11586
-0.374 1.710 1.670 11829
-0.378 1.726 1.675 9020
-0.379 1.730 1.670 9145
-0.380 1.735 1.665 11276
-0.382 1.745 1.665 12410
-0.383 1.749 1.659 13419
-0.385 1.760 1.659 11373
-0.387 1.770 1.659 12561
-0.388 1.774 1.654 11673
-0.392 1.790 1.658 6489
