-0.368 1.281 1.636 11620
-0.370 1.290 1.637 15405
-0.371 1.294 1.633 16143
-0.377 1.314 1.647 19787
-0.380 1.323 1.649 22354
-0.382 1.333 1.650 16855
-0.385 1.342 1.652 13629
-0.386 1.346 1.648 18623
-0.388 1.351 1.644 27443
-0.389 1.355 1.639 36041
-0.388 1.354 1.630 34730
-0.390 1.358 1.625 19052
-0.382 1.330 1.587 9576
-0.392 1.366 1.617 16962
-0.395 1.375 1.618 23833
-0.399 1.390 1.625 27842
-0.400 1.394 1.621 24721
-0.403 1.404 1.622 18389
-0.403 1.403 1.612 25750
-0.404 1.407 1.608 39359
-0.406 1.416 1.609 38481
-0.411 1.431 1.616 24104
-0.421 1.468 1.645 15798
-0.423 1.472 1.640 22362
-0.425 1.482 1.641 25214
-0.428 1.492 1.642 18987
-0.426 1.485 1.626 13947
-0.445 1.550 1.681 15291
-0.446 1.554 1.677 15007
-0.447 1.559 1.672 12311
-0.449 1.563 1.667 14519
-0.450 1.567 1.662 17243
-0.449 1.566 1.652 12359
-0.449 1.564 1.642 6721
-0.450 1.569 1.637 4782
-0.450 1.567 1.627 4139
-0.446 1.554 1.606 3391
-0.446 1.553 1.596 2909
-0.452 1.574 1.607 2702
-0.466 1.624 1.644 2957
-0.467 1.628 1.639 3509
-0.468 1.632 1.634 3609
-0.468 1.631 1.624 2657
-0.467 1.629 1.614 1607
-0.447 1.558 1.542 1800
-0.448 1.561 1.537 1666
-0.486 1.694 1.644 1291
-0.440 1.534 1.497 1520
-0.440 1.532 1.487 1938
-0.442 1.542 1.488 2115
-0.445 1.551 1.488 2393
-0.446 1.555 1.483 2106
-0.451 1.571 1.488 2163
-0.450 1.568 1.479 2778
-0.451 1.572 1.474 3607
-0.452 1.576 1.469 4191
-0.455 1.586 1.469 3886
-0.458 1.595 1.469 3959
-0.459 1.599 1.464 3773
-0.465 1.621 1.474 2296
-0.468 1.630 1.474 2510
-0.469 1.634 1.468 4426
-0.470 1.638 1.463 6114
-0.473 1.648 1.463 5095
-0.488 1.700 1.496 3965
-0.489 1.704 1.491 3103
-0.494 1.720 1.495 2407
-0.491 1.711 1.480 2793
-0.492 1.715 1.475 3221
-0.491 1.712 1.465 2913
-0.494 1.722 1.465 2982
-0.501 1.745 1.473 4002
-0.504 1.754 1.472 4381
-0.508 1.771 1.476 3202
-0.509 1.774 1.471 2385
-0.507 1.766 1.456 2089
-0.510 1.775 1.455 1765
-0.518 1.804 1.468 2725
-0.521 1.814 1.467 5080
-0.522 1.818 1.461 5760
-0.525 1.828 1.460 5505
-0.621 2.165 1.690 4738
-0.621 2.163 1.679 4600
-0.620 2.161 1.668 5212
-0.623 2.172 1.666 5012
-0.635 2.214 1.685 5931
-0.633 2.206 1.670 6694
-0.634 2.210 1.663 6533
-0.635 2.214 1.656 6700
-0.638 2.225 1.654 5507
-0.649 2.261 1.668 5692
-0.667 2.323 1.699 8157
-0.670 2.334 1.697 11471
-0.673 2.345 1.694 11227
-0.678 2.362 1.695 9558
-0.679 2.366 1.688 6907
-0.678 2.364 1.676 5886
-0.682 2.375 1.673 7453
-0.685 2.386 1.670 8952
-0.686 2.390 1.662 8942
-0.685 2.388 1.651 7143
-0.705 2.457 1.684 6355
-0.706 2.461 1.677 7944
-0.713 2.485 1.681 7157
-0.726 2.529 1.698 9255
-0.729 2.540 1.694 8206
-0.732 2.551 1.690 7638
-0.741 2.582 1.698 8974
-0.735 2.560 1.674 7950
-0.732 2.551 1.659 8135
-0.735 2.561 1.655 6496
-0.738 2.572 1.651 6044
-0.743 2.590 1.650 7231
-0.746 2.601 1.646 5512
-0.753 2.625 1.650 4462
-0.760 2.649 1.653 4824
-0.777 2.707 1.675 6024
-0.780 2.718 1.670 6778
-0.781 2.722 1.662 7582
-0.782 2.727 1.654 6365
-0.809 2.818 1.693 5315
-0.808 2.816 1.681 6509
-0.809 2.820 1.672 7875
-0.811 2.825 1.663 7759
-0.812 2.829 1.655 7642
-0.815 2.840 1.650 5693
-0.847 2.953 1.698 4841
-0.849 2.957 1.689 4223
-0.862 3.002 1.701 3763
-0.865 3.014 1.695 5067
-0.866 3.018 1.686 6372
-0.869 3.029 1.680 5941
-0.873 3.040 1.674 5712
-0.876 3.051 1.668 4044
-0.903 3.145 1.703 2827
-0.876 3.053 1.646 3295
-0.877 3.057 1.637 4238
-0.879 3.061 1.627 4238
-0.882 3.072 1.621 4398
-0.889 3.097 1.622 4960
-0.922 3.212 1.664 4065
-0.921 3.210 1.651 4639
-0.924 3.221 1.645 4299
-0.920 3.204 1.625 4021
-0.921 3.208 1.615 4021
-0.922 3.212 1.606 2010
-0.180 0.635 1.674 9002
-0.182 0.642 1.679 9654
-0.185 0.650 1.684 10690
-0.187 0.657 1.689 9961
-0.188 0.662 1.687 9489
-0.189 0.666 1.685 9489
-0.190 0.670 1.683 7879
-0.192 0.675 1.681 6269
-0.193 0.679 1.679 6723
-0.193 0.680 1.670 7295
-0.196 0.691 1.682 9310
-0.197 0.695 1.680 11761
-0.199 0.699 1.677 11088
-0.201 0.707 1.682 10407
-0.202 0.711 1.680 9949
-0.203 0.716 1.678 8201
-0.204 0.720 1.676 6790
-0.206 0.724 1.673 5667
-0.207 0.729 1.671 4545
-0.206 0.726 1.655 4369
-0.206 0.727 1.645 4613
-0.206 0.727 1.636 6010
-0.207 0.728 1.627 7546
-0.208 0.732 1.625 8037
-0.209 0.736 1.622 8686
-0.211 0.744 1.627 9856
-0.214 0.755 1.639 10904
-0.217 0.763 1.643 10578
-0.219 0.771 1.648 12223
-0.221 0.779 1.652 15280
-0.223 0.787 1.657 14004
-0.225 0.791 1.654 11629
-0.227 0.799 1.659 9852
-0.229 0.807 1.663 8558
-0.231 0.815 1.667 8889
-0.234 0.823 1.672 9499
-0.233 0.820 1.655 7741
-0.245 0.862 1.721 7426
-0.246 0.867 1.719 7332
-0.247 0.871 1.716 6571
-0.241 0.848 1.666 6696
-0.248 0.872 1.697 10089
-0.249 0.876 1.694 13891
-0.250 0.881 1.691 17446
-0.251 0.885 1.689 21956
-0.254 0.893 1.693 23308
-0.255 0.898 1.690 22290
-0.255 0.898 1.680 26431
-0.255 0.898 1.671 32023
-0.256 0.903 1.668 32620
-0.258 0.907 1.665 28267
-0.259 0.911 1.662 23318
-0.260 0.915 1.660 22241
-0.262 0.924 1.663 18864
-0.266 0.936 1.674 17703
-0.268 0.945 1.678 21379
-0.273 0.962 1.694 28728
-0.274 0.966 1.691 32554
-0.276 0.970 1.688 29184
-0.278 0.979 1.692 23164
-0.279 0.983 1.689 19782
-0.282 0.992 1.692 18948
-0.284 1.001 1.696 15728
-0.288 1.014 1.706 9005
-0.289 1.018 1.703 11003
-0.289 1.018 1.693 16413
-0.291 1.027 1.696 19595
-0.294 1.035 1.700 19524
-0.295 1.040 1.696 15229
-0.295 1.040 1.687 18220
-0.295 1.039 1.677 22251
-0.298 1.048 1.680 22725
-0.300 1.057 1.683 22553
-0.301 1.061 1.680 24671
-0.303 1.066 1.677 27516
-0.304 1.070 1.674 20326
-0.305 1.074 1.670 16751
-0.308 1.083 1.673 21132
-0.307 1.083 1.664 26718
-0.310 1.092 1.666 30188
-0.312 1.100 1.669 26577
-0.314 1.105 1.666 15869
-0.314 1.104 1.656 9240
-0.313 1.104 1.647 10693
-0.315 1.108 1.643 17776
-0.317 1.117 1.646 32597
-0.318 1.121 1.643 47326
-0.321 1.130 1.645 51051
-0.322 1.134 1.642 42023
-0.323 1.139 1.638 40154
-0.326 1.148 1.641 38284
-0.328 1.157 1.643 22593
-0.332 1.170 1.652 17509
-0.335 1.179 1.655 29445
-0.335 1.179 1.645 41987
-0.335 1.178 1.635 43995
-0.337 1.187 1.637 41937
-0.340 1.196 1.640 33495
-0.344 1.210 1.648 19491
-0.345 1.215 1.644 17025
-0.345 1.214 1.635 18120
-0.353 1.243 1.661 17168
-0.354 1.247 1.657 20061
-0.352 1.241 1.641 21710
-0.358 1.261 1.655 26835
-0.361 1.270 1.657 33387
-0.362 1.274 1.653 24445
-0.364 1.284 1.655 9937
-0.363 1.278 1.640 9319
-0.364 1.282 1.636 10109
-0.367 1.291 1.637 13673
-0.372 1.311 1.651 15657
-0.373 1.315 1.647 18665
-0.376 1.324 1.649 19879
-0.379 1.334 1.650 15514
-0.381 1.343 1.652 13497
-0.383 1.347 1.648 18835
-0.384 1.352 1.644 29303
-0.385 1.356 1.639 39586
-0.385 1.355 1.630 39878
-0.384 1.354 1.620 21788
-0.378 1.331 1.587 9362
-0.388 1.367 1.617 14488
-0.392 1.382 1.624 21365
-0.395 1.391 1.625 25207
-0.396 1.396 1.621 21465
-0.394 1.389 1.606 18329
-0.399 1.404 1.612 26198
-0.401 1.413 1.614 39122
-0.402 1.417 1.609 38861
-0.404 1.422 1.605 25772
-0.405 1.426 1.601 15527
-0.417 1.468 1.635 20437
-0.421 1.483 1.641 19904
-0.424 1.493 1.642 16058
-0.441 1.553 1.692 15530
-0.442 1.557 1.687 23358
-0.442 1.556 1.677 23548
-0.443 1.560 1.672 20057
-0.444 1.564 1.667 18662
-0.445 1.569 1.662 17327
-0.445 1.567 1.652 10802
-0.446 1.571 1.647 5373
-0.449 1.581 1.648 4435
-0.449 1.580 1.638 3388
-0.438 1.544 1.596 2261
-0.440 1.548 1.591 1932
-0.455 1.604 1.633 2187
-0.460 1.619 1.639 2630
-0.463 1.629 1.639 3346
-0.464 1.633 1.634 3682
-0.463 1.632 1.624 2840
-0.465 1.636 1.619 1905
-0.443 1.559 1.542 1417
-0.442 1.557 1.532 1311
-0.480 1.689 1.639 1122
-0.434 1.530 1.492 1632
-0.435 1.533 1.487 2127
-0.436 1.537 1.483 2339
-0.441 1.553 1.488 2245
-0.444 1.562 1.488 1830
-0.446 1.572 1.488 2024
-0.446 1.570 1.479 2857
-0.445 1.568 1.469 3813
-0.448 1.577 1.469 4373
-0.451 1.587 1.469 4373
-0.453 1.597 1.469 4874
-0.453 1.594 1.459 4076
-0.452 1.592 1.449 1908
-0.463 1.632 1.474 2041
-0.464 1.635 1.468 3815
-0.465 1.639 1.463 5179
-0.468 1.649 1.463 4246
-0.481 1.695 1.491 4376
-0.484 1.705 1.491 3455
-0.483 1.703 1.481 2791
-0.486 1.713 1.480 2801
-0.489 1.722 1.480 2816
-0.490 1.726 1.475 2303
-0.491 1.730 1.469 2542
-0.498 1.752 1.478 4051
-0.500 1.762 1.477 4746
-0.503 1.772 1.476 3206
-0.513 1.807 1.494 2061
-0.502 1.767 1.456 1794
-0.520 1.833 1.496 1615
-0.514 1.812 1.472 2980
-0.515 1.815 1.467 5548
-0.518 1.825 1.466 6144
-0.519 1.829 1.460 5803
-0.619 2.180 1.699 4948
-0.617 2.171 1.683 4289
-0.616 2.169 1.672 4379
-0.619 2.180 1.670 4298
-0.629 2.216 1.685 6463
-0.630 2.220 1.678 8199
-0.635 2.237 1.680 8841
-0.636 2.242 1.673 7629
-0.632 2.227 1.654 5763
-0.666 2.346 1.724 5623
-0.662 2.331 1.704 8894
-0.663 2.336 1.697 12664
-0.666 2.347 1.694 12612
-0.671 2.364 1.695 10350
-0.672 2.368 1.688 7093
-0.672 2.366 1.676 5915
-0.675 2.377 1.673 7427
-0.678 2.388 1.670 8919
-0.679 2.392 1.662 8999
-0.680 2.396 1.655 6887
-0.696 2.453 1.680 6477
-0.699 2.463 1.677 7869
-0.719 2.533 1.709 7067
-0.721 2.538 1.702 9425
-0.722 2.542 1.694 8544
-0.725 2.553 1.690 8049
-0.734 2.584 1.698 9449
-0.727 2.562 1.674 8293
-0.725 2.553 1.659 8321
-0.728 2.564 1.655 6738
-0.731 2.574 1.651 6327
-0.736 2.592 1.650 7756
-0.741 2.609 1.650 6049
-0.748 2.634 1.654 5168
-0.772 2.718 1.691 4933
-0.773 2.723 1.682 6299
-0.772 2.720 1.670 7149
-0.774 2.724 1.662 8017
-0.775 2.729 1.654 6577
-0.801 2.821 1.693 5267
-0.800 2.818 1.681 6910
-0.801 2.823 1.672 8558
-0.803 2.827 1.663 8264
-0.804 2.831 1.655 7969
-0.807 2.842 1.650 5997
-0.839 2.955 1.698 5213
-0.840 2.960 1.689 4311
-0.853 3.005 1.701 3519
-0.856 3.016 1.695 4579
-0.858 3.020 1.686 5671
-0.861 3.032 1.680 5536
-0.864 3.043 1.674 5501
-0.865 3.047 1.665 4156
-0.868 3.058 1.659 2822
-0.868 3.055 1.646 3436
-0.867 3.053 1.633 4073
-0.868 3.057 1.624 4073
-0.873 3.075 1.621 4086
-0.880 3.100 1.622 4631
-0.911 3.208 1.661 4105
-0.912 3.212 1.651 4218
-0.911 3.210 1.638 3813
-0.913 3.214 1.628 3423
-0.914 3.218 1.619 3423
-0.915 3.222 1.609 1711
-0.179 0.639 1.681 8962
-0.180 0.643 1.679 9396
-0.183 0.650 1.684 10168
-0.185 0.658 1.689 9496
-0.186 0.662 1.687 9083
-0.187 0.667 1.685 9083
-0.188 0.671 1.683 7506
-0.190 0.675 1.681 5928
-0.191 0.680 1.679 6658
-0.191 0.681 1.670 7517
-0.193 0.688 1.675 9604
-0.195 0.696 1.680 12126
-0.196 0.700 1.677 11690
-0.198 0.704 1.675 11248
-0.200 0.712 1.680 10714
-0.201 0.716 1.678 8785
-0.202 0.721 1.676 7260
-0.203 0.725 1.673 6214
-0.205 0.729 1.671 5168
-0.204 0.726 1.655 4866
-0.203 0.724 1.638 4890
-0.204 0.728 1.636 6204
-0.204 0.728 1.627 7625
-0.206 0.733 1.625 8258
-0.207 0.737 1.622 9027
-0.209 0.745 1.627 9706
-0.211 0.752 1.632 9872
-0.214 0.764 1.643 9538
-0.217 0.772 1.648 11304
-0.219 0.780 1.652 14170
-0.220 0.784 1.650 12722
-0.222 0.792 1.654 10355
-0.224 0.800 1.659 8944
-0.227 0.808 1.663 8142
-0.230 0.820 1.674 8315
-0.232 0.828 1.679 8876
-0.239 0.851 1.710 7284
-0.242 0.863 1.721 8053
-0.244 0.868 1.719 7747
-0.246 0.876 1.723 6775
-0.245 0.872 1.706 6148
-0.245 0.873 1.697 9362
-0.246 0.877 1.694 12518
-0.247 0.882 1.691 15578
-0.249 0.886 1.689 20278
-0.251 0.894 1.693 22062
-0.252 0.899 1.690 20933
-0.251 0.895 1.674 25310
-0.252 0.899 1.671 31320
-0.254 0.903 1.668 31988
-0.255 0.908 1.665 27789
-0.257 0.916 1.669 22926
-0.257 0.916 1.660 21963
-0.260 0.925 1.663 18587
-0.263 0.937 1.674 17192
-0.265 0.946 1.678 21668
-0.269 0.958 1.688 28856
-0.271 0.967 1.691 32243
-0.273 0.971 1.688 28764
-0.274 0.976 1.685 23592
-0.276 0.984 1.689 21050
-0.279 0.993 1.692 19827
-0.281 1.001 1.696 16255
-0.285 1.014 1.706 8946
-0.286 1.019 1.703 10381
-0.286 1.019 1.693 15500
-0.288 1.027 1.696 18950
-0.291 1.036 1.700 18921
-0.291 1.036 1.690 16146
-0.292 1.040 1.687 20578
-0.292 1.040 1.677 24568
-0.294 1.049 1.680 24254
-0.297 1.058 1.683 22286
-0.298 1.062 1.680 22456
-0.299 1.067 1.677 22631
-0.301 1.071 1.674 15709
-0.303 1.080 1.677 16285
-0.304 1.084 1.673 23217
-0.304 1.084 1.664 28082
-0.307 1.093 1.666 30470
-0.309 1.101 1.669 26246
-0.312 1.110 1.672 15958
-0.310 1.105 1.656 10532
-0.310 1.105 1.647 13245
-0.310 1.104 1.637 21200
-0.314 1.118 1.646 37058
-0.315 1.122 1.643 51067
-0.317 1.131 1.645 53543
-0.317 1.131 1.636 45705
-0.320 1.140 1.638 42850
-0.322 1.148 1.641 39408
-0.325 1.158 1.643 22280
-0.329 1.171 1.652 17945
-0.331 1.180 1.655 30660
-0.331 1.180 1.645 43104
-0.331 1.179 1.635 44321
-0.334 1.188 1.637 41210
-0.336 1.197 1.640 31765
-0.340 1.211 1.648 18150
-0.341 1.216 1.644 15778
-0.341 1.215 1.635 18222
-0.348 1.239 1.655 20896
-0.350 1.248 1.657 25173
-0.349 1.242 1.641 26071
-0.354 1.262 1.655 30629
-0.357 1.271 1.657 36747
-0.358 1.275 1.653 27382
-0.361 1.285 1.655 12408
-0.362 1.289 1.651 9809
-0.362 1.288 1.641 8577
-0.363 1.292 1.637 11741
-0.368 1.312 1.651 15944
-0.369 1.316 1.647 16415
-0.372 1.325 1.649 15747
-0.375 1.335 1.650 14035
-0.377 1.344 1.652 13438
-0.377 1.343 1.642 17975
-0.378 1.347 1.638 27680
-0.381 1.357 1.639 38740
-0.381 1.356 1.630 42332
-0.382 1.360 1.625 26601
-0.384 1.369 1.627 15350
-0.389 1.384 1.634 17780
-0.390 1.388 1.630 17918
-0.391 1.393 1.625 19236
-0.392 1.397 1.621 19128
-0.390 1.390 1.606 22287
-0.394 1.405 1.612 26821
-0.397 1.415 1.614 36898
-0.398 1.419 1.609 35931
-0.399 1.423 1.605 26098
-0.401 1.427 1.601 17573
-0.411 1.464 1.629 17632
-0.415 1.479 1.636 15361
-0.418 1.489 1.636 13857
-0.436 1.554 1.692 18428
-0.437 1.558 1.687 28351
-0.437 1.557 1.677 29350
-0.438 1.561 1.672 25440
-0.441 1.571 1.672 21616
-0.442 1.576 1.668 17339
-0.442 1.574 1.657 10540
-0.443 1.578 1.653 5336
-0.444 1.583 1.648 4440
-0.445 1.587 1.643 3370
-0.426 1.517 1.569 2128
-0.425 1.515 1.560 1842
-0.452 1.611 1.639 1918
-0.426 1.517 1.545 2427
-0.456 1.625 1.634 3013
-0.457 1.629 1.629 3515
-0.457 1.627 1.619 2878
-0.461 1.643 1.624 2034
-0.461 1.641 1.614 1336
-0.432 1.541 1.517 1118
-0.430 1.533 1.502 1261
-0.430 1.531 1.492 1774
-0.431 1.535 1.487 2070
-0.432 1.538 1.483 1997
-0.435 1.548 1.483 1617
-0.439 1.564 1.488 1576
-0.440 1.567 1.483 2263
-0.441 1.571 1.479 3111
-0.440 1.569 1.469 3974
-0.441 1.573 1.464 4409
-0.446 1.588 1.469 4705
-0.449 1.598 1.469 5541
-0.448 1.596 1.459 4258
-0.447 1.593 1.449 1801
-0.460 1.639 1.478 1682
-0.459 1.637 1.468 2984
-0.461 1.641 1.463 3930
-0.473 1.687 1.492 4060
-0.476 1.697 1.491 4479
-0.477 1.700 1.486 3593
-0.478 1.704 1.481 3037
-0.481 1.714 1.480 2810
-0.484 1.724 1.480 2656
-0.487 1.734 1.479 2117
-0.488 1.738 1.474 2259
-0.494 1.760 1.482 3783
-0.497 1.770 1.482 4708
-0.500 1.780 1.481 3149
-0.508 1.808 1.494 2010
-0.496 1.768 1.456 1656
-0.515 1.835 1.496 1940
-0.511 1.820 1.477 3268
-0.510 1.817 1.467 5682
-0.513 1.827 1.466 6202
-0.514 1.831 1.460 5835
-0.614 2.188 1.703 4998
-0.615 2.192 1.697 4381
-0.611 2.177 1.677 3796
-0.620 2.207 1.688 4275
-0.623 2.218 1.685 6800
-0.626 2.228 1.683 9525
-0.630 2.246 1.685 10889
-0.630 2.243 1.673 9314
-0.627 2.235 1.658 5960
-0.659 2.348 1.724 6209
-0.657 2.340 1.708 9382
-0.658 2.344 1.701 13321
-0.659 2.349 1.694 13508
-0.664 2.366 1.695 10783
-0.665 2.370 1.688 7236
-0.665 2.368 1.676 6054
-0.668 2.379 1.673 7666
-0.671 2.390 1.670 9181
-0.672 2.394 1.662 9207
-0.675 2.405 1.659 6803
-0.689 2.455 1.680 6362
-0.690 2.459 1.673 7461
-0.714 2.542 1.713 6622
-0.713 2.540 1.702 8965
-0.714 2.544 1.694 8324
-0.717 2.555 1.690 7956
-0.726 2.586 1.698 9378
-0.722 2.570 1.678 8170
-0.717 2.555 1.659 8087
-0.720 2.566 1.655 6660
-0.723 2.577 1.651 6317
-0.728 2.594 1.650 7885
-0.733 2.612 1.650 6337
-0.740 2.636 1.654 5713
-0.766 2.727 1.695 5443
-0.767 2.732 1.686 6577
-0.766 2.729 1.674 7333
-0.765 2.727 1.662 8148
-0.767 2.731 1.654 6571
-0.791 2.816 1.689 5375
-0.792 2.821 1.681 7265
-0.793 2.825 1.672 9156
-0.794 2.829 1.663 8704
-0.795 2.833 1.655 8253
-0.798 2.844 1.650 6242
-0.828 2.951 1.694 5755
-0.830 2.955 1.685 4555
-0.827 2.946 1.669 3458
-0.847 3.019 1.695 4108
-0.850 3.030 1.689 5048
-0.852 3.034 1.680 5143
-0.855 3.045 1.674 5275
-0.856 3.050 1.665 4309
-0.857 3.054 1.655 3344
-0.858 3.058 1.646 3682
-0.858 3.055 1.633 4036
-0.859 3.059 1.624 4036
-0.862 3.071 1.618 3889
-0.900 3.207 1.671 4399
-0.899 3.204 1.658 4205
-0.900 3.208 1.648 4187
-0.902 3.212 1.638 3719
-0.905 3.223 1.632 3281
-0.906 3.228 1.622 3281
-0.907 3.232 1.612 1640
-0.177 0.639 1.681 8661
-0.179 0.643 1.679 9028
-0.181 0.651 1.684 9700
-0.183 0.658 1.689 9350
-0.185 0.666 1.694 9295
-0.186 0.670 1.692 9295
-0.186 0.671 1.683 7691
-0.188 0.676 1.681 6118
-0.189 0.680 1.679 6962
-0.189 0.681 1.670 7865
-0.191 0.689 1.675 10100
-0.193 0.696 1.680 12693
-0.195 0.701 1.677 12287
-0.196 0.705 1.675 11899
-0.198 0.713 1.680 11344
-0.199 0.717 1.678 8982
-0.199 0.718 1.669 7082
-0.200 0.722 1.666 6399
-0.202 0.726 1.664 5716
-0.201 0.724 1.648 5336
-0.201 0.724 1.638 5220
-0.202 0.728 1.636 6451
-0.202 0.729 1.627 7771
-0.204 0.733 1.625 8553
-0.205 0.737 1.622 9421
-0.207 0.745 1.627 9685
-0.209 0.753 1.632 9208
-0.212 0.764 1.643 8768
-0.215 0.776 1.655 10723
-0.217 0.780 1.652 13302
-0.218 0.784 1.650 11559
-0.219 0.789 1.647 9083
-0.222 0.800 1.659 7909
-0.225 0.812 1.670 7822
-0.228 0.820 1.674 8044
-0.231 0.832 1.685 8686
-0.236 0.852 1.710 7921
-0.240 0.864 1.721 8715
-0.241 0.868 1.719 8112
-0.243 0.876 1.723 6908
-0.246 0.885 1.727 6174
-0.243 0.874 1.697 8644
-0.244 0.878 1.694 11267
-0.245 0.882 1.691 13803
-0.246 0.887 1.689 18667
-0.247 0.891 1.686 20852
-0.250 0.899 1.690 19346
-0.249 0.896 1.674 23561
-0.250 0.900 1.671 29563
-0.251 0.904 1.668 30303
-0.252 0.908 1.665 26250
-0.255 0.917 1.669 21525
-0.255 0.917 1.660 20737
-0.257 0.925 1.663 17815
-0.260 0.938 1.674 16524
-0.263 0.946 1.678 21363
-0.266 0.959 1.688 28313
-0.269 0.968 1.691 31163
-0.270 0.972 1.688 27860
-0.271 0.976 1.685 24218
-0.273 0.985 1.689 22811
-0.276 0.994 1.692 21229
-0.277 0.998 1.689 17110
-0.279 1.007 1.693 8961
-0.284 1.024 1.709 9482
-0.283 1.020 1.693 14089
-0.286 1.028 1.696 17643
-0.288 1.037 1.700 17999
-0.288 1.037 1.690 16194
-0.288 1.037 1.680 21694
-0.289 1.041 1.677 25998
-0.292 1.050 1.680 25592
-0.294 1.059 1.683 22293
-0.296 1.068 1.686 20599
-0.296 1.067 1.677 18962
-0.298 1.072 1.674 14632
-0.300 1.081 1.677 18156
-0.301 1.085 1.673 24137
-0.302 1.089 1.670 27063
-0.304 1.093 1.666 27313
-0.306 1.102 1.669 22417
-0.309 1.111 1.672 15950
-0.307 1.106 1.656 14705
-0.307 1.106 1.647 19100
-0.308 1.110 1.643 27276
-0.311 1.119 1.646 41655
-0.312 1.123 1.643 53563
-0.313 1.127 1.639 54741
-0.314 1.131 1.636 47475
-0.315 1.136 1.632 43130
-0.318 1.145 1.635 37604
-0.320 1.154 1.637 20218
-0.326 1.172 1.652 17018
-0.327 1.177 1.648 30895
-0.328 1.181 1.645 42940
-0.329 1.185 1.641 42715
-0.330 1.189 1.637 38406
-0.333 1.198 1.640 28567
-0.337 1.212 1.648 17394
-0.338 1.217 1.644 15889
-0.338 1.216 1.635 18142
-0.344 1.240 1.655 24968
-0.345 1.244 1.651 30980
-0.345 1.243 1.641 29507
-0.352 1.268 1.661 32813
-0.353 1.272 1.657 38753
-0.353 1.271 1.647 29781
-0.357 1.286 1.655 14000
-0.358 1.290 1.651 10171
-0.356 1.284 1.636 9669
-0.363 1.309 1.655 12539
-0.365 1.313 1.651 16188
-0.356 1.281 1.606 14232
-0.357 1.285 1.602 11748
-0.371 1.336 1.650 11924
-0.374 1.345 1.652 12366
-0.369 1.329 1.625 17017
-0.374 1.349 1.638 23757
-0.377 1.358 1.639 34528
-0.377 1.357 1.630 42356
-0.378 1.361 1.625 30587
-0.382 1.376 1.633 23015
-0.383 1.380 1.628 22399
-0.386 1.390 1.630 14248
-0.388 1.399 1.631 11767
-0.388 1.398 1.621 16541
-0.386 1.391 1.606 24573
-0.390 1.406 1.612 25841
-0.393 1.416 1.614 32431
-0.394 1.420 1.609 30139
-0.394 1.418 1.599 24017
-0.397 1.428 1.601 19624
-0.405 1.460 1.624 15997
-0.408 1.469 1.625 13714
-0.414 1.490 1.636 12110
-0.432 1.555 1.692 20745
-0.433 1.560 1.687 31276
-0.433 1.558 1.677 32743
-0.434 1.563 1.672 28982
-0.437 1.572 1.672 23423
-0.438 1.577 1.668 17062
-0.437 1.575 1.657 10120
-0.439 1.580 1.653 4974
-0.441 1.590 1.653 4025
-0.439 1.582 1.638 3314
-0.420 1.512 1.564 2353
-0.418 1.505 1.549 2522
-0.417 1.503 1.539 2410
-0.420 1.513 1.540 2791
-0.452 1.626 1.634 2614
-0.453 1.630 1.629 3120
-0.451 1.623 1.614 2631
-0.457 1.644 1.624 1921
-0.422 1.521 1.506 1478
-0.423 1.524 1.502 1462
-0.423 1.522 1.492 1435
-0.425 1.532 1.492 1505
-0.425 1.530 1.482 1690
-0.426 1.534 1.478 1593
-0.430 1.549 1.483 1159
-0.434 1.565 1.488 1559
-0.436 1.569 1.483 2631
-0.437 1.572 1.479 3409
-0.436 1.570 1.469 3927
-0.437 1.574 1.464 4109
-0.441 1.589 1.469 4790
-0.444 1.599 1.469 6044
-0.445 1.603 1.464 4394
-0.443 1.595 1.449 1815
-0.455 1.640 1.478 1160
-0.455 1.638 1.468 2077
-0.458 1.648 1.468 2747
-0.467 1.682 1.487 3987
-0.470 1.692 1.487 4428
-0.471 1.696 1.481 3569
-0.472 1.699 1.476 3127
-0.476 1.715 1.480 2718
-0.484 1.744 1.494 2681
-0.487 1.754 1.493 2494
-0.486 1.751 1.483 2264
-0.489 1.761 1.482 3516
-0.492 1.771 1.482 4510
-0.495 1.781 1.481 2876
-0.504 1.816 1.498 1748
-0.509 1.832 1.502 1725
-0.510 1.836 1.496 2297
-0.507 1.827 1.482 3658
-0.507 1.825 1.471 5686
-0.508 1.828 1.466 5748
-0.509 1.832 1.460 5266
-0.608 2.189 1.703 4787
-0.611 2.200 1.701 4468
-0.612 2.204 1.694 3671
-0.615 2.215 1.692 4316
-0.616 2.220 1.685 6947
-0.621 2.237 1.687 10405
-0.624 2.247 1.685 12387
-0.623 2.245 1.673 10616
-0.623 2.243 1.662 6216
-0.653 2.350 1.724 6773
-0.650 2.342 1.708 9884
-0.651 2.346 1.701 13887
-0.653 2.350 1.694 14287
-0.656 2.361 1.691 11139
-0.659 2.372 1.688 7444
-0.660 2.376 1.680 6539
-0.661 2.381 1.673 8211
-0.664 2.391 1.670 9691
-0.667 2.402 1.667 9653
-0.670 2.413 1.663 6916
-0.682 2.457 1.680 6049
-0.683 2.461 1.673 6686
-0.706 2.544 1.713 5777
-0.706 2.542 1.702 7946
-0.707 2.546 1.694 7706
-0.710 2.557 1.690 7564
-0.720 2.595 1.702 8971
-0.720 2.592 1.690 7996
-0.712 2.563 1.663 7658
-0.713 2.568 1.655 6374
-0.718 2.585 1.655 6102
-0.723 2.603 1.654 7761
-0.726 2.614 1.650 6395
-0.733 2.638 1.654 6122
-0.758 2.729 1.695 5852
-0.759 2.734 1.686 6616
-0.758 2.731 1.674 7121
-0.758 2.729 1.662 7781
-0.757 2.726 1.650 6130
-0.783 2.819 1.689 5592
-0.784 2.823 1.681 7701
-0.785 2.827 1.672 9811
-0.786 2.831 1.663 9216
-0.787 2.836 1.655 8621
-0.790 2.847 1.650 6584
-0.820 2.953 1.694 6101
-0.819 2.951 1.682 4968
-0.817 2.941 1.666 4286
-0.839 3.021 1.695 3534
-0.842 3.032 1.689 4323
-0.843 3.036 1.680 4668
-0.844 3.041 1.671 5013
-0.847 3.052 1.665 4499
-0.849 3.056 1.655 4073
-0.850 3.060 1.646 4126
-0.851 3.065 1.637 4178
-0.852 3.069 1.627 4178
-0.855 3.080 1.621 3784
-0.891 3.209 1.671 4471
-0.888 3.199 1.655 4257
-0.888 3.197 1.642 4280
-0.900 3.243 1.651 3726
-0.903 3.254 1.644 4103
-0.905 3.258 1.634 4103
-0.906 3.262 1.625 2051
-0.175 0.636 1.674 7657
-0.177 0.644 1.679 8160
-0.179 0.651 1.684 8924
-0.181 0.659 1.689 8804
-0.183 0.663 1.687 8983
-0.184 0.667 1.685 8983
-0.185 0.672 1.683 7666
-0.186 0.676 1.681 6349
-0.187 0.680 1.679 7218
-0.189 0.685 1.677 8086
-0.190 0.689 1.675 10194
-0.192 0.697 1.680 12517
-0.193 0.701 1.677 12179
-0.194 0.705 1.675 11860
-0.196 0.713 1.680 11072
-0.198 0.717 1.678 8757
-0.198 0.718 1.669 6945
-0.199 0.722 1.666 6503
-0.199 0.723 1.657 6092
-0.199 0.724 1.648 5807
-0.200 0.725 1.638 5682
-0.200 0.725 1.629 6569
-0.201 0.729 1.627 7618
-0.202 0.734 1.625 8578
-0.204 0.741 1.629 9626
-0.204 0.742 1.620 9457
-0.207 0.750 1.625 8360
-0.211 0.765 1.643 7700
-0.215 0.780 1.662 9910
-0.216 0.784 1.659 12211
-0.216 0.785 1.650 10282
-0.216 0.785 1.640 7840
-0.222 0.805 1.666 7217
-0.224 0.813 1.670 7935
-0.227 0.824 1.681 7960
-0.229 0.833 1.685 8418
-0.235 0.852 1.710 7765
-0.237 0.860 1.714 8401
-0.239 0.869 1.719 7825
-0.242 0.877 1.723 7463
-0.242 0.878 1.713 7467
-0.242 0.878 1.704 8128
-0.243 0.882 1.701 8881
-0.244 0.887 1.698 10916
-0.244 0.887 1.689 16513
-0.246 0.891 1.686 19828
-0.247 0.896 1.683 18203
-0.247 0.896 1.674 22102
-0.248 0.900 1.671 27654
-0.249 0.905 1.668 28864
-0.250 0.909 1.665 25552
-0.253 0.917 1.669 21130
-0.253 0.917 1.660 20714
-0.255 0.926 1.663 17835
-0.259 0.938 1.674 16389
-0.261 0.947 1.678 20746
-0.264 0.960 1.688 26405
-0.267 0.968 1.691 28389
-0.268 0.972 1.688 25831
-0.269 0.977 1.685 25105
-0.271 0.985 1.689 25940
-0.273 0.990 1.686 24217
-0.275 0.998 1.689 18971
-0.277 1.007 1.693 9278
-0.282 1.024 1.709 8311
-0.281 1.020 1.693 12401
-0.283 1.029 1.696 15400
-0.286 1.038 1.700 16514
-0.287 1.042 1.696 16168
-0.287 1.042 1.687 21569
-0.287 1.042 1.677 25098
-0.289 1.051 1.680 24941
-0.292 1.059 1.683 20940
-0.294 1.068 1.686 17874
-0.295 1.073 1.683 15902
-0.297 1.077 1.680 14499
-0.298 1.081 1.677 18796
-0.299 1.085 1.673 22994
-0.300 1.090 1.670 25514
-0.301 1.094 1.666 27056
-0.304 1.103 1.669 24485
-0.306 1.112 1.672 18051
-0.305 1.107 1.656 18493
-0.306 1.111 1.653 25296
-0.306 1.111 1.643 32164
-0.308 1.119 1.646 43617
-0.310 1.124 1.643 53925
-0.311 1.128 1.639 54862
-0.312 1.132 1.636 50176
-0.313 1.136 1.632 45352
-0.315 1.145 1.635 37201
-0.317 1.149 1.631 20105
-0.323 1.173 1.652 15345
-0.326 1.182 1.655 28715
-0.325 1.181 1.645 38985
-0.327 1.186 1.641 36348
-0.328 1.190 1.637 31131
-0.332 1.204 1.646 24413
-0.334 1.213 1.648 17278
-0.334 1.212 1.638 16869
-0.336 1.221 1.641 18581
-0.342 1.241 1.655 29191
-0.343 1.245 1.651 37665
-0.343 1.244 1.641 33915
-0.348 1.263 1.655 31986
-0.349 1.268 1.651 36707
-0.350 1.272 1.647 30308
-0.350 1.271 1.638 17028
-0.348 1.265 1.622 11532
-0.351 1.274 1.624 14858
-0.354 1.284 1.626 17350
-0.363 1.319 1.657 17506
-0.352 1.276 1.600 16921
-0.353 1.280 1.596 12048
-0.368 1.337 1.650 10522
-0.369 1.341 1.646 11718
-0.366 1.329 1.625 15318
-0.372 1.349 1.638 17960
-0.373 1.353 1.634 27673
-0.374 1.358 1.630 40069
-0.377 1.367 1.631 32953
-0.379 1.377 1.633 27431
-0.380 1.381 1.628 24549
-0.382 1.385 1.624 12873
-0.383 1.389 1.620 7610
-0.385 1.399 1.621 13346
-0.386 1.403 1.617 18777
-0.389 1.412 1.618 18931
-0.392 1.422 1.619 22796
-0.391 1.421 1.609 23375
-0.391 1.419 1.599 24174
-0.394 1.429 1.601 22469
-0.399 1.449 1.613 16809
-0.405 1.470 1.625 14861
-0.429 1.557 1.702 12474
-0.429 1.556 1.692 20447
-0.430 1.560 1.687 30101
-0.430 1.559 1.677 33001
-0.431 1.563 1.672 30502
-0.433 1.573 1.672 24095
-0.435 1.578 1.668 16482
-0.434 1.576 1.657 9713
-0.437 1.586 1.658 4817
-0.437 1.585 1.648 3617
-0.436 1.583 1.638 3142
-0.414 1.502 1.554 2469
-0.413 1.500 1.544 2743
-0.414 1.504 1.539 2757
-0.417 1.514 1.540 3185
-0.418 1.518 1.535 3011
-0.448 1.625 1.624 2587
-0.447 1.624 1.614 2259
-0.418 1.518 1.511 1752
-0.419 1.521 1.506 2237
-0.419 1.519 1.496 1908
-0.418 1.517 1.487 1618
-0.421 1.527 1.487 1303
-0.420 1.525 1.477 1193
-0.421 1.529 1.473 1030
-0.425 1.544 1.478 991
-0.428 1.554 1.478 1602
-0.432 1.569 1.483 2394
-0.433 1.573 1.479 3124
-0.433 1.571 1.469 3612
-0.434 1.575 1.464 3725
-0.438 1.590 1.469 4745
-0.442 1.606 1.474 6479
-0.442 1.604 1.464 4738
-0.439 1.595 1.449 1993
-0.497 1.805 1.609 1262
-0.452 1.639 1.468 1549
-0.456 1.655 1.473 2237
-0.464 1.683 1.487 3958
-0.465 1.687 1.482 4290
-0.464 1.684 1.472 3634
-0.467 1.694 1.472 3336
-0.471 1.710 1.476 2686
-0.482 1.751 1.499 2500
-0.485 1.761 1.498 2422
-0.481 1.746 1.479 2117
-0.487 1.768 1.487 3221
-0.488 1.772 1.482 4159
-0.489 1.776 1.476 2576
-0.499 1.811 1.494 1534
-0.502 1.821 1.493 1781
-0.506 1.837 1.496 2402
-0.505 1.835 1.486 3783
-0.503 1.826 1.471 5432
-0.504 1.829 1.466 5032
-0.505 1.833 1.460 4368
-0.603 2.191 1.703 3944
-0.606 2.201 1.701 4042
-0.608 2.206 1.694 3511
-0.611 2.216 1.692 4170
-0.614 2.227 1.690 6748
-0.616 2.238 1.687 10409
-0.619 2.249 1.685 12688
-0.619 2.246 1.673 11157
-0.620 2.251 1.666 6659
-0.646 2.345 1.719 6928
-0.645 2.343 1.708 9829
-0.647 2.347 1.701 13586
-0.648 2.352 1.694 14189
-0.651 2.363 1.691 10896
-0.654 2.373 1.688 7511
-0.655 2.378 1.680 7262
-0.656 2.382 1.673 9053
-0.659 2.393 1.670 10377
-0.662 2.404 1.667 10149
-0.667 2.421 1.667 7303
-0.675 2.451 1.676 5792
-0.678 2.462 1.673 5915
-0.678 2.460 1.661 4573
-0.702 2.550 1.706 6263
-0.702 2.548 1.694 6480
-0.705 2.559 1.690 6769
-0.715 2.596 1.702 8021
-0.715 2.594 1.690 7392
-0.708 2.572 1.666 7077
-0.710 2.576 1.659 6003
-0.713 2.587 1.655 5909
-0.717 2.604 1.654 7511
-0.722 2.622 1.654 6305
-0.729 2.646 1.657 6393
-0.750 2.724 1.691 5988
-0.754 2.735 1.686 6369
-0.755 2.740 1.678 6748
-0.754 2.737 1.666 7202
-0.751 2.728 1.650 5603
-0.775 2.813 1.686 5817
-0.778 2.824 1.681 8063
-0.779 2.829 1.672 10323
-0.780 2.833 1.663 9598
-0.782 2.837 1.655 8874
-0.785 2.848 1.650 6821
-0.814 2.955 1.694 5521
-0.813 2.952 1.682 4661
-0.809 2.936 1.662 4515
-0.808 2.934 1.650 3821
-0.836 3.034 1.689 3676
-0.835 3.031 1.677 4260
-0.836 3.036 1.667 4864
-0.839 3.047 1.661 4616
-0.844 3.065 1.659 4685
-0.844 3.062 1.646 4481
-0.869 3.156 1.680 4548
-0.871 3.161 1.671 4548
-0.874 3.172 1.664 4049
-0.883 3.204 1.668 4219
-0.882 3.201 1.655 4123
-0.881 3.198 1.642 4157
-0.900 3.265 1.661 4865
-0.901 3.270 1.651 5765
-0.902 3.274 1.641 5765
-0.903 3.278 1.631 2882
-0.173 0.634 1.667 4518
-0.176 0.644 1.679 5118
-0.178 0.652 1.684 6077
-0.180 0.659 1.689 6814
-0.182 0.663 1.687 7851
-0.183 0.668 1.685 7851
-0.184 0.672 1.683 7164
-0.184 0.673 1.674 6479
-0.186 0.681 1.679 7390
-0.188 0.685 1.677 8303
-0.190 0.693 1.682 10610
-0.191 0.697 1.680 13207
-0.192 0.701 1.677 12896
-0.193 0.706 1.675 12547
-0.194 0.710 1.673 11597
-0.196 0.718 1.678 9103
-0.198 0.722 1.676 7177
-0.198 0.723 1.666 6616
-0.197 0.720 1.650 6317
-0.197 0.721 1.641 6106
-0.198 0.725 1.638 6003
-0.200 0.729 1.636 6674
-0.200 0.730 1.627 7548
-0.201 0.734 1.625 8650
-0.203 0.742 1.629 9923
-0.203 0.742 1.620 9482
-0.205 0.750 1.625 7979
-0.206 0.754 1.622 7131
-0.213 0.777 1.655 9070
-0.214 0.781 1.652 11174
-0.214 0.781 1.643 9288
-0.215 0.786 1.640 7123
-0.221 0.809 1.672 7047
-0.223 0.813 1.670 8244
-0.225 0.821 1.674 7935
-0.227 0.829 1.679 7937
-0.233 0.853 1.710 7311
-0.236 0.861 1.714 7974
-0.238 0.869 1.719 7246
-0.240 0.877 1.723 7094
-0.241 0.882 1.720 7412
-0.240 0.878 1.704 7607
-0.242 0.883 1.701 8009
-0.243 0.887 1.698 9179
-0.243 0.887 1.689 14163
-0.243 0.888 1.679 17950
-0.244 0.892 1.676 16779
-0.245 0.896 1.674 20695
-0.247 0.901 1.671 25782
-0.248 0.905 1.668 27120
-0.249 0.909 1.665 24256
-0.251 0.918 1.669 20146
-0.251 0.918 1.660 19745
-0.254 0.926 1.663 16799
-0.257 0.939 1.674 15082
-0.259 0.947 1.678 19388
-0.263 0.960 1.688 24746
-0.265 0.969 1.691 26465
-0.266 0.973 1.688 24866
-0.268 0.977 1.685 26214
-0.270 0.986 1.689 28632
-0.271 0.990 1.686 27128
-0.273 0.999 1.689 21675
-0.275 1.003 1.686 10991
-0.277 1.012 1.690 8589
-0.279 1.021 1.693 12200
-0.282 1.029 1.696 14964
-0.284 1.038 1.700 16340
-0.284 1.038 1.690 17125
-0.284 1.038 1.680 23091
-0.285 1.042 1.677 26369
-0.288 1.051 1.680 24972
-0.290 1.060 1.683 19655
-0.293 1.069 1.686 17462
-0.294 1.073 1.683 17002
-0.296 1.082 1.686 17106
-0.297 1.086 1.683 21246
-0.297 1.086 1.673 23699
-0.298 1.090 1.670 24917
-0.300 1.094 1.666 25621
-0.303 1.108 1.676 24419
-0.306 1.117 1.678 20022
-0.304 1.112 1.663 18875
-0.304 1.111 1.653 23885
-0.304 1.111 1.643 30920
-0.307 1.120 1.646 42584
-0.308 1.124 1.643 51962
-0.309 1.128 1.639 53875
-0.310 1.133 1.636 51982
-0.311 1.137 1.632 47352
-0.312 1.141 1.629 37381
-0.314 1.145 1.625 19772
-0.321 1.173 1.652 15516
-0.324 1.183 1.655 30550
-0.324 1.182 1.645 39239
-0.325 1.186 1.641 34802
-0.326 1.190 1.637 29361
-0.330 1.204 1.646 21563
-0.332 1.214 1.648 15014
-0.331 1.208 1.632 16313
-0.335 1.222 1.641 19814
-0.340 1.241 1.655 31543
-0.341 1.245 1.651 40550
-0.342 1.250 1.647 36063
-0.345 1.259 1.649 33126
-0.346 1.263 1.645 39186
-0.347 1.267 1.641 33260
-0.350 1.277 1.643 18787
-0.354 1.291 1.651 11613
-0.355 1.295 1.647 13572
-0.359 1.310 1.655 18620
-0.360 1.314 1.651 20343
-0.362 1.324 1.653 14941
-0.351 1.281 1.596 9510
-0.353 1.290 1.598 10449
-0.357 1.305 1.606 12430
-0.364 1.330 1.625 17443
-0.367 1.339 1.626 14959
-0.371 1.354 1.634 21355
-0.372 1.358 1.630 36124
-0.374 1.368 1.631 34911
-0.376 1.372 1.627 29400
-0.377 1.376 1.623 23016
-0.379 1.386 1.624 14043
-0.373 1.363 1.592 8904
-0.382 1.394 1.616 12796
-0.381 1.393 1.606 18706
-0.381 1.391 1.596 16803
-0.389 1.423 1.619 15500
-0.394 1.438 1.626 19146
-0.390 1.425 1.605 23531
-0.391 1.429 1.601 23847
-0.397 1.450 1.613 18164
-0.403 1.471 1.625 16134
-0.425 1.552 1.696 13671
-0.426 1.557 1.692 18909
-0.427 1.561 1.687 26381
-0.427 1.560 1.677 30162
-0.428 1.564 1.672 29108
-0.431 1.574 1.672 23064
-0.432 1.578 1.668 15350
-0.432 1.577 1.657 9022
-0.434 1.587 1.658 4543
-0.434 1.585 1.648 3200
-0.434 1.584 1.638 2864
-0.410 1.497 1.548 2804
-0.411 1.501 1.544 3372
-0.412 1.505 1.539 3342
-0.415 1.514 1.540 3324
-0.416 1.518 1.535 2921
-0.415 1.516 1.525 2663
-0.415 1.514 1.516 1850
-0.416 1.518 1.511 2107
-0.417 1.522 1.506 2753
-0.416 1.520 1.496 2314
-0.417 1.524 1.492 1958
-0.418 1.528 1.487 1364
-0.418 1.526 1.477 832
-0.419 1.529 1.473 1017
-0.421 1.539 1.473 1449
-0.424 1.549 1.473 1781
-0.430 1.570 1.483 2006
-0.431 1.574 1.479 2759
-0.430 1.572 1.469 3310
-0.431 1.575 1.464 3365
-0.437 1.597 1.474 4624
-0.440 1.607 1.474 6630
-0.443 1.617 1.474 5038
-0.439 1.602 1.454 2101
-0.494 1.805 1.609 1633
-0.492 1.797 1.594 1947
-0.495 1.807 1.593 1686
-0.459 1.678 1.482 3539
-0.459 1.675 1.472 4007
-0.460 1.679 1.467 3651
-0.464 1.695 1.472 3423
-0.467 1.705 1.471 2604
-0.490 1.788 1.527 2791
-0.492 1.799 1.526 2787
-0.495 1.809 1.525 2583
-0.486 1.775 1.492 2840
-0.487 1.779 1.486 3654
-0.486 1.777 1.476 2292
-0.522 1.905 1.562 1480
-0.552 2.015 1.634 1904
-0.503 1.838 1.496 2247
-0.503 1.835 1.486 3780
-0.502 1.833 1.476 5197
-0.501 1.830 1.466 4510
-0.502 1.834 1.460 3795
-0.505 1.844 1.459 3562
-0.605 2.209 1.705 3463
-0.606 2.213 1.699 3273
-0.609 2.224 1.696 3969
-0.610 2.228 1.690 6268
-0.613 2.239 1.687 9757
-0.614 2.243 1.680 12215
-0.615 2.247 1.673 11137
-0.617 2.252 1.666 7042
-0.642 2.346 1.719 7025
-0.642 2.344 1.708 9630
-0.643 2.348 1.701 13057
-0.644 2.353 1.694 13754
-0.647 2.364 1.691 10429
-0.650 2.374 1.688 7607
-0.651 2.379 1.680 8131
-0.654 2.389 1.677 10051
-0.657 2.400 1.674 11191
-0.660 2.411 1.671 10842
-0.665 2.429 1.671 8087
-0.671 2.452 1.676 5695
-0.674 2.463 1.673 5263
-0.676 2.468 1.665 4023
-0.698 2.551 1.706 4747
-0.700 2.555 1.698 5314
-0.701 2.560 1.690 6030
-0.711 2.597 1.702 7089
-0.711 2.595 1.690 6807
-0.708 2.586 1.674 6750
-0.706 2.577 1.659 5782
-0.709 2.588 1.655 5842
-0.713 2.605 1.654 7330
-0.718 2.623 1.654 6264
-0.725 2.647 1.657 6686
-0.746 2.725 1.691 5852
-0.751 2.743 1.690 5869
-0.752 2.748 1.682 6217
-0.753 2.752 1.673 6565
-0.766 2.797 1.687 5634
-0.771 2.815 1.686 6085
-0.774 2.826 1.681 8333
-0.777 2.837 1.676 10703
-0.778 2.841 1.667 9876
-0.779 2.845 1.658 9049
-0.780 2.850 1.650 6934
-0.785 2.867 1.648 5074
-0.809 2.954 1.682 3976
-0.802 2.931 1.659 4403
-0.804 2.935 1.650 3966
-0.803 2.932 1.637 3644
-0.828 3.026 1.673 4150
-0.830 3.030 1.664 4955
-0.835 3.048 1.661 4727
-0.840 3.066 1.659 5217
-0.841 3.070 1.649 4787
-0.865 3.158 1.680 5209
-0.866 3.162 1.671 5209
-0.869 3.173 1.664 4615
-0.874 3.191 1.661 4169
-0.875 3.196 1.651 4076
-0.895 3.270 1.674 4858
-0.894 3.267 1.661 5757
-0.896 3.271 1.651 6742
-0.897 3.275 1.641 6742
-0.898 3.279 1.631 3371
-0.172 0.634 1.667 4051
-0.174 0.645 1.679 4678
-0.176 0.652 1.684 5615
-0.178 0.660 1.689 6764
-0.181 0.667 1.694 8268
-0.182 0.672 1.692 8268
-0.182 0.673 1.683 7683
-0.183 0.677 1.681 7140
-0.184 0.681 1.679 7948
-0.186 0.686 1.677 8756
-0.188 0.693 1.682 11362
-0.189 0.698 1.680 14124
-0.190 0.702 1.677 13835
-0.191 0.706 1.675 13491
-0.192 0.710 1.673 12479
-0.194 0.718 1.678 9737
-0.195 0.722 1.676 7566
-0.196 0.723 1.666 6728
-0.195 0.721 1.650 6298
-0.195 0.721 1.641 6194
-0.196 0.726 1.638 6134
-0.197 0.730 1.636 6768
-0.198 0.730 1.627 7606
-0.199 0.735 1.625 8862
-0.201 0.742 1.629 10362
-0.201 0.743 1.620 9618
-0.203 0.751 1.625 7838
-0.204 0.755 1.622 6790
-0.210 0.777 1.655 8440
-0.211 0.782 1.652 10351
-0.212 0.782 1.643 8501
-0.213 0.786 1.640 6402
-0.219 0.809 1.672 6730
-0.220 0.814 1.670 8128
-0.223 0.825 1.681 7711
-0.226 0.834 1.685 7642
-0.231 0.853 1.710 7293
-0.233 0.861 1.714 7977
-0.234 0.866 1.712 7247
-0.238 0.878 1.723 7074
-0.238 0.879 1.713 7550
-0.238 0.879 1.704 7154
-0.239 0.883 1.701 6832
-0.240 0.888 1.698 7649
-0.239 0.884 1.682 13236
-0.240 0.889 1.679 17629
-0.242 0.893 1.676 16674
-0.243 0.897 1.674 19812
-0.244 0.901 1.671 23905
-0.245 0.906 1.668 25403
-0.246 0.910 1.665 23041
-0.248 0.918 1.669 19299
-0.249 0.919 1.660 19028
-0.251 0.927 1.663 16174
-0.254 0.940 1.674 14328
-0.257 0.948 1.678 18134
-0.260 0.961 1.688 22964
-0.262 0.969 1.691 24531
-0.262 0.969 1.682 24002
-0.266 0.982 1.692 27090
-0.267 0.987 1.689 30499
-0.268 0.991 1.686 29121
-0.270 1.000 1.689 23373
-0.272 1.004 1.686 11993
-0.273 1.008 1.683 8646
-0.276 1.021 1.693 11548
-0.279 1.030 1.696 14093
-0.281 1.039 1.700 15725
-0.281 1.039 1.690 17547
-0.281 1.039 1.680 23943
-0.282 1.043 1.677 27009
-0.285 1.052 1.680 24869
-0.287 1.061 1.683 18529
-0.289 1.070 1.686 16998
-0.292 1.078 1.690 18697
-0.293 1.083 1.686 19720
-0.294 1.087 1.683 23070
-0.294 1.087 1.673 24443
-0.295 1.091 1.670 25035
-0.298 1.100 1.673 26083
-0.300 1.109 1.676 25669
-0.302 1.118 1.678 20983
-0.301 1.113 1.663 19852
-0.301 1.112 1.653 25349
-0.301 1.112 1.643 31628
-0.302 1.116 1.640 41765
-0.304 1.125 1.643 50490
-0.306 1.129 1.639 53132
-0.307 1.133 1.636 52911
-0.308 1.138 1.632 47815
-0.309 1.142 1.629 36413
-0.310 1.146 1.625 19240
-0.318 1.174 1.652 14507
-0.319 1.179 1.648 28705
-0.320 1.183 1.645 35825
-0.321 1.187 1.641 30653
-0.322 1.191 1.637 26738
-0.326 1.205 1.646 19932
-0.329 1.215 1.648 14352
-0.328 1.214 1.638 15729
-0.332 1.228 1.647 19381
-0.336 1.242 1.655 32278
-0.337 1.246 1.651 41568
-0.338 1.251 1.647 36762
-0.341 1.260 1.649 32558
-0.342 1.264 1.645 39252
-0.343 1.268 1.641 34587
-0.344 1.273 1.638 20392
-0.344 1.272 1.628 12674
-0.349 1.291 1.641 15430
-0.353 1.306 1.649 20445
-0.357 1.320 1.657 21203
-0.358 1.325 1.653 16556
-0.360 1.329 1.649 10852
-0.351 1.297 1.604 10936
-0.355 1.311 1.612 13334
-0.360 1.331 1.625 16163
-0.363 1.340 1.626 13336
-0.367 1.355 1.634 20345
-0.368 1.359 1.630 35823
-0.370 1.369 1.631 36982
-0.372 1.373 1.627 30930
-0.376 1.388 1.634 21822
-0.377 1.392 1.630 15778
-0.378 1.396 1.625 11159
-0.377 1.395 1.616 10629
-0.377 1.394 1.606 16298
-0.378 1.398 1.601 18623
-0.385 1.424 1.619 18733
-0.388 1.433 1.620 18832
-0.387 1.432 1.610 22273
-0.389 1.436 1.606 23751
-0.396 1.462 1.624 18578
-0.398 1.472 1.625 16601
-0.419 1.548 1.691 14418
-0.422 1.558 1.692 17015
-0.423 1.562 1.687 21900
-0.422 1.561 1.677 25913
-0.424 1.565 1.672 26160
-0.426 1.575 1.672 20874
-0.427 1.580 1.668 13565
-0.429 1.584 1.663 7887
-0.430 1.588 1.658 4076
-0.429 1.587 1.648 2748
-0.429 1.585 1.638 2517
-0.405 1.498 1.548 2954
-0.405 1.496 1.539 3459
-0.407 1.506 1.539 3290
-0.410 1.516 1.540 3234
-0.411 1.520 1.535 2973
-0.411 1.518 1.525 2914
-0.410 1.516 1.516 2156
-0.410 1.514 1.506 2659
-0.411 1.518 1.501 3620
-0.410 1.516 1.491 3030
-0.411 1.519 1.487 2464
-0.412 1.523 1.482 1458
-0.412 1.521 1.472 809
-0.416 1.536 1.478 1193
-0.418 1.546 1.478 1737
-0.419 1.550 1.473 1788
-0.422 1.560 1.473 1650
-0.425 1.569 1.474 2402
-0.426 1.573 1.469 3003
-0.428 1.583 1.469 3090
-0.432 1.598 1.474 4399
-0.437 1.614 1.479 6588
-0.438 1.618 1.474 5212
-0.435 1.609 1.459 2269
-0.489 1.807 1.609 1960
-0.487 1.799 1.594 2368
-0.489 1.809 1.593 2098
-0.453 1.673 1.478 3439
-0.452 1.671 1.468 3819
-0.453 1.674 1.463 3555
-0.459 1.696 1.472 3325
-0.462 1.706 1.471 2494
-0.513 1.895 1.606 3030
-0.515 1.905 1.605 3001
-0.490 1.810 1.525 2758
-0.484 1.789 1.501 2439
-0.482 1.781 1.486 3037
-0.522 1.927 1.587 2231
-0.516 1.907 1.562 1889
-0.547 2.023 1.638 2137
-0.545 2.015 1.623 2476
-0.497 1.837 1.486 3837
-0.496 1.834 1.476 5293
-0.497 1.838 1.470 4073
-0.497 1.835 1.460 3039
-0.499 1.845 1.459 3008
-0.598 2.210 1.705 2994
-0.601 2.221 1.703 3088
-0.604 2.232 1.701 3879
-0.603 2.230 1.690 5688
-0.606 2.241 1.687 8819
-0.607 2.245 1.680 11333
-0.609 2.249 1.673 10707
-0.610 2.254 1.666 7233
-0.635 2.348 1.719 7224
-0.635 2.346 1.708 9542
-0.636 2.350 1.701 12566
-0.637 2.355 1.694 13249
-0.638 2.359 1.686 10045
-0.641 2.370 1.683 7706
-0.644 2.381 1.680 8816
-0.647 2.391 1.677 10827
-0.650 2.402 1.674 11852
-0.653 2.413 1.671 11432
-0.658 2.430 1.671 8944
-0.664 2.454 1.676 5802
-0.669 2.472 1.677 5044
-0.668 2.470 1.665 3878
-0.694 2.566 1.714 3787
-0.692 2.557 1.698 4466
-0.693 2.562 1.690 5404
-0.703 2.599 1.702 6212
-0.701 2.590 1.686 6210
-0.700 2.588 1.674 6430
-0.700 2.586 1.662 5598
-0.703 2.597 1.658 5761
-0.706 2.608 1.654 6997
-0.708 2.618 1.650 5997
-0.731 2.703 1.688 6723
-0.734 2.714 1.683 5712
-0.743 2.745 1.690 5304
-0.744 2.750 1.682 5733
-0.749 2.768 1.681 6327
-0.756 2.792 1.683 5983
-0.762 2.817 1.686 6322
-0.765 2.828 1.681 8528
-0.768 2.839 1.676 10966
-0.769 2.843 1.667 10040
-0.770 2.848 1.658 9115
-0.772 2.852 1.650 6946
-0.776 2.870 1.648 4977
-0.779 2.881 1.643 3560
-0.794 2.933 1.659 4095
-0.793 2.930 1.646 3893
-0.794 2.935 1.637 3716
-0.817 3.021 1.670 4057
-0.819 3.026 1.660 4999
-0.825 3.051 1.661 4696
-0.830 3.069 1.659 5545
-0.831 3.073 1.649 4985
-0.857 3.167 1.684 5865
-0.858 3.172 1.674 5865
-0.859 3.176 1.664 5067
-0.862 3.187 1.658 4290
-0.884 3.268 1.684 4118
-0.885 3.272 1.674 5409
-0.887 3.276 1.664 6259
-0.886 3.274 1.651 7167
-0.887 3.278 1.641 7167
-0.888 3.282 1.631 3583
-0.171 0.641 1.681 6484
-0.172 0.645 1.679 6686
-0.174 0.650 1.677 6888
-0.176 0.660 1.689 7630
-0.178 0.668 1.694 8876
-0.180 0.672 1.692 8876
-0.180 0.673 1.683 8181
-0.181 0.678 1.681 7499
-0.182 0.682 1.679 8078
-0.183 0.686 1.677 8658
-0.185 0.694 1.682 11846
-0.187 0.698 1.680 15115
-0.188 0.702 1.677 15208
-0.189 0.707 1.675 15292
-0.191 0.714 1.680 14518
-0.192 0.719 1.678 11272
-0.193 0.723 1.676 8612
-0.193 0.724 1.666 7712
-0.193 0.721 1.650 6968
-0.193 0.722 1.641 6564
-0.194 0.726 1.638 6296
-0.195 0.730 1.636 7082
-0.195 0.731 1.627 7971
-0.197 0.739 1.632 9182
-0.199 0.743 1.629 10558
-0.200 0.747 1.627 9348
-0.201 0.751 1.625 7220
-0.203 0.759 1.629 6265
-0.209 0.782 1.662 8134
-0.210 0.786 1.659 9913
-0.209 0.783 1.643 8048
-0.210 0.787 1.640 5977
-0.216 0.810 1.672 6318
-0.218 0.814 1.670 7701
-0.221 0.826 1.681 7479
-0.224 0.838 1.692 7820
-0.227 0.850 1.703 8191
-0.229 0.858 1.708 8892
-0.231 0.863 1.705 7911
-0.231 0.863 1.695 7494
-0.233 0.872 1.700 8005
-0.234 0.876 1.697 6648
-0.230 0.860 1.660 6106
-0.231 0.865 1.658 6922
-0.235 0.881 1.675 12740
-0.237 0.885 1.672 17807
-0.238 0.890 1.670 17108
-0.240 0.898 1.674 19250
-0.241 0.902 1.671 21982
-0.242 0.906 1.668 23316
-0.243 0.911 1.665 21376
-0.246 0.919 1.669 18295
-0.246 0.919 1.660 18017
-0.248 0.928 1.663 15297
-0.251 0.940 1.674 13651
-0.254 0.949 1.678 16903
-0.257 0.962 1.688 21502
-0.259 0.970 1.691 23123
-0.260 0.975 1.688 23525
-0.263 0.983 1.692 28065
-0.264 0.987 1.689 31943
-0.265 0.992 1.686 30689
-0.267 1.000 1.689 24665
-0.269 1.005 1.686 12576
-0.271 1.014 1.690 7978
-0.273 1.022 1.693 10020
-0.276 1.031 1.696 12374
-0.278 1.040 1.700 14297
-0.278 1.040 1.690 17120
-0.278 1.040 1.680 23834
-0.279 1.044 1.677 26736
-0.281 1.053 1.680 24112
-0.282 1.057 1.677 17370
-0.286 1.070 1.686 16613
-0.288 1.079 1.690 20406
-0.290 1.084 1.686 21407
-0.291 1.088 1.683 23090
-0.291 1.088 1.673 23612
-0.292 1.092 1.670 24334
-0.294 1.101 1.673 26725
-0.297 1.110 1.676 26825
-0.299 1.119 1.678 21271
-0.298 1.114 1.663 21822
-0.298 1.113 1.653 29995
-0.297 1.113 1.643 35622
-0.299 1.117 1.640 42955
-0.301 1.126 1.643 49973
-0.302 1.130 1.639 52630
-0.303 1.134 1.636 53012
-0.304 1.139 1.632 46975
-0.305 1.143 1.629 33082
-0.307 1.147 1.625 16515
-0.310 1.161 1.634 11367
-0.315 1.180 1.648 22342
-0.316 1.184 1.645 27670
-0.318 1.188 1.641 24591
-0.320 1.197 1.644 23776
-0.322 1.206 1.646 18070
-0.325 1.216 1.648 13523
-0.327 1.225 1.650 14070
-0.331 1.239 1.659 18298
-0.332 1.243 1.655 31576
-0.333 1.248 1.651 41122
-0.335 1.252 1.647 35279
-0.337 1.261 1.649 29218
-0.338 1.265 1.645 35803
-0.338 1.264 1.636 32609
-0.339 1.269 1.632 19020
-0.337 1.262 1.616 11958
-0.343 1.282 1.630 17788
-0.347 1.297 1.637 23256
-0.350 1.311 1.645 21385
-0.352 1.315 1.641 18009
-0.354 1.325 1.643 12355
-0.355 1.329 1.639 10321
-0.356 1.333 1.635 11417
-0.359 1.343 1.636 13397
-0.361 1.352 1.638 11985
-0.361 1.351 1.628 23261
-0.362 1.355 1.624 40376
-0.365 1.365 1.625 40779
-0.367 1.374 1.627 33362
-0.371 1.389 1.634 22964
-0.374 1.399 1.635 20728
-0.375 1.403 1.631 15479
-0.366 1.369 1.588 9148
-0.377 1.411 1.622 10307
-0.377 1.410 1.612 22082
-0.379 1.419 1.614 30609
-0.383 1.434 1.620 21503
-0.384 1.439 1.616 20138
-0.384 1.437 1.606 23362
-0.391 1.463 1.624 17589
-0.394 1.473 1.625 16148
-0.414 1.549 1.691 15179
-0.417 1.559 1.692 14744
-0.418 1.564 1.687 16848
-0.419 1.568 1.682 20598
-0.419 1.567 1.672 21430
-0.421 1.577 1.672 16817
-0.422 1.581 1.668 10335
-0.424 1.585 1.663 5821
-0.425 1.589 1.658 3104
-0.402 1.503 1.568 2640
-0.398 1.490 1.548 2400
-0.401 1.499 1.548 3133
-0.400 1.498 1.539 3486
-0.403 1.507 1.539 3126
-0.405 1.517 1.540 2923
-0.405 1.515 1.530 2860
-0.404 1.513 1.520 3205
-0.405 1.517 1.516 2435
-0.405 1.515 1.506 2725
-0.406 1.519 1.501 3514
-0.405 1.517 1.491 3092
-0.406 1.521 1.487 2637
-0.407 1.524 1.482 1693
-0.408 1.528 1.477 1086
-0.413 1.544 1.483 1640
-0.414 1.547 1.478 2268
-0.413 1.545 1.468 2010
-0.416 1.555 1.468 1490
-0.418 1.565 1.469 1981
-0.421 1.574 1.469 2656
-0.425 1.590 1.474 3154
-0.429 1.606 1.479 4266
-0.433 1.621 1.484 6205
-0.434 1.625 1.479 5150
-0.437 1.635 1.479 2411
-0.483 1.808 1.609 2306
-0.481 1.800 1.594 2623
-0.490 1.835 1.612 2513
-0.490 1.833 1.602 3040
-0.484 1.812 1.577 3338
-0.448 1.676 1.463 3014
-0.452 1.692 1.467 2667
-0.507 1.898 1.617 2083
-0.508 1.902 1.611 3373
-0.510 1.907 1.605 3373
-0.486 1.818 1.530 2883
-0.512 1.915 1.594 2116
-0.549 2.056 1.689 2621
-0.514 1.923 1.582 2398
-0.510 1.908 1.562 2095
-0.543 2.031 1.643 2429
-0.541 2.023 1.628 2523
-0.491 1.838 1.486 3813
-0.492 1.842 1.480 5104
-0.493 1.846 1.475 3696
-0.493 1.843 1.465 2491
-0.495 1.853 1.463 2592
-0.595 2.225 1.714 2682
-0.597 2.236 1.712 3127
-0.599 2.240 1.705 4050
-0.598 2.238 1.694 5258
-0.599 2.242 1.687 7860
-0.602 2.253 1.685 10311
-0.602 2.251 1.673 10113
-0.603 2.255 1.666 7324
-0.626 2.343 1.715 7665
-0.629 2.354 1.712 9730
-0.629 2.352 1.701 12254
-0.630 2.357 1.694 12748
-0.631 2.361 1.686 9660
-0.634 2.372 1.683 7689
-0.637 2.383 1.680 9287
-0.640 2.393 1.677 11331
-0.643 2.404 1.674 12107
-0.647 2.422 1.675 11731
-0.650 2.433 1.671 9632
-0.655 2.450 1.672 6125
-0.661 2.474 1.677 4934
-0.661 2.472 1.665 3915
-0.688 2.575 1.718 3569
-0.688 2.573 1.706 3986
-0.687 2.571 1.694 4860
-0.695 2.601 1.702 5373
-0.693 2.593 1.686 5739
-0.692 2.590 1.674 6202
-0.693 2.595 1.666 5462
-0.695 2.599 1.658 5608
-0.697 2.610 1.654 6548
-0.722 2.701 1.696 5726
-0.721 2.699 1.684 7003
-0.724 2.710 1.679 5689
-0.734 2.748 1.690 4621
-0.739 2.766 1.689 5288
-0.742 2.777 1.684 6232
-0.745 2.788 1.680 6130
-0.753 2.819 1.686 6515
-0.756 2.830 1.681 8685
-0.759 2.841 1.676 11152
-0.761 2.846 1.667 10112
-0.762 2.850 1.658 9072
-0.763 2.854 1.650 6820
-0.766 2.865 1.645 4728
-0.771 2.883 1.643 3447
-0.783 2.929 1.655 3955
-0.784 2.933 1.646 3977
-0.787 2.944 1.641 3999
-0.804 3.010 1.663 4221
-0.806 3.014 1.654 5324
-0.816 3.053 1.661 4632
-0.823 3.078 1.662 5768
-0.848 3.172 1.697 5450
-0.847 3.170 1.684 6560
-0.848 3.174 1.674 6560
-0.849 3.178 1.664 5547
-0.852 3.190 1.658 4544
-0.874 3.271 1.684 4180
-0.875 3.275 1.674 5660
-0.876 3.279 1.664 6406
-0.878 3.283 1.654 7152
-0.879 3.288 1.644 7152
-0.880 3.292 1.634 3576
-0.170 0.641 1.681 7212
-0.171 0.645 1.679 7461
-0.173 0.650 1.677 7710
-0.175 0.657 1.682 8599
-0.177 0.665 1.687 10029
-0.178 0.669 1.685 10029
-0.179 0.673 1.683 9533
-0.179 0.675 1.674 9083
-0.181 0.682 1.679 8484
-0.182 0.686 1.677 7931
-0.184 0.694 1.682 11434
-0.186 0.702 1.687 15287
-0.188 0.706 1.685 15565
-0.189 0.710 1.682 15753
-0.190 0.715 1.680 15072
-0.192 0.722 1.685 11669
-0.191 0.720 1.669 8744
-0.192 0.724 1.666 8267
-0.193 0.728 1.664 7791
-0.193 0.726 1.648 6723
-0.193 0.726 1.638 6101
-0.194 0.731 1.636 7095
-0.195 0.735 1.634 8089
-0.196 0.739 1.632 9332
-0.197 0.743 1.629 10627
-0.198 0.747 1.627 9340
-0.200 0.752 1.625 7138
-0.202 0.759 1.629 6161
-0.206 0.775 1.648 7461
-0.208 0.783 1.652 8890
-0.208 0.783 1.643 7235
-0.208 0.784 1.634 5405
-0.215 0.810 1.672 6051
-0.216 0.815 1.670 7861
-0.219 0.826 1.681 7576
