1.009 0.944 1.708 15195
1.012 0.948 1.704 8479
1.015 0.951 1.700 12316
1.027 0.961 1.708 13431
1.038 0.971 1.715 21019
1.045 0.978 1.717 33564
1.052 0.985 1.718 30700
1.052 0.985 1.708 24134
1.055 0.988 1.704 25722
1.066 0.998 1.711 24132
1.074 1.005 1.712 14397
1.089 1.019 1.725 12854
1.088 1.019 1.715 17250
1.088 1.018 1.705 13744
1.099 1.029 1.712 19338
1.106 1.036 1.713 30176
1.110 1.039 1.709 25702
1.121 1.050 1.715 28447
1.124 1.053 1.711 36361
1.128 1.056 1.706 27923
1.131 1.059 1.702 16743
1.163 1.089 1.736 12284
1.158 1.084 1.720 19820
1.166 1.091 1.721 22022
1.178 1.102 1.727 20662
1.077 1.008 1.585 19499
1.076 1.007 1.575 19585
1.150 1.076 1.664 19718
1.153 1.079 1.659 14526
1.161 1.086 1.660 9544
1.164 1.089 1.655 6022
1.226 1.148 1.726 4803
1.234 1.155 1.726 11367
1.233 1.154 1.716 18841
1.241 1.161 1.716 21646
1.244 1.164 1.711 19590
1.252 1.172 1.711 13204
1.259 1.179 1.711 10859
1.267 1.186 1.712 10685
1.283 1.201 1.722 9040
1.291 1.208 1.722 10592
1.299 1.216 1.722 12372
1.298 1.215 1.712 10920
1.296 1.214 1.701 8817
1.309 1.225 1.706 10933
1.321 1.236 1.711 16259
1.328 1.244 1.711 19042
1.336 1.251 1.711 18030
1.348 1.262 1.716 15217
1.356 1.269 1.715 11257
1.355 1.268 1.705 11822
1.358 1.272 1.699 15602
1.357 1.270 1.689 13565
1.369 1.282 1.693 8555
1.395 1.306 1.712 10478
1.398 1.309 1.707 11610
1.406 1.316 1.706 8521
1.419 1.328 1.710 6374
1.431 1.340 1.714 6168
1.443 1.351 1.718 9948
1.451 1.359 1.717 15169
1.459 1.366 1.716 14855
1.458 1.365 1.706 10960
1.457 1.364 1.695 10826
1.460 1.367 1.689 12041
1.482 1.387 1.702 15308
1.499 1.403 1.710 20207
1.507 1.411 1.709 18685
1.510 1.414 1.703 13079
1.518 1.421 1.702 12980
1.517 1.420 1.691 14171
1.520 1.423 1.685 13556
1.523 1.426 1.679 17563
1.527 1.429 1.672 17000
1.525 1.428 1.662 13452
1.528 1.431 1.655 12011
1.527 1.429 1.645 9315
1.535 1.437 1.643 8671
1.618 1.515 1.714 12065
1.612 1.509 1.698 11259
1.611 1.508 1.687 9554
1.619 1.515 1.685 7383
1.689 1.581 1.741 11478
1.697 1.589 1.739 19862
1.705 1.596 1.736 26427
1.709 1.600 1.730 27934
1.712 1.603 1.723 28011
1.706 1.597 1.707 26990
1.704 1.595 1.696 22769
1.707 1.598 1.689 18173
1.716 1.606 1.686 13933
1.733 1.623 1.692 10569
1.737 1.626 1.685 8719
1.794 1.679 1.725 7122
1.787 1.673 1.709 7651
1.791 1.676 1.702 7842
1.789 1.675 1.691 8891
1.792 1.678 1.683 8694
1.800 1.685 1.680 7453
1.799 1.684 1.669 5900
1.807 1.692 1.666 3845
1.884 1.764 1.720 4352
1.888 1.767 1.712 4993
1.891 1.770 1.705 6279
1.889 1.769 1.693 6958
1.898 1.776 1.689 6752
1.951 1.826 1.722 8268
1.959 1.834 1.718 9287
1.968 1.842 1.714 7961
1.971 1.845 1.706 6697
1.974 1.848 1.698 5430
2.008 1.879 1.713 5162
2.006 1.878 1.701 5608
2.004 1.876 1.689 5878
2.002 1.875 1.677 5438
2.051 1.920 1.704 4024
2.065 1.933 1.703 3925
2.063 1.931 1.691 3177
2.061 1.929 1.679 2520
2.085 1.952 1.685 4229
2.088 1.955 1.677 6166
2.096 1.963 1.672 7434
2.105 1.970 1.667 8769
2.103 1.969 1.655 7688
2.106 1.972 1.647 6623
2.140 2.003 1.660 5459
2.143 2.006 1.651 5822
2.147 2.009 1.643 5203
2.150 2.012 1.634 4583
2.241 2.098 1.685 3637
2.244 2.101 1.676 4718
2.258 2.114 1.674 5762
2.261 2.117 1.665 6763
2.269 2.124 1.659 5374
2.278 2.132 1.654 4194
2.276 2.130 1.641 3455
2.415 2.261 1.720 3738
2.429 2.274 1.717 4452
2.437 2.282 1.710 5353
2.441 2.285 1.700 5353
2.449 2.293 1.694 5541
2.458 2.301 1.687 6099
2.466 2.309 1.681 5180
2.480 2.322 1.677 4378
2.483 2.325 1.667 4265
2.492 2.333 1.660 4160
2.495 2.336 1.650 4160
2.498 2.339 1.640 2080
0.502 0.468 1.732 6647
0.505 0.471 1.730 11545
0.506 0.472 1.720 16620
0.509 0.475 1.718 17279
0.515 0.481 1.723 18478
0.518 0.484 1.721 18895
0.522 0.487 1.719 17378
0.525 0.490 1.717 15860
0.528 0.493 1.715 15726
0.532 0.496 1.712 15592
0.530 0.495 1.696 11718
0.528 0.493 1.680 9214
0.532 0.496 1.677 8962
0.542 0.506 1.697 10490
0.556 0.519 1.723 13429
0.565 0.527 1.734 15825
0.571 0.533 1.739 18777
0.574 0.536 1.737 17176
0.580 0.541 1.742 15945
0.581 0.542 1.732 15869
0.584 0.545 1.730 16163
0.588 0.548 1.727 17382
0.594 0.554 1.732 19116
0.597 0.557 1.730 17974
0.603 0.563 1.734 17291
0.606 0.566 1.732 13477
0.610 0.569 1.729 9664
0.613 0.572 1.727 10090
0.617 0.575 1.724 10516
0.620 0.579 1.722 13749
0.623 0.582 1.719 17314
0.627 0.585 1.716 17802
0.630 0.588 1.714 14781
0.633 0.591 1.711 11603
0.645 0.602 1.729 10848
0.654 0.611 1.740 12379
0.658 0.614 1.738 15673
0.664 0.620 1.742 19395
0.668 0.623 1.739 20362
0.668 0.623 1.730 19112
0.674 0.629 1.734 16822
0.678 0.632 1.731 13012
0.684 0.638 1.735 9510
0.687 0.642 1.732 7319
0.688 0.642 1.722 6618
0.694 0.648 1.726 8016
0.695 0.648 1.717 7026
0.704 0.657 1.727 5688
0.710 0.663 1.731 7307
0.717 0.669 1.735 9446
0.720 0.672 1.732 10191
0.727 0.678 1.736 9637
0.730 0.681 1.733 13948
0.734 0.685 1.730 17629
0.743 0.694 1.740 21448
0.750 0.700 1.744 26148
0.753 0.703 1.741 19719
0.763 0.712 1.751 14538
0.766 0.715 1.748 14467
0.773 0.721 1.751 11788
0.773 0.722 1.741 10297
0.770 0.719 1.725 12576
0.770 0.719 1.715 14030
0.777 0.725 1.719 15742
0.780 0.728 1.716 17218
0.787 0.734 1.719 17594
0.790 0.737 1.716 13786
0.800 0.747 1.725 6567
0.804 0.750 1.722 8360
0.804 0.750 1.712 14479
0.807 0.753 1.709 18984
0.810 0.756 1.706 21586
0.814 0.759 1.703 20329
0.820 0.766 1.706 18389
0.827 0.772 1.709 18988
0.830 0.775 1.705 17726
0.837 0.781 1.708 15421
0.844 0.788 1.711 12807
0.851 0.794 1.714 8510
0.865 0.807 1.729 6498
0.865 0.807 1.720 7445
0.864 0.807 1.710 10506
0.871 0.813 1.713 12768
0.878 0.819 1.715 14947
0.885 0.826 1.718 21463
0.888 0.829 1.714 23812
0.895 0.836 1.717 16851
0.906 0.845 1.726 12302
0.909 0.849 1.722 12467
0.916 0.855 1.724 8539
0.923 0.862 1.727 6851
0.927 0.865 1.723 9937
0.930 0.868 1.719 10046
0.937 0.874 1.722 8114
0.937 0.874 1.712 9153
0.936 0.874 1.702 12265
0.943 0.880 1.704 16665
0.954 0.890 1.712 15833
0.957 0.894 1.708 7895
0.972 0.907 1.723 6156
0.979 0.914 1.725 16362
0.986 0.921 1.727 27190
0.990 0.924 1.723 32587
0.993 0.927 1.719 34566
0.996 0.930 1.714 34205
1.004 0.937 1.716 32321
1.007 0.940 1.712 26373
1.010 0.943 1.708 13421
1.014 0.946 1.704 7220
1.017 0.949 1.700 12080
1.028 0.959 1.708 12594
1.039 0.970 1.715 20792
1.047 0.977 1.717 33390
1.054 0.983 1.718 29956
1.053 0.983 1.708 23296
1.057 0.986 1.704 25071
1.072 1.000 1.717 24967
1.079 1.007 1.718 16577
1.086 1.014 1.719 13437
1.090 1.017 1.715 16500
1.089 1.016 1.705 12368
1.101 1.027 1.712 19087
1.108 1.034 1.713 32361
1.111 1.037 1.709 27612
1.123 1.048 1.715 29342
1.126 1.051 1.711 36821
1.129 1.054 1.706 26610
1.129 1.053 1.696 14529
1.124 1.049 1.680 12333
1.156 1.079 1.714 18665
1.163 1.086 1.715 21867
1.179 1.101 1.727 22714
1.078 1.006 1.585 20028
1.081 1.009 1.581 19991
1.152 1.075 1.664 17840
1.197 1.117 1.713 14566
1.204 1.124 1.714 11406
1.212 1.131 1.714 7448
1.215 1.134 1.709 4786
1.231 1.149 1.721 10757
1.235 1.152 1.716 19099
1.238 1.155 1.711 22181
1.246 1.163 1.711 20371
1.253 1.170 1.711 14145
1.261 1.177 1.711 11435
1.264 1.180 1.706 10260
1.281 1.195 1.717 9673
1.288 1.202 1.717 11731
1.300 1.214 1.722 11025
1.299 1.213 1.712 8932
1.303 1.216 1.706 10664
1.310 1.223 1.706 15852
1.318 1.230 1.706 19448
1.326 1.237 1.706 17629
1.338 1.249 1.711 13869
1.350 1.260 1.716 12493
1.358 1.267 1.715 8949
1.361 1.270 1.710 10181
1.360 1.269 1.699 14737
1.359 1.268 1.689 12786
1.376 1.284 1.698 9327
1.397 1.304 1.712 11154
1.400 1.307 1.707 12003
1.408 1.314 1.706 9066
1.421 1.326 1.710 7368
1.429 1.333 1.709 6884
1.446 1.349 1.718 9669
1.453 1.356 1.717 14241
1.461 1.364 1.716 13560
1.460 1.363 1.706 10359
1.459 1.361 1.695 10528
1.467 1.369 1.694 11781
1.484 1.385 1.702 15497
1.496 1.397 1.706 19983
1.504 1.404 1.704 18079
1.512 1.411 1.703 12984
1.520 1.419 1.702 13199
1.519 1.418 1.691 13836
1.522 1.421 1.685 13983
1.525 1.424 1.679 19807
1.529 1.427 1.672 19799
1.523 1.421 1.657 16745
1.531 1.428 1.655 14567
1.529 1.427 1.645 10683
1.537 1.434 1.643 9491
1.621 1.513 1.714 11429
1.615 1.507 1.698 10381
1.613 1.505 1.687 8808
1.621 1.513 1.685 6855
1.691 1.578 1.741 10303
1.704 1.591 1.743 17084
1.708 1.594 1.736 23763
1.711 1.597 1.730 26259
1.714 1.600 1.723 26852
1.708 1.594 1.707 25048
1.707 1.593 1.696 19645
1.710 1.596 1.689 14948
1.718 1.603 1.686 11710
1.736 1.620 1.692 8947
1.798 1.678 1.736 6958
1.796 1.676 1.725 6944
1.790 1.670 1.709 7333
1.793 1.673 1.702 7569
1.792 1.672 1.691 8504
1.800 1.680 1.688 8516
1.803 1.683 1.680 7639
1.806 1.686 1.673 5883
1.810 1.689 1.666 3584
1.887 1.761 1.720 4819
1.890 1.764 1.712 5452
1.894 1.767 1.705 6359
1.892 1.766 1.693 6688
1.900 1.774 1.689 6586
1.959 1.828 1.726 7853
1.967 1.836 1.722 9017
1.970 1.839 1.714 7911
1.974 1.842 1.706 6806
1.977 1.845 1.698 5374
2.011 1.876 1.713 4915
2.009 1.875 1.701 5427
2.002 1.868 1.685 5536
2.005 1.871 1.677 4999
2.064 1.927 1.711 3796
2.073 1.934 1.707 4351
2.071 1.933 1.695 3739
2.064 1.926 1.679 3476
2.072 1.934 1.674 4906
2.081 1.942 1.669 6507
2.099 1.959 1.672 7051
2.103 1.962 1.664 8126
2.106 1.965 1.655 7027
2.114 1.973 1.650 5958
2.143 2.000 1.660 5317
2.146 2.003 1.651 5511
2.150 2.006 1.643 4839
2.153 2.009 1.634 4167
2.239 2.089 1.682 3825
2.247 2.097 1.676 4958
2.261 2.110 1.674 5967
2.269 2.118 1.668 7034
2.273 2.121 1.659 5657
2.281 2.129 1.654 4504
2.279 2.127 1.641 3584
2.413 2.252 1.716 3956
2.427 2.265 1.713 4633
2.435 2.273 1.707 5557
2.439 2.276 1.697 5557
2.453 2.289 1.694 5632
2.461 2.297 1.687 6123
2.470 2.305 1.681 5200
2.484 2.318 1.677 4520
2.487 2.321 1.667 4484
2.490 2.324 1.657 4447
2.493 2.327 1.647 4447
2.496 2.330 1.637 2223
0.503 0.467 1.732 6736
0.506 0.470 1.730 11517
0.507 0.471 1.720 16423
0.513 0.476 1.725 17244
0.516 0.479 1.723 18692
0.520 0.482 1.721 19194
0.523 0.485 1.719 17414
0.527 0.488 1.717 15634
0.530 0.492 1.715 15280
0.536 0.497 1.720 15024
0.534 0.495 1.703 11245
0.530 0.491 1.680 8828
0.533 0.494 1.677 8911
0.544 0.505 1.697 10816
0.555 0.515 1.716 13496
0.566 0.525 1.734 15778
0.572 0.531 1.739 18776
0.576 0.534 1.737 17565
0.582 0.540 1.742 16611
0.582 0.540 1.732 16941
0.586 0.543 1.730 17529
0.592 0.549 1.734 18731
0.595 0.552 1.732 20494
0.599 0.555 1.730 19086
0.605 0.561 1.734 18163
0.608 0.564 1.732 13984
0.612 0.567 1.729 9805
0.615 0.570 1.727 10134
0.618 0.574 1.724 10462
0.622 0.577 1.722 13664
0.625 0.580 1.719 17197
0.628 0.583 1.716 17595
0.632 0.586 1.714 14175
0.635 0.589 1.711 10688
0.650 0.603 1.736 9754
0.656 0.609 1.740 10876
0.663 0.615 1.745 14253
0.666 0.618 1.742 17911
0.669 0.621 1.739 19241
0.673 0.624 1.736 18277
0.676 0.627 1.734 16002
0.680 0.630 1.731 12276
0.686 0.636 1.735 8920
0.689 0.640 1.732 7126
0.693 0.643 1.729 6795
0.696 0.646 1.726 8257
0.699 0.649 1.724 7036
0.706 0.655 1.727 5685
0.712 0.661 1.731 7094
0.719 0.667 1.735 10014
0.722 0.670 1.732 11839
0.726 0.673 1.729 10525
0.729 0.676 1.726 13337
0.736 0.682 1.730 15875
0.745 0.691 1.740 19439
0.749 0.695 1.737 24557
0.755 0.701 1.741 18783
0.765 0.710 1.751 13990
0.772 0.716 1.754 12427
0.775 0.719 1.751 10008
0.782 0.725 1.754 9841
0.776 0.719 1.732 12664
0.779 0.723 1.728 13317
0.782 0.726 1.725 14175
0.786 0.729 1.722 16682
0.789 0.732 1.719 17573
0.792 0.735 1.716 13359
0.802 0.744 1.725 6558
0.806 0.748 1.722 8811
0.806 0.748 1.712 14626
0.809 0.751 1.709 18613
0.812 0.754 1.706 20507
0.816 0.757 1.703 18867
0.823 0.763 1.706 16985
0.829 0.769 1.709 17714
0.833 0.772 1.705 16713
0.839 0.779 1.708 14751
0.846 0.785 1.711 12200
0.853 0.791 1.714 8080
0.871 0.808 1.736 6299
0.867 0.804 1.720 7369
0.867 0.804 1.710 11373
0.874 0.810 1.713 14083
0.881 0.817 1.715 16010
0.887 0.823 1.718 21923
0.891 0.826 1.714 25023
0.898 0.833 1.717 18862
0.908 0.843 1.726 12876
0.912 0.846 1.722 10785
0.915 0.849 1.718 6407
0.926 0.859 1.727 5219
0.926 0.859 1.717 8971
0.929 0.862 1.713 9592
0.936 0.868 1.715 8143
0.939 0.871 1.712 8882
0.939 0.871 1.702 10247
0.950 0.881 1.710 14408
0.957 0.888 1.712 15037
0.964 0.894 1.714 9128
0.971 0.901 1.717 9865
0.978 0.907 1.719 19583
0.989 0.918 1.727 28330
0.992 0.921 1.723 33171
0.996 0.924 1.719 36129
0.999 0.927 1.714 34643
1.006 0.934 1.716 29867
1.010 0.937 1.712 23583
1.013 0.940 1.708 11511
1.016 0.943 1.704 6429
1.020 0.946 1.700 11611
1.031 0.956 1.708 11542
1.042 0.967 1.715 19959
1.049 0.974 1.717 32084
1.057 0.980 1.718 28580
1.056 0.980 1.708 22196
1.063 0.987 1.710 24147
1.075 0.997 1.717 25668
1.082 1.004 1.718 19745
1.085 1.007 1.714 15621
1.089 1.010 1.709 15296
1.092 1.013 1.705 10035
1.108 1.028 1.717 19015
1.115 1.034 1.719 34069
1.118 1.038 1.714 29781
1.126 1.044 1.715 30084
1.129 1.048 1.711 36016
1.133 1.051 1.706 24035
1.124 1.042 1.685 12914
1.127 1.045 1.680 13037
1.155 1.071 1.709 16939
1.167 1.082 1.715 21027
1.183 1.097 1.727 25749
1.081 1.003 1.585 19619
1.084 1.006 1.581 19549
1.197 1.110 1.718 18085
1.204 1.117 1.719 17554
1.208 1.120 1.714 14485
1.215 1.127 1.714 9781
1.214 1.127 1.704 6319
1.235 1.146 1.721 10940
1.238 1.149 1.716 18614
1.242 1.152 1.711 21647
1.249 1.159 1.711 20586
1.257 1.166 1.711 14570
1.260 1.169 1.706 11892
1.263 1.172 1.701 11436
1.280 1.187 1.712 11840
1.292 1.198 1.717 13809
1.300 1.206 1.717 9962
1.307 1.213 1.717 7007
1.311 1.216 1.712 10690
1.318 1.223 1.712 16523
1.326 1.230 1.711 17888
1.330 1.233 1.706 15933
1.337 1.241 1.706 13279
1.345 1.248 1.705 9959
1.353 1.255 1.705 6404
1.361 1.262 1.705 9512
1.364 1.265 1.699 13868
1.367 1.268 1.694 12158
1.380 1.280 1.698 10020
1.401 1.300 1.712 11260
1.409 1.307 1.712 11914
1.412 1.310 1.706 9461
1.425 1.322 1.710 8435
1.432 1.329 1.709 7684
1.450 1.345 1.718 9214
1.457 1.352 1.717 12919
1.465 1.359 1.716 11982
1.464 1.358 1.706 9520
1.463 1.357 1.695 9978
1.471 1.364 1.694 11290
1.488 1.380 1.702 15319
1.501 1.392 1.706 19348
1.509 1.399 1.704 17213
1.517 1.407 1.703 12552
1.520 1.410 1.697 13020
1.523 1.413 1.691 13206
1.526 1.416 1.685 14252
1.530 1.419 1.679 21723
1.528 1.418 1.668 22498
1.527 1.416 1.657 19922
1.535 1.424 1.655 17278
1.533 1.422 1.645 12146
1.536 1.425 1.638 10203
1.620 1.503 1.709 10346
1.614 1.498 1.694 9972
1.613 1.496 1.683 8721
1.626 1.508 1.685 6778
1.696 1.573 1.741 9092
1.709 1.585 1.743 14075
1.712 1.589 1.736 20253
1.716 1.592 1.730 23219
1.719 1.595 1.723 24202
1.713 1.589 1.707 23006
1.707 1.583 1.691 17992
1.715 1.591 1.689 13512
1.723 1.598 1.686 10243
1.741 1.615 1.692 7076
1.803 1.672 1.736 6741
1.801 1.671 1.725 6701
1.795 1.665 1.709 6919
1.798 1.668 1.702 7247
1.797 1.667 1.691 8095
1.805 1.674 1.688 8301
1.808 1.677 1.680 7794
1.811 1.680 1.673 5967
1.884 1.748 1.723 3507
1.892 1.755 1.720 5174
1.896 1.759 1.712 5741
1.894 1.757 1.700 6246
1.892 1.756 1.689 6227
1.901 1.763 1.685 6270
1.964 1.822 1.726 7611
1.972 1.830 1.722 8892
1.976 1.833 1.714 7854
1.979 1.836 1.706 6816
1.982 1.839 1.698 5205
2.021 1.875 1.717 5200
2.019 1.873 1.705 5618
2.013 1.867 1.689 5154
2.067 1.917 1.719 4195
2.070 1.920 1.711 4629
2.073 1.923 1.703 5063
2.072 1.922 1.691 4953
2.070 1.920 1.679 5011
2.078 1.928 1.674 6798
2.081 1.931 1.666 8612
2.095 1.943 1.665 8528
2.103 1.951 1.660 9107
2.112 1.959 1.655 7251
2.120 1.967 1.650 5699
2.149 1.994 1.660 5235
2.152 1.997 1.651 5283
2.156 2.000 1.643 4401
2.159 2.003 1.634 3519
2.245 2.083 1.682 3986
2.248 2.086 1.673 5127
2.262 2.098 1.671 6104
2.276 2.111 1.668 7215
2.279 2.114 1.659 5844
2.287 2.122 1.654 4698
2.285 2.120 1.641 3698
2.420 2.245 1.716 4103
2.434 2.258 1.713 4746
2.442 2.266 1.707 5682
2.446 2.269 1.697 5682
2.459 2.282 1.694 5613
2.468 2.290 1.687 6011
2.477 2.298 1.681 5106
2.496 2.315 1.680 4614
2.494 2.313 1.667 4640
2.497 2.316 1.657 4687
2.500 2.319 1.647 4687
2.503 2.322 1.637 2343
0.504 0.465 1.732 6886
0.508 0.468 1.730 11578
0.509 0.469 1.720 16400
0.512 0.472 1.718 17428
0.518 0.477 1.723 19108
0.521 0.481 1.721 19711
0.525 0.484 1.719 17469
0.528 0.487 1.717 15227
0.531 0.490 1.715 14805
0.537 0.495 1.720 14513
0.536 0.494 1.703 11123
0.531 0.490 1.680 8985
0.537 0.495 1.685 9185
0.546 0.503 1.697 11339
0.554 0.511 1.708 13693
0.568 0.524 1.734 15709
0.574 0.529 1.739 18777
0.577 0.532 1.737 18029
0.583 0.538 1.742 17428
0.584 0.538 1.732 18192
0.587 0.542 1.730 19103
0.594 0.547 1.734 20299
0.597 0.550 1.732 22090
0.600 0.554 1.730 20369
0.606 0.559 1.734 19181
0.610 0.562 1.732 14666
0.616 0.568 1.736 10171
0.617 0.569 1.727 10291
0.620 0.572 1.724 10430
0.623 0.575 1.722 13602
0.627 0.578 1.719 17094
0.630 0.581 1.716 17377
0.634 0.584 1.714 13446
0.640 0.590 1.718 9605
0.652 0.601 1.736 8392
0.661 0.609 1.747 8806
0.664 0.613 1.745 12316
0.668 0.616 1.742 15825
0.671 0.619 1.739 17842
0.675 0.622 1.736 17808
0.678 0.625 1.734 15772
0.682 0.628 1.731 12156
0.688 0.634 1.735 8900
0.691 0.637 1.732 7610
0.695 0.641 1.729 8290
0.698 0.644 1.726 10261
0.701 0.647 1.724 9398
0.705 0.650 1.721 8471
0.711 0.656 1.725 9681
0.718 0.662 1.728 12185
0.721 0.665 1.725 13016
0.728 0.671 1.729 10377
0.734 0.677 1.733 10851
0.738 0.680 1.730 13441
0.744 0.686 1.733 17442
0.751 0.692 1.737 22487
0.757 0.698 1.741 17535
0.764 0.704 1.744 13104
0.771 0.711 1.748 9921
0.777 0.717 1.751 8704
0.778 0.717 1.741 11385
0.778 0.717 1.732 14240
0.784 0.723 1.735 14335
0.785 0.723 1.725 14413
0.788 0.726 1.722 17339
0.791 0.730 1.719 18019
0.795 0.733 1.716 13017
0.801 0.739 1.719 6837
0.808 0.745 1.722 9574
0.811 0.748 1.719 14938
0.811 0.748 1.709 18235
0.815 0.751 1.706 19194
0.818 0.754 1.703 16985
0.825 0.761 1.706 15038
0.832 0.767 1.709 15704
0.835 0.770 1.705 15035
0.842 0.776 1.708 13489
0.849 0.783 1.711 11176
0.859 0.792 1.720 7894
0.873 0.805 1.736 6653
0.866 0.798 1.713 8076
0.869 0.801 1.710 12775
0.873 0.804 1.706 15707
0.883 0.814 1.715 17242
0.890 0.821 1.718 22238
0.893 0.824 1.714 26078
0.900 0.830 1.717 21561
0.907 0.837 1.719 15154
0.911 0.840 1.716 10988
0.907 0.836 1.700 6558
0.914 0.842 1.702 4591
0.924 0.852 1.711 7990
0.924 0.852 1.701 10332
0.935 0.862 1.709 8965
0.942 0.868 1.712 7902
0.949 0.875 1.714 7415
0.956 0.882 1.716 13281
0.963 0.888 1.718 16229
0.970 0.895 1.720 11398
0.974 0.898 1.717 12090
0.981 0.904 1.719 20150
0.992 0.915 1.727 27772
0.995 0.918 1.723 34619
0.999 0.921 1.719 37708
1.002 0.924 1.714 32493
1.009 0.931 1.716 25395
1.013 0.934 1.712 18330
1.016 0.937 1.708 9356
1.015 0.936 1.698 7208
1.023 0.943 1.700 10987
1.034 0.953 1.708 10089
1.045 0.964 1.715 18066
1.052 0.970 1.717 29095
1.060 0.977 1.718 26418
1.059 0.976 1.708 21119
1.066 0.983 1.710 23172
1.078 0.994 1.717 25569
1.085 1.001 1.718 22575
1.089 1.004 1.714 18392
1.092 1.007 1.709 13504
1.099 1.014 1.711 7483
1.115 1.028 1.723 19277
1.118 1.031 1.719 34985
1.122 1.034 1.714 32139
1.129 1.041 1.715 30909
1.132 1.044 1.711 34314
1.136 1.047 1.706 21673
1.127 1.039 1.685 11304
1.130 1.042 1.680 12922
1.158 1.068 1.709 14238
1.178 1.086 1.726 19511
1.186 1.093 1.727 29994
1.189 1.096 1.722 24217
1.193 1.100 1.718 19705
1.200 1.107 1.718 23378
1.208 1.114 1.719 22258
1.215 1.121 1.719 18211
1.219 1.124 1.714 11970
1.218 1.123 1.704 7568
1.234 1.138 1.715 11489
1.242 1.145 1.716 17970
1.245 1.148 1.711 20176
1.253 1.155 1.711 20014
1.256 1.158 1.706 16265
1.264 1.165 1.706 15544
1.267 1.168 1.701 16611
1.279 1.179 1.706 15843
1.291 1.190 1.712 16725
1.299 1.198 1.712 10610
1.307 1.205 1.712 6940
1.319 1.216 1.717 11439
1.322 1.219 1.712 17438
1.330 1.226 1.711 19925
1.333 1.229 1.706 18065
1.337 1.232 1.701 12906
1.344 1.240 1.700 7727
1.348 1.243 1.695 4989
1.360 1.254 1.700 8241
1.368 1.261 1.699 12548
1.371 1.264 1.694 11399
1.384 1.276 1.698 10306
1.405 1.295 1.712 10466
1.413 1.303 1.712 11307
1.416 1.306 1.706 9789
1.424 1.313 1.705 9586
1.432 1.320 1.705 8375
1.449 1.336 1.713 8294
1.462 1.348 1.717 10794
1.470 1.355 1.716 9641
1.468 1.354 1.706 8223
1.472 1.357 1.700 9317
1.475 1.360 1.694 10564
1.492 1.376 1.702 14179
1.505 1.387 1.706 17483
1.513 1.395 1.704 15074
1.521 1.402 1.703 11588
1.524 1.405 1.697 12685
1.527 1.408 1.691 12177
1.531 1.411 1.685 14153
1.534 1.414 1.679 23218
1.533 1.413 1.668 25184
1.536 1.416 1.662 23121
1.539 1.419 1.655 20034
1.538 1.418 1.645 13461
1.541 1.421 1.638 10571
1.549 1.428 1.637 8780
1.619 1.493 1.694 7840
1.617 1.491 1.683 7085
1.645 1.516 1.699 6266
1.653 1.524 1.697 7854
1.714 1.580 1.743 10187
1.722 1.588 1.741 15108
1.726 1.591 1.734 18182
1.724 1.590 1.723 19938
1.718 1.584 1.707 19092
1.711 1.578 1.691 13573
1.715 1.581 1.685 9221
1.738 1.602 1.695 7872
1.751 1.614 1.696 5549
1.808 1.667 1.736 6261
1.806 1.665 1.725 6319
1.800 1.659 1.709 6343
1.798 1.658 1.698 6649
1.802 1.661 1.691 7358
1.810 1.669 1.688 7890
1.818 1.676 1.684 8042
1.826 1.684 1.681 6261
1.860 1.714 1.699 3856
1.898 1.750 1.720 5485
1.901 1.753 1.712 5922
1.894 1.747 1.696 6118
1.893 1.745 1.685 5888
1.901 1.753 1.681 5936
1.970 1.816 1.726 7142
1.978 1.824 1.722 8596
1.981 1.827 1.714 7774
1.985 1.830 1.706 6952
1.983 1.828 1.694 5281
2.027 1.869 1.717 4804
2.030 1.872 1.709 4962
1.998 1.842 1.674 4638
2.073 1.911 1.719 5104
2.076 1.914 1.711 5659
2.084 1.922 1.707 6288
2.083 1.920 1.695 6255
2.081 1.918 1.682 6350
2.084 1.922 1.674 8460
2.087 1.925 1.666 10571
2.096 1.932 1.661 9811
2.109 1.945 1.660 9845
2.113 1.948 1.652 8122
2.126 1.960 1.650 6637
2.155 1.987 1.660 5140
2.164 1.995 1.655 4922
2.162 1.993 1.643 3894
2.238 2.063 1.684 3130
2.246 2.071 1.678 4158
2.255 2.079 1.673 5264
2.268 2.091 1.671 6224
2.277 2.099 1.665 7343
2.285 2.107 1.659 6005
2.294 2.115 1.654 4891
2.297 2.118 1.644 3896
2.427 2.237 1.716 4147
2.435 2.245 1.710 4771
2.449 2.258 1.707 5706
2.453 2.261 1.697 5706
2.466 2.274 1.694 5502
2.475 2.282 1.687 5780
2.484 2.290 1.681 4884
2.503 2.308 1.680 4652
2.506 2.311 1.670 4685
2.504 2.309 1.657 4773
2.507 2.312 1.647 4773
2.511 2.315 1.637 2386
0.506 0.464 1.732 7162
0.509 0.467 1.730 11865
0.510 0.468 1.720 16729
0.513 0.471 1.718 17728
0.519 0.476 1.723 19447
0.523 0.479 1.721 20146
0.526 0.482 1.719 17497
0.529 0.485 1.717 14847
0.533 0.488 1.715 14320
0.539 0.494 1.720 13914
0.537 0.492 1.703 10931
0.535 0.491 1.687 8917
0.541 0.496 1.692 9293
0.547 0.502 1.697 11643
0.555 0.509 1.708 13834
0.569 0.522 1.734 15578
0.575 0.528 1.739 18801
0.579 0.531 1.737 18550
0.585 0.536 1.742 18340
0.586 0.537 1.732 19393
0.589 0.540 1.730 20488
0.595 0.546 1.734 21644
0.598 0.549 1.732 23408
0.605 0.554 1.737 21459
0.608 0.558 1.734 20004
0.611 0.561 1.732 15186
0.618 0.566 1.736 10413
0.618 0.567 1.727 10407
0.622 0.570 1.724 10446
0.625 0.573 1.722 13571
0.631 0.579 1.726 17029
0.632 0.579 1.716 17138
0.638 0.585 1.721 12905
0.644 0.591 1.725 8970
0.656 0.602 1.743 7235
0.663 0.608 1.747 6936
0.666 0.611 1.745 10489
0.670 0.614 1.742 14042
0.673 0.617 1.739 16669
0.676 0.620 1.736 17449
0.680 0.623 1.734 15631
0.686 0.629 1.738 12050
0.690 0.632 1.735 8793
0.693 0.636 1.732 8105
0.696 0.639 1.729 9674
0.700 0.642 1.726 11931
0.700 0.642 1.717 11100
0.704 0.645 1.714 9381
0.713 0.654 1.725 9655
0.720 0.660 1.728 11652
0.729 0.669 1.739 12519
0.733 0.672 1.736 10267
0.733 0.672 1.726 9998
0.736 0.675 1.723 12082
0.746 0.684 1.733 15733
0.753 0.690 1.737 20438
0.759 0.696 1.741 17423
0.766 0.702 1.744 14008
0.769 0.706 1.741 10998
0.776 0.712 1.744 10330
0.780 0.715 1.741 13802
0.780 0.715 1.732 16814
0.786 0.721 1.735 16754
0.790 0.724 1.732 16235
0.793 0.727 1.729 18959
0.793 0.727 1.719 18802
0.797 0.730 1.716 13035
0.803 0.737 1.719 7390
0.810 0.743 1.722 10344
0.814 0.746 1.719 15300
0.813 0.746 1.709 17937
0.817 0.749 1.706 18087
0.820 0.752 1.703 15358
0.827 0.758 1.706 13272
0.834 0.765 1.709 13610
0.837 0.768 1.705 13109
0.840 0.771 1.702 11887
0.851 0.780 1.711 9919
0.865 0.793 1.727 8260
0.872 0.799 1.729 7692
0.868 0.796 1.713 9216
0.871 0.799 1.710 14029
0.875 0.802 1.706 16889
0.885 0.812 1.715 17997
0.892 0.818 1.718 21884
0.896 0.821 1.714 26006
0.903 0.828 1.717 23457
0.910 0.834 1.719 18206
0.913 0.837 1.716 13521
0.913 0.837 1.706 9447
0.916 0.840 1.702 6365
0.919 0.843 1.699 7933
0.926 0.850 1.701 11570
0.933 0.856 1.703 10461
0.948 0.869 1.718 7250
0.955 0.876 1.720 7254
0.962 0.882 1.722 15042
0.966 0.886 1.718 18591
0.973 0.892 1.720 13479
0.980 0.899 1.723 13198
0.983 0.902 1.719 21147
0.991 0.908 1.721 28819
0.998 0.915 1.723 35178
1.001 0.918 1.719 37423
1.005 0.921 1.714 30832
1.012 0.928 1.716 19552
1.011 0.927 1.706 10613
1.011 0.927 1.696 6729
1.018 0.933 1.698 8102
1.021 0.937 1.694 10334
1.033 0.947 1.702 8615
1.048 0.961 1.715 15498
1.055 0.967 1.717 24799
1.058 0.971 1.712 23927
1.062 0.974 1.708 20471
1.073 0.984 1.715 22231
1.085 0.995 1.722 24391
1.088 0.998 1.718 23332
1.087 0.997 1.708 20164
1.095 1.004 1.709 12189
1.118 1.025 1.733 8241
1.122 1.029 1.729 20654
1.121 1.028 1.719 35144
1.129 1.035 1.720 33892
1.132 1.038 1.715 30458
1.135 1.041 1.711 31345
1.139 1.044 1.706 20525
1.134 1.040 1.690 9939
1.133 1.039 1.680 12073
1.157 1.061 1.703 12157
1.190 1.091 1.737 20159
1.193 1.094 1.733 32465
1.192 1.093 1.722 29831
1.196 1.096 1.718 25896
1.203 1.103 1.718 28088
1.211 1.110 1.719 26563
1.218 1.117 1.719 21193
1.222 1.120 1.714 12533
1.221 1.120 1.704 6908
1.237 1.134 1.715 11270
1.245 1.141 1.716 16343
1.248 1.145 1.711 17284
1.256 1.152 1.711 18058
1.259 1.155 1.706 16395
1.267 1.162 1.706 16798
1.270 1.165 1.701 19414
1.278 1.172 1.701 19589
1.290 1.183 1.707 20096
1.298 1.190 1.707 13318
1.314 1.205 1.717 8675
1.322 1.212 1.717 13136
1.326 1.215 1.712 18169
1.333 1.223 1.711 21056
1.337 1.226 1.706 19115
1.340 1.229 1.701 12886
1.343 1.232 1.695 8591
1.347 1.235 1.690 5894
1.363 1.250 1.700 6910
1.371 1.257 1.699 10791
1.375 1.261 1.694 10287
1.387 1.272 1.698 9938
1.404 1.287 1.708 9052
1.416 1.299 1.712 10306
1.420 1.302 1.706 10006
1.428 1.309 1.705 10299
1.436 1.316 1.705 8338
1.453 1.332 1.713 6990
1.465 1.344 1.717 8467
1.469 1.347 1.711 7368
1.472 1.350 1.706 6950
1.475 1.353 1.700 8748
1.479 1.356 1.694 9653
1.491 1.367 1.697 12051
1.509 1.383 1.706 14492
1.517 1.391 1.704 12261
1.525 1.398 1.703 10375
1.528 1.401 1.697 12282
1.531 1.404 1.691 11212
1.535 1.407 1.685 13659
1.538 1.410 1.679 23569
1.536 1.409 1.668 26696
1.540 1.412 1.662 25272
1.543 1.415 1.655 21867
1.541 1.413 1.645 14175
1.545 1.416 1.638 10290
1.553 1.424 1.637 8080
1.546 1.418 1.622 6447
1.554 1.425 1.620 5838
1.654 1.516 1.703 5926
1.662 1.524 1.701 7316
1.680 1.540 1.708 7594
1.726 1.583 1.741 9812
1.730 1.586 1.734 12632
1.728 1.585 1.723 14724
1.722 1.579 1.707 14870
1.716 1.573 1.691 10302
1.768 1.621 1.728 7087
1.766 1.620 1.716 6836
1.789 1.641 1.726 4896
1.812 1.662 1.736 5792
1.811 1.661 1.725 6111
1.804 1.655 1.709 6021
1.803 1.653 1.698 6065
1.806 1.656 1.691 6615
1.819 1.668 1.692 7536
1.828 1.676 1.689 8584
1.841 1.688 1.690 7072
1.864 1.709 1.699 4361
1.902 1.745 1.720 5356
1.906 1.748 1.712 5664
1.894 1.737 1.692 6011
1.897 1.740 1.685 5898
1.901 1.743 1.677 5905
1.975 1.811 1.726 6381
1.988 1.823 1.726 8054
1.986 1.822 1.714 7483
1.990 1.825 1.706 6918
1.988 1.823 1.694 5418
2.032 1.863 1.717 4907
2.035 1.866 1.709 5070
1.998 1.832 1.670 4959
2.083 1.910 1.723 5428
2.086 1.913 1.715 6015
2.090 1.916 1.707 6601
2.093 1.919 1.698 7141
2.101 1.927 1.694 7683
2.094 1.921 1.678 9394
2.098 1.924 1.669 11271
2.101 1.927 1.661 10809
2.109 1.934 1.656 10425
2.118 1.942 1.652 8339
2.137 1.959 1.654 7501
2.145 1.967 1.649 5694
2.174 1.994 1.658 4832
2.167 1.987 1.643 3501
2.243 2.057 1.684 3382
2.252 2.065 1.678 4245
2.260 2.073 1.673 5212
2.274 2.085 1.671 6172
2.283 2.093 1.665 7340
2.291 2.101 1.659 6087
2.300 2.109 1.654 5080
2.303 2.112 1.644 4128
2.433 2.231 1.716 4005
2.447 2.244 1.713 4639
2.455 2.252 1.707 5577
2.459 2.255 1.697 5577
2.473 2.267 1.694 5283
2.481 2.275 1.687 5427
2.490 2.283 1.681 4525
2.509 2.301 1.680 4491
2.512 2.304 1.670 4489
2.510 2.302 1.657 4535
2.514 2.305 1.647 4535
2.517 2.308 1.637 2267
0.507 0.462 1.732 7501
0.510 0.465 1.730 11831
0.511 0.466 1.720 16292
0.515 0.469 1.718 17365
0.520 0.475 1.723 19287
0.524 0.478 1.721 20101
0.527 0.481 1.719 17369
0.531 0.484 1.717 14637
0.534 0.487 1.715 13877
0.540 0.492 1.720 13347
0.541 0.493 1.710 10591
0.539 0.492 1.694 8654
0.542 0.495 1.692 9329
0.548 0.500 1.697 11873
0.554 0.505 1.701 13844
0.568 0.518 1.727 15214
0.577 0.526 1.739 18479
0.580 0.529 1.737 18625
0.584 0.532 1.735 18771
0.587 0.535 1.732 20017
0.590 0.538 1.730 21262
0.596 0.544 1.734 22435
0.600 0.547 1.732 24185
0.606 0.553 1.737 22036
0.609 0.556 1.734 20330
0.613 0.559 1.732 15440
0.619 0.565 1.736 10612
0.620 0.565 1.727 10475
0.623 0.568 1.724 10400
0.627 0.571 1.722 13315
0.633 0.577 1.726 16585
0.636 0.580 1.723 16508
0.640 0.583 1.721 12185
0.646 0.589 1.725 8295
0.658 0.600 1.743 6158
0.670 0.611 1.761 5101
0.668 0.609 1.745 8451
0.671 0.612 1.742 11990
0.672 0.613 1.732 15142
0.678 0.618 1.736 16413
0.681 0.622 1.734 14922
0.688 0.627 1.738 11718
0.691 0.631 1.735 8758
0.695 0.634 1.732 7888
0.698 0.637 1.729 9496
0.702 0.640 1.726 11973
0.705 0.643 1.724 11402
0.708 0.646 1.721 10138
0.715 0.652 1.725 10685
0.721 0.658 1.728 14290
0.725 0.661 1.725 16502
0.728 0.664 1.722 13950
0.732 0.667 1.720 11206
0.738 0.673 1.723 9214
0.748 0.682 1.733 11903
0.755 0.688 1.737 18411
0.761 0.694 1.741 18593
0.765 0.697 1.738 16819
0.765 0.698 1.728 14914
0.775 0.707 1.738 13732
0.781 0.713 1.741 16474
0.782 0.713 1.732 19263
0.788 0.719 1.735 19089
0.795 0.725 1.738 18684
0.795 0.725 1.729 20945
0.799 0.728 1.725 19791
0.799 0.728 1.716 13101
0.805 0.735 1.719 8198
0.812 0.741 1.722 11302
0.816 0.744 1.719 15657
0.819 0.747 1.716 17540
0.819 0.747 1.706 16996
0.822 0.750 1.703 13934
0.829 0.756 1.706 11628
0.836 0.762 1.709 11100
0.839 0.765 1.705 10401
0.843 0.768 1.702 9663
0.853 0.778 1.711 8219
0.867 0.791 1.727 8702
0.870 0.794 1.723 8946
0.874 0.797 1.720 10201
0.874 0.797 1.710 14738
0.880 0.803 1.713 17529
0.887 0.809 1.715 18220
0.891 0.812 1.712 20935
0.898 0.819 1.714 24593
0.905 0.825 1.717 23906
0.912 0.832 1.719 20390
0.915 0.835 1.716 16362
0.915 0.834 1.706 12468
0.918 0.838 1.702 7922
0.922 0.841 1.699 8118
0.929 0.847 1.701 12594
0.936 0.853 1.703 11795
0.950 0.867 1.718 8890
0.961 0.877 1.726 11170
0.968 0.883 1.728 18881
0.972 0.886 1.724 21571
0.975 0.889 1.720 15149
0.979 0.893 1.717 13685
0.986 0.899 1.719 21207
0.993 0.906 1.721 27332
1.000 0.912 1.723 32749
1.004 0.915 1.719 34725
1.007 0.918 1.714 26482
1.014 0.925 1.716 13120
1.014 0.925 1.706 6890
1.013 0.924 1.696 7197
1.020 0.931 1.698 8647
1.024 0.934 1.694 9728
1.031 0.940 1.696 7736
1.046 0.954 1.709 12283
1.054 0.961 1.711 18939
1.065 0.971 1.718 20647
1.068 0.974 1.714 20062
1.076 0.981 1.715 21512
1.087 0.992 1.722 22069
1.087 0.991 1.712 21304
1.090 0.994 1.708 19197
1.097 1.001 1.709 10636
1.117 1.019 1.728 10300
1.124 1.026 1.729 21104
1.128 1.029 1.724 34822
1.131 1.032 1.720 35434
1.139 1.039 1.721 29322
1.138 1.038 1.711 27192
1.146 1.045 1.712 18715
1.157 1.055 1.718 11627
1.169 1.066 1.725 11689
1.172 1.069 1.720 11717
1.193 1.088 1.737 21479
1.196 1.091 1.733 32943
1.195 1.090 1.722 33008
1.199 1.093 1.718 29974
1.206 1.100 1.718 30847
1.214 1.107 1.719 29448
1.221 1.114 1.719 22950
1.225 1.117 1.714 11859
1.237 1.128 1.720 5899
1.244 1.135 1.721 10960
1.248 1.138 1.716 13711
1.251 1.141 1.711 12989
1.259 1.148 1.711 14727
1.262 1.151 1.706 15553
1.270 1.158 1.706 17736
1.273 1.161 1.701 21984
1.281 1.168 1.701 22580
1.293 1.179 1.707 22319
1.301 1.187 1.707 16778
1.318 1.202 1.717 12519
1.330 1.213 1.722 15130
1.329 1.212 1.712 17670
1.337 1.219 1.711 20122
1.344 1.226 1.711 18421
1.343 1.225 1.701 11985
1.351 1.232 1.700 8789
1.354 1.235 1.695 7046
1.367 1.247 1.700 6481
1.379 1.258 1.704 8866
1.383 1.261 1.699 8688
1.386 1.264 1.693 9193
1.394 1.271 1.693 8437
1.415 1.291 1.707 9121
1.423 1.298 1.706 10110
1.431 1.305 1.705 10535
1.439 1.313 1.705 7706
1.456 1.328 1.713 5575
1.469 1.340 1.717 6136
1.472 1.343 1.711 5259
1.471 1.342 1.701 5881
1.484 1.353 1.705 8063
1.487 1.356 1.699 8896
1.490 1.359 1.693 9716
1.508 1.375 1.701 10487
1.520 1.387 1.704 8764
1.524 1.390 1.698 8807
1.532 1.397 1.697 11724
1.535 1.400 1.691 10571
1.534 1.399 1.680 13102
1.537 1.402 1.674 22767
1.540 1.405 1.668 26678
1.544 1.408 1.662 25956
1.547 1.411 1.655 22447
1.545 1.409 1.645 14015
1.548 1.412 1.638 9236
1.552 1.415 1.632 6871
1.550 1.414 1.622 5564
1.645 1.500 1.701 5637
1.658 1.512 1.703 5494
1.700 1.550 1.732 6335
1.689 1.540 1.712 7020
1.687 1.539 1.701 6281
1.734 1.582 1.734 6897
1.733 1.580 1.723 9304
1.721 1.570 1.703 10543
1.715 1.564 1.687 7107
1.767 1.612 1.723 8346
1.771 1.615 1.716 7367
1.764 1.609 1.701 4918
1.817 1.657 1.736 5370
1.815 1.656 1.725 6138
1.809 1.650 1.709 6200
1.802 1.644 1.694 5749
1.816 1.656 1.695 6125
1.829 1.668 1.696 7578
1.842 1.680 1.697 9459
1.850 1.688 1.694 8106
1.864 1.700 1.694 4873
1.907 1.739 1.720 4893
1.905 1.738 1.708 5063
1.894 1.727 1.688 5887
1.897 1.730 1.681 5971
1.900 1.733 1.673 5877
1.904 1.736 1.666 5784
1.993 1.818 1.726 7195
1.996 1.821 1.718 6709
1.990 1.815 1.702 6365
1.993 1.818 1.694 5231
2.042 1.862 1.721 5676
2.045 1.866 1.713 5739
2.074 1.892 1.724 5531
2.083 1.900 1.719 5758
2.091 1.907 1.715 5904
2.100 1.915 1.710 6143
2.103 1.918 1.702 7184
2.101 1.917 1.690 8231
2.100 1.915 1.678 9570
2.098 1.913 1.666 11243
2.106 1.921 1.661 9619
2.115 1.929 1.656 8338
2.128 1.941 1.655 7642
2.142 1.954 1.654 7562
2.150 1.961 1.649 5711
2.180 1.988 1.658 4668
2.235 2.039 1.685 3420
2.238 2.042 1.676 3515
2.257 2.059 1.678 4169
2.266 2.067 1.673 4934
2.280 2.079 1.671 5800
2.288 2.087 1.665 6942
2.297 2.095 1.659 5853
2.305 2.103 1.654 5042
2.309 2.106 1.644 4311
2.439 2.224 1.716 3632
2.453 2.237 1.713 4290
2.461 2.245 1.707 5207
2.465 2.248 1.697 5207
2.473 2.256 1.691 4906
2.482 2.264 1.684 4920
2.496 2.276 1.681 4032
2.515 2.294 1.680 4169
2.519 2.297 1.670 4100
2.517 2.295 1.657 4050
2.520 2.298 1.647 4050
2.523 2.301 1.637 2025
0.508 0.461 1.732 7890
0.512 0.464 1.730 11659
0.513 0.465 1.720 15588
0.516 0.468 1.718 16733
0.522 0.473 1.723 18647
0.525 0.476 1.721 19498
0.529 0.479 1.719 16540
0.532 0.482 1.717 13582
0.535 0.485 1.715 12873
0.544 0.493 1.727 12537
0.542 0.492 1.710 10143
0.543 0.492 1.701 8406
0.546 0.495 1.699 9261
0.550 0.498 1.697 11734
0.553 0.501 1.694 13352
0.570 0.516 1.727 14139
0.578 0.524 1.739 17296
0.582 0.527 1.737 17794
0.585 0.530 1.735 18293
0.589 0.534 1.732 19727
0.592 0.537 1.730 21161
0.598 0.542 1.734 22290
0.602 0.545 1.732 23959
0.608 0.551 1.737 21631
0.611 0.554 1.734 19693
0.615 0.557 1.732 14955
0.621 0.563 1.736 10242
0.621 0.563 1.727 10074
0.625 0.566 1.724 9931
0.631 0.572 1.728 12610
0.634 0.575 1.726 15629
0.638 0.578 1.723 15507
0.641 0.581 1.721 11284
0.648 0.587 1.725 7631
0.660 0.598 1.743 6126
0.663 0.601 1.740 4586
0.667 0.604 1.738 7572
0.670 0.607 1.735 10559
0.673 0.611 1.732 13748
0.677 0.614 1.730 15146
0.683 0.620 1.734 13758
0.687 0.623 1.731 10816
0.693 0.628 1.735 7955
0.694 0.629 1.725 8176
0.697 0.632 1.722 11977
0.703 0.638 1.726 15656
0.704 0.638 1.717 16070
0.710 0.644 1.721 15175
0.714 0.647 1.718 14983
0.720 0.653 1.722 16290
0.730 0.662 1.732 15472
0.736 0.668 1.736 12074
0.737 0.668 1.726 7965
0.737 0.668 1.717 7771
0.747 0.677 1.727 11509
0.757 0.686 1.737 17372
0.760 0.689 1.734 20474
0.767 0.695 1.738 20410
0.767 0.695 1.728 19400
0.774 0.701 1.731 17000
0.784 0.710 1.741 18133
0.787 0.714 1.738 20360
0.794 0.720 1.742 20652
0.797 0.723 1.738 21034
0.797 0.723 1.729 22591
0.801 0.726 1.725 20331
0.801 0.726 1.716 13180
0.808 0.732 1.719 9146
0.814 0.738 1.722 12067
0.818 0.741 1.719 15538
0.821 0.744 1.716 16895
0.825 0.747 1.712 15881
0.828 0.751 1.709 12610
0.831 0.754 1.706 9808
0.835 0.757 1.702 8238
0.838 0.760 1.699 7456
0.845 0.766 1.702 7025
0.859 0.779 1.717 6567
0.869 0.788 1.727 9091
0.873 0.791 1.723 10238
0.876 0.794 1.720 10935
0.876 0.794 1.710 14647
0.883 0.800 1.713 17457
0.890 0.807 1.715 17890
0.893 0.810 1.712 19270
0.900 0.816 1.714 21814
0.907 0.823 1.717 22629
0.914 0.829 1.719 20667
0.914 0.829 1.710 17925
0.921 0.835 1.712 14770
0.928 0.841 1.715 9255
0.928 0.841 1.705 8416
0.931 0.844 1.701 13692
0.938 0.851 1.703 12867
0.953 0.864 1.718 11828
0.960 0.870 1.720 16732
0.967 0.877 1.722 22968
0.974 0.883 1.724 24065
0.978 0.887 1.720 15617
0.981 0.890 1.717 12546
0.988 0.896 1.719 19955
0.996 0.903 1.721 25469
1.003 0.909 1.723 29233
1.006 0.912 1.719 29727
1.010 0.915 1.714 21617
1.017 0.922 1.716 10833
1.020 0.925 1.712 9576
1.020 0.925 1.702 10357
1.023 0.928 1.698 8692
1.027 0.931 1.694 8729
1.030 0.934 1.690 7517
1.049 0.951 1.709 9351
1.057 0.958 1.711 12470
1.068 0.968 1.718 17142
1.071 0.971 1.714 20814
1.079 0.978 1.715 21925
1.086 0.985 1.717 20165
1.090 0.988 1.712 18473
1.093 0.991 1.708 16884
1.108 1.005 1.721 10533
1.116 1.012 1.722 12357
1.123 1.019 1.723 21234
1.131 1.025 1.724 34527
1.134 1.028 1.720 35950
1.142 1.035 1.721 27303
1.141 1.035 1.711 22011
1.149 1.041 1.712 17137
1.160 1.052 1.718 14114
1.172 1.063 1.725 12876
1.180 1.070 1.726 12807
1.196 1.084 1.737 20975
1.199 1.087 1.733 30627
1.198 1.086 1.722 32800
1.202 1.090 1.718 31008
1.209 1.096 1.718 31428
1.217 1.103 1.719 30653
1.225 1.110 1.719 23164
1.232 1.117 1.720 13226
1.244 1.128 1.726 10120
1.248 1.131 1.721 12168
1.251 1.134 1.716 10522
1.259 1.141 1.716 9168
1.267 1.148 1.716 13133
1.266 1.148 1.706 15652
1.269 1.151 1.701 17498
1.277 1.158 1.701 21718
1.285 1.165 1.701 23534
1.292 1.172 1.701 23060
1.305 1.183 1.707 18956
1.321 1.198 1.717 16167
1.329 1.205 1.717 16570
1.332 1.208 1.712 16622
1.345 1.219 1.716 18092
1.348 1.222 1.711 16908
1.347 1.221 1.701 11062
1.359 1.232 1.705 9344
1.363 1.235 1.700 8235
1.380 1.251 1.710 5960
1.387 1.258 1.709 6729
1.386 1.257 1.699 6963
1.390 1.260 1.693 9043
1.393 1.263 1.688 10100
1.410 1.278 1.697 9279
1.427 1.294 1.706 10161
1.435 1.301 1.705 10182
1.429 1.296 1.690 6875
1.465 1.328 1.718 4205
1.473 1.335 1.717 4072
1.453 1.317 1.687 4327
1.466 1.329 1.691 5863
1.492 1.353 1.709 7465
1.496 1.356 1.703 9203
1.490 1.351 1.688 8292
1.498 1.358 1.687 6008
1.524 1.382 1.704 5283
1.528 1.385 1.698 7769
1.531 1.388 1.692 11700
1.539 1.395 1.691 10801
1.538 1.394 1.680 12659
1.541 1.397 1.674 20890
1.544 1.400 1.668 25006
1.548 1.403 1.662 24968
1.551 1.406 1.655 21576
1.554 1.409 1.649 13043
1.553 1.408 1.638 7489
1.652 1.498 1.723 5980
1.651 1.496 1.712 5306
1.649 1.495 1.701 5760
1.652 1.498 1.694 4818
1.704 1.545 1.732 6462
1.703 1.544 1.721 7067
1.701 1.542 1.710 5875
1.700 1.541 1.699 5278
1.708 1.549 1.696 6866
1.711 1.552 1.690 7403
1.769 1.603 1.731 7999
1.772 1.607 1.723 10061
1.771 1.605 1.712 8270
1.769 1.604 1.701 5289
1.822 1.652 1.736 5203
1.820 1.650 1.725 6539
1.819 1.649 1.713 7077
1.817 1.647 1.702 6238
1.825 1.655 1.699 6379
1.839 1.667 1.700 7946
1.847 1.675 1.697 10176
1.855 1.682 1.694 8875
1.859 1.685 1.686 5574
1.912 1.734 1.720 4119
1.886 1.709 1.688 4659
1.894 1.717 1.684 5675
1.902 1.725 1.681 6057
1.906 1.728 1.673 5843
1.909 1.731 1.666 5628
1.998 1.812 1.726 6051
1.997 1.810 1.714 5831
1.995 1.809 1.702 5834
2.034 1.844 1.721 5412
2.043 1.852 1.717 6550
2.051 1.859 1.713 6353
2.080 1.886 1.724 5777
2.089 1.893 1.719 5682
2.097 1.901 1.715 5443
2.106 1.909 1.710 5449
2.109 1.912 1.702 7254
2.107 1.910 1.690 9090
2.105 1.909 1.678 9918
2.109 1.912 1.669 10969
2.112 1.915 1.661 8928
2.126 1.927 1.660 7058
2.139 1.939 1.659 7095
2.148 1.947 1.654 7463
2.156 1.955 1.649 5470
2.191 1.986 1.662 4326
2.236 2.027 1.682 3537
2.244 2.035 1.676 3546
2.264 2.052 1.678 3984
2.272 2.060 1.673 4538
2.281 2.068 1.667 5223
2.294 2.080 1.665 6129
2.303 2.088 1.659 5188
2.312 2.096 1.654 4572
2.315 2.099 1.644 4214
2.323 2.106 1.639 3858
2.459 2.230 1.713 3803
2.468 2.238 1.707 4675
2.471 2.241 1.697 4675
2.480 2.248 1.691 4420
2.489 2.256 1.684 4375
2.503 2.269 1.681 3514
2.527 2.291 1.684 3765
2.525 2.290 1.670 3541
2.529 2.293 1.660 3350
2.532 2.295 1.650 3350
2.535 2.298 1.640 1675
0.500 0.451 1.703 8158
0.510 0.461 1.722 11517
0.514 0.464 1.720 15037
0.517 0.467 1.718 16175
0.523 0.472 1.723 18040
0.526 0.475 1.721 18915
0.530 0.478 1.719 15719
0.533 0.481 1.717 12524
0.539 0.487 1.722 11874
0.545 0.492 1.727 11649
0.546 0.493 1.717 9569
0.544 0.491 1.701 8086
0.547 0.494 1.699 8995
0.551 0.497 1.697 11330
0.554 0.500 1.694 12755
0.571 0.515 1.727 13217
0.579 0.523 1.739 16350
0.583 0.526 1.737 17148
0.586 0.529 1.735 17947
0.590 0.532 1.732 19477
0.593 0.535 1.730 21007
0.599 0.541 1.734 22016
0.603 0.544 1.732 23530
0.609 0.550 1.737 21092
0.612 0.553 1.734 19013
0.616 0.556 1.732 14470
0.619 0.559 1.729 9926
0.623 0.562 1.727 9729
0.626 0.565 1.724 9532
0.632 0.571 1.728 11980
0.636 0.574 1.726 14714
0.639 0.577 1.723 14523
0.645 0.583 1.728 10571
0.652 0.588 1.732 7158
0.658 0.594 1.736 6402
0.659 0.594 1.727 5349
0.665 0.600 1.731 8006
0.668 0.603 1.728 10692
0.672 0.606 1.725 13579
0.678 0.612 1.730 14849
0.685 0.618 1.734 13531
0.688 0.621 1.731 10811
0.695 0.627 1.735 8085
0.695 0.627 1.725 7800
0.698 0.630 1.722 10946
0.705 0.636 1.726 14470
0.708 0.639 1.724 14971
0.712 0.642 1.721 13578
0.718 0.648 1.725 12880
0.725 0.654 1.728 14973
0.728 0.657 1.725 16030
0.732 0.660 1.722 14216
0.732 0.661 1.713 11548
0.735 0.664 1.710 9595
0.748 0.675 1.727 10439
0.758 0.684 1.737 16757
0.762 0.687 1.734 21491
0.768 0.693 1.738 22528
0.772 0.697 1.734 21173
0.775 0.700 1.731 18041
0.785 0.709 1.741 18685
0.789 0.712 1.738 20522
0.795 0.718 1.742 21434
0.799 0.721 1.738 22273
0.799 0.721 1.729 23195
0.802 0.724 1.725 20221
0.802 0.724 1.716 13287
0.806 0.727 1.712 10056
0.816 0.736 1.722 12719
0.823 0.743 1.725 15577
0.823 0.743 1.716 16440
0.826 0.746 1.712 15118
0.830 0.749 1.709 11849
0.833 0.752 1.706 9024
0.840 0.758 1.709 6849
0.840 0.758 1.699 5621
0.850 0.767 1.708 5781
0.861 0.777 1.717 6114
0.867 0.783 1.720 9686
0.874 0.789 1.723 11489
0.881 0.796 1.726 11659
0.881 0.795 1.716 14516
0.885 0.798 1.713 16946
0.892 0.805 1.715 17204
0.895 0.808 1.712 17625
0.902 0.814 1.714 18934
0.909 0.821 1.717 20375
0.912 0.824 1.713 19286
0.916 0.827 1.710 17772
0.923 0.833 1.712 15681
0.937 0.846 1.727 10286
0.941 0.849 1.723 8954
0.937 0.846 1.707 14228
0.944 0.852 1.709 13295
0.955 0.862 1.718 14190
0.962 0.868 1.720 21063
0.969 0.875 1.722 25749
0.976 0.881 1.724 25209
0.980 0.884 1.720 15495
0.983 0.887 1.717 11559
0.990 0.894 1.719 18329
0.998 0.901 1.721 22808
1.005 0.907 1.723 25006
1.008 0.910 1.719 24574
1.012 0.913 1.714 17499
1.019 0.920 1.716 11376
1.022 0.923 1.712 13720
1.026 0.926 1.708 12482
1.029 0.929 1.704 8335
1.033 0.932 1.700 7865
1.036 0.935 1.696 7654
1.043 0.942 1.698 8107
1.055 0.952 1.705 7767
1.070 0.966 1.718 14229
1.077 0.972 1.720 21069
1.081 0.976 1.715 22688
1.088 0.982 1.717 19435
1.092 0.985 1.712 15888
1.099 0.992 1.714 14444
1.111 1.002 1.721 10858
1.114 1.006 1.716 14194
1.122 1.012 1.717 21733
1.129 1.019 1.719 33653
1.137 1.026 1.720 35458
1.144 1.033 1.721 25941
1.143 1.032 1.711 17990
1.151 1.039 1.712 16334
1.163 1.049 1.718 16436
1.170 1.056 1.719 13696
1.182 1.067 1.726 13310
1.194 1.078 1.732 18454
1.202 1.085 1.733 25721
1.201 1.084 1.722 29392
1.204 1.087 1.718 29692
1.212 1.094 1.718 30384
1.220 1.101 1.719 29861
1.227 1.108 1.719 21870
1.239 1.118 1.725 15941
1.243 1.122 1.720 16167
1.250 1.129 1.721 14580
1.258 1.136 1.721 9053
1.266 1.143 1.721 8094
1.274 1.150 1.722 13540
1.273 1.149 1.711 16521
1.272 1.148 1.701 17814
1.279 1.155 1.701 20608
1.287 1.162 1.701 22524
1.295 1.169 1.701 23317
1.307 1.180 1.707 20430
1.319 1.191 1.712 17736
1.332 1.202 1.717 16656
1.335 1.205 1.712 15401
1.347 1.216 1.716 16373
1.351 1.219 1.711 15588
1.354 1.222 1.706 10557
1.362 1.229 1.705 10044
1.370 1.236 1.705 9498
1.382 1.248 1.710 5748
1.395 1.259 1.714 4751
1.389 1.254 1.699 5491
1.392 1.257 1.693 9493
1.396 1.260 1.688 12209
1.408 1.271 1.692 10503
1.425 1.286 1.701 10130
1.433 1.294 1.700 9661
1.427 1.288 1.685 6564
1.422 1.283 1.669 3973
1.425 1.286 1.664 2962
1.456 1.314 1.687 4462
1.464 1.321 1.686 6469
1.500 1.354 1.714 7367
1.503 1.357 1.708 10378
1.502 1.356 1.697 8486
1.496 1.350 1.682 4477
1.528 1.379 1.704 3842
1.531 1.382 1.698 7508
1.534 1.385 1.692 11657
1.538 1.388 1.686 11395
1.541 1.391 1.680 12354
1.544 1.394 1.674 18581
1.548 1.397 1.668 22534
1.551 1.400 1.662 23031
1.554 1.403 1.655 19827
1.557 1.406 1.649 11541
1.613 1.456 1.693 6636
1.670 1.507 1.737 6017
1.659 1.497 1.716 5414
1.657 1.496 1.705 5844
1.704 1.538 1.739 4570
1.708 1.541 1.732 6673
1.711 1.544 1.726 7147
1.715 1.547 1.719 6423
1.713 1.546 1.708 6536
1.712 1.545 1.696 7353
1.715 1.548 1.690 7270
1.772 1.600 1.731 8964
1.771 1.598 1.719 11457
1.774 1.601 1.712 9083
1.773 1.600 1.701 5714
1.825 1.648 1.736 5215
1.824 1.646 1.725 7086
1.822 1.645 1.713 8304
1.826 1.648 1.706 7470
1.829 1.651 1.699 7258
1.847 1.667 1.704 8510
1.851 1.670 1.697 10469
1.859 1.678 1.694 9171
1.863 1.681 1.686 6120
1.861 1.680 1.675 4314
1.884 1.701 1.684 4565
1.893 1.708 1.680 5239
1.906 1.720 1.681 5838
1.909 1.723 1.673 5540
1.913 1.726 1.666 5241
2.002 1.807 1.726 5542
2.001 1.806 1.714 5482
1.999 1.804 1.702 5652
2.028 1.830 1.713 5552
2.041 1.843 1.713 6747
2.055 1.855 1.713 6336
2.079 1.876 1.720 5745
2.088 1.884 1.716 5521
2.101 1.897 1.715 5034
2.115 1.909 1.714 5042
2.113 1.907 1.702 7515
2.117 1.910 1.694 9997
2.115 1.909 1.682 10925
2.113 1.907 1.669 12021
2.116 1.910 1.661 9133
2.119 1.913 1.653 6245
2.144 1.935 1.659 6556
2.152 1.942 1.654 7170
2.155 1.945 1.645 5242
2.200 1.986 1.666 4108
2.240 2.022 1.682 3466
2.249 2.030 1.676 3423
2.268 2.047 1.678 3753
2.277 2.055 1.673 4147
2.285 2.063 1.667 4762
2.299 2.075 1.665 5493
2.308 2.083 1.659 4677
2.316 2.091 1.654 4203
2.319 2.093 1.644 4114
2.328 2.101 1.639 4055
2.470 2.229 1.717 3338
2.473 2.232 1.707 4134
2.476 2.235 1.697 4134
2.485 2.243 1.691 3956
2.494 2.251 1.684 3898
2.502 2.259 1.677 3133
2.533 2.286 1.684 3402
2.536 2.289 1.674 3066
2.539 2.292 1.664 2730
2.542 2.295 1.653 2730
2.546 2.298 1.643 1365
0.503 0.452 1.710 8470
0.511 0.460 1.722 11425
0.514 0.463 1.720 14593
0.518 0.466 1.718 15774
0.524 0.471 1.723 17638
0.527 0.474 1.721 18555
0.530 0.477 1.719 15144
0.534 0.480 1.717 11734
0.540 0.486 1.722 11135
0.546 0.491 1.727 10993
0.549 0.494 1.725 9167
0.545 0.490 1.701 7817
0.548 0.493 1.699 8789
0.552 0.496 1.697 11005
0.555 0.499 1.694 12248
0.571 0.514 1.727 12556
0.580 0.522 1.739 15708
0.584 0.525 1.737 16694
0.587 0.528 1.735 17680
0.591 0.531 1.732 19281
0.594 0.534 1.730 20881
0.600 0.540 1.734 21729
0.604 0.543 1.732 23040
0.610 0.549 1.737 20533
0.613 0.552 1.734 18348
0.617 0.555 1.732 14023
0.620 0.558 1.729 9697
0.624 0.561 1.727 9448
0.627 0.564 1.724 9200
0.633 0.570 1.728 11426
0.637 0.573 1.726 13895
0.640 0.576 1.723 13593
0.646 0.582 1.728 10000
0.659 0.593 1.746 7046
0.656 0.590 1.729 6904
0.657 0.591 1.720 6862
0.663 0.597 1.724 9206
0.669 0.602 1.728 11765
0.673 0.605 1.725 14362
0.679 0.611 1.730 15357
0.686 0.617 1.734 14067
0.689 0.620 1.731 11467
0.693 0.623 1.728 8799
0.696 0.626 1.725 7945
0.699 0.629 1.722 10658
0.706 0.635 1.726 14240
0.709 0.638 1.724 15404
0.713 0.641 1.721 15241
0.719 0.647 1.725 15396
0.723 0.650 1.722 17797
0.729 0.656 1.725 18055
0.733 0.659 1.722 15091
0.733 0.659 1.713 11112
0.739 0.665 1.717 8577
0.749 0.674 1.727 10096
0.756 0.680 1.730 16513
0.763 0.686 1.734 21730
0.769 0.692 1.738 22762
0.773 0.695 1.734 21721
0.779 0.701 1.738 18431
0.786 0.707 1.741 18716
0.790 0.711 1.738 20390
0.796 0.717 1.742 21695
0.800 0.720 1.738 22718
0.800 0.720 1.729 23222
0.803 0.723 1.725 19822
0.803 0.723 1.716 13484
0.807 0.726 1.712 11218
0.817 0.735 1.722 13763
0.824 0.741 1.725 16155
0.824 0.741 1.716 16476
0.827 0.744 1.712 14793
0.831 0.747 1.709 11417
0.838 0.754 1.712 8653
0.844 0.760 1.715 6245
0.848 0.763 1.712 5240
0.851 0.766 1.708 5873
0.858 0.772 1.711 6504
0.869 0.782 1.720 10631
0.876 0.788 1.723 12905
0.883 0.794 1.726 12625
0.882 0.794 1.716 14246
0.886 0.797 1.713 16249
0.893 0.803 1.715 16520
0.896 0.806 1.712 16194
0.900 0.809 1.708 16385
0.914 0.822 1.723 17833
0.914 0.822 1.713 17213
0.917 0.825 1.710 16876
0.924 0.832 1.712 15905
0.939 0.845 1.727 10903
0.942 0.848 1.723 9824
0.938 0.844 1.707 14680
0.945 0.851 1.709 14372
0.952 0.857 1.712 17156
0.960 0.863 1.714 24906
0.971 0.873 1.722 27938
0.978 0.880 1.724 26039
0.977 0.879 1.714 15447
0.981 0.882 1.711 10825
0.988 0.889 1.713 16969
