0.122 2.495 1.659 7029
0.123 2.499 1.652 7455
0.123 2.503 1.644 6596
0.123 2.508 1.637 5552
0.124 2.519 1.634 4530
0.123 2.516 1.622 4105
0.129 2.623 1.674 4599
0.129 2.635 1.670 6545
0.130 2.646 1.666 8246
0.130 2.650 1.659 10131
0.131 2.662 1.655 10256
0.131 2.673 1.651 9027
0.131 2.663 1.635 8046
0.131 2.661 1.624 6360
0.134 2.735 1.654 6847
0.135 2.753 1.653 6452
0.136 2.771 1.652 6772
0.136 2.769 1.641 6225
0.136 2.773 1.632 5822
0.136 2.777 1.624 5427
0.137 2.789 1.620 5185
0.145 2.954 1.695 6317
0.145 2.959 1.687 7693
0.145 2.956 1.674 6727
0.145 2.946 1.658 6048
0.144 2.944 1.646 6634
0.144 2.941 1.634 7485
0.144 2.938 1.622 6943
0.149 3.035 1.659 6483
0.149 3.046 1.653 5532
0.148 3.008 1.623 5359
0.151 3.069 1.642 5333
0.151 3.074 1.633 6083
0.155 3.156 1.661 5290
0.155 3.154 1.649 7453
0.155 3.158 1.639 7715
0.155 3.162 1.630 7977
0.155 3.167 1.621 7977
0.156 3.178 1.615 6525
0.157 3.190 1.609 5117
0.156 3.187 1.596 3845
0.156 3.184 1.583 2680
0.156 3.188 1.574 2680
0.167 3.409 1.660 3360
0.168 3.414 1.650 3360
0.168 3.418 1.640 1680
0.034 0.659 1.674 6365
0.035 0.670 1.686 5218
0.035 0.678 1.691 4483
0.036 0.686 1.697 4569
0.036 0.700 1.716 5020
0.037 0.705 1.714 5127
0.036 0.696 1.683 6493
0.036 0.697 1.674 8510
0.037 0.701 1.672 8504
0.037 0.706 1.670 8498
0.037 0.717 1.682 7554
0.038 0.729 1.694 8012
0.038 0.733 1.692 7601
0.038 0.738 1.689 7447
0.039 0.746 1.694 7817
0.039 0.743 1.678 7362
0.039 0.747 1.676 7188
0.039 0.755 1.680 11550
0.040 0.764 1.685 16615
0.040 0.772 1.690 16729
0.040 0.776 1.688 17046
0.041 0.781 1.685 12246
0.041 0.796 1.704 7868
0.042 0.804 1.709 8681
0.042 0.813 1.713 10106
0.043 0.817 1.711 10471
0.043 0.822 1.708 10837
0.043 0.830 1.713 10316
0.044 0.838 1.717 10401
0.044 0.847 1.722 8561
0.045 0.859 1.733 7111
0.045 0.864 1.730 6260
0.045 0.864 1.721 5705
0.045 0.865 1.711 6031
0.045 0.870 1.709 8878
0.046 0.874 1.706 11724
0.046 0.883 1.710 12197
0.046 0.891 1.714 13113
0.047 0.896 1.712 13277
0.047 0.900 1.709 11353
0.047 0.909 1.713 9312
0.048 0.914 1.710 6172
0.047 0.898 1.674 3252
0.048 0.931 1.718 4419
0.049 0.935 1.716 11252
0.049 0.940 1.713 16495
0.049 0.945 1.710 22137
0.049 0.949 1.707 29256
0.050 0.958 1.711 31633
0.050 0.958 1.702 30204
0.050 0.963 1.699 24837
0.051 0.976 1.709 22521
0.051 0.976 1.700 25157
0.051 0.976 1.690 23860
0.051 0.981 1.687 20420
0.052 0.990 1.691 18332
0.052 1.003 1.701 20981
0.053 1.012 1.705 25639
0.053 1.012 1.695 26628
0.053 1.012 1.685 24322
0.053 1.016 1.682 19304
0.053 1.025 1.686 17898
0.054 1.030 1.683 16523
0.054 1.043 1.693 12702
0.055 1.048 1.690 8181
0.054 1.043 1.674 6488
0.054 1.043 1.664 10628
0.055 1.047 1.661 17934
0.055 1.056 1.664 18984
0.055 1.061 1.661 16814
0.055 1.061 1.651 18330
0.056 1.070 1.655 23527
0.056 1.074 1.651 32461
0.056 1.083 1.655 37218
0.057 1.092 1.658 30311
0.058 1.111 1.674 16048
0.060 1.144 1.708 12090
0.060 1.153 1.711 15235
0.060 1.157 1.708 15207
0.058 1.114 1.641 15045
0.058 1.118 1.638 13377
0.062 1.195 1.729 10972
0.062 1.200 1.725 17311
0.063 1.209 1.728 19610
0.063 1.209 1.718 16239
0.063 1.209 1.708 13512
0.064 1.228 1.723 12219
0.064 1.237 1.726 12617
0.064 1.237 1.716 11732
0.064 1.237 1.706 14221
0.065 1.246 1.708 19574
0.065 1.251 1.705 24741
0.066 1.260 1.707 26063
0.066 1.265 1.703 20650
0.066 1.269 1.700 13711
0.066 1.274 1.696 17640
0.067 1.283 1.698 25043
0.067 1.293 1.700 16749
0.068 1.298 1.696 7800
0.068 1.302 1.692 13971
0.068 1.307 1.689 22914
0.068 1.311 1.685 25634
0.069 1.316 1.681 23284
0.069 1.320 1.677 23396
0.069 1.330 1.679 24811
0.069 1.334 1.675 23856
0.070 1.339 1.671 20187
0.070 1.343 1.667 14111
0.069 1.326 1.640 10386
0.069 1.331 1.636 11968
0.070 1.346 1.643 9993
0.070 1.350 1.639 9785
0.071 1.354 1.635 19705
0.071 1.359 1.631 29719
0.071 1.368 1.633 28665
0.071 1.373 1.629 22909
0.071 1.372 1.619 16047
0.072 1.376 1.615 10961
0.072 1.391 1.622 15149
0.073 1.395 1.618 22060
0.073 1.411 1.625 25326
0.074 1.415 1.621 27276
0.074 1.419 1.617 21857
0.078 1.507 1.697 13853
0.079 1.511 1.693 17582
0.080 1.527 1.699 19467
0.080 1.532 1.695 20852
0.080 1.530 1.685 21575
0.081 1.546 1.691 26832
0.081 1.556 1.692 27690
0.081 1.555 1.682 25046
0.082 1.582 1.700 26396
0.083 1.593 1.700 34806
0.083 1.603 1.701 39489
0.084 1.607 1.696 32563
0.084 1.618 1.697 20858
0.085 1.628 1.698 12293
0.085 1.632 1.693 14111
0.086 1.643 1.693 22332
0.086 1.653 1.694 26599
0.086 1.657 1.689 25900
0.087 1.662 1.684 20609
0.087 1.672 1.684 14678
0.088 1.683 1.685 9163
0.088 1.693 1.685 7431
0.088 1.697 1.680 6942
0.089 1.708 1.680 8095
0.089 1.718 1.680 9038
0.090 1.729 1.680 10200
0.091 1.745 1.686 14003
0.091 1.750 1.681 18108
0.091 1.754 1.675 21104
0.092 1.764 1.675 18094
0.093 1.781 1.680 11656
0.095 1.816 1.701 14501
0.095 1.820 1.695 20391
0.095 1.825 1.690 22957
0.095 1.829 1.684 20225
0.096 1.840 1.684 12053
0.096 1.850 1.684 10096
0.097 1.861 1.683 12515
0.097 1.865 1.678 12856
0.099 1.894 1.692 11381
0.100 1.924 1.706 14597
0.101 1.947 1.715 14985
0.102 1.951 1.709 16701
0.102 1.956 1.704 20679
0.102 1.967 1.703 26043
0.103 1.971 1.697 28277
0.104 1.988 1.701 23807
0.104 1.999 1.700 20800
0.104 2.003 1.694 23916
0.105 2.014 1.693 23770
0.106 2.044 1.706 16152
0.108 2.068 1.714 13414
0.107 2.047 1.689 13363
0.107 2.058 1.688 14333
0.108 2.075 1.691 15053
0.108 2.079 1.685 15820
0.109 2.084 1.679 19725
0.109 2.095 1.677 20362
0.109 2.099 1.671 17919
0.109 2.097 1.660 13700
0.114 2.185 1.713 9620
0.114 2.196 1.711 10997
0.115 2.207 1.709 15753
0.115 2.212 1.703 19302
0.116 2.223 1.701 19061
0.116 2.227 1.694 16928
0.116 2.232 1.688 12180
0.117 2.250 1.690 9830
0.118 2.267 1.692 12578
0.118 2.272 1.685 16046
0.119 2.283 1.683 15165
0.120 2.300 1.685 13215
0.120 2.305 1.678 11351
0.120 2.303 1.667 11254
0.120 2.307 1.660 8830
0.124 2.371 1.692 12905
0.124 2.376 1.685 17732
0.124 2.380 1.678 15632
0.124 2.378 1.667 12717
0.127 2.443 1.698 11683
0.127 2.447 1.691 10323
0.128 2.458 1.688 7172
0.129 2.470 1.684 5661
0.129 2.467 1.673 4956
0.129 2.485 1.674 4777
0.130 2.496 1.671 5586
0.130 2.494 1.659 7147
0.130 2.499 1.652 7625
0.130 2.503 1.644 6494
0.131 2.507 1.637 5569
0.131 2.512 1.630 4645
0.131 2.509 1.618 4228
0.137 2.623 1.674 4631
0.137 2.634 1.670 6577
0.138 2.646 1.666 8100
0.138 2.650 1.659 9788
0.139 2.661 1.655 10083
0.139 2.673 1.651 9253
0.139 2.663 1.635 8399
0.139 2.667 1.627 6539
0.143 2.741 1.657 7491
0.143 2.752 1.653 7216
0.144 2.771 1.652 7289
0.144 2.768 1.641 6886
0.144 2.772 1.632 6486
0.145 2.777 1.624 6181
0.145 2.788 1.620 6050
0.153 2.947 1.692 6559
0.154 2.951 1.683 7778
0.154 2.956 1.674 6801
0.154 2.953 1.662 5934
0.154 2.957 1.653 6117
0.154 2.948 1.637 6398
0.157 3.023 1.664 6298
0.158 3.027 1.655 7719
0.158 3.032 1.646 6646
0.157 3.015 1.627 6483
0.159 3.062 1.639 6087
0.160 3.073 1.633 6897
0.160 3.070 1.621 5822
0.164 3.153 1.649 7508
0.164 3.158 1.639 7981
0.165 3.169 1.633 8457
0.165 3.173 1.624 8457
0.166 3.178 1.615 6887
0.166 3.189 1.609 5357
0.166 3.186 1.596 3993
0.165 3.176 1.580 2770
0.177 3.404 1.670 2851
0.178 3.409 1.660 3497
0.178 3.413 1.650 3497
0.178 3.417 1.640 1748
0.035 0.659 1.674 7409
0.036 0.667 1.679 5155
0.037 0.681 1.699 3508
0.037 0.686 1.697 4044
0.037 0.697 1.709 4807
0.038 0.701 1.707 4948
0.037 0.696 1.683 6233
0.037 0.697 1.674 8259
0.038 0.701 1.672 8320
0.038 0.706 1.670 8381
0.038 0.717 1.682 7600
0.039 0.728 1.694 8170
0.039 0.733 1.692 7928
0.040 0.737 1.689 7966
0.040 0.745 1.694 8290
0.040 0.743 1.678 7541
0.040 0.747 1.676 6992
0.040 0.755 1.680 11082
0.041 0.763 1.685 15896
0.041 0.772 1.690 16212
0.042 0.776 1.688 16720
0.042 0.781 1.685 11944
0.043 0.796 1.704 7632
0.043 0.804 1.709 8534
0.044 0.813 1.713 9908
0.044 0.817 1.711 10115
0.044 0.822 1.708 10322
0.044 0.830 1.713 9687
0.045 0.838 1.717 9714
0.045 0.847 1.722 8077
0.046 0.859 1.733 6988
0.046 0.864 1.730 6139
0.046 0.864 1.721 5318
0.046 0.865 1.711 5513
0.047 0.870 1.709 8209
0.047 0.874 1.706 10905
0.047 0.883 1.710 11649
0.048 0.891 1.714 12825
0.048 0.892 1.705 13281
0.048 0.900 1.709 11717
0.048 0.905 1.706 9752
0.049 0.909 1.704 6615
0.048 0.898 1.674 3658
0.050 0.931 1.718 4163
0.050 0.935 1.716 10242
0.050 0.940 1.713 15083
0.051 0.944 1.710 21013
0.051 0.949 1.707 28906
0.051 0.958 1.711 31611
0.051 0.958 1.702 30543
0.052 0.963 1.699 25399
0.052 0.976 1.709 23215
0.052 0.976 1.700 25955
0.052 0.976 1.690 24174
0.053 0.981 1.687 20493
0.053 0.989 1.691 17671
0.054 1.003 1.701 19507
0.054 1.012 1.705 23673
0.054 1.012 1.695 24108
0.054 1.016 1.692 21569
0.055 1.021 1.689 18241
0.055 1.025 1.686 17934
0.055 1.030 1.683 16780
0.056 1.043 1.693 13065
0.056 1.048 1.690 8601
0.056 1.048 1.680 6671
0.056 1.047 1.670 10422
0.056 1.052 1.667 17433
0.057 1.056 1.664 19428
0.057 1.061 1.661 19190
0.057 1.065 1.658 21127
0.057 1.070 1.655 25796
0.058 1.074 1.651 33740
0.058 1.083 1.655 37318
0.059 1.092 1.658 28956
0.060 1.115 1.680 14655
0.061 1.143 1.708 12662
0.062 1.153 1.711 16351
0.062 1.157 1.708 16685
0.060 1.114 1.641 13358
0.060 1.118 1.638 12076
0.064 1.195 1.729 12454
0.064 1.200 1.725 19405
0.065 1.204 1.721 21604
0.065 1.209 1.718 16749
0.065 1.208 1.708 13921
0.066 1.228 1.723 14455
0.066 1.237 1.726 15740
0.066 1.237 1.716 15846
0.066 1.237 1.706 17831
0.067 1.246 1.708 21512
0.067 1.251 1.705 24908
0.067 1.255 1.701 25082
0.068 1.260 1.697 19160
0.068 1.269 1.700 13988
0.068 1.274 1.696 19885
0.069 1.278 1.692 26674
0.069 1.288 1.694 17420
0.070 1.297 1.696 8962
0.070 1.302 1.692 14504
0.070 1.306 1.689 21552
0.070 1.311 1.685 23033
0.071 1.315 1.681 19602
0.071 1.320 1.677 19584
0.071 1.330 1.679 22491
0.072 1.334 1.675 25119
0.072 1.339 1.671 22664
0.072 1.343 1.667 15002
0.072 1.342 1.657 8696
0.072 1.336 1.641 10803
0.072 1.345 1.643 10460
0.072 1.350 1.639 10815
0.073 1.354 1.635 20586
0.073 1.359 1.631 29073
0.073 1.368 1.633 30450
0.074 1.373 1.629 27910
0.074 1.371 1.619 19086
0.073 1.370 1.609 10354
0.075 1.391 1.622 13715
0.075 1.401 1.624 20882
0.076 1.411 1.625 25626
0.076 1.415 1.621 26964
0.076 1.419 1.617 19071
0.081 1.507 1.697 14802
0.081 1.511 1.693 19352
0.082 1.521 1.694 20663
0.082 1.531 1.695 20142
0.082 1.536 1.690 18459
0.083 1.552 1.697 24004
0.083 1.556 1.692 25274
0.083 1.555 1.682 22839
0.085 1.588 1.705 29079
0.085 1.592 1.700 41589
0.086 1.603 1.701 44960
0.086 1.607 1.696 34508
0.087 1.617 1.697 20270
0.087 1.628 1.698 11401
0.087 1.632 1.693 14430
0.088 1.643 1.693 22931
0.089 1.653 1.694 27810
0.089 1.657 1.689 28429
0.089 1.662 1.684 23061
0.090 1.672 1.684 16974
0.090 1.677 1.679 10626
0.091 1.693 1.685 6230
0.091 1.691 1.675 3976
0.091 1.702 1.675 6987
0.092 1.718 1.680 9777
0.093 1.729 1.680 11921
0.094 1.745 1.686 16634
0.094 1.749 1.681 20643
0.094 1.754 1.675 23339
0.095 1.764 1.675 19106
0.096 1.787 1.685 11740
0.097 1.816 1.701 15858
0.098 1.820 1.695 21407
0.098 1.825 1.690 23498
0.098 1.835 1.689 19505
0.099 1.846 1.689 11278
0.099 1.850 1.684 9045
0.099 1.855 1.678 11905
0.100 1.865 1.678 12211
0.102 1.900 1.697 12214
0.103 1.924 1.706 16457
0.104 1.940 1.710 15808
0.105 1.951 1.709 18622
0.105 1.956 1.704 24585
0.105 1.960 1.698 29732
0.106 1.971 1.697 30699
0.106 1.982 1.696 24808
0.107 1.993 1.695 21685
0.107 2.003 1.694 25975
0.108 2.014 1.693 25328
0.108 2.019 1.687 14939
0.111 2.067 1.714 11786
0.110 2.047 1.689 13026
0.110 2.057 1.688 14782
0.111 2.075 1.691 15864
0.111 2.079 1.685 16636
0.112 2.084 1.679 20978
0.112 2.094 1.677 21313
0.113 2.099 1.671 18495
0.112 2.097 1.660 14207
0.117 2.185 1.713 10692
0.118 2.196 1.711 11818
0.118 2.207 1.709 15509
0.119 2.212 1.703 18052
0.119 2.223 1.701 17132
0.119 2.227 1.694 15745
0.120 2.232 1.688 12351
0.121 2.249 1.690 9688
0.122 2.274 1.697 12304
0.122 2.278 1.690 16615
0.122 2.283 1.683 15921
0.123 2.294 1.681 13507
0.124 2.305 1.678 11222
0.123 2.302 1.667 11703
0.124 2.307 1.660 9314
0.127 2.364 1.688 11513
0.127 2.376 1.685 16090
0.127 2.373 1.674 14476
0.127 2.371 1.663 13171
0.128 2.382 1.660 13129
0.128 2.380 1.649 10331
0.132 2.458 1.688 6736
0.132 2.463 1.680 5262
0.132 2.460 1.669 4227
0.132 2.465 1.662 4119
0.133 2.483 1.662 5222
0.133 2.487 1.655 6905
0.134 2.492 1.648 7397
0.134 2.503 1.644 6245
0.134 2.507 1.637 5512
0.134 2.505 1.626 4783
0.134 2.502 1.614 4391
0.141 2.623 1.674 4683
0.141 2.634 1.670 6447
0.141 2.638 1.663 7831
0.142 2.650 1.659 9325
0.143 2.661 1.655 9800
0.143 2.672 1.651 9384
0.143 2.663 1.635 8547
0.143 2.667 1.627 6522
0.147 2.741 1.657 7972
0.148 2.752 1.653 7805
0.148 2.764 1.649 7775
0.148 2.768 1.641 7327
0.149 2.772 1.632 6879
0.149 2.784 1.628 6669
0.149 2.788 1.620 6546
0.158 2.939 1.688 6789
0.158 2.951 1.683 7825
0.158 2.955 1.674 6875
0.158 2.953 1.662 5925
0.159 2.964 1.657 5869
0.161 2.997 1.662 6370
0.162 3.016 1.661 7436
0.162 3.027 1.655 8911
0.162 3.024 1.643 7840
0.162 3.014 1.627 7596
0.164 3.061 1.639 6844
0.165 3.073 1.633 7668
0.165 3.070 1.621 6315
0.169 3.153 1.649 7490
0.169 3.157 1.639 8115
0.170 3.169 1.633 8764
0.170 3.173 1.624 8764
0.170 3.177 1.615 7099
0.171 3.189 1.609 5500
0.171 3.186 1.596 4074
0.177 3.298 1.635 2935
0.182 3.404 1.670 2986
0.183 3.408 1.660 3524
0.183 3.413 1.650 3524
0.183 3.417 1.640 1762
0.037 0.659 1.674 7937
0.038 0.664 1.672 5118
0.039 0.681 1.699 2715
0.039 0.686 1.697 3477
0.039 0.693 1.702 4331
0.040 0.701 1.707 4342
0.039 0.696 1.683 5842
0.040 0.697 1.674 7769
0.040 0.701 1.672 7921
0.040 0.706 1.670 8074
0.041 0.717 1.682 7636
0.041 0.728 1.694 8569
0.042 0.733 1.692 8406
0.042 0.737 1.689 8425
0.042 0.742 1.687 8606
0.042 0.743 1.678 7697
0.042 0.744 1.669 6948
0.043 0.755 1.680 10775
0.043 0.763 1.685 15450
0.044 0.771 1.690 15941
0.044 0.776 1.688 16576
0.044 0.784 1.692 11749
0.045 0.796 1.704 7576
0.046 0.804 1.709 8553
0.046 0.812 1.713 9850
0.046 0.817 1.711 9852
0.047 0.822 1.708 9854
0.047 0.830 1.713 9087
0.048 0.838 1.717 8995
0.048 0.847 1.722 7559
0.049 0.863 1.740 6839
0.049 0.860 1.723 6221
0.049 0.860 1.714 5276
0.049 0.861 1.704 4989
0.049 0.869 1.709 7443
0.050 0.874 1.706 9905
0.050 0.882 1.710 10828
0.051 0.891 1.714 12173
0.051 0.892 1.705 12777
0.051 0.900 1.709 11555
0.051 0.905 1.706 9735
0.052 0.909 1.704 6909
0.052 0.914 1.701 4082
0.053 0.943 1.739 4423
0.053 0.935 1.716 9382
0.053 0.940 1.713 13482
0.054 0.944 1.710 19764
0.054 0.949 1.707 28729
0.054 0.958 1.711 31942
0.054 0.958 1.702 31371
0.055 0.962 1.699 26396
0.055 0.971 1.702 24253
0.055 0.976 1.700 26896
0.055 0.976 1.690 24221
0.056 0.980 1.687 20144
0.056 0.989 1.691 16809
0.057 1.002 1.701 18113
0.057 1.007 1.698 22021
0.057 1.012 1.695 21971
0.058 1.016 1.692 19298
0.058 1.021 1.689 17474
0.058 1.025 1.686 18273
0.058 1.029 1.683 17694
0.059 1.038 1.686 14434
0.060 1.052 1.696 9422
0.060 1.061 1.699 7392
0.060 1.052 1.677 10068
0.060 1.052 1.667 15984
0.060 1.056 1.664 19249
0.060 1.061 1.661 20866
0.060 1.065 1.658 22932
0.061 1.069 1.655 26900
0.061 1.074 1.651 34218
0.061 1.083 1.655 36888
0.062 1.092 1.658 27529
0.063 1.115 1.680 14219
0.065 1.143 1.708 13681
0.065 1.153 1.711 17799
0.066 1.157 1.708 18177
0.063 1.114 1.641 11662
0.063 1.118 1.638 10470
0.068 1.195 1.729 13174
0.068 1.199 1.725 20355
0.068 1.204 1.721 22466
0.069 1.209 1.718 16826
0.069 1.213 1.714 14462
0.070 1.228 1.723 16295
0.070 1.237 1.726 18049
0.070 1.237 1.716 19092
0.070 1.236 1.706 21010
0.071 1.246 1.708 23296
0.071 1.250 1.705 25353
0.071 1.255 1.701 24462
0.071 1.259 1.697 18617
0.072 1.264 1.693 15480
0.072 1.268 1.690 22615
0.072 1.278 1.692 27878
0.073 1.288 1.694 18734
0.074 1.297 1.696 11318
0.074 1.302 1.692 15392
0.074 1.306 1.689 19969
0.074 1.311 1.685 19821
0.075 1.315 1.681 15722
0.075 1.320 1.677 15654
0.075 1.329 1.679 20641
0.076 1.334 1.675 26605
0.076 1.338 1.671 24710
0.076 1.343 1.667 15785
0.076 1.342 1.657 8063
0.076 1.336 1.641 9584
0.076 1.345 1.643 9990
0.077 1.350 1.639 10500
0.077 1.359 1.641 20264
0.077 1.364 1.637 29009
0.078 1.368 1.633 31367
0.078 1.372 1.629 29362
0.078 1.371 1.619 20378
0.078 1.375 1.615 9597
0.079 1.385 1.617 11242
0.079 1.400 1.624 17476
0.080 1.410 1.625 23859
0.081 1.420 1.627 26839
0.081 1.430 1.628 17238
0.085 1.506 1.697 14938
0.086 1.511 1.693 20196
0.086 1.521 1.694 21164
0.087 1.531 1.695 18199
0.087 1.541 1.696 15289
0.088 1.557 1.702 21166
0.089 1.562 1.698 22141
0.088 1.555 1.682 20022
0.090 1.588 1.705 32405
0.091 1.598 1.706 47612
0.091 1.602 1.701 49258
0.091 1.607 1.696 35808
0.092 1.617 1.697 18444
0.093 1.633 1.703 10185
0.093 1.638 1.698 14701
0.093 1.642 1.693 23304
0.094 1.653 1.694 28175
0.094 1.657 1.689 29169
0.094 1.662 1.684 23730
0.095 1.672 1.684 17856
0.095 1.682 1.685 11686
0.096 1.687 1.680 5240
0.097 1.715 1.696 3397
0.097 1.707 1.680 8286
0.097 1.718 1.680 10346
0.098 1.728 1.680 13168
0.099 1.745 1.686 18472
0.099 1.749 1.681 21485
0.099 1.754 1.675 23695
0.100 1.770 1.680 19646
0.101 1.781 1.680 12824
0.103 1.815 1.701 15367
0.103 1.820 1.695 20877
0.103 1.824 1.690 21935
0.104 1.835 1.689 17044
0.105 1.851 1.694 10198
0.105 1.844 1.679 9038
0.105 1.848 1.673 11903
0.106 1.865 1.678 10832
0.108 1.900 1.697 13343
0.109 1.917 1.701 18076
0.110 1.934 1.705 16339
0.110 1.945 1.705 19903
0.111 1.955 1.704 27190
0.111 1.966 1.703 32281
0.112 1.971 1.697 32727
0.112 1.981 1.696 25685
0.113 1.992 1.695 22336
0.114 2.003 1.694 27212
0.114 2.007 1.688 26303
0.114 2.006 1.677 16181
0.117 2.067 1.714 10256
0.116 2.046 1.689 12132
0.117 2.057 1.688 14554
0.118 2.074 1.691 15717
0.118 2.079 1.685 16307
0.118 2.083 1.679 21018
0.119 2.094 1.677 21448
0.119 2.092 1.666 18645
0.119 2.097 1.660 14202
0.124 2.191 1.718 11756
0.124 2.196 1.711 12697
0.125 2.200 1.705 15534
0.125 2.205 1.698 16979
0.126 2.222 1.701 15313
0.126 2.220 1.690 14571
0.127 2.231 1.688 12345
0.127 2.242 1.686 9466
0.129 2.273 1.697 12314
0.129 2.278 1.690 17249
0.130 2.289 1.688 16784
0.130 2.293 1.681 13585
0.131 2.311 1.683 11093
0.131 2.309 1.672 12042
0.131 2.306 1.660 9407
0.134 2.364 1.688 9956
0.135 2.375 1.685 14139
0.135 2.373 1.674 13248
0.134 2.371 1.663 13581
0.135 2.382 1.660 14595
0.135 2.380 1.649 11682
0.135 2.377 1.637 6460
0.139 2.456 1.676 5246
0.139 2.453 1.665 4161
0.139 2.458 1.657 4083
0.140 2.469 1.654 5160
0.141 2.487 1.655 6476
0.141 2.491 1.648 6881
0.141 2.495 1.640 5816
0.142 2.500 1.633 5294
0.142 2.511 1.630 4777
0.142 2.502 1.614 4417
0.149 2.622 1.674 4702
0.149 2.634 1.670 6220
0.150 2.638 1.663 7476
0.150 2.649 1.659 8782
0.151 2.661 1.655 9392
0.151 2.672 1.651 9309
0.151 2.669 1.639 8465
0.156 2.743 1.669 6598
0.156 2.747 1.661 8356
0.156 2.752 1.653 8176
0.157 2.763 1.649 8063
0.157 2.767 1.641 7479
0.157 2.772 1.632 6895
0.158 2.783 1.628 6765
0.158 2.787 1.620 6640
0.166 2.932 1.684 6963
0.167 2.943 1.679 7786
0.168 2.955 1.674 6851
0.168 2.959 1.666 6001
0.169 2.978 1.664 5794
0.170 3.004 1.666 6929
0.171 3.015 1.661 8236
0.172 3.026 1.655 9721
0.171 3.017 1.639 8793
0.171 3.021 1.630 8467
0.174 3.061 1.639 7472
0.174 3.072 1.633 8331
0.174 3.077 1.624 6718
0.179 3.152 1.649 7320
0.179 3.157 1.639 8059
0.180 3.168 1.633 8848
0.180 3.173 1.624 8848
0.180 3.177 1.615 7146
0.181 3.188 1.609 5529
0.181 3.185 1.596 4046
0.187 3.298 1.635 3416
0.187 3.295 1.622 3226
0.193 3.408 1.660 3557
0.193 3.412 1.650 3557
0.194 3.417 1.640 1778
0.039 0.659 1.674 8947
0.040 0.663 1.672 5464
0.042 0.697 1.735 2226
0.041 0.685 1.697 3101
0.041 0.687 1.687 4075
0.041 0.691 1.685 4075
0.041 0.696 1.683 5825
0.042 0.697 1.674 7678
0.042 0.701 1.672 8038
0.042 0.709 1.677 8414
0.043 0.720 1.689 8372
0.043 0.728 1.694 9842
0.044 0.733 1.692 9730
0.044 0.737 1.689 9639
0.044 0.742 1.687 9661
0.044 0.743 1.678 8246
0.044 0.736 1.654 7400
0.045 0.755 1.680 10591
0.045 0.763 1.685 15162
0.046 0.771 1.690 16089
0.046 0.779 1.695 17215
0.047 0.788 1.699 12296
0.047 0.796 1.704 8084
0.048 0.804 1.709 8881
0.048 0.809 1.706 9846
0.049 0.817 1.711 9693
0.049 0.821 1.708 9555
0.049 0.830 1.713 8598
0.050 0.842 1.724 8532
0.051 0.850 1.728 7614
0.051 0.859 1.733 7436
0.051 0.859 1.723 7038
0.051 0.860 1.714 5471
0.051 0.861 1.704 4518
0.052 0.869 1.709 6474
0.052 0.874 1.706 8555
0.053 0.882 1.710 10031
0.053 0.891 1.714 11803
0.053 0.891 1.705 12738
0.053 0.896 1.702 11911
0.054 0.905 1.706 10119
0.054 0.909 1.704 7625
0.054 0.914 1.701 5131
0.055 0.922 1.705 5551
0.056 0.935 1.716 9166
0.056 0.940 1.713 11880
0.056 0.944 1.710 18590
0.057 0.949 1.707 28649
0.057 0.953 1.704 32446
0.057 0.958 1.702 32344
0.057 0.962 1.699 27631
0.058 0.971 1.702 25683
0.058 0.976 1.700 28024
0.058 0.976 1.690 23894
0.058 0.980 1.687 19228
0.059 0.989 1.691 16012
0.060 1.002 1.701 17489
0.060 1.007 1.698 21227
0.060 1.011 1.695 20596
0.061 1.016 1.692 17548
0.061 1.020 1.689 17616
0.061 1.020 1.679 20151
0.061 1.029 1.683 20369
0.062 1.038 1.686 16640
0.062 1.047 1.690 10843
0.063 1.052 1.686 9066
0.063 1.061 1.690 11043
0.063 1.052 1.667 14309
0.063 1.051 1.658 19170
0.063 1.060 1.661 22033
0.064 1.069 1.664 24544
0.064 1.069 1.655 28523
0.064 1.074 1.651 35247
0.065 1.083 1.655 36156
0.065 1.092 1.658 25402
0.067 1.124 1.693 14817
0.068 1.138 1.702 15647
0.069 1.152 1.711 20131
0.069 1.157 1.708 20170
0.069 1.157 1.698 11190
0.067 1.118 1.638 8266
0.071 1.199 1.735 14209
0.072 1.204 1.731 20981
0.072 1.204 1.721 22606
0.072 1.208 1.718 17030
0.072 1.213 1.714 15741
0.073 1.227 1.723 18561
0.074 1.237 1.726 20236
0.074 1.237 1.716 21902
0.074 1.236 1.706 23972
0.074 1.241 1.702 25300
0.075 1.250 1.705 26367
0.075 1.255 1.701 24436
0.075 1.259 1.697 19498
0.075 1.264 1.693 19101
0.076 1.268 1.690 25988
0.076 1.278 1.692 28621
0.077 1.287 1.694 20703
0.077 1.297 1.696 15143
0.078 1.302 1.692 17083
0.078 1.306 1.689 18073
0.078 1.316 1.691 15589
0.079 1.320 1.687 10924
0.079 1.319 1.677 11320
0.079 1.329 1.679 20022
0.080 1.339 1.681 29112
0.080 1.343 1.677 27185
0.080 1.342 1.667 17179
0.080 1.347 1.663 8007
0.080 1.341 1.647 7467
0.080 1.345 1.643 8782
0.081 1.355 1.645 9715
0.081 1.359 1.641 19980
0.081 1.363 1.637 29101
0.082 1.368 1.633 31697
0.082 1.372 1.629 30820
0.082 1.371 1.619 23854
0.082 1.381 1.621 13175
0.083 1.385 1.617 10254
0.083 1.395 1.618 11641
0.084 1.410 1.625 21375
0.085 1.420 1.627 27331
0.085 1.430 1.628 17245
0.089 1.490 1.680 14873
0.090 1.511 1.693 20878
0.091 1.521 1.694 22089
0.091 1.531 1.695 15765
0.092 1.547 1.702 11659
0.093 1.557 1.702 17966
0.093 1.561 1.698 18658
0.094 1.572 1.699 19204
0.095 1.593 1.711 37749
0.095 1.598 1.706 54297
0.095 1.602 1.701 53245
0.096 1.607 1.696 36429
0.096 1.611 1.692 16119
0.097 1.633 1.703 9285
0.098 1.637 1.698 16101
0.098 1.642 1.693 23812
0.098 1.652 1.694 27659
0.099 1.657 1.689 28533
0.099 1.661 1.684 23550
0.100 1.672 1.684 18168
0.100 1.682 1.685 12884
0.101 1.698 1.690 8616
0.102 1.709 1.691 10226
0.102 1.707 1.680 12387
0.102 1.718 1.680 10715
0.104 1.740 1.691 15093
0.104 1.750 1.691 20437
0.105 1.761 1.691 20553
0.105 1.759 1.681 22044
0.106 1.776 1.686 20435
0.106 1.780 1.680 14903
0.108 1.815 1.701 16607
0.108 1.819 1.695 20706
0.109 1.824 1.690 19966
0.110 1.841 1.695 16744
0.110 1.851 1.694 12664
0.110 1.843 1.679 12548
0.110 1.848 1.673 13427
0.111 1.858 1.673 10433
0.113 1.894 1.692 15972
0.113 1.904 1.691 21428
0.115 1.927 1.700 18233
0.116 1.944 1.705 22363
0.117 1.955 1.704 30363
0.117 1.966 1.703 35664
0.117 1.970 1.697 35747
0.118 1.981 1.696 26846
0.119 1.992 1.695 22812
0.119 2.003 1.694 28149
0.120 2.007 1.688 27182
0.120 2.005 1.677 18240
0.120 2.010 1.671 11446
0.122 2.040 1.684 11713
0.123 2.057 1.688 14232
0.124 2.074 1.691 15616
0.124 2.078 1.685 15714
0.124 2.083 1.679 20361
0.124 2.087 1.672 21339
0.125 2.092 1.666 18900
0.125 2.090 1.655 14088
0.131 2.191 1.718 12951
0.131 2.195 1.711 13853
0.131 2.200 1.705 15934
0.131 2.205 1.698 16609
0.132 2.209 1.692 14167
0.132 2.220 1.690 13817
0.133 2.231 1.688 12646
0.134 2.242 1.686 9532
0.136 2.279 1.701 13095
0.136 2.284 1.694 18624
0.136 2.288 1.688 17978
0.137 2.306 1.690 13805
0.138 2.317 1.687 11731
0.138 2.315 1.676 12765
0.138 2.313 1.665 9377
0.140 2.357 1.684 8014
0.141 2.368 1.681 11451
0.141 2.359 1.665 12159
0.141 2.370 1.663 14633
0.142 2.381 1.660 16619
0.142 2.386 1.653 13548
0.142 2.383 1.642 7231
0.146 2.448 1.672 5539
0.145 2.426 1.648 5169
0.146 2.444 1.649 4940
0.147 2.462 1.650 5655
0.147 2.473 1.647 6384
0.148 2.491 1.648 6483
0.149 2.495 1.640 5576
0.149 2.499 1.633 4937
0.150 2.517 1.634 4326
0.148 2.488 1.606 4012
0.156 2.622 1.674 4836
0.157 2.633 1.670 6003
0.157 2.638 1.663 7132
0.157 2.642 1.655 8261
0.159 2.660 1.655 9028
0.159 2.671 1.651 9306
0.159 2.669 1.639 8402
0.164 2.749 1.673 7588
0.164 2.754 1.665 9199
0.164 2.758 1.657 8832
0.165 2.763 1.649 8466
0.165 2.767 1.641 7541
0.166 2.778 1.636 6674
0.166 2.783 1.628 6584
0.174 2.913 1.686 6554
0.174 2.924 1.681 7181
0.175 2.929 1.672 7842
0.176 2.954 1.674 6912
0.176 2.959 1.666 6352
0.178 2.984 1.668 6140
0.179 3.003 1.666 7579
0.180 3.015 1.661 9089
0.180 3.019 1.652 10625
0.180 3.016 1.639 9810
0.180 3.021 1.630 9415
0.183 3.068 1.642 8418
0.183 3.072 1.633 9437
0.183 3.076 1.624 7476
0.188 3.152 1.649 7099
0.188 3.156 1.639 7966
0.189 3.168 1.633 8904
0.189 3.172 1.624 8904
0.189 3.176 1.615 7202
0.190 3.188 1.609 5582
0.190 3.185 1.596 4049
0.197 3.297 1.635 4079
0.197 3.302 1.625 3761
0.203 3.414 1.664 3752
0.204 3.419 1.653 3752
0.204 3.423 1.643 1876
0.041 0.659 1.674 9970
0.042 0.663 1.672 5995
0.042 0.664 1.663 2199
0.043 0.682 1.689 2811
0.043 0.686 1.687 4154
0.043 0.691 1.685 4154
0.044 0.695 1.683 5919
0.044 0.697 1.674 7689
0.044 0.704 1.679 8216
0.045 0.709 1.677 8749
0.045 0.720 1.689 8982
0.046 0.728 1.694 10706
0.046 0.733 1.692 10667
0.046 0.737 1.689 10610
0.047 0.742 1.687 10591
0.047 0.743 1.678 8902
0.046 0.736 1.654 7852
0.047 0.755 1.680 10618
0.048 0.763 1.685 14774
0.048 0.771 1.690 15937
0.049 0.779 1.695 17365
0.049 0.787 1.699 12596
0.050 0.796 1.704 8445
0.050 0.800 1.702 8832
0.051 0.808 1.706 9417
0.051 0.813 1.704 8933
0.052 0.821 1.708 8589
0.052 0.833 1.720 7464
0.053 0.842 1.724 7466
0.053 0.850 1.728 7385
0.054 0.859 1.733 7681
0.054 0.855 1.716 7498
0.054 0.856 1.707 5732
0.054 0.857 1.697 4472
0.055 0.869 1.709 5522
0.055 0.878 1.713 6874
0.055 0.882 1.710 8750
0.056 0.891 1.714 10796
0.056 0.891 1.705 12051
0.056 0.896 1.702 11653
0.057 0.904 1.706 9908
0.057 0.909 1.704 7961
0.057 0.913 1.701 6013
0.058 0.918 1.698 6790
0.058 0.931 1.709 9030
0.059 0.935 1.706 10402
0.059 0.944 1.710 16789
0.060 0.948 1.707 27180
0.060 0.953 1.704 31432
0.060 0.958 1.702 31731
0.060 0.962 1.699 27592
0.061 0.971 1.702 25951
0.061 0.975 1.700 28214
0.062 0.980 1.697 23441
0.062 0.984 1.694 18327
0.062 0.993 1.697 15582
0.063 1.002 1.701 17215
0.063 1.007 1.698 20756
0.063 1.007 1.688 19737
0.064 1.016 1.692 16216
0.064 1.020 1.689 17670
0.064 1.020 1.679 22087
0.065 1.029 1.683 22352
0.065 1.034 1.680 17817
0.065 1.043 1.683 11529
0.066 1.047 1.680 10645
0.067 1.061 1.690 11600
0.066 1.047 1.661 13036
0.066 1.051 1.658 18501
0.067 1.060 1.661 21969
0.067 1.069 1.664 25193
0.067 1.074 1.661 28941
0.068 1.078 1.658 34671
0.068 1.082 1.655 33807
0.069 1.091 1.658 22668
0.071 1.124 1.693 15321
0.071 1.138 1.702 16666
0.072 1.147 1.705 21175
0.072 1.152 1.701 21335
0.073 1.156 1.698 12258
0.075 1.190 1.732 8493
0.075 1.199 1.735 14576
0.076 1.204 1.731 20555
0.076 1.204 1.721 21945
0.076 1.208 1.718 17416
0.076 1.218 1.721 17586
0.077 1.227 1.723 20174
0.078 1.237 1.726 20811
0.078 1.236 1.716 22309
0.078 1.236 1.706 24444
0.078 1.240 1.702 25571
0.078 1.250 1.705 26365
0.079 1.254 1.701 24734
0.079 1.254 1.691 21191
0.079 1.263 1.693 22363
0.080 1.268 1.690 28471
0.080 1.278 1.692 28323
0.080 1.282 1.688 22118
0.081 1.292 1.690 19114
0.082 1.301 1.692 18481
0.082 1.306 1.689 16260
0.083 1.315 1.691 12261
0.083 1.320 1.687 7580
0.083 1.324 1.683 8989
0.084 1.334 1.685 19893
0.084 1.339 1.681 30445
0.084 1.343 1.677 28644
0.085 1.348 1.673 18425
0.085 1.352 1.669 9062
0.084 1.346 1.653 6361
0.084 1.339 1.637 7505
0.085 1.349 1.639 8719
0.085 1.359 1.641 17930
0.086 1.363 1.637 26247
0.086 1.368 1.633 29628
0.086 1.372 1.629 29152
0.086 1.371 1.619 23531
0.087 1.380 1.621 15304
0.087 1.385 1.617 8779
0.088 1.394 1.618 7389
0.089 1.410 1.625 19545
0.089 1.420 1.627 26980
0.090 1.429 1.628 17491
0.093 1.478 1.669 13332
0.095 1.516 1.698 19982
0.096 1.526 1.699 22283
0.095 1.508 1.673 14502
0.094 1.501 1.657 12194
0.098 1.562 1.708 14865
0.098 1.561 1.698 16118
0.099 1.577 1.704 20896
0.100 1.593 1.711 40515
0.100 1.597 1.706 56709
0.101 1.602 1.701 54858
0.101 1.606 1.696 35867
0.101 1.611 1.692 14930
0.102 1.627 1.698 10002
0.103 1.637 1.698 17424
0.103 1.642 1.693 23488
0.104 1.652 1.694 25020
0.104 1.656 1.689 25605
0.104 1.661 1.684 22285
0.105 1.677 1.690 17800
0.106 1.682 1.685 13257
0.107 1.698 1.690 11900
0.107 1.708 1.691 16746
0.108 1.713 1.685 15719
0.109 1.735 1.696 10875
0.109 1.740 1.691 17514
0.110 1.750 1.691 21263
0.111 1.760 1.691 18177
0.111 1.771 1.691 19896
0.112 1.781 1.691 21517
0.112 1.786 1.685 15709
0.114 1.815 1.701 15038
0.114 1.819 1.695 16569
0.115 1.830 1.695 15441
0.116 1.846 1.700 17195
0.116 1.845 1.689 15644
0.116 1.843 1.679 15048
0.116 1.841 1.668 13799
0.117 1.864 1.678 11003
0.118 1.887 1.687 19214
0.119 1.898 1.686 24557
0.121 1.921 1.695 20287
0.122 1.944 1.705 23830
0.123 1.955 1.704 31338
0.123 1.965 1.703 36722
0.124 1.970 1.697 36773
0.124 1.974 1.691 26375
0.125 1.991 1.695 21474
0.126 2.002 1.694 26798
0.126 2.007 1.688 25961
0.126 2.005 1.677 18797
0.127 2.016 1.676 13478
0.128 2.033 1.679 12772
0.129 2.050 1.683 14354
0.130 2.067 1.686 15507
0.130 2.078 1.685 14832
0.131 2.082 1.679 18547
0.131 2.087 1.672 20226
0.131 2.091 1.666 18499
0.131 2.089 1.655 13644
0.138 2.190 1.718 12962
0.138 2.195 1.711 13905
0.138 2.193 1.700 15890
0.138 2.198 1.694 16278
0.138 2.202 1.687 13466
0.139 2.213 1.685 13132
0.140 2.224 1.683 12303
0.141 2.242 1.686 9603
0.143 2.279 1.701 13957
0.143 2.283 1.694 19786
0.144 2.288 1.688 18565
0.145 2.312 1.694 13872
0.146 2.323 1.691 12494
0.146 2.328 1.685 13427
0.147 2.339 1.682 9183
0.148 2.357 1.684 7298
0.149 2.368 1.681 9008
0.148 2.359 1.665 11388
0.149 2.370 1.663 15744
0.149 2.381 1.660 18172
0.150 2.385 1.653 15000
0.150 2.390 1.646 8140
0.153 2.441 1.668 5728
0.152 2.425 1.648 6132
0.153 2.443 1.649 5955
0.155 2.461 1.650 6171
0.155 2.472 1.647 6427
0.156 2.490 1.648 6380
0.157 2.495 1.640 5824
0.157 2.506 1.637 4985
0.158 2.524 1.638 4446
0.164 2.610 1.678 4100
0.165 2.621 1.674 4696
0.165 2.633 1.670 5572
0.166 2.637 1.663 6638
0.166 2.641 1.655 7703
0.167 2.667 1.659 8599
0.168 2.671 1.651 9129
0.168 2.675 1.643 8132
0.173 2.749 1.673 8592
0.173 2.753 1.665 10040
0.173 2.758 1.657 9279
0.173 2.762 1.649 8519
0.174 2.766 1.641 7177
0.174 2.778 1.636 5899
0.175 2.782 1.628 5902
0.182 2.905 1.682 6444
0.183 2.917 1.677 7074
0.183 2.921 1.668 7706
0.185 2.954 1.674 6764
0.186 2.965 1.669 6667
0.187 2.984 1.668 6391
0.189 3.009 1.669 7765
0.189 3.014 1.661 9317
0.190 3.018 1.652 10869
0.189 3.016 1.639 10171
0.190 3.020 1.630 9743
0.193 3.067 1.642 8951
0.193 3.071 1.633 10100
0.193 3.076 1.624 7907
0.198 3.151 1.649 6496
0.198 3.156 1.639 7384
0.199 3.167 1.633 8368
0.199 3.171 1.624 8368
0.199 3.176 1.615 6810
0.200 3.187 1.609 5311
0.200 3.184 1.596 3858
0.207 3.304 1.638 4469
0.207 3.301 1.625 4026
0.214 3.414 1.664 3664
0.215 3.418 1.653 3664
0.215 3.423 1.643 1832
0.043 0.659 1.674 11562
0.043 0.663 1.672 7136
0.043 0.664 1.663 2805
0.044 0.672 1.668 3460
0.045 0.683 1.680 4521
0.045 0.688 1.678 4521
0.045 0.692 1.676 6251
0.046 0.700 1.681 8013
0.046 0.704 1.679 8724
0.046 0.709 1.677 9435
0.047 0.720 1.689 9890
0.048 0.728 1.694 11761
0.048 0.732 1.692 11737
0.048 0.737 1.689 11634
0.048 0.741 1.687 11556
0.049 0.742 1.678 9699
0.048 0.740 1.661 8627
0.049 0.755 1.680 10769
0.050 0.763 1.685 14350
0.050 0.771 1.690 15784
0.051 0.779 1.695 17558
0.051 0.784 1.692 13088
0.052 0.796 1.704 9080
0.052 0.800 1.702 8964
0.053 0.805 1.699 8849
0.053 0.813 1.704 8146
0.053 0.817 1.701 7544
0.054 0.833 1.720 6289
0.055 0.845 1.731 6464
0.056 0.850 1.728 7064
0.056 0.855 1.726 7932
0.056 0.855 1.716 7822
0.056 0.852 1.700 6235
0.056 0.853 1.691 5150
0.057 0.865 1.702 4831
0.057 0.877 1.713 5100
0.058 0.882 1.710 7506
0.058 0.891 1.714 9944
0.058 0.891 1.705 11586
0.059 0.896 1.702 11551
0.059 0.900 1.700 9842
0.059 0.905 1.697 8306
0.060 0.913 1.701 6840
0.060 0.918 1.698 8146
0.061 0.926 1.702 9376
0.061 0.935 1.706 9481
0.061 0.940 1.703 15353
0.062 0.948 1.707 25315
0.062 0.953 1.704 29910
0.063 0.957 1.702 30636
0.063 0.962 1.699 27124
0.063 0.971 1.702 25730
0.064 0.975 1.700 27969
0.064 0.980 1.697 22882
0.064 0.984 1.694 17542
0.065 0.993 1.697 15487
0.065 0.998 1.694 17558
0.066 1.002 1.691 21306
0.066 1.007 1.688 20618
0.066 1.015 1.692 16695
0.066 1.016 1.682 19066
0.066 1.016 1.673 24949
0.067 1.024 1.676 25354
0.067 1.029 1.673 19318
0.068 1.038 1.677 12523
0.068 1.042 1.674 12334
0.069 1.060 1.690 12277
0.068 1.047 1.661 12316
0.069 1.051 1.658 16921
0.070 1.065 1.667 21517
0.070 1.069 1.664 25034
0.070 1.073 1.661 28116
0.070 1.078 1.658 32236
0.071 1.082 1.655 30031
0.071 1.091 1.658 19599
0.074 1.124 1.693 15914
0.074 1.133 1.696 17751
0.075 1.147 1.705 22267
0.075 1.152 1.701 22773
0.075 1.151 1.692 14059
0.078 1.190 1.732 9234
0.078 1.199 1.735 14549
0.079 1.204 1.731 19532
0.079 1.203 1.721 20801
0.079 1.208 1.718 18100
0.080 1.217 1.721 20155
0.080 1.227 1.723 22145
0.081 1.236 1.726 20341
0.081 1.236 1.716 20419
0.081 1.236 1.706 22741
0.081 1.240 1.702 24712
0.082 1.250 1.705 26298
0.082 1.254 1.701 25544
0.082 1.259 1.697 23240
0.083 1.263 1.693 25343
0.083 1.268 1.690 30459
0.084 1.277 1.692 27597
0.084 1.282 1.688 23760
0.084 1.291 1.690 23539
0.085 1.301 1.692 20098
0.085 1.306 1.689 15078
0.086 1.315 1.691 9682
0.086 1.320 1.687 6072
0.087 1.329 1.689 9420
0.087 1.334 1.685 20821
0.088 1.338 1.681 31245
0.088 1.343 1.677 29817
0.088 1.347 1.673 20333
0.089 1.357 1.675 11366
0.088 1.351 1.659 6087
0.087 1.334 1.632 7004
0.088 1.349 1.639 8701
0.089 1.359 1.641 14897
0.089 1.363 1.637 21393
0.089 1.367 1.633 25645
0.090 1.372 1.629 25465
0.090 1.376 1.625 20590
0.090 1.380 1.621 14934
0.091 1.384 1.617 8404
0.091 1.389 1.612 6796
0.092 1.404 1.620 18217
0.093 1.419 1.627 27043
0.093 1.429 1.628 19456
0.095 1.450 1.641 12046
0.099 1.521 1.704 19144
0.100 1.526 1.699 22815
0.099 1.508 1.673 15572
0.098 1.501 1.657 14895
0.099 1.511 1.658 16544
0.102 1.561 1.698 15931
0.103 1.577 1.704 23880
0.104 1.593 1.711 42880
0.104 1.597 1.706 57856
0.105 1.602 1.701 55638
0.105 1.600 1.691 34665
0.105 1.605 1.686 15396
0.106 1.621 1.692 13023
0.107 1.631 1.693 19072
0.107 1.641 1.693 22817
0.108 1.652 1.694 20836
0.108 1.656 1.689 21023
0.109 1.667 1.689 20434
0.110 1.677 1.690 16857
0.110 1.681 1.685 12532
0.111 1.698 1.690 14243
0.112 1.708 1.691 22485
0.112 1.712 1.685 18400
0.113 1.735 1.696 12127
0.114 1.739 1.691 19960
0.114 1.744 1.686 22150
0.114 1.748 1.681 15949
0.116 1.771 1.691 18074
0.116 1.781 1.691 21624
0.116 1.780 1.680 15219
0.116 1.778 1.670 11989
0.117 1.782 1.665 11585
0.120 1.835 1.700 10598
0.120 1.840 1.695 18590
0.120 1.838 1.684 19553
0.121 1.843 1.679 17612
0.121 1.847 1.673 15260
0.122 1.870 1.683 13816
0.123 1.887 1.687 23014
0.124 1.891 1.681 28048
0.125 1.908 1.686 24168
0.127 1.937 1.700 25569
0.128 1.954 1.704 31375
0.129 1.965 1.703 36748
0.128 1.963 1.692 37250
0.129 1.974 1.691 25545
0.130 1.991 1.695 19100
0.131 1.996 1.689 23757
0.131 2.000 1.683 23319
0.131 2.005 1.677 18113
0.132 2.015 1.676 15460
0.133 2.026 1.675 15325
0.134 2.043 1.678 15175
0.135 2.067 1.686 15176
0.136 2.078 1.685 13469
0.136 2.082 1.679 15779
0.136 2.087 1.672 18380
0.137 2.091 1.666 17772
0.137 2.089 1.655 13122
0.143 2.190 1.718 12284
0.143 2.188 1.707 13214
0.143 2.193 1.700 15604
0.143 2.191 1.689 16248
0.144 2.195 1.683 13571
0.144 2.206 1.681 12797
0.145 2.224 1.683 11450
0.147 2.241 1.686 9265
0.149 2.278 1.701 14976
0.149 2.276 1.690 21320
0.149 2.281 1.683 19676
0.152 2.318 1.698 13822
0.152 2.329 1.696 13555
0.153 2.334 1.689 14311
0.153 2.345 1.686 11256
0.154 2.356 1.684 8054
0.157 2.394 1.698 7984
0.155 2.365 1.670 11360
0.155 2.369 1.663 16973
0.156 2.381 1.660 19515
0.156 2.385 1.653 16246
0.157 2.396 1.650 9155
0.158 2.414 1.651 6400
0.159 2.425 1.648 6990
0.160 2.443 1.649 6695
0.160 2.454 1.646 6437
0.161 2.465 1.643 6363
0.163 2.490 1.648 6428
0.163 2.494 1.640 6348
0.164 2.505 1.637 4794
0.171 2.612 1.690 4168
0.171 2.610 1.678 4222
0.171 2.621 1.674 4581
0.172 2.632 1.670 5158
0.172 2.637 1.663 6202
0.173 2.641 1.655 7246
0.174 2.666 1.659 8155
0.175 2.677 1.655 8842
0.179 2.744 1.681 8529
0.180 2.748 1.673 9879
0.180 2.760 1.669 11428
0.181 2.764 1.661 10044
0.181 2.762 1.649 8847
0.181 2.766 1.641 6854
0.182 2.777 1.636 4870
0.182 2.782 1.628 4984
0.190 2.905 1.682 6310
0.190 2.902 1.670 7057
0.189 2.893 1.654 8061
0.193 2.946 1.671 6685
0.194 2.965 1.669 6974
0.195 2.983 1.668 6609
0.197 3.009 1.669 7772
0.197 3.013 1.661 9280
0.197 3.018 1.652 10788
0.197 3.015 1.639 10171
0.197 3.019 1.630 9651
0.201 3.066 1.642 9263
0.201 3.078 1.636 10622
0.201 3.075 1.624 8175
0.200 3.058 1.605 6377
0.207 3.162 1.643 6545
0.207 3.167 1.633 7543
0.207 3.171 1.624 7543
0.208 3.182 1.618 6224
0.208 3.187 1.609 4919
0.216 3.299 1.648 3906
0.216 3.303 1.638 4962
0.216 3.308 1.629 4362
0.217 3.312 1.619 3762
0.217 3.316 1.609 3762
0.217 3.320 1.599 1881
0.045 0.659 1.674 12420
0.045 0.663 1.672 7866
0.045 0.664 1.663 3323
0.045 0.672 1.668 3966
0.046 0.680 1.673 4743
0.046 0.684 1.671 4743
0.047 0.692 1.676 6510
0.047 0.700 1.681 8483
0.048 0.704 1.679 9203
0.048 0.709 1.677 9924
0.049 0.720 1.689 10530
0.049 0.728 1.694 12469
0.050 0.732 1.692 12403
0.050 0.737 1.689 12176
0.050 0.741 1.687 12015
0.050 0.742 1.678 10094
0.050 0.740 1.661 8983
0.051 0.751 1.673 10834
0.052 0.763 1.685 13986
0.052 0.771 1.690 15627
0.053 0.779 1.695 17665
0.053 0.784 1.692 13493
0.054 0.792 1.697 9668
0.054 0.796 1.695 9125
0.054 0.801 1.692 8582
0.055 0.809 1.697 7793
0.055 0.817 1.701 7150
0.056 0.833 1.720 5898
0.057 0.845 1.731 6056
0.057 0.850 1.728 7112
0.058 0.854 1.726 8415
0.058 0.855 1.716 8309
0.058 0.852 1.700 6887
0.058 0.857 1.697 5905
0.058 0.865 1.702 4782
0.059 0.877 1.713 4174
0.060 0.882 1.710 6720
0.060 0.886 1.708 9266
0.060 0.887 1.698 11014
0.060 0.891 1.695 11251
0.061 0.900 1.700 9649
0.061 0.905 1.697 8511
0.062 0.913 1.701 7428
0.062 0.918 1.698 9140
0.062 0.922 1.695 10092
0.063 0.931 1.699 9491
0.064 0.939 1.703 14501
0.064 0.944 1.701 23860
0.064 0.953 1.704 28448
0.065 0.957 1.702 29594
0.065 0.962 1.699 26599
0.066 0.971 1.702 25252
0.066 0.975 1.700 27180
0.066 0.980 1.697 21735
0.067 0.984 1.694 16398
0.067 0.993 1.697 15288
0.067 0.997 1.694 18255
0.068 1.002 1.691 22226
0.068 1.006 1.688 21819
0.069 1.015 1.692 17844
0.069 1.015 1.682 20469
0.069 1.015 1.673 27340
0.069 1.024 1.676 27621
0.070 1.029 1.673 20969
0.070 1.033 1.670 13950
0.070 1.042 1.674 14042
0.072 1.060 1.690 13184
0.071 1.046 1.661 11704
0.071 1.051 1.658 14984
0.072 1.064 1.667 20412
0.072 1.069 1.664 23710
0.073 1.073 1.661 25948
0.073 1.078 1.658 28850
0.073 1.082 1.655 26171
0.074 1.091 1.658 16778
0.076 1.124 1.693 15994
0.077 1.133 1.696 18670
0.078 1.147 1.705 22775
0.078 1.152 1.701 23281
0.078 1.151 1.692 14948
0.080 1.180 1.720 9393
0.081 1.199 1.735 13980
0.081 1.203 1.731 18251
0.081 1.203 1.721 19422
0.082 1.208 1.718 18391
0.082 1.217 1.721 21806
0.083 1.227 1.723 23345
0.084 1.236 1.726 19393
0.084 1.236 1.716 17693
0.084 1.235 1.706 20068
0.084 1.240 1.702 23187
0.085 1.250 1.705 26006
0.085 1.254 1.701 25682
0.085 1.259 1.697 23703
0.085 1.263 1.693 26334
0.086 1.268 1.690 30649
0.086 1.277 1.692 26238
0.087 1.282 1.688 24274
0.087 1.291 1.690 25704
0.088 1.296 1.686 20559
0.088 1.305 1.689 14606
0.089 1.310 1.685 8741
0.090 1.325 1.693 6050
0.090 1.334 1.695 10829
0.091 1.339 1.691 21655
0.090 1.338 1.681 30993
0.091 1.343 1.677 29954
0.091 1.347 1.673 21611
0.092 1.357 1.675 13013
0.092 1.356 1.665 6713
0.091 1.350 1.649 6503
0.091 1.349 1.639 8230
0.092 1.358 1.641 12440
0.092 1.363 1.637 18150
0.092 1.367 1.633 22566
0.093 1.371 1.629 22437
0.093 1.376 1.625 17780
0.093 1.380 1.621 13638
0.094 1.390 1.622 10279
0.094 1.394 1.618 9784
0.095 1.404 1.620 18467
0.096 1.419 1.627 28222
0.097 1.429 1.628 22098
0.098 1.444 1.635 12794
0.103 1.521 1.704 18184
0.104 1.531 1.705 23047
0.102 1.502 1.667 17450
0.101 1.495 1.651 20944
0.103 1.522 1.669 19067
0.105 1.555 1.692 17412
0.107 1.582 1.710 26694
0.108 1.592 1.711 44047
0.108 1.597 1.706 57397
0.108 1.601 1.701 54816
0.108 1.600 1.691 33263
0.109 1.605 1.686 15581
0.109 1.615 1.687 14901
0.110 1.631 1.693 19582
0.111 1.641 1.693 21931
0.112 1.651 1.694 17202
0.112 1.656 1.689 16606
0.113 1.666 1.689 18685
0.113 1.677 1.690 16063
0.114 1.681 1.685 11507
0.115 1.703 1.696 14810
0.115 1.708 1.691 24898
0.116 1.718 1.691 18894
0.118 1.740 1.701 12056
0.118 1.739 1.691 20456
0.118 1.743 1.686 21864
0.118 1.748 1.681 14989
0.120 1.770 1.691 17569
0.120 1.781 1.691 21937
0.120 1.773 1.675 14556
0.120 1.778 1.670 10689
0.120 1.776 1.660 12557
0.120 1.781 1.654 10290
0.124 1.840 1.695 19676
0.124 1.838 1.684 20892
0.125 1.842 1.679 18537
0.125 1.847 1.673 15998
0.126 1.870 1.683 16353
0.127 1.880 1.682 25354
0.128 1.891 1.681 29692
0.129 1.902 1.681 26291
0.131 1.937 1.700 25998
0.132 1.954 1.704 30157
0.132 1.959 1.698 35096
0.133 1.963 1.692 35830
0.133 1.974 1.691 23931
0.134 1.985 1.690 16723
0.135 1.995 1.689 20294
0.135 2.000 1.683 19976
0.136 2.004 1.677 16509
0.136 2.015 1.676 15982
0.137 2.032 1.679 16791
0.138 2.043 1.678 15794
0.140 2.067 1.686 14974
0.140 2.077 1.685 12403
0.141 2.082 1.679 13455
0.141 2.086 1.672 16674
0.141 2.091 1.666 16914
0.141 2.089 1.655 12394
0.148 2.183 1.713 11422
0.148 2.188 1.707 12415
0.148 2.192 1.700 15743
0.148 2.190 1.689 16718
0.148 2.195 1.683 14064
0.149 2.206 1.681 13251
0.150 2.217 1.679 11986
0.151 2.234 1.681 9424
0.154 2.272 1.697 14760
0.154 2.276 1.690 20621
0.154 2.281 1.683 18939
0.157 2.325 1.703 14046
0.158 2.336 1.700 14852
0.158 2.340 1.693 15183
0.159 2.345 1.686 13071
0.160 2.362 1.688 9756
0.161 2.387 1.694 9583
0.160 2.365 1.670 11993
0.160 2.369 1.663 17355
0.161 2.380 1.660 19679
0.161 2.385 1.653 16432
0.162 2.396 1.650 9580
0.163 2.414 1.651 6840
0.164 2.425 1.648 7411
0.165 2.442 1.649 6988
0.166 2.460 1.650 6540
0.167 2.465 1.643 6244
0.168 2.489 1.648 6550
0.169 2.494 1.640 6738
0.169 2.505 1.637 4956
0.177 2.612 1.690 4114
0.176 2.609 1.678 4285
0.177 2.621 1.674 4525
0.182 2.687 1.702 5057
0.179 2.643 1.666 5906
0.179 2.641 1.655 6901
0.180 2.666 1.659 7653
0.181 2.677 1.655 8348
0.186 2.744 1.681 9179
0.186 2.755 1.677 10504
0.187 2.759 1.669 12065
0.187 2.764 1.661 10418
0.187 2.761 1.649 8838
0.187 2.766 1.641 6404
0.188 2.777 1.636 3988
0.189 2.788 1.632 4217
0.196 2.905 1.682 6200
0.196 2.902 1.670 7098
0.195 2.885 1.650 8321
0.200 2.953 1.674 6641
0.200 2.964 1.669 7014
0.202 2.983 1.668 6578
0.203 3.009 1.669 7501
0.204 3.013 1.661 8943
0.204 3.010 1.648 10406
0.204 3.015 1.639 9768
0.204 3.019 1.630 9134
0.207 3.066 1.642 9080
0.208 3.077 1.636 10554
0.208 3.075 1.624 8049
0.207 3.065 1.608 6145
0.208 3.069 1.599 6145
0.215 3.173 1.637 6727
0.215 3.178 1.627 6727
0.215 3.182 1.618 5601
0.215 3.179 1.605 4490
0.223 3.291 1.645 3996
0.223 3.303 1.638 5078
0.224 3.307 1.629 4417
0.224 3.311 1.619 3755
0.224 3.316 1.609 3755
0.225 3.320 1.599 1877
0.047 0.658 1.674 13289
0.047 0.663 1.672 8654
0.047 0.667 1.670 4019
0.048 0.672 1.668 4627
0.048 0.676 1.666 5235
0.048 0.681 1.664 5235
0.049 0.692 1.676 7049
0.050 0.700 1.681 9305
0.050 0.704 1.679 10077
0.050 0.708 1.677 10850
0.051 0.720 1.689 11523
0.052 0.728 1.694 13471
0.052 0.732 1.692 13292
0.052 0.737 1.689 12883
0.053 0.741 1.687 12651
0.053 0.742 1.678 10633
0.052 0.739 1.661 9453
0.053 0.751 1.673 11247
0.054 0.763 1.685 14185
0.055 0.771 1.690 16057
0.055 0.779 1.695 18368
0.056 0.783 1.692 14382
0.056 0.792 1.697 10652
0.056 0.796 1.695 9675
0.057 0.801 1.692 8698
0.057 0.809 1.697 7766
0.058 0.817 1.701 7068
0.059 0.833 1.720 5910
0.060 0.845 1.731 6036
0.060 0.850 1.728 7374
0.060 0.850 1.719 8984
0.060 0.851 1.710 8985
0.061 0.856 1.707 7763
0.061 0.856 1.697 6920
0.061 0.865 1.702 5296
0.062 0.877 1.713 4046
0.063 0.882 1.710 6476
0.063 0.886 1.708 8906
0.063 0.887 1.698 10781
0.063 0.891 1.695 11073
0.064 0.900 1.700 9386
0.064 0.904 1.697 8768
0.064 0.909 1.694 8202
0.065 0.917 1.698 10236
0.065 0.918 1.689 11213
0.065 0.922 1.686 10228
0.067 0.939 1.703 14184
0.067 0.944 1.701 23014
0.068 0.953 1.704 27474
0.068 0.957 1.702 29028
0.068 0.962 1.699 26433
0.069 0.970 1.702 25044
0.069 0.979 1.706 26712
0.069 0.979 1.697 20787
0.070 0.988 1.700 15493
0.070 0.993 1.697 15262
0.071 0.997 1.694 18937
0.071 1.002 1.691 22982
0.071 1.006 1.688 22745
0.072 1.015 1.692 19129
0.072 1.020 1.689 22395
0.072 1.015 1.673 30021
0.072 1.020 1.670 30176
0.073 1.029 1.673 22776
0.073 1.033 1.670 15082
0.074 1.042 1.674 15076
0.075 1.051 1.677 13950
0.075 1.060 1.680 10877
0.075 1.051 1.658 13032
0.075 1.064 1.667 19251
0.076 1.073 1.671 22216
0.076 1.073 1.661 23246
0.076 1.077 1.658 25113
0.077 1.082 1.655 22465
0.077 1.091 1.658 14232
0.080 1.124 1.693 15935
0.080 1.133 1.696 19649
0.081 1.147 1.705 23485
0.081 1.147 1.695 24251
0.082 1.151 1.692 16092
0.083 1.170 1.707 9782
0.085 1.199 1.735 13307
0.085 1.203 1.731 17312
0.085 1.203 1.721 18651
0.086 1.208 1.718 19035
0.086 1.217 1.721 23530
0.087 1.226 1.723 24737
0.088 1.236 1.726 18944
0.088 1.241 1.722 15309
0.088 1.235 1.706 17206
0.088 1.240 1.702 21804
0.089 1.249 1.705 26001
0.089 1.254 1.701 25832
0.089 1.258 1.697 23630
0.090 1.263 1.693 26526
0.090 1.272 1.696 30615
0.091 1.277 1.692 25151
0.091 1.281 1.688 24766
0.092 1.291 1.690 27437
0.092 1.295 1.686 20854
0.092 1.300 1.683 14566
0.093 1.310 1.685 8794
0.094 1.324 1.693 6433
0.095 1.334 1.695 12129
0.095 1.339 1.691 22580
0.095 1.338 1.681 30684
0.095 1.342 1.677 30261
0.096 1.347 1.673 23195
0.096 1.357 1.675 14818
0.097 1.366 1.677 8635
0.096 1.360 1.661 7424
0.096 1.348 1.639 7570
0.096 1.358 1.641 9948
0.097 1.362 1.637 14845
0.097 1.367 1.633 19312
0.098 1.377 1.635 19781
0.098 1.375 1.625 14648
0.098 1.380 1.621 11782
0.099 1.389 1.622 11650
0.099 1.394 1.618 11958
0.100 1.409 1.625 18196
0.101 1.419 1.627 29398
0.101 1.423 1.623 25182
0.102 1.439 1.630 14799
0.108 1.521 1.704 17211
0.109 1.531 1.705 23134
0.106 1.496 1.661 20135
0.106 1.495 1.651 26234
0.108 1.522 1.669 21817
0.110 1.555 1.692 18791
0.112 1.582 1.710 29797
0.113 1.592 1.711 44872
0.113 1.596 1.706 56336
0.113 1.595 1.696 53319
0.113 1.600 1.691 31529
0.114 1.604 1.686 15360
0.114 1.614 1.687 15983
0.116 1.631 1.693 19125
0.117 1.647 1.699 20490
0.117 1.651 1.694 14138
0.118 1.661 1.694 13401
0.118 1.666 1.689 17224
0.119 1.676 1.690 15851
0.120 1.687 1.690 11412
0.121 1.703 1.696 14789
0.122 1.713 1.696 26058
0.122 1.718 1.691 18527
0.123 1.740 1.701 11619
0.123 1.739 1.691 20880
0.124 1.743 1.686 21647
0.124 1.748 1.681 14912
0.126 1.770 1.691 19529
0.126 1.774 1.686 23862
0.126 1.773 1.675 14406
0.126 1.777 1.670 9470
0.126 1.782 1.665 12882
0.127 1.786 1.659 11617
0.130 1.839 1.695 19956
0.130 1.838 1.684 21482
0.131 1.842 1.679 19415
0.131 1.853 1.678 17939
0.133 1.876 1.688 20433
0.133 1.880 1.682 28310
0.134 1.891 1.681 30966
0.135 1.901 1.681 28079
0.137 1.930 1.695 26420
0.139 1.954 1.704 28820
0.139 1.958 1.698 33330
0.139 1.963 1.692 34216
0.140 1.973 1.691 22507
0.141 1.984 1.690 14485
0.141 1.995 1.689 16420
0.142 1.999 1.683 16210
0.142 2.004 1.677 14620
0.143 2.021 1.681 16282
0.144 2.032 1.679 17884
0.145 2.043 1.678 16738
0.147 2.066 1.686 15564
0.148 2.083 1.689 12082
0.148 2.088 1.683 11593
0.148 2.086 1.672 15295
0.148 2.090 1.666 16371
0.149 2.095 1.660 12136
0.154 2.176 1.709 10894
0.155 2.187 1.707 11840
0.155 2.192 1.700 16115
0.155 2.190 1.689 17377
0.155 2.188 1.678 14791
0.156 2.205 1.681 13750
0.157 2.216 1.679 12574
0.158 2.234 1.681 9982
0.161 2.271 1.697 15221
0.161 2.276 1.690 20443
0.161 2.273 1.679 18581
0.165 2.331 1.707 15028
0.166 2.342 1.704 16469
0.166 2.346 1.698 16239
0.167 2.351 1.691 15162
0.168 2.362 1.688 12652
