0.545 0.974 1.426 17203
0.557 0.996 1.446 13732
0.562 1.004 1.449 17336
0.563 1.007 1.445 13602
0.565 1.011 1.442 14839
0.567 1.014 1.439 18908
0.572 1.022 1.441 20023
0.573 1.025 1.437 21431
0.578 1.033 1.440 21934
0.580 1.037 1.436 19748
0.582 1.040 1.433 13725
0.589 1.053 1.441 16735
0.591 1.056 1.437 26580
0.595 1.064 1.439 22583
0.602 1.077 1.447 18112
0.610 1.090 1.455 17907
0.614 1.098 1.457 10765
0.611 1.092 1.441 8408
0.618 1.105 1.449 11067
0.625 1.118 1.456 21315
0.627 1.121 1.453 26770
0.632 1.129 1.454 16836
0.639 1.142 1.462 16344
0.641 1.146 1.458 14991
0.640 1.144 1.448 16436
0.644 1.152 1.450 17113
0.646 1.156 1.446 18997
0.648 1.159 1.442 21570
0.658 1.177 1.455 15403
0.660 1.181 1.451 15398
0.662 1.184 1.447 13655
0.670 1.197 1.453 13153
0.677 1.211 1.460 15972
0.688 1.229 1.472 13328
0.692 1.238 1.473 8429
0.694 1.241 1.469 9634
0.699 1.249 1.470 18390
0.706 1.263 1.477 27707
0.708 1.266 1.472 20561
0.710 1.270 1.468 13416
0.715 1.278 1.469 13176
0.720 1.287 1.470 10103
0.722 1.290 1.466 5672
0.732 1.309 1.477 8380
0.734 1.313 1.472 16211
0.736 1.316 1.468 20089
0.744 1.330 1.474 15192
0.754 1.349 1.485 14330
0.753 1.347 1.475 21376
0.752 1.345 1.465 22388
0.760 1.359 1.471 19040
0.765 1.368 1.471 21106
0.767 1.371 1.467 20684
0.769 1.375 1.462 17660
0.771 1.378 1.457 10892
0.782 1.397 1.468 10139
0.783 1.401 1.463 18112
0.785 1.404 1.458 19395
0.790 1.413 1.458 13863
0.792 1.416 1.454 12428
0.794 1.419 1.449 17616
0.796 1.423 1.444 19830
0.798 1.426 1.439 15917
0.802 1.435 1.439 10672
0.807 1.443 1.439 11251
0.809 1.447 1.434 14885
0.814 1.455 1.434 16346
0.813 1.453 1.424 16111
0.821 1.468 1.429 16965
0.826 1.476 1.429 18983
0.831 1.485 1.428 19559
0.836 1.494 1.428 23643
0.841 1.503 1.428 22015
0.842 1.506 1.423 14096
0.863 1.543 1.445 10421
0.862 1.541 1.436 12415
0.863 1.544 1.430 12542
0.872 1.558 1.434 14753
0.873 1.562 1.429 17019
0.875 1.565 1.424 19878
0.877 1.568 1.418 22527
0.879 1.571 1.413 25700
0.881 1.575 1.408 28263
0.882 1.578 1.402 27346
0.884 1.581 1.397 24084
0.889 1.590 1.396 17646
0.885 1.582 1.382 13099
0.896 1.602 1.390 14156
0.901 1.611 1.389 16650
0.906 1.620 1.388 15213
0.911 1.629 1.386 14570
0.916 1.638 1.385 16121
0.927 1.658 1.393 17803
0.939 1.679 1.400 12359
0.947 1.694 1.403 9722
0.949 1.697 1.397 7544
0.961 1.717 1.404 9905
0.962 1.721 1.398 14598
0.964 1.724 1.392 15667
0.963 1.721 1.382 12939
0.968 1.730 1.381 9540
0.976 1.745 1.383 10247
0.974 1.742 1.373 10512
0.980 1.751 1.371 10465
0.988 1.766 1.373 11118
0.993 1.775 1.372 14079
1.001 1.790 1.374 21535
1.003 1.793 1.368 25502
1.008 1.802 1.365 24341
1.013 1.812 1.363 24152
1.018 1.821 1.361 20015
1.027 1.836 1.363 12047
1.035 1.851 1.364 7887
1.037 1.854 1.358 6124
1.042 1.863 1.356 4374
1.047 1.872 1.353 5072
1.049 1.875 1.347 8210
1.051 1.878 1.341 10599
1.052 1.881 1.334 9023
1.054 1.884 1.328 7446
1.059 1.893 1.325 4862
1.085 1.939 1.345 3333
1.069 1.912 1.320 3691
1.071 1.915 1.313 4460
1.069 1.911 1.303 4142
1.064 1.902 1.290 4145
1.072 1.917 1.290 4528
1.077 1.926 1.288 5276
1.082 1.935 1.285 5340
1.088 1.944 1.282 5621
1.131 2.021 1.318 6770
1.143 2.043 1.321 10308
1.148 2.052 1.318 14739
1.146 2.049 1.307 14834
1.148 2.052 1.301 14505
1.146 2.049 1.290 14343
1.151 2.058 1.287 11278
1.170 2.092 1.297 9056
1.172 2.095 1.290 9882
1.177 2.104 1.286 10815
1.182 2.113 1.282 9162
1.187 2.122 1.278 7916
1.185 2.119 1.268 7319
1.183 2.115 1.257 7230
1.185 2.118 1.250 6271
1.186 2.121 1.243 4738
1.191 2.130 1.239 4219
1.214 2.171 1.251 3270
1.219 2.180 1.247 4054
1.224 2.189 1.243 4641
1.229 2.198 1.238 5351
1.231 2.201 1.231 5351
1.225 2.191 1.217 6962
0.303 0.539 1.554 13181
0.305 0.542 1.552 13334
0.307 0.546 1.551 13686
0.311 0.552 1.556 12577
0.313 0.556 1.554 11683
0.315 0.559 1.552 11197
0.317 0.563 1.550 10712
0.319 0.567 1.548 11042
0.321 0.570 1.546 11779
0.323 0.574 1.544 12187
0.325 0.577 1.542 14267
0.327 0.581 1.540 16347
0.327 0.581 1.531 17430
0.329 0.585 1.529 18810
0.331 0.588 1.527 19774
0.333 0.592 1.525 20552
0.333 0.592 1.516 18965
0.337 0.599 1.521 17293
0.337 0.599 1.512 14134
0.339 0.603 1.510 11077
0.341 0.606 1.508 8518
0.343 0.610 1.505 5959
0.345 0.613 1.503 4958
0.347 0.616 1.501 3957
0.349 0.620 1.499 5958
0.349 0.620 1.490 8045
0.351 0.623 1.488 8732
0.353 0.627 1.486 9418
0.357 0.634 1.490 11434
0.361 0.640 1.495 13868
0.362 0.644 1.493 17185
0.364 0.647 1.491 19191
0.368 0.654 1.495 18319
0.370 0.657 1.493 13904
0.372 0.661 1.491 9146
0.374 0.664 1.489 7546
0.374 0.664 1.479 6163
0.374 0.664 1.470 6583
0.376 0.667 1.468 7150
0.384 0.681 1.486 9237
0.390 0.692 1.497 10447
0.398 0.706 1.515 10086
0.395 0.702 1.499 9290
0.393 0.699 1.483 10837
0.391 0.695 1.468 12617
0.397 0.705 1.479 14516
0.403 0.716 1.490 15695
0.405 0.719 1.487 14769
0.407 0.723 1.485 13595
0.405 0.719 1.469 13870
0.407 0.722 1.466 17792
0.411 0.729 1.470 24737
0.413 0.733 1.468 28518
0.414 0.736 1.465 28576
0.416 0.739 1.463 25723
0.416 0.739 1.454 24971
0.420 0.746 1.458 26279
0.422 0.749 1.455 34397
0.424 0.753 1.453 42138
0.428 0.760 1.457 37446
0.430 0.763 1.454 32020
0.427 0.759 1.438 33078
0.427 0.758 1.429 40172
0.429 0.761 1.427 43199
0.430 0.765 1.424 40110
0.432 0.768 1.421 32157
0.432 0.767 1.412 29559
0.434 0.770 1.410 43961
0.435 0.773 1.407 56165
0.437 0.777 1.404 56822
0.439 0.780 1.402 54936
0.441 0.783 1.399 52997
0.443 0.786 1.396 41291
0.449 0.798 1.406 32121
0.451 0.801 1.404 29980
0.450 0.800 1.395 22660
0.450 0.799 1.386 23298
0.454 0.806 1.389 25684
0.456 0.809 1.386 22119
0.486 0.863 1.459 16523
0.490 0.871 1.462 15467
0.492 0.874 1.459 11179
0.494 0.877 1.456 13533
0.493 0.876 1.447 20717
0.498 0.884 1.450 19068
0.500 0.887 1.447 20375
0.501 0.891 1.444 25611
0.503 0.894 1.441 19727
0.503 0.893 1.432 10382
0.504 0.896 1.429 6123
0.509 0.904 1.432 6018
0.506 0.898 1.416 6515
0.510 0.906 1.419 8693
0.519 0.922 1.435 20400
0.524 0.930 1.437 33703
0.528 0.938 1.440 44940
0.530 0.941 1.437 49781
0.534 0.949 1.440 43105
0.536 0.952 1.437 29396
0.535 0.951 1.427 15557
0.542 0.963 1.436 11060
0.547 0.971 1.439 19093
0.551 0.979 1.441 25230
0.550 0.978 1.432 18050
0.560 0.995 1.446 14447
0.564 1.002 1.449 17323
0.566 1.006 1.445 13201
0.568 1.009 1.442 14716
0.570 1.012 1.439 19540
0.574 1.020 1.441 21425
0.576 1.024 1.437 22868
0.578 1.027 1.434 23835
0.583 1.035 1.436 22534
0.585 1.038 1.433 15078
0.592 1.051 1.441 16174
0.594 1.054 1.437 25643
0.598 1.062 1.439 22171
0.605 1.075 1.447 16949
0.610 1.083 1.449 17939
0.614 1.091 1.451 13062
0.616 1.095 1.447 9951
0.621 1.103 1.449 10925
0.628 1.116 1.456 19859
0.630 1.119 1.453 26579
0.635 1.127 1.454 17217
0.642 1.140 1.462 13890
0.644 1.144 1.458 13100
0.643 1.142 1.448 13776
0.645 1.146 1.445 12318
0.652 1.159 1.452 14295
0.657 1.167 1.453 14642
0.667 1.185 1.466 12545
0.666 1.184 1.456 16450
0.665 1.182 1.447 17995
0.673 1.195 1.453 19186
0.678 1.204 1.455 18477
0.688 1.222 1.467 13954
0.696 1.236 1.473 9762
0.700 1.244 1.474 11293
0.702 1.248 1.470 18383
0.710 1.261 1.477 26654
0.712 1.264 1.472 20032
0.714 1.268 1.468 13111
0.719 1.276 1.469 12223
0.721 1.280 1.465 9885
0.725 1.288 1.466 6922
0.736 1.307 1.477 9622
0.738 1.311 1.472 16259
0.740 1.314 1.468 18819
0.748 1.328 1.474 13454
0.755 1.342 1.479 12890
0.757 1.345 1.475 21392
0.756 1.343 1.465 21934
0.764 1.357 1.471 16738
0.769 1.366 1.471 18336
0.771 1.369 1.467 18904
0.773 1.372 1.462 16029
0.775 1.376 1.457 10202
0.785 1.395 1.468 10127
0.787 1.398 1.463 16732
0.789 1.402 1.458 18039
0.794 1.410 1.458 13423
0.796 1.414 1.454 11726
0.798 1.417 1.449 16910
0.800 1.420 1.444 19946
0.802 1.424 1.439 16630
0.803 1.427 1.434 11224
0.811 1.441 1.439 10730
0.813 1.444 1.434 13826
0.818 1.453 1.434 15781
0.820 1.456 1.429 17443
0.825 1.465 1.429 20409
0.827 1.468 1.424 22854
0.835 1.483 1.428 22226
0.840 1.492 1.428 24183
0.845 1.500 1.428 20819
0.850 1.509 1.427 12826
0.867 1.540 1.445 9666
0.866 1.538 1.436 11247
0.865 1.536 1.426 12060
0.876 1.556 1.434 14270
0.878 1.559 1.429 17188
0.880 1.562 1.424 21636
0.881 1.566 1.418 25040
0.883 1.569 1.413 28194
0.885 1.572 1.408 31203
0.887 1.575 1.402 30642
0.889 1.578 1.397 27397
0.894 1.587 1.396 20680
0.889 1.579 1.382 15704
0.900 1.599 1.390 15347
0.905 1.608 1.389 16890
0.911 1.617 1.388 15433
0.916 1.626 1.386 14618
0.921 1.635 1.385 15401
0.932 1.655 1.393 16162
0.944 1.676 1.400 14245
0.949 1.685 1.398 13176
0.951 1.688 1.393 9949
0.969 1.721 1.408 9054
0.967 1.718 1.398 15416
0.966 1.715 1.388 17770
0.967 1.718 1.382 14919
0.969 1.721 1.376 10812
0.978 1.736 1.379 10888
0.979 1.739 1.373 11122
0.984 1.749 1.371 10746
0.993 1.763 1.373 11251
0.998 1.772 1.372 13931
1.006 1.787 1.374 20523
1.008 1.791 1.368 24002
1.013 1.800 1.365 23064
1.018 1.809 1.363 23304
1.023 1.818 1.361 19987
1.029 1.827 1.359 12283
1.034 1.836 1.357 7435
1.035 1.839 1.350 5897
1.037 1.842 1.344 4359
1.042 1.851 1.342 4606
1.054 1.872 1.347 7650
1.056 1.875 1.341 9640
1.058 1.878 1.334 7918
1.056 1.875 1.324 6213
1.061 1.884 1.322 4106
1.093 1.942 1.349 2878
1.078 1.915 1.324 2775
1.080 1.918 1.317 3070
1.081 1.921 1.311 3337
1.104 1.960 1.326 4129
1.085 1.926 1.298 4981
1.086 1.929 1.291 6357
1.088 1.932 1.285 6495
1.093 1.941 1.282 6715
1.140 2.024 1.321 7276
1.148 2.040 1.321 11084
1.150 2.043 1.314 15851
1.152 2.046 1.307 16143
1.153 2.049 1.301 15990
1.152 2.045 1.290 16096
1.157 2.054 1.287 12613
1.162 2.064 1.283 9565
1.177 2.091 1.290 9873
1.179 2.094 1.283 10539
1.188 2.110 1.282 8644
1.193 2.119 1.278 7443
1.191 2.115 1.268 6851
1.189 2.112 1.257 6925
1.187 2.108 1.247 6078
1.189 2.111 1.240 4675
1.194 2.120 1.236 4074
1.249 2.218 1.277 2758
1.225 2.176 1.247 3265
1.231 2.185 1.243 4068
1.236 2.195 1.238 5070
1.237 2.197 1.231 5070
1.235 2.194 1.221 6274
0.304 0.538 1.554 13641
0.306 0.542 1.552 13893
0.308 0.545 1.551 14228
0.310 0.549 1.549 12963
0.314 0.556 1.554 11927
0.316 0.559 1.552 11296
0.318 0.563 1.550 10665
0.320 0.566 1.548 11081
0.322 0.570 1.546 11864
0.324 0.573 1.544 12232
0.326 0.577 1.542 14286
0.328 0.580 1.540 16340
0.328 0.581 1.531 17357
0.330 0.584 1.529 18621
0.332 0.588 1.527 19533
0.334 0.591 1.525 20269
0.334 0.592 1.516 18724
0.338 0.598 1.521 17039
0.338 0.599 1.512 13704
0.340 0.602 1.510 10407
0.342 0.606 1.508 7831
0.344 0.609 1.505 5255
0.346 0.613 1.503 4988
0.348 0.616 1.501 4722
0.348 0.616 1.492 6765
0.350 0.620 1.490 8896
0.352 0.623 1.488 9319
0.354 0.626 1.486 9741
0.358 0.633 1.490 11410
0.361 0.640 1.495 13459
0.363 0.643 1.493 17034
0.365 0.647 1.491 19440
0.369 0.654 1.495 18932
0.371 0.657 1.493 14726
0.373 0.660 1.491 9885
0.373 0.660 1.482 7696
0.375 0.664 1.479 5736
0.375 0.664 1.470 7159
0.379 0.670 1.475 8628
0.385 0.681 1.486 10391
0.390 0.691 1.497 11043
0.396 0.702 1.508 10133
0.394 0.698 1.493 9530
0.394 0.698 1.483 10921
0.392 0.694 1.468 12617
0.398 0.705 1.479 14137
0.402 0.712 1.483 14840
0.406 0.719 1.487 14241
0.408 0.722 1.485 13502
0.406 0.718 1.469 13169
0.410 0.725 1.473 15888
0.412 0.729 1.470 21396
0.413 0.732 1.468 24940
0.415 0.736 1.465 25114
0.417 0.739 1.463 22197
0.417 0.738 1.454 23467
0.421 0.746 1.458 27794
0.423 0.749 1.455 36388
0.425 0.752 1.453 43858
0.429 0.759 1.457 38226
0.431 0.763 1.454 32004
0.428 0.758 1.438 32413
0.428 0.758 1.429 39515
0.430 0.761 1.427 42253
0.431 0.764 1.424 38647
0.433 0.767 1.421 30380
0.433 0.766 1.412 27617
0.435 0.770 1.410 42730
0.436 0.773 1.407 55357
0.438 0.776 1.404 55868
0.440 0.779 1.402 53903
0.442 0.782 1.399 52184
0.446 0.790 1.403 40506
0.450 0.797 1.406 32310
0.452 0.800 1.404 30688
0.451 0.799 1.395 22125
0.451 0.798 1.386 22126
0.455 0.806 1.389 24091
0.459 0.813 1.393 19656
0.485 0.858 1.452 14739
0.489 0.866 1.456 13926
0.493 0.873 1.459 10385
0.495 0.877 1.456 13288
0.495 0.876 1.447 19808
0.499 0.883 1.450 17811
0.501 0.887 1.447 18064
0.500 0.886 1.438 22777
0.502 0.889 1.435 18322
0.501 0.888 1.426 10667
0.508 0.900 1.435 6920
0.517 0.916 1.450 9458
0.514 0.911 1.435 9620
0.514 0.909 1.425 11318
0.518 0.917 1.428 20759
0.525 0.929 1.437 32169
0.529 0.937 1.440 43626
0.531 0.940 1.437 47965
0.533 0.944 1.434 39790
0.535 0.947 1.431 25984
0.534 0.946 1.421 14463
0.543 0.962 1.436 12698
0.548 0.970 1.439 19850
0.552 0.978 1.441 23973
0.554 0.981 1.438 17857
0.561 0.994 1.446 14848
0.566 1.002 1.449 17123
0.568 1.005 1.445 12258
0.569 1.008 1.442 14099
0.571 1.012 1.439 19475
0.576 1.020 1.441 22193
0.578 1.023 1.437 24498
0.579 1.026 1.434 26068
0.581 1.029 1.430 25248
0.586 1.037 1.433 16132
0.593 1.050 1.441 15419
0.595 1.053 1.437 24535
0.602 1.066 1.445 22557
0.609 1.079 1.453 16784
0.611 1.082 1.449 17965
0.613 1.086 1.445 16066
0.615 1.089 1.441 11683
0.620 1.097 1.443 9946
0.627 1.110 1.451 16525
0.632 1.118 1.453 24520
0.636 1.127 1.454 16304
0.644 1.140 1.462 10572
0.645 1.143 1.458 12009
0.647 1.146 1.454 13320
0.649 1.150 1.450 10525
0.657 1.163 1.457 12265
0.661 1.171 1.459 10837
0.672 1.189 1.471 12065
0.668 1.183 1.456 17836
0.670 1.186 1.452 21439
0.675 1.194 1.453 23013
0.679 1.203 1.455 19834
0.690 1.221 1.467 15151
0.694 1.230 1.468 10018
0.702 1.243 1.474 11636
0.707 1.252 1.476 17250
0.712 1.260 1.477 23452
0.711 1.258 1.467 19299
0.715 1.267 1.468 13696
0.723 1.281 1.474 11714
0.722 1.279 1.465 10129
0.727 1.287 1.466 8362
0.735 1.301 1.472 9985
0.740 1.310 1.472 15111
0.741 1.313 1.468 16260
0.749 1.327 1.474 11012
0.757 1.341 1.479 11651
0.759 1.344 1.475 20679
0.758 1.342 1.465 20457
0.766 1.356 1.471 13822
0.771 1.365 1.471 14945
0.773 1.368 1.467 16548
0.774 1.371 1.462 14178
0.779 1.380 1.462 9981
0.787 1.394 1.468 10268
0.789 1.397 1.463 14816
0.791 1.401 1.458 16112
0.796 1.409 1.458 12661
0.798 1.413 1.454 11064
0.800 1.416 1.449 15949
0.802 1.419 1.444 19061
0.803 1.423 1.439 16130
0.805 1.426 1.434 11001
0.813 1.440 1.439 9867
0.815 1.443 1.434 12792
0.820 1.452 1.434 15652
0.822 1.455 1.429 18940
0.827 1.464 1.429 23136
0.829 1.467 1.424 25673
0.830 1.471 1.419 24334
0.842 1.491 1.428 23337
0.847 1.499 1.428 18305
0.852 1.508 1.427 12010
0.857 1.517 1.427 9297
0.858 1.520 1.422 10125
0.863 1.529 1.421 11898
0.875 1.549 1.430 13483
0.880 1.558 1.429 16674
0.882 1.561 1.424 22715
0.883 1.564 1.418 26989
0.885 1.568 1.413 30153
0.887 1.571 1.408 33680
0.889 1.574 1.402 33318
0.891 1.577 1.397 29833
0.896 1.586 1.396 23139
0.894 1.584 1.386 17905
0.903 1.598 1.390 16361
0.908 1.607 1.389 16947
0.909 1.610 1.383 15547
0.914 1.619 1.382 14601
0.923 1.634 1.385 14293
0.934 1.654 1.393 13848
0.946 1.675 1.400 16700
0.951 1.684 1.398 17631
0.949 1.681 1.389 14150
0.954 1.690 1.387 10829
0.966 1.711 1.394 16431
0.968 1.714 1.388 19754
0.970 1.717 1.382 16810
0.971 1.720 1.376 12242
0.980 1.735 1.379 11604
0.982 1.738 1.373 11723
0.983 1.741 1.367 11013
0.995 1.762 1.373 11128
1.000 1.771 1.372 13163
1.009 1.786 1.374 18666
1.010 1.789 1.368 21818
1.016 1.798 1.365 21222
1.024 1.813 1.367 21975
1.026 1.816 1.361 19544
1.031 1.826 1.359 12587
1.033 1.829 1.353 7629
1.034 1.832 1.347 6071
1.039 1.841 1.344 4579
1.055 1.868 1.353 4734
1.056 1.871 1.347 7340
1.055 1.868 1.337 8957
1.056 1.871 1.331 7368
1.055 1.868 1.320 5902
1.056 1.871 1.314 4149
1.096 1.941 1.349 2809
1.098 1.944 1.342 2794
1.086 1.922 1.321 2984
1.091 1.931 1.318 4493
1.096 1.940 1.315 6155
1.091 1.931 1.301 7151
1.092 1.934 1.295 8416
1.094 1.937 1.288 8312
1.095 1.940 1.282 8208
1.142 2.023 1.321 7614
1.151 2.038 1.321 11640
1.153 2.041 1.314 16719
1.154 2.044 1.307 17105
1.153 2.041 1.297 17140
1.154 2.044 1.290 17482
1.156 2.047 1.283 13860
1.161 2.056 1.280 10425
1.170 2.071 1.280 9983
1.178 2.086 1.279 10248
1.187 2.102 1.279 8086
1.196 2.117 1.278 6838
1.190 2.108 1.265 6493
1.188 2.104 1.254 6673
1.190 2.107 1.247 5979
1.191 2.110 1.240 4684
1.193 2.112 1.233 4083
1.191 2.109 1.222 2713
1.267 2.244 1.282 2814
1.244 2.203 1.252 3846
1.242 2.199 1.242 4985
1.244 2.202 1.234 4985
1.242 2.199 1.224 5894
0.306 0.537 1.554 13865
0.308 0.541 1.552 14255
0.310 0.544 1.551 14603
0.312 0.548 1.549 13266
0.316 0.554 1.554 12128
0.318 0.558 1.552 11354
0.320 0.561 1.550 10580
0.322 0.565 1.548 11159
0.322 0.566 1.539 12084
0.326 0.572 1.544 12421
0.328 0.576 1.542 14461
0.330 0.579 1.540 16501
0.330 0.580 1.531 17388
0.332 0.583 1.529 18474
0.334 0.587 1.527 19284
0.336 0.590 1.525 19919
0.336 0.591 1.516 18351
0.340 0.597 1.521 16617
0.340 0.597 1.512 13178
0.342 0.601 1.510 9750
0.344 0.604 1.508 7173
0.346 0.608 1.505 4596
0.348 0.611 1.503 5092
0.350 0.615 1.501 5587
0.350 0.615 1.492 7557
0.352 0.618 1.490 9600
0.354 0.622 1.488 9834
0.356 0.625 1.486 10068
0.360 0.632 1.490 11572
0.364 0.639 1.495 13372
0.366 0.642 1.493 17015
0.368 0.645 1.491 19515
0.371 0.652 1.495 19285
0.373 0.656 1.493 15393
0.375 0.659 1.491 10638
0.375 0.659 1.482 8207
0.377 0.662 1.479 6023
0.379 0.666 1.477 8088
0.381 0.669 1.475 10155
0.385 0.676 1.479 11638
0.391 0.686 1.491 11677
0.397 0.697 1.502 10205
0.397 0.697 1.493 9777
0.397 0.697 1.483 11036
0.395 0.693 1.468 12582
0.399 0.700 1.472 14057
0.405 0.710 1.483 14370
0.409 0.717 1.487 14117
0.411 0.721 1.485 13851
0.410 0.721 1.475 13157
0.412 0.724 1.473 14683
0.414 0.727 1.470 18627
0.416 0.731 1.468 21743
0.418 0.734 1.465 22016
0.420 0.737 1.463 19467
0.422 0.741 1.460 23468
0.424 0.744 1.458 30173
0.426 0.747 1.455 38571
0.428 0.751 1.453 45044
0.432 0.758 1.457 38691
0.434 0.761 1.454 31859
0.433 0.760 1.445 30879
0.433 0.760 1.436 37815
0.432 0.759 1.427 41584
0.434 0.762 1.424 37983
0.436 0.766 1.421 29708
0.436 0.765 1.412 26562
0.437 0.768 1.410 41306
0.439 0.771 1.407 54151
0.441 0.774 1.404 54427
0.443 0.778 1.402 52229
0.445 0.781 1.399 50861
0.449 0.788 1.403 39519
0.455 0.799 1.413 32212
0.457 0.803 1.410 30736
0.457 0.802 1.401 21426
0.456 0.801 1.392 20955
0.458 0.804 1.389 22485
0.462 0.811 1.393 17675
0.485 0.852 1.446 12913
0.492 0.864 1.456 12305
0.496 0.871 1.459 9720
0.498 0.875 1.456 13152
0.500 0.878 1.453 19170
0.502 0.881 1.450 17023
0.504 0.885 1.447 16412
0.503 0.884 1.438 20500
0.505 0.887 1.435 17656
0.507 0.890 1.432 11598
0.514 0.902 1.441 10345
0.521 0.914 1.450 15887
0.523 0.918 1.447 15413
0.519 0.912 1.432 14883
0.521 0.915 1.428 21966
0.526 0.923 1.431 29589
0.533 0.935 1.440 41578
0.534 0.938 1.437 45606
0.536 0.942 1.434 36155
0.538 0.945 1.431 24425
0.537 0.944 1.421 17677
0.544 0.956 1.430 17468
0.552 0.968 1.439 20631
0.556 0.976 1.441 22028
0.560 0.984 1.444 16889
0.565 0.992 1.446 15084
0.569 1.000 1.449 17472
0.571 1.003 1.445 11792
0.573 1.006 1.442 13110
0.575 1.010 1.439 19176
0.580 1.017 1.441 22854
0.581 1.021 1.437 25611
0.583 1.024 1.434 27364
0.585 1.027 1.430 26444
0.590 1.035 1.433 16313
0.597 1.048 1.441 14329
0.601 1.056 1.443 23233
0.606 1.064 1.445 23596
0.613 1.077 1.453 17357
0.615 1.080 1.449 17753
0.617 1.083 1.445 18196
0.622 1.092 1.447 12754
0.621 1.090 1.438 8576
0.631 1.108 1.451 13250
0.636 1.116 1.453 21425
0.640 1.124 1.454 14517
0.645 1.132 1.456 7678
0.650 1.141 1.458 11666
0.654 1.149 1.459 14221
0.656 1.152 1.456 11735
0.661 1.160 1.457 12515
0.669 1.174 1.464 10618
0.673 1.182 1.466 12788
0.672 1.180 1.456 18379
0.674 1.184 1.452 23750
0.676 1.187 1.448 25968
0.684 1.200 1.455 20446
0.694 1.219 1.467 17446
0.696 1.222 1.463 11608
0.707 1.241 1.474 11244
0.709 1.244 1.470 16006
0.716 1.258 1.477 20272
0.715 1.256 1.467 17364
0.720 1.264 1.468 14153
0.728 1.278 1.474 11868
0.727 1.276 1.465 10649
0.732 1.285 1.466 9460
0.740 1.298 1.472 9699
0.741 1.302 1.467 12698
0.746 1.310 1.468 12618
0.751 1.319 1.469 8790
0.759 1.333 1.474 10658
0.764 1.341 1.475 19132
0.763 1.339 1.465 18255
0.768 1.348 1.466 10957
0.776 1.362 1.471 11833
0.778 1.365 1.467 14330
0.779 1.368 1.462 12258
0.784 1.377 1.462 9855
0.792 1.391 1.468 10343
0.797 1.400 1.468 12854
0.799 1.403 1.463 14295
0.801 1.406 1.458 11942
0.803 1.410 1.454 10601
0.805 1.413 1.449 14907
0.807 1.416 1.444 17233
0.806 1.414 1.434 14168
0.811 1.423 1.434 9814
0.819 1.437 1.439 9000
0.820 1.440 1.434 12051
0.825 1.449 1.434 15684
0.827 1.452 1.429 19842
0.832 1.461 1.429 24366
0.834 1.464 1.424 26665
0.836 1.468 1.419 25035
0.844 1.482 1.423 21566
0.852 1.496 1.428 15296
0.857 1.505 1.427 11794
0.859 1.508 1.422 10514
0.861 1.511 1.417 10106
0.866 1.520 1.416 12041
0.881 1.546 1.430 12795
0.886 1.555 1.429 15587
0.887 1.558 1.424 22940
0.889 1.561 1.418 28115
0.891 1.564 1.413 31385
0.893 1.568 1.408 35470
0.895 1.571 1.402 35091
0.897 1.574 1.397 31077
0.902 1.583 1.396 24401
0.900 1.580 1.386 18975
0.908 1.595 1.390 16547
0.913 1.604 1.389 16385
0.915 1.607 1.383 15223
0.924 1.621 1.386 14627
0.929 1.630 1.385 13348
0.947 1.662 1.401 12210
0.952 1.671 1.400 19423
0.954 1.675 1.394 22317
0.952 1.672 1.384 18613
0.954 1.675 1.379 13942
0.969 1.701 1.390 17712
0.971 1.705 1.384 21227
0.976 1.714 1.382 18356
0.978 1.717 1.376 13600
0.983 1.726 1.375 12247
0.985 1.729 1.369 12249
0.990 1.738 1.367 11263
0.998 1.753 1.369 10875
1.007 1.768 1.372 11908
1.015 1.782 1.374 16354
1.017 1.786 1.368 19468
1.022 1.795 1.365 19517
1.031 1.810 1.367 20979
1.032 1.813 1.361 19109
1.038 1.822 1.359 12596
1.039 1.825 1.353 7617
1.045 1.834 1.350 6073
1.050 1.843 1.348 4833
1.062 1.864 1.353 5278
1.063 1.867 1.347 7085
1.062 1.864 1.337 8255
1.060 1.861 1.327 7048
1.058 1.858 1.317 6106
1.063 1.867 1.314 4563
1.079 1.894 1.323 3549
1.094 1.921 1.331 3912
1.096 1.924 1.325 4453
1.098 1.927 1.318 6700
1.099 1.930 1.311 8946
1.098 1.927 1.301 9919
1.099 1.930 1.295 10997
1.101 1.933 1.288 10390
1.103 1.936 1.282 9783
1.104 1.939 1.275 7839
1.155 2.028 1.318 11951
1.160 2.037 1.314 17193
1.162 2.040 1.307 17649
1.160 2.037 1.297 17881
1.158 2.033 1.287 18386
1.163 2.042 1.283 14718
1.169 2.051 1.280 11104
1.170 2.054 1.273 10401
1.182 2.076 1.276 9953
1.191 2.091 1.275 7527
1.203 2.113 1.278 6238
1.198 2.103 1.265 6097
1.196 2.100 1.254 6311
1.198 2.103 1.247 5662
1.196 2.099 1.237 4484
1.197 2.102 1.230 3860
1.199 2.104 1.222 2728
1.258 2.208 1.266 3202
1.259 2.211 1.258 4283
1.265 2.220 1.254 5373
1.266 2.223 1.247 5373
1.279 2.245 1.248 6101
0.308 0.536 1.554 13915
0.310 0.540 1.552 14508
0.312 0.543 1.551 14912
0.314 0.547 1.549 13551
0.318 0.553 1.554 12360
0.320 0.557 1.552 11414
0.322 0.560 1.550 10469
0.324 0.564 1.548 11278
0.324 0.564 1.539 12480
0.326 0.568 1.537 12828
0.330 0.574 1.542 14838
0.332 0.578 1.540 16886
0.332 0.578 1.531 17581
0.334 0.582 1.529 18435
0.336 0.585 1.527 19033
0.338 0.589 1.525 19466
0.339 0.589 1.516 17817
0.341 0.593 1.514 16003
0.343 0.596 1.512 12521
0.345 0.600 1.510 9039
0.346 0.603 1.508 6467
0.348 0.607 1.505 3896
0.350 0.610 1.503 5160
0.352 0.613 1.501 6424
0.354 0.617 1.499 8330
0.354 0.617 1.490 10291
0.356 0.620 1.488 10280
0.358 0.624 1.486 10269
0.362 0.630 1.490 11744
0.366 0.637 1.495 13415
0.368 0.641 1.493 17171
0.370 0.644 1.491 19771
0.374 0.651 1.495 19651
0.376 0.654 1.493 15829
0.378 0.658 1.491 11029
0.380 0.661 1.489 8841
0.380 0.661 1.479 6800
0.382 0.664 1.477 9333
0.384 0.668 1.475 11602
0.388 0.675 1.479 12754
0.394 0.685 1.491 12118
0.398 0.692 1.495 10190
0.397 0.692 1.486 9842
0.399 0.695 1.483 11094
0.397 0.691 1.468 12541
0.401 0.698 1.472 13997
0.407 0.709 1.483 14049
0.411 0.716 1.487 14138
0.413 0.719 1.485 14287
0.413 0.719 1.475 13283
0.415 0.722 1.473 13735
0.417 0.726 1.470 16275
0.419 0.729 1.468 18696
0.421 0.732 1.465 18735
0.423 0.736 1.463 17200
0.425 0.739 1.460 23654
0.429 0.746 1.464 32056
0.428 0.746 1.455 39940
0.433 0.753 1.459 45024
0.434 0.756 1.457 38159
0.436 0.759 1.454 31197
0.436 0.759 1.445 28737
0.433 0.754 1.429 35291
0.435 0.758 1.427 40581
0.437 0.761 1.424 37632
0.439 0.764 1.421 29897
0.439 0.763 1.412 26249
0.440 0.766 1.410 39412
0.442 0.770 1.407 51490
0.444 0.773 1.404 51427
0.446 0.776 1.402 49396
0.448 0.779 1.399 48105
0.452 0.786 1.403 37152
0.458 0.798 1.413 31444
0.460 0.801 1.410 30990
0.460 0.800 1.401 20563
0.459 0.799 1.392 18142
0.463 0.806 1.395 19362
0.470 0.818 1.405 15263
0.484 0.842 1.434 11471
0.495 0.862 1.456 9851
0.500 0.870 1.459 8402
0.502 0.873 1.456 12618
0.503 0.876 1.453 18296
0.505 0.880 1.450 16265
0.507 0.883 1.447 15029
0.507 0.882 1.438 18192
0.509 0.885 1.435 17072
0.510 0.888 1.432 13387
0.520 0.905 1.447 13963
0.524 0.912 1.450 21310
0.526 0.916 1.447 20690
0.525 0.914 1.438 18982
0.525 0.913 1.428 23895
0.529 0.921 1.431 27601
0.536 0.933 1.440 39713
0.538 0.936 1.437 42846
0.540 0.940 1.434 31696
0.542 0.943 1.431 23669
0.544 0.946 1.427 21741
0.548 0.954 1.430 22205
0.555 0.966 1.439 21652
0.560 0.974 1.441 20503
0.564 0.982 1.444 16297
0.569 0.990 1.446 15696
0.570 0.993 1.443 17956
0.575 1.001 1.445 11456
0.577 1.004 1.442 12518
0.581 1.012 1.444 18898
0.583 1.015 1.441 23269
0.585 1.019 1.437 26049
0.587 1.022 1.434 27370
0.592 1.030 1.436 26380
0.596 1.038 1.438 16274
0.604 1.050 1.446 13446
0.605 1.054 1.443 21835
0.610 1.062 1.445 24386
0.617 1.075 1.453 18385
0.617 1.073 1.443 17954
0.621 1.081 1.445 19313
0.629 1.094 1.453 13259
0.619 1.078 1.427 7996
0.632 1.101 1.445 11500
0.637 1.109 1.447 18867
0.642 1.117 1.449 13917
0.652 1.135 1.462 7030
0.654 1.138 1.458 12548
0.659 1.146 1.459 15015
0.661 1.150 1.456 13648
0.665 1.158 1.457 13032
0.673 1.171 1.464 11288
0.675 1.175 1.460 14027
0.674 1.173 1.451 17094
0.679 1.181 1.452 24351
0.680 1.184 1.448 27639
0.688 1.198 1.455 19995
0.699 1.216 1.467 20521
0.704 1.225 1.468 15114
0.711 1.238 1.474 11880
0.713 1.241 1.470 14580
0.718 1.250 1.471 18124
0.720 1.253 1.467 16658
0.728 1.267 1.473 14161
0.733 1.275 1.474 11955
0.732 1.273 1.465 10782
0.734 1.277 1.460 9476
0.741 1.290 1.466 8497
0.746 1.299 1.467 9490
0.751 1.307 1.468 8980
0.753 1.311 1.463 7499
0.764 1.330 1.474 9953
0.769 1.338 1.475 17090
0.768 1.336 1.465 15643
0.776 1.350 1.471 8480
0.784 1.364 1.476 9729
0.783 1.362 1.467 12622
0.785 1.366 1.462 10621
0.790 1.374 1.462 9583
0.798 1.388 1.468 10002
0.803 1.397 1.468 10404
0.804 1.400 1.463 11578
0.806 1.403 1.458 10381
0.805 1.401 1.449 10268
0.807 1.405 1.444 14475
0.812 1.413 1.444 15146
0.811 1.411 1.434 11151
0.813 1.415 1.429 7480
0.824 1.434 1.439 7831
0.826 1.437 1.434 11367
0.831 1.446 1.434 15671
0.833 1.449 1.429 20155
0.838 1.458 1.429 24226
0.840 1.461 1.424 25966
0.841 1.464 1.419 24145
0.846 1.473 1.419 19234
0.858 1.493 1.428 13432
0.863 1.502 1.427 13133
0.865 1.505 1.422 12007
0.867 1.508 1.417 10125
0.872 1.517 1.416 11927
0.883 1.537 1.425 12259
0.891 1.551 1.429 14295
0.893 1.555 1.424 22529
0.895 1.558 1.418 28435
0.894 1.555 1.409 31967
0.899 1.564 1.408 36207
0.901 1.567 1.402 35781
0.902 1.571 1.397 31116
0.907 1.579 1.396 24347
0.906 1.577 1.386 18917
0.914 1.591 1.390 15689
0.919 1.600 1.389 14791
0.925 1.609 1.388 14464
0.933 1.624 1.391 15555
0.935 1.627 1.385 13583
0.953 1.659 1.401 12789
0.958 1.668 1.400 22175
0.960 1.671 1.394 26740
0.958 1.668 1.384 22798
0.960 1.671 1.379 16660
0.975 1.698 1.390 18554
0.977 1.701 1.384 22106
0.982 1.710 1.382 19294
0.984 1.713 1.376 14670
0.989 1.722 1.375 12871
0.991 1.725 1.369 12683
0.996 1.734 1.367 11291
1.005 1.749 1.369 10383
1.013 1.764 1.372 10293
1.022 1.779 1.374 13891
1.024 1.782 1.368 17181
1.032 1.797 1.369 18111
1.037 1.806 1.367 20529
1.039 1.809 1.361 19155
1.044 1.818 1.359 12793
1.043 1.815 1.349 7732
1.051 1.830 1.350 6267
1.060 1.845 1.352 5493
1.065 1.854 1.349 5783
1.067 1.857 1.343 6828
1.069 1.860 1.337 7557
1.067 1.857 1.327 6795
1.069 1.860 1.320 6198
1.074 1.869 1.318 5002
1.089 1.896 1.326 4749
1.102 1.917 1.331 5638
1.103 1.920 1.325 6678
1.105 1.923 1.318 9268
1.103 1.920 1.308 11957
1.105 1.923 1.301 12832
1.107 1.926 1.295 13708
1.108 1.929 1.288 12577
1.110 1.932 1.282 11445
1.111 1.935 1.275 9075
1.163 2.023 1.318 12023
1.168 2.033 1.314 17321
1.169 2.036 1.307 17829
1.168 2.032 1.297 18207
1.166 2.029 1.287 18892
1.167 2.032 1.280 15193
1.158 2.016 1.263 11605
1.174 2.044 1.269 10631
1.179 2.053 1.266 9779
1.195 2.081 1.272 6899
1.215 2.115 1.282 5641
1.206 2.099 1.265 5635
1.207 2.102 1.257 5864
1.205 2.098 1.247 5159
1.203 2.095 1.237 4030
1.205 2.097 1.230 3414
1.207 2.100 1.222 2536
1.266 2.203 1.266 3842
1.271 2.213 1.262 4886
1.273 2.215 1.254 5954
1.274 2.218 1.247 5954
1.287 2.240 1.248 6640
0.309 0.536 1.554 13911
0.311 0.539 1.552 14738
0.313 0.543 1.551 15220
0.315 0.546 1.549 13859
0.319 0.553 1.554 12627
0.321 0.556 1.552 11516
0.324 0.563 1.557 10482
0.325 0.563 1.548 11495
0.325 0.564 1.539 13057
0.327 0.567 1.537 13442
0.331 0.574 1.542 15476
0.333 0.577 1.540 17596
0.333 0.578 1.531 18048
0.335 0.581 1.529 18625
0.337 0.585 1.527 18972
0.339 0.588 1.525 19150
0.339 0.589 1.516 17327
0.341 0.592 1.514 15337
0.343 0.596 1.512 11825
0.345 0.599 1.510 8314
0.347 0.603 1.508 5965
0.349 0.606 1.505 3617
0.351 0.609 1.503 5513
0.353 0.613 1.501 7410
0.353 0.613 1.492 9234
0.355 0.616 1.490 11102
0.359 0.623 1.495 10783
0.361 0.626 1.493 10508
0.363 0.630 1.490 11931
0.367 0.637 1.495 13538
0.369 0.640 1.493 17403
0.371 0.643 1.491 20150
0.375 0.650 1.495 20130
0.377 0.654 1.493 16254
0.379 0.657 1.491 11343
0.381 0.660 1.489 9548
0.381 0.660 1.479 7775
0.383 0.664 1.477 10608
0.387 0.671 1.482 12881
0.389 0.674 1.479 13688
0.395 0.684 1.491 12433
0.399 0.691 1.495 10075
0.398 0.691 1.486 9905
0.400 0.695 1.483 11099
0.398 0.691 1.468 12357
0.402 0.698 1.472 13869
0.408 0.708 1.483 13881
0.412 0.715 1.487 14283
0.414 0.719 1.485 14671
0.416 0.722 1.482 13346
0.416 0.722 1.473 12888
0.418 0.725 1.470 14200
0.420 0.728 1.468 15847
0.422 0.732 1.465 15654
0.426 0.739 1.470 16305
0.428 0.742 1.467 25366
0.430 0.746 1.464 34401
0.432 0.749 1.462 41587
0.434 0.752 1.459 44958
0.436 0.755 1.457 37075
0.438 0.759 1.454 30088
0.437 0.758 1.445 26565
0.435 0.754 1.429 33070
0.436 0.757 1.427 38939
0.438 0.760 1.424 36063
0.440 0.763 1.421 28970
0.440 0.763 1.412 24082
0.442 0.766 1.410 33804
0.443 0.769 1.407 44209
0.445 0.772 1.404 43926
0.447 0.775 1.402 41820
0.449 0.778 1.399 40738
0.455 0.790 1.409 31820
0.462 0.801 1.419 28947
0.464 0.804 1.416 29673
0.463 0.803 1.407 19549
0.463 0.802 1.398 16221
0.465 0.806 1.395 16981
0.476 0.825 1.418 14137
0.480 0.833 1.421 11756
0.492 0.853 1.443 7987
0.501 0.869 1.459 7395
0.503 0.872 1.456 12316
0.505 0.875 1.453 17502
0.507 0.879 1.450 15415
0.509 0.882 1.447 13801
0.508 0.881 1.438 16831
0.510 0.884 1.435 17750
0.514 0.892 1.438 15993
0.521 0.904 1.447 17308
0.526 0.911 1.450 25642
0.530 0.919 1.453 25414
0.527 0.914 1.438 23825
0.526 0.912 1.428 26231
0.528 0.916 1.425 26994
0.535 0.928 1.434 38396
0.539 0.936 1.437 39982
0.539 0.934 1.428 28064
0.541 0.938 1.425 24932
0.545 0.945 1.427 27093
0.549 0.953 1.430 25890
0.557 0.965 1.439 21717
0.561 0.973 1.441 18403
0.563 0.976 1.438 15237
0.570 0.989 1.446 16621
0.572 0.992 1.443 18754
0.574 0.995 1.440 11246
0.578 1.003 1.442 12239
0.583 1.011 1.444 18724
0.585 1.014 1.441 22854
0.587 1.018 1.437 24794
0.589 1.021 1.434 26471
0.593 1.029 1.436 26587
0.598 1.037 1.438 16691
0.605 1.050 1.446 12799
0.607 1.053 1.443 20094
0.612 1.061 1.445 24171
0.616 1.069 1.447 19215
0.618 1.072 1.443 18031
0.623 1.080 1.445 19155
0.630 1.093 1.453 12854
0.632 1.096 1.449 8592
0.628 1.090 1.434 12079
0.636 1.103 1.442 16099
0.638 1.106 1.438 13407
0.651 1.129 1.456 8279
0.656 1.137 1.458 14387
0.660 1.145 1.459 15340
0.665 1.154 1.461 15847
0.667 1.157 1.457 14031
0.675 1.170 1.464 11916
0.674 1.169 1.455 15053
0.676 1.172 1.451 15864
0.680 1.180 1.452 24800
0.682 1.183 1.448 27973
0.693 1.202 1.460 18823
0.701 1.215 1.467 23768
0.705 1.223 1.468 19414
0.710 1.232 1.469 12873
0.715 1.240 1.470 12895
0.720 1.249 1.471 16326
0.725 1.257 1.472 15976
0.730 1.266 1.473 13462
0.735 1.274 1.474 11330
0.734 1.272 1.465 10368
0.735 1.276 1.460 8866
0.740 1.284 1.461 7028
0.745 1.293 1.462 6691
0.750 1.301 1.463 7233
0.758 1.315 1.469 7529
0.766 1.329 1.474 9741
0.771 1.337 1.475 15416
0.770 1.335 1.465 13203
0.778 1.349 1.471 6854
0.786 1.363 1.476 8880
0.785 1.361 1.467 11749
0.787 1.364 1.462 9762
0.792 1.373 1.462 9595
0.797 1.382 1.463 9664
0.802 1.390 1.463 7618
0.807 1.399 1.463 8059
0.809 1.402 1.458 8055
0.807 1.400 1.449 10379
0.809 1.403 1.444 15308
0.814 1.412 1.444 14727
0.813 1.410 1.434 8446
0.815 1.413 1.429 5097
0.823 1.427 1.434 6651
0.831 1.441 1.439 10414
0.833 1.445 1.434 15375
0.835 1.448 1.429 19822
0.837 1.451 1.424 23177
0.842 1.460 1.424 24037
0.844 1.463 1.419 22227
0.845 1.466 1.414 17716
0.857 1.486 1.423 13751
0.862 1.495 1.423 16193
0.864 1.498 1.417 13739
0.866 1.501 1.412 10228
0.874 1.516 1.416 11678
0.885 1.536 1.425 11780
0.894 1.550 1.429 12908
0.896 1.553 1.424 21689
0.897 1.557 1.418 28148
0.896 1.554 1.409 31888
0.898 1.557 1.403 36193
0.903 1.566 1.402 35553
0.905 1.569 1.397 30149
0.907 1.572 1.392 23201
0.912 1.581 1.391 17934
0.917 1.590 1.390 13849
0.919 1.593 1.384 12370
0.934 1.619 1.396 14220
0.939 1.628 1.395 17602
0.941 1.631 1.390 15459
0.952 1.652 1.397 15073
0.961 1.666 1.400 24480
0.963 1.669 1.394 30287
0.961 1.667 1.384 26149
0.963 1.670 1.379 18572
0.975 1.690 1.386 18889
0.980 1.699 1.384 22181
0.985 1.708 1.382 19688
0.990 1.717 1.381 15561
0.992 1.720 1.375 13481
0.994 1.724 1.369 12988
0.999 1.732 1.367 11009
1.004 1.741 1.365 9718
1.013 1.756 1.367 8830
1.025 1.777 1.374 11935
1.030 1.786 1.372 15565
1.035 1.795 1.369 17439
1.040 1.804 1.367 20388
1.042 1.807 1.361 19463
1.044 1.810 1.355 13342
1.045 1.813 1.349 8146
1.051 1.822 1.347 6480
1.063 1.843 1.352 5690
1.068 1.852 1.349 5861
1.070 1.855 1.343 6472
1.071 1.858 1.337 6896
1.070 1.855 1.327 6637
1.071 1.858 1.320 6448
1.084 1.879 1.325 5765
1.096 1.900 1.330 6162
1.104 1.916 1.331 7572
1.106 1.919 1.325 9035
1.104 1.915 1.314 11864
1.106 1.918 1.308 14874
1.108 1.921 1.301 15583
1.109 1.924 1.295 16292
1.111 1.927 1.288 14661
1.113 1.930 1.282 13030
1.114 1.933 1.275 10232
1.169 2.028 1.321 11964
1.171 2.031 1.314 17233
1.173 2.034 1.307 17778
1.171 2.030 1.297 18232
1.169 2.027 1.287 19013
1.170 2.030 1.280 15343
1.161 2.014 1.263 12151
1.177 2.042 1.269 10548
1.179 2.045 1.262 9551
1.181 2.048 1.255 6254
1.218 2.113 1.282 5207
1.216 2.109 1.271 5234
1.214 2.106 1.261 5468
1.209 2.096 1.247 4547
1.203 2.086 1.233 3375
1.208 2.095 1.230 2774
1.271 2.205 1.277 2790
1.269 2.201 1.266 4589
1.275 2.211 1.262 5523
1.276 2.213 1.254 6471
1.278 2.216 1.247 6471
1.287 2.232 1.245 7225
0.310 0.535 1.554 13851
0.312 0.538 1.552 14904
0.315 0.542 1.551 15479
0.317 0.545 1.549 14092
0.320 0.552 1.554 12790
0.322 0.555 1.552 11539
0.326 0.562 1.557 10478
0.326 0.562 1.548 11713
0.327 0.563 1.539 13737
0.329 0.566 1.537 14186
0.331 0.570 1.535 16260
0.335 0.576 1.540 18426
0.335 0.577 1.531 18597
0.335 0.577 1.522 18887
0.339 0.584 1.527 18930
0.341 0.587 1.525 18824
0.341 0.588 1.516 16811
0.343 0.591 1.514 14623
0.345 0.595 1.512 11095
0.347 0.598 1.510 7566
0.349 0.602 1.508 5747
0.351 0.605 1.505 3929
0.353 0.608 1.503 6165
0.355 0.612 1.501 8401
0.355 0.612 1.492 10142
0.357 0.615 1.490 11895
0.361 0.622 1.495 11236
0.363 0.625 1.493 10621
0.365 0.629 1.490 12014
0.369 0.636 1.495 13630
0.371 0.639 1.493 17669
0.373 0.642 1.491 20594
0.377 0.649 1.495 20683
0.379 0.652 1.493 16801
0.381 0.656 1.491 11822
0.383 0.659 1.489 10332
0.385 0.663 1.486 8841
0.387 0.666 1.484 11830
0.389 0.669 1.482 14155
0.393 0.676 1.486 14493
0.397 0.683 1.491 12582
0.401 0.690 1.495 9808
0.401 0.690 1.486 9799
0.400 0.690 1.477 10947
0.400 0.689 1.468 12032
0.404 0.696 1.472 13556
0.410 0.707 1.483 13582
0.415 0.714 1.487 14260
0.417 0.717 1.485 14897
0.418 0.721 1.482 13512
0.418 0.720 1.473 12329
0.420 0.724 1.470 12681
0.422 0.727 1.468 13523
0.426 0.734 1.472 13376
0.428 0.738 1.470 16667
0.430 0.741 1.467 27877
0.432 0.744 1.464 36738
0.434 0.748 1.462 42886
0.436 0.751 1.459 44144
0.438 0.754 1.457 35182
0.440 0.757 1.454 28029
0.439 0.757 1.445 23937
0.437 0.752 1.429 30895
0.439 0.756 1.427 36364
0.441 0.759 1.424 33039
0.442 0.762 1.421 26724
0.444 0.765 1.419 20245
0.446 0.768 1.416 25396
0.446 0.768 1.407 32877
0.447 0.771 1.404 32114
0.449 0.774 1.402 30168
0.451 0.777 1.399 29846
0.462 0.797 1.422 26108
0.467 0.804 1.425 26467
0.466 0.803 1.416 28310
0.466 0.802 1.407 18881
0.465 0.801 1.398 14759
0.469 0.808 1.402 15006
0.481 0.828 1.424 14179
0.483 0.831 1.421 13479
0.487 0.839 1.424 8158
0.504 0.867 1.459 6782
0.505 0.871 1.456 11954
0.507 0.874 1.453 16165
0.509 0.877 1.450 14254
0.511 0.881 1.447 13194
0.511 0.880 1.438 16866
0.512 0.883 1.435 19979
0.517 0.890 1.438 20127
0.524 0.902 1.447 20573
0.528 0.910 1.450 29062
0.533 0.918 1.453 29863
0.532 0.916 1.444 28703
0.531 0.915 1.435 29267
0.533 0.919 1.431 27744
0.538 0.926 1.434 37480
0.540 0.929 1.431 37837
0.541 0.933 1.428 28172
0.543 0.936 1.425 29113
0.548 0.944 1.427 32879
0.552 0.951 1.430 28783
0.559 0.964 1.439 20842
0.564 0.971 1.441 15505
0.568 0.979 1.444 14052
0.573 0.987 1.446 17974
0.578 0.995 1.449 19134
0.580 0.998 1.445 10873
0.581 1.002 1.442 11853
0.586 1.009 1.444 17890
0.588 1.013 1.441 20877
0.590 1.016 1.437 21985
0.592 1.019 1.434 25261
0.596 1.027 1.436 27254
0.601 1.035 1.438 17545
0.611 1.052 1.452 12338
0.610 1.051 1.443 17677
0.615 1.059 1.445 22468
0.619 1.067 1.447 18644
0.621 1.070 1.443 17604
0.626 1.078 1.445 18501
0.633 1.091 1.453 12678
0.638 1.099 1.455 9433
0.632 1.088 1.434 11788
0.636 1.096 1.436 13631
0.638 1.099 1.432 12039
0.654 1.127 1.456 10103
0.659 1.135 1.458 15878
0.664 1.143 1.459 14126
0.669 1.152 1.461 15882
0.668 1.150 1.452 14652
0.675 1.163 1.459 13541
0.674 1.162 1.449 16325
0.676 1.165 1.445 14789
0.684 1.178 1.452 25268
0.689 1.186 1.453 27985
0.696 1.200 1.460 18388
0.704 1.213 1.467 26696
0.709 1.221 1.468 24639
0.714 1.230 1.469 14893
0.716 1.233 1.465 12040
0.724 1.247 1.471 14999
0.729 1.255 1.472 14569
0.733 1.263 1.473 11205
0.738 1.272 1.474 9603
0.737 1.270 1.465 9273
0.739 1.273 1.460 7575
0.744 1.282 1.461 5699
0.746 1.285 1.457 5726
0.757 1.304 1.468 7719
0.762 1.313 1.469 8756
0.770 1.326 1.474 9719
0.772 1.330 1.470 13726
0.774 1.333 1.465 10838
0.785 1.352 1.476 6202
0.790 1.361 1.476 8413
0.789 1.359 1.467 10544
0.791 1.362 1.462 8754
0.793 1.365 1.457 9681
0.798 1.374 1.458 9942
0.803 1.383 1.458 6117
0.808 1.391 1.458 4921
0.810 1.395 1.453 5618
0.811 1.398 1.449 10825
0.816 1.406 1.449 17629
0.818 1.410 1.444 16986
0.820 1.413 1.439 9676
0.822 1.416 1.434 5388
0.827 1.425 1.434 6249
0.835 1.439 1.439 9605
0.837 1.442 1.434 14917
0.839 1.446 1.429 18893
0.841 1.449 1.424 21163
0.846 1.457 1.424 21183
0.848 1.461 1.419 19765
0.850 1.464 1.414 17064
0.858 1.478 1.418 15752
0.866 1.492 1.423 19592
0.868 1.496 1.417 15109
0.870 1.499 1.412 10259
0.878 1.513 1.416 11428
0.887 1.527 1.420 11475
0.895 1.542 1.424 11793
0.897 1.545 1.419 20582
0.899 1.548 1.414 27487
0.901 1.551 1.409 31292
0.902 1.555 1.403 35650
0.908 1.563 1.402 34730
0.909 1.567 1.397 28568
0.911 1.570 1.392 21479
0.916 1.579 1.391 16297
0.918 1.582 1.385 11323
0.923 1.590 1.384 9337
0.942 1.622 1.401 14909
0.947 1.631 1.400 19775
0.949 1.634 1.394 18078
0.957 1.649 1.397 17475
0.962 1.658 1.396 25857
0.968 1.667 1.394 32233
0.966 1.664 1.384 28089
0.968 1.667 1.379 19583
0.980 1.688 1.386 18669
0.985 1.697 1.384 21688
0.990 1.705 1.382 19708
0.995 1.714 1.381 16279
0.994 1.712 1.371 14143
0.999 1.721 1.369 13196
1.004 1.730 1.367 10565
1.009 1.738 1.365 8875
1.018 1.753 1.367 7729
1.033 1.780 1.378 10639
1.035 1.783 1.372 14545
1.040 1.792 1.369 16795
1.046 1.801 1.367 19972
1.047 1.804 1.361 19500
1.049 1.807 1.355 13827
1.047 1.804 1.345 8662
1.053 1.813 1.343 6712
1.068 1.840 1.352 5505
1.073 1.849 1.349 5355
1.075 1.852 1.343 5625
1.077 1.855 1.337 5977
1.079 1.858 1.331 6421
1.080 1.861 1.324 6865
1.093 1.882 1.329 6810
1.105 1.903 1.334 7784
1.110 1.912 1.331 9533
1.112 1.915 1.325 11287
1.110 1.912 1.314 14196
1.112 1.915 1.308 17306
1.113 1.918 1.301 17895
1.115 1.921 1.295 18483
1.117 1.924 1.288 16408
1.119 1.927 1.282 14334
1.120 1.930 1.275 11143
1.175 2.024 1.321 11745
1.177 2.027 1.314 16903
1.179 2.030 1.307 17465
1.177 2.027 1.297 17967
1.175 2.024 1.287 18807
1.173 2.020 1.276 15156
1.167 2.011 1.263 12331
1.180 2.032 1.266 10220
1.185 2.041 1.262 9015
1.187 2.044 1.255 5963
1.232 2.122 1.288 5216
1.233 2.124 1.281 5363
1.231 2.121 1.271 5548
1.226 2.111 1.257 4181
1.224 2.108 1.246 2653
1.254 2.161 1.265 2460
1.278 2.201 1.277 3609
1.276 2.198 1.266 5401
1.281 2.207 1.262 6139
1.283 2.210 1.254 6882
1.284 2.212 1.247 6882
1.293 2.228 1.245 7701
0.312 0.534 1.554 13713
0.314 0.537 1.552 14980
0.316 0.541 1.551 15650
0.318 0.544 1.549 14212
0.322 0.551 1.554 12812
0.324 0.554 1.552 11438
0.328 0.561 1.557 10308
0.328 0.562 1.548 11850
0.328 0.562 1.539 14404
0.330 0.566 1.537 14943
0.332 0.569 1.535 17075
0.336 0.576 1.540 19264
0.336 0.576 1.531 19153
0.337 0.576 1.522 19157
0.340 0.583 1.527 18846
0.343 0.586 1.525 18415
0.343 0.587 1.516 16287
0.345 0.590 1.514 13979
0.347 0.594 1.512 10445
0.349 0.597 1.510 6911
0.351 0.601 1.508 5651
0.351 0.601 1.498 4454
0.353 0.604 1.496 6808
0.355 0.608 1.494 9162
0.357 0.611 1.492 10830
0.359 0.614 1.490 12499
0.363 0.621 1.495 11558
0.365 0.624 1.493 10674
0.369 0.631 1.497 12114
0.371 0.635 1.495 13733
0.373 0.638 1.493 17986
0.375 0.641 1.491 21072
0.378 0.648 1.495 21231
0.380 0.652 1.493 17375
0.382 0.655 1.491 12348
0.384 0.658 1.489 10991
0.386 0.662 1.486 9634
0.388 0.665 1.484 12844
0.390 0.668 1.482 15157
0.394 0.675 1.486 15112
0.398 0.682 1.491 12590
0.402 0.689 1.495 9451
0.402 0.689 1.486 9619
0.404 0.692 1.483 10777
0.402 0.688 1.468 11700
0.406 0.695 1.472 13263
0.412 0.706 1.483 13353
0.416 0.713 1.487 14190
0.418 0.716 1.485 14968
0.420 0.720 1.482 13568
0.420 0.719 1.473 12068
0.422 0.723 1.470 12016
0.424 0.726 1.468 12348
0.428 0.733 1.472 12429
0.432 0.740 1.476 18164
0.434 0.744 1.474 30452
0.436 0.747 1.471 38860
0.436 0.746 1.462 43561
0.438 0.750 1.459 42693
0.442 0.757 1.463 33363
0.442 0.756 1.454 25883
0.441 0.756 1.445 21281
0.439 0.751 1.429 28565
0.441 0.754 1.427 33580
0.442 0.758 1.424 30050
0.444 0.761 1.421 24860
0.446 0.764 1.419 18075
0.448 0.767 1.416 19388
0.450 0.770 1.413 24122
0.449 0.770 1.404 22691
0.451 0.773 1.402 19995
0.456 0.780 1.405 20228
0.472 0.808 1.441 23544
0.471 0.807 1.432 25292
0.468 0.802 1.416 26893
0.470 0.805 1.414 18347
0.470 0.804 1.404 13746
0.481 0.824 1.427 14145
0.483 0.827 1.424 15561
0.485 0.830 1.421 15925
0.484 0.829 1.412 10039
0.506 0.866 1.459 6466
0.508 0.869 1.456 11460
0.510 0.873 1.453 14631
0.512 0.876 1.450 13401
0.513 0.879 1.447 13481
0.513 0.878 1.438 18114
0.517 0.886 1.441 23479
0.519 0.889 1.438 25278
0.524 0.897 1.441 23647
0.531 0.909 1.450 30665
0.535 0.916 1.453 32591
0.534 0.915 1.444 32095
0.534 0.914 1.435 32349
0.536 0.917 1.431 29447
0.540 0.925 1.434 37537
0.542 0.928 1.431 37719
0.544 0.931 1.428 30019
0.548 0.939 1.431 33673
0.550 0.942 1.427 37330
0.555 0.950 1.430 30951
0.562 0.962 1.439 20013
0.566 0.970 1.441 12701
0.571 0.978 1.444 12920
0.576 0.986 1.446 19269
0.580 0.993 1.449 19453
0.582 0.997 1.445 10751
0.584 1.000 1.442 10921
0.589 1.008 1.444 16125
0.590 1.011 1.441 17935
0.590 1.010 1.432 18997
0.597 1.022 1.440 24330
0.602 1.030 1.442 27912
0.604 1.033 1.438 18991
0.614 1.051 1.452 12089
0.616 1.054 1.448 14746
0.618 1.057 1.445 19890
0.622 1.065 1.447 17017
0.624 1.069 1.443 15730
0.626 1.072 1.440 16093
0.636 1.090 1.453 11585
0.641 1.098 1.455 10159
0.634 1.086 1.434 12375
0.639 1.095 1.436 12692
0.641 1.098 1.432 11503
0.657 1.125 1.456 11083
0.662 1.134 1.458 16299
0.667 1.142 1.459 12939
0.672 1.150 1.461 14958
0.671 1.148 1.452 14905
0.678 1.161 1.459 15331
0.677 1.160 1.449 16751
0.679 1.163 1.445 13921
0.690 1.181 1.457 26252
0.692 1.185 1.453 28740
0.702 1.203 1.466 20082
0.710 1.216 1.472 30331
0.712 1.220 1.468 29880
0.714 1.223 1.464 18258
0.719 1.231 1.465 12133
0.727 1.245 1.471 13953
0.732 1.253 1.472 12543
0.734 1.256 1.468 8328
0.739 1.265 1.469 7503
0.741 1.268 1.465 7681
0.743 1.271 1.460 6018
0.744 1.275 1.456 4957
0.752 1.288 1.462 5609
0.763 1.307 1.473 8489
0.765 1.311 1.469 9735
0.770 1.319 1.469 9519
0.775 1.328 1.470 11140
0.777 1.331 1.465 8301
0.791 1.355 1.481 5685
0.793 1.359 1.476 7604
0.792 1.357 1.467 8579
0.794 1.360 1.462 7801
0.796 1.363 1.457 10544
0.798 1.367 1.453 11413
0.803 1.375 1.453 7950
0.805 1.378 1.448 6345
0.804 1.376 1.439 6400
0.815 1.396 1.449 12141
0.820 1.404 1.449 20976
0.825 1.413 1.449 21742
0.827 1.416 1.444 14571
0.832 1.425 1.444 8317
0.834 1.428 1.439 6502
0.839 1.437 1.439 8924
0.841 1.440 1.434 14241
0.843 1.443 1.429 17593
0.845 1.447 1.424 18615
0.847 1.450 1.419 18070
0.849 1.453 1.414 17455
0.854 1.462 1.414 17534
0.862 1.476 1.418 19729
0.870 1.490 1.423 22126
0.872 1.493 1.417 15659
0.874 1.497 1.412 10016
0.882 1.511 1.416 10985
0.887 1.520 1.416 11199
0.896 1.534 1.420 11185
0.901 1.543 1.419 19792
0.903 1.546 1.414 26558
0.905 1.549 1.409 30163
0.906 1.552 1.403 34292
0.912 1.561 1.402 33143
0.913 1.564 1.397 26529
0.915 1.567 1.392 19400
0.920 1.576 1.391 14392
0.926 1.585 1.390 9393
0.934 1.599 1.393 7723
0.949 1.625 1.405 16398
0.951 1.629 1.400 21716
0.953 1.632 1.394 20488
0.961 1.646 1.397 19136
0.967 1.655 1.396 25968
0.968 1.658 1.390 32488
0.970 1.661 1.384 28478
0.972 1.665 1.379 19682
0.984 1.685 1.386 17973
0.989 1.694 1.384 20719
0.994 1.703 1.382 19359
1.000 1.712 1.381 16790
0.998 1.709 1.371 14777
1.003 1.718 1.369 13342
1.008 1.727 1.367 9981
1.014 1.736 1.365 7903
1.019 1.745 1.363 6880
1.038 1.777 1.378 9914
1.040 1.780 1.372 13818
1.048 1.795 1.373 16103
1.050 1.798 1.367 19163
1.052 1.801 1.361 19087
1.054 1.804 1.355 13983
1.052 1.802 1.345 9094
1.057 1.810 1.343 6923
1.070 1.831 1.348 5300
1.071 1.834 1.342 4691
1.080 1.849 1.343 4675
1.078 1.846 1.333 5270
1.084 1.855 1.331 6326
1.092 1.870 1.332 7653
1.101 1.885 1.333 7962
1.113 1.906 1.338 9410
1.115 1.909 1.331 11294
1.117 1.912 1.325 13178
1.115 1.909 1.314 15989
1.117 1.912 1.308 19035
1.118 1.915 1.301 19539
1.120 1.918 1.295 20043
1.122 1.921 1.288 17614
1.123 1.924 1.282 15185
1.125 1.927 1.275 11701
1.180 2.021 1.321 11371
1.182 2.024 1.314 16372
1.180 2.021 1.304 17004
1.182 2.024 1.297 17484
1.180 2.021 1.287 18365
1.178 2.017 1.276 14757
1.173 2.008 1.263 12192
1.181 2.023 1.263 9571
1.187 2.032 1.259 8182
1.188 2.035 1.252 5456
1.241 2.125 1.292 5640
1.242 2.127 1.284 6080
1.244 2.130 1.277 6520
1.249 2.139 1.273 4715
1.262 2.161 1.275 3324
1.264 2.164 1.268 3324
1.280 2.192 1.273 4572
1.281 2.194 1.266 6181
1.287 2.203 1.262 6670
1.288 2.206 1.254 7164
1.290 2.209 1.247 7164
1.295 2.218 1.242 8196
0.313 0.533 1.554 13367
0.315 0.537 1.552 14858
0.317 0.540 1.551 15634
0.319 0.544 1.549 14174
0.321 0.547 1.547 12714
0.325 0.554 1.552 11252
0.329 0.560 1.557 10007
0.328 0.558 1.541 11924
0.330 0.561 1.539 14992
0.332 0.565 1.537 15637
0.334 0.568 1.535 17830
0.338 0.575 1.540 20048
0.338 0.575 1.531 19656
0.338 0.576 1.522 19381
0.342 0.582 1.527 18671
0.344 0.586 1.525 17873
0.344 0.586 1.516 15684
0.346 0.589 1.514 13313
0.348 0.593 1.512 9802
0.350 0.596 1.510 6292
0.350 0.597 1.501 5714
0.352 0.600 1.498 5171
0.354 0.603 1.496 7436
0.356 0.607 1.494 9701
0.358 0.610 1.492 11332
0.360 0.613 1.490 12963
0.364 0.620 1.495 11860
0.366 0.624 1.493 10827
0.370 0.630 1.497 12193
0.372 0.634 1.495 13739
0.374 0.637 1.493 18146
0.376 0.640 1.491 21432
0.380 0.647 1.495 21734
0.382 0.651 1.493 17886
0.384 0.654 1.491 12799
0.386 0.657 1.489 11507
0.388 0.661 1.486 10215
0.390 0.664 1.484 13512
0.392 0.667 1.482 15699
0.396 0.674 1.486 15354
0.400 0.681 1.491 12426
0.404 0.688 1.495 9062
0.404 0.688 1.486 9373
0.406 0.691 1.483 10573
0.404 0.687 1.468 11394
0.408 0.694 1.472 13032
0.414 0.705 1.483 13219
0.418 0.712 1.487 14109
0.420 0.715 1.485 14914
0.422 0.719 1.482 13494
0.422 0.718 1.473 11908
0.424 0.722 1.470 11747
0.426 0.725 1.468 11740
0.432 0.736 1.479 12255
0.434 0.739 1.476 20014
0.436 0.743 1.474 32933
0.438 0.746 1.471 40729
0.440 0.749 1.468 43786
0.442 0.753 1.466 40815
0.444 0.756 1.463 31449
0.446 0.759 1.461 24097
0.443 0.755 1.445 19490
0.441 0.750 1.429 26833
0.442 0.753 1.427 31164
0.444 0.757 1.424 27691
0.446 0.760 1.421 24007
0.448 0.763 1.419 19275
0.450 0.766 1.416 18780
0.452 0.769 1.413 21525
0.454 0.773 1.411 18944
0.456 0.776 1.408 13698
0.460 0.783 1.412 13924
0.471 0.802 1.435 22139
