1.743 -0.042 1.492 16215
1.753 -0.042 1.491 13595
1.757 -0.042 1.486 16083
1.754 -0.042 1.476 22050
1.752 -0.042 1.466 18176
1.762 -0.043 1.466 11456
1.792 -0.043 1.479 10327
1.789 -0.043 1.469 13267
1.793 -0.043 1.464 17754
1.803 -0.044 1.463 17342
1.813 -0.044 1.463 15281
1.817 -0.044 1.457 18662
1.821 -0.044 1.452 21917
1.825 -0.044 1.446 18547
1.829 -0.044 1.441 14192
1.839 -0.044 1.440 12817
1.849 -0.045 1.439 12216
1.853 -0.045 1.434 11732
1.870 -0.045 1.437 11365
1.887 -0.046 1.441 9241
1.923 -0.046 1.457 6940
1.927 -0.047 1.451 10695
1.931 -0.047 1.446 14843
1.941 -0.047 1.444 13225
1.945 -0.047 1.439 11392
1.955 -0.047 1.437 12847
1.959 -0.047 1.431 12555
1.963 -0.047 1.426 11382
1.967 -0.048 1.420 10500
1.970 -0.048 1.414 9920
1.981 -0.048 1.412 8830
2.004 -0.048 1.419 9785
2.008 -0.049 1.413 10370
2.019 -0.049 1.411 10960
2.022 -0.049 1.406 9566
2.019 -0.049 1.395 7648
2.043 -0.049 1.402 6351
2.081 -0.050 1.416 6886
2.091 -0.051 1.414 7381
2.088 -0.050 1.404 7945
2.119 -0.051 1.414 9184
2.129 -0.051 1.412 11753
2.140 -0.052 1.409 10490
2.150 -0.052 1.407 9577
2.161 -0.052 1.405 9243
2.171 -0.052 1.402 10827
2.175 -0.053 1.396 12539
2.186 -0.053 1.393 13789
2.196 -0.053 1.391 15446
2.193 -0.053 1.380 13865
2.210 -0.053 1.381 11830
2.228 -0.054 1.383 12821
2.231 -0.054 1.376 9663
2.242 -0.054 1.373 6609
2.245 -0.054 1.367 4010
2.312 -0.056 1.393 2171
2.308 -0.056 1.383 2794
2.340 -0.057 1.391 3463
2.337 -0.056 1.380 5352
2.326 -0.056 1.366 6179
2.365 -0.057 1.377 5391
2.390 -0.058 1.381 6639
2.414 -0.058 1.385 8530
2.404 -0.058 1.371 8409
2.393 -0.058 1.357 8621
2.390 -0.058 1.346 5814
2.386 -0.058 1.335 3189
2.461 -0.059 1.363 4982
2.457 -0.059 1.352 7343
2.461 -0.059 1.345 7353
2.457 -0.059 1.335 8029
2.460 -0.059 1.327 8785
2.464 -0.060 1.320 6222
2.503 -0.061 1.330 3922
2.614 -0.063 1.372 3158
2.625 -0.063 1.368 4774
2.592 -0.063 1.344 5445
2.589 -0.063 1.333 7385
2.592 -0.063 1.325 6519
2.588 -0.063 1.314 5669
2.592 -0.063 1.307 5669
2.682 -0.065 1.337 4108
2.686 -0.065 1.329 3740
2.667 -0.064 1.312 3329
2.751 -0.066 1.338 3855
2.754 -0.067 1.330 1927
2.619 -0.063 1.264 1613
0.631 -0.017 1.583 7999
0.645 -0.018 1.603 9957
0.653 -0.018 1.608 12815
0.660 -0.018 1.613 13528
0.668 -0.018 1.618 14606
0.672 -0.018 1.616 14191
0.673 -0.018 1.607 13159
0.677 -0.018 1.605 12590
0.685 -0.019 1.610 11409
0.689 -0.019 1.608 10364
0.701 -0.019 1.620 11516
0.708 -0.019 1.625 13532
0.713 -0.019 1.623 13704
0.717 -0.020 1.621 13876
0.721 -0.020 1.619 12582
0.722 -0.020 1.610 11168
0.726 -0.020 1.607 9379
0.730 -0.020 1.605 6852
0.735 -0.020 1.603 5242
0.754 -0.021 1.629 3988
0.751 -0.020 1.613 3642
0.755 -0.021 1.610 5209
0.759 -0.021 1.608 7257
0.763 -0.021 1.606 11474
0.768 -0.021 1.604 17448
0.772 -0.021 1.601 21044
0.776 -0.021 1.599 21253
0.784 -0.021 1.603 20893
0.792 -0.022 1.608 18309
0.797 -0.022 1.606 15834
0.801 -0.022 1.603 15716
0.801 -0.022 1.594 15980
0.805 -0.022 1.592 16353
0.810 -0.022 1.589 16726
0.814 -0.022 1.587 15498
0.818 -0.022 1.584 14206
0.826 -0.022 1.589 15975
0.830 -0.023 1.586 24826
0.835 -0.023 1.584 31690
0.843 -0.023 1.588 35680
0.847 -0.023 1.585 39537
0.855 -0.023 1.590 35855
0.855 -0.023 1.580 25900
0.860 -0.023 1.578 18619
0.864 -0.024 1.575 15874
0.876 -0.024 1.586 14203
0.885 -0.024 1.590 15257
0.889 -0.024 1.587 13567
0.897 -0.024 1.592 10185
0.906 -0.025 1.595 6565
0.914 -0.025 1.599 3640
0.923 -0.025 1.603 3980
0.923 -0.025 1.594 5164
0.927 -0.025 1.591 7157
0.927 -0.025 1.582 6979
0.931 -0.025 1.579 5610
0.935 -0.025 1.576 7850
0.939 -0.026 1.573 11129
0.948 -0.026 1.577 12054
0.957 -0.026 1.581 10283
0.965 -0.026 1.585 11699
0.965 -0.026 1.575 14933
0.964 -0.026 1.566 15798
0.964 -0.026 1.556 14917
0.968 -0.026 1.554 13952
0.972 -0.026 1.551 11293
0.976 -0.027 1.548 9480
0.980 -0.027 1.545 9952
0.989 -0.027 1.548 13838
0.998 -0.027 1.552 16699
1.007 -0.027 1.555 16993
1.015 -0.028 1.559 18571
1.029 -0.028 1.568 17154
1.038 -0.028 1.572 13888
1.032 -0.028 1.556 12851
1.037 -0.028 1.553 16486
1.045 -0.028 1.556 15353
1.059 -0.029 1.565 13201
1.073 -0.029 1.575 15012
1.082 -0.029 1.578 14653
1.086 -0.030 1.575 14753
1.090 -0.030 1.571 16419
1.099 -0.030 1.574 16799
1.099 -0.030 1.565 13684
1.103 -0.030 1.562 12702
1.107 -0.030 1.558 15755
1.111 -0.030 1.555 15906
1.125 -0.031 1.564 13686
1.129 -0.031 1.561 12186
1.133 -0.031 1.557 10443
1.142 -0.031 1.560 9962
1.141 -0.031 1.550 15564
1.151 -0.031 1.553 21505
1.155 -0.031 1.550 20831
1.154 -0.031 1.540 16193
1.163 -0.032 1.543 9609
1.167 -0.032 1.539 6352
1.166 -0.032 1.530 7991
1.180 -0.032 1.538 12578
1.189 -0.032 1.541 14661
1.193 -0.032 1.537 10501
1.218 -0.033 1.558 10405
1.223 -0.033 1.554 16330
1.227 -0.033 1.550 17307
1.236 -0.034 1.553 16327
1.240 -0.034 1.549 15861
1.249 -0.034 1.551 12548
1.232 -0.034 1.524 14551
1.226 -0.033 1.509 20396
1.224 -0.033 1.499 25193
1.239 -0.034 1.507 24648
1.248 -0.034 1.509 21785
1.258 -0.034 1.511 22983
1.267 -0.034 1.513 19817
1.260 -0.034 1.498 16109
1.264 -0.034 1.494 18695
1.268 -0.035 1.491 19291
1.266 -0.034 1.481 20382
1.270 -0.035 1.477 18498
1.285 -0.035 1.485 19006
1.289 -0.035 1.481 23288
1.282 -0.035 1.466 20872
1.280 -0.035 1.456 21593
1.295 -0.035 1.464 25888
1.316 -0.036 1.477 29502
1.325 -0.036 1.478 37880
1.329 -0.036 1.474 42481
1.333 -0.036 1.471 26678
1.331 -0.036 1.461 15942
1.381 -0.038 1.501 13443
1.402 -0.038 1.513 15605
1.406 -0.038 1.509 16155
1.352 -0.037 1.451 11104
1.356 -0.037 1.447 8350
1.429 -0.039 1.508 14269
1.439 -0.039 1.509 20500
1.449 -0.039 1.510 20223
1.458 -0.040 1.511 20293
1.462 -0.040 1.507 20510
1.472 -0.040 1.508 16179
1.482 -0.040 1.508 13989
1.480 -0.040 1.499 14979
1.484 -0.040 1.494 18004
1.494 -0.041 1.495 21117
1.504 -0.041 1.496 17947
1.514 -0.041 1.497 12666
1.517 -0.041 1.492 8822
1.527 -0.042 1.493 8929
1.543 -0.042 1.499 12638
1.547 -0.042 1.494 16599
1.551 -0.042 1.490 17272
1.555 -0.042 1.485 16752
1.565 -0.043 1.486 19529
1.569 -0.043 1.481 19744
1.579 -0.043 1.481 13397
1.595 -0.043 1.487 14155
1.605 -0.044 1.487 19281
1.615 -0.044 1.487 26805
1.625 -0.044 1.488 37348
1.629 -0.044 1.483 30569
1.639 -0.045 1.483 19105
1.661 -0.045 1.493 17251
1.671 -0.045 1.493 16733
1.675 -0.046 1.488 13551
1.679 -0.046 1.483 11454
1.708 -0.046 1.497 10683
1.718 -0.047 1.497 14045
1.722 -0.047 1.492 13503
1.732 -0.047 1.492 12146
1.743 -0.047 1.492 12697
1.753 -0.048 1.491 11540
1.757 -0.048 1.486 16080
1.754 -0.048 1.476 22875
1.758 -0.048 1.471 19455
1.762 -0.048 1.466 13120
1.791 -0.049 1.479 12522
1.789 -0.049 1.469 15026
1.793 -0.049 1.464 19295
1.803 -0.049 1.463 19358
1.813 -0.049 1.463 16554
1.817 -0.049 1.457 19066
1.821 -0.050 1.452 23172
1.825 -0.050 1.446 19970
1.828 -0.050 1.441 14629
1.839 -0.050 1.440 12567
1.849 -0.050 1.439 11681
1.853 -0.050 1.434 10120
1.876 -0.051 1.442 9502
1.886 -0.051 1.441 8493
1.923 -0.052 1.457 7445
1.927 -0.052 1.451 11289
1.931 -0.053 1.446 15485
1.934 -0.053 1.440 13461
1.938 -0.053 1.434 12048
1.949 -0.053 1.433 14015
1.959 -0.053 1.431 13399
1.963 -0.053 1.426 11631
1.966 -0.054 1.420 10370
1.970 -0.054 1.414 9732
1.980 -0.054 1.412 8164
2.004 -0.055 1.419 8006
2.015 -0.055 1.417 8585
2.018 -0.055 1.411 9975
2.022 -0.055 1.406 9624
2.026 -0.055 1.400 7882
2.029 -0.055 1.394 6149
2.080 -0.057 1.416 5800
2.084 -0.057 1.410 6458
2.088 -0.057 1.404 7586
2.112 -0.057 1.410 9321
2.129 -0.058 1.412 11300
2.140 -0.058 1.409 9911
2.150 -0.059 1.407 9039
2.161 -0.059 1.405 9058
2.171 -0.059 1.402 10650
2.175 -0.059 1.396 12102
2.185 -0.059 1.393 13477
2.196 -0.060 1.391 15526
2.200 -0.060 1.384 13375
2.217 -0.060 1.385 11418
2.228 -0.061 1.383 12721
2.238 -0.061 1.380 9861
2.249 -0.061 1.377 7044
2.245 -0.061 1.367 4499
2.305 -0.063 1.390 2266
2.308 -0.063 1.383 2744
2.333 -0.063 1.387 3282
2.336 -0.064 1.380 5092
2.326 -0.063 1.366 5845
2.372 -0.065 1.381 5329
2.411 -0.066 1.392 7035
2.414 -0.066 1.385 9009
2.411 -0.066 1.374 8561
2.407 -0.066 1.364 8436
2.418 -0.066 1.360 5785
2.464 -0.067 1.374 3814
2.460 -0.067 1.363 5838
2.457 -0.067 1.352 7934
2.460 -0.067 1.345 7826
2.464 -0.067 1.338 8261
2.460 -0.067 1.327 8926
2.464 -0.067 1.320 6260
2.481 -0.068 1.319 3683
2.485 -0.068 1.312 3190
2.625 -0.071 1.368 4738
2.592 -0.071 1.344 5552
2.589 -0.070 1.333 7481
2.592 -0.071 1.325 6645
2.588 -0.070 1.314 5813
2.592 -0.071 1.307 5813
2.682 -0.073 1.337 4892
2.685 -0.073 1.329 4482
2.667 -0.073 1.312 3482
2.750 -0.075 1.338 3739
2.754 -0.075 1.330 1869
2.619 -0.071 1.264 1419
0.631 -0.019 1.583 7743
0.648 -0.019 1.610 10085
0.653 -0.019 1.608 13058
0.660 -0.019 1.613 13805
0.668 -0.020 1.618 14885
0.672 -0.020 1.616 14677
0.673 -0.020 1.607 14054
0.677 -0.020 1.605 13587
0.685 -0.020 1.610 12395
0.689 -0.020 1.608 11396
0.701 -0.021 1.620 12381
0.708 -0.021 1.625 14403
0.713 -0.021 1.623 14613
0.717 -0.021 1.621 14823
0.721 -0.021 1.619 13624
0.722 -0.021 1.610 12318
0.726 -0.021 1.607 10435
0.730 -0.021 1.605 7870
0.735 -0.022 1.603 6149
0.750 -0.022 1.622 4552
0.751 -0.022 1.613 4156
0.759 -0.022 1.617 5209
0.759 -0.022 1.608 6769
0.763 -0.022 1.606 10646
0.768 -0.023 1.604 16440
0.772 -0.023 1.601 20176
0.776 -0.023 1.599 20808
0.784 -0.023 1.603 20859
0.792 -0.023 1.608 18500
0.796 -0.023 1.606 16255
0.801 -0.024 1.603 15645
0.801 -0.024 1.594 15382
0.805 -0.024 1.592 15620
0.809 -0.024 1.589 15858
0.818 -0.024 1.594 14628
0.818 -0.024 1.584 13574
0.826 -0.024 1.589 15404
0.830 -0.024 1.586 24284
0.834 -0.025 1.584 31349
0.843 -0.025 1.588 35758
0.847 -0.025 1.585 40106
0.855 -0.025 1.590 36321
0.855 -0.025 1.580 25899
0.855 -0.025 1.571 18290
0.868 -0.026 1.582 15835
0.880 -0.026 1.593 14693
0.885 -0.026 1.590 15852
0.893 -0.026 1.594 14136
0.901 -0.027 1.598 10782
0.906 -0.027 1.595 6767
0.914 -0.027 1.599 3342
0.923 -0.027 1.603 3544
0.923 -0.027 1.594 4615
0.927 -0.027 1.591 6508
0.931 -0.027 1.588 6703
0.935 -0.027 1.586 5805
0.935 -0.027 1.576 8114
0.944 -0.028 1.580 11199
0.948 -0.028 1.577 11900
0.956 -0.028 1.581 10293
0.965 -0.028 1.585 11987
0.960 -0.028 1.569 15778
0.964 -0.028 1.566 17169
0.964 -0.028 1.556 16760
0.968 -0.028 1.554 15840
0.972 -0.029 1.551 12484
0.976 -0.029 1.548 9232
0.980 -0.029 1.545 8440
0.989 -0.029 1.548 11714
1.002 -0.029 1.558 14762
1.011 -0.030 1.562 15828
1.020 -0.030 1.565 17699
1.029 -0.030 1.568 16794
1.038 -0.031 1.572 13835
1.037 -0.030 1.562 12064
1.041 -0.031 1.559 15213
1.045 -0.031 1.556 14402
1.059 -0.031 1.565 12374
1.068 -0.031 1.568 13846
1.082 -0.032 1.578 13815
1.086 -0.032 1.575 14224
1.090 -0.032 1.571 15816
1.099 -0.032 1.574 16076
1.108 -0.033 1.577 13032
1.103 -0.032 1.562 11846
1.107 -0.033 1.558 14090
1.111 -0.033 1.555 14218
1.125 -0.033 1.564 13473
1.129 -0.033 1.561 13157
1.133 -0.033 1.557 11829
1.142 -0.034 1.560 11109
1.141 -0.034 1.550 16848
1.150 -0.034 1.553 22434
1.155 -0.034 1.550 20529
1.154 -0.034 1.540 15705
1.158 -0.034 1.537 9905
1.162 -0.034 1.533 7115
1.166 -0.034 1.530 8156
1.180 -0.035 1.538 12549
1.189 -0.035 1.541 15301
1.193 -0.035 1.537 11173
1.213 -0.036 1.552 10547
1.217 -0.036 1.548 16297
1.227 -0.036 1.550 16711
1.236 -0.036 1.553 16544
1.240 -0.036 1.549 16829
1.244 -0.037 1.545 13110
1.232 -0.036 1.524 14144
1.225 -0.036 1.509 18364
1.229 -0.036 1.505 23230
1.244 -0.037 1.513 24628
1.254 -0.037 1.515 22613
1.263 -0.037 1.517 23328
1.267 -0.037 1.513 20973
1.260 -0.037 1.498 17253
1.264 -0.037 1.494 18877
1.268 -0.037 1.491 17959
1.272 -0.037 1.487 16746
1.276 -0.038 1.483 16202
1.285 -0.038 1.485 18996
1.295 -0.038 1.487 22429
1.287 -0.038 1.472 17146
1.286 -0.038 1.462 17176
1.295 -0.038 1.464 27754
1.316 -0.039 1.477 39794
1.325 -0.039 1.478 41827
1.329 -0.039 1.474 41971
1.333 -0.039 1.471 28167
1.382 -0.041 1.511 13145
1.380 -0.041 1.501 13036
1.402 -0.041 1.513 14271
1.411 -0.041 1.515 15777
1.415 -0.042 1.511 12701
1.419 -0.042 1.506 10148
1.429 -0.042 1.508 15379
1.439 -0.042 1.509 20448
1.454 -0.043 1.515 19201
1.458 -0.043 1.511 20937
1.462 -0.043 1.507 22906
1.472 -0.043 1.508 16341
1.488 -0.044 1.514 11893
1.486 -0.044 1.504 12345
1.484 -0.044 1.494 15184
1.494 -0.044 1.495 18806
1.504 -0.044 1.496 15862
1.513 -0.044 1.497 10157
1.523 -0.045 1.498 7810
1.533 -0.045 1.498 10046
1.543 -0.045 1.499 14697
1.547 -0.045 1.494 18854
1.551 -0.046 1.490 18840
1.555 -0.046 1.485 17626
1.565 -0.046 1.486 18601
1.569 -0.046 1.481 17438
1.579 -0.046 1.481 12242
1.595 -0.047 1.487 14986
1.605 -0.047 1.487 20583
1.615 -0.047 1.487 25924
1.625 -0.048 1.488 36149
1.629 -0.048 1.483 31082
1.639 -0.048 1.483 19373
1.661 -0.049 1.493 17517
1.671 -0.049 1.493 17396
1.675 -0.049 1.488 13465
1.679 -0.049 1.483 12230
1.696 -0.050 1.488 11175
1.724 -0.051 1.502 11955
1.722 -0.051 1.492 10991
1.726 -0.051 1.487 9460
1.749 -0.051 1.496 9356
1.759 -0.052 1.496 10087
1.757 -0.052 1.486 16043
1.761 -0.052 1.481 22823
1.758 -0.052 1.471 20012
1.762 -0.052 1.466 14347
1.791 -0.053 1.479 14153
1.789 -0.053 1.469 16226
1.793 -0.053 1.464 20164
1.803 -0.053 1.463 21061
1.813 -0.053 1.463 17995
1.823 -0.054 1.462 19793
1.821 -0.054 1.452 24211
1.825 -0.054 1.446 21129
1.828 -0.054 1.441 14963
1.839 -0.054 1.440 12279
1.849 -0.054 1.439 11245
1.866 -0.055 1.443 8938
1.889 -0.056 1.451 8389
1.893 -0.056 1.445 8136
1.923 -0.057 1.457 8089
1.927 -0.057 1.451 11828
1.924 -0.057 1.441 15751
1.928 -0.057 1.436 13595
1.938 -0.057 1.434 12845
1.948 -0.057 1.433 15070
1.959 -0.058 1.431 13964
1.963 -0.058 1.426 11497
1.960 -0.058 1.416 9867
1.970 -0.058 1.414 9007
1.980 -0.058 1.412 7126
2.004 -0.059 1.419 6500
2.021 -0.059 1.422 7548
2.025 -0.060 1.416 9544
2.022 -0.059 1.406 9790
2.026 -0.060 1.400 8183
2.036 -0.060 1.398 6063
2.074 -0.061 1.412 4706
2.084 -0.061 1.410 5308
2.094 -0.062 1.408 7068
2.105 -0.062 1.406 9667
2.122 -0.062 1.408 11188
2.140 -0.063 1.409 9568
2.150 -0.063 1.407 8691
2.161 -0.064 1.405 8847
2.171 -0.064 1.402 10373
2.175 -0.064 1.396 11650
2.192 -0.064 1.397 13227
2.203 -0.065 1.394 15670
2.206 -0.065 1.388 13085
2.217 -0.065 1.385 11128
2.234 -0.066 1.386 12557
2.238 -0.066 1.380 9994
2.249 -0.066 1.377 7481
2.245 -0.066 1.367 4823
2.235 -0.066 1.352 2362
2.259 -0.066 1.357 2772
2.270 -0.067 1.354 3519
2.336 -0.069 1.380 4696
2.326 -0.068 1.366 5449
2.407 -0.071 1.399 5468
2.410 -0.071 1.392 7467
2.414 -0.071 1.385 9466
2.418 -0.071 1.378 8899
2.414 -0.071 1.367 8507
2.425 -0.071 1.364 6541
2.443 -0.072 1.363 5127
2.453 -0.072 1.360 6930
2.464 -0.072 1.356 8793
2.460 -0.072 1.345 8505
2.464 -0.072 1.338 8632
2.460 -0.072 1.327 9114
2.463 -0.072 1.320 6344
2.474 -0.073 1.316 3631
2.485 -0.073 1.312 3352
2.617 -0.077 1.364 4626
2.592 -0.076 1.344 5727
2.588 -0.076 1.333 7702
2.592 -0.076 1.325 6875
2.595 -0.076 1.317 6047
2.599 -0.076 1.310 6047
2.682 -0.079 1.337 5588
2.685 -0.079 1.329 5218
2.689 -0.079 1.321 3846
2.743 -0.081 1.335 3741
2.746 -0.081 1.327 1870
2.575 -0.076 1.245 1604
0.638 -0.020 1.598 8151
0.648 -0.021 1.610 10670
0.653 -0.021 1.608 13692
0.660 -0.021 1.613 14293
0.668 -0.021 1.618 15251
0.669 -0.021 1.609 15204
0.673 -0.022 1.607 14884
0.677 -0.022 1.605 14525
0.685 -0.022 1.610 13402
0.689 -0.022 1.608 12480
0.700 -0.022 1.620 13292
0.708 -0.023 1.625 15259
0.713 -0.023 1.623 15364
0.717 -0.023 1.621 15470
0.721 -0.023 1.619 14330
0.722 -0.023 1.610 13084
0.726 -0.023 1.607 11182
0.730 -0.023 1.605 8657
0.735 -0.023 1.603 6932
0.750 -0.024 1.622 5240
0.754 -0.024 1.620 4816
0.758 -0.024 1.617 5350
0.759 -0.024 1.608 6266
0.763 -0.024 1.606 9731
0.768 -0.025 1.604 15289
0.772 -0.025 1.601 19212
0.776 -0.025 1.599 20316
0.784 -0.025 1.603 20781
0.792 -0.025 1.608 18553
0.796 -0.025 1.606 16465
0.801 -0.026 1.603 15413
0.801 -0.026 1.594 14714
0.805 -0.026 1.592 14763
0.809 -0.026 1.589 14812
0.818 -0.026 1.594 13660
0.822 -0.026 1.591 12860
0.826 -0.026 1.589 14802
0.830 -0.027 1.586 23660
0.834 -0.027 1.584 30859
0.843 -0.027 1.588 35627
0.847 -0.027 1.585 40378
0.851 -0.027 1.583 36490
0.855 -0.027 1.580 25663
0.855 -0.027 1.571 17984
0.868 -0.028 1.582 15672
0.880 -0.028 1.593 14964
0.889 -0.028 1.597 15997
0.893 -0.029 1.594 14435
0.901 -0.029 1.598 11202
0.910 -0.029 1.602 7042
0.914 -0.029 1.599 3114
0.923 -0.029 1.603 2990
0.923 -0.029 1.594 3966
0.927 -0.030 1.591 5744
0.935 -0.030 1.595 6559
0.940 -0.030 1.592 6469
0.939 -0.030 1.583 8671
0.944 -0.030 1.580 11249
0.948 -0.030 1.577 11640
0.956 -0.031 1.581 10248
0.965 -0.031 1.585 12312
0.960 -0.031 1.569 16885
0.964 -0.031 1.566 18783
0.968 -0.031 1.563 18709
0.968 -0.031 1.554 17213
0.972 -0.031 1.551 13009
0.976 -0.031 1.548 8932
0.980 -0.031 1.545 7416
0.989 -0.032 1.548 9830
1.007 -0.032 1.565 13110
1.016 -0.032 1.568 15150
1.025 -0.033 1.571 16823
1.029 -0.033 1.568 16175
1.038 -0.033 1.572 13612
1.042 -0.033 1.568 11531
1.041 -0.033 1.559 14214
1.050 -0.034 1.562 13875
1.059 -0.034 1.565 11642
1.068 -0.034 1.568 12450
1.082 -0.035 1.578 12824
1.086 -0.035 1.575 13532
1.090 -0.035 1.571 14859
1.099 -0.035 1.574 14885
1.108 -0.035 1.577 11993
1.103 -0.035 1.562 10789
1.107 -0.035 1.558 12089
1.111 -0.036 1.555 12321
1.125 -0.036 1.564 13250
1.129 -0.036 1.561 13706
1.138 -0.036 1.563 12607
1.142 -0.037 1.560 11578
1.141 -0.036 1.550 17060
1.145 -0.037 1.547 22203
1.149 -0.037 1.544 19738
1.153 -0.037 1.540 15498
1.152 -0.037 1.531 11688
1.156 -0.037 1.527 9194
1.166 -0.037 1.530 8585
1.180 -0.038 1.538 12210
1.189 -0.038 1.541 15604
1.193 -0.038 1.537 12052
1.213 -0.039 1.552 10682
1.217 -0.039 1.548 15766
1.226 -0.039 1.550 15783
1.236 -0.040 1.553 16348
1.240 -0.040 1.549 16741
1.239 -0.040 1.539 12797
1.221 -0.039 1.512 13774
1.225 -0.039 1.509 16033
1.229 -0.039 1.505 20473
1.244 -0.040 1.513 24562
1.253 -0.040 1.515 23857
1.263 -0.040 1.517 23411
1.267 -0.040 1.513 22032
1.265 -0.040 1.504 18657
1.269 -0.041 1.500 18979
1.273 -0.041 1.496 17165
1.277 -0.041 1.492 14232
1.276 -0.041 1.483 15506
1.285 -0.041 1.485 20058
1.300 -0.042 1.492 22226
1.304 -0.042 1.488 15188
1.285 -0.041 1.462 11674
1.300 -0.042 1.469 30419
1.316 -0.042 1.477 50541
1.325 -0.042 1.478 43470
1.329 -0.042 1.474 40888
1.333 -0.043 1.471 30878
1.388 -0.044 1.516 15006
1.380 -0.044 1.501 12798
1.407 -0.045 1.519 13507
1.411 -0.045 1.515 16816
1.415 -0.045 1.511 15036
1.419 -0.045 1.506 11929
1.435 -0.046 1.513 16235
1.444 -0.046 1.514 19667
1.454 -0.046 1.515 17592
1.464 -0.047 1.516 20807
1.462 -0.047 1.507 24585
1.472 -0.047 1.508 17416
1.488 -0.048 1.514 10832
1.486 -0.047 1.504 11157
1.484 -0.047 1.494 12900
1.494 -0.048 1.495 16136
1.503 -0.048 1.496 13968
1.513 -0.048 1.497 8129
1.529 -0.049 1.503 7408
1.533 -0.049 1.498 11185
1.543 -0.049 1.499 16624
1.547 -0.049 1.494 21032
1.551 -0.050 1.490 20446
1.555 -0.050 1.485 18882
1.565 -0.050 1.486 17850
1.569 -0.050 1.481 14259
1.579 -0.050 1.481 10217
1.601 -0.051 1.492 15529
1.605 -0.051 1.487 22063
1.615 -0.052 1.487 25288
1.631 -0.052 1.493 34759
1.635 -0.052 1.488 31220
1.639 -0.052 1.483 19870
1.655 -0.053 1.488 17405
1.671 -0.053 1.493 16872
1.675 -0.054 1.488 12967
1.685 -0.054 1.488 13601
1.695 -0.054 1.488 13778
1.718 -0.055 1.497 10915
1.722 -0.055 1.492 8635
1.726 -0.055 1.487 7284
1.742 -0.056 1.492 6972
1.765 -0.056 1.501 9849
1.763 -0.056 1.491 16325
1.760 -0.056 1.481 21901
1.758 -0.056 1.471 19569
1.768 -0.057 1.470 15007
1.791 -0.057 1.479 14939
1.789 -0.057 1.469 16385
1.799 -0.058 1.469 20140
1.803 -0.058 1.463 21997
1.819 -0.058 1.467 19083
1.823 -0.058 1.462 20108
1.827 -0.058 1.456 24541
1.831 -0.059 1.451 21918
1.828 -0.058 1.441 15314
1.838 -0.059 1.440 12113
1.855 -0.059 1.444 11202
1.872 -0.060 1.447 9343
1.895 -0.061 1.455 9434
1.899 -0.061 1.449 8160
1.923 -0.061 1.457 8490
1.927 -0.062 1.451 11974
1.924 -0.062 1.441 15637
1.928 -0.062 1.436 13851
1.931 -0.062 1.430 13842
1.942 -0.062 1.429 15759
1.959 -0.063 1.431 14107
1.962 -0.063 1.426 11037
1.959 -0.063 1.416 9512
1.963 -0.063 1.410 8283
1.973 -0.063 1.408 6301
2.011 -0.064 1.423 5531
2.021 -0.065 1.422 7098
2.025 -0.065 1.416 9325
2.029 -0.065 1.410 10161
2.032 -0.065 1.404 8769
2.043 -0.065 1.402 6510
2.080 -0.067 1.416 4319
2.091 -0.067 1.414 4518
2.094 -0.067 1.408 6740
2.105 -0.067 1.406 9980
2.115 -0.068 1.404 11224
2.139 -0.068 1.409 9406
2.150 -0.069 1.407 8517
2.160 -0.069 1.405 8520
2.171 -0.069 1.402 9823
2.175 -0.070 1.396 10977
2.199 -0.070 1.401 13104
2.203 -0.070 1.394 15944
2.213 -0.071 1.392 13189
2.224 -0.071 1.389 11147
2.234 -0.071 1.386 12402
2.245 -0.072 1.384 10129
2.248 -0.072 1.377 7881
2.245 -0.072 1.367 5088
2.235 -0.071 1.352 2494
2.252 -0.072 1.353 2925
2.270 -0.073 1.354 3769
2.280 -0.073 1.351 4437
2.291 -0.073 1.348 4982
2.407 -0.077 1.399 5723
2.410 -0.077 1.392 7710
2.414 -0.077 1.385 9696
2.417 -0.077 1.378 9080
2.414 -0.077 1.367 8529
2.432 -0.078 1.367 7439
2.442 -0.078 1.363 6841
2.453 -0.078 1.360 8274
2.464 -0.079 1.356 9836
2.460 -0.079 1.345 9356
2.463 -0.079 1.338 9114
2.460 -0.079 1.327 9305
2.470 -0.079 1.323 6437
2.474 -0.079 1.316 3588
2.484 -0.079 1.312 3376
2.617 -0.084 1.364 4437
2.592 -0.083 1.344 5718
2.588 -0.083 1.333 7620
2.592 -0.083 1.325 6793
2.674 -0.086 1.353 6422
2.678 -0.086 1.345 6422
2.681 -0.086 1.337 6137
2.685 -0.086 1.329 5852
2.696 -0.086 1.324 4292
2.743 -0.088 1.335 3890
2.746 -0.088 1.327 1945
2.575 -0.082 1.245 1405
0.638 -0.022 1.598 8963
0.648 -0.023 1.610 11458
0.653 -0.023 1.608 14498
0.660 -0.023 1.613 14901
0.668 -0.023 1.618 15711
0.669 -0.023 1.609 15768
0.673 -0.023 1.607 15653
0.677 -0.024 1.605 15388
0.685 -0.024 1.610 14310
0.689 -0.024 1.608 13419
0.700 -0.024 1.620 14055
0.708 -0.025 1.625 15927
0.713 -0.025 1.623 15952
0.717 -0.025 1.621 15978
0.721 -0.025 1.619 14889
0.722 -0.025 1.610 13700
0.726 -0.025 1.607 11742
0.730 -0.025 1.605 9211
0.735 -0.026 1.603 7475
0.750 -0.026 1.622 5668
0.754 -0.026 1.620 5199
0.758 -0.026 1.617 5442
0.763 -0.026 1.615 6038
0.763 -0.027 1.606 9104
0.767 -0.027 1.604 14356
0.772 -0.027 1.601 18309
0.776 -0.027 1.599 19677
0.784 -0.027 1.603 20427
0.792 -0.028 1.608 18450
0.796 -0.028 1.606 16579
0.801 -0.028 1.603 15095
0.801 -0.028 1.594 13944
0.805 -0.028 1.592 13851
0.809 -0.028 1.589 13759
0.818 -0.028 1.594 12796
0.822 -0.029 1.591 12295
0.826 -0.029 1.589 14295
0.830 -0.029 1.586 23167
0.834 -0.029 1.584 30458
0.843 -0.029 1.588 35461
0.847 -0.029 1.585 40457
0.851 -0.030 1.583 36438
0.855 -0.030 1.580 25308
0.855 -0.030 1.571 17646
0.868 -0.030 1.582 15448
0.880 -0.031 1.593 14905
0.889 -0.031 1.597 15863
0.893 -0.031 1.594 14345
0.901 -0.031 1.598 11278
0.910 -0.032 1.602 7164
0.914 -0.032 1.599 2875
0.923 -0.032 1.603 2392
0.922 -0.032 1.594 3277
0.931 -0.032 1.598 4927
0.935 -0.032 1.595 6329
0.935 -0.032 1.586 7079
0.939 -0.033 1.583 9202
0.943 -0.033 1.580 11214
0.948 -0.033 1.577 11282
0.956 -0.033 1.581 10210
0.965 -0.034 1.585 12726
0.960 -0.033 1.569 18111
0.964 -0.033 1.566 20583
0.968 -0.034 1.563 20694
0.968 -0.034 1.554 18234
0.972 -0.034 1.551 13020
0.976 -0.034 1.548 8950
0.980 -0.034 1.545 7705
0.994 -0.035 1.555 9282
1.016 -0.035 1.577 12872
1.020 -0.035 1.574 15410
1.025 -0.036 1.571 16513
1.033 -0.036 1.575 15880
1.038 -0.036 1.572 13472
1.042 -0.036 1.568 11131
1.046 -0.036 1.565 13650
1.050 -0.036 1.562 14024
1.054 -0.037 1.559 11257
1.068 -0.037 1.568 10898
1.082 -0.038 1.578 11823
1.086 -0.038 1.575 12943
1.090 -0.038 1.571 14056
1.099 -0.038 1.574 13841
1.108 -0.038 1.577 10987
1.102 -0.038 1.562 9580
1.107 -0.038 1.558 9936
1.116 -0.039 1.561 10870
1.125 -0.039 1.564 13269
1.134 -0.039 1.567 14026
1.138 -0.040 1.563 13035
1.142 -0.040 1.560 11646
1.146 -0.040 1.557 16570
1.145 -0.040 1.547 21160
1.149 -0.040 1.544 18726
1.148 -0.040 1.534 16267
1.152 -0.040 1.531 14046
1.161 -0.040 1.533 11365
1.171 -0.041 1.536 9066
1.180 -0.041 1.538 12033
1.189 -0.041 1.541 16068
1.193 -0.041 1.537 13032
1.208 -0.042 1.546 10904
1.217 -0.042 1.548 15021
1.232 -0.043 1.556 14969
1.241 -0.043 1.558 16087
1.234 -0.043 1.543 16032
1.228 -0.043 1.528 12623
1.216 -0.042 1.506 13885
1.225 -0.043 1.509 14141
1.235 -0.043 1.511 17767
1.244 -0.043 1.513 24074
1.253 -0.044 1.515 24678
1.263 -0.044 1.517 22660
1.267 -0.044 1.513 22353
1.265 -0.044 1.504 19595
1.269 -0.044 1.500 18640
1.273 -0.044 1.496 16644
1.277 -0.044 1.492 13722
1.281 -0.044 1.489 16651
1.285 -0.045 1.485 21640
1.300 -0.045 1.492 23631
1.315 -0.046 1.500 16750
1.308 -0.045 1.485 9429
1.300 -0.045 1.469 32218
1.310 -0.045 1.471 55488
1.319 -0.046 1.473 42505
1.329 -0.046 1.474 40195
1.333 -0.046 1.471 32571
1.388 -0.048 1.516 15856
1.380 -0.048 1.501 11790
1.338 -0.046 1.453 14124
1.411 -0.049 1.515 18361
1.415 -0.049 1.511 18131
1.425 -0.049 1.512 14312
1.434 -0.050 1.513 16671
1.444 -0.050 1.514 17737
1.454 -0.050 1.515 15384
1.464 -0.051 1.516 20124
1.462 -0.051 1.507 25136
1.466 -0.051 1.502 18636
1.482 -0.051 1.508 11220
1.486 -0.052 1.504 11902
1.484 -0.052 1.494 11969
1.493 -0.052 1.495 13979
1.503 -0.052 1.496 12907
1.519 -0.053 1.502 7074
1.535 -0.053 1.508 7730
1.533 -0.053 1.498 12636
1.543 -0.054 1.499 18591
1.547 -0.054 1.494 23073
1.551 -0.054 1.490 21999
1.555 -0.054 1.485 20304
1.565 -0.054 1.486 17786
1.568 -0.054 1.481 11521
1.585 -0.055 1.486 8264
1.601 -0.056 1.492 16263
1.604 -0.056 1.487 23498
1.621 -0.056 1.492 25234
1.631 -0.057 1.493 33537
1.635 -0.057 1.488 30968
1.639 -0.057 1.483 20240
1.655 -0.057 1.488 17067
1.671 -0.058 1.493 15410
1.687 -0.059 1.498 12251
1.685 -0.059 1.488 14879
1.695 -0.059 1.488 16433
1.712 -0.059 1.492 12018
1.722 -0.060 1.492 8556
1.719 -0.060 1.482 7279
1.730 -0.060 1.482 7391
1.759 -0.061 1.496 10420
1.769 -0.061 1.496 16810
1.760 -0.061 1.481 19891
1.758 -0.061 1.471 17934
1.768 -0.061 1.470 14998
1.778 -0.062 1.470 15201
1.795 -0.062 1.474 15496
1.799 -0.062 1.469 18627
1.809 -0.063 1.468 21893
1.819 -0.063 1.467 19845
1.823 -0.063 1.462 20197
1.827 -0.063 1.456 24158
1.831 -0.064 1.451 22081
1.835 -0.064 1.446 15419
1.838 -0.064 1.440 11965
1.855 -0.064 1.444 11663
1.878 -0.065 1.452 12081
1.895 -0.066 1.455 11212
1.899 -0.066 1.449 8531
1.923 -0.067 1.457 8683
1.926 -0.067 1.451 12014
1.924 -0.067 1.441 15312
1.921 -0.067 1.431 14200
1.924 -0.067 1.426 15178
1.941 -0.067 1.429 16723
1.958 -0.068 1.431 14134
1.969 -0.068 1.430 10602
1.953 -0.068 1.411 9517
1.950 -0.068 1.401 7862
1.960 -0.068 1.400 5844
1.970 -0.068 1.398 5210
2.028 -0.070 1.426 7051
2.031 -0.071 1.420 9312
2.035 -0.071 1.414 10649
2.039 -0.071 1.408 9725
2.049 -0.071 1.406 7570
2.087 -0.072 1.420 5473
2.097 -0.073 1.418 4766
2.101 -0.073 1.412 7014
2.111 -0.073 1.410 10232
2.115 -0.073 1.404 11419
2.139 -0.074 1.409 9447
2.150 -0.075 1.407 8599
2.167 -0.075 1.409 8370
2.178 -0.076 1.406 9283
2.188 -0.076 1.404 10346
2.206 -0.077 1.405 13137
2.209 -0.077 1.398 16361
2.213 -0.077 1.392 13510
2.230 -0.077 1.393 11089
2.241 -0.078 1.390 11984
2.245 -0.078 1.384 9978
2.248 -0.078 1.377 7972
2.245 -0.078 1.367 5148
2.241 -0.078 1.356 2426
2.259 -0.078 1.357 3084
2.269 -0.079 1.354 4127
2.280 -0.079 1.351 4655
2.283 -0.079 1.344 4982
2.406 -0.084 1.399 5897
2.410 -0.084 1.392 7834
2.414 -0.084 1.385 9771
2.417 -0.084 1.378 9123
2.421 -0.084 1.371 8476
2.439 -0.085 1.371 8255
2.442 -0.085 1.363 8478
2.453 -0.085 1.360 9633
2.463 -0.086 1.356 10896
2.460 -0.085 1.345 10221
2.463 -0.086 1.338 9514
2.467 -0.086 1.331 9418
2.470 -0.086 1.323 6441
2.474 -0.086 1.316 3465
2.477 -0.086 1.309 3257
2.610 -0.091 1.361 4088
2.592 -0.090 1.344 5564
2.588 -0.090 1.333 7491
2.591 -0.090 1.325 6807
2.674 -0.093 1.353 6663
2.678 -0.093 1.345 6663
2.681 -0.093 1.337 6508
2.692 -0.093 1.332 6412
2.703 -0.094 1.328 4812
2.735 -0.095 1.332 4094
2.739 -0.095 1.324 2047
2.574 -0.089 1.245 1287
0.637 -0.024 1.598 9642
0.648 -0.024 1.610 12102
0.653 -0.024 1.608 15141
0.660 -0.024 1.613 15463
0.668 -0.025 1.618 16180
0.669 -0.025 1.609 16343
0.673 -0.025 1.607 16412
0.677 -0.025 1.605 16247
0.685 -0.025 1.610 15167
0.689 -0.026 1.608 14269
0.700 -0.026 1.620 14670
0.708 -0.026 1.625 16346
0.712 -0.026 1.623 16283
0.717 -0.027 1.621 16220
0.721 -0.027 1.619 15164
0.722 -0.027 1.610 14021
0.726 -0.027 1.607 11968
0.730 -0.027 1.605 9375
0.735 -0.027 1.603 7593
0.750 -0.028 1.622 5715
0.754 -0.028 1.620 5172
0.758 -0.028 1.617 5380
0.763 -0.028 1.615 5891
0.767 -0.028 1.613 8386
0.767 -0.028 1.604 13144
0.772 -0.029 1.601 17058
0.776 -0.029 1.599 18804
0.784 -0.029 1.603 19933
0.788 -0.029 1.601 18279
0.796 -0.029 1.606 16651
0.801 -0.030 1.603 14744
0.801 -0.030 1.594 13170
0.805 -0.030 1.592 13079
0.809 -0.030 1.589 12987
0.817 -0.030 1.594 12182
0.822 -0.030 1.591 11819
0.826 -0.031 1.589 13765
0.830 -0.031 1.586 22589
0.834 -0.031 1.584 29855
0.843 -0.031 1.588 35013
0.847 -0.031 1.585 40143
0.851 -0.031 1.583 36075
0.855 -0.032 1.580 24885
0.855 -0.032 1.571 17395
0.863 -0.032 1.575 15196
0.880 -0.033 1.593 14396
0.889 -0.033 1.597 15143
0.893 -0.033 1.594 13768
0.905 -0.034 1.605 11027
0.914 -0.034 1.609 7088
0.914 -0.034 1.599 2622
0.923 -0.034 1.603 1749
0.927 -0.034 1.601 2488
0.931 -0.034 1.598 3932
0.935 -0.035 1.595 5753
0.935 -0.035 1.586 7264
0.939 -0.035 1.583 9284
0.943 -0.035 1.580 10972
0.948 -0.035 1.577 10915
0.956 -0.035 1.581 10164
0.965 -0.036 1.585 13060
0.965 -0.036 1.575 19212
0.964 -0.036 1.566 22210
0.968 -0.036 1.563 22463
0.972 -0.036 1.560 19087
0.972 -0.036 1.551 12709
0.971 -0.036 1.541 9248
0.980 -0.036 1.545 8830
0.993 -0.037 1.555 9676
1.016 -0.038 1.577 13073
1.025 -0.038 1.581 15651
1.029 -0.038 1.578 15788
1.033 -0.038 1.575 15363
1.037 -0.038 1.572 13252
1.042 -0.039 1.568 10898
1.046 -0.039 1.565 13329
1.050 -0.039 1.562 14296
1.054 -0.039 1.559 11348
1.068 -0.040 1.568 9927
1.082 -0.040 1.578 11233
1.086 -0.040 1.575 12763
1.090 -0.040 1.571 13678
1.099 -0.041 1.574 13085
1.103 -0.041 1.571 10124
1.102 -0.041 1.562 8527
1.111 -0.041 1.564 8520
1.120 -0.041 1.567 10528
1.125 -0.042 1.564 13806
1.134 -0.042 1.567 14537
1.138 -0.042 1.563 13261
1.142 -0.042 1.560 11501
1.146 -0.042 1.557 15484
1.145 -0.042 1.547 19175
1.149 -0.043 1.544 17482
1.148 -0.042 1.534 17397
1.157 -0.043 1.537 16463
1.161 -0.043 1.533 12946
1.171 -0.043 1.536 9547
1.180 -0.044 1.538 12141
1.189 -0.044 1.541 16709
1.193 -0.044 1.537 14352
1.202 -0.044 1.540 11420
1.212 -0.045 1.542 14398
1.231 -0.046 1.556 14039
1.241 -0.046 1.558 15622
1.229 -0.045 1.537 15580
1.217 -0.045 1.516 13411
1.211 -0.045 1.501 14006
1.225 -0.045 1.509 12817
1.234 -0.046 1.511 15308
1.244 -0.046 1.513 22953
1.253 -0.046 1.515 24959
1.263 -0.047 1.517 21137
1.267 -0.047 1.513 21836
1.265 -0.047 1.504 20288
1.269 -0.047 1.500 18492
1.273 -0.047 1.496 16688
1.277 -0.047 1.492 14646
1.281 -0.047 1.489 18728
1.285 -0.048 1.485 22687
1.300 -0.048 1.492 25106
1.304 -0.048 1.488 21435
1.296 -0.048 1.473 17817
1.300 -0.048 1.469 37990
1.310 -0.048 1.471 58562
1.319 -0.049 1.473 44548
1.323 -0.049 1.469 41568
1.327 -0.049 1.465 33812
1.388 -0.051 1.516 15593
1.346 -0.050 1.468 10658
1.338 -0.050 1.453 17764
1.336 -0.049 1.444 20263
1.415 -0.052 1.511 21947
1.425 -0.053 1.512 17535
1.434 -0.053 1.513 16555
1.444 -0.053 1.514 14796
1.454 -0.054 1.515 13074
1.458 -0.054 1.511 18266
1.462 -0.054 1.507 23383
1.466 -0.054 1.502 18161
1.476 -0.055 1.503 11907
1.480 -0.055 1.499 13582
1.483 -0.055 1.494 12174
1.493 -0.055 1.495 12806
1.503 -0.056 1.496 12508
1.519 -0.056 1.502 6705
1.535 -0.057 1.508 8627
1.539 -0.057 1.503 14573
1.543 -0.057 1.499 20390
1.547 -0.057 1.494 24595
1.551 -0.057 1.490 23353
1.561 -0.058 1.490 21899
1.564 -0.058 1.486 18514
1.568 -0.058 1.481 9536
1.603 -0.059 1.502 7209
1.600 -0.059 1.492 16771
1.604 -0.059 1.487 24708
1.621 -0.060 1.492 25583
1.637 -0.061 1.498 32227
1.634 -0.060 1.488 30076
1.632 -0.060 1.478 20088
1.648 -0.061 1.483 16307
1.665 -0.062 1.488 13389
1.687 -0.062 1.498 11656
1.691 -0.063 1.493 15912
1.695 -0.063 1.488 18693
1.712 -0.063 1.492 14993
1.722 -0.064 1.492 11388
1.719 -0.064 1.482 9504
1.723 -0.064 1.477 9485
1.752 -0.065 1.491 11996
1.769 -0.065 1.496 17225
1.766 -0.065 1.486 17780
1.758 -0.065 1.471 15973
1.768 -0.065 1.470 14998
1.778 -0.066 1.470 15689
1.795 -0.066 1.474 14845
1.805 -0.067 1.473 17278
1.809 -0.067 1.468 21353
1.819 -0.067 1.467 20003
1.823 -0.067 1.462 19736
1.827 -0.068 1.456 23332
1.831 -0.068 1.451 21975
1.834 -0.068 1.446 15422
1.832 -0.068 1.436 11663
1.861 -0.069 1.448 12261
1.878 -0.070 1.452 15073
1.889 -0.070 1.451 13236
1.892 -0.070 1.445 8916
1.922 -0.071 1.457 8478
1.920 -0.071 1.447 11757
1.923 -0.071 1.441 14534
1.921 -0.071 1.431 14366
1.924 -0.071 1.426 16200
1.935 -0.072 1.424 17151
1.952 -0.072 1.427 13768
1.975 -0.073 1.434 10301
1.939 -0.072 1.403 9574
1.943 -0.072 1.397 7802
1.946 -0.072 1.391 6154
1.957 -0.072 1.390 5991
2.034 -0.075 1.430 7375
2.031 -0.075 1.420 9469
2.035 -0.075 1.414 11159
2.045 -0.076 1.412 10789
2.056 -0.076 1.410 9292
2.093 -0.077 1.424 7542
2.117 -0.078 1.430 6565
2.108 -0.078 1.416 7963
2.111 -0.078 1.410 10565
2.115 -0.078 1.404 11639
2.139 -0.079 1.409 9725
2.150 -0.080 1.407 9031
2.174 -0.080 1.412 8600
2.184 -0.081 1.410 9301
2.195 -0.081 1.407 10400
2.205 -0.082 1.405 13539
2.216 -0.082 1.402 16900
2.220 -0.082 1.396 13997
2.230 -0.083 1.393 11056
2.241 -0.083 1.390 11414
2.244 -0.083 1.384 9772
2.248 -0.083 1.377 8130
2.245 -0.083 1.367 5257
2.248 -0.083 1.360 2417
2.259 -0.084 1.357 3295
2.276 -0.084 1.358 4498
2.280 -0.084 1.351 4851
2.276 -0.084 1.341 4983
2.406 -0.089 1.399 5887
2.410 -0.089 1.392 7699
2.413 -0.089 1.385 9511
2.417 -0.089 1.378 8861
2.421 -0.090 1.371 8212
2.438 -0.090 1.371 8878
2.442 -0.090 1.363 9858
2.453 -0.091 1.360 10819
2.463 -0.091 1.356 11823
2.460 -0.091 1.345 11067
2.463 -0.091 1.338 9923
2.467 -0.091 1.331 9519
2.470 -0.091 1.323 6385
2.516 -0.093 1.336 3408
2.592 -0.096 1.362 3109
2.602 -0.096 1.358 3680
2.591 -0.096 1.344 5244
2.588 -0.096 1.333 7143
2.591 -0.096 1.325 6599
2.674 -0.099 1.353 6511
2.678 -0.099 1.345 6511
2.688 -0.099 1.340 6534
2.692 -0.100 1.332 6742
2.710 -0.100 1.331 5257
2.728 -0.101 1.329 4421
2.731 -0.101 1.321 2210
2.574 -0.095 1.245 1351
0.637 -0.025 1.598 11028
0.648 -0.026 1.610 13457
0.652 -0.026 1.608 16482
0.660 -0.026 1.613 16375
0.668 -0.027 1.618 16756
0.669 -0.027 1.609 16949
0.673 -0.027 1.607 17201
0.677 -0.027 1.605 17139
0.685 -0.027 1.610 16197
0.689 -0.028 1.608 15369
0.700 -0.028 1.620 15612
0.708 -0.028 1.625 17095
0.712 -0.028 1.623 16850
0.717 -0.029 1.621 16606
0.721 -0.029 1.619 15548
0.722 -0.029 1.610 14414
0.726 -0.029 1.607 12274
0.730 -0.029 1.605 9652
0.734 -0.029 1.603 7851
0.746 -0.030 1.615 5830
0.750 -0.030 1.613 5154
0.758 -0.030 1.617 5331
0.763 -0.030 1.615 5783
0.763 -0.030 1.606 7755
0.767 -0.031 1.604 12136
0.772 -0.031 1.601 16054
0.776 -0.031 1.599 18047
0.784 -0.031 1.603 19451
0.788 -0.031 1.601 18055
0.796 -0.032 1.606 16619
0.800 -0.032 1.603 14312
0.801 -0.032 1.594 12349
0.805 -0.032 1.592 12255
0.809 -0.032 1.589 12162
0.817 -0.033 1.594 11542
0.822 -0.033 1.591 11312
0.826 -0.033 1.589 13215
0.830 -0.033 1.586 22098
0.834 -0.033 1.584 29395
0.842 -0.034 1.588 34783
0.847 -0.034 1.585 40111
0.851 -0.034 1.583 36030
0.855 -0.034 1.580 24869
0.855 -0.034 1.571 17648
0.863 -0.034 1.575 15223
0.880 -0.035 1.593 13661
0.888 -0.036 1.597 14091
0.897 -0.036 1.601 13099
0.905 -0.036 1.605 10704
0.914 -0.037 1.609 7075
0.914 -0.037 1.599 2559
0.905 -0.036 1.577 1453
0.922 -0.037 1.594 1886
0.935 -0.037 1.604 2895
0.931 -0.037 1.588 4988
0.931 -0.037 1.579 7295
0.939 -0.038 1.583 9148
0.943 -0.038 1.580 10513
0.947 -0.038 1.577 10336
0.961 -0.038 1.587 10249
0.965 -0.039 1.585 13839
0.964 -0.039 1.575 21176
0.969 -0.039 1.572 24977
0.968 -0.039 1.563 25086
0.972 -0.039 1.560 20715
0.976 -0.039 1.557 13149
0.981 -0.039 1.554 10450
0.989 -0.040 1.558 10940
0.998 -0.040 1.561 10726
1.016 -0.041 1.577 13295
1.025 -0.041 1.581 15987
1.029 -0.041 1.578 15609
1.033 -0.041 1.575 14944
1.037 -0.041 1.572 12881
1.046 -0.042 1.575 10577
1.046 -0.042 1.565 13228
1.050 -0.042 1.562 15444
1.054 -0.042 1.559 12578
1.063 -0.042 1.562 9954
1.077 -0.043 1.572 11529
1.081 -0.043 1.568 13222
1.090 -0.044 1.571 13735
1.094 -0.044 1.568 12955
1.103 -0.044 1.571 9856
1.107 -0.044 1.568 8429
1.116 -0.045 1.571 9164
1.120 -0.045 1.567 12129
1.129 -0.045 1.570 15528
1.134 -0.045 1.567 15164
1.138 -0.045 1.563 12886
1.142 -0.046 1.560 10649
1.146 -0.046 1.557 13468
1.145 -0.046 1.547 16101
1.144 -0.046 1.538 15914
1.148 -0.046 1.534 18215
1.157 -0.046 1.537 18160
1.161 -0.046 1.533 13804
1.170 -0.047 1.536 9893
1.180 -0.047 1.538 12496
1.189 -0.048 1.541 17456
1.193 -0.048 1.537 15403
1.197 -0.048 1.534 11647
1.212 -0.048 1.542 13227
1.226 -0.049 1.550 13349
1.241 -0.050 1.558 15284
1.224 -0.049 1.531 14836
1.212 -0.048 1.510 14187
1.210 -0.048 1.501 14747
1.225 -0.049 1.509 12673
1.250 -0.050 1.528 15119
1.244 -0.050 1.513 22631
1.248 -0.050 1.509 25626
1.262 -0.050 1.517 18732
1.266 -0.051 1.513 19689
1.265 -0.051 1.504 19787
1.269 -0.051 1.500 17402
1.273 -0.051 1.496 16758
1.277 -0.051 1.492 17021
1.275 -0.051 1.483 21672
1.285 -0.051 1.485 23576
1.300 -0.052 1.492 26561
1.298 -0.052 1.483 29989
1.296 -0.052 1.473 34061
1.295 -0.052 1.464 48220
1.304 -0.052 1.466 60182
1.313 -0.052 1.467 51259
1.317 -0.053 1.463 48692
1.321 -0.053 1.459 39307
1.325 -0.053 1.456 17364
1.340 -0.054 1.463 17305
1.338 -0.053 1.453 24165
1.336 -0.053 1.444 25502
1.415 -0.057 1.511 27025
1.424 -0.057 1.512 22183
1.428 -0.057 1.508 16400
1.444 -0.058 1.514 11167
1.448 -0.058 1.510 11449
1.458 -0.058 1.511 15873
1.462 -0.058 1.507 19014
1.466 -0.059 1.502 15546
1.475 -0.059 1.503 12476
1.479 -0.059 1.499 15440
1.483 -0.059 1.494 13041
1.493 -0.060 1.495 12721
1.503 -0.060 1.496 12819
1.519 -0.061 1.502 7059
1.535 -0.061 1.508 10127
1.539 -0.061 1.503 17607
1.543 -0.062 1.499 22944
1.546 -0.062 1.494 26009
1.550 -0.062 1.490 24644
1.560 -0.062 1.490 24474
1.570 -0.063 1.491 21018
1.580 -0.063 1.491 10181
1.602 -0.064 1.502 8393
1.600 -0.064 1.492 17714
1.610 -0.064 1.492 26152
1.620 -0.065 1.492 26988
1.637 -0.065 1.498 31678
1.634 -0.065 1.488 28712
1.632 -0.065 1.478 19575
1.642 -0.066 1.478 15581
1.652 -0.066 1.478 11776
1.693 -0.068 1.503 11032
1.691 -0.068 1.493 16673
1.701 -0.068 1.493 20586
1.718 -0.069 1.497 18578
1.721 -0.069 1.492 15841
1.725 -0.069 1.487 12840
1.723 -0.069 1.477 11829
1.746 -0.070 1.486 14433
1.762 -0.070 1.491 18194
1.766 -0.071 1.486 15964
1.764 -0.070 1.476 14705
1.774 -0.071 1.475 17096
1.778 -0.071 1.470 18313
1.788 -0.071 1.469 16112
1.805 -0.072 1.473 15976
1.815 -0.073 1.473 19592
1.819 -0.073 1.467 19928
1.823 -0.073 1.462 19579
1.827 -0.073 1.456 22800
1.830 -0.073 1.451 22204
1.834 -0.073 1.446 15518
1.831 -0.073 1.436 11282
1.861 -0.074 1.448 13275
1.878 -0.075 1.452 18978
1.888 -0.075 1.451 16225
1.892 -0.076 1.445 9823
1.922 -0.077 1.457 7766
1.913 -0.076 1.443 11071
1.917 -0.077 1.437 13171
1.920 -0.077 1.431 14083
1.924 -0.077 1.426 17151
1.934 -0.077 1.424 17738
1.945 -0.078 1.423 13714
1.982 -0.079 1.438 10526
1.932 -0.077 1.398 10073
1.936 -0.077 1.393 8670
1.946 -0.078 1.391 7587
1.950 -0.078 1.386 7372
2.041 -0.082 1.434 8485
2.031 -0.081 1.420 9888
2.035 -0.081 1.414 11773
2.052 -0.082 1.416 12523
2.062 -0.082 1.414 12001
2.093 -0.084 1.424 10705
2.110 -0.084 1.426 9401
2.107 -0.084 1.416 9677
2.111 -0.084 1.410 11029
2.115 -0.085 1.404 12056
2.139 -0.085 1.409 10599
2.156 -0.086 1.411 10369
2.174 -0.087 1.412 9597
2.191 -0.088 1.414 9959
2.202 -0.088 1.411 11058
2.212 -0.088 1.409 14348
2.216 -0.089 1.402 17817
2.219 -0.089 1.396 14683
2.230 -0.089 1.393 11200
2.240 -0.090 1.390 11176
2.244 -0.090 1.384 9907
2.248 -0.090 1.377 8638
2.251 -0.090 1.370 5752
2.290 -0.091 1.382 2958
2.265 -0.091 1.361 3873
2.276 -0.091 1.358 5135
2.279 -0.091 1.351 5236
2.276 -0.091 1.341 5187
2.399 -0.096 1.395 5867
2.403 -0.096 1.388 7414
2.406 -0.096 1.381 8962
2.410 -0.096 1.374 8272
2.420 -0.097 1.371 7587
2.438 -0.097 1.371 9454
2.442 -0.098 1.363 11494
2.452 -0.098 1.360 12362
2.456 -0.098 1.352 13249
2.459 -0.098 1.345 12344
2.463 -0.098 1.338 10603
2.466 -0.099 1.331 9766
2.470 -0.099 1.323 6400
2.523 -0.101 1.340 3634
2.591 -0.104 1.362 2901
2.595 -0.104 1.355 3182
2.591 -0.104 1.344 4650
2.587 -0.103 1.333 6345
2.591 -0.104 1.325 5930
2.674 -0.107 1.353 6274
2.677 -0.107 1.345 6274
2.688 -0.107 1.340 6681
2.699 -0.108 1.336 7299
2.709 -0.108 1.331 6021
2.720 -0.109 1.326 5069
2.724 -0.109 1.318 2534
2.574 -0.103 1.245 1091
0.637 -0.027 1.598 11751
0.648 -0.027 1.610 14200
0.652 -0.028 1.608 17173
0.660 -0.028 1.613 16700
0.668 -0.028 1.618 16732
0.669 -0.028 1.609 16872
0.673 -0.028 1.607 17134
0.677 -0.029 1.605 17151
0.685 -0.029 1.610 16360
0.689 -0.029 1.608 15601
0.700 -0.030 1.620 15589
0.708 -0.030 1.625 16822
0.712 -0.030 1.623 16610
0.713 -0.030 1.614 16488
0.717 -0.030 1.612 15468
0.722 -0.031 1.610 14479
0.726 -0.031 1.607 12212
0.730 -0.031 1.605 9574
0.734 -0.031 1.603 7817
0.746 -0.032 1.615 5605
0.750 -0.032 1.613 4774
0.758 -0.032 1.617 4970
0.762 -0.032 1.615 5427
0.763 -0.032 1.606 7014
0.767 -0.032 1.604 10949
0.771 -0.033 1.601 14646
0.776 -0.033 1.599 16703
0.784 -0.033 1.603 18225
0.788 -0.033 1.601 17049
0.796 -0.034 1.606 15810
0.800 -0.034 1.603 13336
0.801 -0.034 1.594 11190
0.805 -0.034 1.592 11251
0.809 -0.034 1.589 11312
0.817 -0.035 1.594 10986
0.821 -0.035 1.591 10845
0.826 -0.035 1.589 12548
0.830 -0.035 1.586 21302
0.834 -0.035 1.584 28477
0.842 -0.036 1.588 33895
0.847 -0.036 1.585 39199
0.851 -0.036 1.583 35217
0.855 -0.036 1.580 24470
0.855 -0.036 1.571 17719
0.863 -0.037 1.575 14988
0.880 -0.037 1.593 12500
0.888 -0.038 1.597 12624
0.897 -0.038 1.601 12034
0.905 -0.038 1.605 9995
0.914 -0.039 1.609 6764
0.901 -0.038 1.579 2654
0.901 -0.038 1.570 1824
0.914 -0.039 1.581 1713
0.931 -0.039 1.598 2322
0.926 -0.039 1.582 4675
0.930 -0.039 1.579 7203
0.939 -0.040 1.583 8841
0.943 -0.040 1.580 10094
0.947 -0.040 1.577 9981
0.960 -0.041 1.587 10404
0.965 -0.041 1.585 14182
0.964 -0.041 1.575 21935
0.969 -0.041 1.572 26279
0.973 -0.041 1.569 26494
0.972 -0.041 1.560 21460
0.976 -0.041 1.557 13570
0.985 -0.042 1.561 11927
0.989 -0.042 1.558 12823
0.998 -0.042 1.561 11755
1.016 -0.043 1.577 13503
1.025 -0.043 1.581 15782
1.029 -0.044 1.578 15043
1.033 -0.044 1.575 14379
1.037 -0.044 1.572 12367
1.046 -0.044 1.575 9980
1.046 -0.044 1.565 12736
1.050 -0.044 1.562 15843
1.054 -0.045 1.559 13451
1.063 -0.045 1.562 10566
1.077 -0.046 1.572 12198
1.081 -0.046 1.568 13922
1.085 -0.046 1.565 14314
1.094 -0.046 1.568 13556
1.103 -0.047 1.571 10330
1.112 -0.047 1.574 9307
1.121 -0.047 1.577 11371
1.125 -0.048 1.573 14388
1.129 -0.048 1.570 16850
1.133 -0.048 1.567 15253
1.138 -0.048 1.563 12089
1.142 -0.048 1.560 9528
1.146 -0.049 1.557 11446
1.145 -0.048 1.547 13423
1.144 -0.048 1.538 14823
1.153 -0.049 1.540 18628
1.157 -0.049 1.537 18446
1.166 -0.049 1.539 13756
1.175 -0.050 1.542 9630
1.180 -0.050 1.538 11857
1.189 -0.050 1.541 17159
1.193 -0.051 1.537 15897
1.197 -0.051 1.534 11890
1.206 -0.051 1.536 12138
1.221 -0.052 1.544 12803
1.241 -0.053 1.558 14315
1.218 -0.052 1.525 13235
1.206 -0.051 1.504 13989
1.210 -0.051 1.501 15216
1.230 -0.052 1.514 14083
1.250 -0.053 1.528 16223
1.238 -0.052 1.507 23036
1.248 -0.053 1.509 25707
1.262 -0.053 1.517 17085
1.261 -0.053 1.508 18230
1.259 -0.053 1.498 19193
1.269 -0.054 1.500 16051
1.273 -0.054 1.496 16049
1.271 -0.054 1.487 18034
1.275 -0.054 1.483 22822
1.284 -0.054 1.485 23432
1.294 -0.055 1.487 26997
1.292 -0.055 1.477 36628
1.296 -0.055 1.473 46122
1.294 -0.055 1.464 54795
1.304 -0.055 1.466 61227
1.313 -0.056 1.467 55673
1.317 -0.056 1.463 53299
1.321 -0.056 1.459 45460
1.325 -0.056 1.456 27724
1.329 -0.056 1.452 25158
1.338 -0.057 1.453 29331
1.336 -0.057 1.444 27664
1.415 -0.060 1.511 30311
1.424 -0.060 1.512 25645
1.428 -0.060 1.508 16869
1.444 -0.061 1.514 9319
1.448 -0.061 1.510 10749
1.452 -0.061 1.506 13601
1.462 -0.062 1.507 14123
1.465 -0.062 1.502 12020
1.475 -0.062 1.503 11792
1.485 -0.063 1.504 15898
1.489 -0.063 1.500 13565
1.493 -0.063 1.495 12856
1.503 -0.064 1.496 13238
1.513 -0.064 1.497 7455
1.535 -0.065 1.508 10907
1.538 -0.065 1.503 19572
1.542 -0.065 1.499 24266
1.546 -0.065 1.494 25774
1.550 -0.066 1.490 24145
1.560 -0.066 1.490 25354
1.570 -0.066 1.491 22611
1.586 -0.067 1.496 11866
1.596 -0.068 1.497 9776
1.600 -0.068 1.492 17948
1.610 -0.068 1.492 26532
1.620 -0.069 1.492 28337
1.636 -0.069 1.498 30659
1.634 -0.069 1.488 26568
1.632 -0.069 1.478 17807
1.642 -0.070 1.478 14054
1.646 -0.070 1.473 10752
1.699 -0.072 1.508 10260
1.691 -0.072 1.493 15975
1.701 -0.072 1.493 20050
1.717 -0.073 1.497 19539
1.721 -0.073 1.492 17641
1.725 -0.073 1.487 14013
1.729 -0.073 1.482 12529
1.746 -0.074 1.486 15894
1.762 -0.075 1.491 18676
1.766 -0.075 1.486 14749
1.770 -0.075 1.480 14417
1.774 -0.075 1.475 19488
1.778 -0.075 1.470 20857
1.788 -0.076 1.469 18221
1.811 -0.077 1.478 15259
1.815 -0.077 1.473 17825
1.812 -0.077 1.463 19058
1.823 -0.077 1.462 18579
1.826 -0.077 1.456 21787
1.837 -0.078 1.456 22240
1.840 -0.078 1.450 15153
1.831 -0.078 1.436 10329
1.868 -0.079 1.453 13538
1.884 -0.080 1.456 21314
1.882 -0.080 1.446 18190
1.885 -0.080 1.441 10384
1.896 -0.080 1.439 7693
1.900 -0.080 1.434 10109
1.910 -0.081 1.433 11407
1.920 -0.081 1.431 13291
1.924 -0.081 1.426 17393
1.934 -0.082 1.424 17802
1.945 -0.082 1.423 13630
1.988 -0.084 1.443 10479
1.932 -0.082 1.398 9855
1.936 -0.082 1.393 8962
1.946 -0.082 1.391 8417
1.950 -0.083 1.386 8009
2.040 -0.086 1.434 9303
2.031 -0.086 1.420 9936
2.041 -0.086 1.418 11932
2.052 -0.087 1.416 13624
2.069 -0.088 1.418 13712
2.093 -0.089 1.424 12786
2.103 -0.089 1.422 11306
2.107 -0.089 1.416 10644
2.118 -0.090 1.414 11048
2.121 -0.090 1.408 12106
2.139 -0.091 1.409 11385
2.156 -0.091 1.411 11736
2.166 -0.092 1.409 10468
2.191 -0.093 1.414 10259
2.201 -0.093 1.411 11223
2.212 -0.094 1.409 14428
2.216 -0.094 1.402 17717
2.219 -0.094 1.396 14475
2.230 -0.094 1.393 10696
2.240 -0.095 1.390 10440
2.244 -0.095 1.384 9556
2.247 -0.095 1.377 8672
2.251 -0.095 1.370 5994
2.296 -0.097 1.386 3956
2.293 -0.097 1.376 4555
2.283 -0.097 1.361 5477
2.279 -0.096 1.351 5293
2.276 -0.096 1.341 4983
2.399 -0.102 1.395 5789
2.402 -0.102 1.388 6969
2.406 -0.102 1.381 8148
2.409 -0.102 1.374 7422
2.413 -0.102 1.367 6696
2.445 -0.104 1.374 9394
2.441 -0.103 1.363 12256
2.452 -0.104 1.360 13055
2.456 -0.104 1.352 13913
2.459 -0.104 1.345 12931
2.463 -0.104 1.338 10724
2.466 -0.104 1.331 9499
2.469 -0.105 1.323 6082
2.523 -0.107 1.340 3619
2.584 -0.109 1.359 2720
2.587 -0.110 1.351 2633
2.591 -0.110 1.344 4100
2.587 -0.110 1.333 5730
2.591 -0.110 1.325 5535
2.673 -0.113 1.353 5594
2.677 -0.113 1.345 5594
2.695 -0.114 1.344 6367
2.706 -0.115 1.339 7394
2.709 -0.115 1.331 6342
2.720 -0.115 1.326 5395
2.723 -0.115 1.318 2697
2.574 -0.109 1.245 915
0.637 -0.028 1.598 12294
0.648 -0.028 1.610 14755
0.652 -0.029 1.608 17704
0.660 -0.029 1.613 17104
0.668 -0.029 1.618 16986
0.668 -0.029 1.609 17259
0.673 -0.029 1.607 17706
0.677 -0.030 1.605 17824
0.685 -0.030 1.610 17097
0.689 -0.030 1.608 16395
0.700 -0.031 1.620 15852
0.708 -0.031 1.625 16701
0.712 -0.031 1.623 16245
0.713 -0.031 1.614 15918
0.717 -0.031 1.612 14905
0.722 -0.032 1.610 13898
0.726 -0.032 1.607 11592
0.730 -0.032 1.605 9003
0.734 -0.032 1.603 7386
0.750 -0.033 1.622 5234
0.750 -0.033 1.613 4385
0.754 -0.033 1.610 4772
0.759 -0.033 1.608 5330
0.763 -0.033 1.606 6297
0.767 -0.034 1.604 9499
0.771 -0.034 1.601 12793
0.776 -0.034 1.599 14811
0.784 -0.034 1.603 16446
0.792 -0.035 1.608 15617
0.796 -0.035 1.606 14641
0.800 -0.035 1.603 12051
0.801 -0.035 1.594 9700
0.805 -0.035 1.592 10053
0.809 -0.035 1.589 10405
0.817 -0.036 1.594 10502
0.821 -0.036 1.591 10528
0.830 -0.036 1.595 12049
0.830 -0.036 1.586 20531
0.834 -0.037 1.584 27481
0.842 -0.037 1.588 32887
0.846 -0.037 1.585 38105
0.851 -0.037 1.583 34276
0.855 -0.037 1.580 24024
0.855 -0.037 1.571 17699
0.863 -0.038 1.575 14630
0.880 -0.039 1.593 11120
0.893 -0.039 1.604 10947
0.897 -0.039 1.601 10627
0.905 -0.040 1.605 8960
0.914 -0.040 1.609 6226
0.901 -0.039 1.579 2848
0.905 -0.040 1.577 2223
0.909 -0.040 1.574 1698
0.922 -0.040 1.585 1881
0.922 -0.040 1.575 4626
0.930 -0.041 1.579 7197
0.939 -0.041 1.583 8551
0.943 -0.041 1.580 9502
0.947 -0.041 1.577 9373
0.960 -0.042 1.587 10425
0.965 -0.042 1.585 14434
0.964 -0.042 1.575 22216
0.968 -0.042 1.572 26764
0.973 -0.043 1.569 26916
