1.257 0.269 1.485 19561
1.261 0.270 1.481 16991
1.259 0.269 1.472 15420
1.269 0.271 1.473 11767
1.278 0.273 1.475 15544
1.293 0.276 1.482 22406
1.302 0.278 1.484 32207
1.306 0.279 1.480 39025
1.310 0.280 1.476 36453
1.319 0.282 1.478 30723
1.323 0.283 1.474 26818
1.326 0.284 1.470 21969
1.325 0.283 1.460 16828
1.334 0.285 1.462 17324
1.343 0.287 1.463 18019
1.353 0.289 1.464 10742
1.362 0.291 1.466 5199
1.383 0.296 1.478 5509
1.387 0.297 1.473 10653
1.385 0.296 1.464 15582
1.394 0.298 1.465 19101
1.404 0.300 1.466 21985
1.413 0.302 1.467 24088
1.423 0.304 1.468 23472
1.432 0.306 1.469 16658
1.436 0.307 1.465 18088
1.440 0.308 1.460 20466
1.449 0.310 1.461 15209
1.459 0.312 1.462 11260
1.474 0.315 1.468 9315
1.484 0.317 1.469 12976
1.488 0.318 1.464 19229
1.492 0.319 1.460 23825
1.495 0.320 1.455 26652
1.511 0.323 1.461 18311
1.527 0.326 1.466 10073
1.530 0.327 1.462 16986
1.540 0.329 1.462 24181
1.544 0.330 1.457 16780
1.554 0.332 1.458 7198
1.575 0.337 1.468 7606
1.585 0.339 1.468 6543
1.601 0.342 1.473 6630
1.599 0.342 1.463 7655
1.596 0.341 1.454 8538
1.606 0.343 1.454 13665
1.616 0.346 1.454 19890
1.620 0.346 1.449 15287
1.636 0.350 1.454 6191
1.664 0.356 1.468 5241
1.668 0.357 1.463 7271
1.672 0.357 1.458 7988
1.669 0.357 1.448 8426
1.679 0.359 1.448 8660
1.708 0.365 1.461 13472
1.711 0.366 1.456 19917
1.715 0.367 1.451 22421
1.719 0.368 1.446 21150
1.729 0.370 1.445 15257
1.739 0.372 1.445 7850
1.749 0.374 1.444 4539
1.752 0.375 1.439 9733
1.756 0.376 1.434 21633
1.766 0.378 1.433 29765
1.770 0.378 1.427 30685
1.773 0.379 1.422 27334
1.777 0.380 1.417 20493
1.781 0.381 1.411 12264
1.784 0.382 1.406 9172
1.794 0.384 1.405 9290
1.791 0.383 1.395 8994
1.801 0.385 1.394 7274
1.824 0.390 1.402 8757
1.828 0.391 1.396 11456
1.831 0.392 1.391 11625
1.835 0.392 1.385 7830
1.864 0.399 1.397 5720
1.868 0.399 1.391 10095
1.871 0.400 1.386 13404
1.875 0.401 1.380 12993
1.885 0.403 1.379 9488
1.915 0.409 1.390 7162
1.918 0.410 1.384 7555
1.928 0.412 1.382 7874
1.939 0.415 1.381 12196
1.942 0.415 1.375 15872
1.946 0.416 1.369 15269
1.962 0.420 1.371 16230
1.972 0.422 1.369 18300
1.976 0.423 1.363 18082
1.973 0.422 1.353 16271
1.969 0.421 1.343 12127
1.979 0.423 1.341 6404
2.023 0.433 1.359 4634
2.027 0.433 1.353 6783
2.023 0.433 1.343 11435
2.027 0.433 1.337 13947
2.037 0.436 1.335 14227
2.047 0.438 1.333 15250
2.050 0.438 1.326 12495
2.047 0.438 1.316 10423
2.118 0.453 1.348 10894
2.121 0.454 1.342 13701
2.125 0.454 1.335 16507
2.135 0.457 1.333 15564
2.138 0.457 1.326 15058
2.142 0.458 1.320 12309
2.152 0.460 1.317 9646
2.162 0.462 1.314 8074
2.207 0.472 1.330 8637
2.203 0.471 1.319 8410
2.200 0.470 1.309 8351
2.203 0.471 1.303 5720
2.289 0.490 1.339 4817
2.286 0.489 1.328 6053
2.289 0.489 1.321 6460
2.299 0.492 1.318 6763
2.303 0.492 1.311 6985
2.313 0.495 1.307 7225
2.309 0.494 1.297 7161
2.326 0.497 1.297 6212
2.337 0.500 1.293 5553
2.340 0.500 1.286 5852
2.350 0.503 1.283 6239
2.353 0.503 1.275 5833
2.357 0.504 1.268 5426
2.381 0.509 1.271 4897
2.391 0.511 1.267 4794
2.401 0.514 1.263 6499
2.405 0.514 1.256 8436
2.408 0.515 1.249 8436
2.418 0.517 1.245 8130
2.428 0.519 1.241 7900
2.467 0.528 1.249 7906
2.477 0.530 1.245 8741
2.480 0.530 1.237 8741
2.490 0.533 1.233 9382
0.618 0.131 1.583 28401
0.622 0.131 1.581 25043
0.626 0.132 1.579 21685
0.627 0.133 1.570 15180
0.631 0.133 1.568 9142
0.635 0.134 1.566 6744
0.642 0.136 1.571 4454
0.650 0.137 1.577 4395
0.654 0.138 1.575 3966
0.658 0.139 1.573 3536
0.669 0.141 1.585 5761
0.673 0.142 1.583 8254
0.677 0.143 1.581 10991
0.681 0.144 1.579 13729
0.685 0.145 1.576 13560
0.689 0.146 1.574 13298
0.693 0.147 1.572 15007
0.701 0.148 1.577 16953
0.701 0.148 1.568 21100
0.705 0.149 1.566 25391
0.713 0.151 1.571 25034
0.717 0.152 1.568 25356
0.725 0.153 1.573 21145
0.729 0.154 1.571 15954
0.733 0.155 1.569 12469
0.737 0.156 1.566 9393
0.745 0.157 1.571 12289
0.749 0.158 1.569 15410
0.757 0.160 1.573 15141
0.761 0.161 1.571 15063
0.765 0.162 1.569 11903
0.773 0.163 1.573 8790
0.773 0.163 1.564 7083
0.777 0.164 1.562 5467
0.777 0.164 1.553 5636
0.785 0.166 1.557 7253
0.789 0.167 1.555 8754
0.789 0.167 1.545 8996
0.793 0.168 1.543 9440
0.801 0.169 1.547 8416
0.809 0.171 1.552 6706
0.817 0.173 1.556 6088
0.821 0.174 1.553 10146
0.821 0.174 1.544 13775
0.829 0.175 1.548 18764
0.837 0.177 1.552 26016
0.841 0.178 1.550 27854
0.845 0.179 1.547 25863
0.853 0.180 1.551 22673
0.857 0.181 1.549 21308
0.861 0.182 1.546 22806
0.865 0.183 1.544 27759
0.869 0.184 1.541 31215
0.873 0.185 1.538 32879
0.877 0.185 1.536 28986
0.881 0.186 1.533 23429
0.885 0.187 1.530 17762
0.889 0.188 1.527 21284
0.893 0.189 1.525 39234
0.897 0.190 1.522 48441
0.901 0.190 1.519 45454
0.905 0.191 1.517 30849
0.909 0.192 1.514 17672
0.912 0.193 1.511 15302
0.912 0.193 1.502 14826
0.920 0.195 1.505 12604
0.938 0.198 1.522 10317
0.951 0.201 1.532 7070
0.959 0.203 1.535 7054
0.963 0.204 1.533 11496
0.967 0.204 1.530 17568
0.975 0.206 1.533 18164
0.984 0.208 1.536 19645
0.993 0.210 1.540 23743
0.997 0.211 1.537 22684
0.996 0.211 1.527 13603
0.995 0.210 1.518 7776
1.018 0.215 1.540 11710
1.027 0.217 1.543 14906
1.031 0.218 1.540 12045
1.025 0.217 1.525 12039
1.034 0.219 1.528 16297
1.038 0.219 1.525 18185
1.046 0.221 1.528 13961
1.055 0.223 1.531 9900
1.064 0.225 1.534 9684
1.068 0.226 1.530 8959
1.072 0.227 1.527 9894
1.076 0.227 1.524 12322
1.085 0.229 1.527 11721
1.093 0.231 1.529 12122
1.092 0.231 1.520 12050
1.101 0.233 1.523 14958
1.110 0.235 1.525 20333
1.109 0.235 1.516 17441
1.108 0.234 1.507 11754
1.112 0.235 1.503 13558
1.121 0.237 1.506 18083
1.130 0.239 1.508 13844
1.129 0.239 1.499 9021
1.143 0.242 1.508 14440
1.157 0.245 1.516 18963
1.161 0.245 1.512 13416
1.180 0.250 1.527 10118
1.189 0.251 1.529 9691
1.198 0.253 1.531 7775
1.197 0.253 1.522 12763
1.196 0.253 1.512 22849
1.194 0.253 1.503 29167
1.198 0.253 1.499 30919
1.207 0.255 1.501 36863
1.211 0.256 1.498 38071
1.215 0.257 1.494 27693
1.219 0.258 1.490 23998
1.228 0.260 1.492 22479
1.232 0.260 1.489 12248
1.236 0.261 1.485 3884
1.256 0.265 1.498 4011
1.254 0.265 1.489 12457
1.263 0.267 1.490 18157
1.272 0.269 1.492 14512
1.260 0.266 1.472 12001
1.269 0.268 1.473 9842
1.284 0.272 1.481 13311
1.293 0.273 1.482 20534
1.303 0.275 1.484 30128
1.306 0.276 1.480 36430
1.310 0.277 1.476 35963
1.314 0.278 1.472 32536
1.323 0.280 1.474 25425
1.327 0.281 1.470 20179
1.331 0.281 1.466 16438
1.340 0.283 1.467 14209
1.350 0.285 1.468 16069
1.353 0.286 1.464 11628
1.363 0.288 1.466 5408
1.367 0.289 1.461 6002
1.382 0.292 1.468 10740
1.385 0.293 1.464 14568
1.395 0.295 1.465 16639
1.404 0.297 1.466 21822
1.414 0.299 1.467 27866
1.424 0.301 1.468 27632
1.433 0.303 1.469 17753
1.437 0.304 1.465 15787
1.441 0.305 1.460 17419
1.450 0.307 1.461 13578
1.460 0.309 1.462 10565
1.475 0.312 1.468 9470
1.485 0.314 1.469 14016
1.489 0.315 1.464 20335
1.492 0.316 1.460 24561
1.496 0.316 1.455 27234
1.506 0.318 1.456 17494
1.533 0.324 1.471 9484
1.537 0.325 1.467 18853
1.541 0.326 1.462 26578
1.545 0.327 1.457 18158
1.548 0.327 1.453 5938
1.582 0.335 1.473 7624
1.586 0.335 1.468 8712
1.596 0.337 1.468 8882
1.599 0.338 1.463 8679
1.603 0.339 1.459 9642
1.607 0.340 1.454 15969
1.611 0.341 1.449 21793
1.614 0.341 1.444 16101
1.624 0.343 1.444 6592
1.659 0.351 1.463 5822
1.662 0.352 1.458 8937
1.666 0.352 1.453 9907
1.670 0.353 1.448 11073
1.680 0.355 1.448 11221
1.708 0.361 1.461 14734
1.712 0.362 1.456 21734
1.716 0.363 1.451 24219
1.720 0.364 1.446 21814
1.730 0.366 1.445 15761
1.733 0.367 1.440 8529
1.731 0.366 1.430 3990
1.747 0.369 1.434 9513
1.751 0.370 1.429 22210
1.761 0.372 1.428 29464
1.771 0.374 1.427 29761
1.774 0.375 1.422 26372
1.778 0.376 1.417 19679
1.781 0.377 1.411 12351
1.785 0.377 1.406 10039
1.789 0.378 1.401 10155
1.792 0.379 1.395 9680
1.802 0.381 1.394 7635
1.825 0.386 1.402 7881
1.835 0.388 1.401 10154
1.839 0.389 1.395 10785
1.862 0.394 1.403 7788
1.865 0.394 1.397 5778
1.869 0.395 1.391 8874
1.879 0.397 1.390 11858
1.876 0.397 1.380 11718
1.886 0.399 1.379 8789
1.909 0.404 1.386 6369
1.913 0.404 1.380 6457
1.929 0.408 1.382 7162
1.939 0.410 1.381 11873
1.943 0.411 1.375 15340
1.946 0.412 1.369 14249
1.963 0.415 1.371 14416
1.973 0.417 1.369 16595
1.977 0.418 1.363 17272
1.980 0.419 1.357 16263
1.977 0.418 1.347 12186
1.980 0.419 1.341 6467
2.031 0.429 1.363 4103
2.028 0.429 1.353 6656
2.024 0.428 1.343 11689
2.028 0.429 1.337 13987
2.038 0.431 1.335 13937
2.048 0.433 1.333 14747
2.051 0.434 1.326 11918
2.048 0.433 1.316 9914
2.119 0.448 1.348 11131
2.122 0.449 1.342 14119
2.126 0.450 1.335 17107
2.136 0.452 1.333 16259
2.139 0.452 1.326 15865
2.143 0.453 1.320 13151
2.153 0.455 1.317 10601
2.163 0.457 1.314 8402
2.208 0.467 1.330 8051
2.211 0.468 1.323 8067
2.201 0.465 1.309 8290
2.204 0.466 1.303 5575
2.276 0.481 1.331 4951
2.287 0.484 1.328 6290
2.290 0.484 1.321 6754
2.300 0.486 1.318 7175
2.304 0.487 1.311 7317
2.314 0.489 1.307 7505
2.310 0.489 1.297 7458
2.321 0.491 1.294 6370
2.331 0.493 1.290 5441
2.334 0.494 1.283 5677
2.344 0.496 1.279 5969
2.355 0.498 1.275 5696
2.365 0.500 1.272 5508
2.382 0.504 1.271 5061
2.385 0.504 1.264 4890
2.396 0.507 1.260 6803
2.413 0.510 1.259 9058
2.416 0.511 1.252 9058
2.419 0.512 1.245 8517
2.422 0.512 1.237 7977
2.461 0.520 1.246 7036
2.478 0.524 1.245 7549
2.481 0.525 1.237 7549
2.485 0.525 1.230 7912
0.618 0.130 1.583 26809
0.622 0.131 1.581 23524
0.626 0.132 1.579 20239
0.630 0.132 1.577 13938
0.628 0.132 1.561 8049
0.635 0.133 1.566 6183
0.649 0.136 1.586 4691
0.653 0.137 1.584 4691
0.654 0.137 1.575 4261
0.658 0.138 1.573 3838
0.669 0.141 1.585 6387
0.673 0.141 1.583 9132
0.677 0.142 1.581 11940
0.681 0.143 1.579 14749
0.685 0.144 1.576 14315
0.689 0.145 1.574 13772
0.693 0.146 1.572 15190
0.701 0.147 1.577 16866
0.701 0.147 1.568 21229
0.705 0.148 1.566 25742
0.713 0.150 1.571 25945
0.717 0.151 1.568 26856
0.725 0.152 1.573 22750
0.729 0.153 1.571 17835
0.733 0.154 1.569 13903
0.737 0.155 1.566 10346
0.745 0.157 1.571 13138
0.749 0.157 1.569 16287
0.757 0.159 1.573 15948
0.761 0.160 1.571 15811
0.765 0.161 1.569 12379
0.769 0.162 1.566 8947
0.773 0.162 1.564 6867
0.777 0.163 1.562 4791
0.781 0.164 1.559 4847
0.785 0.165 1.557 6776
0.789 0.166 1.555 8653
0.789 0.166 1.545 9261
0.793 0.167 1.543 10020
0.797 0.168 1.540 9004
0.805 0.169 1.545 7261
0.817 0.172 1.556 6711
0.821 0.173 1.553 10993
0.825 0.173 1.551 14671
0.829 0.174 1.548 19627
0.837 0.176 1.552 26735
0.841 0.177 1.550 28546
0.845 0.178 1.547 26303
0.853 0.179 1.551 23111
0.857 0.180 1.549 22055
0.861 0.181 1.546 23915
0.865 0.182 1.544 29064
0.869 0.183 1.541 32354
0.873 0.184 1.538 33813
0.877 0.184 1.536 30057
0.881 0.185 1.533 24841
0.885 0.186 1.530 19189
0.894 0.188 1.534 21369
0.893 0.188 1.525 35916
0.897 0.189 1.522 42997
0.901 0.189 1.519 39848
0.905 0.190 1.517 26496
0.909 0.191 1.514 14796
0.913 0.192 1.511 12656
0.912 0.192 1.502 12378
0.929 0.195 1.518 12345
0.938 0.197 1.522 11983
0.946 0.199 1.526 8315
0.959 0.202 1.535 8154
0.959 0.201 1.526 11978
0.967 0.203 1.530 16792
0.976 0.205 1.533 16678
0.984 0.207 1.536 17673
0.993 0.209 1.540 21538
0.997 0.209 1.537 20741
0.996 0.209 1.527 12556
0.991 0.208 1.512 6951
1.018 0.214 1.540 9530
1.027 0.216 1.543 11545
1.031 0.217 1.540 8346
1.030 0.216 1.531 8394
1.034 0.217 1.528 13417
1.043 0.219 1.531 15950
1.047 0.220 1.528 12816
1.055 0.222 1.531 9554
1.064 0.224 1.534 9416
1.073 0.225 1.536 8534
1.072 0.225 1.527 8738
1.076 0.226 1.524 10240
1.085 0.228 1.527 10223
1.094 0.230 1.529 12204
1.088 0.229 1.514 13580
1.097 0.230 1.517 15871
1.110 0.233 1.525 19417
1.114 0.234 1.522 15036
1.108 0.233 1.507 8609
1.112 0.234 1.503 11283
1.126 0.237 1.512 16933
1.135 0.239 1.514 13411
1.134 0.238 1.505 8904
1.148 0.241 1.513 14341
1.157 0.243 1.516 18709
1.161 0.244 1.512 12366
1.185 0.249 1.533 7372
1.194 0.251 1.535 8436
1.193 0.251 1.525 9540
1.192 0.250 1.516 15929
1.196 0.251 1.512 25229
1.195 0.251 1.503 29546
1.198 0.252 1.499 30395
1.208 0.254 1.501 35362
1.211 0.255 1.498 36657
1.221 0.256 1.500 25582
1.224 0.257 1.496 20367
1.228 0.258 1.492 18886
1.232 0.259 1.489 9554
1.241 0.261 1.491 4332
1.256 0.264 1.498 7478
1.260 0.265 1.494 14237
1.269 0.267 1.496 18140
1.284 0.270 1.504 15649
1.277 0.268 1.488 12038
1.286 0.270 1.490 11228
1.290 0.271 1.486 13544
1.294 0.272 1.482 18031
1.303 0.274 1.484 25546
1.307 0.275 1.480 31691
1.311 0.275 1.476 34561
1.314 0.276 1.472 33794
1.318 0.277 1.468 24043
1.327 0.279 1.470 18027
1.337 0.281 1.471 17478
1.346 0.283 1.472 15699
1.350 0.284 1.468 18229
1.354 0.284 1.464 14373
1.363 0.286 1.466 7200
1.361 0.286 1.456 7945
1.376 0.289 1.463 11195
1.386 0.291 1.464 12894
1.395 0.293 1.465 14115
1.405 0.295 1.466 21931
1.414 0.297 1.467 31500
1.418 0.298 1.463 31263
1.433 0.301 1.469 18640
1.437 0.302 1.465 13704
1.441 0.303 1.460 14615
1.451 0.305 1.461 11917
1.466 0.308 1.467 9600
1.476 0.310 1.468 9029
1.479 0.311 1.463 14531
1.489 0.313 1.464 20965
1.493 0.314 1.460 24926
1.497 0.314 1.455 27477
1.500 0.315 1.450 17150
1.534 0.322 1.471 9912
1.537 0.323 1.467 20365
1.541 0.324 1.462 28206
1.545 0.325 1.457 19669
1.543 0.324 1.448 6610
1.583 0.333 1.473 7608
1.586 0.333 1.468 10958
1.596 0.335 1.468 11419
1.600 0.336 1.463 9677
1.604 0.337 1.459 10840
1.607 0.338 1.454 18609
1.611 0.339 1.449 23845
1.615 0.339 1.444 16967
1.625 0.341 1.444 7391
1.653 0.347 1.458 7109
1.657 0.348 1.453 11193
1.667 0.350 1.453 11798
1.670 0.351 1.448 13330
1.674 0.352 1.443 13535
1.709 0.359 1.461 15720
1.713 0.360 1.456 22687
1.716 0.361 1.451 24826
1.720 0.361 1.446 21265
1.730 0.364 1.445 15639
1.727 0.363 1.436 10070
1.725 0.362 1.426 6312
1.741 0.366 1.430 11084
1.751 0.368 1.429 23151
1.761 0.370 1.428 28634
1.765 0.371 1.423 28460
1.768 0.372 1.418 25039
1.778 0.374 1.417 18324
1.782 0.374 1.411 11985
1.785 0.375 1.406 10747
1.795 0.377 1.405 11092
1.793 0.377 1.395 10457
1.796 0.377 1.390 8157
1.826 0.384 1.402 7199
1.842 0.387 1.405 9765
1.852 0.389 1.404 11185
1.862 0.391 1.403 9324
1.866 0.392 1.397 6517
1.869 0.393 1.391 7591
1.879 0.395 1.390 10093
1.883 0.396 1.384 10001
1.886 0.396 1.379 7494
1.910 0.401 1.386 5455
1.913 0.402 1.380 5626
1.923 0.404 1.378 6590
1.940 0.408 1.381 11121
1.943 0.408 1.375 14118
1.947 0.409 1.369 12687
1.964 0.413 1.371 12511
1.974 0.415 1.369 14985
1.977 0.416 1.363 16372
1.981 0.416 1.357 16130
1.978 0.416 1.347 12092
1.981 0.416 1.341 6494
2.045 0.430 1.371 3987
2.028 0.426 1.353 6496
2.025 0.425 1.343 11714
2.028 0.426 1.337 13673
2.038 0.428 1.335 13251
2.048 0.430 1.333 13806
2.052 0.431 1.326 11011
2.048 0.430 1.316 9098
2.120 0.445 1.348 11100
2.123 0.446 1.342 14128
2.126 0.447 1.335 17157
2.137 0.449 1.333 16557
2.140 0.450 1.326 16402
2.143 0.450 1.320 13870
2.154 0.453 1.317 11600
2.164 0.455 1.314 8897
2.208 0.464 1.330 7761
2.212 0.465 1.323 8091
2.201 0.463 1.309 8576
2.205 0.463 1.303 5871
2.277 0.479 1.331 5033
2.287 0.481 1.328 6463
2.291 0.481 1.321 6993
2.301 0.484 1.318 7537
2.311 0.486 1.314 7643
2.315 0.486 1.307 7709
2.311 0.486 1.297 7700
2.321 0.488 1.294 6479
2.324 0.488 1.287 5322
2.328 0.489 1.280 5596
2.338 0.491 1.276 5879
2.355 0.495 1.275 5561
2.365 0.497 1.272 5664
2.376 0.499 1.268 5271
2.386 0.501 1.264 5007
2.396 0.504 1.260 7007
2.414 0.507 1.259 9568
2.417 0.508 1.252 9568
2.420 0.509 1.245 8795
2.423 0.509 1.237 8022
2.454 0.516 1.243 6316
2.479 0.521 1.245 6279
2.482 0.522 1.237 6279
2.464 0.518 1.221 6656
0.618 0.128 1.583 24854
0.622 0.129 1.581 21782
0.626 0.130 1.579 18711
0.630 0.131 1.577 12784
0.628 0.130 1.561 7202
0.639 0.133 1.573 5903
0.653 0.135 1.593 5299
0.657 0.136 1.591 5287
0.658 0.137 1.582 4845
0.662 0.137 1.580 4426
0.669 0.139 1.585 7146
0.673 0.140 1.583 9996
0.677 0.141 1.581 12881
0.681 0.141 1.579 15767
0.686 0.142 1.576 15197
0.690 0.143 1.574 14491
0.694 0.144 1.572 15583
0.701 0.146 1.577 16968
0.702 0.146 1.568 21331
0.706 0.147 1.566 25852
0.714 0.148 1.571 26551
0.718 0.149 1.568 27930
0.722 0.150 1.566 24128
0.729 0.151 1.571 19460
0.733 0.152 1.569 15300
0.734 0.152 1.560 11495
0.745 0.155 1.571 14057
0.749 0.156 1.569 17151
0.757 0.157 1.573 16626
0.761 0.158 1.571 16330
0.765 0.159 1.569 12572
0.769 0.160 1.566 8815
0.773 0.161 1.564 6317
0.777 0.161 1.562 3818
0.781 0.162 1.559 4078
0.786 0.163 1.557 6665
0.790 0.164 1.555 8992
0.790 0.164 1.545 9768
0.794 0.165 1.543 10627
0.798 0.166 1.540 9521
0.806 0.167 1.545 7687
0.818 0.170 1.556 7307
0.822 0.171 1.553 11798
0.826 0.171 1.551 15530
0.830 0.172 1.548 20324
0.838 0.174 1.552 27266
0.842 0.175 1.550 29058
0.846 0.176 1.547 26630
0.854 0.177 1.551 23423
0.858 0.178 1.549 22605
0.862 0.179 1.546 24943
0.866 0.180 1.544 30401
0.870 0.181 1.541 33520
0.874 0.181 1.538 34794
0.878 0.182 1.536 31342
0.882 0.183 1.533 26617
0.886 0.184 1.530 21238
0.894 0.186 1.534 22581
0.898 0.186 1.531 33490
0.898 0.186 1.522 38393
0.901 0.187 1.519 35181
0.905 0.188 1.517 23081
0.909 0.189 1.514 12424
0.918 0.191 1.517 10244
0.913 0.189 1.502 9919
0.934 0.194 1.525 12513
0.938 0.195 1.522 13523
0.933 0.194 1.506 9882
0.955 0.198 1.529 9121
0.959 0.199 1.526 11976
0.968 0.201 1.530 15483
0.976 0.203 1.533 15148
0.985 0.204 1.536 15846
0.993 0.206 1.540 19348
0.997 0.207 1.537 18787
0.997 0.207 1.527 11599
0.991 0.206 1.512 6400
1.019 0.211 1.540 7664
1.027 0.213 1.543 8588
1.036 0.215 1.546 6132
1.035 0.215 1.537 6765
1.039 0.216 1.534 11447
1.043 0.217 1.531 14216
1.047 0.217 1.528 12052
1.061 0.220 1.537 9624
1.065 0.221 1.534 9264
1.074 0.223 1.536 8226
1.073 0.223 1.527 8281
1.072 0.222 1.518 9473
1.080 0.224 1.521 9654
1.089 0.226 1.523 12685
1.088 0.226 1.514 15281
1.097 0.228 1.517 16743
1.111 0.231 1.525 18089
1.120 0.233 1.528 13105
1.114 0.231 1.513 7378
1.118 0.232 1.509 11374
1.132 0.235 1.518 16940
1.141 0.237 1.520 13360
1.140 0.237 1.511 8864
1.149 0.238 1.513 14678
1.158 0.240 1.516 18986
1.167 0.242 1.518 12210
1.176 0.244 1.521 7179
1.185 0.246 1.523 8912
1.189 0.247 1.519 11315
1.193 0.248 1.516 18328
1.197 0.248 1.512 26637
1.195 0.248 1.503 29545
1.199 0.249 1.499 29892
1.208 0.251 1.501 33488
1.212 0.252 1.498 34294
1.221 0.254 1.500 23212
1.225 0.254 1.496 17009
1.234 0.256 1.498 15197
1.243 0.258 1.500 10391
1.247 0.259 1.496 8283
1.262 0.262 1.504 11509
1.266 0.263 1.500 16506
1.275 0.265 1.502 19075
1.290 0.268 1.509 20029
1.288 0.267 1.500 16360
1.287 0.267 1.490 15270
1.296 0.269 1.492 15027
1.300 0.270 1.488 15280
1.304 0.271 1.484 19631
1.302 0.270 1.474 26708
1.311 0.272 1.476 33630
1.315 0.273 1.472 34849
1.319 0.274 1.468 23306
1.328 0.276 1.470 15867
1.343 0.279 1.476 18837
1.353 0.281 1.478 20350
1.356 0.282 1.474 23640
1.354 0.281 1.464 18079
1.358 0.282 1.460 8928
1.362 0.283 1.456 8541
1.377 0.286 1.463 9787
1.387 0.288 1.464 9750
1.402 0.291 1.470 11542
1.411 0.293 1.471 21992
1.415 0.294 1.467 34095
1.419 0.295 1.463 33665
1.434 0.298 1.469 19020
1.438 0.299 1.465 12096
1.442 0.299 1.460 12325
1.451 0.301 1.461 10336
1.467 0.305 1.467 8834
1.470 0.305 1.463 8567
1.480 0.307 1.463 14983
1.490 0.309 1.464 21595
1.494 0.310 1.460 25163
1.497 0.311 1.455 27437
1.501 0.312 1.450 17476
1.540 0.320 1.476 11359
1.538 0.319 1.467 21295
1.542 0.320 1.462 28888
1.546 0.321 1.457 21190
1.543 0.320 1.448 8571
1.583 0.329 1.473 8357
1.587 0.330 1.468 13206
1.597 0.332 1.468 14015
1.601 0.332 1.463 10732
1.604 0.333 1.459 12218
1.608 0.334 1.454 21188
1.612 0.335 1.449 25460
1.616 0.335 1.444 17425
1.625 0.337 1.444 8140
1.648 0.342 1.453 8908
1.651 0.343 1.448 13336
1.655 0.344 1.443 13397
1.671 0.347 1.448 14869
1.675 0.348 1.443 15173
1.710 0.355 1.461 16191
1.713 0.356 1.456 22598
1.711 0.355 1.446 24318
1.721 0.357 1.446 19474
1.731 0.359 1.445 14784
1.728 0.359 1.436 11806
1.726 0.358 1.426 8809
1.736 0.360 1.425 13122
1.746 0.362 1.424 23851
1.756 0.364 1.424 27390
1.766 0.367 1.423 26796
1.769 0.367 1.418 23296
1.779 0.369 1.417 16435
1.783 0.370 1.411 11114
1.793 0.372 1.410 11308
1.796 0.373 1.405 12236
1.794 0.372 1.395 11434
1.797 0.373 1.390 8875
1.833 0.381 1.406 6694
1.849 0.384 1.409 10492
1.853 0.385 1.404 12882
1.863 0.387 1.403 11718
1.867 0.388 1.397 8160
1.877 0.390 1.396 6754
1.887 0.392 1.394 7952
1.884 0.391 1.384 7822
1.887 0.392 1.379 5776
1.911 0.397 1.386 4530
1.914 0.397 1.380 5073
1.924 0.399 1.378 6075
1.941 0.403 1.381 9858
1.944 0.404 1.375 12230
1.948 0.404 1.369 10639
1.965 0.408 1.371 10458
1.975 0.410 1.369 13244
1.978 0.411 1.363 15100
1.982 0.411 1.357 15439
1.985 0.412 1.351 11543
1.982 0.411 1.341 6743
1.979 0.411 1.332 4589
2.022 0.420 1.349 6634
2.019 0.419 1.339 11454
2.022 0.420 1.333 13054
2.039 0.423 1.335 12139
2.049 0.425 1.333 12435
2.046 0.425 1.323 9856
2.124 0.441 1.358 8684
2.128 0.442 1.352 10925
2.124 0.441 1.342 13749
2.128 0.442 1.335 16651
2.138 0.444 1.333 16373
2.141 0.445 1.326 16517
2.151 0.447 1.324 14441
2.162 0.449 1.321 12579
2.172 0.451 1.318 9307
2.216 0.460 1.333 7753
2.213 0.459 1.323 8235
2.202 0.457 1.309 8638
2.213 0.459 1.306 6100
2.271 0.472 1.328 5010
2.289 0.475 1.328 6525
2.292 0.476 1.321 7143
2.309 0.479 1.321 7854
2.312 0.480 1.314 7858
2.309 0.479 1.304 7782
2.312 0.480 1.297 7800
2.315 0.481 1.290 6501
2.326 0.483 1.287 5269
2.329 0.483 1.280 5570
2.325 0.483 1.269 5901
2.349 0.488 1.272 5363
2.374 0.493 1.275 5847
2.377 0.493 1.268 5420
2.387 0.496 1.264 5049
2.404 0.499 1.263 7098
2.415 0.501 1.259 9771
2.418 0.502 1.252 9771
2.421 0.503 1.245 8849
2.431 0.505 1.241 7931
2.442 0.507 1.236 5956
2.473 0.513 1.242 5116
2.476 0.514 1.234 5116
2.465 0.512 1.221 5831
0.617 0.133 1.583 22889
0.621 0.134 1.581 20144
0.629 0.136 1.586 17437
0.629 0.136 1.577 11908
0.627 0.135 1.561 6527
0.641 0.138 1.581 5995
0.652 0.141 1.593 6067
0.656 0.141 1.591 6089
0.660 0.142 1.589 5701
0.661 0.142 1.580 5324
0.668 0.144 1.585 7995
0.672 0.145 1.583 10677
0.676 0.146 1.581 13603
0.680 0.147 1.579 16529
0.684 0.148 1.576 15942
0.688 0.149 1.574 15195
0.693 0.149 1.572 16160
0.700 0.151 1.577 17380
0.701 0.151 1.568 21633
0.705 0.152 1.566 25981
0.712 0.154 1.571 26887
0.716 0.155 1.568 28431
0.720 0.155 1.566 24891
0.728 0.157 1.571 20407
0.729 0.157 1.562 16206
0.733 0.158 1.560 12371
0.744 0.161 1.571 14559
0.748 0.161 1.569 17495
0.756 0.163 1.573 16802
0.760 0.164 1.571 16334
0.764 0.165 1.569 12420
0.768 0.166 1.566 8507
0.772 0.167 1.564 5846
0.780 0.168 1.569 3183
0.784 0.169 1.566 3691
0.784 0.169 1.557 6687
0.788 0.170 1.555 9191
0.788 0.170 1.545 9926
0.792 0.171 1.543 10743
0.796 0.172 1.540 9611
0.804 0.173 1.545 7824
0.820 0.177 1.563 7774
0.820 0.177 1.553 12310
0.824 0.178 1.551 15980
0.828 0.179 1.548 20603
0.836 0.180 1.552 27442
0.840 0.181 1.550 29244
0.844 0.182 1.547 26662
0.852 0.184 1.551 23409
0.856 0.185 1.549 22764
0.860 0.186 1.546 25657
0.864 0.186 1.544 31525
0.868 0.187 1.541 34500
0.872 0.188 1.538 35689
0.881 0.190 1.542 32756
0.880 0.190 1.533 28595
0.884 0.191 1.530 23700
0.893 0.193 1.534 24233
0.897 0.193 1.531 32264
0.900 0.194 1.529 35418
0.900 0.194 1.519 31909
0.904 0.195 1.517 20800
0.925 0.200 1.540 10749
0.938 0.202 1.550 9683
0.938 0.202 1.541 9422
0.937 0.202 1.531 12894
0.937 0.202 1.522 14498
0.932 0.201 1.506 10925
0.954 0.206 1.529 9787
0.958 0.207 1.526 11486
0.962 0.207 1.523 13845
0.975 0.210 1.533 13591
0.979 0.211 1.530 14251
0.987 0.213 1.533 17318
0.996 0.215 1.537 16979
0.995 0.215 1.527 11005
0.990 0.213 1.512 6168
1.022 0.220 1.546 6024
1.030 0.222 1.550 6011
1.034 0.223 1.546 5084
1.038 0.224 1.543 6192
1.038 0.224 1.534 9491
1.041 0.225 1.531 12247
1.050 0.227 1.534 11334
1.059 0.228 1.537 9953
1.063 0.229 1.534 9341
1.072 0.231 1.536 8053
1.066 0.230 1.521 8414
1.070 0.231 1.518 9769
1.079 0.233 1.521 9802
1.088 0.235 1.523 13218
1.087 0.234 1.514 16717
1.095 0.236 1.517 17406
1.109 0.239 1.525 16763
1.123 0.242 1.534 12962
1.127 0.243 1.531 9106
1.116 0.241 1.509 12956
1.130 0.244 1.518 17718
1.139 0.246 1.520 13421
1.148 0.248 1.523 9307
1.152 0.248 1.519 16006
1.161 0.250 1.522 20396
1.165 0.251 1.518 13884
1.158 0.250 1.503 9304
1.172 0.253 1.511 10533
1.187 0.256 1.519 12637
1.191 0.257 1.516 19302
1.195 0.258 1.512 27034
1.193 0.257 1.503 29658
1.197 0.258 1.499 29646
1.206 0.260 1.501 30999
1.210 0.261 1.498 30213
1.219 0.263 1.500 20177
1.228 0.265 1.502 14133
1.232 0.266 1.498 13723
1.241 0.268 1.500 13633
1.251 0.270 1.502 12992
1.260 0.272 1.504 14568
1.269 0.274 1.506 17487
1.278 0.276 1.507 20263
1.288 0.278 1.509 25298
1.286 0.277 1.500 23790
1.290 0.278 1.496 20445
1.294 0.279 1.492 16839
1.298 0.280 1.488 13086
1.296 0.280 1.478 14315
1.300 0.280 1.474 22883
1.309 0.282 1.476 33718
1.313 0.283 1.472 35666
1.317 0.284 1.468 22832
1.332 0.287 1.475 14369
1.341 0.289 1.476 20463
1.350 0.291 1.478 26010
1.354 0.292 1.474 29610
1.352 0.292 1.464 21032
1.356 0.293 1.460 9534
1.365 0.295 1.461 7745
1.375 0.297 1.463 7546
1.384 0.299 1.464 6711
1.405 0.303 1.476 9590
1.409 0.304 1.471 21581
1.413 0.305 1.467 35053
1.416 0.306 1.463 34243
1.426 0.308 1.464 18730
1.436 0.310 1.465 11157
1.439 0.310 1.460 11018
1.449 0.313 1.461 8971
1.464 0.316 1.467 8131
1.468 0.317 1.463 8374
1.478 0.319 1.463 15524
1.487 0.321 1.464 22252
1.491 0.322 1.460 25244
1.495 0.322 1.455 27079
1.504 0.325 1.456 17602
1.538 0.332 1.476 12692
1.536 0.331 1.467 21582
1.539 0.332 1.462 28761
1.543 0.333 1.457 22495
1.547 0.334 1.453 10705
1.575 0.340 1.468 9562
1.585 0.342 1.468 14907
1.588 0.343 1.463 16253
1.592 0.343 1.458 12216
1.602 0.346 1.459 14304
1.606 0.346 1.454 23757
1.609 0.347 1.449 26525
1.613 0.348 1.444 17456
1.623 0.350 1.444 8800
1.639 0.354 1.449 10955
1.649 0.356 1.448 15347
1.652 0.356 1.443 14747
1.668 0.360 1.448 15731
1.672 0.361 1.443 16104
1.701 0.367 1.457 16206
1.704 0.368 1.452 21912
1.708 0.368 1.446 23069
1.718 0.371 1.446 17038
1.728 0.373 1.445 13202
1.725 0.372 1.436 12775
1.723 0.372 1.426 10628
1.733 0.374 1.425 14853
1.743 0.376 1.424 24380
1.753 0.378 1.424 26108
1.763 0.380 1.423 24838
1.766 0.381 1.418 21376
1.770 0.382 1.412 14612
1.780 0.384 1.411 10059
1.790 0.386 1.410 11973
1.793 0.387 1.405 13650
1.797 0.388 1.400 12755
1.794 0.387 1.390 9763
1.823 0.393 1.402 6310
1.846 0.398 1.409 11745
1.850 0.399 1.404 15059
1.860 0.401 1.403 14362
1.870 0.403 1.401 10670
1.880 0.406 1.400 7240
1.884 0.406 1.394 6786
1.887 0.407 1.389 6133
1.891 0.408 1.383 4026
1.907 0.411 1.386 3738
1.911 0.412 1.380 4660
1.921 0.414 1.378 5531
1.938 0.418 1.381 8237
1.941 0.419 1.375 9949
1.945 0.420 1.369 8375
1.968 0.425 1.375 8668
1.978 0.427 1.373 11569
1.982 0.428 1.367 13718
1.979 0.427 1.357 14343
1.982 0.428 1.351 10850
1.979 0.427 1.341 7170
1.975 0.426 1.332 5897
2.006 0.433 1.341 7304
2.016 0.435 1.339 10971
2.019 0.436 1.333 12139
2.029 0.438 1.331 10817
2.046 0.441 1.333 10773
2.043 0.441 1.323 8526
2.121 0.457 1.358 8893
2.124 0.458 1.352 10758
2.121 0.457 1.342 13133
2.124 0.458 1.335 15760
2.134 0.460 1.333 15817
2.138 0.461 1.326 16258
2.148 0.463 1.324 14733
2.158 0.466 1.321 13499
2.168 0.468 1.318 9899
2.213 0.477 1.333 8046
2.209 0.477 1.323 8623
2.206 0.476 1.313 9095
2.209 0.477 1.306 6599
2.268 0.489 1.328 4820
2.285 0.493 1.328 6308
2.288 0.494 1.321 7035
2.305 0.497 1.321 7923
2.309 0.498 1.314 7812
2.305 0.497 1.304 7689
2.308 0.498 1.297 7724
2.312 0.499 1.290 6505
2.294 0.495 1.273 5337
2.318 0.500 1.276 5634
2.321 0.501 1.269 5981
2.346 0.506 1.272 5172
2.377 0.513 1.278 5964
2.380 0.513 1.271 5544
2.390 0.516 1.267 5135
2.408 0.519 1.267 7332
2.418 0.522 1.263 10062
2.421 0.522 1.255 10062
2.424 0.523 1.248 8994
2.427 0.524 1.241 7925
2.437 0.526 1.236 5780
2.455 0.530 1.235 4267
2.458 0.530 1.228 4267
2.454 0.529 1.217 5302
0.621 0.132 1.590 21308
0.625 0.133 1.588 18734
0.629 0.134 1.586 16160
0.633 0.135 1.585 11080
0.637 0.136 1.583 6001
0.644 0.138 1.588 6274
0.652 0.139 1.593 6915
0.656 0.140 1.591 6971
0.660 0.141 1.589 6684
0.664 0.142 1.587 6397
0.668 0.143 1.585 8839
0.676 0.144 1.590 11321
0.677 0.144 1.581 14288
0.681 0.145 1.579 17294
0.685 0.146 1.576 16658
0.689 0.147 1.574 15852
0.693 0.148 1.572 16674
0.700 0.149 1.577 17669
0.701 0.150 1.568 21665
0.705 0.150 1.566 25663
0.713 0.152 1.571 26690
0.717 0.153 1.568 28324
0.721 0.154 1.566 25139
0.729 0.155 1.571 20974
0.729 0.156 1.562 16792
0.733 0.156 1.560 12877
0.741 0.158 1.564 14789
0.748 0.160 1.569 17571
0.756 0.161 1.573 16831
0.760 0.162 1.571 16312
0.764 0.163 1.569 12382
0.768 0.164 1.566 8451
0.772 0.165 1.564 5797
0.769 0.164 1.548 3134
0.784 0.167 1.566 3642
0.785 0.167 1.557 6593
0.789 0.168 1.555 9070
0.789 0.168 1.545 9790
0.793 0.169 1.543 10644
0.797 0.170 1.540 9570
0.805 0.172 1.545 7787
0.821 0.175 1.563 7942
0.821 0.175 1.553 12386
0.825 0.176 1.551 15938
0.829 0.177 1.548 20391
0.837 0.179 1.552 27141
0.841 0.179 1.550 28978
0.845 0.180 1.547 26199
0.853 0.182 1.551 22819
0.857 0.183 1.549 22294
0.861 0.184 1.546 25837
0.865 0.185 1.544 32294
0.869 0.185 1.541 35208
0.873 0.186 1.538 36442
0.877 0.187 1.536 34251
0.881 0.188 1.533 30825
0.885 0.189 1.530 26747
0.893 0.191 1.534 26550
0.897 0.191 1.531 31774
0.901 0.192 1.529 33388
0.905 0.193 1.526 30007
0.904 0.193 1.517 19502
0.930 0.199 1.546 10671
0.943 0.201 1.556 9901
0.943 0.201 1.547 9763
0.938 0.200 1.531 13196
0.937 0.200 1.522 14857
0.932 0.199 1.506 11549
0.954 0.204 1.529 10174
0.954 0.203 1.520 10717
0.962 0.205 1.523 11790
0.971 0.207 1.527 11812
0.979 0.209 1.530 12478
0.988 0.211 1.533 14993
0.996 0.213 1.537 14816
0.996 0.212 1.527 10543
0.995 0.212 1.518 6585
1.027 0.219 1.553 5204
1.031 0.220 1.550 4497
1.035 0.221 1.546 5476
1.039 0.222 1.543 6981
1.038 0.221 1.534 8340
1.042 0.222 1.531 10777
1.051 0.224 1.534 11203
1.060 0.226 1.537 10505
1.063 0.227 1.534 9567
1.067 0.228 1.530 7975
1.066 0.228 1.521 8700
1.070 0.228 1.518 10426
1.079 0.230 1.521 10198
1.088 0.232 1.523 13634
1.087 0.232 1.514 17918
1.096 0.234 1.517 18026
1.110 0.237 1.525 15787
1.124 0.240 1.534 13750
1.123 0.240 1.525 11275
1.116 0.238 1.509 14400
1.130 0.241 1.518 17891
1.139 0.243 1.520 13436
1.148 0.245 1.523 10424
1.152 0.246 1.519 17653
1.161 0.248 1.522 22291
1.165 0.249 1.518 16093
1.159 0.247 1.503 12101
1.168 0.249 1.505 12250
1.182 0.252 1.514 13126
1.191 0.254 1.516 19289
1.195 0.255 1.512 26656
1.199 0.256 1.509 29084
1.203 0.257 1.505 28697
1.207 0.257 1.501 27470
1.211 0.258 1.498 25076
1.225 0.261 1.505 17283
1.234 0.263 1.508 12293
1.238 0.264 1.504 13785
1.242 0.265 1.500 17545
1.251 0.267 1.502 17137
1.260 0.269 1.504 16550
1.270 0.271 1.506 17559
1.279 0.273 1.507 20064
1.283 0.274 1.504 27212
1.287 0.275 1.500 27121
1.291 0.275 1.496 22119
1.294 0.276 1.492 16492
1.293 0.276 1.482 11205
1.297 0.277 1.478 11322
1.306 0.279 1.480 21497
1.315 0.281 1.482 34856
1.319 0.281 1.478 37185
1.317 0.281 1.468 23347
1.332 0.284 1.475 13634
1.347 0.287 1.482 21740
1.351 0.288 1.478 30458
1.355 0.289 1.474 34515
1.353 0.289 1.464 23375
1.362 0.291 1.466 9267
1.372 0.293 1.467 6879
1.375 0.294 1.463 5565
1.402 0.299 1.480 4484
1.412 0.301 1.481 8351
1.410 0.301 1.471 20038
1.408 0.300 1.462 33800
1.417 0.302 1.463 32708
1.427 0.304 1.464 17767
1.436 0.306 1.465 10867
1.440 0.307 1.460 10402
1.444 0.308 1.456 7802
1.459 0.311 1.462 7503
1.469 0.313 1.463 8462
1.478 0.315 1.463 16337
1.482 0.316 1.459 22860
1.492 0.318 1.460 24772
1.496 0.319 1.455 25903
1.505 0.321 1.456 17007
1.539 0.328 1.476 13436
1.542 0.329 1.472 21216
1.540 0.329 1.462 27845
1.544 0.329 1.457 23502
1.548 0.330 1.453 13133
1.576 0.336 1.468 10934
1.585 0.338 1.468 16146
1.589 0.339 1.463 18143
1.593 0.340 1.458 14860
1.603 0.342 1.459 18068
1.606 0.343 1.454 26624
1.610 0.344 1.449 27351
1.614 0.344 1.444 17293
1.624 0.346 1.444 9381
1.640 0.350 1.449 12809
1.649 0.352 1.448 16887
1.647 0.351 1.439 15751
1.669 0.356 1.448 16167
1.673 0.357 1.443 16487
1.689 0.360 1.447 15868
1.705 0.364 1.452 20639
1.703 0.363 1.442 21336
1.713 0.365 1.441 14621
1.723 0.368 1.441 11491
1.726 0.368 1.436 13233
1.724 0.368 1.426 11871
1.734 0.370 1.425 16093
1.744 0.372 1.424 24424
1.753 0.374 1.424 24474
1.757 0.375 1.418 22802
1.761 0.376 1.413 19511
1.771 0.378 1.412 13358
1.781 0.380 1.411 9362
1.797 0.383 1.415 12883
1.801 0.384 1.409 15240
1.798 0.384 1.400 14517
1.795 0.383 1.390 10796
1.811 0.387 1.393 6300
1.847 0.394 1.409 13317
1.851 0.395 1.404 17692
1.861 0.397 1.403 17339
1.871 0.399 1.401 13755
1.881 0.401 1.400 8883
1.885 0.402 1.394 7171
1.888 0.403 1.389 5333
1.905 0.406 1.391 3203
1.915 0.409 1.390 3834
1.918 0.409 1.384 4606
1.922 0.410 1.378 5013
1.939 0.414 1.381 6365
1.942 0.414 1.375 7388
1.946 0.415 1.369 5966
1.976 0.422 1.379 6966
1.979 0.422 1.373 9822
1.983 0.423 1.367 12031
1.986 0.424 1.361 13070
1.990 0.425 1.355 9990
1.986 0.424 1.345 7814
1.983 0.423 1.336 7673
1.993 0.425 1.333 8517
2.010 0.429 1.335 10241
2.020 0.431 1.333 10880
2.030 0.433 1.331 9289
2.108 0.450 1.367 9422
2.111 0.451 1.361 8465
2.122 0.453 1.358 8997
2.132 0.455 1.356 10690
2.128 0.454 1.346 12413
2.125 0.453 1.335 14565
2.135 0.456 1.333 14956
2.145 0.458 1.330 15789
2.156 0.460 1.327 14861
2.166 0.462 1.325 14292
2.176 0.464 1.322 10562
2.214 0.472 1.333 8591
2.210 0.472 1.323 9113
2.207 0.471 1.313 9365
2.210 0.472 1.306 6924
2.213 0.472 1.299 4498
2.279 0.486 1.325 5825
2.289 0.488 1.321 6651
2.306 0.492 1.321 7694
2.310 0.493 1.314 7474
2.306 0.492 1.304 7359
2.309 0.493 1.297 7437
2.313 0.493 1.290 6375
2.302 0.491 1.276 5564
2.312 0.493 1.273 5726
2.322 0.496 1.269 6037
2.340 0.499 1.269 5005
2.378 0.507 1.278 6043
2.388 0.510 1.274 5644
2.434 0.519 1.287 5896
2.416 0.515 1.270 7733
2.419 0.516 1.263 10252
2.422 0.517 1.255 10252
2.425 0.518 1.248 9051
2.428 0.518 1.241 7850
2.439 0.520 1.236 5645
2.456 0.524 1.235 3723
2.459 0.525 1.228 3723
2.455 0.524 1.217 4863
0.621 0.132 1.590 20117
0.625 0.133 1.588 17497
0.629 0.133 1.586 14877
0.633 0.134 1.585 10286
0.637 0.135 1.583 5695
0.645 0.137 1.588 6574
0.652 0.138 1.593 7688
0.656 0.139 1.591 7774
0.660 0.140 1.589 7667
0.664 0.141 1.587 7561
0.672 0.143 1.592 9678
0.676 0.143 1.590 11919
0.677 0.144 1.581 14797
0.681 0.144 1.579 17825
0.685 0.145 1.576 17088
0.689 0.146 1.574 16194
0.693 0.147 1.572 16891
0.697 0.148 1.570 17744
0.701 0.149 1.568 21457
0.705 0.150 1.566 25170
0.713 0.151 1.571 26229
0.717 0.152 1.568 27918
0.721 0.153 1.566 25057
0.725 0.154 1.564 21204
0.729 0.155 1.562 16975
0.729 0.155 1.553 13026
0.741 0.157 1.564 14610
0.749 0.159 1.569 17202
0.756 0.160 1.573 16516
0.761 0.161 1.571 16026
0.765 0.162 1.569 12242
0.765 0.162 1.560 8461
0.769 0.163 1.557 6246
0.769 0.163 1.548 3939
0.785 0.166 1.566 4055
0.785 0.166 1.557 6847
0.789 0.167 1.555 9370
0.789 0.167 1.545 10107
0.793 0.168 1.543 10983
0.797 0.169 1.540 9733
0.805 0.171 1.545 7576
0.821 0.174 1.563 7756
0.825 0.175 1.560 12129
0.825 0.175 1.551 15608
0.833 0.177 1.555 20014
0.837 0.178 1.552 26706
0.841 0.178 1.550 28620
0.845 0.179 1.547 25557
0.853 0.181 1.551 21907
0.857 0.182 1.549 21390
0.861 0.183 1.546 25553
0.865 0.184 1.544 32642
0.869 0.184 1.541 35569
0.873 0.185 1.538 36988
0.877 0.186 1.536 35859
0.881 0.187 1.533 33312
0.885 0.188 1.530 30157
0.893 0.189 1.534 29426
0.897 0.190 1.531 31933
0.901 0.191 1.529 32323
0.905 0.192 1.526 29225
0.909 0.193 1.523 19405
0.931 0.197 1.546 11161
0.943 0.200 1.556 10561
0.943 0.200 1.547 10329
0.943 0.200 1.538 13143
0.933 0.198 1.515 14644
0.932 0.198 1.506 11768
0.954 0.202 1.529 10208
0.954 0.202 1.520 9726
0.962 0.204 1.523 9430
0.971 0.206 1.527 9756
0.979 0.208 1.530 10509
0.988 0.210 1.533 12476
0.996 0.211 1.537 12515
0.996 0.211 1.527 10223
1.000 0.212 1.524 7428
1.027 0.218 1.553 5160
1.031 0.219 1.550 4445
1.030 0.219 1.540 6949
1.034 0.219 1.537 8274
1.038 0.220 1.534 8193
1.042 0.221 1.531 9737
1.051 0.223 1.534 11068
1.060 0.225 1.537 10944
1.064 0.226 1.534 9877
1.068 0.226 1.530 8133
1.067 0.226 1.521 9274
1.071 0.227 1.518 11460
1.079 0.229 1.521 10609
1.083 0.230 1.517 13456
1.087 0.231 1.514 18222
1.096 0.233 1.517 17958
1.110 0.235 1.525 15060
1.124 0.238 1.534 14685
1.123 0.238 1.525 13228
1.117 0.237 1.509 15011
1.131 0.240 1.518 17423
1.145 0.243 1.526 13940
1.149 0.244 1.523 11730
1.153 0.245 1.519 18240
1.162 0.246 1.522 22947
1.166 0.247 1.518 17645
1.159 0.246 1.503 13603
1.168 0.248 1.505 12307
1.182 0.251 1.514 12979
1.192 0.253 1.516 19164
1.195 0.254 1.512 25483
1.199 0.254 1.509 27545
1.203 0.255 1.505 27320
1.207 0.256 1.501 23935
1.211 0.257 1.498 19762
1.225 0.260 1.505 14633
1.235 0.262 1.508 11183
1.238 0.263 1.504 14034
1.242 0.264 1.500 20664
1.252 0.265 1.502 19938
1.261 0.267 1.504 19220
1.270 0.269 1.506 21061
1.279 0.271 1.507 22719
1.283 0.272 1.504 28653
1.287 0.273 1.500 26576
1.285 0.273 1.490 19851
1.295 0.275 1.492 14536
1.288 0.273 1.477 10739
1.302 0.276 1.484 12500
1.312 0.278 1.486 23629
1.316 0.279 1.482 35153
1.319 0.280 1.478 38525
1.318 0.279 1.468 24477
1.332 0.283 1.475 13338
1.347 0.286 1.482 22130
1.351 0.287 1.478 32768
1.355 0.287 1.474 37070
1.353 0.287 1.464 24132
1.374 0.291 1.476 7728
1.378 0.292 1.472 6793
1.382 0.293 1.468 5678
1.397 0.296 1.474 4096
1.406 0.298 1.476 7655
1.404 0.298 1.466 17693
1.408 0.299 1.462 30079
1.418 0.301 1.463 28866
1.427 0.303 1.464 15833
1.437 0.305 1.465 10624
1.440 0.306 1.460 10021
1.444 0.306 1.456 6831
1.460 0.310 1.462 6773
1.469 0.312 1.463 8691
1.479 0.314 1.463 17241
1.483 0.314 1.459 23140
1.492 0.317 1.460 23401
1.496 0.317 1.455 23695
1.506 0.319 1.456 15495
1.539 0.326 1.476 13485
1.537 0.326 1.467 20419
1.541 0.327 1.462 26499
1.544 0.328 1.457 24420
1.554 0.330 1.458 16086
1.576 0.334 1.468 12336
1.586 0.336 1.468 16562
1.583 0.336 1.458 19068
1.593 0.338 1.458 17791
1.603 0.340 1.459 22914
1.607 0.341 1.454 29730
1.610 0.342 1.449 28035
1.614 0.342 1.444 17190
1.624 0.345 1.444 10041
1.640 0.348 1.449 14295
1.644 0.349 1.444 18054
1.647 0.349 1.439 16515
1.670 0.354 1.448 16062
1.673 0.355 1.443 16190
1.689 0.358 1.447 15097
1.699 0.360 1.447 18965
1.697 0.360 1.437 19529
1.707 0.362 1.437 12488
1.723 0.366 1.441 10316
1.720 0.365 1.431 13566
1.724 0.366 1.426 12659
1.734 0.368 1.425 16843
1.744 0.370 1.424 23884
1.748 0.371 1.419 22793
1.758 0.373 1.418 20845
1.761 0.374 1.413 18301
1.771 0.376 1.412 13287
1.781 0.378 1.411 9901
1.798 0.381 1.415 14280
1.801 0.382 1.409 17023
1.798 0.381 1.400 16224
1.795 0.381 1.390 11785
1.812 0.384 1.393 6802
1.848 0.392 1.409 14790
1.851 0.393 1.404 20218
1.861 0.395 1.403 20231
1.872 0.397 1.401 16982
1.875 0.398 1.396 11420
1.879 0.399 1.390 8992
1.882 0.399 1.384 5955
1.905 0.404 1.391 3619
1.909 0.405 1.386 4792
1.912 0.406 1.380 5268
1.916 0.406 1.374 4833
1.939 0.411 1.381 4543
1.949 0.414 1.379 4945
1.966 0.417 1.381 3861
1.976 0.419 1.379 5646
1.980 0.420 1.373 8085
1.990 0.422 1.372 10250
1.987 0.421 1.361 11640
1.990 0.422 1.355 9316
1.987 0.421 1.345 8401
1.990 0.422 1.339 9266
1.987 0.421 1.330 9535
2.010 0.426 1.335 9467
2.014 0.427 1.329 9576
2.105 0.447 1.374 8441
2.115 0.449 1.371 9636
2.112 0.448 1.361 8638
2.122 0.450 1.358 8994
2.132 0.452 1.356 10704
2.129 0.452 1.346 11665
2.126 0.451 1.335 13106
2.136 0.453 1.333 13809
2.146 0.455 1.330 15064
2.156 0.457 1.327 14923
2.166 0.460 1.325 15139
2.177 0.462 1.322 11404
2.214 0.470 1.333 9270
2.211 0.469 1.323 9700
2.214 0.470 1.316 9712
2.211 0.469 1.306 7294
2.214 0.470 1.299 4964
2.280 0.484 1.325 5244
2.290 0.486 1.321 6074
2.307 0.489 1.321 7172
2.303 0.489 1.311 6857
2.307 0.489 1.304 6772
2.310 0.490 1.297 6910
2.306 0.489 1.287 6201
2.303 0.488 1.276 5710
2.313 0.491 1.273 5759
2.323 0.493 1.269 6037
2.340 0.496 1.269 4850
2.386 0.506 1.282 5980
2.396 0.508 1.278 5898
2.434 0.516 1.287 7040
2.431 0.516 1.276 8530
2.427 0.515 1.266 10613
2.430 0.515 1.258 10613
2.433 0.516 1.251 9217
2.436 0.517 1.244 7822
2.439 0.517 1.236 5605
2.450 0.520 1.232 3472
2.453 0.520 1.225 3472
2.449 0.519 1.214 4663
0.621 0.130 1.590 18990
0.625 0.131 1.588 16289
0.629 0.132 1.586 13588
0.633 0.133 1.585 9511
0.641 0.134 1.590 5483
0.645 0.135 1.588 6806
0.652 0.137 1.593 8293
0.657 0.138 1.591 8413
0.661 0.138 1.589 8589
0.665 0.139 1.587 8765
0.672 0.141 1.592 10632
0.676 0.142 1.590 12697
0.677 0.142 1.581 15290
0.681 0.143 1.579 18140
0.685 0.144 1.576 17230
0.689 0.144 1.574 16201
0.693 0.145 1.572 16785
0.697 0.146 1.570 17489
0.702 0.147 1.568 21091
0.706 0.148 1.566 24693
0.713 0.149 1.571 25744
0.717 0.150 1.568 27523
0.721 0.151 1.566 24904
0.725 0.152 1.564 21301
0.729 0.153 1.562 17117
0.730 0.153 1.553 13236
0.741 0.155 1.564 14597
0.749 0.157 1.569 17000
0.757 0.159 1.573 16184
0.761 0.159 1.571 15615
0.765 0.160 1.569 11972
0.765 0.160 1.560 8475
0.769 0.161 1.557 6819
0.773 0.162 1.555 5004
0.777 0.163 1.553 4790
0.785 0.164 1.557 7260
0.789 0.165 1.555 9755
0.789 0.165 1.545 10419
0.793 0.166 1.543 11224
0.797 0.167 1.540 9742
0.805 0.169 1.545 7331
0.821 0.172 1.563 7746
0.825 0.173 1.560 12041
0.825 0.173 1.551 15243
0.833 0.175 1.555 19646
0.837 0.175 1.552 26310
0.841 0.176 1.550 28321
0.845 0.177 1.547 24955
0.854 0.179 1.551 21080
0.858 0.180 1.549 20549
0.862 0.180 1.546 25215
0.866 0.181 1.544 32847
0.870 0.182 1.541 35813
0.874 0.183 1.538 37410
0.878 0.184 1.536 37414
0.881 0.185 1.533 35821
0.885 0.185 1.530 33539
0.889 0.186 1.527 32492
0.898 0.188 1.531 32645
0.902 0.189 1.529 32161
0.906 0.190 1.526 29310
0.909 0.190 1.523 20054
0.931 0.195 1.546 11940
0.944 0.198 1.556 11573
0.944 0.198 1.547 10970
0.943 0.198 1.538 12364
0.929 0.195 1.509 13646
0.928 0.194 1.500 11548
0.955 0.200 1.529 10027
0.963 0.202 1.533 8853
0.958 0.201 1.517 7344
0.967 0.202 1.520 7658
0.980 0.205 1.530 8657
0.988 0.207 1.533 10211
0.992 0.208 1.530 10530
0.996 0.209 1.527 10170
1.000 0.210 1.524 8563
1.023 0.214 1.546 5948
1.027 0.215 1.543 5094
1.031 0.216 1.540 7942
1.035 0.217 1.537 9106
1.039 0.218 1.534 8209
1.048 0.219 1.537 9233
1.052 0.220 1.534 11081
1.060 0.222 1.537 11349
1.064 0.223 1.534 10183
1.068 0.224 1.530 8521
1.067 0.224 1.521 10210
1.071 0.224 1.518 12798
1.080 0.226 1.521 10995
1.084 0.227 1.517 12794
1.088 0.228 1.514 17666
1.097 0.230 1.517 17126
1.111 0.233 1.525 14880
1.120 0.234 1.528 16201
1.118 0.234 1.519 15328
1.122 0.235 1.515 15577
1.131 0.237 1.518 16885
1.145 0.240 1.526 14214
1.149 0.241 1.523 12887
1.158 0.243 1.525 18894
1.162 0.243 1.522 23424
1.166 0.244 1.518 18877
1.160 0.243 1.503 13889
1.169 0.245 1.505 11129
1.183 0.248 1.514 12152
1.187 0.249 1.510 18667
1.196 0.251 1.512 24080
1.200 0.251 1.509 25873
1.204 0.252 1.505 26076
1.208 0.253 1.501 20885
1.212 0.254 1.498 14463
1.226 0.257 1.505 11529
1.230 0.258 1.502 10194
1.239 0.260 1.504 14025
1.243 0.260 1.500 22138
1.247 0.261 1.496 21643
1.261 0.264 1.504 21470
1.271 0.266 1.506 25238
1.280 0.268 1.507 28896
1.284 0.269 1.504 32556
1.288 0.270 1.500 26791
1.286 0.269 1.490 16744
1.284 0.269 1.481 10989
1.283 0.269 1.471 10383
1.303 0.273 1.484 14545
1.312 0.275 1.486 26001
1.316 0.276 1.482 34653
1.320 0.276 1.478 38913
1.318 0.276 1.468 25722
1.333 0.279 1.475 13515
1.348 0.282 1.482 21990
1.352 0.283 1.478 33708
1.356 0.284 1.474 38097
1.360 0.285 1.470 24756
1.380 0.289 1.482 8230
1.378 0.289 1.472 7635
1.377 0.288 1.463 7780
1.386 0.290 1.464 5196
1.396 0.292 1.465 6972
1.405 0.294 1.466 13820
1.409 0.295 1.462 23502
1.418 0.297 1.463 23003
1.428 0.299 1.464 13469
1.443 0.302 1.470 10259
1.441 0.302 1.460 9254
1.445 0.303 1.456 5886
1.454 0.305 1.457 5929
1.470 0.308 1.463 8920
1.480 0.310 1.463 18146
1.483 0.311 1.459 22865
1.493 0.313 1.460 21093
1.497 0.313 1.455 20544
1.512 0.317 1.461 13332
1.540 0.323 1.476 12967
1.538 0.322 1.467 19473
1.541 0.323 1.462 25036
1.545 0.324 1.457 25261
1.561 0.327 1.463 19421
1.577 0.330 1.468 13761
1.581 0.331 1.463 16138
1.584 0.332 1.458 19370
1.594 0.334 1.458 20620
1.604 0.336 1.459 28146
1.608 0.337 1.454 32910
1.611 0.338 1.449 28545
1.615 0.338 1.444 16992
1.625 0.340 1.444 10661
1.641 0.344 1.449 15375
1.645 0.344 1.444 18878
1.648 0.345 1.439 16905
1.658 0.347 1.438 15596
1.674 0.351 1.443 15203
1.684 0.353 1.443 13947
1.694 0.355 1.442 17400
1.698 0.356 1.437 18219
1.708 0.358 1.437 11321
1.718 0.360 1.436 10111
1.721 0.361 1.431 13864
1.725 0.361 1.426 13015
1.735 0.363 1.425 16964
1.745 0.365 1.424 22424
1.749 0.366 1.419 20636
1.759 0.368 1.418 18944
1.762 0.369 1.413 17542
1.772 0.371 1.412 14412
1.789 0.375 1.416 12117
1.805 0.378 1.419 16297
1.802 0.377 1.409 18689
1.799 0.377 1.400 17674
1.803 0.378 1.394 12653
1.813 0.380 1.393 7490
1.849 0.387 1.409 16302
1.852 0.388 1.404 22751
1.862 0.390 1.403 23123
1.873 0.392 1.401 20231
1.876 0.393 1.396 14194
1.873 0.392 1.386 11325
1.877 0.393 1.380 7927
1.900 0.398 1.387 5104
1.910 0.400 1.386 6235
1.907 0.399 1.376 6407
1.910 0.400 1.370 5373
1.927 0.404 1.372 3353
1.957 0.410 1.383 3040
1.967 0.412 1.381 2894
1.977 0.414 1.379 4537
1.981 0.415 1.373 6245
1.991 0.417 1.372 8373
1.994 0.418 1.366 10199
1.991 0.417 1.355 8685
1.995 0.418 1.349 9098
1.991 0.417 1.339 10783
1.988 0.416 1.330 10466
1.998 0.419 1.327 8985
2.008 0.421 1.325 8243
2.113 0.443 1.378 8448
2.116 0.443 1.371 9713
2.120 0.444 1.365 8615
2.130 0.446 1.362 8865
2.134 0.447 1.356 10557
2.137 0.448 1.349 10820
2.127 0.445 1.335 11442
2.144 0.449 1.337 12615
2.154 0.451 1.334 14465
2.164 0.453 1.331 15040
2.174 0.455 1.328 15802
2.185 0.458 1.325 12244
2.209 0.463 1.330 10162
2.212 0.463 1.323 10384
2.215 0.464 1.316 10124
2.212 0.463 1.306 7586
2.208 0.463 1.296 5272
2.274 0.476 1.321 4696
2.291 0.480 1.321 5344
2.308 0.483 1.321 6339
2.305 0.483 1.311 5990
2.308 0.483 1.304 5922
2.304 0.483 1.294 6192
2.308 0.483 1.287 5906
2.304 0.483 1.276 5693
2.314 0.485 1.273 5709
2.324 0.487 1.269 5932
2.391 0.501 1.292 4890
2.401 0.503 1.288 5917
2.425 0.508 1.291 6704
2.436 0.510 1.287 8267
2.432 0.509 1.276 9387
2.428 0.509 1.266 11004
2.431 0.509 1.258 11004
2.434 0.510 1.251 9424
2.437 0.511 1.244 7844
2.441 0.511 1.236 5595
2.451 0.513 1.232 3398
2.454 0.514 1.225 3398
2.450 0.513 1.214 4688
0.621 0.129 1.590 17931
0.626 0.129 1.588 15076
0.633 0.131 1.594 12361
0.637 0.132 1.592 8884
0.641 0.133 1.590 5407
0.645 0.133 1.588 6947
0.653 0.135 1.593 8712
0.657 0.136 1.591 8868
0.661 0.137 1.589 9518
0.665 0.138 1.587 10168
0.673 0.139 1.592 11972
0.677 0.140 1.590 14081
0.681 0.141 1.588 16307
0.682 0.141 1.579 18662
0.686 0.142 1.576 17462
0.690 0.143 1.574 16195
0.694 0.144 1.572 16661
0.698 0.144 1.570 17194
0.702 0.145 1.568 20668
0.706 0.146 1.566 24142
0.710 0.147 1.564 25186
0.718 0.148 1.568 27000
0.722 0.149 1.566 24567
0.726 0.150 1.564 21146
0.730 0.151 1.562 17008
0.730 0.151 1.553 13178
0.742 0.153 1.564 14402
0.749 0.155 1.569 16623
0.757 0.157 1.573 15689
0.761 0.157 1.571 15072
0.765 0.158 1.569 11671
0.766 0.158 1.560 8539
0.770 0.159 1.557 7460
0.774 0.160 1.555 6188
0.778 0.161 1.553 5714
0.786 0.163 1.557 7776
0.790 0.163 1.555 10079
0.794 0.164 1.552 10562
0.794 0.164 1.543 11156
0.798 0.165 1.540 9447
0.806 0.167 1.545 6990
0.822 0.170 1.563 7961
0.826 0.171 1.560 12218
0.826 0.171 1.551 15167
0.834 0.172 1.555 19604
0.838 0.173 1.552 26169
0.842 0.174 1.550 28182
0.846 0.175 1.547 24438
0.854 0.177 1.551 20400
0.854 0.177 1.542 19957
0.862 0.178 1.546 25033
0.866 0.179 1.544 33246
0.870 0.180 1.541 36312
0.874 0.181 1.538 38097
0.878 0.182 1.536 39340
0.882 0.182 1.533 38799
0.886 0.183 1.530 37212
0.890 0.184 1.527 35806
0.894 0.185 1.525 34173
0.902 0.187 1.529 32985
0.906 0.187 1.526 30463
0.910 0.188 1.523 21731
0.909 0.188 1.514 13525
0.940 0.194 1.550 13294
0.944 0.195 1.547 11956
0.948 0.196 1.544 11045
0.929 0.192 1.509 12247
0.929 0.192 1.500 11095
0.955 0.198 1.529 9866
0.968 0.200 1.539 8526
0.954 0.197 1.510 5735
0.963 0.199 1.514 5705
0.980 0.203 1.530 7100
0.989 0.205 1.533 8327
0.993 0.205 1.530 9086
0.997 0.206 1.527 10437
1.005 0.208 1.531 10025
1.019 0.211 1.540 7303
1.027 0.213 1.543 6031
1.027 0.212 1.534 8565
1.035 0.214 1.537 9495
1.039 0.215 1.534 8497
1.048 0.217 1.537 9377
1.052 0.218 1.534 11321
1.061 0.219 1.537 11541
1.065 0.220 1.534 10153
1.069 0.221 1.530 8747
1.068 0.221 1.521 10826
1.072 0.222 1.518 13391
1.081 0.224 1.521 10884
1.085 0.224 1.517 11813
1.088 0.225 1.514 16370
1.097 0.227 1.517 15568
1.111 0.230 1.525 15226
1.115 0.231 1.522 18298
1.119 0.232 1.519 17204
1.123 0.232 1.515 15556
1.132 0.234 1.518 15977
1.146 0.237 1.526 14201
1.150 0.238 1.523 14117
