0.810 -0.066 1.615 4219
0.815 -0.066 1.612 3345
0.819 -0.066 1.610 2470
0.819 -0.066 1.600 5165
0.824 -0.067 1.598 9273
0.828 -0.067 1.595 12757
0.832 -0.067 1.593 17321
0.832 -0.067 1.584 19699
0.840 -0.068 1.588 22581
0.845 -0.068 1.585 25862
0.849 -0.069 1.583 26305
0.853 -0.069 1.580 29459
0.857 -0.069 1.578 32548
0.865 -0.070 1.582 33495
0.870 -0.070 1.579 29876
0.874 -0.071 1.577 24063
0.878 -0.071 1.574 16789
0.886 -0.072 1.578 7723
0.886 -0.072 1.569 4723
0.882 -0.071 1.553 3640
0.899 -0.073 1.570 3301
0.911 -0.074 1.581 4062
0.924 -0.075 1.591 6104
0.928 -0.075 1.588 10460
0.933 -0.075 1.586 14059
0.937 -0.076 1.583 18409
0.941 -0.076 1.580 24537
0.945 -0.077 1.577 27061
0.949 -0.077 1.574 27149
0.953 -0.077 1.572 22919
0.962 -0.078 1.575 12847
0.966 -0.078 1.572 7062
0.970 -0.079 1.569 5900
0.984 -0.080 1.579 4552
0.992 -0.080 1.583 4265
0.996 -0.081 1.580 5406
0.996 -0.081 1.571 7803
1.000 -0.081 1.568 9480
1.009 -0.082 1.571 9356
1.018 -0.082 1.574 11744
1.022 -0.083 1.571 14367
1.026 -0.083 1.568 13726
1.035 -0.084 1.572 11669
1.039 -0.084 1.568 13749
1.043 -0.084 1.565 22051
1.047 -0.085 1.562 27445
1.061 -0.086 1.572 27205
1.070 -0.087 1.575 23316
1.074 -0.087 1.572 24500
1.078 -0.087 1.568 27969
1.082 -0.088 1.565 26737
1.091 -0.088 1.568 26364
1.095 -0.089 1.565 27511
1.099 -0.089 1.562 22466
1.104 -0.089 1.558 12776
1.113 -0.090 1.561 9021
1.117 -0.090 1.558 15191
1.126 -0.091 1.561 20708
1.130 -0.091 1.557 19018
1.134 -0.092 1.554 14517
1.143 -0.093 1.557 9342
1.178 -0.095 1.590 6237
1.177 -0.095 1.580 9864
1.176 -0.095 1.570 13673
1.185 -0.096 1.573 12329
1.189 -0.096 1.569 15561
1.193 -0.097 1.566 20155
1.197 -0.097 1.562 15673
1.217 -0.099 1.577 11633
1.221 -0.099 1.573 10076
1.215 -0.098 1.558 8800
1.224 -0.099 1.560 14983
1.228 -0.099 1.556 21510
1.232 -0.100 1.553 16560
1.215 -0.098 1.525 12237
1.219 -0.099 1.522 9611
1.223 -0.099 1.518 6312
1.243 -0.101 1.532 7511
1.242 -0.101 1.522 11232
1.246 -0.101 1.519 13386
1.255 -0.102 1.521 12113
1.243 -0.101 1.500 10869
1.242 -0.101 1.490 12164
1.251 -0.101 1.492 8446
1.266 -0.102 1.500 7874
1.286 -0.104 1.513 9976
1.296 -0.105 1.515 9107
1.289 -0.104 1.500 10398
1.298 -0.105 1.502 16252
1.296 -0.105 1.492 28754
1.295 -0.105 1.483 47622
1.304 -0.106 1.485 58693
1.308 -0.106 1.481 62770
1.312 -0.106 1.477 62942
1.316 -0.107 1.473 58061
1.314 -0.106 1.463 53068
1.318 -0.107 1.459 49894
1.373 -0.111 1.505 44402
1.382 -0.112 1.507 53065
1.386 -0.112 1.502 52829
1.396 -0.113 1.504 40490
1.405 -0.114 1.505 25010
1.409 -0.114 1.501 24337
1.413 -0.114 1.497 28504
1.417 -0.115 1.493 22212
1.433 -0.116 1.499 15158
1.448 -0.117 1.506 19681
1.458 -0.118 1.507 24755
1.462 -0.118 1.502 27699
1.466 -0.119 1.498 25248
1.470 -0.119 1.494 16726
1.491 -0.121 1.505 10141
1.507 -0.122 1.511 14054
1.523 -0.123 1.517 11230
1.533 -0.124 1.518 10867
1.531 -0.124 1.508 17597
1.541 -0.125 1.509 18521
1.545 -0.125 1.504 11263
1.549 -0.125 1.499 6063
1.565 -0.127 1.505 8765
1.575 -0.127 1.506 17804
1.585 -0.128 1.506 21792
1.595 -0.129 1.506 18129
1.598 -0.129 1.502 11901
1.602 -0.130 1.497 8003
1.606 -0.130 1.492 7695
1.604 -0.130 1.482 6092
1.632 -0.132 1.498 4953
1.636 -0.132 1.493 10398
1.640 -0.133 1.488 17260
1.644 -0.133 1.483 18423
1.648 -0.133 1.478 14396
1.664 -0.135 1.483 11411
1.681 -0.136 1.488 11191
1.685 -0.136 1.483 9112
1.682 -0.136 1.473 10392
1.692 -0.137 1.473 14401
1.696 -0.137 1.468 16891
1.712 -0.139 1.472 14084
1.729 -0.140 1.477 16534
1.739 -0.141 1.477 27893
1.743 -0.141 1.471 29206
1.747 -0.141 1.466 22460
1.763 -0.143 1.470 23543
1.767 -0.143 1.465 26947
1.777 -0.144 1.465 25517
1.788 -0.145 1.464 22059
1.785 -0.144 1.454 16040
1.795 -0.145 1.453 9892
1.825 -0.148 1.466 11592
1.829 -0.148 1.461 20319
1.839 -0.149 1.460 25372
1.849 -0.150 1.459 22127
1.853 -0.150 1.454 18752
1.850 -0.150 1.444 14108
1.860 -0.151 1.443 7145
1.903 -0.154 1.464 6966
1.881 -0.152 1.441 7234
1.872 -0.151 1.426 6174
1.882 -0.152 1.425 7022
1.899 -0.154 1.428 10414
1.929 -0.156 1.440 15291
1.939 -0.157 1.439 15645
1.943 -0.157 1.433 15504
1.947 -0.158 1.427 11887
2.003 -0.162 1.456 7182
2.014 -0.163 1.454 7181
1.938 -0.157 1.397 9573
1.941 -0.157 1.391 15208
1.952 -0.158 1.390 14911
1.955 -0.158 1.384 12690
1.986 -0.161 1.395 11756
1.996 -0.162 1.393 10470
2.020 -0.163 1.400 9057
2.023 -0.164 1.394 7496
2.095 -0.170 1.428 8317
2.098 -0.170 1.422 9865
2.109 -0.171 1.420 9033
2.113 -0.171 1.414 7725
2.116 -0.171 1.408 6995
2.127 -0.172 1.405 6146
2.144 -0.174 1.407 5872
2.134 -0.173 1.393 6908
2.138 -0.173 1.386 8474
2.141 -0.173 1.380 8629
2.172 -0.176 1.389 7856
2.197 -0.178 1.394 10251
2.207 -0.179 1.392 11590
2.224 -0.180 1.393 11267
2.249 -0.182 1.398 10515
2.273 -0.184 1.402 9185
2.291 -0.185 1.403 9833
2.315 -0.187 1.408 9342
2.326 -0.188 1.405 10493
2.330 -0.189 1.398 11143
2.326 -0.188 1.387 11232
2.330 -0.189 1.380 9132
2.347 -0.190 1.381 5863
2.372 -0.192 1.385 5105
2.369 -0.192 1.374 4255
2.365 -0.191 1.363 3583
2.411 -0.195 1.378 7522
2.414 -0.195 1.371 11931
2.411 -0.195 1.360 17238
2.414 -0.195 1.353 22670
2.418 -0.196 1.346 20373
2.414 -0.195 1.335 18374
2.418 -0.196 1.328 18374
2.421 -0.196 1.321 15615
2.425 -0.196 1.314 12856
2.442 -0.198 1.313 11769
2.460 -0.199 1.313 11560
2.470 -0.200 1.309 9060
2.488 -0.201 1.308 6969
2.628 -0.213 1.363 5761
2.639 -0.214 1.359 6374
2.664 -0.216 1.361 5915
2.674 -0.216 1.356 6334
2.678 -0.217 1.348 6334
2.681 -0.217 1.340 5195
2.685 -0.217 1.332 4055
2.746 -0.222 1.350 3636
2.757 -0.223 1.345 3925
2.760 -0.223 1.336 1962
2.597 -0.210 1.258 802
0.629 -0.052 1.583 6181
0.640 -0.053 1.596 8758
0.647 -0.054 1.601 12046
0.655 -0.054 1.606 12199
0.659 -0.055 1.604 12814
0.667 -0.055 1.609 10627
0.674 -0.056 1.614 7638
0.679 -0.056 1.612 6480
0.686 -0.057 1.617 10240
0.691 -0.057 1.615 14067
0.695 -0.058 1.613 17615
0.703 -0.058 1.618 21428
0.707 -0.059 1.616 19169
0.711 -0.059 1.614 16910
0.716 -0.059 1.612 12254
0.720 -0.060 1.610 7511
0.720 -0.060 1.600 8274
0.728 -0.060 1.605 9373
0.732 -0.061 1.603 11211
0.737 -0.061 1.601 13631
0.741 -0.062 1.599 13781
0.749 -0.062 1.603 13827
0.753 -0.063 1.601 13828
0.761 -0.063 1.606 13597
0.765 -0.064 1.604 14358
0.766 -0.064 1.594 13590
0.770 -0.064 1.592 11687
0.778 -0.065 1.597 10833
0.786 -0.065 1.601 9071
0.798 -0.066 1.613 7930
0.802 -0.067 1.610 6100
0.810 -0.067 1.615 4330
0.815 -0.068 1.612 3767
0.819 -0.068 1.610 3205
0.819 -0.068 1.600 6269
0.823 -0.068 1.598 10698
0.828 -0.069 1.595 14184
0.832 -0.069 1.593 18718
0.836 -0.069 1.590 20957
0.840 -0.070 1.588 24199
0.844 -0.070 1.585 27859
0.849 -0.070 1.583 28749
0.853 -0.071 1.580 31771
0.857 -0.071 1.578 34321
0.861 -0.072 1.575 34850
0.869 -0.072 1.579 30351
0.874 -0.073 1.577 24220
0.878 -0.073 1.574 17049
0.882 -0.073 1.571 7999
0.882 -0.073 1.562 5459
0.882 -0.073 1.553 4320
0.886 -0.074 1.550 3374
0.907 -0.075 1.574 3836
0.924 -0.077 1.591 5933
0.928 -0.077 1.588 10772
0.932 -0.077 1.586 14801
0.937 -0.078 1.583 19868
0.941 -0.078 1.580 27193
0.945 -0.078 1.577 30266
0.949 -0.079 1.574 30017
0.958 -0.080 1.578 24900
0.962 -0.080 1.575 13643
0.971 -0.081 1.579 7352
0.975 -0.081 1.576 6894
0.983 -0.082 1.579 5893
0.992 -0.082 1.583 4930
0.992 -0.082 1.574 5713
0.996 -0.083 1.571 8268
1.000 -0.083 1.568 10260
1.004 -0.083 1.565 10019
1.013 -0.084 1.568 11316
1.022 -0.085 1.571 13578
1.026 -0.085 1.568 13001
1.035 -0.086 1.572 10967
1.039 -0.086 1.568 13043
1.043 -0.087 1.565 20718
1.052 -0.087 1.568 25580
1.061 -0.088 1.572 25756
1.070 -0.089 1.575 22498
1.074 -0.089 1.572 23688
1.078 -0.090 1.568 27357
1.082 -0.090 1.565 26528
1.091 -0.091 1.568 25935
1.095 -0.091 1.565 27054
1.099 -0.091 1.562 22618
1.103 -0.092 1.558 13219
1.112 -0.092 1.561 8527
1.122 -0.093 1.564 14049
1.126 -0.093 1.561 19617
1.130 -0.094 1.557 18194
1.134 -0.094 1.554 13375
1.143 -0.095 1.557 8140
1.177 -0.098 1.590 7104
1.176 -0.098 1.580 10926
1.181 -0.098 1.577 13800
1.185 -0.098 1.573 12573
1.194 -0.099 1.575 17053
1.193 -0.099 1.566 21834
1.197 -0.099 1.562 16965
1.217 -0.101 1.577 12789
1.226 -0.102 1.579 12376
1.225 -0.102 1.569 11765
1.229 -0.102 1.566 17457
1.228 -0.102 1.556 23350
1.237 -0.103 1.558 18309
1.220 -0.101 1.531 12816
1.219 -0.101 1.522 10156
1.223 -0.102 1.518 7609
1.232 -0.102 1.520 10921
1.242 -0.103 1.522 13947
1.246 -0.103 1.519 14403
1.250 -0.104 1.515 12661
1.248 -0.104 1.505 9961
1.241 -0.103 1.490 8678
1.240 -0.103 1.481 5137
1.266 -0.105 1.500 5061
1.286 -0.107 1.513 8015
1.295 -0.108 1.515 7218
1.294 -0.107 1.506 8696
1.298 -0.108 1.502 13109
1.296 -0.108 1.492 22025
1.295 -0.108 1.483 41462
1.304 -0.108 1.485 55110
1.308 -0.109 1.481 59781
1.312 -0.109 1.477 60491
1.316 -0.109 1.473 55765
1.314 -0.109 1.463 45951
1.318 -0.109 1.459 41639
1.372 -0.114 1.505 38770
1.382 -0.115 1.507 52707
1.392 -0.116 1.508 53622
1.396 -0.116 1.504 42234
1.405 -0.117 1.505 27353
1.415 -0.118 1.506 27334
1.413 -0.117 1.497 29538
1.417 -0.118 1.493 20826
1.433 -0.119 1.499 15032
1.448 -0.120 1.506 19888
1.458 -0.121 1.507 23731
1.462 -0.121 1.502 24308
1.472 -0.122 1.503 21379
1.470 -0.122 1.494 14208
1.497 -0.124 1.510 8552
1.507 -0.125 1.511 12446
1.517 -0.126 1.512 10032
1.527 -0.127 1.513 11202
1.531 -0.127 1.508 19010
1.541 -0.128 1.509 18678
1.544 -0.128 1.504 11622
1.554 -0.129 1.505 8363
1.558 -0.129 1.500 10878
1.568 -0.130 1.500 18901
1.578 -0.131 1.501 24319
1.594 -0.132 1.506 18353
1.598 -0.133 1.502 9328
1.602 -0.133 1.497 5467
1.600 -0.133 1.487 5378
1.610 -0.134 1.487 5198
1.632 -0.136 1.498 5903
1.636 -0.136 1.493 9779
1.640 -0.136 1.488 14187
1.638 -0.136 1.478 13919
1.648 -0.137 1.478 12427
1.664 -0.138 1.483 12067
1.680 -0.140 1.488 11445
1.678 -0.139 1.478 10565
1.676 -0.139 1.468 11223
1.686 -0.140 1.468 13762
1.696 -0.141 1.468 16229
1.706 -0.142 1.468 14063
1.729 -0.144 1.477 18560
1.739 -0.144 1.477 31247
1.743 -0.145 1.471 32101
1.740 -0.145 1.461 23827
1.757 -0.146 1.466 23085
1.767 -0.147 1.465 26245
1.777 -0.148 1.465 25060
1.787 -0.148 1.464 21897
1.791 -0.149 1.459 16099
1.795 -0.149 1.453 10393
1.824 -0.152 1.466 11443
1.828 -0.152 1.461 17599
1.838 -0.153 1.460 22264
1.849 -0.154 1.459 19692
1.853 -0.154 1.454 17171
1.850 -0.154 1.444 12963
1.854 -0.154 1.438 7120
1.916 -0.159 1.473 6685
1.881 -0.156 1.441 6505
1.871 -0.155 1.426 6156
1.875 -0.156 1.421 6061
1.938 -0.161 1.454 10147
1.935 -0.161 1.444 16220
1.939 -0.161 1.439 16971
1.949 -0.162 1.437 16629
1.953 -0.162 1.431 12699
1.996 -0.166 1.451 7275
2.020 -0.168 1.458 8400
2.017 -0.168 1.448 9989
1.941 -0.161 1.391 12904
1.951 -0.162 1.390 13934
1.962 -0.163 1.388 12659
1.985 -0.165 1.395 11974
1.996 -0.166 1.393 10332
2.020 -0.168 1.400 8828
2.023 -0.168 1.394 7554
2.101 -0.174 1.433 8107
2.098 -0.174 1.422 10188
2.109 -0.175 1.420 9886
2.112 -0.175 1.414 8576
2.116 -0.176 1.408 7355
2.126 -0.177 1.405 6568
2.144 -0.178 1.407 6500
2.140 -0.178 1.397 7520
2.137 -0.178 1.386 8849
2.141 -0.178 1.380 8946
2.151 -0.179 1.378 7698
2.196 -0.182 1.394 9157
2.207 -0.183 1.392 10909
2.224 -0.185 1.393 11517
2.242 -0.186 1.394 10893
2.273 -0.189 1.402 8836
2.297 -0.191 1.407 9293
2.315 -0.192 1.408 9431
2.325 -0.193 1.405 10618
2.329 -0.193 1.398 11193
2.326 -0.193 1.387 11353
2.329 -0.193 1.380 9379
2.340 -0.194 1.377 5845
2.372 -0.197 1.385 4874
2.368 -0.197 1.374 3847
2.414 -0.200 1.388 3290
2.410 -0.200 1.378 7151
2.414 -0.200 1.371 11156
2.410 -0.200 1.360 16320
2.414 -0.200 1.353 21592
2.417 -0.201 1.346 19337
2.414 -0.200 1.335 17517
2.417 -0.201 1.328 17517
2.421 -0.201 1.321 15498
2.431 -0.202 1.317 13622
2.449 -0.203 1.317 12491
2.467 -0.205 1.316 12458
2.477 -0.206 1.312 9925
2.488 -0.207 1.308 7707
2.627 -0.218 1.363 6289
2.638 -0.219 1.359 7107
2.663 -0.221 1.361 6465
2.674 -0.222 1.356 6681
2.677 -0.222 1.348 6681
2.681 -0.223 1.340 5290
2.684 -0.223 1.332 3900
2.746 -0.228 1.350 3624
2.756 -0.229 1.345 3922
2.760 -0.229 1.336 1961
2.480 -0.206 1.208 795
0.629 -0.053 1.583 6897
0.640 -0.054 1.596 9331
0.647 -0.055 1.601 12639
0.655 -0.056 1.606 12955
0.662 -0.056 1.611 13771
0.667 -0.057 1.609 11591
0.674 -0.057 1.614 8514
0.679 -0.058 1.612 7268
0.686 -0.058 1.617 10854
0.691 -0.059 1.615 14552
0.695 -0.059 1.613 17988
0.703 -0.060 1.618 21624
0.707 -0.060 1.616 19166
0.711 -0.060 1.614 16708
0.715 -0.061 1.612 12159
0.720 -0.061 1.610 7580
0.720 -0.061 1.600 8206
0.728 -0.062 1.605 9330
0.732 -0.062 1.603 11258
0.737 -0.062 1.601 13666
0.741 -0.063 1.599 13714
0.749 -0.064 1.603 13826
0.753 -0.064 1.601 14034
0.761 -0.065 1.606 14016
0.765 -0.065 1.604 14922
0.766 -0.065 1.594 14145
0.770 -0.065 1.592 12137
0.778 -0.066 1.597 11207
0.786 -0.067 1.601 9419
0.798 -0.068 1.613 8223
0.802 -0.068 1.610 6286
0.810 -0.069 1.615 4374
0.814 -0.069 1.612 4338
0.819 -0.069 1.610 4303
0.819 -0.069 1.600 7710
0.823 -0.070 1.598 12271
0.827 -0.070 1.595 15647
0.832 -0.071 1.593 20118
0.836 -0.071 1.590 22221
0.840 -0.071 1.588 25629
0.844 -0.072 1.585 29439
0.848 -0.072 1.583 30533
0.853 -0.072 1.580 33359
0.857 -0.073 1.578 35493
0.861 -0.073 1.575 35697
0.869 -0.074 1.579 30570
0.873 -0.074 1.577 24226
0.878 -0.074 1.574 17274
0.877 -0.074 1.565 8458
0.882 -0.075 1.562 6134
0.881 -0.075 1.553 4677
0.885 -0.075 1.550 3241
0.903 -0.077 1.567 3386
0.924 -0.078 1.591 5461
0.928 -0.079 1.588 10985
0.932 -0.079 1.586 15599
0.937 -0.079 1.583 21594
0.941 -0.080 1.580 30154
0.945 -0.080 1.577 33629
0.949 -0.080 1.574 32816
0.958 -0.081 1.578 26881
0.966 -0.082 1.582 15059
0.979 -0.083 1.592 9298
0.975 -0.083 1.576 8883
0.979 -0.083 1.573 7978
0.987 -0.084 1.576 6039
0.992 -0.084 1.574 6453
0.996 -0.084 1.571 9292
1.000 -0.085 1.568 11829
0.999 -0.085 1.558 11545
1.013 -0.086 1.568 11352
1.017 -0.086 1.565 12828
1.026 -0.087 1.568 12066
1.030 -0.087 1.565 10148
1.039 -0.088 1.568 12133
1.043 -0.088 1.565 19079
1.052 -0.089 1.568 23467
1.061 -0.090 1.572 23900
1.069 -0.091 1.575 21027
1.078 -0.091 1.578 21856
1.078 -0.091 1.568 25373
1.082 -0.092 1.565 25075
1.091 -0.093 1.568 24616
1.100 -0.093 1.571 26135
1.104 -0.094 1.568 22479
1.108 -0.094 1.564 13976
1.117 -0.095 1.567 8695
1.121 -0.095 1.564 12748
1.125 -0.095 1.561 17848
1.130 -0.096 1.557 16749
1.134 -0.096 1.554 12558
1.143 -0.097 1.557 8015
1.177 -0.100 1.590 7780
1.176 -0.100 1.580 11509
1.180 -0.100 1.577 13339
1.190 -0.101 1.579 12586
1.189 -0.101 1.569 17999
1.193 -0.101 1.566 22756
1.197 -0.102 1.562 17504
1.222 -0.104 1.583 13747
1.226 -0.104 1.579 14925
1.230 -0.104 1.575 15461
1.234 -0.105 1.572 20131
1.233 -0.105 1.562 25446
1.237 -0.105 1.558 20843
1.236 -0.105 1.549 15667
1.230 -0.104 1.533 12325
1.223 -0.104 1.518 10323
1.227 -0.104 1.514 15679
1.236 -0.105 1.517 17084
1.246 -0.106 1.519 14487
1.250 -0.106 1.515 11279
1.254 -0.106 1.511 8275
1.247 -0.106 1.496 5390
1.240 -0.105 1.481 2834
1.287 -0.109 1.523 3370
1.286 -0.109 1.513 5051
1.295 -0.110 1.515 5014
1.299 -0.110 1.511 7732
1.314 -0.111 1.519 11311
1.307 -0.111 1.504 17223
1.294 -0.110 1.483 32215
1.304 -0.111 1.485 46375
1.308 -0.111 1.481 53331
1.312 -0.111 1.477 54944
1.315 -0.112 1.473 48757
1.314 -0.111 1.463 34103
1.323 -0.112 1.465 30530
1.372 -0.116 1.505 33486
1.382 -0.117 1.507 51383
1.391 -0.118 1.508 53823
1.395 -0.118 1.504 44107
1.411 -0.120 1.511 30827
1.415 -0.120 1.506 30259
1.413 -0.120 1.497 29382
1.417 -0.120 1.493 19384
1.438 -0.122 1.504 15445
1.448 -0.123 1.506 21442
1.452 -0.123 1.501 25814
1.462 -0.124 1.502 22558
1.471 -0.125 1.503 17145
1.469 -0.125 1.494 11780
1.503 -0.127 1.516 7422
1.507 -0.128 1.511 10260
1.505 -0.128 1.501 10599
1.526 -0.129 1.513 13400
1.530 -0.130 1.508 20357
1.540 -0.131 1.509 18923
1.544 -0.131 1.504 13209
1.554 -0.132 1.505 12600
1.552 -0.132 1.495 14639
1.568 -0.133 1.500 20900
1.578 -0.134 1.501 26826
1.588 -0.135 1.501 19451
1.592 -0.135 1.497 8257
1.596 -0.135 1.492 4650
1.606 -0.136 1.492 5878
1.616 -0.137 1.492 6733
1.632 -0.138 1.498 7638
1.636 -0.139 1.493 10145
1.634 -0.139 1.483 11751
1.644 -0.139 1.483 10429
1.654 -0.140 1.483 11497
1.670 -0.142 1.488 12708
1.680 -0.143 1.488 11652
1.678 -0.142 1.478 11681
1.675 -0.142 1.468 11770
1.685 -0.143 1.468 12900
1.696 -0.144 1.468 15067
1.706 -0.145 1.468 14162
1.728 -0.147 1.477 20281
1.739 -0.147 1.477 33195
1.742 -0.148 1.471 33876
1.740 -0.148 1.461 24619
1.756 -0.149 1.466 21908
1.767 -0.150 1.465 24436
1.777 -0.151 1.465 23206
1.787 -0.152 1.464 20315
1.791 -0.152 1.459 14754
1.807 -0.153 1.463 9908
1.831 -0.155 1.471 11224
1.834 -0.156 1.466 15165
1.838 -0.156 1.460 18671
1.848 -0.157 1.459 16597
1.852 -0.157 1.454 14885
1.850 -0.157 1.444 11508
1.853 -0.157 1.438 7396
1.922 -0.163 1.477 7307
1.920 -0.163 1.467 6553
1.891 -0.160 1.439 7165
1.908 -0.162 1.443 7951
1.938 -0.164 1.454 11553
1.935 -0.164 1.444 16547
1.939 -0.164 1.439 17805
1.949 -0.165 1.437 17620
1.953 -0.166 1.431 13461
1.996 -0.169 1.451 7511
2.020 -0.171 1.458 9647
2.017 -0.171 1.448 12027
2.027 -0.172 1.446 11847
1.951 -0.165 1.390 12718
1.961 -0.166 1.388 12521
1.985 -0.168 1.395 11948
2.002 -0.170 1.397 10030
2.019 -0.171 1.400 8379
2.023 -0.172 1.394 7471
2.101 -0.178 1.433 7610
2.098 -0.178 1.422 10320
2.108 -0.179 1.420 10478
2.112 -0.179 1.414 9076
2.116 -0.179 1.408 7336
2.126 -0.180 1.405 6844
2.143 -0.182 1.407 7006
2.140 -0.182 1.397 8010
2.137 -0.181 1.386 8785
2.141 -0.182 1.380 8638
2.158 -0.183 1.382 7210
2.196 -0.186 1.394 7937
2.206 -0.187 1.392 10010
2.224 -0.189 1.393 11553
2.241 -0.190 1.394 11225
2.272 -0.193 1.402 8551
2.297 -0.195 1.407 9088
2.308 -0.196 1.404 9609
2.318 -0.197 1.401 10781
2.322 -0.197 1.394 11136
2.325 -0.197 1.387 11190
2.329 -0.198 1.380 9459
2.340 -0.198 1.377 5944
2.371 -0.201 1.385 4756
2.368 -0.201 1.374 3754
2.421 -0.205 1.392 3483
2.417 -0.205 1.381 6743
2.414 -0.205 1.371 10237
2.410 -0.204 1.360 15144
2.414 -0.205 1.353 20105
2.410 -0.204 1.342 17997
2.406 -0.204 1.332 16419
2.410 -0.204 1.325 16419
2.420 -0.205 1.321 15122
2.431 -0.206 1.317 14196
2.449 -0.208 1.317 13121
2.466 -0.209 1.316 13184
2.477 -0.210 1.312 10569
2.487 -0.211 1.308 8205
2.627 -0.223 1.363 6731
2.638 -0.224 1.359 7719
2.656 -0.225 1.358 6963
2.673 -0.227 1.356 6908
2.677 -0.227 1.348 6908
2.680 -0.227 1.340 5335
2.684 -0.228 1.332 3762
2.745 -0.233 1.350 3596
2.756 -0.234 1.345 3890
2.759 -0.234 1.336 1945
2.480 -0.210 1.208 905
0.629 -0.053 1.583 7894
0.640 -0.054 1.596 10017
0.647 -0.054 1.601 12967
0.655 -0.055 1.606 13347
0.663 -0.056 1.611 14324
0.667 -0.056 1.609 12257
0.674 -0.057 1.614 9249
0.679 -0.057 1.612 7969
0.683 -0.057 1.610 11242
0.691 -0.058 1.615 14585
0.695 -0.058 1.613 17834
0.703 -0.059 1.618 21280
0.707 -0.059 1.616 18822
0.711 -0.060 1.614 16364
0.715 -0.060 1.612 12112
0.720 -0.061 1.610 7903
0.724 -0.061 1.607 8428
0.728 -0.061 1.605 9430
0.732 -0.062 1.603 11202
0.737 -0.062 1.601 13251
0.741 -0.062 1.599 13288
0.749 -0.063 1.603 13683
0.753 -0.063 1.601 14074
0.761 -0.064 1.606 14264
0.765 -0.064 1.604 15273
0.766 -0.064 1.594 14434
0.770 -0.065 1.592 12416
0.778 -0.065 1.597 11507
0.786 -0.066 1.601 9793
0.798 -0.067 1.613 8539
0.802 -0.067 1.610 6449
0.806 -0.068 1.608 4359
0.815 -0.069 1.612 4819
0.819 -0.069 1.610 5287
0.819 -0.069 1.600 8889
0.823 -0.069 1.598 13427
0.828 -0.070 1.595 16620
0.832 -0.070 1.593 21013
0.836 -0.070 1.590 23014
0.840 -0.071 1.588 26553
0.844 -0.071 1.585 30435
0.848 -0.071 1.583 31601
0.853 -0.072 1.580 34108
0.857 -0.072 1.578 35792
0.861 -0.072 1.575 35774
0.869 -0.073 1.579 30312
0.869 -0.073 1.570 24024
0.873 -0.073 1.567 17627
0.878 -0.074 1.565 9191
0.882 -0.074 1.562 6834
0.881 -0.074 1.553 4934
0.886 -0.074 1.550 2999
0.903 -0.076 1.567 2913
0.924 -0.078 1.591 5142
0.928 -0.078 1.588 11473
0.928 -0.078 1.579 16770
0.937 -0.079 1.583 23519
0.941 -0.079 1.580 32882
0.945 -0.079 1.577 36486
0.949 -0.080 1.574 35007
0.958 -0.081 1.578 28442
0.966 -0.081 1.582 16702
0.975 -0.082 1.585 11324
0.975 -0.082 1.576 10739
0.979 -0.082 1.573 9700
0.987 -0.083 1.576 7063
0.992 -0.083 1.574 7278
0.996 -0.084 1.571 10490
1.000 -0.084 1.568 13686
1.004 -0.084 1.565 13562
1.008 -0.085 1.562 11760
1.017 -0.086 1.565 11721
1.021 -0.086 1.562 11033
1.030 -0.087 1.565 9207
1.039 -0.087 1.568 11086
1.043 -0.088 1.565 17328
1.052 -0.088 1.568 21044
1.056 -0.089 1.565 21548
1.065 -0.090 1.568 18971
1.079 -0.091 1.578 19150
1.078 -0.091 1.568 22294
1.082 -0.091 1.565 22664
1.091 -0.092 1.568 22484
1.100 -0.093 1.571 24513
1.104 -0.093 1.568 21976
1.108 -0.093 1.564 14797
1.122 -0.094 1.573 9480
1.126 -0.095 1.570 11962
1.126 -0.095 1.561 15825
1.130 -0.095 1.557 14895
1.134 -0.095 1.554 11414
1.143 -0.096 1.557 7523
1.177 -0.099 1.590 7797
1.181 -0.099 1.586 11204
1.181 -0.099 1.577 12503
1.190 -0.100 1.579 12001
1.189 -0.100 1.569 18060
1.193 -0.100 1.566 22792
1.197 -0.101 1.562 17708
1.217 -0.102 1.577 14435
1.226 -0.103 1.579 17229
1.230 -0.103 1.575 18994
1.234 -0.104 1.572 22750
1.233 -0.104 1.562 27102
1.243 -0.105 1.564 22865
1.241 -0.104 1.555 18278
1.235 -0.104 1.539 14421
1.223 -0.103 1.518 12814
1.227 -0.103 1.514 19911
1.236 -0.104 1.517 19842
1.240 -0.104 1.513 13974
1.250 -0.105 1.515 9403
1.259 -0.106 1.517 7558
1.263 -0.106 1.513 5347
1.283 -0.108 1.527 3859
1.282 -0.108 1.517 3811
1.264 -0.106 1.491 3462
1.262 -0.106 1.481 4007
1.316 -0.111 1.528 8552
1.331 -0.112 1.536 13842
1.329 -0.112 1.526 17441
1.306 -0.110 1.494 24355
1.304 -0.110 1.485 31744
1.308 -0.110 1.481 36752
1.312 -0.110 1.477 40469
1.315 -0.111 1.473 34847
1.364 -0.115 1.513 24310
1.329 -0.112 1.471 21083
1.378 -0.116 1.511 29236
1.382 -0.116 1.507 49228
1.392 -0.117 1.508 53464
1.401 -0.118 1.509 46006
1.411 -0.119 1.511 34793
1.415 -0.119 1.506 32875
1.413 -0.119 1.497 28357
1.417 -0.119 1.493 17789
1.438 -0.121 1.504 15338
1.448 -0.122 1.506 23529
1.452 -0.122 1.501 30166
1.462 -0.123 1.502 21969
1.471 -0.124 1.503 12831
1.475 -0.124 1.499 10148
1.503 -0.126 1.516 7602
1.507 -0.127 1.511 9459
1.505 -0.127 1.501 12596
1.527 -0.128 1.513 15936
1.530 -0.129 1.508 21218
1.534 -0.129 1.503 19146
1.544 -0.130 1.504 14680
1.554 -0.131 1.505 16177
1.552 -0.131 1.495 18393
1.568 -0.132 1.500 23057
1.578 -0.133 1.501 28746
1.582 -0.133 1.496 21506
1.586 -0.133 1.492 10669
1.596 -0.134 1.492 7060
1.606 -0.135 1.492 7958
1.616 -0.136 1.492 8570
1.632 -0.137 1.498 9754
1.636 -0.138 1.493 11606
1.640 -0.138 1.488 10541
1.650 -0.139 1.488 8690
1.660 -0.140 1.488 11748
1.670 -0.140 1.488 12865
1.674 -0.141 1.483 11391
1.678 -0.141 1.478 11983
1.675 -0.141 1.468 11636
1.686 -0.142 1.468 11588
1.696 -0.143 1.468 13488
1.706 -0.143 1.468 14131
1.722 -0.145 1.472 21618
1.739 -0.146 1.477 33801
1.742 -0.147 1.471 34321
1.740 -0.146 1.461 24833
1.756 -0.148 1.466 20734
1.767 -0.149 1.465 22627
1.777 -0.149 1.465 21221
1.787 -0.150 1.464 18591
1.791 -0.151 1.459 13190
1.820 -0.153 1.472 9543
1.831 -0.154 1.471 10817
1.834 -0.154 1.466 13262
1.845 -0.155 1.465 15292
1.849 -0.156 1.459 12989
1.846 -0.155 1.449 11861
1.856 -0.156 1.448 10006
1.886 -0.159 1.461 9056
1.916 -0.161 1.473 8418
1.920 -0.161 1.467 8267
1.904 -0.160 1.448 10083
1.908 -0.160 1.443 11626
1.931 -0.162 1.450 12917
1.941 -0.163 1.449 16496
1.945 -0.164 1.443 18276
1.949 -0.164 1.437 18484
1.953 -0.164 1.431 14110
1.996 -0.168 1.451 7721
2.020 -0.170 1.458 10892
2.017 -0.170 1.448 13892
2.028 -0.171 1.446 13603
2.045 -0.172 1.449 13872
2.048 -0.172 1.443 13835
2.052 -0.173 1.436 12676
2.016 -0.170 1.406 9967
2.026 -0.170 1.404 7875
2.030 -0.171 1.398 7413
2.087 -0.176 1.424 7165
2.098 -0.176 1.422 10466
2.108 -0.177 1.420 11119
2.112 -0.178 1.414 9684
2.116 -0.178 1.408 7401
2.126 -0.179 1.405 6919
2.137 -0.180 1.403 6895
2.140 -0.180 1.397 7925
2.144 -0.180 1.390 8689
2.141 -0.180 1.380 8461
2.151 -0.181 1.378 6808
2.189 -0.184 1.391 6525
2.220 -0.187 1.400 8971
2.224 -0.187 1.393 11365
2.241 -0.189 1.394 11401
2.266 -0.191 1.399 8437
2.304 -0.194 1.411 9151
2.308 -0.194 1.404 9957
2.318 -0.195 1.401 11005
2.322 -0.195 1.394 11035
2.326 -0.196 1.387 10901
2.329 -0.196 1.380 9638
2.333 -0.196 1.373 6415
2.364 -0.199 1.381 4812
2.361 -0.199 1.370 3904
2.421 -0.204 1.392 3463
2.417 -0.203 1.381 6164
2.407 -0.202 1.367 9196
2.410 -0.203 1.360 13720
2.414 -0.203 1.353 18243
2.410 -0.203 1.342 16471
2.407 -0.202 1.332 15283
2.410 -0.203 1.325 15283
2.420 -0.204 1.321 14454
2.438 -0.205 1.320 14444
2.449 -0.206 1.317 13390
2.466 -0.207 1.316 13551
2.477 -0.208 1.312 10897
2.487 -0.209 1.308 8453
2.627 -0.221 1.363 7018
2.645 -0.223 1.362 8152
2.656 -0.223 1.358 7323
2.674 -0.225 1.356 7011
2.677 -0.225 1.348 7011
2.681 -0.226 1.340 5309
2.677 -0.225 1.329 3613
2.745 -0.231 1.350 3597
2.756 -0.232 1.345 3867
2.760 -0.232 1.336 1933
2.480 -0.209 1.208 989
0.629 -0.054 1.583 7963
0.640 -0.055 1.596 9866
0.647 -0.056 1.601 12511
0.655 -0.056 1.606 12983
0.662 -0.057 1.611 14080
0.670 -0.057 1.616 12115
0.674 -0.058 1.614 9231
0.679 -0.058 1.612 7956
0.683 -0.059 1.610 10821
0.691 -0.059 1.615 13715
0.695 -0.060 1.613 16760
0.703 -0.060 1.618 20053
0.707 -0.061 1.616 17807
0.711 -0.061 1.614 15560
0.715 -0.061 1.612 11944
0.723 -0.062 1.617 8657
0.724 -0.062 1.607 9115
0.728 -0.062 1.605 10134
0.736 -0.063 1.610 11716
0.737 -0.063 1.601 13062
0.744 -0.064 1.606 13013
0.749 -0.064 1.603 13640
0.753 -0.065 1.601 14174
0.761 -0.065 1.606 14584
0.765 -0.066 1.604 15642
0.766 -0.066 1.594 14709
0.770 -0.066 1.592 12546
0.778 -0.067 1.597 11542
0.786 -0.067 1.601 9788
0.794 -0.068 1.606 8387
0.802 -0.069 1.610 6138
0.810 -0.069 1.615 3960
0.814 -0.070 1.612 4927
0.819 -0.070 1.610 5895
0.819 -0.070 1.600 9547
0.823 -0.071 1.598 14084
0.831 -0.071 1.602 17318
0.832 -0.071 1.593 21660
0.836 -0.072 1.590 23662
0.840 -0.072 1.588 27211
0.844 -0.072 1.585 31033
0.848 -0.073 1.583 32159
0.853 -0.073 1.580 34188
0.857 -0.073 1.578 35364
0.861 -0.074 1.575 35189
0.869 -0.075 1.579 29696
0.869 -0.075 1.570 23895
0.873 -0.075 1.567 18013
0.877 -0.075 1.565 9986
0.882 -0.076 1.562 7421
0.881 -0.076 1.553 5293
0.890 -0.076 1.557 2813
0.894 -0.077 1.554 2050
0.924 -0.079 1.591 4212
0.924 -0.079 1.582 11523
0.928 -0.080 1.579 17360
0.936 -0.080 1.583 24725
0.941 -0.081 1.580 35112
0.945 -0.081 1.577 39183
0.953 -0.082 1.581 37555
0.958 -0.082 1.578 30355
0.966 -0.083 1.582 18523
0.975 -0.084 1.585 13324
0.974 -0.084 1.576 12349
0.979 -0.084 1.573 10643
0.983 -0.084 1.570 7462
0.991 -0.085 1.574 7757
0.991 -0.085 1.564 11530
1.000 -0.086 1.568 15401
1.004 -0.086 1.565 15491
1.008 -0.086 1.562 12011
1.017 -0.087 1.565 10663
1.021 -0.088 1.562 10421
1.030 -0.088 1.565 8588
1.039 -0.089 1.568 10319
1.043 -0.089 1.565 15974
1.052 -0.090 1.568 19118
1.056 -0.091 1.565 19452
1.065 -0.091 1.568 16790
1.078 -0.092 1.578 15908
1.078 -0.092 1.568 18870
1.082 -0.093 1.565 20137
1.091 -0.094 1.568 20486
1.100 -0.094 1.571 23053
1.104 -0.095 1.568 21465
1.108 -0.095 1.564 15643
1.122 -0.096 1.573 10347
1.126 -0.097 1.570 10692
1.130 -0.097 1.567 13008
1.129 -0.097 1.557 12133
1.134 -0.097 1.554 9292
1.143 -0.098 1.557 6337
1.177 -0.101 1.590 6913
1.181 -0.101 1.586 10059
1.180 -0.101 1.577 11580
1.185 -0.102 1.573 10953
1.189 -0.102 1.569 17115
1.188 -0.102 1.560 23202
1.192 -0.102 1.556 18154
1.217 -0.104 1.577 14683
1.226 -0.105 1.579 18997
1.230 -0.105 1.575 22457
1.234 -0.106 1.572 24896
1.233 -0.106 1.562 27735
1.242 -0.107 1.564 24616
1.241 -0.106 1.555 20612
1.240 -0.106 1.545 16619
1.223 -0.105 1.518 14311
1.227 -0.105 1.514 22184
1.231 -0.106 1.511 20972
1.240 -0.106 1.513 12436
1.249 -0.107 1.515 6873
1.253 -0.107 1.511 7840
1.263 -0.108 1.513 8862
1.272 -0.109 1.515 7455
1.287 -0.110 1.523 5882
1.291 -0.111 1.519 5077
1.290 -0.111 1.510 7108
1.316 -0.113 1.528 12432
1.331 -0.114 1.536 17923
1.335 -0.114 1.532 21183
1.328 -0.114 1.517 19806
1.304 -0.112 1.485 17188
1.308 -0.112 1.481 19442
1.311 -0.112 1.477 23629
1.355 -0.116 1.512 22269
1.364 -0.117 1.513 25140
1.374 -0.118 1.515 19894
1.378 -0.118 1.511 27429
1.387 -0.119 1.512 46511
1.391 -0.119 1.508 52126
1.401 -0.120 1.509 47258
1.411 -0.121 1.511 38516
1.415 -0.121 1.506 34678
1.419 -0.122 1.502 26523
1.417 -0.121 1.493 15588
1.438 -0.123 1.504 13966
1.448 -0.124 1.506 24847
1.452 -0.124 1.501 35007
1.461 -0.125 1.502 22394
1.477 -0.127 1.508 9651
1.487 -0.128 1.509 10289
1.503 -0.129 1.516 10091
1.507 -0.129 1.511 12138
1.511 -0.130 1.507 15570
1.520 -0.130 1.507 18001
1.530 -0.131 1.508 21364
1.534 -0.132 1.503 19229
1.544 -0.132 1.504 15604
1.554 -0.133 1.505 18334
1.552 -0.133 1.495 21174
1.562 -0.134 1.495 24916
1.572 -0.135 1.496 30319
1.582 -0.136 1.496 24540
1.586 -0.136 1.492 15058
1.596 -0.137 1.492 11073
1.606 -0.138 1.492 10458
1.616 -0.139 1.492 10298
1.632 -0.140 1.498 12525
1.636 -0.140 1.493 14248
1.640 -0.141 1.488 10924
1.656 -0.142 1.493 9023
1.666 -0.143 1.493 12535
1.670 -0.143 1.488 12543
1.674 -0.144 1.483 10684
1.678 -0.144 1.478 11575
1.675 -0.144 1.468 11067
1.679 -0.144 1.463 10020
1.689 -0.145 1.463 11218
1.706 -0.146 1.468 13517
1.722 -0.148 1.472 22516
1.732 -0.149 1.472 33255
1.742 -0.149 1.471 33432
1.740 -0.149 1.461 24571
1.750 -0.150 1.461 19201
1.766 -0.151 1.465 19393
1.777 -0.152 1.465 17763
1.793 -0.154 1.469 15898
1.797 -0.154 1.463 11531
1.827 -0.157 1.476 9027
1.837 -0.158 1.476 10212
1.841 -0.158 1.470 11922
1.844 -0.158 1.465 12516
1.848 -0.159 1.459 9178
1.846 -0.158 1.449 8034
1.862 -0.160 1.453 8503
1.892 -0.162 1.465 11998
1.909 -0.164 1.468 10240
1.919 -0.165 1.467 10672
1.904 -0.163 1.448 13865
1.907 -0.164 1.443 16185
1.918 -0.164 1.441 15634
1.941 -0.166 1.449 16367
1.945 -0.167 1.443 18379
1.949 -0.167 1.437 19111
1.952 -0.167 1.431 14636
1.996 -0.171 1.451 7715
2.020 -0.173 1.458 11944
2.017 -0.173 1.448 15488
2.027 -0.174 1.446 15198
2.044 -0.175 1.449 15899
2.048 -0.176 1.443 15832
2.052 -0.176 1.436 14205
2.029 -0.174 1.414 10230
2.026 -0.174 1.404 7466
2.029 -0.174 1.398 7421
2.080 -0.178 1.420 7532
2.098 -0.180 1.422 11029
2.108 -0.181 1.420 11888
2.119 -0.182 1.418 10124
2.122 -0.182 1.412 7023
2.133 -0.183 1.409 6759
2.136 -0.183 1.403 6532
2.140 -0.184 1.397 7686
2.150 -0.184 1.394 8464
2.147 -0.184 1.384 8086
2.158 -0.185 1.382 6180
2.189 -0.188 1.391 5055
2.220 -0.190 1.400 7611
2.224 -0.191 1.393 10892
2.234 -0.192 1.390 11363
2.252 -0.193 1.391 8457
2.304 -0.198 1.411 9512
2.307 -0.198 1.404 10405
2.311 -0.198 1.397 11297
2.322 -0.199 1.394 10702
2.325 -0.199 1.387 10241
2.329 -0.200 1.380 9612
2.332 -0.200 1.373 6928
2.357 -0.202 1.377 5090
2.339 -0.201 1.360 4428
2.343 -0.201 1.353 3933
2.396 -0.205 1.371 5380
2.406 -0.206 1.367 8103
2.410 -0.207 1.360 12064
2.413 -0.207 1.353 16025
2.410 -0.207 1.342 14700
2.406 -0.206 1.332 13963
2.410 -0.207 1.325 13963
2.420 -0.208 1.321 13558
2.438 -0.209 1.320 14380
2.448 -0.210 1.317 13338
2.473 -0.212 1.319 13575
2.477 -0.212 1.312 10890
2.487 -0.213 1.308 8433
2.627 -0.225 1.363 7201
2.645 -0.227 1.362 8486
2.655 -0.228 1.358 7591
2.666 -0.229 1.353 7112
2.670 -0.229 1.345 7112
2.673 -0.229 1.337 5290
2.734 -0.234 1.355 3604
2.745 -0.235 1.350 3666
2.821 -0.242 1.373 3946
2.825 -0.242 1.364 1973
2.479 -0.213 1.208 1080
0.629 -0.055 1.583 8613
0.640 -0.056 1.596 10284
0.647 -0.057 1.601 12536
0.655 -0.058 1.606 12970
0.662 -0.058 1.611 14049
0.670 -0.059 1.616 12020
0.674 -0.059 1.614 9038
0.678 -0.060 1.612 7774
0.683 -0.060 1.610 10161
0.690 -0.061 1.615 12572
0.695 -0.061 1.613 15480
0.702 -0.062 1.618 18665
0.707 -0.062 1.616 16622
0.711 -0.063 1.614 14579
0.719 -0.063 1.619 12076
0.723 -0.064 1.617 9745
0.724 -0.064 1.607 9955
0.732 -0.065 1.612 10835
0.736 -0.065 1.610 12272
0.736 -0.065 1.601 13030
0.744 -0.066 1.606 12765
0.749 -0.066 1.603 13520
0.753 -0.066 1.601 14237
0.761 -0.067 1.606 14888
0.765 -0.068 1.604 15983
0.769 -0.068 1.601 14958
0.770 -0.068 1.592 12693
0.778 -0.069 1.597 11610
0.786 -0.069 1.601 9727
0.794 -0.070 1.606 8125
0.802 -0.071 1.610 5806
0.806 -0.071 1.608 3594
0.814 -0.072 1.612 5051
0.819 -0.072 1.610 6513
0.823 -0.073 1.607 9890
0.823 -0.073 1.598 13999
0.831 -0.073 1.602 17232
0.831 -0.073 1.593 21590
0.836 -0.074 1.590 23803
0.840 -0.074 1.588 27276
0.844 -0.074 1.585 30924
0.848 -0.075 1.583 31899
0.852 -0.075 1.580 33568
0.857 -0.076 1.578 34439
0.861 -0.076 1.575 34177
0.869 -0.077 1.579 28809
0.869 -0.077 1.570 23412
0.873 -0.077 1.567 18058
0.877 -0.077 1.565 10567
0.881 -0.078 1.562 7991
0.885 -0.078 1.559 5775
0.890 -0.078 1.557 2907
0.894 -0.079 1.554 1787
0.924 -0.082 1.591 3994
0.924 -0.081 1.582 11252
0.928 -0.082 1.579 17441
0.936 -0.083 1.583 25690
0.940 -0.083 1.580 37379
0.945 -0.083 1.577 41986
0.953 -0.084 1.581 40231
0.957 -0.084 1.578 32270
0.966 -0.085 1.582 20464
0.975 -0.086 1.585 15418
0.974 -0.086 1.576 13643
0.978 -0.086 1.573 10896
0.983 -0.087 1.570 7666
0.987 -0.087 1.567 8330
0.991 -0.087 1.564 12604
1.000 -0.088 1.568 16941
1.004 -0.089 1.565 17002
1.008 -0.089 1.562 11804
1.017 -0.090 1.565 9455
1.021 -0.090 1.562 9716
1.034 -0.091 1.572 8068
1.038 -0.092 1.568 9590
1.042 -0.092 1.565 14690
1.051 -0.093 1.568 17418
1.055 -0.093 1.565 17387
1.064 -0.094 1.568 14379
1.073 -0.095 1.572 12181
1.077 -0.095 1.568 14329
1.082 -0.095 1.565 16056
1.091 -0.096 1.568 17252
1.100 -0.097 1.571 21072
1.099 -0.097 1.562 21238
1.108 -0.098 1.564 16754
1.117 -0.099 1.567 11475
1.126 -0.099 1.570 9922
1.130 -0.100 1.567 10545
1.134 -0.100 1.563 9806
1.133 -0.100 1.554 7346
1.137 -0.100 1.550 5444
1.177 -0.104 1.590 6001
1.176 -0.104 1.580 8909
1.180 -0.104 1.577 10294
1.184 -0.105 1.573 9510
1.183 -0.104 1.563 15669
1.187 -0.105 1.560 22831
1.191 -0.105 1.556 18716
1.216 -0.107 1.577 14691
1.220 -0.108 1.573 20207
1.230 -0.109 1.575 25129
1.234 -0.109 1.572 26088
1.238 -0.109 1.568 27747
1.242 -0.110 1.564 25761
1.246 -0.110 1.561 22239
1.245 -0.110 1.551 17941
1.228 -0.108 1.524 15163
1.227 -0.108 1.514 23395
1.231 -0.109 1.511 21602
1.235 -0.109 1.507 10644
1.244 -0.110 1.509 4547
1.253 -0.111 1.511 8954
1.257 -0.111 1.508 12608
1.272 -0.112 1.515 10739
1.292 -0.114 1.529 8492
1.291 -0.114 1.519 8783
1.289 -0.114 1.510 11325
1.315 -0.116 1.528 16307
1.330 -0.117 1.536 21031
1.334 -0.118 1.532 23519
1.338 -0.118 1.528 20278
1.353 -0.119 1.535 16148
1.363 -0.120 1.537 17777
1.361 -0.120 1.527 19203
1.360 -0.120 1.517 23435
1.364 -0.120 1.513 26062
1.373 -0.121 1.515 21853
1.383 -0.122 1.516 27188
1.387 -0.122 1.512 43300
1.391 -0.123 1.508 49330
1.401 -0.124 1.509 46500
1.405 -0.124 1.505 39977
1.414 -0.125 1.506 34467
1.418 -0.125 1.502 23991
1.416 -0.125 1.493 13451
1.432 -0.126 1.499 11539
1.447 -0.128 1.506 24078
1.451 -0.128 1.501 37589
1.455 -0.128 1.497 23978
1.483 -0.131 1.514 9477
1.492 -0.132 1.515 11965
1.502 -0.133 1.516 13177
1.506 -0.133 1.511 15571
1.510 -0.133 1.507 17688
1.520 -0.134 1.507 18643
1.530 -0.135 1.508 20632
1.534 -0.135 1.503 18898
1.544 -0.136 1.504 15551
1.554 -0.137 1.505 18419
1.552 -0.137 1.495 21950
1.562 -0.138 1.495 25700
1.572 -0.139 1.496 31318
1.581 -0.140 1.496 27584
1.585 -0.140 1.492 19593
1.595 -0.141 1.492 14864
1.605 -0.142 1.492 12514
1.615 -0.143 1.492 12483
1.625 -0.143 1.493 16243
1.635 -0.144 1.493 17612
1.639 -0.145 1.488 12467
1.656 -0.146 1.493 10860
1.666 -0.147 1.493 13886
1.669 -0.147 1.488 12451
1.673 -0.148 1.483 9899
1.677 -0.148 1.478 10308
1.681 -0.148 1.473 9819
1.685 -0.149 1.468 8054
1.689 -0.149 1.463 9077
1.705 -0.150 1.468 13294
1.722 -0.152 1.472 22662
1.732 -0.153 1.472 31371
1.742 -0.154 1.471 31686
1.739 -0.153 1.461 23943
1.750 -0.154 1.461 17583
1.760 -0.155 1.460 15377
1.783 -0.157 1.469 13847
1.793 -0.158 1.469 13442
1.803 -0.159 1.468 10969
1.839 -0.162 1.486 8902
1.843 -0.163 1.480 9457
1.847 -0.163 1.475 11148
1.851 -0.163 1.469 11170
1.854 -0.164 1.464 6581
1.904 -0.168 1.490 5367
1.901 -0.168 1.480 9523
1.892 -0.167 1.465 15122
1.909 -0.168 1.468 12576
1.912 -0.169 1.463 13614
1.910 -0.169 1.453 17926
1.907 -0.168 1.443 20798
1.917 -0.169 1.441 19695
1.934 -0.171 1.444 16407
1.945 -0.172 1.443 17943
1.948 -0.172 1.437 19261
1.952 -0.172 1.431 14937
1.956 -0.173 1.426 7534
2.013 -0.178 1.454 12552
2.016 -0.178 1.448 16506
2.034 -0.179 1.450 16395
2.044 -0.180 1.449 17483
2.048 -0.181 1.443 17306
2.052 -0.181 1.436 15292
2.028 -0.179 1.414 10717
2.025 -0.179 1.404 7368
2.036 -0.180 1.402 7679
2.073 -0.183 1.416 8009
2.097 -0.185 1.422 11221
2.108 -0.186 1.420 12148
2.125 -0.188 1.422 10336
2.129 -0.188 1.416 6978
2.132 -0.188 1.409 6343
2.136 -0.188 1.403 5709
2.153 -0.190 1.405 7002
2.150 -0.190 1.394 8141
2.154 -0.190 1.388 7811
2.157 -0.190 1.382 5995
2.181 -0.193 1.387 4502
2.219 -0.196 1.400 6477
2.223 -0.196 1.393 10293
2.234 -0.197 1.390 11286
2.244 -0.198 1.387 8759
2.303 -0.203 1.411 9851
2.307 -0.204 1.404 10812
2.311 -0.204 1.397 11774
2.314 -0.204 1.390 10524
2.325 -0.205 1.387 9609
2.328 -0.205 1.380 9596
2.332 -0.206 1.373 7427
2.342 -0.207 1.370 5581
2.339 -0.206 1.360 4931
2.342 -0.207 1.353 4313
2.374 -0.210 1.360 5097
2.399 -0.212 1.364 7145
2.402 -0.212 1.356 10440
2.406 -0.212 1.349 13735
2.409 -0.213 1.342 12854
2.406 -0.212 1.332 12522
2.409 -0.213 1.325 12522
2.420 -0.214 1.321 12454
2.437 -0.215 1.320 13844
2.455 -0.217 1.320 12915
2.465 -0.218 1.316 13197
2.476 -0.219 1.312 10510
2.487 -0.219 1.308 8092
2.633 -0.232 1.367 7246
2.644 -0.233 1.362 8634
2.655 -0.234 1.358 7725
2.666 -0.235 1.353 7145
2.669 -0.236 1.345 7145
2.672 -0.236 1.337 5243
2.734 -0.241 1.355 3728
2.744 -0.242 1.350 3745
2.820 -0.249 1.373 4656
2.824 -0.249 1.364 2328
2.479 -0.219 1.208 1140
0.629 -0.057 1.583 9126
0.640 -0.058 1.596 10589
0.647 -0.058 1.601 12494
0.655 -0.059 1.606 12908
0.662 -0.060 1.611 13962
0.670 -0.060 1.616 11823
0.674 -0.061 1.614 8738
0.678 -0.061 1.612 7495
0.686 -0.062 1.617 9356
0.690 -0.062 1.615 11233
0.695 -0.063 1.613 13986
0.702 -0.063 1.618 17080
0.707 -0.064 1.616 15380
0.714 -0.065 1.621 13780
0.719 -0.065 1.619 12525
0.723 -0.065 1.617 11170
0.724 -0.065 1.607 11052
0.731 -0.066 1.612 11539
0.736 -0.066 1.610 12712
0.736 -0.066 1.601 12856
0.740 -0.067 1.599 12312
0.748 -0.068 1.603 13294
0.753 -0.068 1.601 14355
0.761 -0.069 1.606 15294
0.765 -0.069 1.604 16491
0.769 -0.069 1.601 15389
0.773 -0.070 1.599 12940
0.777 -0.070 1.597 11729
0.786 -0.071 1.601 9691
0.794 -0.072 1.606 7849
0.802 -0.072 1.610 5472
0.806 -0.073 1.608 3285
0.814 -0.074 1.612 5215
0.818 -0.074 1.610 7149
0.823 -0.074 1.607 10246
0.827 -0.075 1.605 13958
0.831 -0.075 1.602 17061
0.831 -0.075 1.593 21378
0.835 -0.075 1.590 23751
0.840 -0.076 1.588 27060
0.844 -0.076 1.585 30421
0.848 -0.077 1.583 31159
0.852 -0.077 1.580 32379
0.856 -0.077 1.578 32911
0.861 -0.078 1.575 32653
0.869 -0.078 1.579 27565
0.869 -0.078 1.570 22644
0.873 -0.079 1.567 17827
0.877 -0.079 1.565 10884
0.881 -0.080 1.562 8285
0.885 -0.080 1.559 6012
0.911 -0.082 1.590 3248
0.919 -0.083 1.594 3199
0.924 -0.083 1.591 4597
0.923 -0.083 1.582 10895
0.928 -0.084 1.579 17345
0.936 -0.085 1.583 26555
0.940 -0.085 1.580 39263
0.944 -0.085 1.577 44074
0.953 -0.086 1.581 42113
0.962 -0.087 1.585 33983
0.966 -0.087 1.582 22176
0.974 -0.088 1.585 17116
0.974 -0.088 1.576 14563
0.974 -0.088 1.566 10913
0.982 -0.089 1.570 7648
0.987 -0.089 1.567 8599
0.991 -0.089 1.564 13132
0.999 -0.090 1.568 17854
1.008 -0.091 1.571 18045
1.012 -0.091 1.568 11634
1.016 -0.092 1.565 8656
1.025 -0.093 1.568 9374
1.034 -0.093 1.572 7963
1.038 -0.094 1.568 8823
1.042 -0.094 1.565 13118
1.051 -0.095 1.568 15761
1.055 -0.095 1.565 15483
1.059 -0.096 1.562 12235
1.068 -0.096 1.565 9077
1.077 -0.097 1.568 10606
1.081 -0.098 1.565 12441
1.090 -0.098 1.568 14395
1.094 -0.099 1.565 19720
1.099 -0.099 1.562 21738
1.108 -0.100 1.564 18145
1.117 -0.101 1.567 12616
1.126 -0.102 1.570 8980
1.135 -0.102 1.573 7903
1.134 -0.102 1.563 7350
1.133 -0.102 1.554 5270
1.132 -0.102 1.544 4322
1.156 -0.104 1.565 5354
1.166 -0.105 1.568 8003
1.175 -0.106 1.570 9056
1.179 -0.106 1.567 8080
1.183 -0.107 1.563 14018
1.187 -0.107 1.560 22322
1.191 -0.108 1.556 19594
1.211 -0.109 1.571 15281
1.220 -0.110 1.573 21314
1.230 -0.111 1.575 27018
1.234 -0.111 1.572 26395
1.238 -0.112 1.568 26923
1.242 -0.112 1.564 26110
1.246 -0.113 1.561 23167
1.245 -0.112 1.551 18936
1.233 -0.111 1.530 15855
1.226 -0.111 1.514 23488
1.230 -0.111 1.511 21706
1.240 -0.112 1.513 10850
1.254 -0.113 1.521 5546
1.253 -0.113 1.511 11804
1.257 -0.114 1.508 16738
1.272 -0.115 1.515 13918
1.292 -0.117 1.529 11510
1.291 -0.117 1.519 11911
1.289 -0.116 1.510 14840
1.315 -0.119 1.528 19821
1.330 -0.120 1.536 23193
1.334 -0.120 1.532 24404
1.338 -0.121 1.528 21344
1.353 -0.122 1.535 17338
1.363 -0.123 1.537 19136
1.361 -0.123 1.527 21128
1.365 -0.123 1.523 24215
1.364 -0.123 1.513 26036
1.373 -0.124 1.515 23661
1.377 -0.124 1.511 26574
1.387 -0.125 1.512 38543
1.396 -0.126 1.513 44511
1.400 -0.126 1.509 43336
1.404 -0.127 1.505 38807
1.414 -0.128 1.506 32905
1.418 -0.128 1.502 21382
1.416 -0.128 1.493 11712
1.432 -0.129 1.499 9092
1.447 -0.131 1.506 21328
1.457 -0.132 1.507 37232
1.455 -0.131 1.497 25180
1.482 -0.134 1.514 12413
1.492 -0.135 1.515 14334
1.502 -0.136 1.516 15443
1.506 -0.136 1.511 17875
1.516 -0.137 1.512 18231
1.520 -0.137 1.507 17758
1.530 -0.138 1.508 19174
1.534 -0.138 1.503 18150
1.544 -0.139 1.504 14677
1.553 -0.140 1.505 16878
1.551 -0.140 1.495 20966
1.561 -0.141 1.495 24972
1.571 -0.142 1.496 31326
1.581 -0.143 1.496 30058
1.585 -0.143 1.492 23279
1.595 -0.144 1.492 17577
1.605 -0.145 1.492 14144
1.615 -0.146 1.492 15762
1.625 -0.147 1.493 21159
1.629 -0.147 1.488 21515
1.639 -0.148 1.488 14669
1.655 -0.149 1.493 13381
1.665 -0.150 1.493 15320
1.669 -0.151 1.488 12594
1.673 -0.151 1.483 9205
1.677 -0.151 1.478 8833
1.681 -0.152 1.473 8765
1.685 -0.152 1.468 6577
1.695 -0.153 1.468 7221
1.705 -0.154 1.468 12904
1.721 -0.155 1.472 21530
1.731 -0.156 1.472 27931
1.742 -0.157 1.471 29306
1.745 -0.158 1.466 23563
1.749 -0.158 1.461 16492
1.759 -0.159 1.460 12533
1.782 -0.161 1.469 11015
1.793 -0.162 1.469 12053
1.809 -0.163 1.473 11668
1.839 -0.166 1.486 8833
1.849 -0.167 1.485 9006
1.853 -0.167 1.479 11176
1.857 -0.168 1.474 11060
1.861 -0.168 1.468 6397
1.897 -0.171 1.485 6297
1.894 -0.171 1.475 11578
1.891 -0.171 1.465 18077
1.902 -0.172 1.464 15145
1.912 -0.173 1.463 16586
1.909 -0.172 1.453 22020
1.907 -0.172 1.443 25236
1.917 -0.173 1.441 23702
1.927 -0.174 1.440 16549
1.951 -0.176 1.447 17154
1.948 -0.176 1.437 18946
1.952 -0.176 1.431 15009
1.955 -0.177 1.426 8071
2.012 -0.182 1.454 12660
2.016 -0.182 1.448 16828
2.033 -0.184 1.450 17119
2.044 -0.185 1.449 18520
2.047 -0.185 1.443 18251
2.044 -0.185 1.432 16079
2.035 -0.184 1.418 11509
2.032 -0.183 1.408 7872
2.042 -0.184 1.406 8214
2.066 -0.187 1.412 8541
2.097 -0.189 1.422 11202
2.114 -0.191 1.424 12301
2.131 -0.192 1.426 10647
2.135 -0.193 1.420 7364
2.132 -0.193 1.409 5793
2.204 -0.199 1.443 4568
2.194 -0.198 1.428 6650
2.156 -0.195 1.398 7729
2.153 -0.194 1.388 7480
2.164 -0.195 1.385 5989
2.181 -0.197 1.387 4843
2.205 -0.199 1.392 6167
2.223 -0.201 1.393 9448
2.233 -0.202 1.390 10933
2.237 -0.202 1.384 9097
2.303 -0.208 1.411 10043
2.306 -0.208 1.404 10947
2.303 -0.208 1.393 11974
2.314 -0.209 1.390 10128
2.324 -0.210 1.387 8857
2.335 -0.211 1.384 9542
2.338 -0.211 1.377 7794
2.342 -0.212 1.370 6039
2.346 -0.212 1.363 5359
2.342 -0.212 1.353 4689
2.367 -0.214 1.356 4988
2.391 -0.216 1.360 6349
2.402 -0.217 1.356 8865
2.405 -0.217 1.349 11455
2.402 -0.217 1.339 11055
2.405 -0.217 1.332 10960
2.409 -0.218 1.325 10960
2.419 -0.218 1.321 11212
2.437 -0.220 1.320 12899
2.455 -0.222 1.320 12175
2.465 -0.223 1.316 12518
2.476 -0.224 1.312 9881
2.486 -0.225 1.308 7552
2.633 -0.238 1.367 7147
2.644 -0.239 1.362 8597
2.654 -0.240 1.358 7713
2.665 -0.241 1.353 7068
2.669 -0.241 1.345 7068
2.672 -0.241 1.337 5113
2.740 -0.247 1.358 3878
2.751 -0.248 1.353 3856
2.820 -0.255 1.373 5150
2.823 -0.255 1.364 2575
2.478 -0.224 1.208 1129
0.632 -0.059 1.590 8893
0.639 -0.059 1.596 10175
0.647 -0.060 1.601 11767
0.654 -0.061 1.606 12251
0.662 -0.061 1.611 13337
0.670 -0.062 1.616 11318
0.677 -0.063 1.621 8340
0.682 -0.063 1.619 7155
0.686 -0.064 1.617 8594
0.690 -0.064 1.615 10032
0.698 -0.065 1.620 12629
0.702 -0.065 1.618 15590
0.710 -0.066 1.623 14272
0.714 -0.066 1.621 13213
0.718 -0.067 1.619 12954
0.719 -0.067 1.610 12565
0.723 -0.067 1.607 12467
0.728 -0.067 1.605 12723
0.736 -0.068 1.610 13365
0.740 -0.069 1.608 12762
0.740 -0.069 1.599 11958
0.748 -0.069 1.603 13086
0.752 -0.070 1.601 14266
0.760 -0.070 1.606 15334
0.765 -0.071 1.604 16681
0.769 -0.071 1.601 15678
0.773 -0.072 1.599 13077
0.777 -0.072 1.597 11669
0.785 -0.073 1.601 9552
0.793 -0.073 1.606 7559
0.798 -0.074 1.603 5443
0.806 -0.075 1.608 3532
0.814 -0.075 1.612 5730
0.818 -0.076 1.610 7988
0.822 -0.076 1.607 10666
0.827 -0.077 1.605 13875
0.831 -0.077 1.602 16710
0.831 -0.077 1.593 20955
0.835 -0.077 1.590 23489
0.839 -0.078 1.588 26676
0.844 -0.078 1.585 29794
0.848 -0.079 1.583 30387
0.852 -0.079 1.580 31084
0.856 -0.079 1.578 31119
0.860 -0.080 1.575 30662
0.864 -0.080 1.573 25694
0.869 -0.080 1.570 21185
0.873 -0.081 1.567 17111
0.877 -0.081 1.565 11083
0.881 -0.082 1.562 8706
0.889 -0.082 1.566 6494
0.911 -0.084 1.590 4724
0.919 -0.085 1.594 5153
0.919 -0.085 1.585 5876
0.919 -0.085 1.575 11137
0.927 -0.086 1.579 17488
0.936 -0.087 1.583 27093
0.944 -0.087 1.587 40508
0.949 -0.088 1.584 45281
0.953 -0.088 1.581 43465
0.961 -0.089 1.585 35591
0.966 -0.089 1.582 23728
0.974 -0.090 1.585 18546
0.974 -0.090 1.576 15462
0.973 -0.090 1.566 11015
0.978 -0.091 1.564 7509
0.986 -0.091 1.567 8480
0.990 -0.092 1.564 13000
0.999 -0.093 1.568 17833
1.008 -0.093 1.571 18221
1.012 -0.094 1.568 11445
1.021 -0.095 1.571 8671
1.030 -0.095 1.575 9869
1.038 -0.096 1.578 8385
1.038 -0.096 1.568 7982
1.042 -0.097 1.565 11117
1.051 -0.097 1.568 13885
1.055 -0.098 1.565 13680
1.059 -0.098 1.562 10663
1.068 -0.099 1.565 7822
1.072 -0.099 1.562 9133
1.076 -0.100 1.559 10405
1.090 -0.101 1.568 12441
1.094 -0.101 1.565 18457
1.098 -0.102 1.562 21563
1.107 -0.103 1.564 18744
1.116 -0.103 1.567 13437
1.126 -0.104 1.570 8742
1.135 -0.105 1.573 6464
1.139 -0.105 1.569 5649
1.138 -0.105 1.560 4074
1.127 -0.104 1.538 4200
1.136 -0.105 1.541 5611
1.160 -0.107 1.562 7690
1.164 -0.108 1.558 8287
1.174 -0.109 1.561 7024
1.178 -0.109 1.557 12630
1.187 -0.110 1.560 21801
1.196 -0.111 1.562 20499
1.205 -0.112 1.565 16484
1.220 -0.113 1.573 22065
1.229 -0.114 1.575 27972
1.233 -0.114 1.572 25741
1.238 -0.115 1.568 25082
1.242 -0.115 1.564 25354
1.246 -0.115 1.561 23014
1.245 -0.115 1.551 19344
1.238 -0.115 1.536 16086
1.226 -0.114 1.514 21751
1.230 -0.114 1.511 20616
1.239 -0.115 1.513 13323
1.254 -0.116 1.521 9487
1.253 -0.116 1.511 15232
1.257 -0.116 1.508 20372
1.271 -0.118 1.515 16725
1.292 -0.120 1.529 14543
1.296 -0.120 1.525 14283
1.294 -0.120 1.515 16889
1.315 -0.122 1.528 21521
1.330 -0.123 1.536 23606
1.334 -0.124 1.532 23026
1.338 -0.124 1.528 20848
1.353 -0.125 1.535 18754
1.363 -0.126 1.537 20713
1.361 -0.126 1.527 22782
1.365 -0.126 1.523 23974
1.363 -0.126 1.513 24574
1.373 -0.127 1.515 23956
1.377 -0.128 1.511 24494
1.387 -0.128 1.512 32539
1.396 -0.129 1.513 39181
1.400 -0.130 1.509 38595
1.404 -0.130 1.505 35142
1.414 -0.131 1.506 29369
1.418 -0.131 1.502 18027
1.416 -0.131 1.493 10387
1.420 -0.132 1.488 9003
1.447 -0.134 1.506 18499
1.457 -0.135 1.507 34260
1.461 -0.135 1.502 25470
1.482 -0.137 1.514 16672
1.492 -0.138 1.515 16486
1.502 -0.139 1.516 16528
1.506 -0.139 1.511 18514
1.515 -0.140 1.512 16940
1.519 -0.141 1.507 15872
1.529 -0.142 1.508 17298
1.533 -0.142 1.503 16952
1.543 -0.143 1.504 13224
1.553 -0.144 1.505 14326
1.557 -0.144 1.500 18614
1.561 -0.145 1.495 22933
1.571 -0.146 1.496 30314
1.581 -0.146 1.496 31391
1.585 -0.147 1.492 25436
1.595 -0.148 1.492 18779
1.611 -0.149 1.497 15438
1.615 -0.150 1.492 19790
1.625 -0.151 1.493 26379
1.629 -0.151 1.488 25265
1.639 -0.152 1.488 17189
1.661 -0.154 1.498 16589
1.659 -0.154 1.488 17738
1.669 -0.155 1.488 14325
1.673 -0.155 1.483 9435
1.677 -0.155 1.478 7414
1.687 -0.156 1.478 8201
1.697 -0.157 1.478 6734
1.701 -0.158 1.473 7044
1.711 -0.158 1.472 12870
1.721 -0.159 1.472 19707
1.731 -0.160 1.472 23349
1.741 -0.161 1.471 26203
1.745 -0.162 1.466 23261
1.755 -0.163 1.466 16493
1.759 -0.163 1.460 11520
1.782 -0.165 1.469 10005
1.792 -0.166 1.469 12032
1.802 -0.167 1.468 13093
1.825 -0.169 1.476 8718
1.861 -0.172 1.494 8799
1.852 -0.172 1.479 11517
1.856 -0.172 1.474 11543
