0.914 0.242 1.512 24671
0.922 0.244 1.515 22403
0.930 0.246 1.519 19234
0.939 0.249 1.523 16689
0.943 0.250 1.520 19504
0.946 0.251 1.517 21782
0.955 0.253 1.520 19984
0.959 0.254 1.517 17184
0.967 0.256 1.521 13810
0.985 0.261 1.537 12173
0.998 0.264 1.546 14362
1.006 0.267 1.550 18452
1.010 0.268 1.546 23254
1.014 0.269 1.543 26393
1.018 0.270 1.540 33861
1.017 0.269 1.531 44064
1.021 0.270 1.528 44261
1.030 0.273 1.531 36916
1.034 0.274 1.528 24694
1.033 0.274 1.518 15435
1.037 0.275 1.515 11472
1.045 0.277 1.518 9069
1.054 0.279 1.521 9890
1.058 0.280 1.518 11649
1.067 0.282 1.521 8911
1.075 0.285 1.523 6165
1.079 0.286 1.520 5049
1.088 0.288 1.523 5961
1.087 0.288 1.513 10150
1.086 0.288 1.504 13556
1.095 0.290 1.507 18643
1.104 0.292 1.509 26521
1.107 0.293 1.506 23907
1.116 0.296 1.508 13915
1.125 0.298 1.511 11160
1.134 0.300 1.513 16596
1.138 0.301 1.510 16995
1.137 0.301 1.501 13110
1.151 0.305 1.509 21700
1.159 0.307 1.511 26619
1.163 0.308 1.508 19885
1.172 0.310 1.510 22679
1.176 0.311 1.506 25290
1.180 0.312 1.503 24530
1.184 0.313 1.499 26998
1.193 0.316 1.501 26193
1.202 0.318 1.503 18421
1.200 0.318 1.494 18344
1.204 0.319 1.490 24536
1.208 0.320 1.487 25797
1.212 0.321 1.483 20864
1.216 0.322 1.479 12666
1.230 0.326 1.487 9135
1.234 0.327 1.483 12219
1.232 0.326 1.474 11350
1.252 0.332 1.487 11511
1.250 0.331 1.477 14134
1.249 0.331 1.468 11995
1.263 0.335 1.475 10114
1.283 0.340 1.488 13472
1.287 0.341 1.484 14434
1.285 0.340 1.474 15532
1.289 0.341 1.471 23565
1.293 0.342 1.467 28648
1.302 0.345 1.468 32241
1.311 0.347 1.470 32416
1.320 0.350 1.471 22304
1.324 0.351 1.467 23264
1.334 0.353 1.468 29577
1.337 0.354 1.464 31874
1.352 0.358 1.471 35220
1.361 0.361 1.472 37697
1.365 0.362 1.468 32683
1.369 0.363 1.464 20763
1.378 0.365 1.465 16752
1.382 0.366 1.461 16337
1.391 0.368 1.462 14657
1.412 0.374 1.473 12540
1.416 0.375 1.469 9506
1.408 0.373 1.454 7051
1.429 0.378 1.466 8644
1.439 0.381 1.466 17922
1.448 0.383 1.467 22635
1.458 0.386 1.468 19205
1.467 0.389 1.469 19176
1.477 0.391 1.469 26071
1.480 0.392 1.465 30358
1.478 0.391 1.455 22721
1.494 0.396 1.461 15119
1.497 0.397 1.456 16294
1.507 0.399 1.457 18996
1.517 0.402 1.457 19930
1.526 0.404 1.457 15368
1.548 0.410 1.468 12440
1.551 0.411 1.463 14974
1.549 0.410 1.453 18667
1.559 0.413 1.453 16611
1.568 0.415 1.454 12961
1.584 0.420 1.459 14963
1.594 0.422 1.459 13906
1.597 0.423 1.454 9730
1.601 0.424 1.449 9118
1.623 0.430 1.458 11618
1.627 0.431 1.453 13575
1.630 0.432 1.448 14628
1.634 0.433 1.443 16583
1.644 0.435 1.443 15905
1.647 0.436 1.438 13027
1.663 0.440 1.443 12743
1.673 0.443 1.442 13009
1.683 0.446 1.442 11534
1.705 0.452 1.451 11954
1.721 0.456 1.455 18085
1.725 0.457 1.449 23415
1.722 0.456 1.440 24347
1.726 0.457 1.434 20014
1.730 0.458 1.429 14189
1.746 0.462 1.433 12807
1.749 0.463 1.427 12553
1.747 0.463 1.418 12226
1.750 0.464 1.412 13124
1.766 0.468 1.416 19445
1.770 0.469 1.410 29530
1.780 0.471 1.409 33579
1.777 0.471 1.400 33058
1.781 0.472 1.394 28741
1.791 0.474 1.393 21476
1.807 0.478 1.396 21984
1.817 0.481 1.395 26333
1.827 0.484 1.394 26875
1.830 0.485 1.388 21025
1.846 0.489 1.391 14816
1.850 0.490 1.386 15571
1.853 0.491 1.380 15476
1.857 0.492 1.374 10628
1.919 0.508 1.407 7105
1.916 0.507 1.397 8989
1.919 0.508 1.391 9370
1.929 0.511 1.389 9289
1.939 0.514 1.387 9034
1.949 0.516 1.385 10966
1.953 0.517 1.379 14516
1.956 0.518 1.373 15810
1.960 0.519 1.367 12639
1.970 0.522 1.366 9417
1.973 0.523 1.359 8400
1.983 0.525 1.357 7290
1.993 0.528 1.355 6888
2.010 0.532 1.357 6521
2.020 0.535 1.355 10613
2.023 0.536 1.349 14518
2.033 0.538 1.347 16495
2.037 0.539 1.340 18725
2.040 0.540 1.334 15710
2.043 0.541 1.328 9961
2.027 0.537 1.310 5810
2.064 0.546 1.323 4088
2.067 0.547 1.317 3863
2.077 0.550 1.314 2949
2.181 0.578 1.364 3350
2.185 0.579 1.357 3469
2.175 0.576 1.343 3612
2.165 0.573 1.329 6585
2.161 0.572 1.319 9898
2.164 0.573 1.312 11352
2.168 0.574 1.306 12806
2.171 0.575 1.299 9999
2.181 0.578 1.296 7206
2.191 0.580 1.293 5102
2.242 0.594 1.311 5203
2.252 0.596 1.307 5448
2.256 0.597 1.301 5486
2.259 0.598 1.294 4480
2.324 0.615 1.318 3931
2.334 0.618 1.314 5241
2.338 0.619 1.307 6562
2.334 0.618 1.296 7105
2.337 0.619 1.289 7762
2.340 0.620 1.282 6005
2.337 0.619 1.272 4261
2.354 0.623 1.271 3692
2.364 0.626 1.267 3403
2.402 0.636 1.276 3160
2.419 0.641 1.275 4006
2.422 0.641 1.268 4006
2.418 0.640 1.257 4609
2.414 0.639 1.247 5344
2.460 0.651 1.258 6987
2.477 0.656 1.257 9767
2.480 0.657 1.250 9767
2.483 0.658 1.242 10444
0.611 0.161 1.583 39200
0.615 0.162 1.581 32184
0.619 0.163 1.579 25167
0.623 0.164 1.577 19974
0.630 0.166 1.583 15112
0.644 0.169 1.602 14394
0.648 0.171 1.600 14874
0.655 0.172 1.605 15257
0.659 0.174 1.603 14116
0.664 0.175 1.601 12976
0.668 0.176 1.599 11603
0.672 0.177 1.597 10231
0.676 0.178 1.595 11327
0.680 0.179 1.593 12424
0.684 0.180 1.591 14012
0.688 0.181 1.588 15660
0.692 0.182 1.586 14505
0.700 0.184 1.591 13364
0.704 0.185 1.589 11743
0.708 0.186 1.587 9571
0.712 0.187 1.585 7870
0.720 0.189 1.589 6712
0.724 0.190 1.587 5900
0.728 0.192 1.585 5144
0.728 0.192 1.576 8799
0.732 0.193 1.573 12630
0.736 0.194 1.571 14277
0.744 0.196 1.576 15979
0.748 0.197 1.573 13400
0.756 0.199 1.578 10850
0.756 0.199 1.569 8120
0.756 0.199 1.560 5472
0.760 0.200 1.557 5238
0.764 0.201 1.555 4773
0.776 0.204 1.566 4890
0.780 0.205 1.564 7109
0.780 0.205 1.555 9190
0.784 0.206 1.552 10890
0.788 0.207 1.550 12590
0.796 0.209 1.554 11239
0.808 0.213 1.565 9511
0.815 0.215 1.569 8766
0.811 0.214 1.553 10674
0.811 0.214 1.544 12823
0.819 0.216 1.548 15445
0.827 0.218 1.552 18768
0.831 0.219 1.550 18589
0.839 0.221 1.554 17262
0.847 0.223 1.558 14895
0.851 0.224 1.555 13507
0.860 0.226 1.559 13308
0.855 0.225 1.544 14254
0.855 0.225 1.534 16126
0.859 0.226 1.532 14393
0.859 0.226 1.522 14503
0.858 0.226 1.513 16797
0.866 0.228 1.517 24558
0.874 0.230 1.521 40911
0.878 0.231 1.518 45933
0.878 0.231 1.509 42244
0.882 0.232 1.506 42381
0.886 0.233 1.504 46385
0.894 0.235 1.507 52082
0.902 0.237 1.511 52514
0.906 0.238 1.508 40778
0.914 0.241 1.512 24066
0.922 0.243 1.515 20425
0.931 0.245 1.519 17571
0.939 0.247 1.523 15944
0.943 0.248 1.520 19889
0.947 0.249 1.517 22471
0.955 0.251 1.520 20107
0.964 0.254 1.524 15876
0.981 0.258 1.540 12215
0.985 0.259 1.537 11209
0.998 0.263 1.546 14568
1.007 0.265 1.550 18958
1.015 0.267 1.553 23505
1.019 0.268 1.550 27686
1.019 0.268 1.540 35322
1.018 0.268 1.531 44333
1.022 0.269 1.528 44574
1.030 0.271 1.531 37363
1.034 0.272 1.528 24762
1.038 0.273 1.524 15287
1.037 0.273 1.515 11190
1.046 0.275 1.518 9270
1.055 0.278 1.521 10861
1.058 0.279 1.518 12230
1.067 0.281 1.521 8767
1.076 0.283 1.523 4830
1.090 0.287 1.532 3862
1.089 0.286 1.523 6775
1.088 0.286 1.513 12282
1.086 0.286 1.504 15662
1.095 0.288 1.507 19916
1.104 0.291 1.509 26475
1.108 0.292 1.506 23751
1.117 0.294 1.508 13866
1.131 0.298 1.517 12666
1.134 0.299 1.513 19013
1.138 0.300 1.510 18718
1.137 0.299 1.501 14094
1.151 0.303 1.509 22440
1.160 0.305 1.511 26624
1.164 0.306 1.508 18476
1.173 0.309 1.510 20769
1.177 0.310 1.506 24982
1.180 0.311 1.503 25807
1.189 0.313 1.505 28165
1.193 0.314 1.501 28156
1.202 0.316 1.503 22249
1.201 0.316 1.494 23391
1.205 0.317 1.490 29170
1.208 0.318 1.487 28955
1.212 0.319 1.483 21969
1.216 0.320 1.479 12385
1.230 0.324 1.487 8689
1.240 0.326 1.489 12594
1.238 0.326 1.479 11284
1.247 0.328 1.481 11002
1.251 0.329 1.477 14121
1.255 0.330 1.473 12117
1.264 0.333 1.475 9692
1.284 0.338 1.488 10598
1.288 0.339 1.484 14460
1.286 0.338 1.474 22464
1.290 0.339 1.471 29102
1.293 0.340 1.467 26681
1.303 0.343 1.468 27487
1.312 0.345 1.470 28763
1.321 0.348 1.471 22696
1.330 0.350 1.472 27513
1.334 0.351 1.468 33670
1.338 0.352 1.464 32036
1.353 0.356 1.471 31626
1.362 0.358 1.472 34502
1.366 0.359 1.468 31753
1.369 0.360 1.464 22752
1.379 0.363 1.465 19485
1.388 0.365 1.466 19069
1.392 0.366 1.462 17021
1.407 0.370 1.468 14493
1.417 0.373 1.469 11061
1.414 0.372 1.459 8200
1.430 0.376 1.466 10059
1.439 0.379 1.466 19201
1.449 0.381 1.467 24396
1.458 0.384 1.468 21539
1.468 0.386 1.469 19944
1.477 0.389 1.469 24314
1.481 0.390 1.465 28261
1.479 0.389 1.455 21782
1.494 0.393 1.461 13838
1.498 0.394 1.456 13840
1.508 0.397 1.457 16549
1.517 0.399 1.457 18204
1.527 0.402 1.457 14855
1.548 0.407 1.468 13399
1.552 0.408 1.463 17076
1.550 0.408 1.453 20455
1.553 0.409 1.448 16480
1.569 0.413 1.454 11997
1.585 0.417 1.459 14619
1.594 0.420 1.459 13570
1.598 0.421 1.454 9919
1.608 0.423 1.454 10179
1.624 0.427 1.458 13391
1.627 0.428 1.453 16458
1.631 0.429 1.448 17755
1.635 0.430 1.443 18364
1.638 0.431 1.438 15642
1.648 0.434 1.438 12049
1.670 0.440 1.447 13772
1.680 0.442 1.447 15563
1.684 0.443 1.442 14717
1.700 0.447 1.446 14677
1.716 0.452 1.450 18686
1.726 0.454 1.449 23011
1.723 0.453 1.440 22966
1.727 0.454 1.434 17945
1.730 0.455 1.429 12066
1.746 0.460 1.433 10456
1.750 0.461 1.427 10291
1.747 0.460 1.418 10431
1.757 0.462 1.417 12629
1.767 0.465 1.416 20377
1.771 0.466 1.410 30900
1.774 0.467 1.405 34928
1.778 0.468 1.400 34567
1.781 0.469 1.394 30327
1.791 0.471 1.393 22094
1.808 0.476 1.396 20260
1.817 0.478 1.395 24068
1.827 0.481 1.394 24965
1.831 0.482 1.388 19557
1.854 0.488 1.396 13797
1.851 0.487 1.386 14630
1.854 0.488 1.380 14608
1.858 0.489 1.374 9914
1.920 0.505 1.407 6813
1.923 0.506 1.401 8145
1.927 0.507 1.395 8510
1.930 0.508 1.389 9842
1.934 0.509 1.383 10808
1.944 0.512 1.381 11924
1.954 0.514 1.379 14195
1.951 0.513 1.369 15031
1.954 0.514 1.363 11870
1.964 0.517 1.361 8760
1.974 0.520 1.359 7644
1.984 0.522 1.357 6442
1.987 0.523 1.351 6084
2.011 0.529 1.357 6514
2.021 0.532 1.355 11885
2.024 0.533 1.349 16122
2.034 0.535 1.347 18106
2.038 0.536 1.340 20511
2.041 0.537 1.334 17229
2.038 0.536 1.324 11024
2.027 0.534 1.310 6651
2.064 0.543 1.323 4267
2.074 0.546 1.320 3950
2.078 0.547 1.314 2874
2.182 0.574 1.364 3297
2.172 0.572 1.350 3532
2.169 0.571 1.339 4080
2.159 0.568 1.325 6557
2.162 0.569 1.319 9142
2.165 0.570 1.312 10814
2.168 0.571 1.306 12486
2.172 0.572 1.299 9745
2.175 0.572 1.292 7005
2.185 0.575 1.289 4706
2.243 0.590 1.311 4395
2.253 0.593 1.307 4921
2.257 0.594 1.301 5077
2.260 0.595 1.294 4231
2.325 0.612 1.318 3777
2.335 0.615 1.314 4871
2.339 0.615 1.307 6019
2.335 0.615 1.296 6239
2.331 0.614 1.286 6645
2.334 0.614 1.279 5114
2.338 0.615 1.272 3582
2.355 0.620 1.271 3125
2.379 0.626 1.274 3170
2.403 0.632 1.276 3502
2.413 0.635 1.272 4126
2.416 0.636 1.265 4126
2.412 0.635 1.254 4712
2.415 0.636 1.247 5353
2.461 0.648 1.258 6966
2.478 0.652 1.257 9742
2.481 0.653 1.250 9742
2.491 0.656 1.245 10398
0.611 0.158 1.583 37609
0.615 0.160 1.581 31081
0.619 0.161 1.579 24553
0.623 0.162 1.577 19633
0.631 0.164 1.583 15044
0.644 0.167 1.602 14609
0.652 0.169 1.607 15362
0.656 0.170 1.605 15844
0.660 0.171 1.603 14997
0.664 0.172 1.601 14150
0.668 0.173 1.599 12444
0.672 0.174 1.597 10739
0.676 0.175 1.595 11210
0.681 0.176 1.593 11681
0.685 0.178 1.591 13198
0.689 0.179 1.588 14807
0.693 0.180 1.586 13779
0.700 0.182 1.591 12739
0.704 0.183 1.589 11197
0.708 0.184 1.587 9136
0.713 0.185 1.585 8053
0.720 0.187 1.589 7478
0.724 0.188 1.587 6595
0.728 0.189 1.585 5571
0.729 0.189 1.576 8980
0.733 0.190 1.573 12492
0.737 0.191 1.571 14342
0.741 0.192 1.569 16192
0.749 0.194 1.573 13605
0.753 0.195 1.571 11062
0.757 0.196 1.569 8347
0.757 0.196 1.560 5667
0.761 0.197 1.557 5366
0.765 0.198 1.555 4866
0.776 0.201 1.566 4754
0.777 0.201 1.557 6491
0.781 0.202 1.555 8232
0.785 0.203 1.552 9930
0.788 0.204 1.550 11628
0.796 0.207 1.554 10519
0.808 0.210 1.565 9827
0.812 0.211 1.563 9808
0.812 0.211 1.553 11643
0.812 0.211 1.544 13343
0.820 0.213 1.548 14914
0.828 0.215 1.552 17011
0.832 0.216 1.550 16773
0.840 0.218 1.554 15309
0.848 0.220 1.558 12837
0.856 0.222 1.562 11792
0.860 0.223 1.559 12948
0.860 0.223 1.550 14847
0.860 0.223 1.541 16606
0.860 0.223 1.532 14641
0.859 0.223 1.522 14836
0.859 0.223 1.513 17015
0.867 0.225 1.517 24302
0.875 0.227 1.521 38592
0.879 0.228 1.518 41144
0.883 0.229 1.515 36556
0.883 0.229 1.506 37494
0.891 0.231 1.510 44228
0.895 0.232 1.507 51498
0.903 0.234 1.511 52322
0.907 0.235 1.508 40663
0.915 0.237 1.512 23062
0.923 0.239 1.515 18368
0.927 0.240 1.513 16031
0.940 0.244 1.523 15187
0.944 0.245 1.520 19869
0.948 0.246 1.517 22726
0.956 0.248 1.520 20091
0.974 0.252 1.536 15214
0.982 0.255 1.540 12140
0.991 0.257 1.543 11166
0.999 0.259 1.546 14651
1.008 0.261 1.550 19473
1.016 0.264 1.553 23876
1.020 0.265 1.550 28438
1.020 0.264 1.540 35938
1.019 0.264 1.531 43828
1.023 0.265 1.528 43886
1.031 0.267 1.531 36788
1.035 0.268 1.528 23824
1.039 0.269 1.524 14483
1.043 0.270 1.521 10785
1.047 0.271 1.518 9532
1.056 0.274 1.521 11868
1.064 0.276 1.524 13036
1.068 0.277 1.521 8915
1.077 0.279 1.523 4491
1.086 0.282 1.526 4610
1.090 0.283 1.523 9343
1.093 0.284 1.519 14873
1.092 0.283 1.510 17405
1.096 0.284 1.507 20415
1.105 0.287 1.509 24832
1.109 0.288 1.506 21780
1.113 0.289 1.502 13304
1.137 0.295 1.523 14110
1.135 0.294 1.513 20583
1.139 0.295 1.510 19319
1.143 0.296 1.506 14502
1.152 0.299 1.509 22383
1.161 0.301 1.511 25436
1.165 0.302 1.508 17054
1.169 0.303 1.504 19761
1.178 0.305 1.506 24663
1.182 0.306 1.503 25840
1.191 0.309 1.505 28158
1.194 0.310 1.501 30166
1.198 0.311 1.498 26552
1.202 0.312 1.494 27620
1.206 0.313 1.490 32244
1.210 0.314 1.487 30351
1.213 0.315 1.483 22118
1.217 0.316 1.479 11621
1.237 0.321 1.492 8188
1.241 0.322 1.489 13266
1.244 0.323 1.485 11449
1.248 0.324 1.481 10326
1.252 0.325 1.477 13764
1.261 0.327 1.479 12095
1.270 0.329 1.481 8986
1.290 0.335 1.494 9691
1.294 0.336 1.490 17551
1.293 0.335 1.480 29912
1.296 0.336 1.476 33705
1.300 0.337 1.472 25365
1.304 0.338 1.468 23033
1.319 0.342 1.475 23837
1.322 0.343 1.471 22660
1.332 0.345 1.472 31712
1.335 0.346 1.468 36896
1.339 0.347 1.464 30552
1.360 0.353 1.476 26378
1.363 0.354 1.472 29792
1.367 0.355 1.468 29989
1.371 0.355 1.464 24788
1.380 0.358 1.465 21949
1.390 0.360 1.466 21169
1.393 0.361 1.462 19856
1.408 0.365 1.468 17332
1.418 0.368 1.469 12771
1.416 0.367 1.459 9757
1.425 0.370 1.460 11765
1.441 0.374 1.466 20112
1.450 0.376 1.467 25729
1.460 0.379 1.468 23593
1.469 0.381 1.469 20742
1.479 0.383 1.469 22440
1.482 0.384 1.465 25751
1.480 0.384 1.455 20687
1.496 0.388 1.461 12391
1.499 0.389 1.456 10947
1.509 0.391 1.457 14009
1.519 0.394 1.457 16860
1.528 0.396 1.457 14560
1.550 0.402 1.468 14173
1.553 0.403 1.463 18638
1.551 0.402 1.453 21211
1.555 0.403 1.448 15667
1.577 0.409 1.458 10988
1.586 0.411 1.459 13934
1.596 0.414 1.459 12903
1.600 0.415 1.454 10097
1.609 0.417 1.454 11143
1.625 0.421 1.458 14830
1.629 0.422 1.453 18997
1.633 0.423 1.448 20846
1.636 0.424 1.443 20635
1.640 0.425 1.438 15891
1.656 0.429 1.443 11419
1.672 0.434 1.447 14224
1.682 0.436 1.447 17004
1.691 0.439 1.446 16940
1.701 0.441 1.446 16967
1.717 0.445 1.450 19710
1.727 0.448 1.449 22747
1.725 0.447 1.440 21474
1.728 0.448 1.434 15715
1.732 0.449 1.429 9969
1.748 0.453 1.433 8175
1.752 0.454 1.427 8036
1.749 0.454 1.418 8493
1.759 0.456 1.417 11725
1.769 0.459 1.416 20538
1.772 0.460 1.410 31476
1.776 0.461 1.405 35808
1.779 0.461 1.400 35521
1.783 0.462 1.394 31658
1.793 0.465 1.393 23041
1.816 0.471 1.401 18840
1.826 0.473 1.400 21903
1.829 0.474 1.394 22790
1.839 0.477 1.393 18092
1.855 0.481 1.396 13203
1.852 0.480 1.386 14158
1.862 0.483 1.384 13939
1.859 0.482 1.374 9060
1.921 0.498 1.407 6398
1.925 0.499 1.401 7287
1.935 0.502 1.399 7930
1.932 0.501 1.389 10486
1.929 0.500 1.379 12770
1.939 0.503 1.377 12961
1.949 0.505 1.375 13827
1.952 0.506 1.369 14042
1.956 0.507 1.363 11220
1.953 0.506 1.353 8401
1.969 0.511 1.355 7050
1.979 0.513 1.353 5692
1.983 0.514 1.347 5350
2.013 0.522 1.357 6448
2.023 0.525 1.355 12946
2.026 0.525 1.349 17423
2.036 0.528 1.347 19369
2.040 0.529 1.340 21912
2.043 0.530 1.334 18371
2.040 0.529 1.324 11910
2.029 0.526 1.310 7254
2.066 0.536 1.323 4484
2.076 0.538 1.320 4251
2.093 0.543 1.322 3130
2.178 0.565 1.360 3360
2.154 0.559 1.338 4201
2.144 0.556 1.325 5458
2.147 0.557 1.318 7095
2.150 0.558 1.311 8733
2.167 0.562 1.312 10267
2.171 0.563 1.306 12051
2.174 0.564 1.299 9429
2.177 0.565 1.292 6806
2.187 0.567 1.289 4458
2.245 0.582 1.311 3679
2.255 0.585 1.307 4380
2.259 0.586 1.301 4617
2.255 0.585 1.290 4031
2.320 0.602 1.314 3728
2.337 0.606 1.314 4523
2.341 0.607 1.307 5417
2.337 0.606 1.296 5326
2.333 0.605 1.286 5584
2.337 0.606 1.279 4298
2.333 0.605 1.268 3035
2.399 0.622 1.291 2974
2.381 0.617 1.274 3454
2.398 0.622 1.273 3862
2.408 0.625 1.269 4326
2.411 0.625 1.262 4326
2.415 0.626 1.254 4858
2.418 0.627 1.247 5391
2.463 0.639 1.258 6937
2.480 0.643 1.257 9651
2.483 0.644 1.250 9651
2.493 0.647 1.245 10248
0.611 0.158 1.583 36656
0.615 0.159 1.581 30129
0.619 0.160 1.579 23602
0.623 0.161 1.577 18891
0.634 0.164 1.590 14652
0.645 0.166 1.602 14919
0.649 0.167 1.600 16197
0.656 0.169 1.605 16661
0.660 0.170 1.603 15940
0.664 0.171 1.601 15219
0.668 0.173 1.599 13151
0.673 0.174 1.597 11083
0.677 0.175 1.595 11248
0.681 0.176 1.593 11414
0.685 0.177 1.591 12775
0.689 0.178 1.588 14238
0.693 0.179 1.586 13036
0.701 0.181 1.591 11852
0.705 0.182 1.589 10435
0.712 0.184 1.594 8625
0.713 0.184 1.585 8223
0.717 0.185 1.582 8520
0.721 0.186 1.580 7695
0.725 0.187 1.578 6585
0.729 0.188 1.576 9240
0.729 0.188 1.566 12004
0.737 0.190 1.571 13977
0.741 0.191 1.569 15960
0.749 0.193 1.573 13385
0.753 0.194 1.571 10940
0.757 0.195 1.569 8192
0.757 0.195 1.560 5448
0.761 0.196 1.557 5063
0.765 0.197 1.555 4541
0.769 0.198 1.553 4193
0.777 0.201 1.557 5473
0.781 0.202 1.555 6891
0.785 0.203 1.552 8590
0.789 0.204 1.550 10290
0.797 0.206 1.554 9394
0.809 0.209 1.565 9494
0.809 0.209 1.556 10252
0.812 0.210 1.553 12175
0.812 0.210 1.544 13874
0.820 0.212 1.548 14420
0.828 0.214 1.552 15049
0.832 0.215 1.550 14461
0.840 0.217 1.554 13085
0.844 0.218 1.551 10971
0.857 0.221 1.562 10549
0.861 0.222 1.559 13083
0.860 0.222 1.550 16150
0.860 0.222 1.541 17372
0.864 0.223 1.538 14946
0.860 0.222 1.522 14673
0.864 0.223 1.520 17118
0.867 0.224 1.517 23896
0.876 0.226 1.521 36587
0.879 0.227 1.518 36814
0.883 0.228 1.515 31258
0.883 0.228 1.506 32326
0.891 0.230 1.510 41334
0.895 0.231 1.507 49937
0.903 0.233 1.511 51269
0.911 0.235 1.515 39860
0.915 0.236 1.512 21687
0.923 0.238 1.515 16239
0.932 0.241 1.519 14479
0.940 0.243 1.523 14240
0.944 0.244 1.520 19563
0.948 0.245 1.517 22803
0.961 0.248 1.527 19596
0.978 0.253 1.543 15096
0.987 0.255 1.546 12808
0.991 0.256 1.543 11472
0.999 0.258 1.546 14791
1.013 0.261 1.556 19930
1.017 0.262 1.553 24092
1.021 0.263 1.550 28579
1.020 0.263 1.540 35608
1.019 0.263 1.531 42328
1.028 0.265 1.534 42182
1.032 0.266 1.531 35234
1.036 0.267 1.528 22113
1.039 0.268 1.524 13406
1.043 0.269 1.521 10666
1.052 0.272 1.524 10199
1.061 0.274 1.527 12955
1.065 0.275 1.524 14453
1.068 0.276 1.521 9907
1.082 0.279 1.529 5184
1.086 0.280 1.526 5987
1.090 0.281 1.523 11752
1.094 0.282 1.519 16726
1.093 0.282 1.510 17890
1.097 0.283 1.507 20373
1.105 0.285 1.509 23962
1.109 0.286 1.506 19607
1.113 0.287 1.502 11631
1.132 0.292 1.517 14031
1.141 0.294 1.519 20145
1.145 0.295 1.516 17937
1.144 0.295 1.506 13972
1.152 0.297 1.509 21624
1.161 0.300 1.511 23568
1.165 0.301 1.508 16274
1.169 0.302 1.504 20378
1.178 0.304 1.506 25734
1.182 0.305 1.503 26281
1.191 0.307 1.505 27495
1.195 0.308 1.501 30779
1.199 0.309 1.498 28629
1.202 0.310 1.494 29408
1.206 0.311 1.490 33108
1.210 0.312 1.487 29830
1.214 0.313 1.483 21177
1.218 0.314 1.479 10129
1.243 0.321 1.498 8058
1.246 0.322 1.494 16085
1.245 0.321 1.485 13784
1.249 0.322 1.481 10365
1.258 0.325 1.483 12521
1.267 0.327 1.485 11161
1.276 0.329 1.486 9053
1.291 0.333 1.494 12021
1.295 0.334 1.490 23290
1.293 0.334 1.480 36961
1.297 0.335 1.476 37266
1.300 0.336 1.472 25052
1.310 0.338 1.474 19749
1.319 0.340 1.475 18809
1.328 0.343 1.476 22829
1.332 0.344 1.472 35920
1.336 0.345 1.468 38472
1.339 0.346 1.464 27090
1.360 0.351 1.476 20627
1.364 0.352 1.472 24858
1.367 0.353 1.468 27957
1.371 0.354 1.464 26463
1.381 0.356 1.465 23388
1.390 0.359 1.466 21605
1.399 0.361 1.467 21768
1.409 0.364 1.468 20464
1.418 0.366 1.469 14482
1.422 0.367 1.465 11055
1.426 0.368 1.460 13271
1.441 0.372 1.466 20427
1.450 0.374 1.467 26572
1.460 0.377 1.468 25278
1.470 0.379 1.469 21719
1.479 0.382 1.469 20906
1.483 0.383 1.465 23368
1.481 0.382 1.455 19940
1.496 0.386 1.461 11502
1.500 0.387 1.456 8194
1.509 0.390 1.457 12135
1.525 0.394 1.462 16682
1.535 0.396 1.462 14929
1.550 0.400 1.468 14785
1.554 0.401 1.463 19446
1.552 0.401 1.453 20647
1.555 0.401 1.448 13956
1.577 0.407 1.458 9733
1.593 0.411 1.463 12946
1.602 0.414 1.463 12263
1.600 0.413 1.454 10389
1.610 0.416 1.454 11785
1.626 0.420 1.458 15818
1.629 0.421 1.453 20898
1.633 0.422 1.448 23237
1.637 0.422 1.443 22624
1.653 0.427 1.448 17035
1.669 0.431 1.452 11725
1.672 0.432 1.447 13748
1.682 0.434 1.447 17133
1.692 0.437 1.446 18005
1.702 0.439 1.446 18498
1.718 0.443 1.450 20691
1.722 0.444 1.445 22505
1.725 0.445 1.440 19800
1.729 0.446 1.434 13318
1.732 0.447 1.429 8233
1.749 0.451 1.433 6718
1.752 0.452 1.427 6493
1.756 0.453 1.422 6858
1.759 0.454 1.417 10326
1.769 0.457 1.416 19679
1.773 0.458 1.410 31058
1.776 0.459 1.405 35924
1.780 0.459 1.400 35864
1.784 0.460 1.394 32677
1.793 0.463 1.393 24314
1.816 0.469 1.401 17748
1.826 0.471 1.400 19800
1.836 0.474 1.398 20283
1.840 0.475 1.393 15961
1.856 0.479 1.396 12396
1.859 0.480 1.390 13652
1.863 0.481 1.384 13508
1.866 0.482 1.379 8766
1.922 0.496 1.407 5931
1.932 0.499 1.405 6415
1.935 0.500 1.399 7629
1.932 0.499 1.389 11460
1.929 0.498 1.379 14627
1.939 0.501 1.377 13914
1.949 0.503 1.375 13284
1.953 0.504 1.369 12995
1.950 0.503 1.359 10894
1.953 0.504 1.353 8708
1.963 0.507 1.351 6917
1.973 0.509 1.349 5124
1.977 0.510 1.343 4676
2.013 0.520 1.357 6374
2.023 0.522 1.355 13752
2.027 0.523 1.349 18381
2.030 0.524 1.343 20295
2.040 0.527 1.340 22787
2.043 0.527 1.334 18935
2.040 0.527 1.324 12266
2.030 0.524 1.310 7522
2.074 0.535 1.327 4764
2.084 0.538 1.324 4846
2.101 0.542 1.325 3852
2.144 0.554 1.341 3938
2.141 0.553 1.331 5500
2.144 0.553 1.325 7142
2.141 0.553 1.314 7910
2.131 0.550 1.301 8864
2.161 0.558 1.309 9821
2.171 0.560 1.306 11498
2.174 0.561 1.299 9017
2.178 0.562 1.292 6537
2.188 0.565 1.289 4319
2.239 0.578 1.307 3203
2.249 0.581 1.304 3930
2.259 0.583 1.301 4148
2.256 0.582 1.290 3880
2.321 0.599 1.314 3860
2.338 0.604 1.314 4242
2.348 0.606 1.310 4902
2.338 0.603 1.296 4484
2.327 0.601 1.283 4736
2.330 0.601 1.275 3905
2.327 0.601 1.265 3080
2.406 0.621 1.294 3221
2.375 0.613 1.271 4095
2.385 0.616 1.267 4410
2.395 0.618 1.263 4794
2.398 0.619 1.255 4794
2.408 0.622 1.251 5091
2.418 0.624 1.247 5464
2.492 0.643 1.271 6777
2.481 0.640 1.257 9347
2.484 0.641 1.250 9347
2.494 0.644 1.245 9895
0.612 0.156 1.583 35746
0.616 0.157 1.581 29276
0.620 0.158 1.579 22807
0.627 0.160 1.585 18534
0.634 0.162 1.590 14759
0.645 0.165 1.602 15362
0.649 0.166 1.600 16978
0.653 0.167 1.598 17462
0.661 0.169 1.603 16639
0.665 0.170 1.601 15870
0.669 0.171 1.599 13787
0.673 0.172 1.597 11704
0.677 0.173 1.595 11730
0.681 0.174 1.593 11755
0.685 0.175 1.591 12727
0.689 0.176 1.588 13823
0.693 0.177 1.586 12375
0.701 0.179 1.591 10971
0.705 0.180 1.589 9949
0.713 0.182 1.594 8508
0.713 0.182 1.585 8756
0.717 0.183 1.582 9821
0.721 0.184 1.580 9079
0.725 0.185 1.578 7857
0.729 0.186 1.576 9646
0.730 0.186 1.566 11688
0.737 0.188 1.571 13719
0.742 0.189 1.569 15873
0.746 0.190 1.567 13371
0.753 0.192 1.571 11073
0.757 0.193 1.569 8319
0.761 0.194 1.566 5566
0.762 0.194 1.557 5013
0.766 0.195 1.555 4409
0.769 0.196 1.553 3894
0.777 0.198 1.557 4573
0.781 0.199 1.555 5723
0.785 0.200 1.552 7417
0.789 0.201 1.550 9111
0.797 0.203 1.554 8433
0.805 0.206 1.558 9106
0.809 0.207 1.556 10320
0.813 0.208 1.553 12151
0.817 0.209 1.551 13661
0.821 0.210 1.548 13382
0.829 0.212 1.552 12504
0.833 0.213 1.550 11518
0.841 0.215 1.554 10161
0.845 0.216 1.551 9522
0.853 0.218 1.555 10197
0.857 0.219 1.553 13681
0.861 0.220 1.550 17538
0.861 0.220 1.541 18403
0.865 0.221 1.538 15386
0.864 0.221 1.529 14039
0.864 0.221 1.520 16361
0.872 0.223 1.524 22852
0.876 0.224 1.521 33990
0.880 0.225 1.518 32059
0.888 0.227 1.522 25876
0.888 0.227 1.513 27243
0.892 0.228 1.510 37580
0.900 0.230 1.514 47345
0.904 0.231 1.511 48708
0.912 0.233 1.515 38046
0.916 0.234 1.512 19941
0.924 0.236 1.515 14283
0.932 0.238 1.519 13084
0.941 0.240 1.523 13337
0.945 0.241 1.520 19023
0.953 0.243 1.523 22380
0.962 0.245 1.527 18861
0.984 0.251 1.549 15812
0.992 0.253 1.552 14253
0.992 0.253 1.543 12197
1.000 0.255 1.546 14575
1.013 0.259 1.556 19782
1.017 0.260 1.553 23404
1.021 0.261 1.550 27653
1.021 0.261 1.540 34256
1.020 0.260 1.531 39770
1.028 0.263 1.534 39436
1.032 0.264 1.531 32466
1.036 0.265 1.528 19680
1.040 0.266 1.524 12165
1.049 0.268 1.527 10662
1.058 0.270 1.530 11035
1.061 0.271 1.527 14042
1.065 0.272 1.524 15633
1.074 0.274 1.527 10773
1.083 0.276 1.529 6288
1.087 0.277 1.526 7766
1.091 0.278 1.523 13691
1.090 0.278 1.513 17689
1.093 0.279 1.510 17765
1.097 0.280 1.507 19953
1.106 0.282 1.509 22460
1.110 0.283 1.506 16675
1.114 0.284 1.502 9434
1.133 0.289 1.517 12793
1.142 0.291 1.519 17905
1.146 0.292 1.516 15166
1.139 0.291 1.501 12946
1.153 0.294 1.509 20359
1.162 0.297 1.511 21347
1.166 0.298 1.508 15498
1.170 0.299 1.504 20998
1.179 0.301 1.506 26335
1.183 0.302 1.503 25750
1.192 0.304 1.505 26059
1.196 0.305 1.501 31260
1.199 0.306 1.498 30526
1.203 0.307 1.494 29971
1.207 0.308 1.490 32293
1.211 0.309 1.487 28275
1.215 0.310 1.483 19494
1.224 0.312 1.485 8770
1.249 0.319 1.504 9473
1.253 0.320 1.500 20336
1.256 0.321 1.496 17462
1.266 0.323 1.498 11702
1.269 0.324 1.494 11900
1.273 0.325 1.490 10663
1.277 0.326 1.486 9957
1.292 0.330 1.494 14508
1.295 0.331 1.490 28818
1.294 0.330 1.480 41210
1.298 0.331 1.476 37644
1.301 0.332 1.472 25507
1.311 0.335 1.474 17874
1.325 0.338 1.481 13696
1.335 0.341 1.482 22700
1.333 0.340 1.472 39720
1.337 0.341 1.468 38993
1.340 0.342 1.464 22728
1.361 0.347 1.476 15375
1.359 0.347 1.467 21127
1.368 0.349 1.468 26012
1.372 0.350 1.464 27235
1.376 0.351 1.460 23538
1.385 0.354 1.461 20585
1.400 0.357 1.467 23045
1.410 0.360 1.468 23298
1.419 0.362 1.469 16089
1.423 0.363 1.465 12568
1.427 0.364 1.460 14603
1.442 0.368 1.466 20150
1.451 0.371 1.467 26847
1.461 0.373 1.468 26448
1.471 0.375 1.469 22832
1.480 0.378 1.469 20046
1.484 0.379 1.465 21755
1.488 0.380 1.460 20097
1.497 0.382 1.461 11634
1.507 0.385 1.461 6148
1.516 0.387 1.462 11280
1.526 0.390 1.462 17713
1.536 0.392 1.462 15980
1.551 0.396 1.468 15557
1.555 0.397 1.463 19627
1.553 0.396 1.453 19032
1.562 0.399 1.453 11602
1.584 0.404 1.463 8205
1.594 0.407 1.463 11300
1.604 0.409 1.463 11889
1.601 0.409 1.454 11134
1.611 0.411 1.454 12177
1.627 0.415 1.458 16342
1.630 0.416 1.453 22086
1.634 0.417 1.448 24737
1.644 0.420 1.448 23948
1.666 0.425 1.457 18797
1.670 0.426 1.452 12057
1.673 0.427 1.447 12279
1.689 0.431 1.452 16122
1.693 0.432 1.446 17869
1.703 0.435 1.446 19061
1.719 0.439 1.450 21387
1.723 0.440 1.445 22188
1.726 0.441 1.440 17935
1.724 0.440 1.430 10978
1.727 0.441 1.424 7265
1.744 0.445 1.428 6765
1.753 0.448 1.427 6384
1.757 0.449 1.422 5896
1.767 0.451 1.421 8457
1.771 0.452 1.416 17550
1.774 0.453 1.410 29365
1.778 0.454 1.405 35120
1.781 0.455 1.400 35553
1.785 0.456 1.394 33455
1.795 0.458 1.393 26184
1.805 0.461 1.392 18028
1.827 0.466 1.400 18807
1.837 0.469 1.398 18566
1.847 0.472 1.397 14155
1.857 0.474 1.396 11159
1.861 0.475 1.390 12356
1.871 0.478 1.389 12349
1.887 0.482 1.391 8420
1.917 0.489 1.402 5612
1.933 0.494 1.405 5706
1.937 0.494 1.399 7445
1.927 0.492 1.385 12556
1.931 0.493 1.379 15958
1.934 0.494 1.373 14594
1.944 0.496 1.371 12824
1.948 0.497 1.365 12278
1.951 0.498 1.359 11006
1.955 0.499 1.353 9424
1.958 0.500 1.347 7215
1.975 0.504 1.349 4656
1.978 0.505 1.343 3915
2.015 0.514 1.357 6351
2.018 0.515 1.351 14416
2.021 0.516 1.345 19098
2.031 0.519 1.343 20792
2.042 0.521 1.340 23024
2.045 0.522 1.334 18850
2.042 0.521 1.324 12093
2.031 0.519 1.310 7470
2.102 0.537 1.342 5165
2.092 0.534 1.328 5558
2.109 0.538 1.329 4883
2.139 0.546 1.338 5257
2.142 0.547 1.331 7018
2.139 0.546 1.321 8812
2.136 0.545 1.311 8852
2.132 0.544 1.301 9328
2.156 0.550 1.305 9375
2.173 0.555 1.306 10748
2.176 0.555 1.299 8452
2.179 0.556 1.292 6156
2.189 0.559 1.289 4299
2.241 0.572 1.307 3347
2.251 0.575 1.304 3768
2.261 0.577 1.301 3890
2.305 0.589 1.314 4102
2.316 0.591 1.311 4239
2.340 0.597 1.314 4019
2.350 0.600 1.310 4428
2.325 0.594 1.290 3958
2.322 0.593 1.279 4442
2.332 0.595 1.275 4012
2.342 0.598 1.272 3710
2.352 0.600 1.268 4000
2.376 0.607 1.271 4943
2.379 0.607 1.263 5184
2.390 0.610 1.259 5427
2.393 0.611 1.252 5427
2.410 0.615 1.251 5403
2.420 0.618 1.247 5713
2.494 0.637 1.271 6621
2.483 0.634 1.257 8931
2.486 0.635 1.250 8931
2.496 0.637 1.245 9324
0.612 0.154 1.583 34063
0.616 0.155 1.581 27866
0.620 0.156 1.579 21669
0.628 0.158 1.585 17931
0.638 0.161 1.597 14663
0.642 0.162 1.595 15653
0.650 0.164 1.600 17625
0.654 0.165 1.598 18166
0.661 0.167 1.603 17446
0.665 0.168 1.601 16830
0.669 0.169 1.599 14760
0.674 0.170 1.597 12690
0.678 0.171 1.595 12264
0.682 0.172 1.593 11838
0.689 0.174 1.598 12445
0.690 0.174 1.588 13181
0.694 0.175 1.586 11660
0.702 0.177 1.591 10164
0.706 0.178 1.589 9580
0.710 0.179 1.587 8512
0.710 0.179 1.578 9366
0.714 0.180 1.575 11005
0.722 0.182 1.580 10328
0.726 0.183 1.578 9087
0.726 0.183 1.569 10054
0.730 0.184 1.566 11248
0.738 0.186 1.571 13370
0.742 0.187 1.569 15716
0.746 0.188 1.567 13479
0.754 0.190 1.571 11340
0.758 0.191 1.569 8651
0.762 0.192 1.566 5962
0.762 0.192 1.557 5192
0.762 0.192 1.548 4477
0.766 0.193 1.546 3833
0.774 0.195 1.550 4067
0.778 0.196 1.548 5072
0.786 0.198 1.552 6656
0.790 0.199 1.550 8370
0.798 0.201 1.554 7905
0.810 0.204 1.565 8815
0.810 0.204 1.556 9958
0.814 0.205 1.553 11547
0.818 0.206 1.551 12804
0.822 0.207 1.548 11937
0.830 0.209 1.552 10052
0.834 0.210 1.550 8784
0.842 0.212 1.554 7298
0.846 0.213 1.551 8358
0.850 0.214 1.549 10714
0.858 0.216 1.553 14495
0.862 0.217 1.550 18586
0.861 0.217 1.541 19281
0.865 0.218 1.538 15783
0.865 0.218 1.529 13350
0.869 0.219 1.526 15124
0.873 0.220 1.524 21501
0.877 0.221 1.521 31019
0.885 0.223 1.525 27726
0.889 0.224 1.522 21744
0.888 0.224 1.513 23187
0.892 0.225 1.510 34001
0.901 0.227 1.514 44297
0.909 0.229 1.517 45698
0.913 0.230 1.515 35584
0.921 0.232 1.518 18223
0.925 0.233 1.515 12690
0.933 0.235 1.519 11753
0.942 0.237 1.523 12383
0.945 0.238 1.520 18055
0.954 0.240 1.523 21313
0.971 0.245 1.539 18101
0.984 0.248 1.549 17042
0.993 0.250 1.552 16326
0.992 0.250 1.543 13524
1.001 0.252 1.546 14304
1.014 0.256 1.556 19118
1.018 0.257 1.553 22096
1.022 0.258 1.550 25996
1.021 0.257 1.540 32283
1.021 0.257 1.531 36783
1.029 0.259 1.534 36229
1.033 0.260 1.531 29387
1.037 0.261 1.528 17408
1.041 0.262 1.524 11226
1.050 0.265 1.527 10750
1.063 0.268 1.536 11870
1.062 0.268 1.527 14954
1.066 0.269 1.524 16393
1.075 0.271 1.527 11165
1.084 0.273 1.529 7276
1.078 0.272 1.514 9611
1.087 0.274 1.517 14797
1.090 0.275 1.513 17753
1.094 0.276 1.510 17228
1.098 0.277 1.507 19090
1.107 0.279 1.509 20410
1.111 0.280 1.506 13840
1.130 0.285 1.520 7781
1.134 0.286 1.517 11659
1.143 0.288 1.519 15666
1.146 0.289 1.516 12700
1.140 0.287 1.501 12024
1.154 0.291 1.509 19009
1.163 0.293 1.511 19199
1.167 0.294 1.508 14277
1.171 0.295 1.504 20347
1.180 0.297 1.506 25181
1.184 0.298 1.503 23409
1.193 0.301 1.505 23857
1.196 0.302 1.501 30952
1.200 0.303 1.498 30739
1.204 0.303 1.494 28868
1.208 0.304 1.490 30153
1.212 0.305 1.487 26376
1.221 0.308 1.489 18747
1.230 0.310 1.491 10070
1.255 0.316 1.510 12477
1.259 0.317 1.506 23700
1.268 0.320 1.507 21945
1.277 0.322 1.509 17122
1.281 0.323 1.505 15020
1.280 0.323 1.496 13059
1.278 0.322 1.486 12376
1.293 0.326 1.494 16341
1.296 0.327 1.490 31668
1.295 0.326 1.480 41385
1.299 0.327 1.476 35131
1.308 0.330 1.478 25550
1.312 0.331 1.474 16354
1.332 0.336 1.486 11347
1.336 0.337 1.482 23886
1.334 0.336 1.472 42305
1.338 0.337 1.468 38216
1.341 0.338 1.464 20220
1.351 0.340 1.466 14524
1.360 0.343 1.467 20720
1.369 0.345 1.468 25034
1.373 0.346 1.464 27239
1.377 0.347 1.460 22586
1.392 0.351 1.466 18662
1.401 0.353 1.467 23623
1.411 0.356 1.468 25612
1.420 0.358 1.469 17670
1.424 0.359 1.465 14175
1.428 0.360 1.460 15712
1.443 0.364 1.466 19338
1.453 0.366 1.467 26451
1.462 0.369 1.468 27093
1.472 0.371 1.469 24081
1.481 0.373 1.469 20413
1.485 0.374 1.465 21700
1.489 0.375 1.460 21275
1.498 0.378 1.461 13106
1.520 0.383 1.471 6233
1.523 0.384 1.467 11398
1.527 0.385 1.462 18775
1.537 0.387 1.462 17449
1.552 0.391 1.468 16900
1.556 0.392 1.463 19569
1.560 0.393 1.458 16881
1.570 0.396 1.458 9644
1.591 0.401 1.468 6739
1.601 0.404 1.468 9730
1.605 0.404 1.463 11854
1.602 0.404 1.454 12155
1.612 0.406 1.454 12384
1.628 0.410 1.458 16434
1.632 0.411 1.453 22600
1.635 0.412 1.448 25220
1.651 0.416 1.453 24372
1.667 0.420 1.457 20428
1.671 0.421 1.452 11963
1.675 0.422 1.447 10020
1.691 0.426 1.452 14300
1.701 0.429 1.451 16790
1.710 0.431 1.451 18566
1.720 0.434 1.450 21463
1.724 0.435 1.445 21751
1.728 0.435 1.440 16184
1.731 0.436 1.434 9146
1.735 0.437 1.429 7440
1.745 0.440 1.428 8227
1.748 0.441 1.423 7704
1.752 0.442 1.418 6207
1.768 0.446 1.421 6463
1.772 0.447 1.416 14336
1.775 0.448 1.410 26424
1.779 0.448 1.405 33402
1.776 0.448 1.395 34841
1.786 0.450 1.394 34012
1.796 0.453 1.393 28427
1.806 0.455 1.392 19629
1.829 0.461 1.400 18564
1.839 0.463 1.398 16766
1.855 0.468 1.401 11910
1.865 0.470 1.400 9836
1.869 0.471 1.394 11196
1.872 0.472 1.389 11605
1.889 0.476 1.391 8634
1.905 0.480 1.394 5644
1.928 0.486 1.401 5306
1.925 0.485 1.391 7562
1.922 0.484 1.381 13194
1.926 0.485 1.375 16632
1.936 0.488 1.373 14656
1.946 0.490 1.371 12378
1.949 0.491 1.365 12076
1.953 0.492 1.359 11492
1.956 0.493 1.353 10382
1.959 0.494 1.347 7657
1.976 0.498 1.349 4295
1.980 0.499 1.343 3064
2.016 0.508 1.357 6417
2.020 0.509 1.351 14761
2.023 0.510 1.345 19336
2.033 0.512 1.343 20546
2.043 0.515 1.340 22313
2.046 0.516 1.334 17917
2.043 0.515 1.324 11393
2.033 0.512 1.310 7191
2.104 0.530 1.342 5886
2.100 0.529 1.332 6393
2.117 0.534 1.333 6102
2.134 0.538 1.334 6700
2.137 0.539 1.327 8483
2.141 0.540 1.321 10265
2.137 0.539 1.311 9786
2.134 0.538 1.301 9788
2.157 0.544 1.305 9146
2.167 0.546 1.302 9972
2.178 0.549 1.299 7927
2.188 0.551 1.296 5902
2.198 0.554 1.293 4499
2.235 0.563 1.304 3857
2.259 0.569 1.307 4039
2.290 0.577 1.314 4119
2.300 0.580 1.311 4871
2.304 0.581 1.304 5088
2.314 0.583 1.300 4255
2.352 0.593 1.310 4008
2.320 0.585 1.286 4072
2.317 0.584 1.276 4750
2.334 0.588 1.275 4487
2.344 0.591 1.272 4692
2.354 0.593 1.268 5004
2.371 0.598 1.267 5698
2.374 0.598 1.260 5947
2.377 0.599 1.253 6069
2.388 0.602 1.249 6023
2.405 0.606 1.248 5757
2.415 0.609 1.244 6085
2.495 0.629 1.271 6424
2.492 0.628 1.260 8498
2.495 0.629 1.253 8498
2.505 0.631 1.248 8735
0.612 0.153 1.583 32254
0.616 0.154 1.581 26365
0.621 0.155 1.579 20477
0.628 0.157 1.585 17093
0.638 0.160 1.597 14283
0.643 0.161 1.595 15770
0.650 0.163 1.600 18190
0.654 0.164 1.598 18786
0.658 0.165 1.596 18310
0.666 0.167 1.601 17895
0.670 0.168 1.599 15794
0.670 0.168 1.590 13746
0.678 0.170 1.595 12837
0.682 0.171 1.593 11981
0.690 0.173 1.598 12178
0.694 0.174 1.596 12504
0.694 0.174 1.586 10828
0.702 0.176 1.591 9168
0.706 0.177 1.589 9298
0.710 0.178 1.587 8951
0.710 0.178 1.578 10315
0.715 0.179 1.575 12395
0.719 0.180 1.573 11756
0.723 0.181 1.571 10459
0.727 0.182 1.569 10640
0.731 0.183 1.566 11040
0.735 0.184 1.564 13282
0.742 0.186 1.569 15733
0.746 0.187 1.567 13754
0.750 0.188 1.564 11774
0.758 0.190 1.569 9135
0.762 0.191 1.566 6517
0.762 0.191 1.557 5557
0.763 0.191 1.548 4814
0.767 0.192 1.546 4150
0.770 0.193 1.543 3932
0.774 0.194 1.541 4580
0.782 0.196 1.545 5957
0.790 0.198 1.550 7455
0.798 0.200 1.554 7193
0.810 0.203 1.565 8277
0.810 0.203 1.556 9226
0.814 0.204 1.553 10571
0.818 0.205 1.551 11583
0.822 0.206 1.548 10319
0.830 0.208 1.552 7595
0.834 0.209 1.550 5948
0.838 0.210 1.547 5199
0.846 0.212 1.551 8066
0.850 0.213 1.549 11646
0.858 0.215 1.553 15347
0.862 0.216 1.550 19446
0.862 0.216 1.541 19921
0.870 0.218 1.545 16376
0.870 0.218 1.536 13023
0.869 0.218 1.526 14018
0.873 0.219 1.524 19842
0.881 0.221 1.527 28118
0.885 0.222 1.525 24722
0.894 0.224 1.529 19146
0.893 0.224 1.519 20715
0.897 0.225 1.517 31457
0.901 0.226 1.514 41316
0.909 0.228 1.517 42817
0.913 0.229 1.515 33046
0.921 0.231 1.518 16712
0.925 0.232 1.515 11454
0.929 0.233 1.513 10491
0.942 0.236 1.523 11603
0.946 0.237 1.520 17138
0.954 0.239 1.523 19653
0.972 0.243 1.539 17094
0.985 0.247 1.549 17694
0.989 0.248 1.546 17871
0.993 0.249 1.543 15083
1.001 0.251 1.546 14425
1.015 0.254 1.556 18209
1.019 0.255 1.553 20524
1.022 0.256 1.550 24021
1.022 0.256 1.540 30060
1.021 0.256 1.531 33640
1.030 0.258 1.534 32819
1.034 0.259 1.531 26130
1.037 0.260 1.528 15679
1.046 0.262 1.531 11147
1.055 0.264 1.534 11460
1.064 0.266 1.536 13304
1.063 0.266 1.527 16424
1.067 0.267 1.524 17655
1.075 0.269 1.527 11802
1.079 0.270 1.523 7947
1.078 0.270 1.514 10352
1.087 0.272 1.517 14581
1.091 0.273 1.513 16925
1.095 0.274 1.510 17092
1.104 0.276 1.513 19216
1.107 0.277 1.509 19355
1.116 0.280 1.512 12387
1.130 0.283 1.520 7911
1.134 0.284 1.517 11043
1.143 0.286 1.519 13499
1.147 0.287 1.516 10546
1.141 0.286 1.501 11105
1.155 0.289 1.509 17581
1.164 0.291 1.511 16969
1.167 0.292 1.508 12810
1.176 0.295 1.510 18827
1.180 0.296 1.506 23115
1.184 0.297 1.503 21190
1.188 0.297 1.499 21810
1.197 0.300 1.501 29074
1.201 0.301 1.498 28460
1.205 0.302 1.494 25454
1.208 0.303 1.490 25826
1.212 0.304 1.487 22731
1.221 0.306 1.489 16970
1.236 0.309 1.496 11332
1.261 0.316 1.515 15800
1.265 0.317 1.511 27580
1.274 0.319 1.513 28560
1.283 0.321 1.515 24739
1.287 0.322 1.511 21957
1.286 0.322 1.501 17777
1.284 0.322 1.492 14430
1.293 0.324 1.494 17822
1.297 0.325 1.490 31880
1.301 0.326 1.486 38527
1.305 0.327 1.482 31614
1.308 0.328 1.478 24351
1.312 0.329 1.474 15261
1.332 0.334 1.486 12317
1.336 0.335 1.482 26745
1.334 0.334 1.472 42396
1.338 0.335 1.468 35914
1.342 0.336 1.464 20249
1.351 0.338 1.466 18303
1.361 0.341 1.467 23132
1.370 0.343 1.468 25503
1.374 0.344 1.464 27075
1.377 0.345 1.460 21572
1.393 0.349 1.466 17815
1.402 0.351 1.467 24588
1.411 0.353 1.468 27396
1.421 0.356 1.469 19132
1.425 0.357 1.465 15751
1.428 0.358 1.460 16663
1.444 0.362 1.466 18339
1.453 0.364 1.467 25334
1.463 0.366 1.468 26824
1.472 0.369 1.469 25104
1.476 0.370 1.464 22262
1.486 0.372 1.465 23174
1.489 0.373 1.460 22833
1.505 0.377 1.466 14338
1.526 0.382 1.476 6384
1.530 0.383 1.472 10954
1.528 0.383 1.462 18344
1.537 0.385 1.462 18526
1.553 0.389 1.468 19112
1.557 0.390 1.463 20055
1.560 0.391 1.458 15274
1.570 0.393 1.458 8792
1.592 0.399 1.468 6046
1.608 0.403 1.473 8973
1.605 0.402 1.463 12525
1.597 0.400 1.449 13185
1.607 0.402 1.449 12546
1.629 0.408 1.458 16250
1.632 0.409 1.453 22623
1.636 0.410 1.448 24814
1.652 0.414 1.453 23770
1.668 0.418 1.457 21169
1.672 0.419 1.452 11615
1.700 0.426 1.466 8350
1.698 0.425 1.456 12719
1.701 0.426 1.451 15224
1.711 0.429 1.451 17345
1.721 0.431 1.450 20901
1.725 0.432 1.445 21202
1.722 0.431 1.435 14803
1.732 0.434 1.434 8153
1.742 0.436 1.434 8325
1.746 0.437 1.428 9910
1.749 0.438 1.423 9355
1.746 0.437 1.413 7334
1.756 0.440 1.412 5476
1.766 0.442 1.411 11018
1.776 0.445 1.410 22673
1.780 0.446 1.405 30932
1.777 0.445 1.395 33642
1.787 0.447 1.394 34131
1.797 0.450 1.393 30616
1.800 0.451 1.388 21898
1.823 0.457 1.395 19579
1.839 0.461 1.398 16131
1.856 0.465 1.401 10605
1.866 0.467 1.400 8585
1.869 0.468 1.394 9620
1.879 0.471 1.393 10324
1.889 0.473 1.391 8559
1.899 0.476 1.390 6236
1.903 0.477 1.384 5983
1.913 0.479 1.382 8078
1.923 0.482 1.381 13465
1.926 0.482 1.375 16557
1.930 0.483 1.369 14400
1.947 0.487 1.371 12153
1.950 0.488 1.365 12524
1.960 0.491 1.363 12404
1.963 0.492 1.357 11326
1.967 0.493 1.351 8068
1.977 0.495 1.349 4051
2.000 0.501 1.355 2583
2.017 0.505 1.357 6409
2.020 0.506 1.351 14748
2.024 0.507 1.345 19061
2.034 0.509 1.343 19698
2.044 0.512 1.340 20900
2.041 0.511 1.330 16536
2.037 0.510 1.320 10505
2.034 0.509 1.310 6825
2.104 0.527 1.342 6787
2.108 0.528 1.335 7518
2.118 0.530 1.333 7313
2.135 0.535 1.334 7876
2.138 0.535 1.327 9417
2.142 0.536 1.321 10958
2.138 0.535 1.311 10288
2.134 0.535 1.301 10036
2.151 0.539 1.301 9064
2.168 0.543 1.302 9412
2.178 0.546 1.299 7520
2.195 0.550 1.299 5841
2.206 0.552 1.296 4904
2.243 0.562 1.307 4512
2.281 0.571 1.318 4763
2.291 0.574 1.314 5177
2.301 0.576 1.311 5973
2.298 0.575 1.300 6276
2.308 0.578 1.297 5007
2.318 0.580 1.293 3848
2.321 0.581 1.286 4540
2.317 0.580 1.276 5296
2.342 0.586 1.279 5123
2.352 0.589 1.275 5564
2.355 0.590 1.268 5771
2.372 0.594 1.267 6222
2.375 0.595 1.260 6392
2.378 0.596 1.253 6448
2.381 0.596 1.246 6335
2.406 0.602 1.248 6033
2.423 0.607 1.247 6519
2.461 0.616 1.255 6226
2.485 0.622 1.257 7962
2.489 0.623 1.250 7962
2.513 0.629 1.251 8024
0.613 0.152 1.583 30129
0.617 0.153 1.581 24892
0.621 0.154 1.579 19656
0.628 0.155 1.585 16630
0.639 0.158 1.597 14228
0.643 0.159 1.595 16043
0.650 0.161 1.600 18733
0.655 0.162 1.598 19385
0.659 0.163 1.596 19088
0.663 0.164 1.594 18790
0.667 0.165 1.592 16840
0.671 0.166 1.590 14890
0.678 0.168 1.595 13564
0.683 0.169 1.593 12384
0.690 0.171 1.598 12136
0.694 0.172 1.596 12089
0.695 0.172 1.586 10199
0.702 0.174 1.591 8251
0.706 0.175 1.589 9099
0.707 0.175 1.580 9677
0.711 0.176 1.578 11339
0.715 0.177 1.575 13817
0.719 0.178 1.573 13225
0.723 0.179 1.571 11861
0.727 0.180 1.569 11234
0.731 0.181 1.566 10798
0.735 0.182 1.564 13178
0.743 0.184 1.569 15600
0.747 0.185 1.567 13866
0.751 0.186 1.564 12132
0.755 0.187 1.562 9578
0.763 0.189 1.566 7075
0.763 0.189 1.557 6030
0.763 0.189 1.548 5368
0.763 0.189 1.539 4933
0.767 0.190 1.536 4564
0.771 0.191 1.534 4930
0.779 0.193 1.538 5873
0.787 0.194 1.543 7023
0.799 0.197 1.554 6883
0.811 0.200 1.565 8098
0.815 0.201 1.563 8860
0.815 0.201 1.553 9987
0.819 0.202 1.551 10788
0.827 0.204 1.555 9119
0.831 0.205 1.552 5481
0.835 0.206 1.550 3437
0.839 0.207 1.547 4278
0.847 0.209 1.551 8683
0.851 0.210 1.549 12393
0.859 0.212 1.553 15978
0.863 0.213 1.550 20120
0.867 0.214 1.548 20507
0.871 0.215 1.545 17185
0.875 0.216 1.542 13392
0.874 0.216 1.533 13410
0.878 0.217 1.530 18468
0.882 0.218 1.527 25754
0.886 0.219 1.525 22731
0.899 0.222 1.535 18610
0.894 0.221 1.519 19903
0.898 0.222 1.517 29849
0.906 0.224 1.520 38773
0.910 0.225 1.517 39643
0.914 0.226 1.515 30192
0.922 0.228 1.518 15246
0.926 0.229 1.515 10818
0.930 0.230 1.513 9871
0.943 0.233 1.523 11013
0.951 0.235 1.526 16011
0.955 0.236 1.523 17507
0.977 0.242 1.546 15973
0.986 0.244 1.549 17877
0.990 0.245 1.546 18958
0.993 0.246 1.543 16427
1.002 0.248 1.546 14320
1.015 0.251 1.556 16664
1.019 0.252 1.553 18263
1.023 0.253 1.550 21519
1.023 0.253 1.540 27511
1.026 0.254 1.537 30384
1.030 0.255 1.534 29197
1.034 0.256 1.531 22702
1.038 0.257 1.528 14102
1.047 0.259 1.531 11462
1.056 0.261 1.534 12372
1.064 0.263 1.536 14681
1.063 0.263 1.527 17823
1.067 0.264 1.524 18954
1.076 0.266 1.527 12608
1.080 0.267 1.523 8445
1.074 0.266 1.508 10610
1.088 0.269 1.517 13634
1.092 0.270 1.513 15541
1.096 0.271 1.510 16845
1.104 0.273 1.513 19909
1.113 0.275 1.515 19221
1.117 0.276 1.512 13957
1.136 0.281 1.526 10867
1.135 0.281 1.517 10997
1.144 0.283 1.519 11311
1.148 0.284 1.516 8828
1.136 0.281 1.495 10288
1.155 0.286 1.509 15612
1.164 0.288 1.511 14443
1.168 0.289 1.508 11185
1.177 0.291 1.510 16880
1.181 0.292 1.506 20448
1.185 0.293 1.503 18836
1.189 0.294 1.499 19221
1.198 0.296 1.501 25447
1.202 0.297 1.498 24613
1.206 0.298 1.494 20612
1.209 0.299 1.490 20109
1.213 0.300 1.487 18575
1.222 0.302 1.489 15443
1.247 0.308 1.508 13502
1.262 0.312 1.515 19532
1.271 0.314 1.517 32214
1.275 0.315 1.513 36301
1.284 0.317 1.515 34082
1.288 0.318 1.511 31818
1.286 0.318 1.501 25036
1.285 0.318 1.492 16430
1.294 0.320 1.494 18065
1.298 0.321 1.490 29799
1.302 0.322 1.486 35531
1.306 0.323 1.482 28291
1.309 0.324 1.478 20961
1.313 0.325 1.474 12869
1.333 0.330 1.486 13357
1.332 0.329 1.476 30188
1.335 0.330 1.472 42841
1.345 0.332 1.474 35492
1.349 0.333 1.470 22061
1.352 0.334 1.466 22273
1.362 0.337 1.467 25494
1.371 0.339 1.468 25871
1.375 0.340 1.464 26107
1.384 0.342 1.465 20745
1.394 0.344 1.466 18488
1.403 0.347 1.467 26172
1.412 0.349 1.468 28624
1.422 0.352 1.469 20130
1.426 0.352 1.465 16771
1.429 0.353 1.460 17055
1.445 0.357 1.466 17013
1.454 0.359 1.467 23363
1.464 0.362 1.468 25580
1.473 0.364 1.469 25486
1.477 0.365 1.464 24349
1.487 0.367 1.465 25227
1.490 0.368 1.460 24292
1.506 0.372 1.466 14929
1.539 0.380 1.486 6991
1.531 0.378 1.472 10624
1.535 0.379 1.467 16511
1.539 0.380 1.462 19028
1.554 0.384 1.468 22130
1.558 0.385 1.463 21275
1.562 0.386 1.458 14267
1.571 0.388 1.458 8622
1.587 0.392 1.463 6271
1.603 0.396 1.468 9532
1.607 0.397 1.463 13834
1.598 0.395 1.449 13957
1.608 0.397 1.449 12512
1.630 0.403 1.458 15894
1.634 0.404 1.453 22239
1.637 0.405 1.448 23652
1.653 0.409 1.453 21995
1.669 0.413 1.457 20838
1.673 0.414 1.452 11763
1.695 0.419 1.461 7738
1.705 0.421 1.461 11580
1.709 0.422 1.456 13647
1.719 0.425 1.455 15600
1.722 0.426 1.450 19853
1.726 0.427 1.445 20643
1.723 0.426 1.435 14041
1.733 0.428 1.434 7698
1.743 0.431 1.434 9151
1.747 0.432 1.428 11166
1.750 0.433 1.423 10621
1.748 0.432 1.413 8575
1.751 0.433 1.408 5653
1.761 0.435 1.407 8704
1.771 0.438 1.406 18885
1.775 0.439 1.401 28034
1.778 0.440 1.395 31906
1.788 0.442 1.394 33717
1.798 0.444 1.393 32117
1.808 0.447 1.392 23762
1.824 0.451 1.395 21082
1.841 0.455 1.398 16042
1.857 0.459 1.401 9745
1.867 0.462 1.400 7831
1.864 0.461 1.390 8683
1.874 0.463 1.389 9577
1.891 0.467 1.391 8264
1.901 0.470 1.390 6498
1.898 0.469 1.380 6718
1.908 0.472 1.378 8745
1.918 0.474 1.376 13329
1.928 0.477 1.375 15850
1.931 0.477 1.369 13782
1.948 0.482 1.371 12148
1.958 0.484 1.369 13493
1.961 0.485 1.363 13458
1.965 0.486 1.357 12236
1.968 0.487 1.351 8447
1.978 0.489 1.349 4218
2.002 0.495 1.355 2595
2.012 0.497 1.353 6427
2.022 0.500 1.351 14477
2.025 0.501 1.345 18431
2.035 0.503 1.343 18437
2.039 0.504 1.336 19062
2.042 0.505 1.330 14822
2.039 0.504 1.320 9443
2.109 0.521 1.352 6485
2.113 0.522 1.346 7411
2.109 0.521 1.335 8501
2.120 0.524 1.333 8385
2.136 0.528 1.334 8908
2.140 0.529 1.327 9948
2.143 0.530 1.321 10987
2.140 0.529 1.311 10224
2.143 0.530 1.304 9823
2.153 0.532 1.301 8875
2.170 0.536 1.302 8844
2.180 0.539 1.299 7087
2.218 0.548 1.310 6030
2.228 0.551 1.307 5402
2.245 0.555 1.307 5171
2.289 0.566 1.321 6076
2.293 0.567 1.314 6465
2.296 0.568 1.307 7226
2.299 0.568 1.300 7599
2.310 0.571 1.297 5928
2.320 0.573 1.293 4381
2.316 0.573 1.283 5100
2.319 0.573 1.276 5828
2.343 0.579 1.279 5746
2.353 0.582 1.275 6254
2.364 0.584 1.271 6339
2.367 0.585 1.264 6616
2.370 0.586 1.257 6609
2.380 0.588 1.253 6460
2.383 0.589 1.246 6356
2.414 0.597 1.251 6234
2.425 0.599 1.247 6952
2.449 0.605 1.249 6315
2.487 0.615 1.257 7571
2.490 0.616 1.250 7571
2.472 0.611 1.233 7880
0.613 0.150 1.583 28098
0.617 0.151 1.581 23495
0.621 0.152 1.579 18892
0.629 0.154 1.585 16120
0.639 0.157 1.597 14049
0.643 0.158 1.595 16242
0.651 0.160 1.600 19220
0.655 0.161 1.598 19921
0.659 0.162 1.596 19846
0.663 0.163 1.594 19772
0.667 0.164 1.592 17845
0.671 0.165 1.590 15917
0.679 0.167 1.595 14286
0.683 0.168 1.593 12876
0.687 0.169 1.591 12246
0.694 0.170 1.596 11833
0.695 0.171 1.586 9744
0.699 0.172 1.584 7509
0.703 0.173 1.582 9111
0.704 0.173 1.573 10495
0.708 0.174 1.571 12435
0.715 0.176 1.575 15053
0.719 0.177 1.573 14496
0.723 0.178 1.571 13086
0.727 0.179 1.569 11769
0.728 0.179 1.560 10687
0.736 0.180 1.564 13064
0.740 0.181 1.562 15528
0.747 0.183 1.567 13918
0.751 0.184 1.564 12432
0.755 0.185 1.562 9992
0.763 0.187 1.566 7644
0.763 0.187 1.557 6539
0.760 0.186 1.541 5985
0.764 0.187 1.539 5869
0.768 0.188 1.536 5571
0.771 0.189 1.534 5787
0.779 0.191 1.538 6274
0.787 0.193 1.543 6884
0.799 0.196 1.554 6848
0.811 0.199 1.565 8158
