2.017 -1.901 1.659 11469
2.021 -1.904 1.651 8693
2.024 -1.907 1.643 6483
2.088 -1.967 1.679 5872
2.096 -1.975 1.675 5092
2.110 -1.988 1.674 4527
2.123 -2.000 1.672 5621
2.126 -2.004 1.664 6733
2.135 -2.011 1.659 5258
2.138 -2.014 1.650 3839
2.157 -2.032 1.652 4338
2.180 -2.054 1.658 5896
2.163 -2.038 1.635 8488
2.161 -2.036 1.622 11906
2.159 -2.034 1.610 12030
2.157 -2.032 1.598 12403
2.160 -2.035 1.589 9157
2.158 -2.033 1.577 6024
2.166 -2.041 1.572 4383
2.383 -2.245 1.701 5915
2.386 -2.248 1.692 6968
2.384 -2.246 1.679 8081
2.387 -2.249 1.669 7441
2.385 -2.247 1.656 6993
2.388 -2.250 1.647 6993
2.397 -2.258 1.640 6932
2.411 -2.271 1.637 7250
2.419 -2.279 1.630 5514
2.433 -2.292 1.627 4031
2.436 -2.295 1.617 3063
2.698 -2.542 1.761 2593
2.701 -2.545 1.751 2593
2.705 -2.548 1.740 1296
0.487 -0.461 1.670 6764
0.493 -0.466 1.675 7464
0.496 -0.470 1.673 8186
0.499 -0.473 1.671 7983
0.505 -0.478 1.676 7856
0.508 -0.481 1.674 7856
0.514 -0.486 1.679 8559
0.519 -0.492 1.684 9639
0.525 -0.497 1.689 8357
0.531 -0.503 1.694 7343
0.534 -0.506 1.691 7353
0.540 -0.511 1.696 7434
0.541 -0.512 1.687 8600
0.541 -0.513 1.678 9632
0.545 -0.516 1.675 9491
0.545 -0.516 1.666 7801
0.546 -0.517 1.657 6369
0.552 -0.522 1.662 6383
0.555 -0.525 1.659 6484
0.561 -0.531 1.664 8545
0.564 -0.534 1.662 10686
0.573 -0.542 1.673 12146
0.578 -0.548 1.678 14773
0.584 -0.553 1.683 14743
0.588 -0.557 1.680 15351
0.594 -0.562 1.685 15243
0.597 -0.565 1.682 15194
0.600 -0.568 1.680 13955
0.606 -0.574 1.684 12760
0.609 -0.577 1.682 10490
0.613 -0.580 1.679 8654
0.613 -0.581 1.670 8781
0.619 -0.586 1.674 11421
0.622 -0.589 1.671 14506
0.626 -0.593 1.669 14294
0.629 -0.596 1.666 14081
0.632 -0.599 1.664 12159
0.635 -0.602 1.661 10029
0.641 -0.607 1.665 10493
0.651 -0.616 1.676 14520
0.657 -0.622 1.680 18576
0.663 -0.628 1.684 16113
0.669 -0.634 1.688 13618
0.673 -0.637 1.686 15657
0.679 -0.643 1.690 19438
0.685 -0.649 1.694 21621
0.688 -0.652 1.691 20847
0.692 -0.655 1.688 16082
0.698 -0.661 1.692 12351
0.701 -0.664 1.689 9537
0.698 -0.661 1.673 7503
0.702 -0.664 1.670 8239
0.705 -0.667 1.667 7874
0.721 -0.682 1.690 9718
0.724 -0.686 1.687 11587
0.718 -0.680 1.665 12999
0.724 -0.686 1.668 16255
0.730 -0.692 1.672 18663
0.740 -0.701 1.682 15788
0.763 -0.722 1.718 26592
0.766 -0.726 1.715 39881
0.769 -0.729 1.712 45854
0.773 -0.732 1.709 46331
0.776 -0.735 1.706 39807
0.779 -0.738 1.702 31279
0.779 -0.738 1.693 27195
0.783 -0.741 1.690 21438
0.786 -0.744 1.686 17079
0.792 -0.750 1.690 19982
0.796 -0.754 1.686 21222
0.799 -0.757 1.683 20293
0.802 -0.760 1.680 17120
0.809 -0.766 1.683 11420
0.812 -0.769 1.679 10853
0.815 -0.772 1.676 17015
0.819 -0.775 1.673 22996
0.822 -0.778 1.669 23823
0.829 -0.785 1.672 24752
0.835 -0.791 1.675 24331
0.839 -0.794 1.672 15502
0.842 -0.797 1.668 10336
0.849 -0.804 1.671 10918
0.862 -0.817 1.686 14091
0.873 -0.827 1.695 20077
0.876 -0.830 1.692 18384
0.876 -0.829 1.682 12894
0.875 -0.829 1.672 14446
0.879 -0.832 1.669 18304
0.882 -0.835 1.665 14809
0.892 -0.845 1.674 10106
0.896 -0.848 1.670 8632
0.902 -0.855 1.672 10687
0.913 -0.865 1.681 12408
0.931 -0.882 1.701 16594
0.938 -0.888 1.704 13467
0.949 -0.899 1.712 6865
0.933 -0.884 1.678 12933
0.937 -0.887 1.674 23853
0.947 -0.897 1.682 29710
0.954 -0.904 1.684 30366
0.965 -0.914 1.692 27002
0.972 -0.921 1.694 26247
0.979 -0.928 1.696 18119
0.986 -0.934 1.698 12202
0.994 -0.941 1.700 18754
1.001 -0.948 1.702 26575
1.004 -0.951 1.698 22181
1.011 -0.958 1.699 14904
1.014 -0.961 1.695 13980
1.022 -0.968 1.697 12720
1.033 -0.978 1.704 8497
1.044 -0.989 1.712 7521
1.047 -0.992 1.708 9510
1.050 -0.995 1.703 10590
1.050 -0.994 1.693 10888
1.061 -1.005 1.700 11828
1.068 -1.012 1.702 10946
1.076 -1.019 1.703 15648
1.083 -1.025 1.704 21039
1.086 -1.029 1.700 16521
1.089 -1.032 1.696 13311
1.101 -1.042 1.702 14175
1.108 -1.049 1.703 14342
1.115 -1.056 1.705 22389
1.127 -1.067 1.711 23588
1.138 -1.078 1.718 22270
1.142 -1.081 1.713 22145
1.145 -1.084 1.708 19751
1.148 -1.088 1.704 31223
1.152 -1.091 1.699 38341
1.155 -1.094 1.694 26443
1.179 -1.117 1.717 23427
1.178 -1.116 1.707 28674
1.177 -1.115 1.696 27463
1.185 -1.122 1.697 23951
1.192 -1.129 1.698 17842
1.191 -1.128 1.687 8681
1.203 -1.139 1.693 4843
1.054 -0.998 1.496 4199
1.056 -1.001 1.492 3802
1.055 -0.999 1.482 4705
1.054 -0.998 1.472 7967
1.056 -1.000 1.468 9473
1.059 -1.003 1.464 7032
1.066 -1.010 1.465 5290
1.069 -1.012 1.460 5431
1.072 -1.015 1.456 6892
1.079 -1.022 1.457 8975
1.086 -1.029 1.457 9330
1.093 -1.035 1.458 6135
1.109 -1.050 1.469 3980
1.108 -1.049 1.460 3916
1.123 -1.064 1.470 3661
1.135 -1.075 1.476 4681
1.142 -1.082 1.476 4037
1.158 -1.097 1.487 4595
1.157 -1.096 1.477 3879
1.155 -1.094 1.467 3556
1.167 -1.105 1.473 5265
1.161 -1.099 1.458 6850
1.155 -1.093 1.443 6751
1.153 -1.092 1.434 5616
1.165 -1.103 1.439 5854
1.172 -1.110 1.439 7189
1.175 -1.112 1.434 7088
1.182 -1.119 1.434 4561
1.189 -1.126 1.434 2778
1.192 -1.129 1.429 2195
1.190 -1.127 1.420 3457
1.188 -1.125 1.410 5538
1.191 -1.128 1.405 5105
1.193 -1.130 1.400 4076
1.224 -1.159 1.424 3548
1.231 -1.166 1.424 3872
1.229 -1.164 1.414 4021
1.241 -1.175 1.418 3050
1.248 -1.182 1.418 5157
1.251 -1.185 1.413 7240
1.254 -1.187 1.408 4932
1.284 -1.216 1.430 2785
1.310 -1.241 1.448 2934
1.313 -1.244 1.443 3163
1.330 -1.260 1.451 3622
1.338 -1.267 1.450 5083
1.340 -1.269 1.445 5746
1.343 -1.272 1.439 6712
1.341 -1.270 1.429 8798
1.344 -1.273 1.424 10531
1.346 -1.275 1.418 8708
1.344 -1.273 1.408 6640
1.342 -1.271 1.399 4439
1.699 -1.609 1.717 5719
1.702 -1.612 1.710 8559
1.701 -1.611 1.699 9866
1.699 -1.609 1.688 8102
1.693 -1.603 1.672 5862
1.701 -1.611 1.670 5568
1.714 -1.623 1.671 5194
1.732 -1.640 1.677 4767
1.740 -1.648 1.674 4997
1.792 -1.697 1.709 7507
1.795 -1.700 1.702 10646
1.798 -1.703 1.695 10310
1.802 -1.706 1.688 7944
1.805 -1.709 1.680 6020
1.808 -1.712 1.673 6464
1.821 -1.725 1.674 8392
1.834 -1.737 1.675 9031
1.852 -1.754 1.679 7543
1.856 -1.757 1.672 6754
1.864 -1.765 1.668 6850
1.867 -1.768 1.661 7791
1.910 -1.809 1.685 6948
1.928 -1.826 1.689 9654
1.936 -1.834 1.685 10260
1.940 -1.837 1.677 8078
1.998 -1.892 1.712 7088
2.001 -1.895 1.704 7943
2.000 -1.894 1.692 8838
2.003 -1.897 1.684 11261
2.006 -1.900 1.676 13074
2.009 -1.903 1.668 12464
2.012 -1.906 1.659 10005
2.016 -1.909 1.651 7546
2.075 -1.965 1.684 6063
2.083 -1.973 1.679 5578
2.091 -1.981 1.675 4898
2.120 -2.008 1.685 4618
2.123 -2.011 1.676 5819
2.126 -2.014 1.667 7021
2.130 -2.017 1.659 5650
2.138 -2.025 1.654 4318
2.157 -2.042 1.656 4640
2.180 -2.065 1.661 6512
2.163 -2.048 1.638 7844
2.156 -2.042 1.622 10447
2.154 -2.040 1.610 10322
2.152 -2.038 1.598 10521
2.155 -2.041 1.589 7808
2.303 -2.181 1.676 5336
2.306 -2.184 1.667 4359
2.377 -2.251 1.701 5608
2.380 -2.254 1.692 6672
2.378 -2.252 1.679 7756
2.382 -2.255 1.669 7122
2.380 -2.253 1.656 6632
2.383 -2.256 1.647 6632
2.396 -2.269 1.643 6973
2.405 -2.277 1.637 7711
2.413 -2.285 1.630 5973
2.427 -2.298 1.627 4435
2.430 -2.301 1.617 3206
2.686 -2.544 1.758 2696
2.690 -2.547 1.747 2696
2.693 -2.550 1.737 1348
1.325 -1.255 0.928 268
0.488 -0.465 1.677 6675
0.491 -0.468 1.675 7424
0.494 -0.471 1.673 8173
0.500 -0.476 1.678 8655
0.506 -0.482 1.683 9406
0.509 -0.485 1.681 9406
0.515 -0.490 1.686 10623
0.518 -0.493 1.684 12150
0.524 -0.499 1.689 10790
0.527 -0.502 1.686 9643
0.533 -0.507 1.691 8169
0.541 -0.515 1.703 6933
0.539 -0.514 1.687 7859
0.542 -0.517 1.685 8663
0.543 -0.517 1.675 8427
0.544 -0.518 1.666 7029
0.544 -0.519 1.657 5861
0.550 -0.524 1.662 6695
0.553 -0.527 1.659 7718
0.559 -0.533 1.664 9978
0.562 -0.536 1.662 12379
0.568 -0.541 1.666 13708
0.577 -0.550 1.678 16172
0.580 -0.553 1.676 15661
0.586 -0.558 1.680 15821
0.592 -0.564 1.685 15559
0.595 -0.567 1.682 15444
0.599 -0.570 1.680 14414
0.605 -0.576 1.684 13374
0.608 -0.579 1.682 11359
0.611 -0.582 1.679 9227
0.611 -0.582 1.670 8499
0.617 -0.588 1.674 10502
0.621 -0.591 1.671 13141
0.624 -0.594 1.669 13206
0.624 -0.595 1.659 13314
0.630 -0.600 1.664 11538
0.634 -0.604 1.661 9829
0.640 -0.609 1.665 11793
0.649 -0.618 1.676 17840
0.655 -0.624 1.680 22419
0.661 -0.630 1.684 19174
0.667 -0.636 1.688 15831
0.671 -0.639 1.686 17082
0.677 -0.645 1.690 20186
0.683 -0.651 1.694 22472
0.686 -0.654 1.691 21866
0.690 -0.657 1.688 17342
0.696 -0.663 1.692 13591
0.699 -0.666 1.689 9928
0.699 -0.666 1.679 7083
0.700 -0.666 1.670 7832
0.706 -0.672 1.673 7686
0.719 -0.685 1.690 10504
0.725 -0.691 1.694 12652
0.728 -0.694 1.691 12402
0.725 -0.691 1.675 14487
0.732 -0.697 1.678 16737
0.738 -0.703 1.682 14323
0.761 -0.725 1.718 26465
0.764 -0.728 1.715 40542
0.767 -0.731 1.712 46949
0.771 -0.734 1.709 48304
0.774 -0.737 1.706 42794
0.774 -0.737 1.696 34938
0.777 -0.740 1.693 30868
0.780 -0.743 1.690 25259
0.784 -0.747 1.686 19923
0.787 -0.750 1.683 20298
0.794 -0.756 1.686 20392
0.797 -0.759 1.683 19282
0.800 -0.762 1.680 16756
0.803 -0.765 1.676 12340
0.810 -0.772 1.679 11665
0.813 -0.775 1.676 17226
0.816 -0.778 1.673 23317
0.820 -0.781 1.669 24341
0.826 -0.787 1.672 25407
0.833 -0.793 1.675 25330
0.836 -0.797 1.672 16425
0.843 -0.803 1.675 10468
0.850 -0.809 1.677 11101
0.860 -0.819 1.686 15704
0.867 -0.826 1.689 21671
0.874 -0.832 1.692 19871
0.873 -0.832 1.682 12957
0.873 -0.832 1.672 13025
0.876 -0.835 1.669 17585
0.883 -0.841 1.671 15358
0.893 -0.851 1.680 11791
0.893 -0.851 1.670 9676
0.896 -0.854 1.666 12384
0.903 -0.860 1.669 12673
0.932 -0.888 1.707 15727
0.935 -0.891 1.704 13485
0.942 -0.898 1.706 7501
0.931 -0.887 1.678 14863
0.934 -0.890 1.674 24371
0.945 -0.900 1.682 28635
0.952 -0.907 1.684 30895
0.963 -0.917 1.692 29307
0.970 -0.924 1.694 27329
0.977 -0.930 1.696 17732
0.980 -0.933 1.692 10312
0.991 -0.944 1.700 15741
0.994 -0.947 1.696 22584
1.001 -0.954 1.698 17619
1.008 -0.961 1.699 11320
1.012 -0.964 1.695 12159
1.019 -0.971 1.697 11621
1.026 -0.977 1.699 9373
1.037 -0.988 1.706 9334
1.044 -0.995 1.708 10192
1.048 -0.998 1.703 10304
1.051 -1.001 1.699 9031
1.058 -1.008 1.700 10482
1.065 -1.015 1.702 11349
1.073 -1.022 1.703 16192
1.080 -1.029 1.704 20655
1.083 -1.032 1.700 16406
1.090 -1.039 1.701 13329
1.102 -1.050 1.708 17952
1.109 -1.057 1.709 21851
1.116 -1.064 1.710 28166
1.124 -1.071 1.711 24653
1.135 -1.081 1.718 18144
1.139 -1.085 1.713 21738
1.142 -1.088 1.708 26748
1.145 -1.091 1.704 36187
1.148 -1.094 1.699 41372
1.152 -1.097 1.694 28745
1.176 -1.120 1.717 24625
1.175 -1.119 1.707 31127
1.170 -1.114 1.691 30543
1.181 -1.125 1.697 27525
1.189 -1.133 1.698 22166
1.192 -1.136 1.693 10809
1.204 -1.147 1.699 5389
1.046 -0.997 1.491 3749
1.054 -1.004 1.492 3558
1.061 -1.010 1.493 4356
1.055 -1.005 1.478 7080
1.058 -1.008 1.473 9502
1.061 -1.010 1.469 8355
1.063 -1.013 1.465 6835
1.066 -1.016 1.460 6567
1.069 -1.018 1.456 8344
1.076 -1.025 1.457 10778
1.083 -1.032 1.457 10935
1.090 -1.039 1.458 7315
1.102 -1.049 1.464 4813
1.100 -1.048 1.454 5227
1.107 -1.055 1.455 4279
1.136 -1.082 1.481 3593
1.148 -1.094 1.486 3491
1.160 -1.105 1.492 4721
1.158 -1.103 1.482 4220
1.152 -1.097 1.467 3728
1.164 -1.109 1.473 5865
1.166 -1.111 1.468 7941
1.160 -1.105 1.453 6545
1.159 -1.104 1.443 5003
1.161 -1.106 1.439 5486
1.169 -1.113 1.439 6957
1.176 -1.120 1.439 7702
1.183 -1.127 1.439 5286
1.186 -1.130 1.434 3094
1.188 -1.132 1.429 2320
1.196 -1.139 1.429 3740
1.194 -1.137 1.420 5631
1.192 -1.135 1.410 4861
1.195 -1.138 1.405 3645
1.225 -1.167 1.429 2947
1.227 -1.169 1.424 3291
1.226 -1.167 1.414 3776
1.233 -1.174 1.414 3131
1.245 -1.186 1.418 5290
1.252 -1.193 1.417 7373
1.250 -1.191 1.408 5040
1.257 -1.198 1.407 2946
1.302 -1.240 1.443 2928
1.305 -1.243 1.438 3326
1.308 -1.246 1.433 3106
1.334 -1.271 1.450 4085
1.341 -1.278 1.449 4716
1.344 -1.280 1.444 6298
1.337 -1.274 1.429 9219
1.340 -1.276 1.424 10734
1.343 -1.279 1.418 8699
1.345 -1.282 1.413 6602
1.348 -1.284 1.407 4013
1.699 -1.619 1.722 6076
1.698 -1.617 1.710 8625
1.701 -1.620 1.704 9804
1.695 -1.614 1.688 7759
1.683 -1.604 1.668 5215
1.687 -1.607 1.661 4462
1.704 -1.624 1.667 3565
1.790 -1.705 1.732 3736
1.793 -1.708 1.725 4973
1.787 -1.702 1.709 8201
1.790 -1.705 1.702 11584
1.793 -1.708 1.695 11288
1.797 -1.711 1.688 8399
1.795 -1.710 1.676 5756
1.798 -1.713 1.669 5946
1.826 -1.739 1.682 8047
1.834 -1.747 1.679 9084
1.847 -1.760 1.679 7826
1.850 -1.763 1.672 7069
1.859 -1.771 1.668 7153
1.867 -1.778 1.665 8103
1.900 -1.810 1.681 7015
1.923 -1.832 1.689 9432
1.926 -1.835 1.681 9908
1.989 -1.895 1.720 8071
1.992 -1.898 1.712 7933
1.996 -1.901 1.704 8117
1.999 -1.904 1.696 8302
2.002 -1.907 1.688 10390
2.000 -1.906 1.676 11293
2.004 -1.909 1.668 10367
2.007 -1.912 1.659 8213
2.015 -1.920 1.655 6081
2.069 -1.971 1.684 5299
2.082 -1.984 1.683 5057
2.091 -1.991 1.678 4719
2.114 -2.014 1.685 5051
2.117 -2.017 1.676 6436
2.121 -2.020 1.667 7822
2.129 -2.028 1.662 6502
2.132 -2.031 1.654 5223
2.171 -2.068 1.670 5457
2.174 -2.071 1.661 7505
2.157 -2.055 1.638 7467
2.155 -2.053 1.626 9002
2.153 -2.051 1.614 8419
2.146 -2.044 1.598 8411
2.149 -2.047 1.589 6318
2.296 -2.188 1.676 5763
2.295 -2.186 1.663 4824
2.376 -2.263 1.705 5215
2.374 -2.261 1.692 6234
2.377 -2.264 1.682 7254
2.375 -2.262 1.669 6727
2.378 -2.265 1.660 6212
2.381 -2.268 1.650 6212
2.390 -2.276 1.643 7198
2.398 -2.284 1.637 8352
2.406 -2.292 1.630 6568
2.420 -2.305 1.627 4967
2.423 -2.308 1.617 3581
2.495 -2.376 1.648 2928
2.498 -2.379 1.638 2928
2.501 -2.382 1.628 1464
1.316 -1.254 0.925 470
0.494 -0.473 1.698 6506
0.490 -0.469 1.675 6978
0.491 -0.470 1.666 7671
0.499 -0.477 1.678 8885
0.505 -0.483 1.683 10567
0.508 -0.486 1.681 10567
0.514 -0.491 1.686 12075
0.517 -0.494 1.684 13780
0.523 -0.500 1.689 12330
0.526 -0.503 1.686 11196
0.532 -0.509 1.691 8677
0.540 -0.516 1.703 6722
0.541 -0.517 1.694 7179
0.541 -0.518 1.685 7481
0.542 -0.518 1.675 7143
0.543 -0.519 1.666 6103
0.541 -0.517 1.650 5280
0.546 -0.523 1.655 6707
0.552 -0.528 1.659 8357
0.558 -0.534 1.664 10686
0.561 -0.537 1.662 13220
0.567 -0.543 1.666 14429
0.573 -0.548 1.671 16652
0.579 -0.554 1.676 15693
0.585 -0.560 1.680 15373
0.591 -0.565 1.685 14997
0.594 -0.568 1.682 14848
0.597 -0.571 1.680 14090
0.603 -0.577 1.684 13236
0.607 -0.580 1.682 11667
0.610 -0.583 1.679 9518
0.613 -0.586 1.677 8265
0.616 -0.590 1.674 9477
0.619 -0.593 1.671 11362
0.623 -0.596 1.669 11612
0.623 -0.596 1.659 11980
0.626 -0.599 1.657 10572
0.632 -0.605 1.661 9427
0.641 -0.614 1.672 12611
0.650 -0.622 1.683 20120
0.654 -0.625 1.680 24842
0.660 -0.631 1.684 21102
0.666 -0.637 1.688 17212
0.669 -0.640 1.686 17613
0.676 -0.646 1.690 20017
0.682 -0.652 1.694 22429
0.685 -0.655 1.691 21925
0.688 -0.659 1.688 17660
0.695 -0.665 1.692 13987
0.695 -0.665 1.682 9910
0.698 -0.668 1.679 6710
0.701 -0.671 1.676 7498
0.711 -0.680 1.687 7839
0.717 -0.686 1.690 11015
0.724 -0.692 1.694 13253
0.730 -0.698 1.698 12914
0.746 -0.714 1.721 14615
0.730 -0.698 1.678 15331
0.753 -0.720 1.715 14224
0.759 -0.726 1.718 24949
0.759 -0.726 1.709 38846
0.763 -0.729 1.705 45274
0.769 -0.736 1.709 47178
0.772 -0.739 1.706 42799
0.772 -0.739 1.696 36280
0.776 -0.742 1.693 32528
0.779 -0.745 1.690 27543
0.782 -0.748 1.686 22228
0.785 -0.751 1.683 20668
0.792 -0.758 1.686 18991
0.795 -0.761 1.683 17408
0.798 -0.764 1.680 15515
0.802 -0.767 1.676 12687
0.805 -0.770 1.673 12168
0.811 -0.776 1.676 16813
0.815 -0.779 1.673 22823
0.818 -0.782 1.669 24062
0.825 -0.789 1.672 25213
0.831 -0.795 1.675 25383
0.835 -0.798 1.672 16772
0.845 -0.808 1.681 10520
0.851 -0.815 1.684 11192
0.858 -0.821 1.686 15932
0.865 -0.828 1.689 22022
0.872 -0.834 1.692 20685
0.875 -0.837 1.688 13470
0.875 -0.837 1.678 12344
0.878 -0.840 1.675 16603
0.888 -0.850 1.683 16855
0.895 -0.856 1.686 14049
0.891 -0.853 1.670 10689
0.894 -0.856 1.666 13282
0.901 -0.862 1.669 12354
0.930 -0.890 1.707 14211
0.934 -0.893 1.704 12518
0.933 -0.893 1.694 7905
0.929 -0.889 1.678 15325
0.932 -0.892 1.674 22849
0.939 -0.898 1.676 26156
0.954 -0.912 1.690 30318
0.964 -0.923 1.698 29988
0.968 -0.926 1.694 26260
0.971 -0.929 1.690 15888
0.978 -0.936 1.692 8528
0.989 -0.946 1.700 13161
0.992 -0.949 1.696 19024
0.995 -0.952 1.692 14699
1.002 -0.959 1.694 9202
1.010 -0.966 1.695 10458
1.013 -0.969 1.691 10893
1.024 -0.979 1.699 10366
1.031 -0.986 1.700 11087
1.042 -0.997 1.708 10733
1.045 -1.000 1.703 9438
1.049 -1.003 1.699 6816
1.056 -1.010 1.700 8532
1.063 -1.017 1.702 10695
1.070 -1.024 1.703 15973
1.074 -1.027 1.699 19865
1.081 -1.034 1.700 16636
1.088 -1.041 1.701 14282
1.100 -1.052 1.708 22026
1.107 -1.059 1.709 30072
1.114 -1.066 1.710 33176
1.122 -1.073 1.711 26748
1.133 -1.084 1.718 15823
1.136 -1.087 1.713 21451
1.140 -1.090 1.708 32331
1.147 -1.097 1.709 38740
1.146 -1.096 1.699 41203
1.149 -1.100 1.694 29142
1.169 -1.119 1.711 23538
1.168 -1.118 1.701 30794
1.167 -1.117 1.691 31895
1.179 -1.128 1.697 29072
1.187 -1.135 1.698 24577
1.190 -1.138 1.693 13131
1.201 -1.149 1.699 5983
1.044 -0.999 1.491 3235
1.056 -1.010 1.497 3457
1.063 -1.017 1.498 4457
1.061 -1.015 1.488 6511
1.056 -1.010 1.473 8728
1.058 -1.013 1.469 8836
1.061 -1.015 1.465 7489
1.064 -1.018 1.460 6566
1.067 -1.020 1.456 8463
1.074 -1.027 1.457 11303
1.085 -1.038 1.463 11459
1.092 -1.045 1.463 7824
1.099 -1.052 1.464 5170
1.098 -1.050 1.454 5908
1.101 -1.053 1.450 5051
1.143 -1.093 1.491 2753
1.154 -1.104 1.497 3164
1.157 -1.107 1.492 4481
1.160 -1.110 1.487 4324
1.163 -1.112 1.482 3740
1.166 -1.115 1.478 5945
1.169 -1.118 1.473 8581
1.167 -1.116 1.463 6899
1.161 -1.110 1.448 4476
1.159 -1.109 1.439 4699
1.171 -1.120 1.444 6308
1.173 -1.122 1.439 7563
1.181 -1.129 1.439 5522
1.183 -1.132 1.434 3226
1.186 -1.135 1.429 2330
1.193 -1.142 1.429 3731
1.191 -1.140 1.420 5437
1.194 -1.142 1.415 4698
1.206 -1.154 1.419 3459
1.218 -1.165 1.424 2469
1.225 -1.172 1.424 2735
1.223 -1.170 1.414 3344
1.230 -1.177 1.414 2947
1.242 -1.188 1.418 4994
1.250 -1.195 1.417 7031
1.252 -1.198 1.412 5016
1.255 -1.200 1.407 3309
1.267 -1.212 1.411 2890
1.298 -1.241 1.434 3279
1.300 -1.244 1.428 2949
1.331 -1.273 1.450 3477
1.343 -1.285 1.454 3914
1.337 -1.279 1.439 5718
1.335 -1.277 1.429 9048
1.337 -1.279 1.424 10423
1.345 -1.286 1.423 8536
1.347 -1.289 1.417 6649
1.350 -1.291 1.412 4168
1.701 -1.627 1.726 6296
1.699 -1.625 1.715 8606
1.702 -1.629 1.708 9558
1.696 -1.623 1.692 7182
1.680 -1.607 1.668 4373
1.683 -1.610 1.661 3376
1.446 -1.383 1.441 3243
1.786 -1.709 1.732 4107
1.790 -1.712 1.725 5322
1.783 -1.706 1.709 8606
1.787 -1.709 1.702 11943
1.790 -1.712 1.695 11675
1.793 -1.715 1.688 8577
1.791 -1.714 1.676 5433
1.790 -1.712 1.665 5277
1.827 -1.748 1.686 7468
1.835 -1.756 1.683 8739
1.843 -1.764 1.679 7597
1.847 -1.767 1.672 7112
1.855 -1.774 1.668 7291
1.863 -1.782 1.665 8212
1.886 -1.804 1.673 6914
1.919 -1.836 1.689 8677
1.922 -1.839 1.681 9028
1.985 -1.899 1.720 8165
1.988 -1.902 1.712 8062
1.997 -1.910 1.708 7814
2.005 -1.918 1.704 7749
2.003 -1.916 1.692 9313
2.001 -1.915 1.680 9372
2.000 -1.913 1.668 8218
2.003 -1.916 1.659 6387
2.051 -1.962 1.685 4829
2.065 -1.975 1.684 4317
2.083 -1.993 1.687 4449
2.102 -2.010 1.689 4574
2.110 -2.018 1.685 5261
2.113 -2.021 1.676 6607
2.121 -2.029 1.671 7979
2.125 -2.032 1.662 6741
2.128 -2.035 1.654 5504
2.167 -2.073 1.670 5939
2.175 -2.081 1.665 8045
2.163 -2.069 1.645 7116
2.156 -2.062 1.629 7651
2.149 -2.055 1.614 6678
2.146 -2.053 1.601 6434
2.284 -2.184 1.682 5156
2.292 -2.192 1.676 5812
2.290 -2.191 1.663 5002
2.371 -2.268 1.705 4507
2.369 -2.266 1.692 5345
2.372 -2.269 1.682 6183
2.375 -2.272 1.673 5879
2.379 -2.275 1.663 5575
2.382 -2.278 1.653 5575
2.390 -2.286 1.647 6844
2.393 -2.289 1.637 8175
2.402 -2.297 1.630 6477
2.415 -2.310 1.627 4942
2.418 -2.313 1.617 3630
2.490 -2.382 1.648 3597
2.493 -2.385 1.638 3597
2.496 -2.388 1.628 1798
1.319 -1.261 0.928 615
0.493 -0.474 1.698 6484
0.489 -0.470 1.675 6561
0.490 -0.471 1.666 7225
0.500 -0.481 1.685 9173
0.503 -0.484 1.683 11708
0.507 -0.487 1.681 11708
0.512 -0.493 1.686 13506
0.516 -0.496 1.684 15359
0.519 -0.499 1.682 13883
0.524 -0.504 1.686 12628
0.528 -0.508 1.684 9602
0.539 -0.518 1.703 7099
0.539 -0.519 1.694 7056
0.540 -0.519 1.685 6496
0.541 -0.520 1.675 6042
0.539 -0.518 1.659 5477
0.537 -0.516 1.643 5085
0.545 -0.524 1.655 6885
0.551 -0.530 1.659 8980
0.557 -0.535 1.664 11328
0.560 -0.538 1.662 13951
0.566 -0.544 1.666 15062
0.572 -0.550 1.671 17067
0.577 -0.555 1.676 15663
0.583 -0.561 1.680 14869
0.589 -0.567 1.685 14384
0.593 -0.570 1.682 14198
0.596 -0.573 1.680 13706
0.602 -0.579 1.684 13023
0.605 -0.582 1.682 11924
0.611 -0.588 1.686 9914
0.611 -0.588 1.677 8271
0.615 -0.591 1.674 8571
0.618 -0.594 1.671 9522
0.618 -0.595 1.662 9986
0.621 -0.598 1.659 10640
0.625 -0.601 1.657 9810
0.628 -0.604 1.654 9365
0.640 -0.615 1.672 13644
0.649 -0.624 1.683 22414
0.652 -0.627 1.680 27209
0.658 -0.633 1.684 23087
0.664 -0.639 1.688 18778
0.668 -0.642 1.686 18159
0.674 -0.648 1.690 19720
0.680 -0.654 1.694 22234
0.683 -0.657 1.691 21719
0.687 -0.660 1.688 17605
0.690 -0.663 1.685 14007
0.693 -0.667 1.682 9818
0.696 -0.670 1.679 6544
0.700 -0.673 1.676 7458
0.709 -0.682 1.687 8253
0.715 -0.688 1.690 11720
0.722 -0.694 1.694 14006
0.738 -0.709 1.717 14715
0.744 -0.716 1.721 16755
0.747 -0.719 1.718 15931
0.751 -0.722 1.715 14390
0.754 -0.725 1.712 23010
0.757 -0.728 1.709 36292
0.761 -0.731 1.705 42324
0.767 -0.738 1.709 44785
0.770 -0.741 1.706 41671
0.770 -0.741 1.696 36608
0.774 -0.744 1.693 33265
0.777 -0.747 1.690 29160
0.780 -0.750 1.686 24543
0.783 -0.753 1.683 21367
0.790 -0.760 1.686 17874
0.793 -0.763 1.683 15472
0.793 -0.763 1.673 14206
0.800 -0.769 1.676 12951
0.803 -0.772 1.673 12488
0.809 -0.778 1.676 16298
0.813 -0.782 1.673 22454
0.816 -0.785 1.669 23956
0.823 -0.791 1.672 25264
0.829 -0.797 1.675 25721
0.832 -0.801 1.672 17167
0.843 -0.810 1.681 10658
0.853 -0.820 1.690 11436
0.860 -0.827 1.693 15978
0.863 -0.830 1.689 21744
0.870 -0.836 1.692 21128
0.873 -0.839 1.688 14307
0.876 -0.843 1.684 11991
0.876 -0.842 1.675 15913
0.890 -0.856 1.690 19257
0.893 -0.859 1.686 16806
0.889 -0.855 1.670 11944
0.892 -0.858 1.666 13981
0.899 -0.865 1.669 12169
0.932 -0.896 1.713 12471
0.935 -0.899 1.710 11120
0.927 -0.892 1.688 8442
0.930 -0.895 1.684 15412
0.930 -0.894 1.674 20466
0.940 -0.904 1.682 23134
0.955 -0.918 1.696 29666
0.962 -0.925 1.698 30311
0.969 -0.932 1.700 24847
0.968 -0.931 1.690 13419
0.975 -0.938 1.692 6822
0.986 -0.949 1.700 11110
0.990 -0.952 1.696 16389
0.993 -0.955 1.692 14247
0.996 -0.958 1.688 9589
1.003 -0.965 1.689 10482
1.010 -0.972 1.691 11442
1.017 -0.978 1.693 11898
1.028 -0.989 1.700 13014
1.036 -0.996 1.702 11282
1.047 -1.007 1.709 8615
1.050 -1.010 1.705 4826
1.053 -1.013 1.700 6795
1.060 -1.020 1.702 9930
1.068 -1.027 1.703 15832
1.071 -1.030 1.699 19619
1.082 -1.041 1.706 17576
1.089 -1.048 1.707 16570
1.097 -1.055 1.708 27012
1.104 -1.062 1.709 38978
1.111 -1.069 1.710 39438
1.115 -1.072 1.706 30096
1.126 -1.083 1.712 15109
1.129 -1.086 1.707 21403
1.137 -1.093 1.708 36281
1.144 -1.100 1.709 39750
1.143 -1.099 1.699 39371
1.142 -1.099 1.689 28656
1.166 -1.122 1.711 21812
1.165 -1.121 1.701 29681
1.165 -1.120 1.691 32877
1.172 -1.127 1.692 30093
1.184 -1.138 1.698 25974
1.187 -1.141 1.693 16257
1.190 -1.144 1.688 7723
1.050 -1.010 1.501 2994
1.057 -1.017 1.502 3421
1.064 -1.024 1.503 4796
1.063 -1.022 1.494 6492
1.053 -1.013 1.473 7739
1.056 -1.015 1.469 8844
1.059 -1.018 1.465 7651
1.061 -1.021 1.460 5926
1.064 -1.023 1.456 7786
1.071 -1.030 1.457 11047
1.082 -1.041 1.463 11615
1.090 -1.048 1.463 8212
1.097 -1.055 1.464 5294
1.095 -1.053 1.454 6017
1.098 -1.056 1.450 5505
1.101 -1.058 1.445 3248
1.152 -1.107 1.497 2782
1.154 -1.110 1.492 4038
1.162 -1.117 1.492 4249
1.164 -1.120 1.487 3801
1.163 -1.118 1.478 5885
1.166 -1.121 1.473 9155
1.173 -1.128 1.473 7889
1.167 -1.122 1.458 4418
1.160 -1.116 1.444 3907
1.168 -1.123 1.444 5500
1.175 -1.130 1.444 7080
1.178 -1.133 1.439 5546
1.180 -1.135 1.434 3298
1.183 -1.138 1.429 2201
1.190 -1.145 1.429 3455
1.193 -1.147 1.424 5120
1.196 -1.150 1.420 4677
1.203 -1.157 1.419 3459
1.201 -1.155 1.410 2151
1.222 -1.175 1.424 2321
1.220 -1.173 1.414 2878
1.227 -1.180 1.414 2614
1.244 -1.196 1.423 4533
1.246 -1.199 1.417 6584
1.254 -1.206 1.417 5141
1.256 -1.208 1.412 3891
1.268 -1.220 1.416 3511
1.290 -1.240 1.429 3315
1.297 -1.247 1.428 2862
1.328 -1.277 1.450 3365
1.330 -1.280 1.445 3368
1.333 -1.282 1.439 5455
1.331 -1.280 1.429 8810
1.334 -1.283 1.424 10088
1.341 -1.290 1.423 8529
1.344 -1.293 1.417 6859
1.351 -1.300 1.416 4582
1.696 -1.631 1.726 6713
1.700 -1.634 1.719 8863
1.703 -1.638 1.712 9554
1.701 -1.636 1.701 6891
1.671 -1.607 1.664 3635
1.439 -1.384 1.447 3637
1.437 -1.382 1.437 3373
1.777 -1.709 1.728 4449
1.780 -1.712 1.721 5744
1.779 -1.711 1.709 9079
1.782 -1.714 1.702 12266
1.785 -1.717 1.695 11978
1.784 -1.715 1.683 8794
1.782 -1.714 1.672 5240
1.839 -1.768 1.710 4915
1.827 -1.757 1.690 6884
1.831 -1.761 1.683 8210
1.834 -1.764 1.675 7234
1.842 -1.771 1.672 7060
1.850 -1.779 1.668 7402
1.863 -1.792 1.669 8294
1.876 -1.804 1.669 6899
1.909 -1.836 1.685 7711
1.982 -1.906 1.732 8298
1.980 -1.904 1.720 8130
1.983 -1.907 1.712 8037
1.992 -1.915 1.708 7518
2.005 -1.928 1.707 7479
2.003 -1.926 1.695 8461
1.996 -1.920 1.680 7754
1.995 -1.918 1.668 6380
1.998 -1.921 1.659 4817
2.046 -1.968 1.685 3722
2.070 -1.990 1.692 3382
2.083 -2.003 1.691 3986
2.096 -2.016 1.689 4655
2.104 -2.024 1.685 5557
2.113 -2.032 1.680 6881
2.116 -2.035 1.671 8274
2.119 -2.038 1.662 7075
2.122 -2.041 1.654 5876
2.161 -2.078 1.670 6433
2.169 -2.086 1.665 8644
2.168 -2.085 1.652 7130
2.155 -2.073 1.633 6648
2.148 -2.066 1.617 5182
2.141 -2.059 1.601 4716
2.278 -2.191 1.682 5078
2.286 -2.199 1.676 5789
2.284 -2.197 1.663 5105
2.287 -2.200 1.654 4484
2.363 -2.272 1.692 4193
2.366 -2.275 1.682 4760
2.369 -2.279 1.673 4806
2.378 -2.287 1.666 4918
2.381 -2.290 1.656 4918
2.384 -2.293 1.647 6342
2.392 -2.301 1.640 7783
2.396 -2.304 1.630 6206
2.409 -2.317 1.627 4767
2.480 -2.385 1.658 4185
2.478 -2.383 1.645 4429
2.481 -2.386 1.635 4429
2.484 -2.389 1.625 2214
1.315 -1.265 0.928 847
0.492 -0.475 1.698 6475
0.493 -0.476 1.689 6247
0.489 -0.472 1.666 6853
0.499 -0.482 1.685 9445
0.505 -0.487 1.690 12676
0.508 -0.490 1.688 12676
0.511 -0.494 1.686 14754
0.515 -0.497 1.684 16831
0.518 -0.500 1.682 15343
0.524 -0.505 1.686 13959
0.527 -0.508 1.684 10679
0.535 -0.516 1.696 7676
0.538 -0.520 1.694 6984
0.542 -0.523 1.692 5577
0.540 -0.521 1.675 4997
0.538 -0.519 1.659 5089
0.536 -0.517 1.643 5241
0.544 -0.525 1.655 7212
0.550 -0.531 1.659 9531
0.556 -0.536 1.664 11877
0.559 -0.539 1.662 14558
0.565 -0.545 1.666 15561
0.571 -0.551 1.671 17365
0.577 -0.556 1.676 15552
0.582 -0.562 1.680 14289
0.588 -0.568 1.685 13600
0.592 -0.571 1.682 13297
0.595 -0.574 1.680 13162
0.598 -0.577 1.677 12785
0.604 -0.583 1.682 12113
0.610 -0.589 1.686 10365
0.613 -0.592 1.683 8436
0.614 -0.592 1.674 7837
0.617 -0.595 1.671 7862
0.617 -0.596 1.662 8670
0.620 -0.599 1.659 9504
0.624 -0.602 1.657 9307
0.627 -0.605 1.654 9626
0.639 -0.616 1.672 14657
0.648 -0.625 1.683 24290
0.651 -0.628 1.680 29156
0.657 -0.634 1.684 24857
0.663 -0.640 1.688 20381
0.667 -0.643 1.686 18668
0.676 -0.652 1.696 19260
0.679 -0.655 1.694 21722
0.682 -0.658 1.691 21101
0.685 -0.662 1.688 17123
0.689 -0.665 1.685 13766
0.692 -0.668 1.682 9721
0.695 -0.671 1.679 6672
0.698 -0.674 1.676 7668
0.708 -0.683 1.687 8859
0.714 -0.689 1.690 12588
0.724 -0.698 1.701 15010
0.736 -0.711 1.717 16978
0.743 -0.717 1.721 18995
0.746 -0.720 1.718 17941
0.749 -0.723 1.715 14722
0.753 -0.726 1.712 20965
0.756 -0.730 1.709 32934
0.759 -0.733 1.705 38399
0.766 -0.739 1.709 41350
0.769 -0.742 1.706 39360
0.769 -0.742 1.696 35625
0.772 -0.745 1.693 32693
0.776 -0.748 1.690 29647
0.779 -0.752 1.686 26250
0.785 -0.758 1.690 22171
0.789 -0.761 1.686 17148
0.788 -0.761 1.677 13640
0.792 -0.764 1.673 12824
0.798 -0.770 1.676 12668
0.801 -0.773 1.673 12444
0.808 -0.780 1.676 15976
0.811 -0.783 1.673 22324
0.815 -0.786 1.669 23945
0.821 -0.792 1.672 25421
0.828 -0.799 1.675 26199
0.831 -0.802 1.672 17551
0.841 -0.812 1.681 10289
0.851 -0.822 1.690 11432
0.858 -0.828 1.693 15803
0.861 -0.831 1.689 20829
0.868 -0.838 1.692 21140
0.871 -0.841 1.688 15352
0.878 -0.848 1.691 12139
0.881 -0.851 1.687 15582
0.888 -0.857 1.690 21634
0.895 -0.864 1.692 19632
0.891 -0.860 1.676 13052
0.891 -0.860 1.666 14116
0.894 -0.863 1.663 11788
0.930 -0.897 1.713 10749
0.933 -0.901 1.710 9469
0.922 -0.890 1.682 8804
0.932 -0.900 1.690 15127
0.936 -0.903 1.686 17921
0.943 -0.910 1.688 20654
0.953 -0.920 1.696 29418
0.964 -0.930 1.704 30880
0.967 -0.934 1.700 23896
0.971 -0.937 1.696 11583
0.993 -0.958 1.722 6229
0.985 -0.950 1.700 10334
0.988 -0.953 1.696 15730
0.991 -0.957 1.692 15690
0.998 -0.963 1.694 11402
1.002 -0.966 1.689 11460
1.009 -0.973 1.691 12211
1.016 -0.980 1.693 13194
1.027 -0.991 1.700 14477
1.034 -0.998 1.702 11663
1.049 -1.012 1.715 8225
1.060 -1.023 1.722 4241
1.052 -1.015 1.700 6037
1.059 -1.022 1.702 9510
1.066 -1.029 1.703 15921
1.069 -1.032 1.699 19697
1.080 -1.043 1.706 19005
1.092 -1.053 1.712 19810
1.099 -1.061 1.714 32312
1.102 -1.064 1.709 46710
1.106 -1.067 1.705 45687
1.113 -1.074 1.706 33308
1.120 -1.081 1.707 15564
1.127 -1.088 1.707 20786
1.135 -1.095 1.708 36633
1.138 -1.098 1.704 39111
1.141 -1.101 1.699 36163
1.141 -1.101 1.689 27466
1.160 -1.120 1.706 20341
1.159 -1.119 1.696 28468
1.158 -1.118 1.686 34015
1.170 -1.129 1.692 30573
1.177 -1.136 1.692 26379
1.181 -1.139 1.687 19508
1.184 -1.142 1.682 10288
1.195 -1.154 1.688 3647
1.060 -1.023 1.508 3388
1.063 -1.025 1.503 5036
1.065 -1.028 1.499 6790
1.060 -1.023 1.484 7082
1.058 -1.021 1.474 8518
1.061 -1.024 1.470 7407
1.060 -1.022 1.460 4941
1.067 -1.029 1.461 6669
1.074 -1.036 1.462 10252
1.081 -1.043 1.463 11285
1.092 -1.054 1.469 8365
1.095 -1.057 1.464 5096
1.093 -1.055 1.454 5405
1.096 -1.058 1.450 5412
1.099 -1.060 1.445 3705
1.298 -1.253 1.669 2780
1.152 -1.112 1.492 3464
1.160 -1.119 1.492 3986
1.162 -1.122 1.487 3796
1.165 -1.125 1.483 5902
1.168 -1.127 1.478 9575
1.171 -1.130 1.473 8934
1.178 -1.137 1.473 5103
1.163 -1.122 1.449 3276
1.170 -1.129 1.449 4701
1.173 -1.132 1.444 6349
1.176 -1.135 1.439 5294
1.183 -1.142 1.439 3297
1.195 -1.153 1.444 1961
1.193 -1.151 1.434 2978
1.191 -1.149 1.424 4630
1.198 -1.156 1.424 4624
1.201 -1.159 1.419 3539
1.199 -1.157 1.410 2043
1.224 -1.182 1.428 2139
1.223 -1.180 1.419 2455
1.225 -1.182 1.414 2205
1.242 -1.198 1.423 3965
1.249 -1.205 1.422 6241
1.256 -1.212 1.422 5536
1.259 -1.215 1.416 4549
1.266 -1.222 1.416 4169
1.283 -1.238 1.424 3607
1.313 -1.268 1.446 3091
1.321 -1.275 1.446 3561
1.324 -1.277 1.440 3450
1.326 -1.280 1.435 5565
1.324 -1.278 1.425 8697
1.332 -1.285 1.424 9822
1.339 -1.292 1.423 8518
1.342 -1.295 1.417 6986
1.415 -1.366 1.478 5232
1.698 -1.639 1.730 7111
1.701 -1.642 1.724 9178
1.705 -1.645 1.717 9650
1.713 -1.653 1.714 7215
1.726 -1.665 1.715 4344
1.758 -1.696 1.734 3676
1.727 -1.667 1.697 4269
1.736 -1.675 1.694 5054
1.772 -1.710 1.717 6217
1.776 -1.714 1.709 9541
1.779 -1.717 1.702 12514
1.782 -1.720 1.695 12164
1.781 -1.718 1.683 9022
1.774 -1.712 1.668 5164
1.836 -1.772 1.710 4978
1.834 -1.770 1.698 6545
1.828 -1.764 1.683 7637
1.826 -1.762 1.671 6972
1.834 -1.770 1.668 6994
1.847 -1.782 1.668 7472
1.860 -1.795 1.669 8379
1.868 -1.803 1.665 6911
1.975 -1.906 1.740 7510
1.978 -1.909 1.732 8071
1.977 -1.908 1.720 7828
1.980 -1.911 1.712 7723
1.988 -1.919 1.708 7057
2.002 -1.932 1.707 7054
2.000 -1.930 1.695 7748
1.998 -1.928 1.683 6531
1.991 -1.922 1.668 4915
1.994 -1.925 1.659 3562
1.290 -1.245 1.123 2907
2.076 -2.004 1.699 3152
2.089 -2.016 1.698 3998
2.098 -2.024 1.693 4893
2.101 -2.028 1.685 5915
2.109 -2.036 1.680 7084
2.113 -2.039 1.671 8302
2.116 -2.042 1.662 7089
2.124 -2.050 1.657 5896
2.158 -2.082 1.670 6837
2.166 -2.090 1.665 9145
2.169 -2.093 1.656 7249
2.152 -2.077 1.633 5954
2.191 -2.114 1.648 4609
2.209 -2.132 1.650 4554
2.274 -2.194 1.682 4950
2.282 -2.202 1.676 5651
2.280 -2.201 1.663 5053
2.278 -2.199 1.651 4548
2.235 -2.157 1.611 3755
2.362 -2.280 1.682 3269
2.371 -2.288 1.676 3823
2.379 -2.296 1.669 4485
2.382 -2.299 1.660 4485
2.385 -2.302 1.650 5933
2.388 -2.305 1.640 7381
2.392 -2.308 1.630 5853
2.473 -2.386 1.668 4953
2.476 -2.389 1.658 5045
2.474 -2.387 1.645 5200
2.477 -2.390 1.635 5200
2.480 -2.393 1.625 2600
1.313 -1.267 0.928 1044
0.491 -0.476 1.698 6328
0.492 -0.477 1.689 6030
0.488 -0.473 1.666 6645
0.498 -0.483 1.685 9760
0.504 -0.489 1.690 13659
0.507 -0.492 1.688 13659
0.510 -0.495 1.686 16054
0.513 -0.498 1.684 18450
0.517 -0.501 1.682 16966
0.520 -0.504 1.679 15482
0.526 -0.510 1.684 11945
0.531 -0.515 1.689 8575
0.537 -0.521 1.694 7071
0.540 -0.524 1.692 4931
0.536 -0.520 1.668 4213
0.536 -0.520 1.659 5014
0.537 -0.521 1.650 5717
0.543 -0.526 1.655 7740
0.549 -0.532 1.659 10087
0.554 -0.538 1.664 12387
0.558 -0.541 1.662 15072
0.563 -0.546 1.666 15938
0.569 -0.552 1.671 17507
0.575 -0.558 1.676 15311
0.581 -0.564 1.680 13595
0.587 -0.569 1.685 12735
0.590 -0.572 1.682 12336
0.593 -0.576 1.680 12611
0.597 -0.579 1.677 12674
0.603 -0.584 1.682 12340
0.609 -0.590 1.686 10800
0.612 -0.593 1.683 8725
0.612 -0.594 1.674 7143
0.613 -0.594 1.665 6325
0.616 -0.597 1.662 7424
0.619 -0.600 1.659 8524
0.622 -0.603 1.657 9013
0.625 -0.606 1.654 10160
0.637 -0.618 1.672 15806
0.646 -0.627 1.683 25969
0.649 -0.630 1.680 30945
0.655 -0.636 1.684 26604
0.662 -0.642 1.688 22149
0.668 -0.648 1.692 19441
0.674 -0.654 1.696 18822
0.677 -0.657 1.694 20916
0.681 -0.660 1.691 20091
0.684 -0.663 1.688 16245
0.687 -0.666 1.685 13224
0.690 -0.670 1.682 9482
0.693 -0.673 1.679 6842
0.697 -0.676 1.676 7945
0.706 -0.685 1.687 9499
0.712 -0.691 1.690 13551
0.722 -0.700 1.701 16376
0.731 -0.709 1.711 19616
0.741 -0.719 1.721 21326
0.744 -0.722 1.718 20041
0.748 -0.725 1.715 15328
0.751 -0.728 1.712 18750
0.754 -0.732 1.709 28611
0.757 -0.735 1.705 33255
0.764 -0.741 1.709 36677
0.767 -0.744 1.706 35875
0.767 -0.744 1.696 33574
0.770 -0.747 1.693 31118
0.774 -0.750 1.690 29452
0.777 -0.754 1.686 27840
0.783 -0.760 1.690 23535
0.787 -0.763 1.686 16748
0.790 -0.766 1.683 11967
0.790 -0.766 1.673 11092
0.796 -0.772 1.676 12006
0.800 -0.775 1.673 12372
0.806 -0.782 1.676 15685
0.809 -0.785 1.673 21832
0.812 -0.788 1.669 23587
0.819 -0.795 1.672 25347
0.826 -0.801 1.675 26442
0.829 -0.804 1.672 17746
0.843 -0.817 1.687 9634
0.853 -0.827 1.696 11001
0.856 -0.830 1.693 15442
0.859 -0.833 1.689 19651
0.866 -0.840 1.692 20818
0.873 -0.847 1.694 16887
0.880 -0.853 1.697 12733
0.883 -0.856 1.693 15608
0.890 -0.863 1.696 23808
0.893 -0.866 1.692 22373
0.889 -0.862 1.676 14291
0.889 -0.862 1.666 14043
0.892 -0.865 1.663 11378
0.931 -0.903 1.720 8954
0.935 -0.907 1.716 7835
0.916 -0.888 1.676 8717
0.938 -0.909 1.702 15195
0.941 -0.913 1.698 16462
0.948 -0.919 1.700 19459
0.955 -0.926 1.702 29504
0.962 -0.933 1.704 31694
0.969 -0.940 1.706 23818
0.980 -0.950 1.714 11541
0.987 -0.957 1.716 7099
0.986 -0.956 1.706 10309
0.986 -0.956 1.696 16383
0.993 -0.963 1.698 17722
0.996 -0.966 1.694 13429
0.995 -0.965 1.684 12547
1.002 -0.972 1.685 12747
1.013 -0.983 1.693 13934
1.024 -0.993 1.700 15283
1.031 -1.000 1.702 11666
1.050 -1.019 1.721 8249
1.057 -1.026 1.722 5162
1.049 -1.017 1.700 6808
1.056 -1.024 1.702 9653
1.063 -1.031 1.703 16396
1.067 -1.035 1.699 20331
1.078 -1.045 1.706 20497
1.089 -1.056 1.712 23953
1.096 -1.063 1.714 37011
1.100 -1.067 1.709 50596
1.103 -1.070 1.705 49685
1.106 -1.073 1.700 35565
1.117 -1.084 1.707 15476
1.125 -1.091 1.707 17803
1.128 -1.094 1.703 33149
1.135 -1.101 1.704 36163
1.139 -1.104 1.699 31244
1.138 -1.104 1.689 24761
1.157 -1.123 1.706 19409
1.152 -1.118 1.690 27351
1.156 -1.121 1.686 34757
1.163 -1.128 1.686 30103
1.174 -1.139 1.692 25381
1.178 -1.142 1.687 22205
1.181 -1.145 1.682 13015
1.180 -1.145 1.672 4657
1.061 -1.029 1.513 3247
1.060 -1.028 1.503 4956
1.063 -1.031 1.499 7065
1.061 -1.029 1.489 6883
1.060 -1.028 1.479 8248
1.058 -1.027 1.470 7063
1.057 -1.025 1.460 3860
1.064 -1.032 1.461 5314
1.071 -1.039 1.462 8967
1.082 -1.050 1.468 10584
1.089 -1.057 1.469 8438
1.092 -1.059 1.464 4900
1.091 -1.058 1.454 4437
1.093 -1.060 1.450 4844
1.096 -1.063 1.445 3861
1.295 -1.256 1.669 3574
1.303 -1.264 1.669 3557
1.306 -1.267 1.663 3563
1.164 -1.129 1.492 3753
1.171 -1.136 1.493 6066
1.170 -1.134 1.483 9667
1.172 -1.137 1.478 9592
1.175 -1.140 1.473 5734
1.182 -1.147 1.473 3158
1.176 -1.141 1.459 4138
1.170 -1.135 1.444 5420
1.173 -1.138 1.439 4861
1.189 -1.153 1.449 3482
1.205 -1.169 1.458 2233
1.208 -1.172 1.453 2756
1.193 -1.157 1.429 4231
1.200 -1.164 1.429 4656
1.198 -1.162 1.419 3688
1.223 -1.187 1.438 2244
1.231 -1.194 1.438 2324
1.224 -1.187 1.423 2266
1.222 -1.186 1.414 1874
1.239 -1.201 1.423 3290
1.250 -1.213 1.427 6051
1.258 -1.220 1.426 6138
1.256 -1.218 1.416 5220
1.268 -1.230 1.420 4889
1.280 -1.241 1.424 4228
1.310 -1.271 1.446 3470
1.318 -1.278 1.446 3801
1.316 -1.276 1.436 3726
1.318 -1.279 1.430 5777
1.321 -1.281 1.425 8709
1.324 -1.284 1.419 9697
1.336 -1.296 1.423 8449
1.338 -1.298 1.417 6945
1.412 -1.370 1.478 5738
1.694 -1.643 1.730 7297
1.697 -1.646 1.724 9328
1.701 -1.650 1.717 9700
1.713 -1.662 1.718 7826
1.721 -1.670 1.715 5303
1.720 -1.668 1.704 4443
1.723 -1.671 1.697 5510
1.736 -1.684 1.698 6504
1.744 -1.692 1.696 6972
1.771 -1.718 1.709 9851
1.775 -1.721 1.702 12534
1.778 -1.724 1.695 12110
1.776 -1.723 1.683 9131
1.765 -1.712 1.664 5188
1.826 -1.772 1.706 4946
1.825 -1.770 1.694 6049
1.823 -1.768 1.683 6939
1.821 -1.767 1.671 6850
1.830 -1.775 1.668 6955
1.843 -1.787 1.668 7413
1.856 -1.800 1.669 8292
1.864 -1.808 1.665 6816
1.970 -1.911 1.740 7195
1.974 -1.914 1.732 7586
1.972 -1.913 1.720 7307
1.975 -1.916 1.712 7220
1.983 -1.924 1.708 6428
1.997 -1.937 1.707 6369
2.000 -1.940 1.699 7021
1.998 -1.938 1.687 5722
2.041 -1.980 1.709 4265
2.055 -1.993 1.708 3292
2.088 -2.025 1.722 2908
2.081 -2.019 1.706 3444
2.084 -2.022 1.698 4101
2.093 -2.030 1.693 5149
2.096 -2.033 1.685 6271
2.104 -2.041 1.680 7310
2.107 -2.044 1.671 8364
2.110 -2.047 1.662 7141
2.119 -2.055 1.657 5970
2.157 -2.093 1.673 7194
2.161 -2.096 1.665 9570
2.164 -2.099 1.656 7412
2.152 -2.087 1.636 5516
2.185 -2.120 1.648 4631
2.204 -2.138 1.650 4463
2.197 -2.131 1.634 4886
2.277 -2.208 1.676 5408
2.275 -2.206 1.663 4897
2.221 -2.155 1.617 4611
2.230 -2.163 1.611 3855
2.439 -2.366 1.735 3427
2.442 -2.369 1.726 3429
2.394 -2.322 1.683 4655
2.397 -2.325 1.673 4655
2.385 -2.313 1.653 5614
2.383 -2.311 1.640 6883
2.386 -2.314 1.630 5351
2.472 -2.398 1.672 5966
2.470 -2.396 1.658 5826
2.468 -2.394 1.645 5812
2.471 -2.397 1.635 5812
2.474 -2.400 1.625 2906
1.310 -1.270 0.928 1088
0.487 -0.475 1.691 6585
0.486 -0.474 1.675 6412
0.487 -0.474 1.666 6670
0.497 -0.484 1.685 9810
0.503 -0.490 1.690 13578
0.506 -0.493 1.688 13578
0.509 -0.496 1.686 16542
0.512 -0.499 1.684 19505
0.515 -0.502 1.682 18530
0.519 -0.506 1.679 17555
0.524 -0.511 1.684 13568
0.530 -0.517 1.689 9700
0.533 -0.520 1.687 7452
0.539 -0.525 1.692 4594
0.532 -0.519 1.661 3788
0.535 -0.522 1.659 5179
0.536 -0.522 1.650 6364
0.541 -0.528 1.655 8306
0.547 -0.533 1.659 10404
0.550 -0.537 1.657 12756
0.556 -0.542 1.662 15562
0.562 -0.548 1.666 16151
0.568 -0.554 1.671 17236
0.574 -0.559 1.676 14763
0.577 -0.562 1.673 12808
0.583 -0.568 1.678 11961
0.589 -0.574 1.682 11623
0.592 -0.577 1.680 12198
0.595 -0.580 1.677 12588
0.601 -0.586 1.682 12366
0.607 -0.592 1.686 10734
0.610 -0.595 1.683 8565
0.611 -0.595 1.674 6468
0.608 -0.593 1.658 5132
0.614 -0.599 1.662 6438
0.617 -0.602 1.659 7773
0.620 -0.605 1.657 8946
0.627 -0.611 1.661 10910
0.635 -0.620 1.672 16724
0.644 -0.628 1.683 27043
0.648 -0.631 1.680 32163
0.654 -0.637 1.684 27910
0.660 -0.643 1.688 23611
0.666 -0.650 1.692 19836
0.672 -0.656 1.696 17768
0.676 -0.659 1.694 19354
0.679 -0.662 1.691 18443
0.682 -0.665 1.688 15010
0.685 -0.668 1.685 12489
0.689 -0.671 1.682 9115
0.692 -0.674 1.679 6808
0.695 -0.678 1.676 7875
0.704 -0.687 1.687 9810
0.714 -0.696 1.697 14446
0.723 -0.705 1.707 17789
0.730 -0.711 1.711 22034
0.736 -0.718 1.714 23114
0.742 -0.724 1.718 21449
0.746 -0.727 1.715 16083
0.749 -0.730 1.712 16493
0.752 -0.733 1.709 23105
0.759 -0.740 1.712 26808
0.762 -0.743 1.709 30565
0.765 -0.746 1.706 31091
0.765 -0.746 1.696 30129
0.769 -0.749 1.693 28032
0.772 -0.752 1.690 27864
0.775 -0.756 1.686 28206
0.781 -0.762 1.690 23956
0.788 -0.768 1.693 16156
0.791 -0.771 1.689 10343
0.791 -0.771 1.680 9871
0.798 -0.778 1.683 11887
0.801 -0.781 1.679 12804
0.804 -0.784 1.676 15418
0.807 -0.787 1.673 20728
0.810 -0.790 1.669 22538
0.817 -0.797 1.672 24603
0.824 -0.803 1.675 26224
0.827 -0.806 1.672 18020
0.841 -0.819 1.687 9562
0.851 -0.829 1.696 10650
0.854 -0.833 1.693 14145
0.857 -0.836 1.689 17482
0.864 -0.842 1.692 20044
0.871 -0.849 1.694 18275
0.874 -0.852 1.691 13606
0.881 -0.859 1.693 15664
0.887 -0.865 1.696 25182
0.891 -0.868 1.692 24232
0.887 -0.865 1.676 15406
0.886 -0.864 1.666 14421
0.889 -0.867 1.663 11588
0.933 -0.909 1.726 7443
0.936 -0.913 1.722 6926
0.936 -0.912 1.712 8630
0.939 -0.915 1.708 15529
0.946 -0.922 1.710 16475
0.949 -0.925 1.706 19624
0.956 -0.932 1.708 29577
0.959 -0.935 1.704 32454
0.966 -0.942 1.706 24676
0.977 -0.953 1.714 13475
0.984 -0.959 1.716 8532
0.984 -0.959 1.706 11027
0.983 -0.958 1.696 17311
0.990 -0.965 1.698 19312
0.993 -0.968 1.694 14758
0.993 -0.968 1.684 13232
1.000 -0.975 1.685 12758
1.011 -0.985 1.693 13903
1.022 -0.996 1.700 15155
1.029 -1.003 1.702 11157
1.048 -1.021 1.721 8236
1.051 -1.025 1.716 6366
1.046 -1.020 1.700 8178
1.053 -1.027 1.702 10267
1.061 -1.034 1.703 16833
1.064 -1.037 1.699 20518
1.079 -1.052 1.711 21416
1.086 -1.059 1.712 27429
1.094 -1.066 1.714 39998
1.097 -1.069 1.709 51771
1.100 -1.072 1.705 51300
1.103 -1.076 1.700 35823
1.107 -1.079 1.695 14400
1.118 -1.090 1.702 13486
1.125 -1.097 1.703 26880
1.132 -1.104 1.704 32039
1.132 -1.103 1.693 25696
1.135 -1.106 1.689 21108
1.154 -1.126 1.706 19818
1.149 -1.121 1.690 26974
1.153 -1.124 1.686 34735
1.160 -1.131 1.686 29189
1.172 -1.142 1.692 23328
1.175 -1.145 1.687 23915
1.178 -1.149 1.682 15299
1.177 -1.148 1.672 5652
1.059 -1.032 1.513 3041
1.061 -1.035 1.508 4513
1.060 -1.034 1.499 6990
1.063 -1.036 1.494 6980
1.061 -1.035 1.485 8180
1.060 -1.033 1.475 6943
1.067 -1.040 1.476 3141
1.066 -1.039 1.466 3951
1.068 -1.042 1.462 7460
1.080 -1.053 1.468 9861
1.087 -1.059 1.469 8352
1.094 -1.066 1.469 4895
1.097 -1.069 1.465 3631
1.091 -1.063 1.450 3948
1.289 -1.257 1.674 4299
1.292 -1.260 1.669 4209
1.300 -1.267 1.669 4198
1.298 -1.266 1.658 4279
1.301 -1.269 1.653 4225
1.173 -1.143 1.498 6443
1.167 -1.137 1.483 9484
1.169 -1.140 1.478 9736
1.172 -1.143 1.473 6089
1.184 -1.154 1.478 3824
1.178 -1.148 1.463 4149
1.172 -1.142 1.449 4503
1.183 -1.154 1.454 4578
1.195 -1.165 1.458 4001
1.211 -1.181 1.468 3070
1.205 -1.175 1.453 3340
1.208 -1.177 1.448 4159
1.201 -1.171 1.434 4815
1.209 -1.178 1.434 3945
1.220 -1.190 1.438 2635
1.228 -1.197 1.438 2655
1.230 -1.199 1.433 2510
1.320 -1.287 1.517 1803
1.245 -1.214 1.432 2731
1.252 -1.221 1.431 6118
1.255 -1.223 1.426 6747
1.257 -1.226 1.421 5699
1.269 -1.237 1.425 5540
1.276 -1.245 1.424 4978
1.302 -1.270 1.442 3887
1.310 -1.277 1.441 3981
1.298 -1.266 1.422 4234
1.315 -1.282 1.430 6022
1.318 -1.285 1.425 8752
1.320 -1.287 1.419 9643
1.332 -1.299 1.423 8261
1.335 -1.302 1.417 6723
1.408 -1.373 1.478 5867
1.690 -1.647 1.730 7164
1.693 -1.651 1.724 9119
1.696 -1.654 1.717 9469
1.709 -1.666 1.718 8254
1.717 -1.674 1.715 5959
1.716 -1.673 1.704 5082
1.719 -1.676 1.697 6313
1.732 -1.688 1.698 7651
1.740 -1.696 1.696 8277
1.762 -1.718 1.705 9981
1.770 -1.726 1.702 12265
1.769 -1.724 1.691 11775
1.772 -1.727 1.683 9029
1.756 -1.712 1.660 5241
1.817 -1.771 1.702 4956
1.820 -1.775 1.694 5583
1.814 -1.768 1.679 6328
1.817 -1.771 1.671 6733
1.825 -1.779 1.668 6781
1.843 -1.797 1.672 7136
1.851 -1.805 1.669 7969
1.859 -1.812 1.665 6557
1.965 -1.916 1.740 6641
1.969 -1.919 1.732 6884
1.967 -1.918 1.720 6581
1.970 -1.921 1.712 6500
1.974 -1.924 1.704 5699
1.992 -1.942 1.707 5488
1.995 -1.945 1.699 6189
1.998 -1.948 1.691 5173
2.041 -1.990 1.713 4462
2.054 -2.003 1.712 3673
2.083 -2.030 1.722 3919
2.081 -2.029 1.710 4134
2.079 -2.027 1.698 4436
2.087 -2.035 1.693 5508
2.096 -2.043 1.688 6644
2.099 -2.046 1.680 7433
2.102 -2.049 1.671 8222
2.105 -2.052 1.662 6961
2.113 -2.060 1.657 5796
2.162 -2.108 1.681 7475
2.160 -2.106 1.668 9810
2.163 -2.109 1.659 7485
2.172 -2.117 1.654 5197
2.180 -2.125 1.648 4516
2.198 -2.143 1.650 4243
2.191 -2.136 1.634 4698
2.194 -2.139 1.625 5236
2.208 -2.152 1.623 4840
2.216 -2.160 1.617 4676
2.224 -2.168 1.611 3893
2.433 -2.372 1.735 4018
2.436 -2.375 1.726 4180
2.388 -2.328 1.683 5122
2.391 -2.331 1.673 5122
2.384 -2.324 1.656 5471
2.377 -2.317 1.640 6345
2.463 -2.401 1.682 4973
2.461 -2.399 1.668 6647
2.464 -2.402 1.658 6394
2.462 -2.400 1.645 6286
2.465 -2.403 1.635 6286
2.468 -2.406 1.625 3143
1.307 -1.274 0.928 1274
0.488 -0.478 1.698 6103
0.492 -0.482 1.696 5869
0.485 -0.476 1.666 6425
0.498 -0.488 1.692 10545
0.501 -0.491 1.690 15454
0.505 -0.494 1.688 15454
0.508 -0.497 1.686 18393
0.511 -0.501 1.684 21331
0.514 -0.504 1.682 19931
0.517 -0.507 1.679 18531
0.521 -0.510 1.677 14273
0.526 -0.516 1.682 10195
0.532 -0.521 1.687 7345
0.538 -0.527 1.692 4190
0.531 -0.520 1.661 3714
0.534 -0.523 1.659 5351
0.534 -0.524 1.650 6734
0.540 -0.529 1.655 8710
0.546 -0.535 1.659 10895
0.549 -0.538 1.657 12940
0.555 -0.544 1.662 15379
0.561 -0.549 1.666 15963
0.566 -0.555 1.671 17049
0.570 -0.558 1.669 14427
0.576 -0.564 1.673 12229
0.581 -0.570 1.678 10898
0.587 -0.575 1.682 10056
0.591 -0.578 1.680 11046
0.594 -0.582 1.677 11885
0.600 -0.587 1.682 12278
0.606 -0.593 1.686 11272
0.609 -0.596 1.683 9170
0.612 -0.600 1.681 6488
0.615 -0.603 1.678 4283
0.616 -0.603 1.669 5953
0.616 -0.603 1.659 7854
0.619 -0.606 1.657 9188
0.625 -0.612 1.661 11351
0.634 -0.621 1.672 17653
0.643 -0.630 1.683 28591
0.646 -0.633 1.680 33811
0.652 -0.639 1.684 29651
0.658 -0.645 1.688 25476
0.665 -0.651 1.692 20820
0.671 -0.657 1.696 17320
0.674 -0.660 1.694 18295
0.677 -0.663 1.691 17260
0.681 -0.667 1.688 13990
0.684 -0.670 1.685 11755
0.687 -0.673 1.682 8736
0.690 -0.676 1.679 6990
0.693 -0.679 1.676 8263
0.703 -0.688 1.687 10373
0.712 -0.698 1.697 15338
0.722 -0.707 1.707 19493
0.728 -0.713 1.711 24423
0.734 -0.719 1.714 24622
0.741 -0.726 1.718 22324
0.744 -0.729 1.715 16732
0.747 -0.732 1.712 14067
0.751 -0.735 1.709 17003
0.757 -0.742 1.712 19930
0.760 -0.745 1.709 24317
0.764 -0.748 1.706 26453
0.764 -0.748 1.696 26487
0.763 -0.748 1.686 24755
0.770 -0.754 1.690 25820
0.773 -0.757 1.686 28261
0.780 -0.764 1.690 24633
0.786 -0.770 1.693 16458
0.789 -0.773 1.689 10292
0.789 -0.773 1.680 9963
0.796 -0.780 1.683 12425
0.799 -0.783 1.679 13062
0.802 -0.786 1.676 14953
0.805 -0.789 1.673 19210
0.809 -0.792 1.669 20708
0.815 -0.799 1.672 22929
0.822 -0.805 1.675 24867
0.825 -0.808 1.672 17349
0.839 -0.821 1.687 8811
0.849 -0.831 1.696 9659
0.852 -0.835 1.693 12705
0.855 -0.838 1.689 15118
0.862 -0.844 1.692 18891
0.869 -0.851 1.694 19586
0.872 -0.854 1.691 14486
0.882 -0.864 1.699 15599
0.885 -0.867 1.696 25843
0.892 -0.874 1.698 25688
0.895 -0.877 1.694 16213
0.884 -0.866 1.666 13338
0.887 -0.869 1.663 10951
0.898 -0.880 1.671 8481
0.934 -0.915 1.722 7208
0.937 -0.918 1.718 9560
0.940 -0.921 1.714 15697
0.947 -0.928 1.716 16991
0.951 -0.931 1.712 20039
0.954 -0.934 1.708 29858
0.961 -0.941 1.710 33551
0.964 -0.944 1.706 26288
0.975 -0.955 1.714 16198
0.982 -0.962 1.716 10238
0.981 -0.961 1.706 11808
0.985 -0.964 1.702 17959
0.988 -0.968 1.698 19779
0.995 -0.975 1.699 15358
0.990 -0.970 1.684 13322
0.997 -0.977 1.685 12277
1.008 -0.988 1.693 13245
1.019 -0.998 1.700 14276
1.026 -1.005 1.702 10154
1.045 -1.024 1.721 7808
1.048 -1.027 1.716 7459
1.044 -1.023 1.700 9555
1.051 -1.030 1.702 11056
1.058 -1.037 1.703 17200
1.061 -1.040 1.699 20387
1.077 -1.055 1.711 21603
1.088 -1.066 1.718 29765
1.091 -1.069 1.714 41633
1.094 -1.072 1.709 51715
1.097 -1.075 1.705 51311
1.101 -1.078 1.700 34303
1.104 -1.081 1.695 13295
1.115 -1.093 1.702 10172
1.123 -1.100 1.703 20883
1.130 -1.107 1.704 27868
1.129 -1.106 1.693 20506
1.136 -1.113 1.694 17237
1.152 -1.128 1.706 20959
1.147 -1.123 1.690 26297
1.154 -1.131 1.691 34043
1.157 -1.134 1.686 27921
1.169 -1.145 1.692 21357
1.172 -1.148 1.687 24716
