1.554 2.078 1.262 4988
1.560 2.086 1.258 6448
0.372 0.494 1.554 13077
0.374 0.497 1.552 13469
0.376 0.501 1.551 13476
0.381 0.507 1.556 11293
0.383 0.510 1.554 9124
0.384 0.510 1.545 14754
0.384 0.511 1.536 20428
0.387 0.514 1.534 23440
0.389 0.518 1.532 28065
0.392 0.521 1.530 29678
0.396 0.527 1.535 28096
0.398 0.530 1.533 26737
0.401 0.533 1.531 21260
0.403 0.536 1.529 15784
0.408 0.542 1.534 15003
0.408 0.543 1.525 14144
0.411 0.546 1.523 10916
0.415 0.552 1.528 7580
0.415 0.552 1.519 5760
0.405 0.538 1.475 4551
0.414 0.550 1.494 7337
0.416 0.553 1.491 10360
0.420 0.559 1.496 14001
0.425 0.565 1.501 17699
0.425 0.566 1.492 17149
0.428 0.569 1.490 16608
0.432 0.575 1.495 12998
0.435 0.578 1.493 9509
0.437 0.581 1.490 13854
0.439 0.584 1.488 18199
0.444 0.590 1.493 20936
0.446 0.594 1.491 21184
0.451 0.600 1.495 21059
0.453 0.603 1.493 23758
0.456 0.606 1.491 24743
0.458 0.609 1.489 23352
0.463 0.616 1.493 22168
0.465 0.619 1.491 19542
0.468 0.622 1.488 15970
0.472 0.628 1.493 17609
0.475 0.631 1.491 25656
0.477 0.635 1.488 30776
0.479 0.638 1.486 33027
0.482 0.641 1.483 31842
0.484 0.644 1.481 28265
0.486 0.647 1.479 24137
0.489 0.650 1.476 18908
0.491 0.653 1.474 17098
0.493 0.656 1.471 17959
0.496 0.659 1.469 19846
0.498 0.662 1.466 22271
0.500 0.666 1.464 29460
0.500 0.665 1.455 39683
0.505 0.672 1.459 48810
0.507 0.675 1.456 52871
0.510 0.678 1.454 39101
0.515 0.684 1.458 26803
0.514 0.684 1.449 21076
0.522 0.694 1.459 17559
0.521 0.693 1.450 24820
0.524 0.696 1.448 29648
0.521 0.692 1.432 28335
0.520 0.692 1.423 27763
0.522 0.695 1.420 21924
0.525 0.698 1.418 15332
0.530 0.704 1.421 11116
0.529 0.704 1.412 8376
0.534 0.710 1.416 8186
0.542 0.721 1.426 15950
0.541 0.720 1.417 23707
0.543 0.723 1.415 25264
0.540 0.718 1.399 19065
0.542 0.721 1.396 16838
0.544 0.724 1.394 22181
0.549 0.731 1.397 25562
0.554 0.737 1.401 32937
0.560 0.744 1.404 38797
0.562 0.747 1.402 35170
0.564 0.750 1.399 30372
0.560 0.745 1.384 23687
0.560 0.744 1.374 18045
0.565 0.751 1.378 15207
0.573 0.762 1.388 14903
0.575 0.765 1.385 15091
0.618 0.823 1.469 13857
0.624 0.830 1.472 17765
0.629 0.837 1.475 14893
0.634 0.844 1.478 14466
0.637 0.847 1.475 17089
0.639 0.850 1.472 18937
0.635 0.845 1.456 16124
0.635 0.844 1.447 11200
0.640 0.851 1.450 9653
0.648 0.862 1.459 15214
0.651 0.865 1.456 16421
0.653 0.868 1.452 10742
0.674 0.896 1.485 17022
0.676 0.899 1.482 17613
0.681 0.906 1.485 13747
0.684 0.909 1.481 13337
0.692 0.921 1.490 10993
0.698 0.928 1.492 9714
0.700 0.931 1.489 9449
0.703 0.934 1.485 12746
0.705 0.938 1.482 13835
0.701 0.932 1.467 10056
0.706 0.940 1.469 8393
0.722 0.960 1.489 12227
0.721 0.959 1.479 13107
0.729 0.970 1.487 12605
0.732 0.973 1.484 11059
0.731 0.972 1.474 7123
0.720 0.958 1.448 8634
0.726 0.965 1.450 11801
0.731 0.973 1.452 11321
0.740 0.984 1.460 9105
0.749 0.996 1.468 17810
0.755 1.004 1.470 23190
0.764 1.016 1.477 21546
0.763 1.014 1.468 22756
0.765 1.017 1.464 22757
0.774 1.029 1.472 15901
0.780 1.037 1.473 7870
0.782 1.040 1.469 7299
0.791 1.052 1.477 14014
0.800 1.064 1.484 27170
0.806 1.072 1.486 34536
0.808 1.075 1.482 29217
0.807 1.073 1.472 29710
0.813 1.081 1.474 26996
0.822 1.093 1.481 16240
0.824 1.096 1.476 26092
0.827 1.099 1.472 36611
0.829 1.103 1.468 20662
0.842 1.120 1.480 7313
0.848 1.127 1.482 9293
0.850 1.130 1.478 16303
0.856 1.138 1.479 13936
0.862 1.146 1.480 12145
0.867 1.154 1.481 21520
0.873 1.161 1.482 33645
0.872 1.160 1.472 33110
0.874 1.163 1.468 20998
0.880 1.171 1.469 13799
0.890 1.183 1.475 12544
0.899 1.196 1.481 9235
0.894 1.189 1.466 9183
0.897 1.193 1.462 11457
0.910 1.210 1.473 11681
0.923 1.227 1.484 10973
0.932 1.240 1.490 14414
0.931 1.238 1.480 21483
0.934 1.242 1.475 27702
0.936 1.245 1.471 24761
0.938 1.248 1.466 22366
0.940 1.251 1.462 19670
0.950 1.264 1.467 12883
0.967 1.286 1.482 16650
0.970 1.289 1.478 19678
0.968 1.288 1.468 18606
0.970 1.291 1.463 18435
0.973 1.294 1.458 17142
0.979 1.302 1.458 17450
0.989 1.315 1.463 22810
0.991 1.318 1.459 22326
0.997 1.326 1.459 13504
1.007 1.339 1.463 7090
1.017 1.352 1.468 7913
1.019 1.355 1.463 11871
1.021 1.358 1.458 14574
1.020 1.356 1.448 18894
1.022 1.359 1.443 23517
1.028 1.367 1.443 24174
1.026 1.365 1.433 19812
1.025 1.363 1.423 14246
1.042 1.386 1.437 11042
1.052 1.400 1.441 13781
1.059 1.408 1.441 16183
1.061 1.411 1.436 14187
1.063 1.414 1.430 10210
1.077 1.432 1.439 9744
1.083 1.440 1.438 9054
1.089 1.449 1.437 12524
1.091 1.452 1.432 18842
1.094 1.455 1.427 21146
1.100 1.463 1.426 21147
1.102 1.466 1.420 18710
1.100 1.463 1.410 15973
1.103 1.466 1.405 13476
1.105 1.469 1.400 12476
1.107 1.472 1.394 9809
1.121 1.491 1.402 6864
1.135 1.510 1.409 8559
1.137 1.513 1.404 9812
1.136 1.510 1.394 8158
1.142 1.519 1.393 5319
1.156 1.537 1.400 7272
1.158 1.540 1.394 9221
1.156 1.538 1.384 11669
1.162 1.546 1.383 12802
1.165 1.549 1.377 10656
1.171 1.557 1.376 7841
1.189 1.582 1.386 5682
1.203 1.601 1.393 4689
1.210 1.609 1.391 4335
1.208 1.606 1.381 5854
1.206 1.604 1.371 9852
1.208 1.607 1.365 12386
1.210 1.610 1.359 11363
1.212 1.612 1.353 10463
1.214 1.615 1.347 9289
1.241 1.651 1.365 9039
1.247 1.659 1.363 12722
1.250 1.662 1.357 12759
1.256 1.670 1.355 12406
1.266 1.684 1.357 12236
1.260 1.676 1.343 10827
1.258 1.673 1.333 9706
1.256 1.670 1.323 7104
1.258 1.673 1.316 4938
1.272 1.692 1.322 5155
1.304 1.734 1.342 5513
1.310 1.742 1.339 8002
1.312 1.745 1.333 7735
1.310 1.742 1.323 7478
1.308 1.739 1.313 5642
1.306 1.737 1.302 4158
1.354 1.801 1.336 4346
1.360 1.809 1.333 4618
1.337 1.778 1.305 5437
1.339 1.781 1.298 6951
1.341 1.784 1.292 8085
1.347 1.792 1.289 9270
1.345 1.789 1.279 8157
1.343 1.786 1.268 7212
1.358 1.806 1.272 8449
1.360 1.808 1.266 10065
1.361 1.811 1.259 9846
1.363 1.813 1.252 9628
1.387 1.844 1.263 8337
1.393 1.853 1.259 8982
1.395 1.855 1.253 6593
1.470 1.955 1.303 7273
1.472 1.958 1.295 5719
1.474 1.961 1.288 4165
1.468 1.952 1.274 5009
1.461 1.943 1.261 6433
1.463 1.946 1.254 5782
1.465 1.948 1.246 4754
1.467 1.951 1.239 4378
1.543 2.052 1.286 4323
1.549 2.060 1.282 4593
1.555 2.069 1.277 4739
1.562 2.077 1.273 4935
1.559 2.074 1.262 4661
1.566 2.082 1.258 6077
0.374 0.496 1.561 13031
0.375 0.497 1.552 13336
0.379 0.503 1.558 13254
0.382 0.506 1.556 11271
0.384 0.509 1.554 9289
0.385 0.510 1.545 15204
0.385 0.511 1.536 21192
0.387 0.514 1.534 24391
0.390 0.517 1.532 29240
0.392 0.520 1.530 30890
0.397 0.526 1.535 29172
0.399 0.529 1.533 27767
0.402 0.533 1.531 21980
0.406 0.539 1.536 16213
0.409 0.542 1.534 15237
0.409 0.542 1.525 14132
0.411 0.546 1.523 10837
0.416 0.552 1.528 7430
0.421 0.558 1.533 5803
0.423 0.561 1.531 4199
0.417 0.552 1.501 7872
0.419 0.556 1.498 11655
0.421 0.559 1.496 15525
0.426 0.565 1.501 19578
0.428 0.568 1.499 18812
0.431 0.571 1.497 18046
0.433 0.574 1.495 14113
0.435 0.577 1.493 10180
0.438 0.581 1.490 14053
0.440 0.584 1.488 17926
0.445 0.590 1.493 20585
0.447 0.593 1.491 20697
0.452 0.599 1.495 20604
0.454 0.602 1.493 24306
0.457 0.606 1.491 26001
0.459 0.609 1.489 24754
0.464 0.615 1.493 23815
0.466 0.618 1.491 20685
0.468 0.621 1.488 16711
0.473 0.628 1.493 18417
0.476 0.631 1.491 26498
0.478 0.634 1.488 31561
0.480 0.637 1.486 33731
0.483 0.640 1.483 32867
0.485 0.643 1.481 29750
0.487 0.646 1.479 25746
0.490 0.649 1.476 20525
0.492 0.653 1.474 18351
0.494 0.656 1.471 18916
0.497 0.659 1.469 20293
0.499 0.662 1.466 21705
0.501 0.665 1.464 27012
0.501 0.664 1.455 35658
0.506 0.671 1.459 44936
0.508 0.674 1.456 48354
0.511 0.677 1.454 34441
0.518 0.687 1.464 23483
0.534 0.708 1.495 19747
0.528 0.700 1.472 17581
0.525 0.696 1.457 27193
0.525 0.696 1.448 30773
0.524 0.695 1.438 27669
0.521 0.691 1.423 27411
0.523 0.694 1.420 22880
0.526 0.697 1.418 16996
0.528 0.700 1.415 12769
0.530 0.703 1.412 9898
0.535 0.709 1.416 9714
0.540 0.716 1.420 15455
0.539 0.715 1.411 22409
0.542 0.718 1.408 24905
0.541 0.717 1.399 19954
0.543 0.720 1.396 18804
0.545 0.723 1.394 24198
0.550 0.730 1.397 26709
0.555 0.737 1.401 32888
0.561 0.743 1.404 37159
0.563 0.746 1.402 33310
0.562 0.745 1.393 29276
0.561 0.744 1.384 23175
0.561 0.743 1.374 16898
0.569 0.754 1.384 13298
0.574 0.761 1.388 14643
0.576 0.764 1.385 16161
0.620 0.822 1.469 13513
0.625 0.829 1.472 16642
0.630 0.836 1.475 14284
0.636 0.843 1.478 15050
0.638 0.846 1.475 18621
0.637 0.845 1.465 21034
0.636 0.844 1.456 18481
0.639 0.847 1.453 12246
0.638 0.846 1.444 8559
0.646 0.857 1.453 11612
0.649 0.860 1.449 12383
0.676 0.896 1.495 9507
0.675 0.895 1.485 19479
0.677 0.898 1.482 21076
0.683 0.905 1.485 16635
0.688 0.913 1.487 15301
0.697 0.924 1.496 12069
0.699 0.927 1.492 9794
0.702 0.930 1.489 9259
0.707 0.938 1.491 12408
0.709 0.941 1.488 13061
0.702 0.931 1.467 9758
0.708 0.939 1.469 8623
0.723 0.959 1.489 12843
0.725 0.962 1.485 14295
0.731 0.969 1.487 12407
0.733 0.972 1.484 9748
0.732 0.971 1.474 7189
0.728 0.966 1.459 7634
0.727 0.964 1.450 9135
0.736 0.976 1.458 8528
0.745 0.988 1.466 8324
0.750 0.995 1.468 17887
0.756 1.003 1.470 22671
0.765 1.015 1.477 20738
0.764 1.013 1.468 18860
0.766 1.016 1.464 18612
0.775 1.028 1.472 14572
0.801 1.063 1.507 7563
0.790 1.048 1.481 7412
0.792 1.051 1.477 15020
0.798 1.059 1.478 27197
0.807 1.071 1.486 33262
0.810 1.074 1.482 28173
0.809 1.072 1.472 28016
0.814 1.080 1.474 25445
0.820 1.088 1.475 18762
0.826 1.095 1.476 31970
0.828 1.098 1.472 43538
0.827 1.097 1.463 22403
0.847 1.123 1.486 5485
0.853 1.131 1.487 9440
0.851 1.129 1.478 16689
0.857 1.137 1.479 14567
0.863 1.145 1.480 12410
0.869 1.152 1.481 20804
0.875 1.160 1.482 31808
0.874 1.159 1.472 31540
0.876 1.162 1.468 21097
0.882 1.170 1.469 14003
0.888 1.177 1.470 12113
0.897 1.190 1.476 7582
0.896 1.188 1.466 7560
0.898 1.191 1.462 11165
0.908 1.204 1.468 12176
0.921 1.221 1.479 11015
0.934 1.239 1.490 14603
0.933 1.237 1.480 22921
0.935 1.240 1.475 29144
0.938 1.243 1.471 25217
0.940 1.246 1.466 22671
0.942 1.250 1.462 21006
0.952 1.262 1.467 14941
0.969 1.285 1.482 20649
0.971 1.288 1.478 24802
0.970 1.286 1.468 23163
0.972 1.289 1.463 22485
0.975 1.292 1.458 20733
0.981 1.300 1.458 21783
0.987 1.308 1.459 27671
0.993 1.316 1.459 25230
0.995 1.319 1.454 13301
1.012 1.343 1.468 5072
1.018 1.351 1.468 6526
1.024 1.359 1.468 9280
1.023 1.357 1.458 11471
1.022 1.355 1.448 16675
1.028 1.363 1.448 23035
1.030 1.366 1.443 24445
1.028 1.364 1.433 20367
1.027 1.362 1.423 15053
1.044 1.385 1.437 12632
1.054 1.398 1.441 15098
1.060 1.406 1.441 16612
1.063 1.409 1.436 14867
1.065 1.412 1.430 10601
1.079 1.431 1.439 9354
1.081 1.434 1.434 9424
1.087 1.442 1.433 13554
1.093 1.450 1.432 20346
1.096 1.453 1.427 22799
1.102 1.461 1.426 22246
1.104 1.464 1.420 18379
1.102 1.462 1.410 15098
1.109 1.470 1.409 13440
1.111 1.473 1.404 12857
1.113 1.476 1.399 9076
1.127 1.495 1.406 5209
1.141 1.513 1.414 8965
1.139 1.511 1.404 11106
1.142 1.514 1.398 9293
1.160 1.538 1.410 5992
1.158 1.536 1.400 8161
1.156 1.533 1.390 11256
1.158 1.536 1.384 13334
1.165 1.544 1.383 13228
1.167 1.547 1.377 9815
1.173 1.556 1.376 6198
1.191 1.580 1.386 4193
1.206 1.599 1.393 5622
1.204 1.596 1.383 6390
1.210 1.605 1.381 6906
1.212 1.608 1.375 10047
1.210 1.605 1.365 12776
1.212 1.608 1.359 11749
1.214 1.611 1.353 10739
1.217 1.613 1.347 9454
1.243 1.649 1.365 9557
1.250 1.657 1.363 13561
1.252 1.660 1.357 13227
1.258 1.668 1.355 12445
1.264 1.677 1.353 12071
1.258 1.669 1.339 10677
1.256 1.666 1.329 9656
1.254 1.663 1.319 7468
1.248 1.655 1.305 5699
1.271 1.685 1.318 5446
1.302 1.727 1.338 5127
1.312 1.741 1.339 7210
1.314 1.743 1.333 7240
1.312 1.740 1.323 7340
1.306 1.732 1.309 5356
1.354 1.796 1.343 4001
1.357 1.799 1.336 3963
1.363 1.807 1.333 3967
1.339 1.776 1.305 5144
1.342 1.779 1.298 6629
1.344 1.782 1.292 7891
1.346 1.784 1.285 9153
1.348 1.787 1.279 8154
1.341 1.778 1.265 7380
1.356 1.798 1.269 8123
1.362 1.806 1.266 9432
1.364 1.809 1.259 9146
1.366 1.811 1.252 8860
1.389 1.843 1.263 8208
1.396 1.851 1.259 8835
1.467 1.945 1.307 7564
1.473 1.953 1.303 8018
1.475 1.956 1.295 6131
1.477 1.959 1.288 4244
1.470 1.950 1.274 4902
1.464 1.941 1.261 6120
1.465 1.944 1.254 5345
1.463 1.940 1.243 4227
1.465 1.943 1.236 3789
1.550 2.055 1.289 3922
1.552 2.058 1.282 4231
1.558 2.066 1.277 4260
1.564 2.075 1.273 4333
1.562 2.072 1.262 4117
1.568 2.080 1.258 5457
0.376 0.495 1.561 12975
0.376 0.496 1.552 13179
0.381 0.502 1.558 13015
0.383 0.505 1.556 11182
0.386 0.508 1.554 9349
0.386 0.509 1.545 15445
0.387 0.509 1.536 21657
0.389 0.513 1.534 24961
0.391 0.516 1.532 29937
0.394 0.519 1.530 31609
0.398 0.525 1.535 29896
0.401 0.528 1.533 28555
0.403 0.531 1.531 22456
0.408 0.537 1.536 16374
0.410 0.541 1.534 15222
0.411 0.541 1.525 13939
0.413 0.544 1.523 10695
0.415 0.547 1.521 7321
0.422 0.556 1.533 6058
0.425 0.560 1.531 4897
0.418 0.551 1.501 8624
0.421 0.554 1.498 12947
0.423 0.557 1.496 17015
0.428 0.563 1.501 21399
0.430 0.567 1.499 20532
0.432 0.570 1.497 19665
0.435 0.573 1.495 15375
0.437 0.576 1.493 11084
0.440 0.579 1.490 14183
0.442 0.582 1.488 17282
0.444 0.585 1.486 19936
0.449 0.592 1.491 19804
0.456 0.601 1.502 19783
0.456 0.601 1.493 24518
0.459 0.604 1.491 27000
0.461 0.607 1.489 25965
0.466 0.614 1.493 25289
0.468 0.617 1.491 21692
0.470 0.620 1.488 17139
0.475 0.626 1.493 18537
0.478 0.629 1.491 26654
0.480 0.632 1.488 31967
0.482 0.635 1.486 34279
0.485 0.639 1.483 33892
0.487 0.642 1.481 31176
0.489 0.645 1.479 27573
0.492 0.648 1.476 22607
0.494 0.651 1.474 19935
0.496 0.654 1.471 19856
0.499 0.657 1.469 20541
0.504 0.664 1.473 21142
0.503 0.663 1.464 24512
0.503 0.663 1.455 30755
0.511 0.673 1.465 39455
0.513 0.676 1.463 43391
0.515 0.679 1.460 31023
0.528 0.696 1.484 23129
0.536 0.706 1.495 20122
0.528 0.695 1.466 20412
0.527 0.695 1.457 30794
0.527 0.694 1.448 32931
0.526 0.694 1.438 28356
0.523 0.689 1.423 27211
0.525 0.692 1.420 23409
0.528 0.695 1.418 18247
0.530 0.698 1.415 14495
0.532 0.701 1.412 12221
0.537 0.708 1.416 12116
0.539 0.711 1.413 15597
0.542 0.714 1.411 21646
0.544 0.717 1.408 24960
0.543 0.716 1.399 21227
0.545 0.719 1.396 20817
0.548 0.722 1.394 25868
0.550 0.724 1.391 27521
0.558 0.735 1.401 32040
0.563 0.742 1.404 34543
0.565 0.745 1.402 30445
0.564 0.744 1.393 27445
0.564 0.743 1.384 21982
0.563 0.742 1.374 15483
0.571 0.752 1.384 11491
0.579 0.763 1.394 14473
0.581 0.766 1.391 17301
0.625 0.824 1.475 13220
0.628 0.827 1.472 15883
0.636 0.838 1.481 13802
0.638 0.841 1.478 14855
0.638 0.840 1.469 18945
0.640 0.843 1.465 22005
0.639 0.842 1.456 19360
0.641 0.845 1.453 13828
0.647 0.852 1.456 10049
0.646 0.851 1.447 10568
0.651 0.858 1.449 9637
0.679 0.894 1.495 10505
0.678 0.893 1.485 21662
0.680 0.896 1.482 24369
0.682 0.899 1.479 20026
0.688 0.906 1.481 17623
0.697 0.918 1.490 13014
0.705 0.929 1.498 9817
0.708 0.932 1.495 9262
0.710 0.935 1.491 12233
0.712 0.939 1.488 11982
0.705 0.929 1.467 8865
0.711 0.936 1.469 8317
0.726 0.956 1.489 13258
0.725 0.955 1.479 15734
0.731 0.963 1.482 11985
0.736 0.970 1.484 8215
0.735 0.969 1.474 7232
0.741 0.976 1.477 7367
0.740 0.975 1.467 7003
0.746 0.982 1.469 6778
0.755 0.994 1.477 9025
0.757 0.997 1.473 17956
0.763 1.005 1.475 21516
0.768 1.012 1.477 19334
0.771 1.015 1.474 16139
0.773 1.018 1.470 15490
0.782 1.030 1.477 13727
0.805 1.060 1.507 9615
0.800 1.054 1.492 9890
0.796 1.048 1.477 14482
0.802 1.056 1.478 25025
0.811 1.068 1.486 31385
0.813 1.071 1.482 26281
0.812 1.070 1.472 24520
0.818 1.077 1.474 21991
0.820 1.080 1.470 20297
0.826 1.088 1.471 36594
0.828 1.091 1.467 48279
0.831 1.094 1.463 24889
0.857 1.129 1.497 5921
0.856 1.128 1.487 9438
0.855 1.126 1.478 15863
0.857 1.130 1.473 14143
0.863 1.137 1.474 11775
0.873 1.150 1.481 19177
0.879 1.157 1.482 28808
0.877 1.156 1.472 28757
0.880 1.159 1.468 20587
0.886 1.167 1.469 13703
0.892 1.174 1.470 11184
0.901 1.187 1.476 6096
0.903 1.190 1.472 5906
0.902 1.188 1.462 10237
0.912 1.201 1.468 11963
0.921 1.214 1.474 10391
0.938 1.236 1.490 13042
0.937 1.234 1.480 22495
0.936 1.233 1.470 28861
0.938 1.236 1.466 25621
0.944 1.243 1.466 23852
0.946 1.247 1.462 22712
0.960 1.264 1.472 17919
0.973 1.282 1.482 24797
0.972 1.280 1.473 29834
0.974 1.283 1.468 28277
0.976 1.286 1.463 27932
0.979 1.289 1.458 26442
0.985 1.297 1.458 27444
0.991 1.305 1.459 32545
0.993 1.308 1.454 27952
0.995 1.311 1.449 13891
1.017 1.339 1.468 5157
1.023 1.347 1.468 6853
1.025 1.350 1.463 7947
1.024 1.348 1.453 8916
1.026 1.351 1.448 14421
1.032 1.360 1.448 21628
1.034 1.363 1.443 23689
1.033 1.360 1.433 21199
1.035 1.363 1.428 17195
1.049 1.382 1.437 14329
1.059 1.395 1.441 16279
1.065 1.403 1.441 17197
1.067 1.406 1.436 16057
1.069 1.409 1.430 12680
1.080 1.422 1.434 10933
1.082 1.425 1.429 10322
1.092 1.438 1.433 14271
1.098 1.447 1.432 21127
1.100 1.450 1.427 23553
1.103 1.453 1.421 22528
1.109 1.461 1.420 17526
1.111 1.464 1.415 14206
1.117 1.472 1.414 13858
1.119 1.475 1.408 13584
1.122 1.478 1.403 9195
1.140 1.502 1.415 4714
1.150 1.515 1.418 9568
1.148 1.513 1.408 12634
1.146 1.510 1.398 10831
1.165 1.534 1.410 7403
1.163 1.532 1.400 8896
1.165 1.535 1.394 11833
1.167 1.538 1.389 13742
1.170 1.541 1.383 13663
1.176 1.549 1.381 10684
1.182 1.557 1.380 7494
1.196 1.576 1.386 6288
1.207 1.590 1.389 7703
1.209 1.593 1.383 8816
1.215 1.601 1.381 8162
1.217 1.604 1.375 10391
1.219 1.607 1.369 13078
1.222 1.609 1.363 12074
1.224 1.612 1.357 10907
1.222 1.610 1.347 9525
1.245 1.640 1.361 9864
1.255 1.653 1.363 13864
1.257 1.656 1.357 13156
1.259 1.659 1.351 12284
1.261 1.662 1.345 12120
1.259 1.659 1.335 11067
1.257 1.656 1.325 10216
1.255 1.653 1.315 8418
1.253 1.651 1.305 7260
1.263 1.664 1.306 6209
1.291 1.700 1.323 5129
1.318 1.736 1.339 6403
1.316 1.734 1.329 6645
1.314 1.731 1.319 7029
1.307 1.722 1.305 5203
1.360 1.792 1.343 4090
1.362 1.795 1.336 3859
1.322 1.741 1.293 4115
1.345 1.772 1.305 5087
1.347 1.775 1.298 6373
1.349 1.778 1.292 7692
1.351 1.780 1.285 9011
1.349 1.777 1.275 8160
1.347 1.774 1.265 7444
1.361 1.794 1.269 7576
1.363 1.796 1.262 8338
1.370 1.805 1.259 8173
1.376 1.813 1.256 8051
1.400 1.844 1.266 8232
1.462 1.926 1.307 8836
1.468 1.935 1.303 8594
1.479 1.949 1.303 8669
1.481 1.951 1.295 6487
1.483 1.954 1.288 4304
1.481 1.951 1.278 4835
1.474 1.942 1.264 5578
1.467 1.933 1.250 4662
1.465 1.930 1.240 3615
1.462 1.927 1.230 3261
1.556 2.050 1.289 3394
1.554 2.047 1.279 3740
1.565 2.061 1.277 3529
1.598 2.105 1.292 3638
1.569 2.067 1.262 3260
1.579 2.081 1.261 4573
0.376 0.495 1.561 12837
0.377 0.495 1.552 12961
0.381 0.501 1.558 12713
0.384 0.504 1.556 11005
0.386 0.508 1.554 9296
0.387 0.508 1.545 15473
0.387 0.509 1.536 21842
0.390 0.512 1.534 25206
0.392 0.515 1.532 30246
0.395 0.518 1.530 31924
0.399 0.524 1.535 30308
0.402 0.528 1.533 29122
0.404 0.531 1.531 22759
0.406 0.534 1.529 16397
0.411 0.540 1.534 14962
0.411 0.540 1.525 13419
0.414 0.544 1.523 10365
0.416 0.547 1.521 7175
0.421 0.553 1.526 6451
0.423 0.556 1.524 5798
0.419 0.551 1.501 9675
0.421 0.554 1.498 14380
0.426 0.560 1.503 18760
0.428 0.563 1.501 23460
0.431 0.566 1.499 22450
0.433 0.569 1.497 21441
0.436 0.572 1.495 16827
0.438 0.575 1.493 12213
0.440 0.579 1.490 14262
0.443 0.582 1.488 16310
0.445 0.585 1.486 18943
0.450 0.591 1.491 18579
0.457 0.600 1.502 18713
0.457 0.600 1.493 24405
0.459 0.604 1.491 27766
0.462 0.607 1.489 26912
0.466 0.613 1.493 26438
0.469 0.616 1.491 22439
0.471 0.619 1.488 17400
0.476 0.626 1.493 18604
0.478 0.629 1.491 26486
0.481 0.632 1.488 31717
0.483 0.635 1.486 34480
0.485 0.638 1.483 35045
0.488 0.641 1.481 32912
0.490 0.644 1.479 29583
0.493 0.647 1.476 24720
0.495 0.650 1.474 21377
0.497 0.653 1.471 20498
0.500 0.657 1.469 20621
0.504 0.663 1.473 20675
0.507 0.666 1.470 22402
0.507 0.666 1.461 26213
0.511 0.672 1.465 34351
0.514 0.675 1.463 38409
0.519 0.682 1.467 28547
0.529 0.695 1.484 24441
0.531 0.698 1.482 20813
0.526 0.691 1.459 24493
0.528 0.694 1.457 34856
0.530 0.697 1.454 35865
0.530 0.696 1.445 29769
0.524 0.689 1.423 26698
0.526 0.692 1.420 23326
0.529 0.695 1.418 19086
0.531 0.698 1.415 16329
0.533 0.701 1.412 14877
0.538 0.707 1.416 14564
0.540 0.710 1.413 15981
0.540 0.709 1.404 21280
0.542 0.712 1.402 25749
0.541 0.711 1.393 23071
0.543 0.714 1.390 23148
0.549 0.721 1.394 27380
0.551 0.724 1.391 28032
0.559 0.734 1.401 30502
0.564 0.741 1.404 31026
0.566 0.744 1.402 26554
0.565 0.743 1.393 24542
0.568 0.746 1.390 20032
0.564 0.741 1.374 13758
0.572 0.752 1.384 9773
0.580 0.762 1.394 14362
0.582 0.765 1.391 17978
0.626 0.823 1.475 12957
0.632 0.830 1.478 15391
0.637 0.837 1.481 13767
0.639 0.840 1.478 14671
0.639 0.839 1.469 18746
0.641 0.842 1.465 22169
0.640 0.841 1.456 20069
0.642 0.844 1.453 15981
0.648 0.851 1.456 13200
0.650 0.854 1.453 10442
0.652 0.857 1.449 7367
0.680 0.893 1.495 11160
0.679 0.892 1.485 23501
0.681 0.895 1.482 27606
0.684 0.898 1.479 23763
0.689 0.906 1.481 20132
0.698 0.917 1.490 13757
0.706 0.928 1.498 9510
0.709 0.931 1.495 9413
0.711 0.935 1.491 12038
0.714 0.938 1.488 10680
0.706 0.928 1.467 7465
0.718 0.944 1.481 7376
0.724 0.951 1.483 13467
0.726 0.954 1.479 16956
0.732 0.962 1.482 11938
0.734 0.965 1.478 7346
0.740 0.972 1.480 7250
0.745 0.980 1.482 7422
0.751 0.987 1.484 6944
0.757 0.994 1.487 7249
0.759 0.998 1.483 10372
0.758 0.996 1.473 17878
0.764 1.004 1.475 19927
0.769 1.011 1.477 17120
0.775 1.019 1.479 14661
0.778 1.022 1.475 13573
0.783 1.029 1.477 13747
0.799 1.050 1.496 13279
0.801 1.053 1.492 13852
0.797 1.047 1.477 14107
0.803 1.055 1.478 22157
0.812 1.067 1.486 29338
0.814 1.070 1.482 23368
0.813 1.069 1.472 19367
0.822 1.081 1.479 18048
0.821 1.079 1.470 22055
0.827 1.087 1.471 39759
0.830 1.090 1.467 49393
0.832 1.093 1.463 27542
0.852 1.119 1.486 8018
0.858 1.127 1.487 8821
0.856 1.125 1.478 13293
0.859 1.129 1.473 12967
0.865 1.136 1.474 10929
0.870 1.144 1.476 17295
0.880 1.156 1.482 24789
0.882 1.159 1.478 24643
0.881 1.158 1.468 19112
0.883 1.161 1.464 12717
0.893 1.173 1.470 9632
0.895 1.177 1.466 5371
0.905 1.189 1.472 4765
0.903 1.187 1.462 8728
0.909 1.195 1.463 10994
0.919 1.208 1.469 9097
0.940 1.235 1.490 11665
0.938 1.233 1.480 22033
0.937 1.231 1.470 28295
0.939 1.234 1.466 24957
0.945 1.242 1.466 23206
0.948 1.245 1.462 23309
0.961 1.263 1.472 20033
0.971 1.276 1.477 26538
0.973 1.279 1.473 31484
0.976 1.282 1.468 30424
0.978 1.285 1.463 31267
0.980 1.288 1.458 30860
0.986 1.296 1.458 32545
0.992 1.304 1.459 37484
0.995 1.307 1.454 31561
0.997 1.310 1.449 15342
0.995 1.308 1.439 5166
1.020 1.341 1.463 6567
1.023 1.344 1.458 6454
1.021 1.342 1.448 6434
1.024 1.345 1.443 11143
1.030 1.353 1.443 18437
1.032 1.356 1.438 21809
1.034 1.359 1.433 21651
1.037 1.362 1.428 19758
1.050 1.380 1.437 17917
1.060 1.394 1.441 19279
1.067 1.402 1.441 19599
1.069 1.405 1.436 18582
1.071 1.408 1.430 15945
1.077 1.416 1.430 13350
1.083 1.424 1.429 11064
1.094 1.437 1.433 14096
1.100 1.445 1.432 20632
1.102 1.448 1.427 22914
1.104 1.451 1.421 21874
1.107 1.454 1.416 16342
1.113 1.462 1.415 13082
1.123 1.476 1.418 13823
1.125 1.479 1.413 13702
1.127 1.482 1.407 9492
1.150 1.511 1.424 4855
1.156 1.519 1.423 9812
1.154 1.517 1.413 13198
1.156 1.520 1.407 11581
1.163 1.528 1.406 8815
1.165 1.531 1.400 10583
1.167 1.534 1.394 13928
1.169 1.536 1.389 15332
1.175 1.545 1.387 14749
1.186 1.558 1.390 13077
1.188 1.561 1.384 11563
1.198 1.575 1.386 10309
1.204 1.583 1.385 10348
1.207 1.586 1.379 10980
1.213 1.594 1.377 9436
1.223 1.608 1.379 10739
1.221 1.605 1.369 13190
1.224 1.608 1.363 12298
1.226 1.611 1.357 11090
1.224 1.608 1.347 9541
1.246 1.638 1.361 9933
1.253 1.646 1.359 13681
1.259 1.655 1.357 12679
1.261 1.657 1.351 12224
1.259 1.655 1.341 12864
1.261 1.658 1.335 11976
1.259 1.655 1.325 11259
1.261 1.658 1.319 9558
1.255 1.649 1.305 8641
1.261 1.657 1.303 6922
1.284 1.688 1.315 5512
1.320 1.735 1.339 5371
1.301 1.710 1.314 5975
1.307 1.718 1.311 6951
1.305 1.715 1.301 5435
1.362 1.790 1.343 4168
1.309 1.720 1.289 4079
1.328 1.745 1.297 4571
1.343 1.765 1.301 5189
1.345 1.768 1.295 6090
1.347 1.770 1.288 7449
1.349 1.773 1.282 8808
1.351 1.776 1.275 8046
1.349 1.773 1.265 7348
1.359 1.786 1.265 7047
1.366 1.795 1.262 7203
1.372 1.803 1.259 7151
1.400 1.840 1.273 8495
1.402 1.842 1.266 8716
1.464 1.924 1.307 10232
1.471 1.933 1.303 9679
1.477 1.941 1.299 9487
1.479 1.944 1.292 6883
1.485 1.952 1.288 4374
1.487 1.955 1.281 4831
1.489 1.957 1.274 5289
1.478 1.943 1.257 3867
1.463 1.922 1.237 2940
1.465 1.925 1.230 2762
1.554 2.043 1.286 2749
1.548 2.034 1.272 3233
1.611 2.117 1.309 3074
1.613 2.120 1.301 3487
1.518 1.995 1.225 2451
1.582 2.079 1.261 3388
0.378 0.493 1.561 10607
0.379 0.494 1.552 10413
0.381 0.497 1.551 10043
0.384 0.500 1.549 9813
0.384 0.501 1.540 9607
0.385 0.501 1.530 13197
0.387 0.504 1.529 17001
0.390 0.508 1.527 18520
0.392 0.511 1.525 20445
0.395 0.514 1.523 20851
0.397 0.517 1.521 18884
0.402 0.523 1.526 17216
0.404 0.526 1.524 12297
0.404 0.527 1.515 7551
0.405 0.527 1.506 6067
0.405 0.527 1.497 4747
0.412 0.536 1.509 6959
0.414 0.539 1.507 9597
0.416 0.543 1.505 12194
0.419 0.546 1.503 14790
0.424 0.552 1.508 15979
0.428 0.558 1.512 17231
0.428 0.558 1.503 23643
0.431 0.561 1.501 30081
0.433 0.564 1.499 31642
0.436 0.567 1.497 33203
0.440 0.574 1.502 29391
0.443 0.577 1.500 26353
0.445 0.580 1.497 23332
0.447 0.583 1.495 20310
0.450 0.586 1.493 27735
0.452 0.589 1.491 33241
0.457 0.595 1.495 33370
0.459 0.598 1.493 29852
0.464 0.605 1.498 24863
0.467 0.608 1.495 21055
0.467 0.608 1.486 17427
0.469 0.611 1.484 14889
0.471 0.614 1.482 9642
0.479 0.624 1.493 7658
0.481 0.627 1.491 7042
0.483 0.630 1.488 5921
0.486 0.633 1.486 8026
0.488 0.636 1.483 14707
0.493 0.642 1.488 19971
0.495 0.645 1.485 21780
0.498 0.649 1.483 21389
0.503 0.655 1.487 15916
0.503 0.655 1.478 8113
0.502 0.654 1.469 4800
0.510 0.664 1.480 5791
0.512 0.667 1.477 10329
0.515 0.670 1.475 13786
0.517 0.673 1.472 13705
0.522 0.680 1.476 12804
0.527 0.687 1.480 13995
0.529 0.690 1.478 16461
0.524 0.682 1.455 21155
0.526 0.685 1.453 41343
0.528 0.688 1.450 57737
0.531 0.691 1.448 60880
0.533 0.694 1.445 57917
0.532 0.694 1.436 46771
0.532 0.693 1.427 40985
0.534 0.696 1.424 41068
0.537 0.699 1.421 49610
0.539 0.702 1.419 50757
0.541 0.705 1.416 29965
0.549 0.715 1.426 12613
0.537 0.700 1.392 12484
0.542 0.706 1.395 18949
0.544 0.709 1.393 26064
0.549 0.716 1.396 33525
0.552 0.719 1.394 31374
0.551 0.718 1.385 22662
0.553 0.721 1.382 16415
0.602 0.784 1.480 10267
0.604 0.787 1.477 8949
0.607 0.790 1.474 8544
0.609 0.793 1.471 6455
0.614 0.800 1.475 7583
0.620 0.807 1.478 11496
0.622 0.810 1.475 10996
0.624 0.813 1.472 12792
0.630 0.820 1.475 18115
0.635 0.827 1.478 19276
0.640 0.834 1.481 15167
0.646 0.841 1.484 12277
0.645 0.840 1.475 12027
0.651 0.847 1.478 11979
0.659 0.859 1.487 15172
0.658 0.858 1.477 21310
0.661 0.861 1.474 22780
0.669 0.872 1.483 17932
0.678 0.883 1.492 15717
0.680 0.886 1.489 20896
0.683 0.889 1.485 31464
0.685 0.892 1.482 32288
0.687 0.895 1.479 18462
0.693 0.903 1.481 12140
0.695 0.906 1.478 14010
0.701 0.913 1.480 13263
0.703 0.916 1.477 11122
0.712 0.927 1.485 12024
0.717 0.935 1.488 18385
0.723 0.942 1.490 28810
0.725 0.945 1.487 35028
0.728 0.948 1.483 29957
0.730 0.951 1.479 24353
0.736 0.959 1.482 19960
0.738 0.962 1.478 16497
0.744 0.969 1.480 14060
0.753 0.981 1.488 11744
0.755 0.984 1.484 13925
0.758 0.987 1.481 16998
0.760 0.990 1.477 15907
0.762 0.993 1.473 16613
0.771 1.005 1.481 21329
0.774 1.008 1.477 22779
0.779 1.015 1.479 15383
0.785 1.023 1.481 12595
0.791 1.030 1.483 17075
0.793 1.033 1.479 14128
0.796 1.037 1.475 13870
0.798 1.040 1.471 19391
0.804 1.047 1.473 17697
0.792 1.032 1.447 12574
0.822 1.071 1.487 16304
0.821 1.070 1.478 30791
0.824 1.073 1.474 38529
0.829 1.081 1.475 41872
0.828 1.079 1.466 31365
0.831 1.082 1.462 22388
0.836 1.090 1.463 21209
0.839 1.093 1.459 26829
0.841 1.096 1.455 30739
0.847 1.103 1.456 18690
0.853 1.111 1.457 10834
0.855 1.114 1.453 7865
0.865 1.126 1.460 7566
0.867 1.129 1.455 6584
0.869 1.132 1.451 4276
0.886 1.154 1.468 9370
0.888 1.157 1.464 14286
0.891 1.160 1.459 10693
0.889 1.159 1.450 7493
0.895 1.166 1.451 8687
0.901 1.174 1.452 11472
0.918 1.196 1.468 14244
0.924 1.204 1.469 12891
0.930 1.212 1.469 9199
0.932 1.215 1.465 13177
0.939 1.223 1.465 13781
0.948 1.235 1.471 13442
0.954 1.243 1.471 18123
0.960 1.251 1.472 17356
0.966 1.259 1.472 17909
0.969 1.262 1.467 26453
0.971 1.265 1.463 27998
0.973 1.268 1.458 21781
0.976 1.271 1.453 17397
0.986 1.284 1.458 14854
0.992 1.292 1.458 13790
0.990 1.290 1.449 13517
1.008 1.313 1.463 13987
1.018 1.326 1.468 19416
1.020 1.329 1.463 24127
1.022 1.332 1.458 25902
1.028 1.340 1.458 23617
1.038 1.353 1.463 22157
1.041 1.356 1.458 21998
1.047 1.364 1.457 27723
1.049 1.367 1.452 33454
1.048 1.365 1.443 36634
1.050 1.368 1.437 36630
1.052 1.371 1.432 31471
1.059 1.379 1.432 28005
1.069 1.392 1.436 29596
1.075 1.400 1.436 26795
1.081 1.408 1.435 16922
1.087 1.416 1.434 9312
1.089 1.419 1.429 9673
1.092 1.422 1.424 13544
1.098 1.430 1.423 15859
1.100 1.433 1.418 19515
1.106 1.441 1.417 21951
1.113 1.450 1.416 19993
1.123 1.463 1.419 17270
1.129 1.471 1.418 13212
1.135 1.479 1.417 10193
1.138 1.482 1.412 11866
1.144 1.490 1.411 12781
1.162 1.514 1.423 14470
1.169 1.522 1.421 19813
1.175 1.530 1.420 24634
1.173 1.528 1.410 25977
1.179 1.536 1.408 20326
1.190 1.550 1.411 19286
1.192 1.553 1.406 19965
1.194 1.556 1.400 20118
1.192 1.553 1.390 17976
1.194 1.556 1.384 16591
1.197 1.559 1.378 12771
1.207 1.572 1.381 6497
1.222 1.591 1.387 4127
1.220 1.589 1.377 6459
1.218 1.586 1.367 13696
1.220 1.589 1.361 18540
1.226 1.597 1.359 20109
1.228 1.600 1.353 21314
1.230 1.603 1.347 18257
1.233 1.606 1.341 11345
1.235 1.608 1.336 6792
1.241 1.617 1.333 10691
1.247 1.625 1.331 18537
1.254 1.633 1.329 22570
1.256 1.636 1.323 18815
1.258 1.638 1.317 15060
1.264 1.647 1.315 9532
1.300 1.693 1.339 8105
1.302 1.696 1.333 10516
1.304 1.699 1.327 10218
1.306 1.702 1.320 9879
1.312 1.710 1.318 7902
1.315 1.712 1.311 5927
1.317 1.715 1.305 6942
1.314 1.712 1.295 7997
1.321 1.720 1.292 7295
1.357 1.768 1.315 8958
1.359 1.770 1.309 10703
1.361 1.773 1.302 12449
1.359 1.770 1.292 9069
1.352 1.762 1.278 6499
1.354 1.764 1.272 4844
1.412 1.840 1.311 4974
1.410 1.837 1.300 7532
1.408 1.834 1.290 9161
1.405 1.831 1.280 11708
1.407 1.834 1.273 14462
1.414 1.842 1.270 11562
1.459 1.901 1.297 12134
1.466 1.909 1.293 10337
1.472 1.918 1.289 8963
1.474 1.920 1.282 6595
1.537 2.003 1.321 4881
1.526 1.989 1.304 5551
1.515 1.974 1.287 7190
1.513 1.971 1.276 7171
1.511 1.968 1.266 7323
1.512 1.970 1.258 7323
1.572 2.048 1.293 5996
1.578 2.056 1.288 7361
1.580 2.059 1.280 8856
1.582 2.061 1.273 10350
1.584 2.064 1.265 9372
1.586 2.066 1.258 13282
0.388 0.481 1.554 10480
0.391 0.484 1.552 10239
0.393 0.488 1.551 9964
0.396 0.491 1.549 9980
0.398 0.494 1.547 9997
0.397 0.492 1.530 13001
0.399 0.495 1.529 16472
0.402 0.498 1.527 17281
0.404 0.501 1.525 18195
0.407 0.504 1.523 18298
0.409 0.508 1.521 16033
0.414 0.513 1.526 13859
0.414 0.514 1.517 9862
0.415 0.514 1.508 6027
0.415 0.514 1.499 5086
0.415 0.515 1.490 4229
0.422 0.523 1.502 6608
0.427 0.529 1.507 9525
0.429 0.532 1.505 12040
0.432 0.535 1.503 14554
0.437 0.541 1.508 15283
0.441 0.547 1.512 16431
0.442 0.548 1.503 22431
0.444 0.551 1.501 28643
0.446 0.554 1.499 30779
0.449 0.557 1.497 32914
0.454 0.563 1.502 29954
0.456 0.566 1.500 27559
0.459 0.569 1.497 25318
0.461 0.572 1.495 23076
0.464 0.575 1.493 30668
0.466 0.578 1.491 36424
0.471 0.584 1.495 36734
0.474 0.587 1.493 33071
0.479 0.593 1.498 27371
0.478 0.593 1.489 23212
0.481 0.596 1.486 19170
0.483 0.600 1.484 16652
0.486 0.603 1.482 11122
0.493 0.612 1.493 8922
0.496 0.615 1.491 8849
0.498 0.618 1.488 8345
0.501 0.621 1.486 8053
0.503 0.624 1.483 12267
0.508 0.630 1.488 17256
0.511 0.633 1.485 19313
0.513 0.636 1.483 19522
0.518 0.643 1.487 14788
0.518 0.643 1.478 7476
0.515 0.639 1.462 4603
0.523 0.649 1.473 5881
0.528 0.655 1.477 10538
0.530 0.658 1.475 13771
0.533 0.661 1.472 13674
0.535 0.664 1.470 13452
0.541 0.670 1.474 14832
0.546 0.677 1.478 17139
0.540 0.669 1.455 21448
0.542 0.672 1.453 41469
0.545 0.675 1.450 57948
0.547 0.678 1.448 61185
0.549 0.681 1.445 58163
0.549 0.681 1.436 45526
0.548 0.680 1.427 39927
0.551 0.683 1.424 41796
0.556 0.689 1.428 50150
0.555 0.689 1.419 51645
0.558 0.692 1.416 31530
0.566 0.702 1.426 14098
0.568 0.705 1.424 11709
0.559 0.693 1.395 16302
0.561 0.696 1.393 22882
0.566 0.702 1.396 30235
0.569 0.705 1.394 28659
0.568 0.704 1.385 20247
0.570 0.707 1.382 14190
0.620 0.770 1.480 8659
0.623 0.773 1.477 7749
0.625 0.776 1.474 7506
0.628 0.779 1.471 6155
0.633 0.785 1.475 9440
0.639 0.792 1.478 14062
0.641 0.795 1.475 12220
0.644 0.798 1.472 13069
0.649 0.805 1.475 18866
0.655 0.812 1.478 20858
0.660 0.819 1.481 17027
0.666 0.826 1.484 13510
0.668 0.829 1.481 12313
0.674 0.836 1.484 12252
0.679 0.843 1.487 15050
0.679 0.842 1.477 20328
0.684 0.849 1.480 22704
0.690 0.856 1.483 20173
0.699 0.867 1.492 17811
0.701 0.870 1.489 22118
0.704 0.873 1.485 32069
0.706 0.876 1.482 32312
0.709 0.879 1.479 18962
0.714 0.886 1.481 12256
0.717 0.889 1.478 13482
0.722 0.896 1.480 12532
0.725 0.899 1.477 10343
0.737 0.914 1.491 11799
0.740 0.917 1.488 17905
0.745 0.924 1.490 28218
0.748 0.928 1.487 34088
0.754 0.935 1.489 29458
0.753 0.934 1.479 24416
0.759 0.941 1.482 19603
0.761 0.944 1.478 16461
0.770 0.955 1.486 14108
0.776 0.962 1.488 12932
0.778 0.966 1.484 16260
0.781 0.969 1.481 18830
0.783 0.972 1.477 17206
0.786 0.975 1.473 15328
0.792 0.982 1.475 18062
0.798 0.989 1.477 19558
0.803 0.997 1.479 13537
0.809 1.004 1.481 11824
0.815 1.011 1.483 15741
0.818 1.014 1.479 13040
0.824 1.022 1.481 13741
0.826 1.025 1.477 19643
0.825 1.023 1.467 17390
0.817 1.013 1.447 11408
0.844 1.047 1.482 12910
0.847 1.050 1.478 24440
0.853 1.057 1.479 35088
0.855 1.060 1.475 42816
0.854 1.059 1.466 31408
0.856 1.062 1.462 21014
0.862 1.069 1.463 20941
0.865 1.072 1.459 26636
0.867 1.075 1.455 29539
0.873 1.083 1.456 18509
0.879 1.090 1.457 11771
0.882 1.093 1.453 8933
0.891 1.105 1.460 8533
0.897 1.113 1.461 7082
0.896 1.111 1.451 4285
0.913 1.133 1.468 8720
0.916 1.136 1.464 12941
0.918 1.139 1.459 11462
0.913 1.132 1.445 9785
0.919 1.140 1.445 9014
0.925 1.148 1.446 10855
0.946 1.174 1.468 11946
0.956 1.186 1.474 13312
0.963 1.194 1.474 11469
0.965 1.197 1.470 16192
0.967 1.200 1.465 17482
0.977 1.212 1.471 14885
0.984 1.220 1.471 18559
0.990 1.228 1.472 17565
0.996 1.236 1.472 19282
0.999 1.239 1.467 28595
1.001 1.242 1.463 28293
1.003 1.245 1.458 20548
1.006 1.247 1.453 15970
1.016 1.260 1.458 12974
1.022 1.268 1.458 11103
1.029 1.276 1.459 10744
1.047 1.298 1.473 14438
1.049 1.301 1.468 20438
1.051 1.304 1.463 23605
1.058 1.312 1.463 23296
1.064 1.320 1.463 22112
1.070 1.328 1.463 22055
1.073 1.331 1.458 20303
1.079 1.339 1.457 22231
1.082 1.342 1.452 26957
1.080 1.340 1.443 31009
1.082 1.342 1.437 32341
1.085 1.345 1.432 28044
1.091 1.353 1.432 22712
1.102 1.366 1.436 23372
1.108 1.374 1.436 22840
1.114 1.382 1.435 15255
1.121 1.390 1.434 9610
1.127 1.398 1.434 11107
1.125 1.396 1.424 14333
1.132 1.404 1.423 16807
1.134 1.407 1.418 20872
1.141 1.415 1.417 24026
1.147 1.423 1.416 22887
1.157 1.436 1.419 19760
1.164 1.444 1.418 14643
1.170 1.452 1.417 11171
1.173 1.454 1.412 13027
1.175 1.457 1.406 13904
1.194 1.481 1.418 14706
1.205 1.494 1.421 19559
1.207 1.497 1.416 23705
1.209 1.500 1.410 23861
1.220 1.513 1.413 20022
1.226 1.521 1.411 21128
1.229 1.524 1.406 21651
1.227 1.521 1.395 20184
1.229 1.524 1.390 16017
1.231 1.527 1.384 14540
1.234 1.530 1.378 11424
1.236 1.533 1.372 5799
1.234 1.530 1.362 3820
1.253 1.554 1.373 6505
1.255 1.557 1.367 14911
1.257 1.560 1.361 20052
1.264 1.568 1.359 21998
1.266 1.570 1.353 23712
1.268 1.573 1.347 20944
1.271 1.576 1.341 14079
1.273 1.579 1.336 9247
1.275 1.581 1.330 12149
1.281 1.589 1.327 18381
1.288 1.597 1.325 21810
1.290 1.600 1.319 17921
1.292 1.603 1.313 14032
1.290 1.600 1.303 8724
1.340 1.662 1.339 6286
1.346 1.670 1.337 8169
1.349 1.673 1.331 8446
1.351 1.675 1.324 8724
1.349 1.673 1.314 7301
1.329 1.648 1.289 6692
1.353 1.678 1.301 6532
1.355 1.680 1.295 7060
1.361 1.688 1.292 6637
1.408 1.746 1.322 8823
1.405 1.743 1.312 10551
1.407 1.746 1.306 12314
1.401 1.737 1.292 9017
1.394 1.729 1.278 6476
1.396 1.731 1.272 4787
1.456 1.806 1.311 4394
1.454 1.803 1.300 6748
1.451 1.800 1.290 8291
1.453 1.802 1.283 10567
1.451 1.799 1.273 12990
1.457 1.808 1.270 10280
1.504 1.866 1.297 11325
1.511 1.874 1.293 9720
1.518 1.882 1.289 8530
1.520 1.885 1.282 6626
1.585 1.966 1.321 4858
1.542 1.912 1.281 5853
1.557 1.932 1.284 7267
1.555 1.929 1.273 7045
1.557 1.931 1.266 6887
1.559 1.934 1.258 6887
1.616 2.004 1.289 5950
1.627 2.018 1.288 7245
1.634 2.026 1.284 8749
1.636 2.029 1.276 10298
1.633 2.025 1.265 9175
1.635 2.028 1.258 13173
0.389 0.480 1.554 10888
0.392 0.483 1.552 10525
0.395 0.487 1.551 10321
0.397 0.490 1.549 10632
0.400 0.493 1.547 10943
0.400 0.493 1.538 13405
0.401 0.494 1.529 16513
0.403 0.497 1.527 16760
0.406 0.500 1.525 16807
0.408 0.503 1.523 16607
0.411 0.506 1.521 14048
0.413 0.510 1.519 11489
0.416 0.513 1.517 8272
0.412 0.508 1.494 5671
0.414 0.511 1.492 4933
0.416 0.514 1.490 4217
0.423 0.522 1.502 6692
0.428 0.528 1.507 9600
0.431 0.531 1.505 12075
0.433 0.534 1.503 14549
0.438 0.540 1.508 14846
0.443 0.546 1.512 15986
0.445 0.549 1.510 21688
0.446 0.549 1.501 27439
0.448 0.553 1.499 30074
0.451 0.556 1.497 32709
0.455 0.562 1.502 30526
0.458 0.565 1.500 28682
0.460 0.568 1.497 27135
0.465 0.574 1.502 25601
0.465 0.574 1.493 33354
0.468 0.577 1.491 39352
0.473 0.583 1.495 39927
0.475 0.586 1.493 36473
0.478 0.589 1.491 30581
0.480 0.592 1.489 26089
0.483 0.595 1.486 21597
0.485 0.598 1.484 19009
0.488 0.601 1.482 12759
0.495 0.611 1.493 9619
0.498 0.614 1.491 10671
0.500 0.617 1.488 11284
0.503 0.620 1.486 10131
0.502 0.619 1.477 11982
0.507 0.626 1.481 15222
0.512 0.632 1.485 17130
0.515 0.635 1.483 17557
0.520 0.641 1.487 13174
0.520 0.641 1.478 6771
0.517 0.637 1.462 4643
0.525 0.647 1.473 6132
0.530 0.653 1.477 10695
0.532 0.656 1.475 13787
0.535 0.659 1.472 13681
0.537 0.662 1.470 13956
0.542 0.669 1.474 15758
0.548 0.675 1.478 17987
0.544 0.671 1.462 22210
0.547 0.674 1.459 41960
0.549 0.677 1.457 58726
0.549 0.677 1.448 61548
0.551 0.680 1.445 58410
0.554 0.683 1.442 44126
0.550 0.679 1.427 38898
0.553 0.681 1.424 43109
0.558 0.688 1.428 51278
0.560 0.691 1.425 52336
0.563 0.694 1.423 33082
0.568 0.700 1.426 15377
0.570 0.703 1.424 11797
0.564 0.695 1.402 14388
0.563 0.694 1.393 20215
0.568 0.701 1.396 27137
0.571 0.704 1.394 25810
0.570 0.703 1.385 17884
0.572 0.706 1.382 12164
0.574 0.708 1.379 7135
0.625 0.771 1.477 6819
0.627 0.774 1.474 6993
0.630 0.777 1.471 7062
0.635 0.784 1.475 12712
0.641 0.790 1.478 17326
0.643 0.793 1.475 13735
0.646 0.796 1.472 13069
0.651 0.803 1.475 18975
0.657 0.810 1.478 21775
0.662 0.817 1.481 18601
0.668 0.824 1.484 15014
0.670 0.827 1.481 13182
0.676 0.834 1.484 12958
0.679 0.837 1.481 15013
0.681 0.840 1.477 19651
0.687 0.847 1.480 23378
0.695 0.858 1.489 23369
0.701 0.865 1.492 20350
0.707 0.872 1.495 23223
0.706 0.871 1.485 32114
0.709 0.874 1.482 32390
0.711 0.877 1.479 19922
0.717 0.884 1.481 13047
0.719 0.887 1.478 13709
0.722 0.890 1.474 12175
0.727 0.897 1.477 10616
0.740 0.912 1.491 12432
0.746 0.919 1.494 17412
0.748 0.922 1.490 26843
0.750 0.925 1.487 32289
0.753 0.928 1.483 28263
0.755 0.931 1.479 23637
0.761 0.939 1.482 18693
0.764 0.942 1.478 16249
0.773 0.953 1.486 14139
0.779 0.960 1.488 14044
0.781 0.963 1.484 17827
0.784 0.966 1.481 19330
0.786 0.969 1.477 18260
0.789 0.972 1.473 15037
0.794 0.980 1.475 15138
0.800 0.987 1.477 16207
0.803 0.990 1.474 12279
0.812 1.002 1.481 11612
0.818 1.009 1.483 14623
0.824 1.016 1.485 12608
0.827 1.019 1.481 14563
0.829 1.022 1.477 19995
0.828 1.021 1.467 16873
0.820 1.011 1.447 10360
0.843 1.040 1.476 10019
0.849 1.048 1.478 18289
0.856 1.055 1.479 31866
0.858 1.058 1.475 42586
0.857 1.057 1.466 30494
0.856 1.055 1.456 18688
0.865 1.067 1.463 19376
0.868 1.070 1.459 25325
0.870 1.073 1.455 27200
0.876 1.080 1.456 17730
0.882 1.088 1.457 11677
0.888 1.095 1.458 9278
0.894 1.103 1.460 9785
0.900 1.110 1.461 7792
0.899 1.109 1.451 4584
0.916 1.130 1.468 8138
0.919 1.133 1.464 11731
0.918 1.131 1.454 12206
0.916 1.130 1.445 11638
0.919 1.133 1.440 9269
0.928 1.145 1.446 10726
0.938 1.157 1.452 10122
0.963 1.188 1.479 15917
0.970 1.196 1.479 18026
0.972 1.199 1.475 22244
0.971 1.197 1.465 21712
0.981 1.210 1.471 16526
0.987 1.217 1.471 19381
0.993 1.225 1.472 18391
1.000 1.233 1.472 20907
1.002 1.236 1.467 30036
1.005 1.239 1.463 27090
1.007 1.242 1.458 17320
1.013 1.249 1.458 13007
1.023 1.262 1.463 12858
1.030 1.270 1.463 14091
1.032 1.273 1.459 12716
1.050 1.295 1.473 15242
1.053 1.298 1.468 20348
1.055 1.301 1.463 22519
1.061 1.309 1.463 21081
1.068 1.317 1.463 21161
1.070 1.320 1.458 21511
1.073 1.323 1.453 16796
1.083 1.336 1.457 16957
1.081 1.334 1.448 22410
1.084 1.337 1.443 26357
1.082 1.334 1.433 27788
1.089 1.342 1.432 24311
1.095 1.350 1.432 20775
1.105 1.363 1.436 21684
1.112 1.371 1.436 20052
1.118 1.379 1.435 12556
1.129 1.392 1.439 10729
1.131 1.395 1.434 13988
1.129 1.393 1.424 16002
1.136 1.401 1.423 17785
1.142 1.408 1.422 21841
1.145 1.411 1.417 25139
1.151 1.419 1.416 24881
1.157 1.427 1.415 21530
1.168 1.440 1.418 15312
1.179 1.453 1.422 11602
1.177 1.451 1.412 13599
1.179 1.454 1.406 14340
1.198 1.477 1.418 14761
1.205 1.485 1.417 19586
1.211 1.493 1.416 22867
1.213 1.496 1.410 21561
1.224 1.509 1.413 19829
1.231 1.518 1.411 22632
1.229 1.515 1.401 23204
1.231 1.518 1.395 20218
1.233 1.521 1.390 14302
1.236 1.524 1.384 12861
1.234 1.521 1.374 10687
1.236 1.524 1.368 6180
1.238 1.527 1.362 4778
1.253 1.545 1.369 7286
1.260 1.553 1.367 16373
1.262 1.556 1.361 21884
1.268 1.564 1.359 24175
1.271 1.567 1.353 26345
1.273 1.570 1.347 23865
1.271 1.567 1.338 17512
1.269 1.564 1.328 12764
1.275 1.572 1.326 14394
1.282 1.580 1.324 18784
1.288 1.588 1.321 21594
1.290 1.591 1.315 18071
1.288 1.588 1.305 14563
1.290 1.591 1.299 10110
1.283 1.583 1.286 6049
1.355 1.672 1.341 5736
1.353 1.669 1.331 6801
1.351 1.666 1.320 8220
1.344 1.658 1.307 7480
1.333 1.644 1.289 7624
1.349 1.663 1.294 6987
1.355 1.671 1.291 7203
1.362 1.679 1.289 6832
1.412 1.742 1.322 8769
1.410 1.739 1.312 10425
1.412 1.742 1.306 12233
1.410 1.739 1.295 8953
1.403 1.730 1.282 6437
1.401 1.727 1.272 4699
1.465 1.807 1.314 3962
1.459 1.799 1.300 6004
1.456 1.796 1.290 7380
1.458 1.798 1.283 9467
1.456 1.795 1.273 11594
1.467 1.809 1.273 9184
1.505 1.856 1.293 10920
1.516 1.870 1.293 9368
1.523 1.878 1.289 8258
1.529 1.886 1.285 6782
1.541 1.900 1.285 5828
1.543 1.902 1.278 6401
1.563 1.927 1.284 7078
1.560 1.924 1.273 6640
1.562 1.927 1.266 6231
1.565 1.929 1.258 6231
1.621 1.999 1.289 6016
1.633 2.013 1.288 7208
1.639 2.021 1.284 8734
1.641 2.024 1.276 10334
1.639 2.021 1.265 9051
1.641 2.023 1.258 13140
0.392 0.478 1.554 16904
0.396 0.484 1.560 18023
0.399 0.487 1.558 19618
0.402 0.490 1.556 22983
0.404 0.494 1.554 26347
0.407 0.497 1.552 27705
0.407 0.497 1.543 29159
0.412 0.503 1.548 25669
0.417 0.509 1.553 21899
0.419 0.512 1.551 20730
0.422 0.515 1.549 19523
0.422 0.516 1.540 18317
0.427 0.522 1.545 16279
0.430 0.525 1.543 14243
0.432 0.528 1.541 14582
0.432 0.528 1.532 14873
0.435 0.531 1.530 16001
0.438 0.535 1.528 17081
0.438 0.535 1.519 15329
0.440 0.538 1.517 13944
0.443 0.541 1.515 13550
0.445 0.544 1.512 13157
0.450 0.550 1.517 19408
0.453 0.553 1.515 25759
0.455 0.556 1.513 27728
0.455 0.556 1.504 30163
0.458 0.559 1.502 30579
0.460 0.563 1.500 30996
0.463 0.566 1.497 31294
0.465 0.569 1.495 31592
0.468 0.572 1.493 35480
0.470 0.575 1.491 38362
0.475 0.581 1.495 39990
0.478 0.584 1.493 39162
0.480 0.587 1.491 35100
0.483 0.590 1.489 29359
0.485 0.593 1.486 23618
0.488 0.596 1.484 18730
0.490 0.599 1.482 10933
0.500 0.611 1.500 8657
0.498 0.608 1.484 12522
0.500 0.611 1.481 15993
0.500 0.611 1.472 17573
0.503 0.614 1.470 19051
0.505 0.617 1.468 18709
0.507 0.620 1.465 21013
0.510 0.623 1.463 22671
0.515 0.629 1.467 23434
0.517 0.632 1.465 22261
0.523 0.638 1.469 16943
0.533 0.651 1.486 12194
0.538 0.658 1.490 8524
0.541 0.661 1.488 7040
0.543 0.664 1.485 6074
0.549 0.670 1.489 6110
0.548 0.670 1.480 8234
0.551 0.673 1.478 9825
0.553 0.676 1.475 18364
0.556 0.679 1.472 35035
0.558 0.682 1.470 46211
0.558 0.681 1.461 48005
0.563 0.688 1.464 43102
0.565 0.691 1.462 31335
0.565 0.690 1.453 25482
0.562 0.686 1.437 29770
0.564 0.689 1.434 30789
0.566 0.692 1.432 24203
0.569 0.695 1.429 11064
0.571 0.698 1.426 6383
0.570 0.697 1.417 8325
0.576 0.703 1.421 10611
0.581 0.710 1.425 10996
0.604 0.738 1.466 10788
0.607 0.741 1.464 15462
0.612 0.748 1.467 17743
0.615 0.751 1.464 16885
0.623 0.761 1.474 18522
0.629 0.768 1.477 19343
0.634 0.775 1.481 13572
0.640 0.781 1.484 13679
0.642 0.784 1.481 18466
0.645 0.787 1.478 16399
0.650 0.794 1.481 16399
0.656 0.801 1.484 16123
0.661 0.808 1.487 12149
0.667 0.815 1.490 8553
0.663 0.810 1.475 8638
0.665 0.813 1.472 14313
0.671 0.820 1.475 19248
0.677 0.827 1.478 18275
0.682 0.834 1.481 14749
0.685 0.837 1.477 15131
0.691 0.844 1.480 17415
0.699 0.854 1.489 18688
0.702 0.857 1.486 19525
0.704 0.860 1.482 19928
0.710 0.867 1.485 18181
0.713 0.870 1.482 10855
0.702 0.857 1.455 4636
0.711 0.868 1.463 6944
0.723 0.884 1.478 10477
0.736 0.899 1.492 10241
0.741 0.906 1.495 9892
0.737 0.901 1.479 12160
0.740 0.904 1.476 16002
0.746 0.911 1.478 14178
0.748 0.914 1.475 8701
0.754 0.921 1.477 5868
0.760 0.928 1.479 7681
0.772 0.943 1.493 10818
0.775 0.946 1.490 11778
0.781 0.954 1.492 8094
0.776 0.948 1.477 5709
0.765 0.935 1.450 6239
0.778 0.950 1.464 12445
0.784 0.957 1.466 17855
0.790 0.965 1.468 16803
0.788 0.963 1.458 20714
0.794 0.970 1.460 20665
0.811 0.991 1.479 21524
0.817 0.998 1.481 25107
0.823 1.005 1.483 25337
0.825 1.008 1.479 25636
0.828 1.011 1.475 24047
0.830 1.014 1.471 23824
0.833 1.017 1.467 29347
0.839 1.024 1.469 38114
0.841 1.027 1.465 38751
0.843 1.030 1.461 39592
0.850 1.038 1.463 35568
0.856 1.045 1.464 29492
0.858 1.048 1.460 22917
0.860 1.051 1.456 17456
0.863 1.054 1.452 17464
0.869 1.061 1.453 19468
0.875 1.069 1.455 24942
0.885 1.081 1.461 26778
0.891 1.088 1.463 26352
0.890 1.087 1.453 24569
0.892 1.090 1.449 29948
0.898 1.097 1.450 30825
0.904 1.105 1.451 33007
0.907 1.108 1.447 29432
0.913 1.115 1.448 22854
0.911 1.113 1.438 23216
0.906 1.107 1.424 25409
0.905 1.105 1.414 22497
0.907 1.108 1.410 17176
0.925 1.130 1.426 20350
0.927 1.133 1.422 23706
0.933 1.140 1.423 17229
0.939 1.148 1.424 13982
0.938 1.146 1.414 9408
0.986 1.205 1.471 8287
0.989 1.208 1.466 17876
0.991 1.211 1.462 30181
0.994 1.214 1.457 30789
1.000 1.222 1.457 24741
1.010 1.234 1.463 30255
1.013 1.237 1.458 38296
1.015 1.240 1.453 28964
1.014 1.238 1.443 17552
1.024 1.251 1.449 17823
1.034 1.263 1.454 24478
1.048 1.281 1.463 28150
1.051 1.284 1.459 30797
1.057 1.291 1.458 24345
1.063 1.299 1.458 14431
1.066 1.302 1.453 10670
1.072 1.310 1.453 11061
1.075 1.313 1.448 10714
1.081 1.321 1.448 14950
1.088 1.329 1.448 26335
1.094 1.336 1.447 39759
1.096 1.339 1.442 49535
1.099 1.342 1.437 51405
1.101 1.345 1.432 49140
1.103 1.348 1.427 44208
1.110 1.356 1.426 36121
1.112 1.359 1.421 26410
1.119 1.367 1.420 17142
1.125 1.375 1.420 9600
1.148 1.402 1.437 10333
1.155 1.410 1.437 14093
1.153 1.408 1.427 14658
1.155 1.411 1.421 13122
1.157 1.414 1.416 11719
1.164 1.422 1.415 15277
1.170 1.430 1.414 20005
1.173 1.433 1.408 21426
1.183 1.446 1.412 21103
1.198 1.464 1.419 22339
1.205 1.472 1.418 26157
1.203 1.470 1.408 28423
1.205 1.472 1.403 26670
1.208 1.475 1.397 22962
1.214 1.483 1.396 19707
1.225 1.496 1.398 20576
1.236 1.510 1.401 17401
1.246 1.523 1.404 15475
1.240 1.515 1.390 11144
1.243 1.518 1.384 7445
1.249 1.526 1.382 7523
1.256 1.534 1.381 9789
1.262 1.542 1.379 11520
1.264 1.545 1.373 10760
1.271 1.553 1.371 12668
1.269 1.550 1.361 15163
1.271 1.553 1.355 15467
1.273 1.556 1.349 15422
1.271 1.553 1.339 12040
1.274 1.556 1.334 7229
1.263 1.543 1.316 5801
1.274 1.556 1.318 8256
1.280 1.564 1.316 15512
1.287 1.572 1.314 20677
1.289 1.574 1.308 25461
1.291 1.577 1.302 30071
1.293 1.580 1.296 30435
1.295 1.582 1.290 30799
1.297 1.585 1.284 26648
1.299 1.587 1.277 18674
1.297 1.584 1.268 15034
1.308 1.598 1.269 14205
1.310 1.600 1.263 13995
1.316 1.608 1.261 12921
1.327 1.622 1.262 12396
