1.358 -0.699 1.541 11061
1.378 -0.709 1.552 6955
1.392 -0.716 1.558 9887
1.411 -0.726 1.569 8533
1.426 -0.734 1.575 12724
1.429 -0.736 1.570 15086
1.444 -0.743 1.576 11712
1.453 -0.748 1.576 14543
1.456 -0.749 1.572 20799
1.460 -0.751 1.567 20123
1.469 -0.756 1.567 14125
1.473 -0.758 1.562 14444
1.482 -0.763 1.562 16331
1.485 -0.764 1.557 13213
1.484 -0.764 1.547 13958
1.487 -0.765 1.542 21516
1.491 -0.767 1.538 23859
1.489 -0.766 1.528 17875
1.493 -0.768 1.523 15317
1.502 -0.773 1.523 15182
1.505 -0.775 1.518 10560
1.580 -0.813 1.577 6740
1.584 -0.815 1.571 7691
1.588 -0.817 1.566 10805
1.603 -0.825 1.571 15957
1.606 -0.827 1.565 16427
1.610 -0.829 1.560 19239
1.614 -0.830 1.554 32831
1.623 -0.835 1.554 39425
1.626 -0.837 1.549 36832
1.636 -0.842 1.548 44499
1.639 -0.844 1.542 50543
1.643 -0.846 1.537 44608
1.647 -0.847 1.532 32924
1.656 -0.852 1.531 20719
1.654 -0.851 1.521 13702
1.657 -0.853 1.515 11130
1.758 -0.905 1.588 9838
1.767 -0.910 1.587 12646
1.771 -0.911 1.581 13423
1.769 -0.910 1.571 11771
1.773 -0.912 1.565 11937
1.788 -0.920 1.568 13432
1.803 -0.928 1.571 12354
1.807 -0.930 1.565 11426
1.805 -0.929 1.555 10944
1.803 -0.928 1.544 8062
1.818 -0.936 1.547 6672
1.827 -0.940 1.545 12132
1.831 -0.942 1.539 13941
1.829 -0.941 1.529 13603
1.838 -0.946 1.527 15495
1.853 -0.954 1.530 17441
1.863 -0.959 1.528 16607
1.867 -0.961 1.522 12420
1.888 -0.972 1.528 6528
1.951 -1.004 1.565 9036
1.960 -1.009 1.563 11250
1.964 -1.011 1.556 17050
1.968 -1.013 1.550 22808
1.983 -1.021 1.551 19259
1.999 -1.029 1.553 16855
1.996 -1.027 1.542 14557
2.000 -1.029 1.536 13375
2.004 -1.031 1.529 14334
2.013 -1.036 1.527 15605
2.011 -1.035 1.516 15419
2.014 -1.037 1.509 12082
2.036 -1.048 1.515 11057
2.046 -1.053 1.512 12740
2.043 -1.051 1.501 13288
2.047 -1.053 1.494 12930
2.050 -1.055 1.487 11882
2.060 -1.060 1.485 9517
2.130 -1.096 1.521 8925
2.128 -1.095 1.510 5906
2.162 -1.113 1.522 5873
2.166 -1.115 1.515 8500
2.169 -1.116 1.508 10073
2.173 -1.118 1.501 11647
2.176 -1.120 1.493 10060
2.186 -1.125 1.490 8509
2.189 -1.127 1.483 11028
2.193 -1.129 1.475 14716
2.202 -1.134 1.472 16105
2.200 -1.132 1.461 13312
2.203 -1.134 1.454 10739
2.288 -1.177 1.494 10208
2.297 -1.182 1.490 13623
2.295 -1.181 1.479 13063
2.298 -1.183 1.471 12734
2.301 -1.184 1.463 8689
2.299 -1.183 1.452 4714
2.397 -1.233 1.497 4630
2.400 -1.235 1.489 5457
2.403 -1.237 1.481 6074
2.407 -1.239 1.473 6692
2.410 -1.241 1.466 5966
2.395 -1.232 1.447 5552
2.430 -1.251 1.456 5131
2.440 -1.256 1.452 5169
2.443 -1.257 1.444 5169
2.663 -1.371 1.549 3655
2.667 -1.373 1.540 3655
2.664 -1.371 1.528 5803
2.661 -1.370 1.516 8086
2.665 -1.372 1.507 7889
2.662 -1.370 1.495 7797
2.666 -1.372 1.486 6036
2.656 -1.367 1.471 4601
2.660 -1.369 1.462 4601
2.669 -1.374 1.457 3063
2.802 -1.442 1.510 2333
2.806 -1.444 1.501 1166
0.575 -0.298 1.619 7651
0.579 -0.300 1.617 9923
0.580 -0.300 1.608 12271
0.587 -0.304 1.613 10144
0.596 -0.309 1.626 8509
0.603 -0.312 1.631 9065
0.607 -0.314 1.629 9206
0.611 -0.316 1.627 8745
0.615 -0.318 1.625 7069
0.615 -0.319 1.615 5442
0.622 -0.322 1.620 5348
0.629 -0.326 1.625 5322
0.630 -0.326 1.616 4207
0.634 -0.328 1.614 3110
0.641 -0.332 1.619 4613
0.644 -0.334 1.617 6121
0.645 -0.334 1.607 6800
0.652 -0.338 1.612 8789
0.659 -0.341 1.617 10233
0.663 -0.343 1.615 10566
0.670 -0.347 1.620 10773
0.674 -0.349 1.617 8075
0.678 -0.351 1.615 5244
0.681 -0.353 1.613 5281
0.689 -0.357 1.617 5301
0.692 -0.359 1.615 4565
0.696 -0.361 1.613 5088
0.703 -0.364 1.617 7198
0.711 -0.368 1.622 10634
0.714 -0.370 1.619 13287
0.718 -0.372 1.617 12546
0.719 -0.372 1.608 11955
0.722 -0.374 1.605 11421
0.719 -0.373 1.589 11436
0.726 -0.376 1.594 16287
0.734 -0.380 1.598 19998
0.737 -0.382 1.595 21410
0.741 -0.384 1.593 23854
0.748 -0.388 1.597 24046
0.752 -0.390 1.595 22719
0.756 -0.392 1.592 21637
0.756 -0.392 1.583 20763
0.760 -0.394 1.580 15037
0.771 -0.399 1.591 11022
0.763 -0.396 1.568 12010
0.771 -0.399 1.573 18464
0.778 -0.403 1.577 24425
0.786 -0.407 1.581 25391
0.793 -0.411 1.585 25634
0.793 -0.411 1.575 19859
0.801 -0.415 1.579 15162
0.797 -0.413 1.563 20891
0.800 -0.415 1.561 28967
0.804 -0.417 1.558 32917
0.812 -0.420 1.562 30764
0.815 -0.422 1.559 25658
0.862 -0.447 1.629 20543
0.874 -0.453 1.639 17453
0.885 -0.459 1.649 14605
0.889 -0.461 1.646 12957
0.897 -0.465 1.650 13621
0.901 -0.467 1.647 15718
0.905 -0.469 1.644 14669
0.909 -0.471 1.641 15073
0.905 -0.469 1.625 16319
0.908 -0.471 1.622 13192
0.916 -0.475 1.625 10554
0.924 -0.479 1.628 11605
0.924 -0.479 1.619 13689
0.928 -0.481 1.616 13674
0.931 -0.483 1.613 10454
0.927 -0.480 1.597 9566
0.935 -0.484 1.600 12976
0.943 -0.488 1.603 18444
0.951 -0.493 1.606 21536
0.955 -0.495 1.603 21534
0.967 -0.501 1.613 19473
0.971 -0.503 1.609 11930
0.970 -0.503 1.600 7070
0.974 -0.505 1.597 7941
0.982 -0.509 1.600 9070
0.990 -0.513 1.603 10662
0.998 -0.517 1.605 10631
0.923 -0.478 1.490 8327
0.927 -0.480 1.487 9185
0.926 -0.480 1.478 7462
0.925 -0.479 1.469 7755
0.942 -0.488 1.484 5925
0.963 -0.499 1.505 3185
0.926 -0.480 1.447 5220
0.925 -0.479 1.438 7965
0.920 -0.476 1.423 9429
0.909 -0.471 1.401 9806
0.904 -0.468 1.386 10288
0.907 -0.470 1.383 9783
0.915 -0.474 1.386 9112
0.918 -0.475 1.383 6876
0.916 -0.475 1.374 6567
0.915 -0.474 1.365 5933
0.918 -0.476 1.362 5124
0.907 -0.470 1.341 6534
0.906 -0.469 1.332 9827
0.904 -0.468 1.323 9294
0.903 -0.468 1.314 5766
1.159 -0.600 1.629 4631
1.153 -0.597 1.614 10836
1.157 -0.599 1.610 17056
1.156 -0.599 1.600 14434
1.150 -0.596 1.584 11830
1.159 -0.600 1.586 10025
1.163 -0.602 1.583 8943
1.176 -0.609 1.590 20320
1.180 -0.611 1.586 32890
1.183 -0.613 1.582 27455
1.187 -0.615 1.578 20541
1.200 -0.622 1.586 14289
1.204 -0.624 1.582 12208
1.208 -0.626 1.578 17091
1.221 -0.633 1.585 16601
1.235 -0.640 1.592 16403
1.239 -0.642 1.588 23538
1.247 -0.646 1.590 21511
1.251 -0.648 1.586 14597
1.255 -0.650 1.581 14984
1.129 -0.585 1.432 15810
1.132 -0.587 1.428 21154
1.135 -0.588 1.425 23255
1.139 -0.590 1.421 14080
1.142 -0.592 1.417 7711
1.150 -0.596 1.419 11283
1.159 -0.600 1.420 13984
1.325 -0.686 1.591 17919
1.329 -0.688 1.587 25642
1.337 -0.693 1.588 20869
1.341 -0.695 1.583 11087
1.345 -0.697 1.579 10090
1.354 -0.701 1.580 9344
1.357 -0.703 1.575 8076
1.361 -0.705 1.571 12361
1.354 -0.702 1.556 16486
1.358 -0.704 1.551 16045
1.356 -0.703 1.541 11386
1.370 -0.710 1.547 7316
1.390 -0.720 1.558 9371
1.415 -0.733 1.575 8402
1.424 -0.738 1.575 13633
1.427 -0.739 1.570 16819
1.442 -0.747 1.576 13622
1.451 -0.752 1.576 16882
1.454 -0.753 1.572 24676
1.458 -0.755 1.567 24693
1.467 -0.760 1.567 17494
1.476 -0.765 1.567 16423
1.480 -0.767 1.562 17330
1.483 -0.768 1.557 13756
1.482 -0.768 1.547 11511
1.491 -0.772 1.547 16396
1.494 -0.774 1.543 18610
1.492 -0.773 1.533 13500
1.496 -0.775 1.528 11930
1.571 -0.814 1.587 12589
1.575 -0.816 1.582 10500
1.584 -0.820 1.582 9577
1.582 -0.820 1.571 10021
1.586 -0.821 1.566 12388
1.600 -0.829 1.571 17729
1.610 -0.834 1.570 17610
1.613 -0.836 1.565 19044
1.617 -0.838 1.559 31663
1.621 -0.840 1.554 39330
1.630 -0.844 1.553 38627
1.633 -0.846 1.548 46090
1.637 -0.848 1.542 51960
1.641 -0.850 1.537 46558
1.650 -0.855 1.536 35041
1.654 -0.857 1.531 22901
1.657 -0.859 1.525 15619
1.655 -0.857 1.515 12805
1.744 -0.904 1.579 11017
1.759 -0.911 1.582 12386
1.763 -0.913 1.577 12608
1.767 -0.915 1.571 10776
1.770 -0.917 1.565 11180
1.780 -0.922 1.563 12392
1.795 -0.930 1.567 11970
1.804 -0.935 1.565 12276
1.802 -0.934 1.555 11693
1.806 -0.936 1.549 7864
1.833 -0.950 1.560 5639
1.831 -0.948 1.550 10911
1.828 -0.947 1.539 13196
1.832 -0.949 1.533 13533
1.836 -0.951 1.527 16391
1.851 -0.959 1.530 17943
1.860 -0.964 1.528 16335
1.864 -0.966 1.522 11938
1.909 -0.989 1.546 7301
1.942 -1.006 1.561 9592
1.958 -1.014 1.563 12540
1.961 -1.016 1.556 18702
1.965 -1.018 1.550 24330
1.974 -1.023 1.547 19327
1.996 -1.034 1.553 16328
1.994 -1.033 1.542 13944
1.997 -1.035 1.536 11645
2.007 -1.040 1.533 11522
2.010 -1.042 1.527 13283
2.014 -1.043 1.520 13571
2.018 -1.045 1.513 10723
2.039 -1.056 1.519 10071
2.043 -1.058 1.512 11112
2.040 -1.057 1.501 12590
2.044 -1.059 1.494 13445
2.053 -1.064 1.491 12848
2.057 -1.066 1.485 10051
2.127 -1.102 1.521 9150
2.131 -1.104 1.514 5799
2.165 -1.122 1.526 4962
2.169 -1.124 1.519 6651
2.172 -1.125 1.512 7827
2.170 -1.124 1.501 9027
2.179 -1.129 1.497 8016
2.183 -1.131 1.490 7028
2.186 -1.133 1.483 9276
2.196 -1.138 1.479 12376
2.199 -1.139 1.472 13469
2.203 -1.141 1.465 10945
2.250 -1.166 1.483 8548
2.291 -1.187 1.497 10297
2.300 -1.192 1.493 13638
2.298 -1.190 1.482 12894
2.295 -1.189 1.471 12328
2.298 -1.191 1.463 8226
2.383 -1.235 1.502 4585
2.393 -1.240 1.497 5291
2.397 -1.242 1.489 6002
2.400 -1.243 1.481 6572
2.404 -1.245 1.473 7142
2.407 -1.247 1.466 6328
2.391 -1.239 1.447 5966
2.420 -1.254 1.453 5321
2.430 -1.259 1.448 5232
2.433 -1.261 1.440 5232
2.532 -1.312 1.482 4199
2.529 -1.310 1.470 4227
2.661 -1.378 1.528 5647
2.658 -1.377 1.516 7959
2.661 -1.379 1.507 8182
2.658 -1.377 1.495 8673
2.655 -1.376 1.483 6973
2.652 -1.374 1.471 5490
2.656 -1.376 1.462 5490
2.659 -1.378 1.453 3506
2.792 -1.446 1.507 2515
2.795 -1.448 1.498 1257
0.575 -0.299 1.619 7667
0.576 -0.299 1.610 9760
0.579 -0.301 1.608 11861
0.586 -0.305 1.613 9835
0.593 -0.308 1.618 8203
0.600 -0.312 1.624 8733
0.603 -0.314 1.621 8890
0.607 -0.316 1.619 8454
0.611 -0.318 1.617 7071
0.615 -0.320 1.615 5689
0.625 -0.325 1.627 5790
0.629 -0.327 1.625 5992
0.633 -0.329 1.623 4622
0.636 -0.331 1.621 3251
0.640 -0.333 1.619 4445
0.641 -0.333 1.610 5576
0.645 -0.335 1.607 6273
0.652 -0.339 1.612 8103
0.655 -0.341 1.610 9427
0.662 -0.344 1.615 9947
0.669 -0.348 1.620 10519
0.673 -0.350 1.617 7919
0.680 -0.354 1.622 5229
0.684 -0.356 1.620 5485
0.688 -0.358 1.617 5703
0.692 -0.360 1.615 4870
0.696 -0.362 1.613 5198
0.703 -0.365 1.617 7343
0.710 -0.369 1.622 11115
0.714 -0.371 1.619 14021
0.718 -0.373 1.617 13440
0.718 -0.373 1.608 12922
0.722 -0.375 1.605 11900
0.715 -0.372 1.582 11296
0.726 -0.377 1.594 16305
0.733 -0.381 1.598 20066
0.737 -0.383 1.595 21372
0.744 -0.387 1.600 23757
0.748 -0.389 1.597 23865
0.752 -0.391 1.595 22481
0.755 -0.393 1.592 21293
0.755 -0.393 1.583 20299
0.759 -0.395 1.580 14925
0.770 -0.400 1.591 11750
0.763 -0.397 1.568 12021
0.774 -0.402 1.579 18961
0.778 -0.404 1.577 25565
0.785 -0.408 1.581 27117
0.793 -0.412 1.585 27977
0.793 -0.412 1.575 22236
0.800 -0.416 1.579 16983
0.796 -0.414 1.563 22016
0.800 -0.416 1.561 29375
0.803 -0.418 1.558 33124
0.811 -0.422 1.562 31994
0.815 -0.424 1.559 27901
0.822 -0.427 1.563 21369
0.873 -0.454 1.639 17706
0.885 -0.460 1.649 15374
0.889 -0.462 1.646 13177
0.896 -0.466 1.650 12634
0.900 -0.468 1.647 14067
0.904 -0.470 1.644 14254
0.908 -0.472 1.641 14145
0.912 -0.474 1.638 12014
0.908 -0.472 1.622 9587
0.911 -0.474 1.619 8449
0.919 -0.478 1.622 10073
0.923 -0.480 1.619 13761
0.927 -0.482 1.616 14106
0.931 -0.484 1.613 11320
0.930 -0.484 1.603 10798
0.930 -0.484 1.594 12725
0.938 -0.488 1.597 15837
0.950 -0.494 1.606 19606
0.958 -0.498 1.610 22869
0.966 -0.502 1.613 21713
0.970 -0.504 1.609 12749
0.969 -0.504 1.600 6897
0.973 -0.506 1.597 7265
0.977 -0.508 1.593 8050
0.985 -0.512 1.596 7824
0.997 -0.519 1.605 7119
0.923 -0.480 1.490 7641
0.926 -0.482 1.487 8490
0.925 -0.481 1.478 7056
0.924 -0.481 1.469 7425
0.945 -0.492 1.490 5740
0.958 -0.498 1.499 3360
1.055 -0.548 1.625 4765
0.929 -0.483 1.444 7197
0.919 -0.478 1.423 8500
0.909 -0.472 1.401 9431
0.898 -0.467 1.380 10252
0.897 -0.466 1.371 9569
0.909 -0.473 1.380 7826
0.917 -0.477 1.383 5365
0.911 -0.474 1.368 5865
0.900 -0.468 1.347 6942
0.899 -0.467 1.338 6629
0.902 -0.469 1.335 9165
0.900 -0.468 1.326 14262
0.904 -0.470 1.323 14301
0.907 -0.471 1.320 9640
0.905 -0.470 1.311 5967
1.152 -0.599 1.614 8839
1.151 -0.599 1.604 13456
1.155 -0.601 1.600 11170
1.154 -0.600 1.590 12490
1.163 -0.605 1.592 13110
1.166 -0.606 1.588 12953
1.175 -0.611 1.590 27166
1.179 -0.613 1.586 40999
1.182 -0.615 1.582 34960
1.186 -0.617 1.578 25352
1.195 -0.621 1.580 15812
1.203 -0.626 1.582 11684
1.207 -0.628 1.578 15350
1.220 -0.635 1.585 14780
1.234 -0.642 1.592 15656
1.238 -0.644 1.588 21078
1.246 -0.648 1.590 21417
1.250 -0.650 1.586 18073
1.254 -0.652 1.581 17529
1.128 -0.586 1.432 17268
1.131 -0.588 1.428 21776
1.135 -0.590 1.425 23772
1.138 -0.592 1.421 15107
1.141 -0.593 1.417 8825
1.150 -0.598 1.419 11406
1.158 -0.602 1.420 11813
1.324 -0.688 1.591 21890
1.333 -0.693 1.592 29339
1.336 -0.695 1.588 25559
1.345 -0.699 1.589 14708
1.349 -0.701 1.584 9442
1.353 -0.703 1.580 8391
1.356 -0.705 1.575 9922
1.360 -0.707 1.571 14949
1.359 -0.706 1.561 17145
1.357 -0.706 1.551 15041
1.355 -0.705 1.541 11085
1.364 -0.709 1.542 7453
1.378 -0.717 1.548 8049
1.419 -0.738 1.580 7816
1.422 -0.740 1.575 14216
1.426 -0.742 1.570 18027
1.440 -0.749 1.576 15049
1.449 -0.754 1.576 18357
1.453 -0.756 1.572 26722
1.457 -0.757 1.567 27525
1.471 -0.765 1.572 20201
1.475 -0.767 1.567 17876
1.479 -0.769 1.562 17989
1.488 -0.773 1.562 15004
1.524 -0.792 1.588 12893
1.527 -0.794 1.583 14245
1.526 -0.793 1.573 15004
1.540 -0.801 1.578 8955
1.555 -0.808 1.582 9264
1.570 -0.816 1.587 13336
1.573 -0.818 1.582 12163
1.583 -0.823 1.582 12424
1.586 -0.825 1.576 12422
1.590 -0.827 1.571 13751
1.599 -0.831 1.571 18772
1.608 -0.836 1.570 18149
1.612 -0.838 1.565 17810
1.616 -0.840 1.559 28253
1.619 -0.842 1.554 36529
1.629 -0.847 1.553 38762
1.632 -0.849 1.548 46159
1.636 -0.851 1.542 52038
1.639 -0.852 1.537 47292
1.649 -0.857 1.536 36165
1.652 -0.859 1.531 24424
1.656 -0.861 1.525 17120
1.733 -0.901 1.580 14215
1.743 -0.906 1.579 12817
1.758 -0.914 1.582 12541
1.762 -0.916 1.577 11796
1.765 -0.918 1.571 9226
1.769 -0.920 1.565 9762
1.773 -0.922 1.559 10871
1.788 -0.930 1.562 10902
1.797 -0.934 1.561 12436
1.801 -0.936 1.555 11696
1.804 -0.938 1.549 7313
1.837 -0.955 1.565 5272
1.829 -0.951 1.550 9694
1.827 -0.950 1.539 11967
1.825 -0.949 1.529 12718
1.834 -0.954 1.527 16551
1.849 -0.962 1.530 18334
1.853 -0.963 1.524 16159
1.862 -0.968 1.522 11522
1.907 -0.992 1.546 8281
1.941 -1.009 1.561 10026
1.956 -1.017 1.563 13612
1.960 -1.019 1.556 19975
1.963 -1.021 1.550 25328
1.973 -1.026 1.547 19061
1.994 -1.037 1.553 15068
1.992 -1.036 1.542 12821
1.996 -1.038 1.536 9629
1.999 -1.040 1.529 8533
2.009 -1.045 1.527 10509
2.012 -1.046 1.520 11458
2.016 -1.048 1.513 9298
2.038 -1.059 1.519 8979
2.035 -1.058 1.508 9118
2.039 -1.060 1.501 11306
2.042 -1.062 1.494 13266
2.052 -1.067 1.491 13190
2.055 -1.069 1.485 10152
2.132 -1.108 1.525 9005
2.148 -1.117 1.525 5926
2.164 -1.125 1.526 4478
2.173 -1.130 1.523 4939
2.171 -1.129 1.512 5623
2.174 -1.130 1.504 6323
2.184 -1.135 1.501 6061
2.194 -1.140 1.497 5987
2.191 -1.139 1.486 7637
2.194 -1.141 1.479 9970
2.204 -1.146 1.476 10622
2.207 -1.148 1.468 8535
2.248 -1.169 1.483 7928
2.295 -1.193 1.501 10411
2.299 -1.195 1.493 13548
2.302 -1.197 1.486 12621
2.299 -1.196 1.474 11889
2.297 -1.194 1.463 7618
2.382 -1.238 1.502 5271
2.391 -1.243 1.497 5726
2.395 -1.245 1.489 6317
2.398 -1.247 1.481 6889
2.402 -1.249 1.473 7462
2.399 -1.247 1.462 6661
2.390 -1.242 1.447 6302
2.418 -1.257 1.453 5485
2.428 -1.262 1.448 5255
2.431 -1.264 1.440 5255
2.556 -1.329 1.495 5540
2.559 -1.331 1.487 5540
2.659 -1.382 1.528 5410
2.656 -1.381 1.516 7750
2.653 -1.379 1.504 8433
2.650 -1.378 1.492 9514
2.653 -1.380 1.483 7756
2.644 -1.375 1.468 6159
2.647 -1.376 1.459 6159
2.657 -1.382 1.453 3842
2.783 -1.447 1.504 2755
2.787 -1.449 1.495 1377
0.571 -0.298 1.612 7819
0.575 -0.300 1.610 9598
0.576 -0.301 1.601 11454
0.583 -0.304 1.606 9538
0.592 -0.309 1.618 7983
0.599 -0.313 1.624 8495
0.603 -0.315 1.621 8731
0.607 -0.317 1.619 8316
0.610 -0.319 1.617 7204
0.617 -0.323 1.622 6121
0.624 -0.326 1.627 6316
0.631 -0.330 1.632 6621
0.632 -0.330 1.623 5001
0.636 -0.332 1.621 3425
0.640 -0.334 1.619 4322
0.640 -0.334 1.610 5194
0.644 -0.336 1.607 5857
0.651 -0.340 1.612 7552
0.658 -0.344 1.617 8709
0.662 -0.346 1.615 9348
0.669 -0.349 1.620 10197
0.673 -0.351 1.617 7760
0.680 -0.355 1.622 5326
0.683 -0.357 1.620 5754
0.687 -0.359 1.617 6139
0.691 -0.361 1.615 5194
0.698 -0.365 1.620 5255
0.702 -0.367 1.617 7247
0.709 -0.371 1.622 11254
0.713 -0.373 1.619 14381
0.717 -0.375 1.617 14008
0.717 -0.375 1.608 13672
0.721 -0.377 1.605 12285
0.714 -0.373 1.582 11284
0.725 -0.379 1.594 16243
0.732 -0.383 1.598 19906
0.736 -0.385 1.595 21108
0.743 -0.388 1.600 23543
0.747 -0.390 1.597 23587
0.751 -0.392 1.595 22266
0.755 -0.394 1.592 21100
0.755 -0.394 1.583 20086
0.758 -0.396 1.580 15005
0.769 -0.402 1.591 12421
0.769 -0.402 1.582 12019
0.773 -0.404 1.579 19046
0.777 -0.406 1.577 25948
0.784 -0.410 1.581 28026
0.792 -0.414 1.585 29342
0.792 -0.414 1.575 23616
0.792 -0.414 1.566 17953
0.795 -0.416 1.563 22273
0.799 -0.417 1.561 29049
0.803 -0.419 1.558 32730
0.810 -0.423 1.562 32700
0.818 -0.427 1.566 29672
0.821 -0.429 1.563 23320
0.876 -0.458 1.646 17939
0.884 -0.462 1.649 15894
0.888 -0.464 1.646 13363
0.895 -0.468 1.650 12094
0.899 -0.470 1.647 13157
0.899 -0.470 1.637 14383
0.907 -0.474 1.641 14095
0.911 -0.476 1.638 9785
0.907 -0.474 1.622 7573
0.910 -0.476 1.619 7789
0.918 -0.480 1.622 9793
0.922 -0.482 1.619 14550
0.926 -0.484 1.616 15124
0.930 -0.486 1.613 12591
0.929 -0.486 1.603 12457
0.929 -0.485 1.594 13228
0.937 -0.490 1.597 14426
0.949 -0.496 1.606 18178
0.957 -0.500 1.610 23936
0.965 -0.504 1.613 22880
0.969 -0.506 1.609 13095
0.964 -0.504 1.594 6870
0.981 -0.512 1.609 7084
0.980 -0.512 1.600 7913
0.984 -0.514 1.596 6586
0.996 -0.521 1.605 4933
0.922 -0.482 1.490 6986
0.930 -0.486 1.493 7836
1.030 -0.538 1.626 7729
0.923 -0.482 1.469 7059
0.944 -0.493 1.490 5512
0.957 -0.500 1.499 3436
1.054 -0.551 1.625 4934
0.928 -0.485 1.444 6571
0.918 -0.480 1.423 7751
0.908 -0.474 1.401 9020
0.893 -0.467 1.374 10344
0.896 -0.468 1.371 9785
0.908 -0.475 1.380 7114
0.912 -0.476 1.377 4478
0.901 -0.471 1.356 5650
0.895 -0.468 1.341 8435
0.893 -0.467 1.332 9363
0.896 -0.468 1.329 12532
0.900 -0.470 1.326 18186
0.903 -0.472 1.323 18517
0.906 -0.473 1.320 12954
0.904 -0.472 1.311 7736
0.907 -0.474 1.308 7572
1.150 -0.601 1.604 10555
0.908 -0.475 1.296 10287
1.153 -0.602 1.590 14429
1.166 -0.609 1.598 16818
1.170 -0.611 1.594 17809
1.174 -0.613 1.590 32349
1.177 -0.615 1.586 45624
1.181 -0.617 1.582 39200
1.185 -0.619 1.578 28224
1.189 -0.621 1.574 17624
1.202 -0.628 1.582 11399
1.211 -0.632 1.584 13535
1.219 -0.637 1.585 13798
1.233 -0.644 1.592 15372
1.241 -0.649 1.594 19640
1.245 -0.651 1.590 21951
1.249 -0.652 1.586 20829
1.252 -0.654 1.581 18781
1.127 -0.589 1.432 17642
1.130 -0.590 1.428 20697
1.133 -0.592 1.425 22047
1.137 -0.594 1.421 14978
1.140 -0.596 1.417 9378
1.148 -0.600 1.419 10850
1.319 -0.689 1.596 13109
1.322 -0.691 1.591 24163
1.331 -0.696 1.592 31031
1.335 -0.697 1.588 28783
1.344 -0.702 1.589 19740
1.348 -0.704 1.584 10683
1.356 -0.709 1.585 7153
1.355 -0.708 1.575 10682
1.359 -0.710 1.571 16315
1.357 -0.709 1.561 17340
1.356 -0.708 1.551 13963
1.354 -0.707 1.541 10471
1.363 -0.712 1.542 7359
1.377 -0.719 1.548 7451
1.417 -0.741 1.580 7582
1.421 -0.742 1.575 14571
1.425 -0.744 1.570 18609
1.434 -0.749 1.571 16031
1.448 -0.757 1.576 19127
1.452 -0.758 1.572 26974
1.461 -0.763 1.572 28292
1.470 -0.768 1.572 21874
1.479 -0.773 1.572 18685
1.477 -0.772 1.562 18227
1.497 -0.782 1.573 16554
1.522 -0.795 1.588 15810
1.526 -0.797 1.583 17546
1.530 -0.799 1.578 18604
1.544 -0.807 1.583 12475
1.559 -0.814 1.587 10988
1.568 -0.819 1.587 13787
1.572 -0.821 1.582 13153
1.581 -0.826 1.582 14183
1.585 -0.828 1.576 13983
1.588 -0.830 1.571 14324
1.597 -0.835 1.571 18867
1.612 -0.842 1.575 18323
1.610 -0.841 1.565 16435
1.614 -0.843 1.559 25080
1.623 -0.848 1.559 33961
1.627 -0.850 1.553 37616
1.631 -0.852 1.548 45016
1.634 -0.854 1.542 50880
1.638 -0.856 1.537 46457
1.647 -0.861 1.536 35989
1.651 -0.862 1.531 25094
1.654 -0.864 1.525 17743
1.732 -0.905 1.580 15815
1.741 -0.910 1.579 14304
1.750 -0.915 1.578 13047
1.760 -0.919 1.577 11218
1.763 -0.921 1.571 7751
1.761 -0.920 1.560 8423
1.765 -0.922 1.554 10094
1.780 -0.930 1.558 10249
1.795 -0.938 1.561 12201
1.799 -0.940 1.555 11272
1.814 -0.948 1.558 7105
1.835 -0.959 1.565 5254
1.833 -0.958 1.554 8998
1.831 -0.957 1.544 10843
1.823 -0.952 1.529 11643
1.838 -0.960 1.532 16096
1.848 -0.965 1.530 18240
1.851 -0.967 1.524 15777
1.861 -0.972 1.522 11169
1.905 -0.996 1.546 8916
1.939 -1.013 1.561 10216
1.954 -1.021 1.563 14196
1.958 -1.023 1.556 20634
1.961 -1.025 1.550 25753
1.971 -1.030 1.547 18676
1.992 -1.041 1.553 13773
1.990 -1.040 1.542 11736
1.994 -1.042 1.536 8084
1.997 -1.044 1.529 6455
2.013 -1.052 1.531 8439
2.034 -1.063 1.536 10238
2.044 -1.068 1.533 9514
2.036 -1.064 1.519 8164
2.033 -1.062 1.508 7492
2.037 -1.064 1.501 9969
2.046 -1.069 1.498 12602
2.050 -1.071 1.491 12943
2.053 -1.073 1.485 9880
2.136 -1.116 1.529 8797
2.152 -1.124 1.529 6266
2.186 -1.142 1.541 4696
2.196 -1.147 1.538 4983
2.205 -1.152 1.535 4761
2.172 -1.135 1.504 4667
2.206 -1.153 1.516 5252
2.204 -1.151 1.505 6056
2.189 -1.143 1.486 6671
2.192 -1.145 1.479 8198
2.202 -1.150 1.476 8584
2.298 -1.201 1.524 7292
2.289 -1.196 1.509 7587
2.299 -1.201 1.505 10504
2.303 -1.203 1.497 13448
2.300 -1.202 1.486 12394
2.303 -1.203 1.478 11561
2.300 -1.202 1.467 7239
2.373 -1.240 1.498 5500
2.383 -1.245 1.494 5852
2.392 -1.250 1.489 6362
2.396 -1.252 1.481 6987
2.399 -1.254 1.473 7612
2.396 -1.252 1.462 6827
2.393 -1.251 1.451 6476
2.409 -1.259 1.450 5520
2.540 -1.327 1.509 5387
2.543 -1.329 1.501 6119
2.553 -1.334 1.495 6886
2.557 -1.336 1.487 6886
2.573 -1.344 1.485 5378
2.653 -1.386 1.516 7526
2.650 -1.385 1.504 8543
2.647 -1.383 1.492 10124
2.644 -1.382 1.480 8316
2.641 -1.380 1.468 6608
2.645 -1.382 1.459 6608
2.654 -1.387 1.453 4057
2.780 -1.453 1.504 2933
2.784 -1.454 1.495 1466
0.571 -0.299 1.612 8288
0.572 -0.300 1.603 9639
0.575 -0.302 1.601 11036
0.582 -0.305 1.606 9263
0.589 -0.309 1.611 7838
0.596 -0.312 1.616 8321
0.599 -0.314 1.614 8623
0.603 -0.316 1.612 8377
0.610 -0.320 1.617 7591
0.617 -0.323 1.622 6996
0.624 -0.327 1.627 7160
0.631 -0.331 1.632 7542
0.635 -0.333 1.630 5622
0.635 -0.333 1.621 3741
0.639 -0.335 1.619 4329
0.640 -0.335 1.610 4923
0.643 -0.337 1.607 5532
0.650 -0.341 1.612 7031
0.657 -0.345 1.617 7934
0.664 -0.348 1.622 8801
0.668 -0.350 1.620 9883
0.675 -0.354 1.624 7710
0.689 -0.361 1.643 5704
0.683 -0.358 1.620 6137
0.687 -0.360 1.617 6671
0.691 -0.362 1.615 5598
0.698 -0.366 1.620 5284
0.702 -0.368 1.617 6839
0.709 -0.372 1.622 10934
0.713 -0.374 1.619 14232
0.716 -0.376 1.617 14171
0.717 -0.376 1.608 14122
0.720 -0.378 1.605 12408
0.714 -0.374 1.582 11024
0.724 -0.380 1.594 15867
0.732 -0.384 1.598 19422
0.739 -0.388 1.602 20587
0.743 -0.390 1.600 23015
0.747 -0.391 1.597 23003
0.750 -0.393 1.595 21796
0.754 -0.395 1.592 20694
0.754 -0.395 1.583 19671
0.761 -0.399 1.587 15074
0.769 -0.403 1.591 12974
0.773 -0.405 1.589 12129
0.773 -0.405 1.579 19056
0.776 -0.407 1.577 26347
0.784 -0.411 1.581 28987
0.791 -0.415 1.585 30787
0.791 -0.415 1.575 25076
0.791 -0.415 1.566 18911
0.795 -0.417 1.563 22056
0.798 -0.419 1.561 27952
0.802 -0.421 1.558 31676
0.809 -0.424 1.562 33263
0.817 -0.428 1.566 31715
0.821 -0.430 1.563 25682
0.875 -0.459 1.646 17910
0.879 -0.461 1.643 16203
0.887 -0.465 1.646 13371
0.895 -0.469 1.650 11471
0.895 -0.469 1.640 12559
0.895 -0.469 1.631 15121
0.902 -0.473 1.634 14980
0.906 -0.475 1.631 9174
0.890 -0.467 1.596 7656
0.902 -0.473 1.606 8872
0.914 -0.479 1.616 11081
0.921 -0.483 1.619 16344
0.925 -0.485 1.616 17171
0.929 -0.487 1.613 14817
0.929 -0.487 1.603 14948
0.928 -0.487 1.594 14669
0.932 -0.489 1.591 13678
0.948 -0.497 1.606 16983
0.956 -0.502 1.610 25044
0.964 -0.506 1.613 23622
0.968 -0.508 1.609 13067
0.963 -0.505 1.594 6668
0.984 -0.516 1.615 7050
0.984 -0.516 1.606 7941
0.987 -0.518 1.603 5762
0.931 -0.488 1.512 3696
0.925 -0.485 1.497 6307
0.929 -0.487 1.493 7070
1.029 -0.539 1.626 8776
1.033 -0.541 1.623 7746
0.944 -0.495 1.490 5138
1.045 -0.548 1.622 3528
1.053 -0.552 1.625 4944
0.927 -0.486 1.444 5961
0.913 -0.479 1.416 6905
0.907 -0.476 1.401 8321
0.892 -0.468 1.374 10139
0.895 -0.470 1.371 9782
0.903 -0.474 1.374 6531
1.088 -0.571 1.612 5295
0.896 -0.470 1.350 5941
0.894 -0.469 1.341 10248
0.893 -0.468 1.332 13084
0.896 -0.470 1.329 16814
0.899 -0.471 1.326 22593
0.902 -0.473 1.323 23072
0.905 -0.475 1.320 16649
0.903 -0.474 1.311 9764
0.906 -0.475 1.308 9042
0.909 -0.477 1.305 12079
0.908 -0.476 1.296 13086
1.157 -0.607 1.596 17605
1.165 -0.611 1.598 21441
1.169 -0.613 1.594 23618
1.173 -0.615 1.590 37478
1.177 -0.617 1.586 49490
1.180 -0.619 1.582 43109
1.179 -0.618 1.573 31934
1.188 -0.623 1.574 21069
1.201 -0.630 1.582 12149
1.219 -0.639 1.595 12162
1.218 -0.639 1.585 13260
1.232 -0.646 1.592 14884
1.240 -0.650 1.594 17693
1.244 -0.652 1.590 22030
1.248 -0.654 1.586 22600
1.251 -0.656 1.581 19081
1.126 -0.590 1.432 17217
1.129 -0.592 1.428 18371
1.132 -0.594 1.425 18586
1.136 -0.596 1.421 13997
1.139 -0.597 1.417 9456
1.147 -0.602 1.419 9577
1.318 -0.691 1.596 14458
1.321 -0.693 1.591 24669
1.330 -0.698 1.592 30502
1.334 -0.700 1.588 30840
1.338 -0.701 1.583 25960
1.341 -0.703 1.579 15343
1.340 -0.703 1.569 7996
1.354 -0.710 1.575 10812
1.358 -0.712 1.571 17141
1.356 -0.711 1.561 17440
1.354 -0.710 1.551 12939
1.353 -0.709 1.541 9565
1.362 -0.714 1.542 7233
1.376 -0.721 1.548 8459
1.385 -0.726 1.549 9058
1.415 -0.742 1.570 14813
1.418 -0.744 1.565 18911
1.433 -0.751 1.571 16859
1.447 -0.759 1.576 19388
1.450 -0.761 1.572 25947
1.460 -0.765 1.572 28027
1.469 -0.770 1.572 22696
1.478 -0.775 1.572 19349
1.481 -0.777 1.567 18605
1.501 -0.787 1.578 18832
1.526 -0.800 1.593 19394
1.530 -0.802 1.588 21793
1.534 -0.804 1.583 23106
1.543 -0.809 1.583 16705
1.558 -0.817 1.587 13006
1.567 -0.822 1.587 13922
1.570 -0.824 1.582 13652
1.580 -0.828 1.582 15358
1.583 -0.830 1.576 15067
1.593 -0.835 1.576 14409
1.602 -0.840 1.575 18356
1.616 -0.848 1.580 18171
1.620 -0.850 1.574 15092
1.613 -0.846 1.559 21168
1.622 -0.851 1.559 30312
1.626 -0.852 1.553 34691
1.629 -0.854 1.548 41313
1.633 -0.856 1.542 47317
1.636 -0.858 1.537 43656
1.646 -0.863 1.536 33902
1.644 -0.862 1.526 23937
1.647 -0.864 1.521 16875
1.730 -0.907 1.580 16978
1.740 -0.912 1.579 15617
1.755 -0.920 1.582 13717
1.758 -0.922 1.577 10818
1.762 -0.924 1.571 6232
1.760 -0.923 1.560 6926
1.764 -0.925 1.554 9705
1.773 -0.930 1.553 10442
1.788 -0.938 1.556 11762
1.798 -0.943 1.555 10502
1.819 -0.954 1.562 7007
1.834 -0.962 1.565 5280
1.837 -0.964 1.559 8471
1.847 -0.969 1.557 10559
1.880 -0.986 1.573 11386
1.842 -0.966 1.536 15519
1.846 -0.968 1.530 17966
1.850 -0.970 1.524 15265
1.859 -0.975 1.522 10704
1.910 -1.002 1.550 9511
1.943 -1.019 1.565 10326
1.952 -1.024 1.563 14525
1.956 -1.026 1.556 20928
1.960 -1.028 1.550 25748
1.969 -1.033 1.547 18029
1.985 -1.041 1.549 12322
1.988 -1.043 1.542 10407
1.992 -1.045 1.536 6894
2.002 -1.050 1.533 5296
2.047 -1.074 1.555 7346
2.045 -1.072 1.544 10385
2.042 -1.071 1.533 10138
2.040 -1.070 1.523 7397
2.013 -1.056 1.496 5894
2.035 -1.067 1.501 8306
2.044 -1.072 1.498 11375
2.048 -1.074 1.491 12025
2.051 -1.076 1.485 9102
2.140 -1.122 1.533 8372
2.150 -1.127 1.529 6647
2.190 -1.149 1.545 5262
2.200 -1.154 1.542 5657
2.203 -1.156 1.535 4953
2.238 -1.174 1.546 4512
2.204 -1.156 1.516 5215
2.202 -1.155 1.505 6427
2.199 -1.153 1.494 6243
2.283 -1.197 1.535 6607
2.293 -1.202 1.531 7476
2.296 -1.204 1.524 7613
2.294 -1.203 1.512 7822
2.303 -1.208 1.508 10565
2.307 -1.210 1.501 13381
2.304 -1.208 1.489 12325
2.308 -1.210 1.482 11419
2.311 -1.212 1.474 7155
2.371 -1.243 1.498 5465
2.381 -1.248 1.494 5782
2.390 -1.254 1.489 6272
2.394 -1.255 1.481 6977
2.397 -1.257 1.473 7683
2.394 -1.256 1.462 6954
2.392 -1.254 1.451 6661
2.408 -1.263 1.450 5558
2.544 -1.334 1.512 6494
2.548 -1.336 1.504 7394
2.551 -1.338 1.495 8294
2.555 -1.340 1.487 8294
2.571 -1.348 1.485 6412
2.651 -1.390 1.516 7180
2.648 -1.389 1.504 8475
2.639 -1.384 1.488 10603
2.642 -1.386 1.480 8649
2.613 -1.371 1.455 6975
2.617 -1.372 1.446 6975
2.601 -1.364 1.428 4637
2.778 -1.457 1.504 3039
2.782 -1.459 1.495 1519
0.567 -0.300 1.605 9249
0.571 -0.301 1.603 9915
0.571 -0.302 1.594 10665
0.578 -0.305 1.599 9114
0.588 -0.311 1.611 7776
0.595 -0.314 1.616 8265
0.598 -0.316 1.614 8790
0.599 -0.317 1.605 8720
0.606 -0.320 1.610 8175
0.616 -0.325 1.622 8115
0.623 -0.329 1.627 8225
0.630 -0.333 1.632 8665
0.633 -0.335 1.630 6465
0.637 -0.337 1.628 4264
0.641 -0.339 1.626 4539
0.639 -0.337 1.610 4743
0.642 -0.339 1.607 5290
0.649 -0.343 1.612 6530
0.660 -0.348 1.624 7168
0.667 -0.352 1.629 8377
0.670 -0.354 1.627 9720
0.674 -0.356 1.624 7862
0.688 -0.363 1.643 6337
0.685 -0.362 1.627 6683
0.686 -0.362 1.617 7248
0.689 -0.364 1.615 6104
0.697 -0.368 1.620 5481
0.700 -0.370 1.617 6364
0.708 -0.374 1.622 10415
0.711 -0.376 1.619 13971
0.715 -0.378 1.617 14182
0.716 -0.378 1.608 14408
0.719 -0.380 1.605 12359
0.713 -0.376 1.582 10496
0.723 -0.382 1.594 15130
0.731 -0.386 1.598 18464
0.738 -0.390 1.602 19688
0.742 -0.392 1.600 22251
0.745 -0.394 1.597 22376
0.749 -0.396 1.595 21261
0.753 -0.398 1.592 20191
0.753 -0.398 1.583 19098
0.760 -0.402 1.587 15074
0.768 -0.406 1.591 13486
0.771 -0.407 1.589 12231
0.771 -0.408 1.579 18886
0.775 -0.409 1.577 26422
0.782 -0.413 1.581 29779
0.790 -0.417 1.585 32246
0.790 -0.417 1.575 26687
0.790 -0.417 1.566 19931
0.793 -0.419 1.563 21527
0.797 -0.421 1.561 26244
0.801 -0.423 1.558 30183
0.808 -0.427 1.562 34065
0.816 -0.431 1.566 34239
0.819 -0.433 1.563 28452
0.823 -0.435 1.560 19236
0.878 -0.464 1.643 16247
0.886 -0.468 1.646 13089
0.889 -0.470 1.643 10985
0.889 -0.470 1.634 12575
0.893 -0.472 1.631 16702
0.897 -0.474 1.628 17225
0.901 -0.476 1.625 12097
0.896 -0.474 1.609 10895
0.908 -0.480 1.619 12064
0.912 -0.482 1.616 14631
0.920 -0.486 1.619 19386
0.924 -0.488 1.616 20092
0.928 -0.490 1.613 17484
0.927 -0.490 1.603 17643
0.927 -0.490 1.594 17078
0.931 -0.492 1.591 13884
0.951 -0.502 1.613 17417
0.959 -0.507 1.616 26732
0.963 -0.509 1.613 23890
0.971 -0.513 1.616 12566
0.966 -0.510 1.600 6316
0.983 -0.519 1.615 6803
0.982 -0.519 1.606 7924
0.986 -0.521 1.603 6380
0.994 -0.525 1.605 4075
0.924 -0.488 1.497 5502
1.019 -0.538 1.624 6711
1.027 -0.543 1.626 9994
1.026 -0.542 1.617 9157
1.030 -0.544 1.613 5501
1.043 -0.551 1.622 3676
1.051 -0.555 1.625 4682
0.926 -0.489 1.444 5290
0.911 -0.481 1.416 5953
0.901 -0.476 1.395 7448
0.891 -0.471 1.374 9620
0.894 -0.472 1.371 9429
1.087 -0.574 1.621 6624
1.087 -0.574 1.612 8001
1.090 -0.576 1.608 8569
0.893 -0.472 1.341 12059
0.891 -0.471 1.332 17088
0.894 -0.472 1.329 21425
0.897 -0.474 1.326 27072
0.900 -0.476 1.323 27695
0.903 -0.477 1.320 20522
0.902 -0.476 1.311 11914
0.905 -0.478 1.308 10494
0.903 -0.477 1.299 14298
0.906 -0.479 1.296 16073
1.155 -0.610 1.596 20489
1.163 -0.615 1.598 25414
1.167 -0.617 1.594 28867
1.171 -0.619 1.590 41344
1.175 -0.621 1.586 51292
1.178 -0.623 1.582 45732
1.177 -0.622 1.573 36177
1.186 -0.626 1.574 25845
1.199 -0.633 1.582 14649
1.222 -0.646 1.601 12994
1.221 -0.645 1.591 13653
1.230 -0.650 1.592 13991
1.238 -0.654 1.594 15343
1.242 -0.656 1.590 21171
1.246 -0.658 1.586 22355
1.249 -0.660 1.581 17758
1.124 -0.594 1.432 15935
1.127 -0.596 1.428 14879
1.131 -0.597 1.425 13732
1.134 -0.599 1.421 12365
1.132 -0.598 1.411 9303
1.151 -0.608 1.424 8095
1.316 -0.695 1.596 14840
1.319 -0.697 1.591 22848
1.328 -0.702 1.592 27213
1.332 -0.704 1.588 31255
1.335 -0.706 1.583 33179
1.339 -0.708 1.579 23885
1.333 -0.704 1.564 11763
1.347 -0.711 1.570 10926
1.355 -0.716 1.571 17955
1.359 -0.718 1.566 18147
1.358 -0.717 1.556 12534
1.356 -0.716 1.546 8750
1.370 -0.724 1.552 8604
1.384 -0.731 1.558 13220
1.382 -0.730 1.549 13430
1.407 -0.743 1.565 15000
1.416 -0.748 1.565 18166
1.425 -0.753 1.566 17542
1.439 -0.760 1.571 19221
1.453 -0.768 1.577 23451
1.457 -0.770 1.572 26091
1.472 -0.777 1.577 22218
1.481 -0.782 1.577 19423
1.490 -0.787 1.578 19156
1.504 -0.795 1.583 21621
1.524 -0.805 1.593 23368
1.528 -0.807 1.588 26526
1.531 -0.809 1.583 28137
1.540 -0.814 1.583 21506
1.555 -0.822 1.587 15426
1.564 -0.826 1.587 13818
1.568 -0.828 1.582 13632
1.577 -0.833 1.582 15796
1.586 -0.838 1.581 15507
1.590 -0.840 1.576 14068
1.599 -0.845 1.575 17286
1.614 -0.853 1.580 17946
1.618 -0.855 1.574 14156
1.616 -0.854 1.564 16868
1.619 -0.856 1.559 24863
1.623 -0.857 1.553 28815
1.627 -0.859 1.548 34282
1.630 -0.861 1.542 40462
1.634 -0.863 1.537 38322
1.643 -0.868 1.536 29806
1.641 -0.867 1.526 21451
1.644 -0.869 1.521 15194
1.727 -0.913 1.580 17708
1.737 -0.918 1.579 16597
1.752 -0.926 1.582 14275
1.756 -0.927 1.577 10625
1.759 -0.929 1.571 5125
1.757 -0.928 1.560 5659
1.761 -0.930 1.554 9517
1.776 -0.938 1.558 11347
1.785 -0.943 1.556 11349
1.795 -0.948 1.555 9391
1.816 -0.959 1.562 6665
1.837 -0.970 1.569 5212
1.840 -0.972 1.563 7930
1.856 -0.980 1.566 11451
1.877 -0.992 1.573 14146
1.851 -0.978 1.545 15341
1.843 -0.974 1.530 17340
1.847 -0.976 1.524 14434
1.856 -0.981 1.522 10010
1.907 -1.007 1.550 10335
1.916 -1.012 1.548 10595
1.949 -1.030 1.563 14451
1.953 -1.032 1.556 20621
1.957 -1.034 1.550 25059
1.960 -1.036 1.543 17144
1.976 -1.044 1.545 10783
1.985 -1.049 1.542 8806
1.995 -1.054 1.540 6232
1.998 -1.056 1.533 5567
2.044 -1.080 1.555 8059
2.042 -1.079 1.544 10884
2.045 -1.080 1.538 11035
2.037 -1.076 1.523 7467
2.028 -1.072 1.508 5357
2.032 -1.073 1.501 7030
2.041 -1.078 1.498 9633
2.045 -1.080 1.491 10491
2.133 -1.127 1.540 8076
2.137 -1.129 1.533 7614
2.153 -1.137 1.533 6884
2.187 -1.155 1.545 5981
2.196 -1.160 1.542 6580
2.200 -1.162 1.535 5415
2.240 -1.184 1.550 4449
2.195 -1.160 1.512 5389
2.198 -1.161 1.505 6713
2.270 -1.199 1.539 6349
2.286 -1.207 1.539 6768
2.289 -1.209 1.531 7565
2.293 -1.211 1.524 7715
2.290 -1.210 1.512 7887
2.300 -1.215 1.508 10385
2.309 -1.220 1.504 12995
2.307 -1.219 1.493 12076
2.304 -1.217 1.482 11390
2.314 -1.222 1.478 7454
2.355 -1.244 1.491 5205
2.371 -1.252 1.490 5384
2.380 -1.258 1.486 6001
2.390 -1.263 1.481 6817
2.394 -1.265 1.473 7635
2.391 -1.263 1.462 6934
2.388 -1.261 1.451 6577
2.530 -1.337 1.517 5529
2.540 -1.342 1.512 7725
2.544 -1.344 1.504 8734
2.547 -1.346 1.495 9744
2.550 -1.347 1.487 9744
2.567 -1.356 1.485 7415
2.647 -1.398 1.516 6855
2.644 -1.397 1.504 8357
2.628 -1.388 1.485 10990
2.631 -1.390 1.477 8888
2.590 -1.368 1.445 7601
2.593 -1.370 1.437 7601
2.590 -1.368 1.425 5435
2.581 -1.363 1.410 3528
2.584 -1.365 1.402 1764
0.566 -0.301 1.605 9901
0.567 -0.302 1.596 10051
0.571 -0.304 1.594 10350
0.574 -0.306 1.592 9056
0.584 -0.311 1.604 7863
0.591 -0.314 1.609 8378
0.594 -0.316 1.607 9098
0.598 -0.318 1.605 9232
0.605 -0.322 1.610 8869
0.615 -0.327 1.622 9248
0.622 -0.331 1.627 9268
0.629 -0.335 1.632 9740
0.632 -0.337 1.630 7282
0.636 -0.339 1.628 4824
0.640 -0.341 1.626 4741
0.644 -0.343 1.624 4494
0.641 -0.341 1.607 4962
0.652 -0.347 1.619 6006
0.662 -0.352 1.631 6603
0.666 -0.354 1.629 8003
0.673 -0.358 1.634 9501
0.676 -0.360 1.631 8194
0.684 -0.364 1.636 7053
0.684 -0.364 1.627 7517
0.685 -0.364 1.617 8082
0.692 -0.368 1.622 6958
0.696 -0.370 1.620 5962
0.699 -0.372 1.617 6058
0.706 -0.376 1.622 9735
0.710 -0.378 1.619 13338
0.714 -0.380 1.617 13681
0.718 -0.382 1.615 14024
0.718 -0.382 1.605 11767
0.722 -0.384 1.603 9532
0.722 -0.384 1.594 13875
0.729 -0.388 1.598 16940
0.737 -0.392 1.602 18242
0.740 -0.394 1.600 21052
0.744 -0.396 1.597 21476
0.748 -0.398 1.595 20561
0.752 -0.400 1.592 19635
0.752 -0.400 1.583 18546
0.759 -0.404 1.587 15099
0.770 -0.410 1.598 13922
0.770 -0.410 1.589 12236
0.770 -0.410 1.579 18412
0.774 -0.412 1.577 26024
0.781 -0.416 1.581 30260
0.789 -0.420 1.585 33579
0.789 -0.420 1.575 28412
0.788 -0.420 1.566 20875
0.796 -0.424 1.570 20479
0.796 -0.423 1.561 23666
0.799 -0.425 1.558 28010
0.807 -0.429 1.562 34368
0.814 -0.433 1.566 36046
0.818 -0.435 1.563 30594
0.822 -0.437 1.560 20920
0.876 -0.466 1.643 15871
0.884 -0.470 1.646 12556
0.888 -0.472 1.643 10766
0.884 -0.470 1.627 13497
0.888 -0.472 1.624 18643
0.891 -0.474 1.621 20045
0.895 -0.476 1.618 16320
0.899 -0.478 1.615 14964
0.907 -0.483 1.619 16045
0.911 -0.485 1.616 18942
0.914 -0.487 1.612 23322
0.922 -0.491 1.616 23607
0.922 -0.491 1.606 20296
0.926 -0.493 1.603 20113
0.929 -0.495 1.600 19712
0.937 -0.499 1.603 15159
0.954 -0.507 1.619 19489
0.957 -0.509 1.616 28576
0.961 -0.511 1.613 23614
0.969 -0.516 1.616 11796
0.982 -0.522 1.625 6299
0.981 -0.522 1.615 6593
0.981 -0.522 1.606 7791
0.989 -0.526 1.609 7661
0.997 -0.530 1.612 6145
0.927 -0.493 1.503 4787
1.017 -0.541 1.624 7076
1.025 -0.546 1.626 10921
1.025 -0.545 1.617 10358
1.029 -0.547 1.613 6345
1.041 -0.554 1.622 3599
1.049 -0.558 1.625 3902
0.924 -0.492 1.444 4575
1.057 -0.562 1.618 6706
1.061 -0.564 1.614 9834
1.069 -0.569 1.616 10615
1.077 -0.573 1.619 9429
1.086 -0.578 1.621 9755
1.090 -0.580 1.618 11812
1.089 -0.579 1.608 12830
0.887 -0.472 1.335 13652
0.890 -0.474 1.332 20711
0.893 -0.475 1.329 25666
0.896 -0.477 1.326 30907
0.899 -0.478 1.323 31356
0.902 -0.480 1.320 23521
0.900 -0.479 1.311 13615
0.903 -0.481 1.308 11530
0.902 -0.480 1.299 15886
0.905 -0.481 1.296 18438
1.158 -0.616 1.602 21941
1.162 -0.618 1.598 27524
1.165 -0.620 1.594 32076
1.169 -0.622 1.590 43408
1.173 -0.624 1.586 51637
1.172 -0.623 1.577 46722
1.175 -0.625 1.573 38547
1.184 -0.630 1.574 29092
1.197 -0.637 1.582 17538
1.225 -0.652 1.606 16127
1.219 -0.649 1.591 14724
1.223 -0.651 1.587 12391
1.236 -0.658 1.594 12874
1.240 -0.660 1.590 19094
1.244 -0.662 1.586 19648
1.248 -0.664 1.581 14718
1.122 -0.597 1.432 14377
1.121 -0.596 1.423 12658
1.124 -0.598 1.419 10491
1.127 -0.600 1.415 11052
1.130 -0.602 1.411 9063
1.134 -0.603 1.408 7024
1.313 -0.699 1.596 14093
1.322 -0.704 1.597 19488
1.326 -0.706 1.592 22591
1.330 -0.708 1.588 29777
1.333 -0.709 1.583 38984
1.332 -0.709 1.573 33064
1.331 -0.708 1.564 15711
1.350 -0.718 1.575 11839
1.358 -0.723 1.576 19857
1.362 -0.725 1.571 20149
1.361 -0.724 1.562 13936
1.364 -0.726 1.557 9708
1.383 -0.736 1.568 13250
1.382 -0.735 1.558 19855
1.380 -0.734 1.549 18249
1.389 -0.739 1.549 15723
1.409 -0.749 1.560 16899
1.417 -0.754 1.561 17876
1.437 -0.765 1.571 18414
1.457 -0.775 1.582 20467
1.455 -0.774 1.572 23294
1.469 -0.782 1.577 20941
1.484 -0.789 1.583 18912
1.493 -0.794 1.583 19953
1.507 -0.802 1.588 24016
1.522 -0.810 1.593 26664
1.525 -0.812 1.588 30603
1.529 -0.814 1.583 32175
1.538 -0.818 1.583 25568
1.553 -0.826 1.587 18081
1.562 -0.831 1.587 14078
1.565 -0.833 1.582 13376
1.575 -0.838 1.582 15802
1.584 -0.843 1.581 15734
1.593 -0.848 1.581 13207
1.602 -0.853 1.580 15580
1.611 -0.857 1.580 17914
1.615 -0.859 1.574 15143
1.613 -0.858 1.564 15641
1.617 -0.860 1.559 20271
1.620 -0.862 1.553 22105
1.624 -0.864 1.548 27095
1.628 -0.866 1.542 33927
1.631 -0.868 1.537 32728
1.635 -0.870 1.532 24709
1.638 -0.872 1.526 17101
1.642 -0.874 1.521 11699
1.725 -0.918 1.580 17927
1.734 -0.923 1.579 16929
1.749 -0.931 1.582 14242
1.758 -0.936 1.581 10710
1.762 -0.938 1.575 5131
1.754 -0.933 1.560 5279
1.764 -0.938 1.559 9539
1.773 -0.943 1.558 11954
1.782 -0.948 1.556 10967
1.792 -0.953 1.555 8453
1.813 -0.965 1.562 6600
1.828 -0.973 1.565 5502
1.843 -0.981 1.568 7550
1.864 -0.992 1.575 12991
1.874 -0.997 1.573 16594
1.872 -0.996 1.562 17423
1.840 -0.979 1.530 16125
1.844 -0.981 1.524 13135
1.918 -1.020 1.569 11365
1.910 -1.016 1.554 11412
1.913 -1.018 1.548 11058
1.946 -1.036 1.563 13878
1.950 -1.038 1.556 19599
1.954 -1.039 1.550 23646
1.957 -1.041 1.543 16067
1.967 -1.046 1.541 9526
1.976 -1.052 1.538 7545
1.992 -1.060 1.540 5946
2.013 -1.071 1.546 6662
2.041 -1.086 1.555 8823
2.044 -1.088 1.548 11509
2.042 -1.087 1.538 11922
2.040 -1.085 1.527 8420
2.025 -1.077 1.508 6176
2.035 -1.083 1.505 6446
2.044 -1.088 1.502 7662
2.048 -1.089 1.495 8541
2.130 -1.133 1.540 7098
2.140 -1.138 1.536 6991
2.155 -1.147 1.537 7227
2.183 -1.162 1.545 6818
2.193 -1.167 1.542 7590
2.197 -1.169 1.535 6130
2.194 -1.167 1.523 4750
2.191 -1.166 1.512 5740
2.195 -1.168 1.505 6782
2.266 -1.206 1.539 6214
2.276 -1.211 1.535 6515
2.286 -1.216 1.531 7243
2.289 -1.218 1.524 7506
2.293 -1.220 1.516 7770
2.302 -1.225 1.512 10041
2.312 -1.230 1.508 12502
2.303 -1.225 1.493 11726
2.307 -1.227 1.485 11273
2.310 -1.229 1.478 7714
2.345 -1.248 1.488 4835
2.361 -1.256 1.487 4729
2.383 -1.268 1.489 5626
2.386 -1.270 1.481 6700
2.396 -1.275 1.477 7791
2.387 -1.270 1.462 7016
2.390 -1.272 1.454 6603
2.526 -1.344 1.517 6235
2.536 -1.349 1.512 8932
2.540 -1.351 1.504 10024
2.543 -1.353 1.495 11116
2.546 -1.355 1.487 11116
2.563 -1.364 1.485 8240
2.642 -1.406 1.516 6496
2.620 -1.394 1.494 8281
2.624 -1.396 1.485 11208
2.621 -1.395 1.473 8990
2.586 -1.376 1.445 8276
2.589 -1.378 1.437 8276
2.586 -1.376 1.425 6151
2.583 -1.374 1.413 4170
2.586 -1.376 1.405 2085
0.566 -0.302 1.605 10034
0.566 -0.303 1.596 9976
0.570 -0.305 1.594 10104
0.574 -0.307 1.592 9073
0.575 -0.307 1.583 8105
0.590 -0.315 1.609 8682
0.594 -0.317 1.607 9706
0.598 -0.319 1.605 9946
0.604 -0.323 1.610 9645
0.614 -0.328 1.622 10312
0.621 -0.332 1.627 10256
0.628 -0.336 1.632 10737
0.632 -0.338 1.630 8051
0.636 -0.340 1.628 5366
0.640 -0.342 1.626 4970
0.643 -0.344 1.624 4463
0.647 -0.346 1.622 4775
0.654 -0.349 1.626 5631
0.661 -0.353 1.631 6223
0.668 -0.357 1.636 7832
0.672 -0.359 1.634 9479
0.679 -0.363 1.638 8699
0.683 -0.365 1.636 7992
0.683 -0.365 1.627 8436
0.687 -0.367 1.624 8953
0.691 -0.369 1.622 7878
0.695 -0.371 1.620 6653
0.699 -0.373 1.617 6038
0.706 -0.377 1.622 9274
0.710 -0.379 1.619 12927
0.713 -0.381 1.617 13409
0.714 -0.381 1.608 13910
0.717 -0.383 1.605 11548
0.721 -0.385 1.603 9187
0.721 -0.385 1.594 13134
0.729 -0.389 1.598 15798
0.736 -0.393 1.602 17016
0.740 -0.395 1.600 19823
0.743 -0.397 1.597 20322
0.747 -0.399 1.595 19624
0.751 -0.401 1.592 18879
0.751 -0.401 1.583 17937
0.758 -0.405 1.587 15149
0.769 -0.411 1.598 14398
0.769 -0.411 1.589 12486
0.769 -0.411 1.579 18177
0.773 -0.413 1.577 25635
0.781 -0.417 1.581 30645
0.788 -0.421 1.585 34752
0.788 -0.421 1.575 29936
0.792 -0.423 1.573 21862
0.795 -0.425 1.570 19783
0.791 -0.423 1.554 21395
0.799 -0.427 1.558 26045
0.810 -0.433 1.569 34508
0.814 -0.435 1.566 37186
0.817 -0.437 1.563 32015
0.821 -0.439 1.560 21992
0.821 -0.438 1.551 15846
0.883 -0.472 1.646 11790
0.883 -0.472 1.637 10642
0.883 -0.472 1.627 14794
0.887 -0.474 1.624 20237
0.891 -0.476 1.621 22235
0.894 -0.478 1.618 19684
0.902 -0.482 1.622 18787
0.910 -0.486 1.625 19881
0.910 -0.486 1.616 22856
0.914 -0.488 1.612 26729
0.921 -0.492 1.616 26354
0.921 -0.492 1.606 22329
0.925 -0.494 1.603 21590
0.929 -0.496 1.600 21672
0.941 -0.503 1.610 17540
0.953 -0.509 1.619 22289
0.957 -0.511 1.616 29957
0.960 -0.513 1.613 22937
0.968 -0.517 1.616 11171
0.981 -0.524 1.625 6988
0.980 -0.524 1.615 6790
0.980 -0.523 1.606 7639
0.992 -0.530 1.615 8732
1.000 -0.534 1.618 8034
1.004 -0.536 1.615 5495
1.012 -0.541 1.617 7296
1.020 -0.545 1.620 11360
1.024 -0.547 1.617 11062
1.032 -0.551 1.619 6875
1.040 -0.556 1.622 3344
0.942 -0.503 1.478 3410
1.052 -0.562 1.621 4400
1.056 -0.564 1.618 8272
1.060 -0.566 1.614 12146
1.068 -0.571 1.616 13312
1.076 -0.575 1.619 12236
1.085 -0.580 1.621 13113
1.089 -0.582 1.618 15975
1.088 -0.581 1.608 17158
1.096 -0.586 1.610 14847
0.889 -0.475 1.332 23092
0.892 -0.477 1.329 28498
0.895 -0.478 1.326 33176
0.898 -0.480 1.323 33175
0.901 -0.482 1.320 24940
0.900 -0.481 1.311 14574
0.903 -0.482 1.308 12007
0.901 -0.481 1.299 16479
0.904 -0.483 1.296 19677
1.157 -0.618 1.602 22191
1.161 -0.620 1.598 27706
1.164 -0.622 1.594 32927
1.168 -0.624 1.590 43679
1.172 -0.626 1.586 50789
1.171 -0.625 1.577 45800
1.174 -0.627 1.573 38444
1.183 -0.632 1.574 29772
1.201 -0.642 1.588 19304
1.224 -0.654 1.606 19866
1.218 -0.651 1.591 15607
1.217 -0.650 1.581 10394
1.230 -0.657 1.588 10321
1.239 -0.662 1.590 16101
1.243 -0.664 1.586 15628
1.113 -0.595 1.430 13058
1.116 -0.596 1.427 13515
1.120 -0.598 1.423 12723
1.118 -0.597 1.413 10968
1.121 -0.599 1.410 11081
1.124 -0.601 1.406 9048
1.128 -0.602 1.402 6830
1.312 -0.701 1.596 12711
1.321 -0.706 1.597 15952
1.325 -0.708 1.592 18153
1.328 -0.710 1.588 26727
1.332 -0.712 1.583 41560
1.336 -0.714 1.579 39861
1.334 -0.713 1.569 19396
1.353 -0.723 1.581 15211
1.357 -0.725 1.576 23727
1.361 -0.727 1.571 23433
1.364 -0.729 1.567 16719
1.368 -0.731 1.562 12748
1.382 -0.739 1.568 18571
1.381 -0.738 1.558 25500
1.384 -0.740 1.554 21787
1.388 -0.742 1.549 16643
1.402 -0.749 1.555 15576
1.411 -0.754 1.555 17237
1.430 -0.764 1.566 16817
1.455 -0.778 1.582 17648
1.459 -0.779 1.577 20445
1.468 -0.784 1.577 19152
1.482 -0.792 1.583 18293
1.497 -0.800 1.588 20702
1.511 -0.807 1.593 25408
1.520 -0.812 1.593 28497
1.524 -0.814 1.588 33018
1.528 -0.816 1.583 34396
1.542 -0.824 1.588 28340
1.551 -0.829 1.587 20612
1.560 -0.834 1.587 14608
1.564 -0.836 1.582 12881
1.573 -0.841 1.582 15333
1.582 -0.845 1.581 15385
1.592 -0.850 1.581 12444
1.601 -0.855 1.580 14843
1.610 -0.860 1.580 18746
1.614 -0.862 1.574 16215
1.612 -0.861 1.564 13595
1.615 -0.863 1.559 14195
1.619 -0.865 1.553 14905
1.628 -0.870 1.553 20741
1.626 -0.869 1.542 27098
1.630 -0.871 1.537 25868
1.633 -0.873 1.532 19194
1.637 -0.875 1.526 13422
1.714 -0.916 1.581 10237
1.723 -0.921 1.580 18076
1.727 -0.923 1.574 16874
1.753 -0.937 1.587 13708
1.757 -0.939 1.581 10698
1.761 -0.941 1.575 6013
1.753 -0.936 1.560 5632
1.768 -0.945 1.563 9603
1.777 -0.950 1.562 11839
1.787 -0.955 1.561 10557
1.796 -0.960 1.559 8131
1.811 -0.968 1.562 7179
1.821 -0.973 1.560 6363
1.842 -0.984 1.568 7331
1.863 -0.995 1.575 14141
1.872 -1.000 1.573 18366
1.870 -0.999 1.562 19280
1.874 -1.001 1.556 14988
1.912 -1.022 1.576 13996
1.916 -1.024 1.569 13449
1.908 -1.019 1.554 12729
1.911 -1.021 1.548 11696
1.945 -1.039 1.563 13115
1.954 -1.044 1.560 18220
1.952 -1.043 1.550 21850
1.955 -1.045 1.543 14939
1.965 -1.050 1.541 8670
1.974 -1.055 1.538 6625
1.996 -1.066 1.544 5782
2.017 -1.078 1.550 7635
2.039 -1.089 1.555 9432
2.043 -1.091 1.548 12203
2.040 -1.090 1.538 12764
2.044 -1.092 1.531 9546
2.029 -1.084 1.512 7300
2.039 -1.089 1.509 6259
2.109 -1.127 1.546 6649
2.052 -1.096 1.499 6733
2.128 -1.137 1.540 6131
2.144 -1.145 1.540 6478
2.159 -1.154 1.541 7389
2.181 -1.165 1.545 7536
2.191 -1.171 1.542 8508
2.195 -1.173 1.535 6929
2.186 -1.168 1.520 5557
2.189 -1.170 1.512 6055
2.193 -1.172 1.505 6553
2.264 -1.210 1.539 5736
2.274 -1.215 1.535 5985
2.283 -1.220 1.531 6685
2.287 -1.222 1.524 7096
2.284 -1.221 1.512 7512
2.300 -1.229 1.512 9525
2.310 -1.234 1.508 11933
2.307 -1.233 1.497 11261
2.304 -1.231 1.485 11001
2.308 -1.233 1.478 7672
2.330 -1.245 1.480 4428
2.365 -1.263 1.490 4067
2.387 -1.275 1.493 5483
2.390 -1.277 1.485 6728
2.394 -1.279 1.477 7973
2.391 -1.277 1.466 7140
2.388 -1.276 1.454 6545
2.524 -1.348 1.517 6805
2.534 -1.354 1.512 9881
2.537 -1.356 1.504 10987
2.541 -1.357 1.495 12093
2.544 -1.359 1.487 12093
2.554 -1.365 1.482 8760
2.570 -1.373 1.480 6391
2.612 -1.395 1.491 8284
2.615 -1.397 1.482 11113
2.612 -1.396 1.470 8947
2.577 -1.377 1.442 8768
2.581 -1.379 1.434 8768
2.584 -1.381 1.425 6738
2.581 -1.379 1.413 4807
2.584 -1.381 1.405 2403
0.565 -0.304 1.605 10564
0.565 -0.304 1.596 10215
0.569 -0.306 1.594 10055
0.570 -0.307 1.585 9322
0.574 -0.309 1.583 8620
0.589 -0.317 1.609 9144
0.593 -0.319 1.607 10520
0.597 -0.321 1.605 10912
0.604 -0.325 1.610 10632
0.613 -0.330 1.622 11463
0.620 -0.334 1.627 11270
0.627 -0.337 1.632 11719
0.631 -0.339 1.630 8808
0.635 -0.341 1.628 5897
0.642 -0.345 1.633 5286
0.646 -0.347 1.631 4622
0.649 -0.349 1.629 4826
0.656 -0.353 1.633 5422
0.663 -0.357 1.638 5950
0.670 -0.361 1.643 7674
0.674 -0.363 1.641 9445
0.678 -0.365 1.638 9180
0.682 -0.367 1.636 8914
0.682 -0.367 1.627 9339
0.686 -0.369 1.624 9748
0.690 -0.371 1.622 8721
0.694 -0.373 1.620 7338
0.698 -0.375 1.617 6118
0.701 -0.377 1.615 8658
0.705 -0.379 1.613 11991
0.709 -0.381 1.610 12609
0.713 -0.383 1.608 13226
0.716 -0.385 1.605 10866
0.720 -0.387 1.603 8506
0.724 -0.389 1.600 12005
0.728 -0.391 1.598 14361
0.735 -0.395 1.602 15699
0.739 -0.397 1.600 18739
0.742 -0.399 1.597 19495
0.746 -0.401 1.595 19025
0.750 -0.403 1.592 18482
0.750 -0.403 1.583 17679
0.757 -0.407 1.587 15401
0.768 -0.413 1.598 14933
0.768 -0.413 1.589 12844
0.768 -0.413 1.579 17863
0.772 -0.415 1.577 24966
0.779 -0.419 1.581 30580
0.787 -0.423 1.585 35336
0.787 -0.423 1.575 30779
0.790 -0.425 1.573 22442
