1.882 -1.688 1.656 7154
1.876 -1.682 1.640 6690
1.879 -1.685 1.633 5129
1.943 -1.742 1.673 5484
1.952 -1.750 1.669 7761
1.950 -1.748 1.657 7840
1.938 -1.737 1.638 6732
2.013 -1.805 1.685 5433
2.011 -1.803 1.673 8456
2.009 -1.802 1.661 11752
2.012 -1.804 1.653 10721
2.036 -1.826 1.661 6961
2.065 -1.852 1.671 5241
2.074 -1.860 1.667 5739
2.082 -1.867 1.663 6463
2.096 -1.880 1.662 9292
2.099 -1.883 1.653 12377
2.097 -1.881 1.641 13692
2.095 -1.879 1.630 15656
2.099 -1.882 1.621 14221
2.107 -1.889 1.617 12815
2.110 -1.892 1.608 11153
2.124 -1.905 1.607 10067
2.122 -1.903 1.595 7987
2.125 -1.905 1.587 5975
2.128 -1.908 1.578 4652
2.179 -1.954 1.601 4700
2.240 -2.009 1.631 6021
2.243 -2.012 1.622 8068
2.231 -2.000 1.603 7395
2.223 -1.993 1.587 7428
2.248 -2.015 1.592 5798
2.437 -2.186 1.701 5130
2.265 -2.031 1.581 5791
2.268 -2.033 1.572 6591
2.453 -2.199 1.676 6760
2.451 -2.197 1.663 9910
2.454 -2.200 1.653 9910
2.457 -2.203 1.643 12599
2.460 -2.206 1.634 15289
2.469 -2.214 1.627 12853
2.483 -2.227 1.624 10756
2.481 -2.225 1.611 10525
2.484 -2.227 1.601 10312
2.487 -2.230 1.591 10312
2.490 -2.233 1.581 5156
0.496 -0.447 1.662 7430
0.501 -0.452 1.668 7397
0.507 -0.457 1.673 7766
0.513 -0.463 1.678 7297
0.521 -0.470 1.690 7481
0.524 -0.473 1.688 7481
0.525 -0.474 1.679 8157
0.526 -0.474 1.669 9124
0.529 -0.477 1.667 11323
0.533 -0.480 1.665 13522
0.539 -0.486 1.670 17612
0.544 -0.491 1.675 22262
0.548 -0.494 1.673 20946
0.551 -0.497 1.671 19542
0.557 -0.502 1.675 18502
0.560 -0.505 1.673 13986
0.561 -0.506 1.664 10099
0.564 -0.509 1.662 8269
0.567 -0.512 1.659 6439
0.573 -0.517 1.664 5622
0.582 -0.525 1.676 5252
0.591 -0.533 1.687 6703
0.597 -0.539 1.692 8670
0.600 -0.542 1.689 9517
0.604 -0.545 1.687 10364
0.607 -0.548 1.685 8943
0.608 -0.548 1.675 7598
0.611 -0.551 1.673 9429
0.617 -0.557 1.677 11139
0.623 -0.562 1.682 11098
0.627 -0.565 1.679 12744
0.630 -0.568 1.677 14414
0.633 -0.571 1.674 15166
0.637 -0.574 1.671 15631
0.643 -0.580 1.676 11136
0.646 -0.583 1.673 6812
0.646 -0.583 1.664 7728
0.650 -0.586 1.661 8643
0.656 -0.592 1.665 9463
0.671 -0.606 1.690 9797
0.681 -0.614 1.701 9762
0.684 -0.617 1.698 9076
0.684 -0.617 1.688 8712
0.685 -0.618 1.679 6724
0.688 -0.621 1.676 4262
0.691 -0.624 1.673 3699
0.698 -0.629 1.677 3479
0.704 -0.635 1.681 6151
0.708 -0.638 1.678 9111
0.708 -0.638 1.669 11489
0.711 -0.641 1.666 14324
0.714 -0.644 1.663 14638
0.714 -0.644 1.654 14847
0.718 -0.647 1.651 14684
0.721 -0.650 1.648 14303
0.731 -0.659 1.658 17963
0.734 -0.662 1.655 22524
0.740 -0.668 1.659 22600
0.744 -0.671 1.656 22297
0.754 -0.680 1.666 18300
0.780 -0.704 1.709 20069
0.787 -0.710 1.712 25177
0.787 -0.710 1.702 26915
0.790 -0.713 1.699 20865
0.790 -0.713 1.689 20566
0.794 -0.716 1.686 26007
0.800 -0.722 1.690 29174
0.807 -0.728 1.693 29881
0.814 -0.734 1.696 23599
0.821 -0.740 1.699 22449
0.821 -0.740 1.689 23415
0.824 -0.743 1.686 19058
0.831 -0.749 1.689 14581
0.834 -0.752 1.686 15202
0.837 -0.755 1.682 18822
0.837 -0.755 1.673 19942
0.841 -0.758 1.669 16418
0.847 -0.764 1.672 12751
0.847 -0.764 1.663 8977
0.850 -0.767 1.659 7676
0.857 -0.773 1.662 13533
0.864 -0.779 1.665 17596
0.871 -0.786 1.668 14861
0.874 -0.789 1.664 15545
0.874 -0.788 1.654 17223
0.881 -0.795 1.657 14171
0.895 -0.807 1.672 16648
0.891 -0.804 1.656 16698
0.894 -0.807 1.653 13549
0.935 -0.843 1.710 12100
0.927 -0.836 1.688 13804
0.927 -0.836 1.678 14501
0.938 -0.846 1.687 11137
0.948 -0.855 1.695 14116
0.952 -0.858 1.691 20037
0.955 -0.861 1.688 27026
0.958 -0.864 1.684 32407
0.954 -0.861 1.668 24025
0.957 -0.864 1.664 20089
0.972 -0.877 1.678 30344
0.979 -0.883 1.680 33342
0.983 -0.886 1.676 25075
0.990 -0.893 1.678 20451
0.997 -0.899 1.680 35440
1.000 -0.902 1.676 42025
1.008 -0.909 1.678 28970
1.015 -0.915 1.680 20723
1.022 -0.922 1.682 16753
1.026 -0.925 1.678 14253
1.033 -0.932 1.680 15033
1.040 -0.938 1.681 12174
1.043 -0.941 1.677 14147
1.051 -0.948 1.679 18861
1.062 -0.958 1.686 23007
1.070 -0.965 1.687 25787
1.073 -0.968 1.683 18024
1.084 -0.978 1.690 10496
1.088 -0.981 1.686 9234
1.099 -0.992 1.693 14055
1.098 -0.991 1.683 13347
1.102 -0.994 1.679 13959
1.109 -1.001 1.680 14670
1.113 -1.004 1.675 9061
1.128 -1.018 1.688 12727
1.136 -1.025 1.689 16152
1.143 -1.031 1.690 17943
1.151 -1.038 1.691 16686
1.154 -1.041 1.686 15565
1.158 -1.044 1.682 16668
1.157 -1.043 1.672 12945
1.130 -1.019 1.629 14266
1.133 -1.022 1.624 15342
1.154 -1.041 1.641 16949
1.161 -1.047 1.642 19185
1.164 -1.050 1.637 15221
1.181 -1.065 1.649 9532
1.188 -1.072 1.650 8307
1.196 -1.079 1.650 12929
1.195 -1.078 1.640 15928
1.194 -1.077 1.630 12824
1.201 -1.083 1.631 10237
1.209 -1.090 1.631 9417
1.216 -1.097 1.632 7775
1.154 -1.041 1.548 5745
1.157 -1.043 1.543 6326
1.155 -1.042 1.533 7355
1.158 -1.045 1.529 9708
1.161 -1.047 1.524 7502
1.164 -1.050 1.520 5063
1.167 -1.053 1.515 7106
1.166 -1.051 1.505 13361
1.164 -1.050 1.495 16801
1.162 -1.049 1.486 20565
1.165 -1.051 1.481 23620
1.168 -1.054 1.476 24960
1.171 -1.056 1.472 27764
1.179 -1.063 1.472 30147
1.181 -1.066 1.467 31204
1.184 -1.068 1.463 27702
1.187 -1.071 1.458 21220
1.190 -1.073 1.453 15831
1.197 -1.080 1.453 11553
1.200 -1.083 1.449 9015
1.208 -1.089 1.449 8996
1.220 -1.100 1.454 8112
1.222 -1.103 1.449 6096
1.472 -1.327 1.701 7048
1.475 -1.330 1.695 7490
1.478 -1.333 1.689 9482
1.486 -1.341 1.688 13149
1.490 -1.344 1.682 12492
1.493 -1.347 1.676 8296
1.501 -1.354 1.675 5376
1.518 -1.370 1.683 4141
1.536 -1.385 1.691 2869
1.544 -1.393 1.690 3965
1.543 -1.391 1.679 7084
1.546 -1.394 1.673 9931
1.563 -1.410 1.681 10916
1.576 -1.422 1.684 18595
1.580 -1.425 1.678 28711
1.583 -1.428 1.671 31697
1.591 -1.435 1.670 27872
1.599 -1.442 1.668 21874
1.602 -1.445 1.661 21076
1.606 -1.448 1.655 24659
1.609 -1.451 1.649 22002
1.607 -1.450 1.638 17964
1.615 -1.457 1.636 16344
1.624 -1.464 1.634 13575
1.637 -1.476 1.636 14053
1.640 -1.479 1.630 16342
1.648 -1.486 1.628 13680
1.666 -1.503 1.634 8106
1.694 -1.528 1.649 10853
1.677 -1.513 1.625 13526
1.675 -1.511 1.614 13963
1.679 -1.514 1.607 12850
1.766 -1.593 1.673 9794
1.764 -1.592 1.662 9701
1.763 -1.590 1.651 9008
1.756 -1.584 1.635 7992
1.754 -1.582 1.624 8337
1.787 -1.612 1.642 8104
1.796 -1.620 1.639 11657
1.804 -1.627 1.636 13330
1.807 -1.630 1.629 11098
1.820 -1.642 1.630 6046
1.889 -1.704 1.675 5786
1.877 -1.693 1.656 6473
1.881 -1.696 1.648 5488
1.925 -1.736 1.673 4520
1.938 -1.748 1.673 5575
1.946 -1.756 1.669 7161
1.940 -1.749 1.654 7186
1.933 -1.743 1.638 6351
2.007 -1.811 1.685 5481
2.006 -1.809 1.673 8601
2.004 -1.807 1.661 12001
2.012 -1.815 1.657 11187
2.036 -1.837 1.664 8013
2.055 -1.853 1.668 6766
2.063 -1.861 1.663 6691
2.072 -1.869 1.659 6695
2.091 -1.886 1.662 8731
2.094 -1.889 1.653 11422
2.092 -1.887 1.641 12865
2.090 -1.885 1.630 15290
2.093 -1.888 1.621 14208
2.096 -1.891 1.613 13125
2.105 -1.898 1.608 11023
2.118 -1.911 1.607 10020
2.122 -1.914 1.599 7886
2.119 -1.912 1.587 5787
2.128 -1.919 1.582 4624
2.173 -1.960 1.601 4995
2.234 -2.015 1.631 6449
2.237 -2.018 1.622 8569
2.214 -1.997 1.596 7697
2.212 -1.995 1.584 7822
2.247 -2.027 1.596 5894
2.255 -2.034 1.590 5296
2.259 -2.037 1.581 5921
2.262 -2.040 1.572 6546
2.441 -2.202 1.673 7409
2.444 -2.205 1.663 10613
2.447 -2.208 1.653 10613
2.451 -2.211 1.643 12813
2.454 -2.213 1.634 15014
2.457 -2.216 1.624 11973
2.466 -2.224 1.618 9166
2.474 -2.232 1.611 9202
2.477 -2.235 1.601 9243
2.481 -2.237 1.591 9243
2.484 -2.240 1.581 4621
0.494 -0.448 1.662 6969
0.500 -0.454 1.668 7177
0.506 -0.459 1.673 7793
0.514 -0.466 1.685 7028
0.522 -0.474 1.697 7022
0.526 -0.477 1.695 7022
0.526 -0.478 1.686 7211
0.525 -0.476 1.669 7675
0.530 -0.481 1.674 10063
0.534 -0.484 1.672 12488
0.540 -0.490 1.677 16940
0.543 -0.493 1.675 21708
0.546 -0.496 1.673 20572
0.550 -0.499 1.671 19327
0.555 -0.504 1.675 18351
0.559 -0.507 1.673 13928
0.559 -0.508 1.664 10106
0.563 -0.511 1.662 8153
0.566 -0.514 1.659 6201
0.569 -0.517 1.657 5260
0.578 -0.524 1.669 4635
0.592 -0.537 1.694 6238
0.596 -0.540 1.692 8325
0.599 -0.543 1.689 9484
0.602 -0.546 1.687 10642
0.606 -0.549 1.685 9557
0.603 -0.547 1.668 8791
0.609 -0.553 1.673 10288
0.613 -0.556 1.670 11594
0.619 -0.562 1.675 11312
0.625 -0.567 1.679 12674
0.628 -0.570 1.677 14176
0.632 -0.573 1.674 15388
0.635 -0.576 1.671 16318
0.638 -0.579 1.669 12254
0.644 -0.585 1.673 8237
0.645 -0.585 1.664 8763
0.648 -0.588 1.661 8896
0.654 -0.594 1.665 9460
0.667 -0.605 1.683 9128
0.679 -0.616 1.701 8725
0.682 -0.619 1.698 7618
0.683 -0.619 1.688 6726
0.683 -0.620 1.679 5319
0.689 -0.625 1.683 4402
0.693 -0.628 1.680 4971
0.699 -0.634 1.684 4591
0.702 -0.637 1.681 6035
0.706 -0.640 1.678 7848
0.706 -0.640 1.669 10119
0.709 -0.643 1.666 13307
0.709 -0.644 1.656 14168
0.716 -0.649 1.660 15105
0.716 -0.649 1.651 15375
0.719 -0.652 1.648 14727
0.725 -0.658 1.652 17670
0.732 -0.664 1.655 22240
0.738 -0.670 1.659 23248
0.745 -0.676 1.662 22493
0.752 -0.682 1.666 17787
0.781 -0.709 1.715 20649
0.785 -0.712 1.712 25746
0.788 -0.715 1.709 26704
0.788 -0.715 1.699 20225
0.788 -0.715 1.689 19798
0.791 -0.718 1.686 24758
0.798 -0.724 1.690 27348
0.805 -0.730 1.693 28647
0.812 -0.737 1.696 25459
0.818 -0.743 1.699 25225
0.818 -0.743 1.689 25627
0.825 -0.749 1.692 20884
0.828 -0.752 1.689 16172
0.832 -0.755 1.686 17487
0.835 -0.758 1.682 22008
0.835 -0.758 1.673 23502
0.838 -0.761 1.669 19686
0.845 -0.767 1.672 15711
0.845 -0.767 1.663 11163
0.848 -0.770 1.659 8594
0.855 -0.776 1.662 14737
0.862 -0.782 1.665 19919
0.869 -0.788 1.668 17366
0.872 -0.791 1.664 17722
0.875 -0.794 1.661 19153
0.882 -0.801 1.663 17444
0.889 -0.807 1.666 20881
0.889 -0.806 1.656 21358
0.892 -0.809 1.653 17116
0.895 -0.812 1.649 12158
0.928 -0.842 1.694 13416
0.924 -0.839 1.678 13552
0.935 -0.848 1.687 9737
0.942 -0.855 1.689 12762
0.945 -0.858 1.685 18587
0.952 -0.864 1.688 25659
0.956 -0.867 1.684 31783
0.951 -0.863 1.668 21470
0.955 -0.866 1.664 15519
0.970 -0.880 1.678 24658
0.977 -0.886 1.680 27960
0.980 -0.889 1.676 21649
0.987 -0.896 1.678 18398
0.994 -0.902 1.680 33068
1.002 -0.909 1.682 40169
1.005 -0.912 1.678 27620
1.012 -0.919 1.680 20673
1.019 -0.925 1.682 16741
1.023 -0.928 1.678 12168
1.030 -0.935 1.680 11801
1.037 -0.941 1.681 10263
1.041 -0.944 1.677 13097
1.048 -0.951 1.679 17723
1.059 -0.961 1.686 20910
1.067 -0.968 1.687 21909
1.074 -0.975 1.689 15391
1.081 -0.981 1.690 9608
1.085 -0.984 1.686 9386
1.092 -0.991 1.687 14322
1.095 -0.994 1.683 13250
1.099 -0.997 1.679 12293
1.106 -1.004 1.680 12659
1.110 -1.007 1.675 8869
1.125 -1.021 1.688 12382
1.133 -1.028 1.689 15042
1.140 -1.035 1.690 18438
1.148 -1.042 1.691 17776
1.151 -1.045 1.686 16671
1.154 -1.048 1.682 14711
1.153 -1.047 1.672 9768
1.131 -1.027 1.634 10958
1.130 -1.026 1.624 12418
1.151 -1.044 1.641 14769
1.158 -1.051 1.642 16978
1.161 -1.054 1.637 13192
1.182 -1.072 1.654 8390
1.211 -1.099 1.682 8260
1.197 -1.086 1.656 10874
1.196 -1.085 1.646 13496
1.190 -1.080 1.630 10264
1.198 -1.087 1.631 8883
1.205 -1.094 1.631 8709
1.213 -1.101 1.632 7278
1.150 -1.044 1.548 4900
1.158 -1.051 1.549 5102
1.152 -1.045 1.533 7168
1.155 -1.048 1.529 10388
1.158 -1.051 1.524 7529
1.165 -1.058 1.525 4882
1.168 -1.060 1.520 6264
1.167 -1.059 1.510 11056
1.165 -1.058 1.500 13760
1.164 -1.056 1.491 14291
1.162 -1.055 1.481 13857
1.165 -1.057 1.476 14094
1.168 -1.060 1.472 16756
1.175 -1.067 1.472 20317
1.178 -1.069 1.467 23878
1.181 -1.072 1.463 22680
1.188 -1.078 1.463 17848
1.191 -1.081 1.458 13840
1.194 -1.084 1.453 10178
1.197 -1.086 1.449 7412
1.209 -1.097 1.454 7674
1.216 -1.104 1.454 7727
1.460 -1.325 1.702 6361
1.468 -1.332 1.701 7334
1.471 -1.335 1.695 7211
1.479 -1.342 1.694 9152
1.487 -1.349 1.693 12973
1.490 -1.352 1.687 12077
1.489 -1.351 1.676 7778
1.502 -1.363 1.680 5059
1.514 -1.374 1.683 3887
1.532 -1.390 1.691 2914
1.535 -1.393 1.685 3534
1.543 -1.400 1.684 6248
1.551 -1.408 1.682 9998
1.564 -1.419 1.685 12390
1.572 -1.427 1.684 20811
1.575 -1.430 1.678 31123
1.583 -1.437 1.676 34435
1.587 -1.440 1.670 30558
1.595 -1.447 1.668 23752
1.598 -1.450 1.661 22538
1.601 -1.453 1.655 25968
1.605 -1.456 1.649 23602
1.603 -1.455 1.638 19873
1.611 -1.462 1.636 18757
1.614 -1.465 1.629 15590
1.627 -1.477 1.632 14636
1.635 -1.484 1.630 16496
1.638 -1.487 1.623 13355
1.666 -1.512 1.638 7074
1.689 -1.533 1.649 11582
1.682 -1.527 1.634 13882
1.671 -1.516 1.614 13501
1.674 -1.519 1.607 12189
1.761 -1.598 1.673 11043
1.760 -1.597 1.662 10237
1.758 -1.595 1.651 9894
1.761 -1.598 1.644 8463
1.744 -1.583 1.620 7505
1.783 -1.618 1.642 8954
1.791 -1.625 1.639 11836
1.799 -1.633 1.636 12743
1.797 -1.631 1.625 10339
1.815 -1.648 1.630 5757
1.884 -1.710 1.675 5415
1.877 -1.704 1.660 5872
1.886 -1.711 1.656 4920
1.919 -1.742 1.673 5373
1.928 -1.749 1.669 5702
1.941 -1.762 1.669 6569
1.929 -1.751 1.650 6461
1.922 -1.744 1.634 5986
2.002 -1.817 1.685 5497
2.000 -1.815 1.673 8630
1.998 -1.813 1.661 12013
2.007 -1.821 1.657 11425
2.031 -1.843 1.664 9255
2.049 -1.860 1.668 8436
2.053 -1.863 1.659 7888
2.061 -1.870 1.655 7347
2.085 -1.892 1.662 8094
2.093 -1.900 1.657 10481
2.086 -1.893 1.641 11707
2.079 -1.887 1.626 14438
2.087 -1.894 1.621 13751
2.091 -1.897 1.613 13074
2.099 -1.905 1.608 10780
2.118 -1.922 1.611 9983
2.121 -1.925 1.602 7783
2.119 -1.923 1.590 5677
2.153 -1.954 1.603 4724
2.167 -1.967 1.601 5228
2.228 -2.022 1.631 6660
2.231 -2.025 1.622 8799
2.203 -1.999 1.593 7991
2.206 -2.002 1.584 8276
2.214 -2.010 1.579 6253
2.249 -2.041 1.590 5491
2.252 -2.044 1.581 5905
2.250 -2.042 1.569 6363
2.429 -2.204 1.669 8108
2.432 -2.207 1.660 11185
2.435 -2.210 1.650 11185
2.439 -2.213 1.640 12878
2.442 -2.216 1.631 14571
2.450 -2.224 1.624 11270
2.459 -2.232 1.618 8005
2.462 -2.234 1.608 7975
2.471 -2.242 1.601 8064
2.474 -2.245 1.591 8064
2.477 -2.248 1.581 4032
0.494 -0.449 1.662 6410
0.499 -0.454 1.668 6877
0.505 -0.460 1.673 7727
0.513 -0.467 1.685 6796
0.521 -0.475 1.697 6751
0.525 -0.478 1.695 6751
0.526 -0.478 1.686 6395
0.526 -0.479 1.677 6254
0.530 -0.482 1.674 8888
0.533 -0.485 1.672 11521
0.539 -0.491 1.677 16167
0.542 -0.494 1.675 20971
0.545 -0.497 1.673 20014
0.549 -0.500 1.671 18930
0.555 -0.505 1.675 18033
0.558 -0.508 1.673 13719
0.559 -0.508 1.664 10014
0.562 -0.511 1.662 7993
0.565 -0.514 1.659 5971
0.568 -0.517 1.657 4914
0.574 -0.523 1.662 4100
0.591 -0.538 1.694 5705
0.595 -0.541 1.692 7793
0.598 -0.544 1.689 9414
0.601 -0.547 1.687 11036
0.602 -0.548 1.678 10404
0.602 -0.548 1.668 10095
0.608 -0.554 1.673 11175
0.612 -0.557 1.670 11990
0.618 -0.562 1.675 11442
0.624 -0.568 1.679 12548
0.624 -0.568 1.670 13916
0.631 -0.574 1.674 15585
0.634 -0.577 1.671 17007
0.637 -0.580 1.669 13440
0.640 -0.583 1.666 9873
0.644 -0.586 1.664 9832
0.647 -0.589 1.661 9170
0.653 -0.595 1.665 9501
0.666 -0.606 1.683 8691
0.678 -0.617 1.701 7943
0.681 -0.620 1.698 6564
0.682 -0.621 1.688 5315
0.685 -0.624 1.686 5058
0.688 -0.627 1.683 5607
0.695 -0.632 1.687 6616
0.698 -0.635 1.684 6143
0.701 -0.638 1.681 6283
0.705 -0.641 1.678 6897
0.705 -0.642 1.669 8977
0.708 -0.645 1.666 12740
0.711 -0.648 1.663 14204
0.715 -0.651 1.660 15760
0.715 -0.651 1.651 15927
0.718 -0.654 1.648 14868
0.724 -0.659 1.652 17270
0.731 -0.665 1.655 21767
0.737 -0.671 1.659 23549
0.744 -0.677 1.662 22556
0.770 -0.701 1.705 17776
0.780 -0.710 1.715 21236
0.784 -0.713 1.712 25820
0.787 -0.716 1.709 25811
0.787 -0.716 1.699 18892
0.787 -0.716 1.689 18381
0.790 -0.719 1.686 22685
0.797 -0.726 1.690 24944
0.807 -0.735 1.699 27538
0.811 -0.738 1.696 27364
0.814 -0.741 1.693 27679
0.817 -0.744 1.689 27502
0.824 -0.750 1.692 22516
0.827 -0.753 1.689 17380
0.831 -0.756 1.686 19046
0.834 -0.759 1.682 24178
0.834 -0.759 1.673 25925
0.837 -0.762 1.669 21971
0.844 -0.768 1.672 17832
0.844 -0.768 1.663 12753
0.847 -0.771 1.659 9170
0.857 -0.780 1.668 15294
0.861 -0.783 1.665 21413
0.871 -0.793 1.674 19866
0.874 -0.796 1.670 20215
0.874 -0.796 1.661 21688
0.881 -0.802 1.663 20988
0.884 -0.805 1.660 24945
0.887 -0.808 1.656 25553
0.891 -0.811 1.653 20475
0.894 -0.814 1.649 13545
0.927 -0.844 1.694 13258
0.923 -0.840 1.678 12604
0.934 -0.850 1.687 9293
0.941 -0.856 1.689 12804
0.944 -0.859 1.685 17532
0.947 -0.862 1.682 24204
0.954 -0.869 1.684 30746
0.954 -0.868 1.674 18871
0.953 -0.868 1.664 11241
0.968 -0.881 1.678 20152
0.979 -0.891 1.686 23321
0.983 -0.894 1.682 18167
0.986 -0.897 1.678 16284
0.993 -0.904 1.680 30313
1.000 -0.911 1.682 37621
1.004 -0.914 1.678 26057
1.011 -0.920 1.680 20880
1.022 -0.930 1.688 17161
1.021 -0.930 1.678 10284
1.025 -0.933 1.674 8605
1.040 -0.947 1.687 8118
1.039 -0.946 1.677 11637
1.046 -0.953 1.679 15702
1.058 -0.963 1.686 17403
1.065 -0.970 1.687 16824
1.073 -0.976 1.689 12104
1.080 -0.983 1.690 8216
1.083 -0.986 1.686 9317
1.091 -0.993 1.687 14286
1.090 -0.992 1.677 14014
1.097 -0.999 1.679 11335
1.105 -1.006 1.680 10640
1.112 -1.012 1.681 9294
1.124 -1.023 1.688 11993
1.135 -1.034 1.694 13210
1.143 -1.040 1.695 18264
1.146 -1.043 1.691 18740
1.149 -1.046 1.686 16523
1.153 -1.049 1.682 12791
1.160 -1.056 1.682 7947
1.164 -1.059 1.678 8511
1.133 -1.031 1.629 9853
1.162 -1.058 1.658 12640
1.156 -1.053 1.642 14154
1.160 -1.056 1.637 10762
1.206 -1.098 1.687 9069
1.218 -1.108 1.693 9572
1.199 -1.092 1.661 9738
1.203 -1.095 1.656 11640
1.232 -1.121 1.683 11346
1.218 -1.109 1.657 8464
1.208 -1.100 1.636 7856
1.211 -1.103 1.632 6460
1.219 -1.110 1.632 4624
1.266 -1.152 1.680 4613
1.150 -1.047 1.533 6546
1.153 -1.050 1.529 10273
1.156 -1.053 1.524 7289
1.168 -1.063 1.530 4567
1.171 -1.066 1.525 5638
1.165 -1.061 1.510 9405
1.168 -1.063 1.506 12108
1.167 -1.062 1.496 10841
1.170 -1.065 1.491 8242
1.168 -1.063 1.481 7218
1.166 -1.062 1.472 8765
1.174 -1.068 1.472 12690
1.181 -1.075 1.472 17878
1.184 -1.078 1.468 18438
1.187 -1.080 1.463 14589
1.190 -1.083 1.458 11497
1.192 -1.085 1.453 8519
1.200 -1.092 1.454 5987
1.207 -1.099 1.454 6525
1.215 -1.106 1.454 7185
1.453 -1.323 1.697 7432
1.461 -1.330 1.696 7664
1.469 -1.337 1.695 6755
1.477 -1.344 1.694 8335
1.485 -1.352 1.693 12216
1.488 -1.355 1.687 11524
1.491 -1.358 1.681 7777
1.499 -1.365 1.680 5915
1.512 -1.377 1.683 4889
1.520 -1.384 1.682 3590
1.523 -1.387 1.676 3508
1.541 -1.403 1.684 5856
1.554 -1.414 1.687 10300
1.566 -1.426 1.690 13992
1.570 -1.429 1.684 22589
1.578 -1.436 1.682 32732
1.581 -1.439 1.676 36235
1.584 -1.442 1.670 32186
1.593 -1.450 1.668 24928
1.596 -1.453 1.661 23439
1.599 -1.456 1.655 26405
1.602 -1.459 1.649 24195
1.601 -1.457 1.638 20919
1.609 -1.465 1.636 20226
1.612 -1.467 1.629 17181
1.625 -1.479 1.632 14817
1.628 -1.482 1.625 15915
1.631 -1.485 1.619 12622
1.688 -1.537 1.660 7013
1.692 -1.540 1.653 11950
1.685 -1.534 1.638 13995
1.673 -1.523 1.618 12892
1.760 -1.603 1.684 12200
1.759 -1.601 1.673 11851
1.752 -1.595 1.658 10211
1.760 -1.603 1.655 10495
1.769 -1.610 1.652 9340
1.777 -1.618 1.649 8172
1.785 -1.625 1.646 9897
1.788 -1.628 1.639 11891
1.791 -1.631 1.632 12088
1.795 -1.634 1.625 9551
1.818 -1.655 1.634 5419
1.881 -1.713 1.675 5059
1.880 -1.711 1.664 5430
1.893 -1.723 1.664 5178
1.912 -1.740 1.669 6152
1.925 -1.752 1.669 5906
1.938 -1.765 1.669 6322
1.921 -1.749 1.646 6015
1.914 -1.743 1.630 5589
2.030 -1.848 1.708 5901
1.997 -1.818 1.673 8561
1.995 -1.817 1.661 11820
2.009 -1.829 1.661 11462
2.033 -1.851 1.668 10589
2.046 -1.863 1.668 9947
2.050 -1.866 1.659 9061
2.053 -1.869 1.651 8175
2.087 -1.900 1.665 7554
2.096 -1.908 1.661 9606
2.078 -1.892 1.638 10618
2.076 -1.890 1.626 13513
2.079 -1.893 1.618 13107
2.088 -1.900 1.613 12806
2.096 -1.908 1.608 10545
2.115 -1.925 1.611 9904
2.118 -1.928 1.602 7736
2.121 -1.931 1.594 5568
2.150 -1.958 1.603 4974
2.164 -1.970 1.601 5399
2.225 -2.026 1.631 6740
2.223 -2.024 1.619 8905
2.200 -2.003 1.593 8265
2.203 -2.005 1.584 8649
2.211 -2.013 1.579 6604
2.246 -2.045 1.590 5486
2.249 -2.048 1.581 5689
2.417 -2.200 1.675 6462
2.425 -2.208 1.669 9053
2.429 -2.211 1.660 11780
2.432 -2.214 1.650 11780
2.435 -2.217 1.640 13066
2.438 -2.220 1.631 14352
2.442 -2.223 1.621 10809
2.450 -2.231 1.614 7340
2.453 -2.233 1.605 7108
2.462 -2.241 1.598 7058
2.465 -2.244 1.588 7058
2.468 -2.247 1.578 3529
0.495 -0.453 1.670 5909
0.500 -0.458 1.675 6631
0.506 -0.463 1.680 7597
0.512 -0.469 1.685 6498
0.520 -0.476 1.697 6290
0.523 -0.479 1.695 6290
0.527 -0.482 1.693 5586
0.527 -0.483 1.684 4987
0.531 -0.486 1.682 7741
0.532 -0.487 1.672 10499
0.537 -0.492 1.677 15274
0.541 -0.495 1.675 20053
0.544 -0.498 1.673 19310
0.550 -0.504 1.678 18438
0.553 -0.507 1.675 17648
0.556 -0.510 1.673 13451
0.557 -0.510 1.664 9884
0.560 -0.513 1.662 7826
0.564 -0.516 1.659 5768
0.570 -0.522 1.664 4626
0.573 -0.525 1.662 3718
0.587 -0.538 1.687 5367
0.593 -0.543 1.692 7443
0.596 -0.546 1.689 9633
0.600 -0.549 1.687 11822
0.600 -0.550 1.678 11583
0.601 -0.550 1.668 11523
0.607 -0.556 1.673 12172
0.610 -0.559 1.670 12460
0.616 -0.564 1.675 11562
0.619 -0.567 1.672 12405
0.623 -0.570 1.670 13759
0.629 -0.576 1.674 16029
0.632 -0.579 1.671 18065
0.635 -0.582 1.669 14959
0.639 -0.585 1.666 11853
0.642 -0.588 1.664 11042
0.642 -0.588 1.654 9435
0.651 -0.597 1.665 9530
0.664 -0.608 1.683 8356
0.679 -0.622 1.707 7474
0.682 -0.625 1.705 6048
0.680 -0.623 1.688 4685
0.683 -0.626 1.686 5514
0.689 -0.631 1.690 7217
0.693 -0.635 1.687 8326
0.696 -0.638 1.684 7791
0.699 -0.641 1.681 6672
0.706 -0.646 1.685 6114
0.703 -0.644 1.669 7971
0.706 -0.647 1.666 12516
0.709 -0.650 1.663 14882
0.713 -0.653 1.660 16787
0.716 -0.656 1.657 16650
0.716 -0.656 1.648 14757
0.722 -0.662 1.652 16868
0.729 -0.668 1.655 21243
0.735 -0.673 1.659 23770
0.742 -0.679 1.662 22531
0.768 -0.704 1.705 18650
0.778 -0.713 1.715 21748
0.781 -0.716 1.712 25464
0.785 -0.719 1.709 24178
0.785 -0.719 1.699 16878
0.785 -0.719 1.689 16461
0.788 -0.722 1.686 20069
0.795 -0.728 1.690 22263
0.805 -0.737 1.699 26913
0.808 -0.740 1.696 29575
0.812 -0.743 1.693 30309
0.815 -0.746 1.689 29562
0.822 -0.753 1.692 24184
0.825 -0.756 1.689 18331
0.828 -0.759 1.686 20136
0.832 -0.762 1.682 25841
0.831 -0.762 1.673 27859
0.835 -0.765 1.669 23860
0.842 -0.771 1.672 19627
0.845 -0.774 1.669 14083
0.848 -0.777 1.666 9525
0.855 -0.783 1.668 15422
0.862 -0.789 1.671 22698
0.869 -0.796 1.674 22741
0.872 -0.799 1.670 23450
0.872 -0.798 1.661 24868
0.878 -0.805 1.663 25053
0.882 -0.808 1.660 28969
0.885 -0.811 1.656 29114
0.892 -0.817 1.659 23503
0.895 -0.820 1.655 15027
0.924 -0.847 1.694 12800
0.920 -0.843 1.678 11696
0.931 -0.853 1.687 9686
0.938 -0.859 1.689 13789
0.941 -0.862 1.685 16872
0.945 -0.865 1.682 22615
0.952 -0.872 1.684 29488
0.951 -0.871 1.674 17623
0.962 -0.881 1.682 8745
0.969 -0.888 1.684 17344
0.976 -0.894 1.686 19287
0.980 -0.897 1.682 14747
0.983 -0.900 1.678 14174
0.990 -0.907 1.680 27280
0.997 -0.914 1.682 34623
1.005 -0.920 1.684 25495
1.012 -0.927 1.686 22811
1.019 -0.933 1.688 18563
1.018 -0.933 1.678 8779
1.022 -0.936 1.674 5650
1.037 -0.950 1.687 6428
1.040 -0.953 1.683 10223
1.044 -0.956 1.679 13140
1.051 -0.963 1.680 13138
1.062 -0.973 1.687 10970
1.074 -0.983 1.695 8386
1.077 -0.986 1.690 6700
1.080 -0.989 1.686 8940
1.084 -0.992 1.682 14038
1.087 -0.995 1.677 15372
1.094 -1.002 1.679 11523
1.102 -1.009 1.680 9313
1.113 -1.020 1.687 10768
1.125 -1.030 1.693 12366
1.132 -1.037 1.694 12183
1.140 -1.044 1.695 19096
1.143 -1.047 1.691 20694
1.146 -1.050 1.686 16810
1.154 -1.057 1.687 15023
1.165 -1.067 1.693 11548
1.173 -1.074 1.694 10423
1.181 -1.081 1.695 9604
1.171 -1.073 1.674 11122
1.157 -1.060 1.648 10920
1.156 -1.059 1.637 8231
1.202 -1.101 1.687 10331
1.218 -1.116 1.698 10417
1.209 -1.107 1.677 9131
1.217 -1.114 1.678 11608
1.228 -1.125 1.683 13558
1.219 -1.116 1.663 9630
1.209 -1.107 1.642 7211
1.208 -1.106 1.632 5396
1.259 -1.153 1.685 4769
1.262 -1.156 1.680 5119
1.147 -1.051 1.533 5634
1.150 -1.053 1.529 9348
1.153 -1.056 1.524 6711
1.169 -1.071 1.535 4140
1.172 -1.074 1.530 4989
1.166 -1.068 1.515 7984
1.165 -1.067 1.506 10879
1.168 -1.070 1.501 9406
1.175 -1.076 1.501 6947
1.178 -1.079 1.497 5090
1.168 -1.069 1.477 4028
1.175 -1.076 1.477 7620
1.178 -1.079 1.472 13518
1.181 -1.081 1.468 14617
1.183 -1.084 1.463 11451
1.186 -1.087 1.458 9157
1.194 -1.093 1.458 7129
1.201 -1.100 1.458 4877
1.428 -1.308 1.694 5913
1.436 -1.316 1.693 7676
1.444 -1.323 1.692 8782
1.457 -1.334 1.696 8211
1.465 -1.342 1.695 6422
1.473 -1.349 1.694 7417
1.481 -1.356 1.693 10925
1.484 -1.359 1.687 10495
1.492 -1.366 1.686 8215
1.500 -1.374 1.685 8083
1.508 -1.381 1.683 7026
1.521 -1.393 1.687 5016
1.524 -1.396 1.681 3912
1.537 -1.407 1.684 5446
1.549 -1.419 1.687 10655
1.562 -1.431 1.690 15647
1.570 -1.438 1.688 24028
1.574 -1.441 1.682 33683
1.577 -1.444 1.676 37108
1.580 -1.447 1.670 32965
1.588 -1.455 1.668 25546
1.591 -1.458 1.661 23997
1.595 -1.461 1.655 26245
1.598 -1.464 1.649 23928
1.596 -1.462 1.638 21163
1.604 -1.469 1.636 20769
1.603 -1.468 1.625 17931
1.616 -1.480 1.627 14634
1.624 -1.487 1.625 14803
1.622 -1.486 1.614 11466
1.689 -1.547 1.664 7143
1.687 -1.545 1.653 11915
1.685 -1.543 1.642 13593
1.752 -1.605 1.691 11828
1.756 -1.608 1.684 13384
1.754 -1.606 1.673 12386
1.747 -1.600 1.658 9993
1.760 -1.612 1.659 11005
1.764 -1.615 1.652 10454
1.792 -1.641 1.666 9331
1.785 -1.635 1.650 10772
1.783 -1.633 1.639 11870
1.787 -1.636 1.632 11417
1.790 -1.639 1.625 8685
1.853 -1.697 1.666 6043
1.876 -1.719 1.675 4908
1.875 -1.717 1.664 5490
1.888 -1.729 1.664 6094
1.901 -1.741 1.665 7007
1.915 -1.754 1.665 6277
1.933 -1.770 1.669 6544
1.911 -1.750 1.642 5790
1.990 -1.823 1.693 5552
2.024 -1.854 1.708 6186
1.992 -1.824 1.673 8437
1.995 -1.827 1.665 11503
2.003 -1.835 1.661 11464
2.027 -1.857 1.668 11918
2.036 -1.864 1.664 11480
2.039 -1.867 1.656 10209
2.047 -1.875 1.651 8996
2.056 -1.883 1.647 7512
2.090 -1.914 1.661 8949
2.067 -1.893 1.634 9568
2.070 -1.896 1.626 12224
2.074 -1.899 1.618 12310
2.082 -1.907 1.613 12475
2.090 -1.914 1.608 10420
2.109 -1.932 1.611 9794
2.112 -1.934 1.602 7614
2.115 -1.937 1.594 5434
2.144 -1.964 1.603 5159
2.158 -1.977 1.601 5490
2.214 -2.027 1.628 6743
2.217 -2.030 1.619 8873
2.194 -2.009 1.593 8475
2.197 -2.012 1.584 8978
2.200 -2.015 1.575 6957
2.240 -2.052 1.590 5340
2.412 -2.209 1.688 6075
2.410 -2.208 1.675 7584
2.413 -2.211 1.666 9852
2.422 -2.218 1.660 12208
2.425 -2.221 1.650 12208
2.428 -2.224 1.640 13075
2.432 -2.227 1.631 13943
2.435 -2.230 1.621 10511
2.438 -2.233 1.611 7078
2.447 -2.241 1.605 6516
2.455 -2.249 1.598 6155
2.458 -2.251 1.588 6155
2.461 -2.254 1.578 3077
0.493 -0.454 1.670 5631
0.499 -0.459 1.675 6457
0.505 -0.465 1.680 7388
0.511 -0.470 1.685 6191
0.519 -0.477 1.697 5871
0.522 -0.481 1.695 5871
0.526 -0.484 1.693 5049
0.529 -0.487 1.691 4227
0.530 -0.487 1.682 6860
0.533 -0.490 1.679 9632
0.536 -0.493 1.677 14245
0.539 -0.496 1.675 18857
0.545 -0.502 1.680 18372
0.549 -0.505 1.678 17712
0.552 -0.508 1.675 16991
0.555 -0.511 1.673 12935
0.556 -0.511 1.664 9549
0.559 -0.514 1.662 7529
0.562 -0.517 1.659 5509
0.568 -0.523 1.664 4307
0.572 -0.526 1.662 3292
0.586 -0.539 1.687 5201
0.589 -0.542 1.685 7359
0.592 -0.545 1.683 9914
0.596 -0.548 1.680 12470
0.599 -0.551 1.678 12610
0.602 -0.554 1.675 12751
0.605 -0.557 1.673 12981
0.609 -0.560 1.670 12773
0.615 -0.566 1.675 11552
0.618 -0.569 1.672 12138
0.621 -0.572 1.670 13533
0.628 -0.577 1.674 16323
0.631 -0.580 1.671 18796
0.634 -0.584 1.669 16065
0.637 -0.587 1.666 13335
0.641 -0.590 1.664 11988
0.644 -0.593 1.661 9723
0.650 -0.598 1.665 9782
0.665 -0.612 1.690 8691
0.678 -0.624 1.707 7915
0.681 -0.627 1.705 6759
0.687 -0.633 1.709 5722
0.682 -0.627 1.686 6523
0.688 -0.633 1.690 8488
0.691 -0.636 1.687 9492
0.695 -0.639 1.684 9007
0.701 -0.645 1.688 7070
0.704 -0.648 1.685 5669
0.701 -0.645 1.669 7359
0.705 -0.648 1.666 12532
0.708 -0.651 1.663 15560
0.711 -0.654 1.660 17586
0.714 -0.657 1.657 17009
0.718 -0.660 1.654 14408
0.721 -0.663 1.652 16308
0.727 -0.669 1.655 20592
0.734 -0.675 1.659 23406
0.744 -0.684 1.669 22100
0.770 -0.708 1.712 19364
0.776 -0.714 1.715 22094
0.780 -0.718 1.712 24848
0.783 -0.721 1.709 22337
0.783 -0.721 1.699 14823
0.783 -0.721 1.689 14482
0.786 -0.724 1.686 17452
0.797 -0.733 1.696 19984
0.800 -0.736 1.693 26413
0.807 -0.742 1.696 31147
0.810 -0.745 1.693 31975
0.813 -0.748 1.689 30708
0.820 -0.755 1.692 24906
0.823 -0.758 1.689 18396
0.827 -0.761 1.686 20180
0.830 -0.764 1.682 26227
0.830 -0.763 1.673 28413
0.833 -0.766 1.669 24537
0.840 -0.773 1.672 20331
0.843 -0.776 1.669 14644
0.846 -0.779 1.666 9222
0.853 -0.785 1.668 14376
0.860 -0.791 1.671 22553
0.870 -0.801 1.680 24667
0.874 -0.804 1.677 25815
0.870 -0.800 1.661 27128
0.877 -0.807 1.663 27646
0.880 -0.810 1.660 30916
0.883 -0.813 1.656 30722
0.890 -0.819 1.659 25676
0.893 -0.822 1.655 15939
0.922 -0.849 1.694 12070
0.922 -0.848 1.685 10620
0.929 -0.855 1.687 10329
0.936 -0.861 1.689 15114
0.936 -0.861 1.679 16550
0.946 -0.871 1.688 20788
0.950 -0.874 1.684 27869
0.949 -0.874 1.674 17482
0.960 -0.884 1.682 8710
0.967 -0.890 1.684 15617
0.974 -0.897 1.686 16182
0.978 -0.900 1.682 12139
0.985 -0.906 1.684 12785
0.992 -0.913 1.686 24687
0.995 -0.916 1.682 31652
1.003 -0.923 1.684 25280
1.014 -0.933 1.692 24863
1.017 -0.936 1.688 19530
1.020 -0.939 1.684 8143
1.035 -0.953 1.697 4875
1.039 -0.956 1.693 6312
1.038 -0.955 1.683 8798
1.041 -0.958 1.679 10276
1.049 -0.965 1.680 8968
1.056 -0.972 1.682 6703
1.071 -0.986 1.695 6231
1.079 -0.993 1.696 5528
1.078 -0.992 1.686 7984
1.081 -0.995 1.682 13253
1.084 -0.998 1.677 15952
1.092 -1.005 1.679 12358
1.103 -1.015 1.685 9522
1.119 -1.030 1.698 12579
1.122 -1.033 1.693 11961
1.134 -1.043 1.700 10884
1.141 -1.050 1.701 18381
1.140 -1.050 1.691 19602
1.148 -1.056 1.692 14427
1.155 -1.063 1.693 15729
1.167 -1.074 1.699 14192
1.175 -1.081 1.700 12939
1.178 -1.084 1.695 12289
1.181 -1.087 1.690 11488
1.159 -1.067 1.653 8372
1.201 -1.105 1.697 9066
1.204 -1.108 1.692 11467
1.216 -1.119 1.698 10670
1.215 -1.118 1.688 9070
1.214 -1.117 1.678 12344
1.226 -1.128 1.683 15185
1.220 -1.123 1.668 10478
1.211 -1.114 1.647 6874
1.205 -1.109 1.632 4458
1.252 -1.152 1.679 5225
1.268 -1.167 1.690 5630
1.272 -1.170 1.685 6077
1.148 -1.056 1.529 8043
1.155 -1.063 1.529 5941
1.167 -1.074 1.535 3663
1.165 -1.072 1.525 4403
1.168 -1.075 1.521 6743
1.167 -1.074 1.511 9322
1.170 -1.076 1.506 8551
1.177 -1.083 1.506 6994
1.176 -1.082 1.497 5912
1.178 -1.084 1.492 3560
1.177 -1.083 1.482 5581
1.180 -1.086 1.477 10586
1.178 -1.084 1.468 11203
1.181 -1.087 1.463 8429
1.184 -1.089 1.458 7043
1.191 -1.096 1.458 6326
1.417 -1.304 1.695 5149
1.425 -1.312 1.694 9111
1.429 -1.315 1.688 10404
1.441 -1.326 1.692 9971
1.454 -1.338 1.696 8650
1.457 -1.341 1.690 6123
1.474 -1.357 1.699 6385
1.482 -1.364 1.698 9184
1.485 -1.367 1.692 9109
1.489 -1.370 1.686 8880
1.497 -1.377 1.685 10662
1.505 -1.385 1.683 9437
1.522 -1.401 1.691 6316
1.525 -1.404 1.685 4201
1.538 -1.415 1.689 5135
1.546 -1.423 1.687 10610
1.554 -1.430 1.685 16479
1.567 -1.442 1.688 24441
1.570 -1.445 1.682 33317
1.573 -1.448 1.676 36517
1.577 -1.451 1.670 32422
1.585 -1.458 1.668 25269
1.588 -1.461 1.661 23978
1.591 -1.464 1.655 25482
1.590 -1.463 1.644 22931
1.598 -1.470 1.642 20637
1.601 -1.473 1.636 20310
1.604 -1.476 1.629 17682
1.612 -1.483 1.627 13948
1.620 -1.491 1.625 13365
1.618 -1.489 1.614 10170
1.685 -1.550 1.664 7315
1.688 -1.553 1.658 11575
1.686 -1.552 1.647 12932
1.744 -1.604 1.687 12553
1.747 -1.608 1.680 13870
1.750 -1.611 1.673 12538
1.753 -1.614 1.666 9890
1.757 -1.617 1.659 11485
1.765 -1.624 1.656 11209
1.783 -1.641 1.662 10021
1.781 -1.639 1.650 11284
1.784 -1.642 1.643 11667
1.783 -1.640 1.632 10708
1.841 -1.694 1.670 8347
1.849 -1.701 1.666 7234
1.852 -1.704 1.659 5388
1.866 -1.717 1.660 5849
1.884 -1.734 1.664 6836
1.897 -1.746 1.665 7725
1.905 -1.753 1.661 6600
1.934 -1.780 1.673 7058
1.962 -1.806 1.685 6107
1.981 -1.823 1.689 5749
2.015 -1.854 1.704 6216
1.988 -1.829 1.673 8158
1.991 -1.832 1.665 10904
2.004 -1.844 1.665 11176
2.023 -1.861 1.668 12705
2.031 -1.869 1.664 12386
2.034 -1.872 1.656 10971
2.038 -1.875 1.648 9556
2.046 -1.883 1.643 7778
2.085 -1.919 1.661 8436
2.063 -1.898 1.634 8763
2.061 -1.896 1.622 10981
2.069 -1.904 1.618 11293
2.077 -1.912 1.613 11975
2.091 -1.924 1.612 10227
2.104 -1.937 1.611 9578
2.113 -1.944 1.606 7423
2.116 -1.947 1.597 5273
2.145 -1.974 1.606 5210
2.153 -1.982 1.601 5397
2.188 -2.013 1.614 6583
2.212 -2.036 1.619 8553
2.189 -2.014 1.593 8431
2.192 -2.017 1.584 9026
2.195 -2.020 1.575 7126
2.203 -2.028 1.570 5174
2.407 -2.215 1.688 6225
2.405 -2.213 1.675 8221
2.408 -2.216 1.666 10247
2.412 -2.219 1.656 12272
2.415 -2.222 1.647 12272
2.418 -2.225 1.637 12852
2.421 -2.228 1.627 13431
2.424 -2.231 1.618 10324
2.422 -2.229 1.605 7313
2.436 -2.242 1.601 6189
2.444 -2.249 1.595 5398
2.447 -2.252 1.585 5398
2.451 -2.255 1.575 2699
0.495 -0.457 1.677 5426
0.498 -0.460 1.675 6321
0.504 -0.466 1.680 7300
0.510 -0.471 1.685 5949
0.518 -0.479 1.697 5192
0.521 -0.482 1.695 5192
0.527 -0.487 1.700 4441
0.530 -0.490 1.698 3746
0.531 -0.491 1.689 6247
0.532 -0.492 1.679 8939
0.535 -0.495 1.677 13263
0.541 -0.500 1.682 17623
0.544 -0.503 1.680 17334
0.548 -0.506 1.678 16732
0.551 -0.509 1.675 15981
0.554 -0.512 1.673 12269
0.555 -0.513 1.664 9204
0.558 -0.516 1.662 7209
0.561 -0.519 1.659 5215
0.567 -0.524 1.664 3983
0.570 -0.527 1.662 2880
0.582 -0.538 1.680 5093
0.585 -0.541 1.678 7561
0.591 -0.546 1.683 10452
0.594 -0.549 1.680 13374
0.598 -0.552 1.678 13598
0.601 -0.555 1.675 13821
0.604 -0.559 1.673 13711
0.607 -0.562 1.670 13119
0.614 -0.567 1.675 11596
0.617 -0.570 1.672 11844
0.620 -0.573 1.670 13231
0.626 -0.579 1.674 16543
0.632 -0.585 1.678 19522
0.633 -0.585 1.669 17083
0.636 -0.588 1.666 14715
0.639 -0.591 1.664 12856
0.640 -0.591 1.654 10010
0.649 -0.600 1.665 10000
0.664 -0.614 1.690 9124
0.679 -0.628 1.714 8551
0.683 -0.631 1.711 7987
0.686 -0.634 1.709 7424
0.680 -0.629 1.686 8026
0.687 -0.635 1.690 9839
0.690 -0.638 1.687 10619
0.693 -0.641 1.684 10102
0.696 -0.644 1.681 7482
0.703 -0.650 1.685 5486
0.700 -0.647 1.669 7095
0.703 -0.650 1.666 12680
0.706 -0.653 1.663 16181
0.710 -0.656 1.660 18217
0.716 -0.662 1.664 17335
0.719 -0.665 1.661 14276
0.723 -0.668 1.658 15845
0.729 -0.674 1.662 20148
0.732 -0.677 1.659 22902
0.742 -0.686 1.669 21485
0.768 -0.710 1.712 20201
0.778 -0.719 1.722 22514
0.778 -0.719 1.712 24122
0.782 -0.722 1.709 20364
0.782 -0.722 1.699 12757
0.782 -0.722 1.689 12385
0.785 -0.725 1.686 14675
0.795 -0.735 1.696 17644
0.798 -0.738 1.693 25644
0.805 -0.744 1.696 31750
0.808 -0.747 1.693 32604
0.811 -0.750 1.689 30960
0.815 -0.753 1.686 24836
0.822 -0.759 1.689 17563
0.825 -0.762 1.686 19239
0.828 -0.766 1.682 25650
0.828 -0.765 1.673 28075
0.831 -0.768 1.669 24522
0.838 -0.775 1.672 20493
0.841 -0.778 1.669 14887
0.844 -0.781 1.666 8593
0.851 -0.787 1.668 12606
0.858 -0.793 1.671 21533
0.869 -0.803 1.680 26033
0.872 -0.806 1.677 27999
0.868 -0.802 1.661 29037
0.875 -0.809 1.663 29447
0.878 -0.812 1.660 31610
0.881 -0.815 1.656 31160
0.888 -0.821 1.659 27350
0.891 -0.824 1.655 16992
0.920 -0.851 1.694 11143
0.924 -0.854 1.691 9554
0.927 -0.857 1.687 10738
0.934 -0.864 1.689 16003
0.934 -0.863 1.679 16569
0.944 -0.873 1.688 19226
0.948 -0.876 1.684 25633
0.947 -0.876 1.674 16677
0.962 -0.889 1.688 8463
0.969 -0.896 1.690 13913
0.972 -0.899 1.686 13683
0.980 -0.905 1.688 10565
0.983 -0.908 1.684 11814
0.990 -0.915 1.686 22004
0.997 -0.922 1.688 28444
1.004 -0.928 1.690 25528
1.012 -0.935 1.692 26949
1.019 -0.942 1.694 19968
1.022 -0.945 1.689 8515
1.033 -0.955 1.697 7566
1.041 -0.962 1.699 8211
1.036 -0.958 1.683 7824
1.043 -0.964 1.684 7910
1.046 -0.967 1.680 6027
1.054 -0.974 1.682 5264
1.069 -0.988 1.695 6432
1.076 -0.995 1.696 5729
1.076 -0.994 1.686 7193
1.075 -0.994 1.676 12374
1.086 -1.004 1.683 16091
1.094 -1.011 1.684 13446
1.105 -1.022 1.691 10696
1.117 -1.032 1.698 14721
1.124 -1.039 1.699 11832
1.136 -1.050 1.706 10280
1.139 -1.053 1.701 17896
1.138 -1.052 1.691 18960
1.146 -1.059 1.692 14195
1.153 -1.066 1.693 16607
1.165 -1.077 1.699 15828
1.172 -1.084 1.700 15627
1.176 -1.087 1.695 14763
1.183 -1.094 1.696 12129
1.195 -1.105 1.702 7017
1.198 -1.108 1.697 10349
1.202 -1.111 1.692 11977
1.213 -1.122 1.698 10611
1.208 -1.117 1.682 9541
1.211 -1.120 1.678 13414
1.223 -1.131 1.683 16781
1.218 -1.126 1.668 11260
1.213 -1.121 1.652 7095
1.246 -1.152 1.684 5454
1.249 -1.155 1.679 5960
1.266 -1.170 1.690 6526
1.269 -1.173 1.685 7648
1.281 -1.184 1.690 6892
1.289 -1.191 1.690 5329
1.292 -1.194 1.685 3819
1.309 -1.210 1.695 4596
1.166 -1.078 1.521 5531
1.164 -1.076 1.511 7674
1.167 -1.079 1.506 7774
1.175 -1.086 1.506 7005
1.173 -1.084 1.497 6513
1.172 -1.083 1.487 4218
1.174 -1.086 1.482 5346
1.177 -1.088 1.477 8834
1.180 -1.091 1.473 8423
1.178 -1.089 1.463 5941
1.186 -1.096 1.463 5450
1.189 -1.099 1.458 5749
1.414 -1.308 1.695 8013
1.422 -1.315 1.694 12730
1.426 -1.318 1.688 13250
1.438 -1.329 1.692 11069
1.446 -1.337 1.691 9201
1.454 -1.344 1.690 5889
1.466 -1.356 1.694 5231
1.479 -1.367 1.698 7034
1.482 -1.370 1.692 7340
1.486 -1.373 1.686 9527
1.494 -1.381 1.685 13500
1.502 -1.388 1.683 11966
1.519 -1.404 1.691 7359
1.527 -1.411 1.690 4359
1.535 -1.419 1.689 4679
1.543 -1.426 1.687 10128
1.551 -1.434 1.685 16675
1.564 -1.445 1.688 24157
1.567 -1.448 1.682 32120
1.570 -1.451 1.676 34978
1.573 -1.454 1.670 30924
1.581 -1.462 1.668 24262
1.585 -1.465 1.661 23533
1.588 -1.468 1.655 24360
1.586 -1.466 1.644 21446
1.594 -1.474 1.642 19535
1.598 -1.477 1.636 19214
1.601 -1.480 1.629 16839
1.609 -1.487 1.627 13042
1.612 -1.490 1.621 12007
1.615 -1.493 1.614 8852
1.681 -1.554 1.664 7518
1.685 -1.557 1.658 11177
1.703 -1.574 1.664 12585
1.740 -1.608 1.687 12529
1.743 -1.611 1.680 13521
1.751 -1.619 1.677 12230
1.755 -1.622 1.670 10085
1.758 -1.625 1.663 11795
1.761 -1.628 1.656 11611
1.779 -1.645 1.662 10342
1.778 -1.643 1.650 11457
1.781 -1.646 1.643 11360
1.779 -1.644 1.632 9979
1.837 -1.698 1.670 10097
1.840 -1.701 1.662 8583
1.848 -1.709 1.659 6149
1.857 -1.716 1.656 6507
1.875 -1.733 1.660 7484
1.888 -1.745 1.661 8330
1.901 -1.758 1.661 6872
1.930 -1.784 1.673 7881
1.953 -1.806 1.681 7191
1.972 -1.823 1.685 6155
2.011 -1.858 1.704 6004
1.983 -1.833 1.673 7873
1.987 -1.836 1.665 10229
2.005 -1.854 1.669 10916
2.019 -1.866 1.668 13092
2.027 -1.874 1.664 12841
2.030 -1.877 1.656 11410
2.033 -1.880 1.648 9980
2.042 -1.887 1.643 8220
2.086 -1.928 1.665 8187
2.053 -1.898 1.630 8199
2.056 -1.901 1.622 9594
2.065 -1.909 1.618 10143
2.073 -1.916 1.613 11366
2.087 -1.929 1.612 10013
2.100 -1.941 1.611 9283
2.108 -1.949 1.606 7174
2.163 -2.000 1.633 5563
2.167 -2.003 1.624 5479
2.170 -2.006 1.615 5395
2.178 -2.013 1.610 6462
2.202 -2.036 1.615 8157
2.184 -2.019 1.593 8181
2.187 -2.022 1.584 8845
2.191 -2.025 1.575 7095
2.194 -2.028 1.566 5246
2.402 -2.220 1.688 6255
2.400 -2.219 1.675 8578
2.403 -2.222 1.666 10320
2.407 -2.225 1.656 12062
2.410 -2.228 1.647 12062
2.413 -2.231 1.637 12382
2.416 -2.233 1.627 12703
2.419 -2.236 1.618 9987
2.417 -2.234 1.605 7423
2.426 -2.242 1.598 5996
2.434 -2.250 1.592 4787
2.437 -2.253 1.582 4787
2.440 -2.256 1.572 2393
0.493 -0.459 1.677 5292
0.499 -0.464 1.682 6156
0.502 -0.467 1.680 7148
0.508 -0.473 1.685 5747
0.516 -0.480 1.697 4715
0.520 -0.483 1.695 4715
0.525 -0.489 1.700 4354
0.531 -0.494 1.705 4167
0.532 -0.495 1.696 6270
0.533 -0.496 1.686 8632
0.536 -0.499 1.684 12551
0.539 -0.502 1.682 16470
0.543 -0.505 1.680 16277
0.546 -0.508 1.678 15662
0.549 -0.511 1.675 14833
0.552 -0.514 1.673 11566
0.553 -0.514 1.664 8924
0.556 -0.517 1.662 6908
0.560 -0.520 1.659 4892
0.565 -0.526 1.664 3702
0.569 -0.529 1.662 2591
0.580 -0.540 1.680 5223
0.583 -0.543 1.678 8131
0.589 -0.548 1.683 11178
0.593 -0.551 1.680 14410
0.596 -0.554 1.678 14625
0.599 -0.557 1.675 14841
0.602 -0.560 1.673 14398
0.606 -0.563 1.670 13433
0.612 -0.569 1.675 11615
0.615 -0.572 1.672 11555
0.618 -0.575 1.670 12960
0.624 -0.581 1.674 16767
0.631 -0.587 1.678 20301
0.631 -0.587 1.669 18019
0.634 -0.590 1.666 15958
0.637 -0.593 1.664 13560
0.638 -0.593 1.654 10168
0.650 -0.604 1.672 10161
0.665 -0.619 1.697 9615
0.677 -0.630 1.714 9313
0.681 -0.633 1.711 9158
0.681 -0.633 1.702 9060
0.681 -0.634 1.692 9575
0.685 -0.637 1.690 11107
0.688 -0.640 1.687 11732
0.691 -0.643 1.684 11200
0.694 -0.646 1.681 8172
0.701 -0.652 1.685 5748
0.698 -0.649 1.669 7281
0.701 -0.652 1.666 13082
0.707 -0.658 1.670 16984
0.711 -0.661 1.667 18912
0.714 -0.664 1.664 17439
0.717 -0.667 1.661 14039
0.720 -0.670 1.658 15427
0.727 -0.676 1.662 19503
0.730 -0.679 1.659 21981
0.740 -0.688 1.669 20471
0.766 -0.712 1.712 20856
0.773 -0.719 1.715 22984
0.776 -0.722 1.712 23585
0.779 -0.725 1.709 18711
0.776 -0.722 1.693 11448
0.779 -0.725 1.689 10839
0.783 -0.728 1.686 12414
0.789 -0.734 1.690 15903
0.796 -0.740 1.693 24907
0.799 -0.743 1.690 31819
0.806 -0.750 1.693 32498
0.809 -0.753 1.689 30585
0.812 -0.756 1.686 24322
0.819 -0.762 1.689 16354
0.822 -0.765 1.686 17790
0.826 -0.768 1.682 24330
0.826 -0.768 1.673 26932
0.829 -0.771 1.669 23795
0.836 -0.777 1.672 20030
0.839 -0.780 1.669 14673
0.842 -0.783 1.666 7716
0.849 -0.790 1.668 10628
0.859 -0.799 1.677 20579
0.866 -0.806 1.680 27133
0.869 -0.809 1.677 29676
0.865 -0.805 1.661 30363
0.872 -0.811 1.663 30399
0.875 -0.814 1.660 30976
0.879 -0.817 1.656 30010
0.886 -0.824 1.659 27609
0.892 -0.830 1.661 17602
0.918 -0.854 1.694 10093
0.921 -0.857 1.691 8783
0.928 -0.863 1.693 11033
0.931 -0.866 1.689 16376
0.931 -0.866 1.679 16272
0.942 -0.876 1.688 17667
0.945 -0.879 1.684 23199
0.945 -0.879 1.674 15572
0.959 -0.892 1.688 7875
0.966 -0.899 1.690 11704
0.970 -0.902 1.686 11470
0.981 -0.912 1.694 9903
0.984 -0.915 1.690 11063
0.987 -0.918 1.686 19112
0.994 -0.925 1.688 24875
1.001 -0.932 1.690 25192
1.009 -0.938 1.692 27879
1.016 -0.945 1.694 20104
1.019 -0.948 1.689 10184
1.030 -0.958 1.697 10950
1.037 -0.965 1.699 10222
1.041 -0.968 1.694 7214
1.044 -0.971 1.690 5700
1.051 -0.978 1.692 6368
1.051 -0.977 1.682 8246
1.066 -0.992 1.695 8533
1.073 -0.998 1.696 7884
1.073 -0.998 1.686 7753
1.076 -1.001 1.682 11528
1.083 -1.008 1.683 15986
1.095 -1.018 1.690 14164
1.110 -1.033 1.702 12426
1.113 -1.036 1.698 16460
1.117 -1.039 1.693 11689
1.132 -1.053 1.706 9183
1.136 -1.056 1.701 16400
1.135 -1.056 1.691 17369
1.138 -1.059 1.686 14888
1.150 -1.069 1.693 16610
1.161 -1.080 1.699 16755
1.169 -1.087 1.700 18338
1.172 -1.090 1.695 16771
1.184 -1.101 1.701 12241
1.196 -1.112 1.707 6875
1.195 -1.111 1.697 11102
1.198 -1.114 1.692 11640
1.210 -1.125 1.698 9448
1.205 -1.121 1.682 9420
1.208 -1.124 1.678 14738
1.220 -1.135 1.683 18662
1.219 -1.134 1.673 12324
1.213 -1.129 1.658 7412
1.242 -1.156 1.684 6720
1.246 -1.159 1.679 6880
1.262 -1.174 1.690 7600
1.270 -1.181 1.690 9497
1.273 -1.184 1.685 8480
1.285 -1.195 1.690 6312
1.288 -1.198 1.685 4516
1.309 -1.218 1.701 5399
1.313 -1.221 1.695 6785
1.161 -1.080 1.511 6036
1.168 -1.087 1.511 7055
1.171 -1.090 1.506 6845
1.170 -1.088 1.497 6645
1.168 -1.087 1.487 4703
1.171 -1.089 1.482 5466
1.174 -1.092 1.477 7539
1.177 -1.095 1.473 6109
1.180 -1.097 1.468 4229
1.182 -1.100 1.463 4770
1.185 -1.102 1.458 5748
1.410 -1.312 1.695 11479
1.418 -1.319 1.694 16659
1.422 -1.322 1.688 16097
1.429 -1.330 1.687 12173
1.442 -1.341 1.691 9771
1.445 -1.344 1.685 5852
1.462 -1.360 1.694 4151
1.475 -1.372 1.698 4730
1.469 -1.366 1.682 5483
1.486 -1.382 1.691 10271
1.489 -1.385 1.685 16408
1.497 -1.393 1.683 14489
1.510 -1.404 1.687 8282
1.522 -1.416 1.690 4452
1.530 -1.424 1.689 4142
1.538 -1.431 1.687 9301
1.546 -1.438 1.685 16181
1.559 -1.450 1.688 23247
1.562 -1.453 1.682 30224
1.566 -1.456 1.676 32694
1.574 -1.464 1.674 28812
1.577 -1.467 1.668 22781
1.585 -1.474 1.666 22772
1.583 -1.473 1.655 22902
1.582 -1.471 1.644 19509
1.590 -1.479 1.642 17883
1.593 -1.482 1.636 17508
1.596 -1.485 1.629 15432
1.604 -1.492 1.627 11917
1.612 -1.500 1.625 10656
1.610 -1.498 1.614 7448
1.677 -1.560 1.664 7845
1.685 -1.567 1.662 10998
1.698 -1.579 1.664 12711
1.730 -1.609 1.683 11890
1.738 -1.617 1.680 12439
1.746 -1.624 1.677 11691
1.750 -1.628 1.670 10450
1.753 -1.631 1.663 12215
1.756 -1.634 1.656 11829
1.774 -1.650 1.662 10351
1.777 -1.653 1.654 11353
1.776 -1.652 1.643 10892
1.833 -1.705 1.681 10603
1.832 -1.704 1.670 11723
1.835 -1.707 1.662 9883
1.843 -1.714 1.659 6898
1.851 -1.722 1.656 7240
1.869 -1.739 1.660 8073
1.878 -1.747 1.657 8832
1.916 -1.782 1.677 7273
1.929 -1.795 1.677 8826
1.948 -1.812 1.681 8392
1.961 -1.824 1.681 6760
1.974 -1.837 1.681 5730
1.978 -1.840 1.673 7632
1.981 -1.843 1.665 9534
1.999 -1.860 1.669 10663
2.013 -1.872 1.668 13137
2.021 -1.880 1.664 12874
2.024 -1.883 1.656 11543
2.028 -1.886 1.648 10213
2.036 -1.894 1.643 8612
2.080 -1.935 1.665 7771
2.042 -1.900 1.627 7706
2.045 -1.903 1.619 8334
2.054 -1.910 1.614 8982
2.072 -1.928 1.617 10826
2.081 -1.935 1.612 9649
2.094 -1.948 1.611 8774
2.113 -1.965 1.613 6737
2.157 -2.007 1.633 6196
2.160 -2.010 1.624 5809
2.164 -2.013 1.615 5423
2.172 -2.020 1.610 6262
2.196 -2.043 1.615 7567
2.178 -2.026 1.593 7763
2.176 -2.024 1.581 8477
2.184 -2.032 1.575 6903
2.187 -2.035 1.566 5219
2.390 -2.223 1.685 6178
2.393 -2.226 1.675 8591
2.396 -2.229 1.666 10077
2.400 -2.232 1.656 11563
2.403 -2.235 1.647 11563
2.406 -2.238 1.637 11690
2.409 -2.241 1.627 11817
2.412 -2.244 1.618 9506
2.410 -2.242 1.605 7300
2.413 -2.245 1.595 5703
2.422 -2.253 1.589 4166
2.425 -2.255 1.579 4166
2.428 -2.258 1.569 2083
0.493 -0.460 1.677 5322
0.499 -0.465 1.682 6135
0.502 -0.468 1.680 6977
0.508 -0.473 1.685 5576
0.513 -0.479 1.690 4412
0.517 -0.482 1.688 4412
0.525 -0.489 1.700 4718
0.528 -0.492 1.698 5197
0.531 -0.496 1.696 6941
0.535 -0.499 1.694 8684
0.535 -0.499 1.684 11907
0.539 -0.502 1.682 15246
0.542 -0.505 1.680 15150
0.545 -0.509 1.678 14529
0.549 -0.512 1.675 13635
0.552 -0.515 1.673 10835
0.552 -0.515 1.664 8624
0.556 -0.518 1.662 6586
0.559 -0.521 1.659 4548
0.565 -0.527 1.664 3607
0.568 -0.530 1.662 2679
0.577 -0.538 1.673 5697
0.580 -0.541 1.671 8923
0.589 -0.549 1.683 12020
0.592 -0.552 1.680 15474
0.595 -0.555 1.678 15647
0.598 -0.558 1.675 15819
0.602 -0.561 1.673 15033
0.605 -0.564 1.670 13690
0.611 -0.570 1.675 11613
0.614 -0.573 1.672 11231
0.618 -0.576 1.670 12626
0.627 -0.584 1.681 16918
0.630 -0.587 1.678 20748
0.633 -0.590 1.676 18616
0.633 -0.591 1.666 16756
0.637 -0.594 1.664 14028
0.637 -0.594 1.654 10340
0.649 -0.605 1.672 10473
0.664 -0.619 1.697 10277
0.677 -0.631 1.714 10205
0.680 -0.634 1.711 10437
0.680 -0.634 1.702 10848
0.680 -0.635 1.692 11202
0.684 -0.638 1.690 12352
0.687 -0.641 1.687 12809
0.690 -0.644 1.684 12300
0.694 -0.647 1.681 9124
0.700 -0.653 1.685 6498
0.697 -0.650 1.669 7879
0.700 -0.653 1.666 13614
0.707 -0.659 1.670 17859
0.710 -0.662 1.667 19437
0.713 -0.665 1.664 17344
0.716 -0.668 1.661 13672
0.720 -0.671 1.658 14880
0.726 -0.677 1.662 18639
0.729 -0.680 1.659 20834
0.739 -0.689 1.669 19314
0.765 -0.713 1.712 22087
0.772 -0.720 1.715 24301
0.775 -0.723 1.712 23959
0.778 -0.726 1.709 18147
0.772 -0.720 1.686 12076
0.778 -0.726 1.689 11146
0.782 -0.729 1.686 11876
0.788 -0.735 1.690 15356
0.795 -0.741 1.693 24346
0.798 -0.744 1.690 31728
0.805 -0.751 1.693 31867
0.808 -0.754 1.689 29750
0.812 -0.757 1.686 23472
0.818 -0.763 1.689 14827
0.822 -0.766 1.686 15866
0.825 -0.769 1.682 22471
0.825 -0.769 1.673 25416
0.828 -0.772 1.669 22919
0.835 -0.778 1.672 19582
0.838 -0.781 1.669 14649
0.841 -0.784 1.666 6979
0.848 -0.791 1.668 8499
0.858 -0.800 1.677 19428
0.865 -0.807 1.680 27819
0.868 -0.810 1.677 30957
0.864 -0.806 1.661 31463
0.871 -0.812 1.663 31002
0.874 -0.815 1.660 29527
0.878 -0.818 1.656 27545
0.885 -0.825 1.659 26525
0.891 -0.831 1.661 17711
0.913 -0.851 1.688 8952
0.924 -0.861 1.697 8018
0.927 -0.865 1.693 11119
0.930 -0.868 1.689 16332
0.930 -0.867 1.679 15747
0.941 -0.877 1.688 15965
0.944 -0.880 1.684 20368
0.947 -0.883 1.680 13957
0.958 -0.893 1.688 7149
0.965 -0.900 1.690 9125
0.968 -0.903 1.686 9683
0.979 -0.913 1.694 10553
0.983 -0.916 1.690 11204
0.986 -0.919 1.686 16759
0.993 -0.926 1.688 21587
1.004 -0.936 1.696 24827
1.011 -0.943 1.698 27764
1.015 -0.946 1.694 20043
1.018 -0.949 1.689 12326
1.025 -0.956 1.691 13921
1.036 -0.966 1.699 11471
1.040 -0.969 1.694 6857
1.051 -0.980 1.702 5481
1.054 -0.983 1.697 8646
1.049 -0.979 1.682 11171
1.065 -0.993 1.695 11030
1.072 -1.000 1.696 11051
1.075 -1.003 1.692 9549
1.083 -1.010 1.693 11282
1.086 -1.013 1.689 15830
1.093 -1.020 1.690 14963
