1.973 -0.405 1.492 18727
1.977 -0.406 1.486 16559
1.981 -0.407 1.480 13830
1.991 -0.409 1.479 10950
2.021 -0.415 1.490 11948
2.031 -0.417 1.488 13932
2.035 -0.418 1.482 14097
2.039 -0.419 1.476 11334
2.043 -0.419 1.470 7399
2.040 -0.419 1.459 6455
2.050 -0.421 1.457 8061
2.067 -0.424 1.459 8945
2.078 -0.427 1.457 8125
2.081 -0.427 1.451 8137
2.079 -0.427 1.441 9222
2.076 -0.426 1.430 10171
2.146 -0.441 1.465 10964
2.150 -0.441 1.458 11888
2.153 -0.442 1.452 9558
2.157 -0.443 1.445 8469
2.188 -0.449 1.455 7208
2.205 -0.453 1.456 9053
2.208 -0.453 1.449 11687
2.212 -0.454 1.443 14321
2.216 -0.455 1.436 13566
2.226 -0.457 1.433 10963
2.250 -0.462 1.438 9765
2.268 -0.466 1.439 8456
2.285 -0.469 1.440 8144
2.302 -0.473 1.440 8024
2.313 -0.475 1.437 8640
2.323 -0.477 1.434 7736
2.327 -0.478 1.427 6854
2.330 -0.478 1.420 7059
2.334 -0.479 1.413 6679
2.310 -0.474 1.391 6297
2.355 -0.484 1.406 6799
2.366 -0.486 1.403 8065
2.369 -0.486 1.396 6497
2.373 -0.487 1.388 4928
2.466 -0.506 1.428 4929
2.470 -0.507 1.420 5414
2.474 -0.508 1.413 4219
2.561 -0.526 1.447 6239
2.557 -0.525 1.436 6877
2.554 -0.524 1.425 7734
2.551 -0.524 1.414 7291
2.547 -0.523 1.403 6960
2.600 -0.534 1.419 6729
2.611 -0.536 1.415 7698
2.614 -0.537 1.407 7698
2.611 -0.536 1.395 7272
2.600 -0.534 1.381 7623
2.604 -0.535 1.373 7555
2.607 -0.535 1.365 7488
2.618 -0.537 1.361 5768
2.671 -0.548 1.376 4760
2.688 -0.552 1.374 5095
2.713 -0.557 1.375 5881
2.710 -0.556 1.364 5955
2.720 -0.558 1.359 6097
2.816 -0.578 1.391 6515
2.820 -0.579 1.383 3257
1.430 -0.294 0.774 639
0.628 -0.131 1.605 43873
0.632 -0.132 1.603 44992
0.636 -0.133 1.601 46111
0.640 -0.133 1.599 41585
0.644 -0.134 1.597 37059
0.648 -0.135 1.595 31855
0.649 -0.135 1.586 25763
0.653 -0.136 1.584 25763
0.657 -0.137 1.582 23906
0.665 -0.139 1.587 22617
0.672 -0.140 1.592 19230
0.680 -0.142 1.597 16722
0.684 -0.143 1.595 13840
0.692 -0.144 1.600 11496
0.696 -0.145 1.598 10541
0.697 -0.145 1.588 9589
0.704 -0.147 1.593 11342
0.712 -0.148 1.598 13925
0.716 -0.149 1.596 14501
0.720 -0.150 1.594 14427
0.724 -0.151 1.592 14091
0.728 -0.152 1.589 14172
0.736 -0.153 1.594 14376
0.737 -0.153 1.585 14023
0.741 -0.154 1.583 14224
0.752 -0.157 1.594 16341
0.760 -0.158 1.599 16735
0.768 -0.160 1.603 15746
0.776 -0.162 1.608 15345
0.784 -0.163 1.613 14546
0.788 -0.164 1.610 18075
0.792 -0.165 1.608 21604
0.796 -0.166 1.605 24652
0.804 -0.168 1.610 28186
0.805 -0.168 1.600 28007
0.809 -0.169 1.598 25686
0.813 -0.169 1.595 21109
0.821 -0.171 1.600 15423
0.829 -0.173 1.604 12308
0.833 -0.174 1.602 9188
0.841 -0.175 1.606 6424
0.850 -0.177 1.610 10055
0.850 -0.177 1.601 14309
0.850 -0.177 1.591 15224
0.850 -0.177 1.582 12776
0.850 -0.177 1.573 11901
0.850 -0.177 1.563 13221
0.858 -0.179 1.567 15433
0.866 -0.180 1.571 16355
0.870 -0.181 1.569 14076
0.879 -0.183 1.573 11340
0.891 -0.186 1.583 10073
0.899 -0.187 1.587 12845
0.912 -0.190 1.598 15004
0.925 -0.193 1.608 14463
0.929 -0.194 1.605 11232
0.946 -0.197 1.622 8282
0.955 -0.199 1.626 11888
0.950 -0.198 1.610 15553
0.963 -0.201 1.620 15662
0.967 -0.201 1.617 19434
0.971 -0.202 1.614 21255
0.976 -0.203 1.611 20327
0.984 -0.205 1.615 15390
0.984 -0.205 1.605 7319
0.984 -0.205 1.596 4410
0.997 -0.208 1.606 4014
1.005 -0.209 1.609 6340
1.010 -0.210 1.606 10616
1.023 -0.213 1.616 12249
1.032 -0.215 1.619 9238
1.027 -0.214 1.603 7464
1.035 -0.216 1.606 12019
1.044 -0.218 1.610 24881
1.053 -0.219 1.613 37312
1.057 -0.220 1.610 34027
1.061 -0.221 1.606 22187
1.065 -0.222 1.603 13893
1.065 -0.222 1.594 9921
1.079 -0.225 1.603 7849
1.087 -0.227 1.606 9383
1.092 -0.227 1.603 9352
1.091 -0.227 1.593 8213
1.085 -0.226 1.577 7313
1.090 -0.227 1.574 9361
1.098 -0.229 1.577 12270
1.107 -0.231 1.580 15937
1.116 -0.233 1.582 18312
1.125 -0.234 1.585 16102
1.134 -0.236 1.588 16759
1.143 -0.238 1.591 24419
1.147 -0.239 1.587 30111
1.152 -0.240 1.584 21838
1.161 -0.242 1.586 10397
1.175 -0.245 1.595 9660
1.179 -0.246 1.591 12573
1.183 -0.246 1.588 12984
1.182 -0.246 1.578 14104
1.191 -0.248 1.580 18455
1.200 -0.250 1.583 23865
1.205 -0.251 1.579 23333
1.214 -0.253 1.581 20806
1.223 -0.255 1.584 16695
1.232 -0.257 1.586 11770
1.231 -0.256 1.576 17766
1.235 -0.257 1.572 32887
1.244 -0.259 1.575 35524
1.249 -0.260 1.571 29763
1.247 -0.260 1.561 37239
1.251 -0.261 1.557 36942
1.266 -0.264 1.565 24191
1.270 -0.265 1.561 18413
1.269 -0.264 1.552 18324
1.273 -0.265 1.548 14070
1.282 -0.267 1.550 11429
1.297 -0.270 1.557 8927
1.306 -0.272 1.559 6644
1.310 -0.273 1.555 6874
1.314 -0.274 1.551 13811
1.324 -0.276 1.553 24934
1.328 -0.277 1.549 31189
1.337 -0.279 1.550 33075
1.341 -0.279 1.546 34258
1.351 -0.281 1.548 27120
1.360 -0.283 1.549 16576
1.375 -0.286 1.556 17043
1.385 -0.288 1.558 23699
1.389 -0.289 1.553 39441
1.393 -0.290 1.549 54778
1.397 -0.291 1.545 50618
1.401 -0.292 1.541 34942
1.399 -0.291 1.531 19205
1.409 -0.293 1.532 9630
1.424 -0.297 1.539 11541
1.428 -0.297 1.535 15391
1.432 -0.298 1.530 17087
1.436 -0.299 1.526 18894
1.457 -0.303 1.538 17697
1.461 -0.304 1.533 14649
1.459 -0.304 1.524 20572
1.463 -0.305 1.519 23817
1.472 -0.307 1.520 13846
1.482 -0.309 1.521 9928
1.486 -0.310 1.516 16097
1.490 -0.310 1.512 20569
1.500 -0.312 1.513 21118
1.509 -0.314 1.513 21004
1.513 -0.315 1.509 18379
1.523 -0.317 1.509 21182
1.527 -0.318 1.505 20431
1.537 -0.320 1.505 13096
1.564 -0.326 1.521 17905
1.568 -0.327 1.516 20583
1.572 -0.328 1.511 18632
1.582 -0.330 1.512 18276
1.592 -0.332 1.512 12966
1.602 -0.334 1.512 12570
1.600 -0.333 1.502 11937
1.609 -0.335 1.503 7599
1.643 -0.342 1.523 10913
1.647 -0.343 1.518 14670
1.651 -0.344 1.513 13171
1.667 -0.347 1.518 15780
1.677 -0.349 1.517 27419
1.687 -0.352 1.517 31155
1.691 -0.352 1.512 19925
1.713 -0.357 1.522 9182
1.723 -0.359 1.521 7272
1.727 -0.360 1.516 7327
1.737 -0.362 1.516 6343
1.741 -0.363 1.510 10442
1.751 -0.365 1.510 17258
1.749 -0.364 1.500 18962
1.753 -0.365 1.494 18824
1.763 -0.367 1.494 18536
1.773 -0.369 1.493 13766
1.777 -0.370 1.488 9822
1.793 -0.374 1.492 7696
1.803 -0.376 1.491 7988
1.814 -0.378 1.490 10161
1.849 -0.385 1.508 13495
1.866 -0.389 1.511 17120
1.869 -0.389 1.506 19552
1.873 -0.390 1.500 19376
1.884 -0.392 1.499 15156
1.919 -0.400 1.516 13947
1.917 -0.399 1.505 13620
1.914 -0.399 1.495 10636
1.944 -0.405 1.507 9933
1.954 -0.407 1.506 15227
1.964 -0.409 1.504 17505
1.968 -0.410 1.498 19489
1.972 -0.411 1.492 21084
1.976 -0.412 1.486 16999
1.980 -0.412 1.480 13303
1.997 -0.416 1.483 11971
2.013 -0.419 1.486 13934
2.030 -0.423 1.488 14290
2.041 -0.425 1.486 13311
2.044 -0.426 1.480 10567
2.042 -0.425 1.470 7904
2.039 -0.425 1.459 8448
2.049 -0.427 1.457 9661
2.059 -0.429 1.455 9333
2.076 -0.433 1.457 7858
2.080 -0.433 1.451 8096
2.071 -0.431 1.437 8892
2.074 -0.432 1.430 9555
2.145 -0.447 1.465 12389
2.148 -0.448 1.458 12824
2.159 -0.450 1.456 10353
2.162 -0.451 1.449 8903
2.193 -0.457 1.459 7598
2.203 -0.459 1.456 9576
2.207 -0.460 1.449 12301
2.211 -0.461 1.443 15026
2.215 -0.461 1.436 13941
2.225 -0.464 1.433 10768
2.249 -0.469 1.438 9124
2.266 -0.472 1.439 7899
2.283 -0.476 1.440 7745
2.301 -0.479 1.440 7906
2.318 -0.483 1.441 8892
2.322 -0.484 1.434 8308
2.325 -0.484 1.427 7724
2.329 -0.485 1.420 7747
2.333 -0.486 1.413 6931
2.336 -0.487 1.406 6093
2.354 -0.490 1.406 6779
2.364 -0.493 1.403 7960
2.368 -0.493 1.396 6525
2.433 -0.507 1.421 5274
2.458 -0.512 1.424 5508
2.461 -0.513 1.417 5940
2.465 -0.514 1.409 4833
2.559 -0.533 1.447 5681
2.556 -0.532 1.436 6277
2.546 -0.530 1.422 7115
2.549 -0.531 1.414 6954
2.553 -0.532 1.406 6822
2.598 -0.541 1.419 6995
2.609 -0.544 1.415 8101
2.613 -0.544 1.407 8101
2.609 -0.544 1.395 6866
2.599 -0.541 1.381 6752
2.602 -0.542 1.373 6430
2.606 -0.543 1.365 6108
2.616 -0.545 1.361 4675
2.683 -0.559 1.382 4439
2.694 -0.561 1.377 4893
2.712 -0.565 1.375 5646
2.708 -0.564 1.364 5743
2.719 -0.566 1.359 6050
2.722 -0.567 1.351 6382
2.725 -0.568 1.343 3191
1.429 -0.298 0.774 715
0.627 -0.132 1.605 46084
0.632 -0.133 1.603 47335
0.636 -0.133 1.601 48586
0.640 -0.134 1.599 43953
0.644 -0.135 1.597 39320
0.648 -0.136 1.595 33459
0.649 -0.136 1.586 26511
0.653 -0.137 1.584 26511
0.657 -0.138 1.582 24567
0.665 -0.140 1.587 23212
0.672 -0.141 1.592 19814
0.680 -0.143 1.597 17247
0.684 -0.144 1.595 14141
0.692 -0.145 1.600 11501
0.696 -0.146 1.598 10737
0.696 -0.146 1.588 9953
0.704 -0.148 1.593 11673
0.712 -0.149 1.598 14200
0.716 -0.150 1.596 14588
0.720 -0.151 1.594 14251
0.724 -0.152 1.592 13916
0.728 -0.153 1.589 13815
0.732 -0.154 1.587 13899
0.736 -0.155 1.585 14331
0.740 -0.155 1.583 15087
0.752 -0.158 1.594 17202
0.760 -0.160 1.599 17024
0.768 -0.161 1.603 15544
0.776 -0.163 1.608 14776
0.784 -0.165 1.613 13607
0.788 -0.165 1.610 17360
0.792 -0.166 1.608 21112
0.796 -0.167 1.605 23934
0.804 -0.169 1.610 27258
0.804 -0.169 1.600 27060
0.809 -0.170 1.598 24798
0.813 -0.171 1.595 20564
0.821 -0.172 1.600 15048
0.829 -0.174 1.604 12009
0.837 -0.176 1.608 9125
0.845 -0.177 1.613 6454
0.849 -0.178 1.610 10334
0.850 -0.178 1.601 14624
0.850 -0.178 1.591 15523
0.850 -0.178 1.582 13205
0.850 -0.178 1.573 12475
0.854 -0.179 1.570 13998
0.858 -0.180 1.567 16021
0.866 -0.182 1.571 16442
0.870 -0.183 1.569 13899
0.878 -0.184 1.573 11239
0.891 -0.187 1.583 10011
0.899 -0.189 1.587 12742
0.912 -0.191 1.598 15159
0.924 -0.194 1.608 15078
0.933 -0.196 1.612 11818
0.946 -0.199 1.622 8853
0.950 -0.199 1.619 12459
0.950 -0.199 1.610 16767
0.958 -0.201 1.614 16200
0.967 -0.203 1.617 20002
0.971 -0.204 1.614 22562
0.975 -0.205 1.611 22023
0.984 -0.207 1.615 17195
0.984 -0.207 1.605 8926
0.983 -0.206 1.596 6224
0.987 -0.207 1.593 6030
1.001 -0.210 1.603 7981
1.009 -0.212 1.606 11406
1.022 -0.215 1.616 11571
1.036 -0.217 1.625 7924
1.026 -0.215 1.603 6029
1.035 -0.217 1.606 10420
1.044 -0.219 1.610 23675
1.053 -0.221 1.613 36989
1.057 -0.222 1.610 33703
1.061 -0.223 1.606 20769
1.065 -0.224 1.603 11935
1.065 -0.224 1.594 8522
1.083 -0.227 1.609 7812
1.087 -0.228 1.606 9732
1.091 -0.229 1.603 9563
1.091 -0.229 1.593 7656
1.090 -0.229 1.583 6057
1.089 -0.229 1.574 7775
1.098 -0.231 1.577 11110
1.107 -0.232 1.580 15081
1.116 -0.234 1.582 17297
1.125 -0.236 1.585 14953
1.134 -0.238 1.588 14959
1.143 -0.240 1.591 22034
1.147 -0.241 1.587 27607
1.151 -0.242 1.584 19981
1.165 -0.245 1.592 8983
1.174 -0.247 1.595 8201
1.179 -0.247 1.591 10896
1.183 -0.248 1.588 11207
1.182 -0.248 1.578 12982
1.191 -0.250 1.580 18068
1.200 -0.252 1.583 23501
1.204 -0.253 1.579 22385
1.213 -0.255 1.581 18306
1.223 -0.257 1.584 13846
1.221 -0.256 1.574 10887
1.226 -0.257 1.570 18395
1.235 -0.259 1.572 33959
1.244 -0.261 1.575 35717
1.243 -0.261 1.565 28074
1.247 -0.262 1.561 34977
1.251 -0.263 1.557 35758
1.266 -0.266 1.565 23206
1.270 -0.267 1.561 18569
1.274 -0.267 1.557 18744
1.272 -0.267 1.548 14993
1.282 -0.269 1.550 12556
1.291 -0.271 1.552 8029
1.306 -0.274 1.559 4822
1.304 -0.274 1.549 5781
1.314 -0.276 1.551 14403
1.323 -0.278 1.553 25668
1.333 -0.280 1.554 29879
1.337 -0.281 1.550 29204
1.341 -0.281 1.546 29930
1.350 -0.283 1.548 24721
1.360 -0.285 1.549 14830
1.375 -0.289 1.556 15634
1.384 -0.291 1.558 22504
1.388 -0.291 1.553 39338
1.392 -0.292 1.549 55601
1.396 -0.293 1.545 52422
1.400 -0.294 1.541 37705
1.399 -0.294 1.531 21552
1.408 -0.296 1.532 11333
1.423 -0.299 1.539 11699
1.427 -0.300 1.535 14914
1.431 -0.300 1.530 19046
1.435 -0.301 1.526 21305
1.456 -0.306 1.538 19575
1.460 -0.307 1.533 16871
1.464 -0.307 1.529 20254
1.468 -0.308 1.524 21597
1.472 -0.309 1.520 11766
1.482 -0.311 1.521 8681
1.486 -0.312 1.516 15252
1.490 -0.313 1.512 19877
1.499 -0.315 1.513 21458
1.509 -0.317 1.513 22558
1.513 -0.318 1.509 21497
1.523 -0.320 1.509 25685
1.526 -0.320 1.505 26221
1.536 -0.323 1.505 17728
1.558 -0.327 1.516 18150
1.568 -0.329 1.516 19969
1.572 -0.330 1.511 18632
1.575 -0.331 1.507 17379
1.597 -0.335 1.517 10715
1.601 -0.336 1.512 12055
1.605 -0.337 1.507 12485
1.615 -0.339 1.508 9786
1.637 -0.344 1.518 12264
1.647 -0.346 1.518 16828
1.651 -0.347 1.513 15809
1.667 -0.350 1.518 15911
1.683 -0.353 1.522 28283
1.687 -0.354 1.517 34014
1.691 -0.355 1.512 23510
1.701 -0.357 1.512 12265
1.711 -0.359 1.512 9776
1.721 -0.361 1.511 9414
1.731 -0.363 1.511 6944
1.741 -0.365 1.510 9453
1.751 -0.368 1.510 16145
1.749 -0.367 1.500 17718
1.752 -0.368 1.494 18237
1.769 -0.371 1.499 19149
1.773 -0.372 1.493 14907
1.776 -0.373 1.488 10625
1.793 -0.376 1.492 8478
1.803 -0.379 1.491 9054
1.813 -0.381 1.490 11490
1.848 -0.388 1.508 14758
1.859 -0.390 1.507 17802
1.869 -0.392 1.506 18865
1.873 -0.393 1.500 18982
1.883 -0.395 1.499 15702
1.912 -0.401 1.511 13838
1.916 -0.402 1.505 13522
1.914 -0.402 1.495 11192
1.943 -0.408 1.507 10040
1.953 -0.410 1.506 16160
1.957 -0.411 1.500 19169
1.968 -0.413 1.498 21586
1.971 -0.414 1.492 22802
1.975 -0.415 1.486 17099
1.979 -0.416 1.480 12649
1.989 -0.418 1.479 12736
2.006 -0.421 1.481 15073
2.023 -0.425 1.484 13899
2.040 -0.428 1.486 11898
2.050 -0.430 1.484 9991
2.048 -0.430 1.474 8925
2.045 -0.429 1.463 10431
2.048 -0.430 1.457 11085
2.059 -0.432 1.455 9685
2.069 -0.434 1.453 7600
2.080 -0.437 1.451 7956
2.136 -0.449 1.478 8666
2.140 -0.449 1.471 10645
2.144 -0.450 1.465 13321
2.148 -0.451 1.458 13315
2.158 -0.453 1.456 10842
2.162 -0.454 1.449 9126
2.192 -0.460 1.459 7663
2.209 -0.464 1.460 9575
2.206 -0.463 1.449 12224
2.210 -0.464 1.443 14950
2.214 -0.465 1.436 13722
2.224 -0.467 1.433 10273
2.248 -0.472 1.438 8354
2.259 -0.474 1.435 7176
2.283 -0.479 1.440 7098
2.300 -0.483 1.440 7606
2.317 -0.487 1.441 8890
2.321 -0.487 1.434 8535
2.325 -0.488 1.427 8179
2.328 -0.489 1.420 8148
2.332 -0.490 1.413 7012
2.336 -0.490 1.406 5907
2.353 -0.494 1.406 6492
2.363 -0.496 1.403 7519
2.367 -0.497 1.396 6275
2.433 -0.511 1.421 6122
2.443 -0.513 1.417 6275
2.454 -0.515 1.413 6612
2.464 -0.517 1.409 5473
2.558 -0.537 1.447 4915
2.555 -0.536 1.436 5423
2.545 -0.534 1.422 6201
2.548 -0.535 1.414 6331
2.552 -0.536 1.406 6457
2.605 -0.547 1.422 6946
2.615 -0.549 1.418 8129
2.619 -0.550 1.410 8129
2.615 -0.549 1.399 6512
2.591 -0.544 1.378 5922
2.601 -0.546 1.373 5442
2.605 -0.547 1.365 4973
2.700 -0.567 1.400 4144
2.690 -0.565 1.385 4441
2.700 -0.567 1.380 4779
2.704 -0.568 1.372 5285
2.707 -0.568 1.364 5394
2.718 -0.571 1.359 5771
2.721 -0.571 1.351 6199
2.725 -0.572 1.343 3099
1.429 -0.300 0.774 709
0.627 -0.133 1.605 48468
0.631 -0.134 1.603 49547
0.635 -0.135 1.601 50625
0.640 -0.136 1.599 46063
0.644 -0.137 1.597 41502
0.648 -0.138 1.595 34973
0.652 -0.139 1.593 27165
0.653 -0.139 1.584 27163
0.657 -0.140 1.582 25119
0.664 -0.141 1.587 23686
0.672 -0.143 1.592 20250
0.676 -0.144 1.590 17579
0.684 -0.145 1.595 14273
0.691 -0.147 1.600 11357
0.695 -0.148 1.598 10817
0.696 -0.148 1.588 10242
0.704 -0.150 1.593 11915
0.711 -0.151 1.598 14391
0.715 -0.152 1.596 14591
0.719 -0.153 1.594 13984
0.724 -0.154 1.592 13650
0.728 -0.155 1.589 13335
0.732 -0.156 1.587 13384
0.736 -0.157 1.585 14516
0.744 -0.158 1.590 15814
0.752 -0.160 1.594 17762
0.759 -0.162 1.599 16926
0.767 -0.163 1.603 14972
0.775 -0.165 1.608 13921
0.779 -0.166 1.606 12464
0.787 -0.168 1.610 16346
0.792 -0.168 1.608 20231
0.796 -0.169 1.605 22795
0.804 -0.171 1.610 25846
0.804 -0.171 1.600 25680
0.808 -0.172 1.598 23560
0.812 -0.173 1.595 19770
0.820 -0.175 1.600 14378
0.832 -0.177 1.611 11506
0.841 -0.179 1.615 9068
0.845 -0.180 1.613 6848
0.849 -0.181 1.610 10590
0.849 -0.181 1.601 14721
0.849 -0.181 1.591 15635
0.849 -0.181 1.582 13513
0.849 -0.181 1.573 12919
0.853 -0.182 1.570 14564
0.857 -0.182 1.567 16353
0.865 -0.184 1.571 16215
0.870 -0.185 1.569 13366
0.878 -0.187 1.573 11177
0.890 -0.189 1.583 10272
0.899 -0.191 1.587 12765
0.911 -0.194 1.598 15248
0.924 -0.197 1.608 15754
0.932 -0.198 1.612 12655
0.945 -0.201 1.622 9472
0.945 -0.201 1.613 12966
0.949 -0.202 1.610 17775
0.958 -0.204 1.614 16762
0.966 -0.206 1.617 20505
0.970 -0.207 1.614 23678
0.975 -0.207 1.611 23524
0.983 -0.209 1.615 18659
0.983 -0.209 1.605 10196
0.983 -0.209 1.596 7570
0.987 -0.210 1.593 7598
1.000 -0.213 1.603 9284
1.009 -0.215 1.606 11864
1.022 -0.217 1.616 10690
1.035 -0.220 1.625 7237
1.030 -0.219 1.610 5779
1.034 -0.220 1.606 9480
1.048 -0.223 1.616 22498
1.052 -0.224 1.613 36380
1.056 -0.225 1.610 33146
1.060 -0.226 1.606 19129
1.069 -0.228 1.609 9839
1.064 -0.226 1.594 6839
1.087 -0.231 1.615 7563
1.086 -0.231 1.606 9750
1.091 -0.232 1.603 9477
1.095 -0.233 1.599 7049
1.094 -0.233 1.590 5425
1.093 -0.233 1.580 7175
1.097 -0.234 1.577 10188
1.106 -0.235 1.580 13836
1.115 -0.237 1.582 15887
1.124 -0.239 1.585 13517
1.133 -0.241 1.588 12667
1.142 -0.243 1.591 18794
1.146 -0.244 1.587 24032
1.151 -0.245 1.584 17465
1.165 -0.248 1.592 7826
1.174 -0.250 1.595 6707
1.183 -0.252 1.597 9099
1.182 -0.252 1.588 9062
1.181 -0.251 1.578 10735
1.195 -0.254 1.586 15958
1.199 -0.255 1.583 21459
1.203 -0.256 1.579 20112
1.213 -0.258 1.581 14887
1.217 -0.259 1.578 11671
1.216 -0.259 1.568 11970
1.225 -0.261 1.570 19855
1.234 -0.263 1.572 34357
1.243 -0.265 1.575 34615
1.242 -0.264 1.565 25296
1.241 -0.264 1.555 31308
1.250 -0.266 1.557 32971
1.260 -0.268 1.559 21383
1.269 -0.270 1.561 18039
1.273 -0.271 1.557 18801
1.277 -0.272 1.554 16084
1.286 -0.274 1.555 13945
1.290 -0.275 1.552 8194
1.300 -0.277 1.553 4372
1.304 -0.277 1.549 5988
1.313 -0.279 1.551 14928
1.322 -0.281 1.553 24848
1.332 -0.283 1.554 27458
1.336 -0.284 1.550 24299
1.340 -0.285 1.546 24279
1.355 -0.288 1.553 21701
1.364 -0.290 1.555 13162
1.379 -0.294 1.562 13681
1.383 -0.294 1.558 19529
1.387 -0.295 1.553 37688
1.391 -0.296 1.549 55509
1.395 -0.297 1.545 52632
1.399 -0.298 1.541 38757
1.403 -0.299 1.537 22972
1.407 -0.299 1.532 13158
1.423 -0.303 1.539 13096
1.426 -0.304 1.535 15926
1.430 -0.304 1.530 21684
1.434 -0.305 1.526 24069
1.455 -0.310 1.538 22453
1.459 -0.311 1.533 19957
1.463 -0.311 1.529 20041
1.467 -0.312 1.524 19269
1.471 -0.313 1.520 9666
1.487 -0.316 1.526 7130
1.485 -0.316 1.516 13488
1.489 -0.317 1.512 18021
1.498 -0.319 1.513 20688
1.502 -0.320 1.508 23145
1.506 -0.320 1.503 23885
1.522 -0.324 1.509 29039
1.526 -0.325 1.505 30712
1.535 -0.327 1.505 22833
1.551 -0.330 1.511 19073
1.573 -0.335 1.521 19216
1.577 -0.335 1.517 18730
1.569 -0.334 1.502 15952
1.608 -0.342 1.527 9541
1.612 -0.343 1.522 11628
1.604 -0.341 1.507 12804
1.614 -0.343 1.508 11453
1.636 -0.348 1.518 13035
1.646 -0.350 1.518 18329
1.650 -0.351 1.513 18336
1.666 -0.354 1.518 16203
1.682 -0.358 1.522 27982
1.686 -0.359 1.517 35199
1.690 -0.360 1.512 26152
1.700 -0.362 1.512 16094
1.697 -0.361 1.502 12845
1.714 -0.365 1.506 11249
1.724 -0.367 1.506 7655
1.740 -0.370 1.510 8733
1.750 -0.372 1.510 15058
1.754 -0.373 1.505 16645
1.751 -0.373 1.494 17502
1.768 -0.376 1.499 19183
1.772 -0.377 1.493 15687
1.782 -0.379 1.493 11461
1.792 -0.381 1.492 9238
1.802 -0.383 1.491 10137
1.812 -0.386 1.490 12726
1.847 -0.393 1.508 15589
1.858 -0.395 1.507 18162
1.868 -0.397 1.506 17821
1.872 -0.398 1.500 18124
1.882 -0.400 1.499 15856
1.911 -0.407 1.511 13644
1.915 -0.407 1.505 13087
1.913 -0.407 1.495 11471
1.942 -0.413 1.507 10118
1.952 -0.415 1.506 17248
1.956 -0.416 1.500 21280
1.960 -0.417 1.494 23848
1.964 -0.418 1.488 24430
1.974 -0.420 1.486 17150
1.984 -0.422 1.485 12180
1.988 -0.423 1.479 13361
2.005 -0.427 1.481 16037
2.015 -0.429 1.480 13547
2.032 -0.432 1.482 10219
2.049 -0.436 1.484 9723
2.046 -0.435 1.474 10465
2.044 -0.435 1.463 12085
2.047 -0.436 1.457 12242
2.058 -0.438 1.455 9922
2.061 -0.439 1.449 7350
2.078 -0.442 1.451 7739
2.128 -0.453 1.473 9663
2.139 -0.455 1.471 11656
2.143 -0.456 1.465 13909
2.146 -0.457 1.458 13566
2.157 -0.459 1.456 11276
2.161 -0.460 1.449 9370
2.198 -0.468 1.463 7560
2.208 -0.470 1.460 9205
2.205 -0.469 1.449 11598
2.209 -0.470 1.443 14193
2.219 -0.472 1.440 12904
2.237 -0.476 1.441 9546
2.247 -0.478 1.438 8073
2.257 -0.480 1.435 6944
2.281 -0.485 1.440 6637
2.299 -0.489 1.440 7338
2.316 -0.493 1.441 8902
2.320 -0.494 1.434 8811
2.323 -0.494 1.427 8719
2.327 -0.495 1.420 8493
2.331 -0.496 1.413 6949
2.334 -0.497 1.406 5631
2.345 -0.499 1.403 6108
2.452 -0.522 1.450 7262
2.448 -0.521 1.439 6684
2.431 -0.517 1.421 6889
2.442 -0.520 1.417 7129
2.452 -0.522 1.413 7453
2.456 -0.523 1.406 6294
2.466 -0.525 1.402 5257
2.554 -0.543 1.436 4297
2.543 -0.541 1.422 4930
2.547 -0.542 1.414 5458
2.578 -0.549 1.420 6172
2.603 -0.554 1.422 6976
2.614 -0.556 1.418 8334
2.617 -0.557 1.410 8334
2.614 -0.556 1.399 6543
2.596 -0.552 1.381 5376
2.600 -0.553 1.373 4499
2.695 -0.573 1.408 5020
2.699 -0.574 1.400 4913
2.695 -0.573 1.388 4817
2.706 -0.576 1.384 4769
2.702 -0.575 1.372 4836
2.706 -0.576 1.364 4964
2.709 -0.576 1.356 5343
2.720 -0.579 1.351 5789
2.723 -0.579 1.343 2894
1.428 -0.304 0.774 725
0.627 -0.135 1.605 50450
0.631 -0.136 1.603 51230
0.635 -0.137 1.601 52011
0.639 -0.138 1.599 47674
0.643 -0.139 1.597 43338
0.647 -0.140 1.595 36131
0.652 -0.141 1.593 27594
0.652 -0.141 1.584 27433
0.656 -0.142 1.582 25380
0.664 -0.143 1.587 23953
0.671 -0.145 1.592 20584
0.676 -0.146 1.590 17978
0.683 -0.147 1.595 14503
0.691 -0.149 1.600 11392
0.695 -0.150 1.598 11048
0.695 -0.150 1.588 10663
0.703 -0.152 1.593 12269
0.711 -0.153 1.598 14686
0.715 -0.154 1.596 14690
0.719 -0.155 1.594 13792
0.723 -0.156 1.592 13410
0.727 -0.157 1.589 12867
0.731 -0.158 1.587 12866
0.735 -0.159 1.585 14589
0.743 -0.160 1.590 16429
0.751 -0.162 1.594 18062
0.755 -0.163 1.592 16618
0.763 -0.165 1.597 14174
0.771 -0.166 1.601 12870
0.779 -0.168 1.606 11351
0.783 -0.169 1.603 15212
0.787 -0.170 1.601 19073
0.795 -0.172 1.605 21354
0.803 -0.173 1.610 24133
0.803 -0.173 1.600 24036
0.808 -0.174 1.598 22141
0.812 -0.175 1.595 18882
0.820 -0.177 1.600 13637
0.836 -0.180 1.618 11019
0.840 -0.181 1.615 9206
0.852 -0.184 1.626 7557
0.852 -0.184 1.617 10841
0.849 -0.183 1.601 14684
0.845 -0.182 1.585 15689
0.849 -0.183 1.582 13789
0.849 -0.183 1.573 13200
0.853 -0.184 1.570 14763
0.857 -0.185 1.567 16200
0.865 -0.187 1.571 15393
0.869 -0.188 1.569 12308
0.877 -0.189 1.573 11250
0.890 -0.192 1.583 11123
0.898 -0.194 1.587 13148
0.915 -0.198 1.604 15389
0.928 -0.200 1.615 16508
0.936 -0.202 1.619 13549
0.945 -0.204 1.622 9958
0.944 -0.204 1.613 13366
0.944 -0.204 1.603 18460
0.957 -0.207 1.614 17084
0.966 -0.209 1.617 20689
0.970 -0.209 1.614 24294
0.974 -0.210 1.611 24431
0.983 -0.212 1.615 19403
0.982 -0.212 1.605 10827
0.982 -0.212 1.596 8287
0.986 -0.213 1.593 8451
0.995 -0.215 1.596 9976
1.008 -0.218 1.606 11862
1.021 -0.221 1.616 9815
1.035 -0.223 1.625 7449
1.034 -0.223 1.616 7292
1.038 -0.224 1.613 10016
1.047 -0.226 1.616 22101
1.051 -0.227 1.613 35673
1.056 -0.228 1.610 32333
1.060 -0.229 1.606 17556
1.069 -0.231 1.609 8020
1.063 -0.230 1.594 5484
1.082 -0.234 1.609 7187
1.086 -0.234 1.606 9528
1.090 -0.235 1.603 9109
1.094 -0.236 1.599 6312
1.098 -0.237 1.596 5203
1.093 -0.236 1.580 7557
1.097 -0.237 1.577 9951
1.106 -0.239 1.580 12721
1.115 -0.241 1.582 14306
1.124 -0.243 1.585 11807
1.133 -0.245 1.588 10032
1.142 -0.247 1.591 15071
1.146 -0.247 1.587 19804
1.155 -0.249 1.590 15002
1.164 -0.251 1.592 7718
1.173 -0.253 1.595 5879
1.187 -0.256 1.603 7395
1.186 -0.256 1.594 7137
1.185 -0.256 1.584 7789
1.194 -0.258 1.586 12739
1.199 -0.259 1.583 18083
1.203 -0.260 1.579 16742
1.212 -0.262 1.581 11075
1.216 -0.263 1.578 10540
1.215 -0.262 1.568 14270
1.219 -0.263 1.564 21460
1.233 -0.266 1.572 33670
1.237 -0.267 1.569 32099
1.241 -0.268 1.565 22042
1.240 -0.268 1.555 27508
1.249 -0.270 1.557 29552
1.259 -0.272 1.559 19602
1.268 -0.274 1.561 17234
1.272 -0.275 1.557 18297
1.281 -0.277 1.559 17080
1.285 -0.278 1.555 15850
1.289 -0.278 1.552 9486
1.293 -0.279 1.548 5166
1.303 -0.281 1.549 6395
1.312 -0.283 1.551 14835
1.322 -0.285 1.553 22780
1.331 -0.287 1.554 24422
1.340 -0.289 1.556 19906
1.344 -0.290 1.552 19491
1.354 -0.292 1.553 19298
1.369 -0.296 1.560 12289
1.378 -0.298 1.562 11632
1.382 -0.299 1.558 14921
1.386 -0.299 1.553 34346
1.391 -0.300 1.549 54038
1.394 -0.301 1.545 51264
1.398 -0.302 1.541 38325
1.402 -0.303 1.537 23257
1.406 -0.304 1.532 14315
1.422 -0.307 1.539 14715
1.426 -0.308 1.535 17866
1.430 -0.309 1.530 24582
1.439 -0.311 1.531 27461
1.454 -0.314 1.538 26037
1.458 -0.315 1.533 23449
1.457 -0.315 1.524 19734
1.466 -0.317 1.524 16693
1.476 -0.319 1.525 7918
1.491 -0.322 1.531 5894
1.484 -0.320 1.516 10931
1.488 -0.321 1.512 14847
1.497 -0.323 1.513 18443
1.501 -0.324 1.508 22560
1.505 -0.325 1.503 24939
1.521 -0.328 1.509 30505
1.525 -0.329 1.505 32843
1.534 -0.331 1.505 26247
1.550 -0.335 1.511 19585
1.578 -0.341 1.526 18666
1.582 -0.341 1.522 18972
1.585 -0.342 1.517 14810
1.625 -0.351 1.542 10812
1.617 -0.349 1.527 11794
1.603 -0.346 1.507 12733
1.613 -0.348 1.508 11879
1.629 -0.352 1.513 13852
1.645 -0.355 1.518 20001
1.649 -0.356 1.513 20678
1.665 -0.359 1.518 15840
1.681 -0.363 1.522 26214
1.685 -0.364 1.517 34646
1.689 -0.365 1.512 27510
1.699 -0.367 1.512 19398
1.696 -0.366 1.502 15248
1.706 -0.368 1.502 12220
1.716 -0.371 1.501 8284
1.739 -0.375 1.510 8289
1.749 -0.378 1.510 13948
1.753 -0.378 1.505 15216
1.750 -0.378 1.494 15624
1.767 -0.381 1.499 17596
1.777 -0.384 1.498 15856
1.787 -0.386 1.497 12314
1.791 -0.387 1.492 9992
1.801 -0.389 1.491 11020
1.805 -0.390 1.486 13520
1.846 -0.399 1.508 15839
1.856 -0.401 1.507 17839
1.867 -0.403 1.506 16432
1.870 -0.404 1.500 16924
1.881 -0.406 1.499 15610
1.904 -0.411 1.507 13370
1.907 -0.412 1.501 12552
1.911 -0.413 1.495 11622
1.941 -0.419 1.507 10458
1.951 -0.421 1.506 18472
1.955 -0.422 1.500 23426
1.959 -0.423 1.494 25929
1.963 -0.424 1.488 25675
1.973 -0.426 1.486 17022
1.983 -0.428 1.485 11755
1.987 -0.429 1.479 13453
1.997 -0.431 1.477 16452
2.008 -0.433 1.475 13666
2.024 -0.437 1.478 9493
2.041 -0.441 1.480 9696
2.045 -0.442 1.474 11881
2.042 -0.441 1.463 13432
2.053 -0.443 1.461 13259
2.056 -0.444 1.455 10157
2.053 -0.443 1.445 7077
2.077 -0.448 1.451 7443
2.127 -0.459 1.473 10389
2.131 -0.460 1.467 12291
2.141 -0.462 1.465 13986
2.152 -0.465 1.462 13493
2.155 -0.465 1.456 11506
2.166 -0.468 1.453 9563
2.196 -0.474 1.463 7295
2.207 -0.476 1.460 8418
2.210 -0.477 1.453 10576
2.207 -0.477 1.443 12952
2.218 -0.479 1.440 11773
2.235 -0.483 1.441 9168
2.246 -0.485 1.438 8140
2.256 -0.487 1.435 6933
2.280 -0.492 1.440 6438
2.297 -0.496 1.440 7153
2.315 -0.500 1.441 8753
2.318 -0.501 1.434 8929
2.322 -0.501 1.427 9106
2.325 -0.502 1.420 8836
2.329 -0.503 1.413 6895
2.333 -0.504 1.406 5223
2.446 -0.528 1.457 6421
2.450 -0.529 1.450 7912
2.447 -0.528 1.439 7271
2.437 -0.526 1.424 7531
2.440 -0.527 1.417 7869
2.444 -0.528 1.410 8208
2.454 -0.530 1.406 7050
2.465 -0.532 1.402 6077
2.468 -0.533 1.394 4686
2.535 -0.547 1.418 3567
2.566 -0.554 1.424 4523
2.584 -0.558 1.423 5915
2.608 -0.563 1.426 7027
2.612 -0.564 1.418 8571
2.616 -0.565 1.410 8571
2.619 -0.566 1.402 6813
2.609 -0.563 1.388 5316
2.690 -0.581 1.416 4724
2.693 -0.582 1.408 6154
2.697 -0.582 1.400 5832
2.700 -0.583 1.392 5510
2.704 -0.584 1.384 4871
2.700 -0.583 1.372 4343
2.704 -0.584 1.364 4476
2.707 -0.585 1.356 4812
2.803 -0.605 1.388 5372
2.807 -0.606 1.380 2686
1.427 -0.308 0.774 791
0.626 -0.136 1.605 51743
0.631 -0.137 1.603 52546
0.635 -0.138 1.601 53350
0.639 -0.139 1.599 49226
0.643 -0.140 1.597 45101
0.647 -0.141 1.595 37230
0.651 -0.142 1.593 27987
0.652 -0.142 1.584 27657
0.656 -0.143 1.582 25553
0.664 -0.145 1.587 24070
0.668 -0.145 1.585 20759
0.675 -0.147 1.590 18207
0.683 -0.149 1.595 14550
0.690 -0.150 1.600 11221
0.695 -0.151 1.598 11188
0.699 -0.152 1.596 11088
0.703 -0.153 1.593 12680
0.710 -0.155 1.598 15049
0.715 -0.156 1.596 14857
0.722 -0.157 1.601 13685
0.723 -0.157 1.592 13143
0.727 -0.158 1.589 12370
0.731 -0.159 1.587 12323
0.735 -0.160 1.585 14573
0.743 -0.162 1.590 16901
0.751 -0.164 1.594 18283
0.755 -0.164 1.592 16363
0.763 -0.166 1.597 13523
0.771 -0.168 1.601 12067
0.779 -0.170 1.606 10391
0.783 -0.171 1.603 14128
0.787 -0.171 1.601 17865
0.795 -0.173 1.605 19832
0.803 -0.175 1.610 22310
0.803 -0.175 1.600 22323
0.803 -0.175 1.591 20754
0.811 -0.177 1.595 18000
0.819 -0.179 1.600 12951
0.839 -0.183 1.624 10606
0.844 -0.184 1.622 9600
0.848 -0.185 1.619 8593
0.848 -0.185 1.610 11306
0.848 -0.185 1.601 14460
0.844 -0.184 1.585 15600
0.848 -0.185 1.582 13918
0.852 -0.186 1.579 13361
0.852 -0.186 1.570 14740
0.856 -0.187 1.567 15807
0.865 -0.188 1.571 14342
0.869 -0.189 1.569 11213
0.881 -0.192 1.579 11915
0.889 -0.194 1.583 12719
0.898 -0.196 1.587 14048
0.915 -0.199 1.604 15738
0.927 -0.202 1.615 17423
0.936 -0.204 1.619 14555
0.944 -0.206 1.622 10350
0.940 -0.205 1.606 13553
0.944 -0.206 1.603 18965
0.952 -0.207 1.607 17301
0.961 -0.209 1.611 20628
0.969 -0.211 1.614 24279
0.974 -0.212 1.611 24729
0.978 -0.213 1.608 19623
0.982 -0.214 1.605 10964
0.982 -0.214 1.596 8569
0.986 -0.215 1.593 8896
0.994 -0.217 1.596 10266
1.008 -0.220 1.606 11541
1.021 -0.222 1.616 9181
1.034 -0.225 1.625 8158
1.034 -0.225 1.616 9269
1.043 -0.227 1.619 11272
1.047 -0.228 1.616 22325
1.051 -0.229 1.613 35205
1.055 -0.230 1.610 31655
1.059 -0.231 1.606 16482
1.073 -0.234 1.616 7261
1.082 -0.236 1.619 5481
1.081 -0.236 1.609 6973
1.085 -0.236 1.606 9146
1.089 -0.237 1.603 8504
1.094 -0.238 1.599 5587
1.098 -0.239 1.596 5681
1.097 -0.239 1.586 9056
1.101 -0.240 1.583 10665
1.105 -0.241 1.580 12001
1.114 -0.243 1.582 12832
1.123 -0.245 1.585 10117
1.137 -0.248 1.594 7244
1.146 -0.250 1.597 10963
1.150 -0.251 1.593 15508
1.154 -0.251 1.590 13351
1.163 -0.253 1.592 8652
1.168 -0.254 1.589 5986
1.187 -0.259 1.603 6552
1.191 -0.259 1.600 6895
1.190 -0.259 1.590 6064
1.194 -0.260 1.586 9212
1.203 -0.262 1.589 13753
1.202 -0.262 1.579 12551
1.206 -0.263 1.575 8586
1.210 -0.264 1.572 11599
1.214 -0.265 1.568 16980
1.218 -0.265 1.564 22599
1.228 -0.267 1.567 31724
1.237 -0.269 1.569 28485
1.241 -0.270 1.565 18452
1.240 -0.270 1.555 23219
1.249 -0.272 1.557 25318
1.263 -0.275 1.565 17496
1.268 -0.276 1.561 15992
1.277 -0.278 1.563 17102
1.281 -0.279 1.559 17425
1.290 -0.281 1.561 17441
1.289 -0.281 1.552 11333
1.293 -0.282 1.548 6753
1.302 -0.284 1.549 6510
1.306 -0.285 1.545 13637
1.321 -0.288 1.553 19922
1.336 -0.291 1.560 21476
1.345 -0.293 1.562 17167
1.349 -0.294 1.558 15950
1.359 -0.296 1.559 18087
1.374 -0.299 1.566 12641
1.378 -0.300 1.562 9943
1.382 -0.301 1.558 10083
1.386 -0.302 1.553 30149
1.390 -0.303 1.549 51293
1.394 -0.304 1.545 48395
1.398 -0.305 1.541 36755
1.402 -0.305 1.537 23040
1.406 -0.306 1.532 14827
1.421 -0.310 1.539 16157
1.425 -0.310 1.535 19936
1.429 -0.311 1.530 27483
1.439 -0.313 1.531 31535
1.454 -0.317 1.538 30304
1.452 -0.316 1.528 27198
1.456 -0.317 1.524 19602
1.466 -0.319 1.524 14080
1.481 -0.323 1.531 6954
1.502 -0.327 1.542 5803
1.483 -0.323 1.516 8099
1.487 -0.324 1.512 10808
1.497 -0.326 1.513 14985
1.501 -0.327 1.508 20619
1.510 -0.329 1.509 24579
1.520 -0.331 1.509 30143
1.524 -0.332 1.505 32821
1.534 -0.334 1.505 27782
1.549 -0.338 1.511 19625
1.577 -0.344 1.526 18717
1.587 -0.346 1.527 20086
1.597 -0.348 1.527 16736
1.624 -0.354 1.542 12886
1.616 -0.352 1.527 12462
1.608 -0.350 1.512 12870
1.612 -0.351 1.508 12374
1.628 -0.355 1.513 15042
1.644 -0.358 1.518 21040
1.648 -0.359 1.513 21686
1.658 -0.361 1.513 14910
1.680 -0.366 1.522 23225
1.684 -0.367 1.517 32568
1.694 -0.369 1.517 27929
1.698 -0.370 1.512 21910
1.696 -0.369 1.502 16796
1.706 -0.372 1.502 12669
1.716 -0.374 1.501 9005
1.738 -0.379 1.510 8190
1.748 -0.381 1.510 13289
1.752 -0.382 1.505 14464
1.750 -0.381 1.494 14283
1.766 -0.385 1.499 16000
1.782 -0.388 1.503 16280
1.786 -0.389 1.497 13294
1.790 -0.390 1.492 10657
1.800 -0.392 1.491 11395
1.804 -0.393 1.486 13430
1.845 -0.402 1.508 15592
1.856 -0.404 1.507 16918
1.866 -0.406 1.506 14834
1.870 -0.407 1.500 15605
1.880 -0.410 1.499 15113
1.903 -0.415 1.507 13231
1.907 -0.415 1.501 12225
1.911 -0.416 1.495 11844
1.927 -0.420 1.498 11388
1.950 -0.425 1.506 19850
1.954 -0.426 1.500 25593
1.958 -0.427 1.494 27707
1.962 -0.427 1.488 26298
1.966 -0.428 1.482 16682
1.976 -0.430 1.480 11183
1.986 -0.433 1.479 13002
1.990 -0.434 1.473 16127
2.000 -0.436 1.471 14295
1.997 -0.435 1.461 11024
2.034 -0.443 1.476 10077
2.044 -0.445 1.474 12983
2.041 -0.445 1.463 14478
2.052 -0.447 1.461 14276
2.056 -0.448 1.455 10535
2.066 -0.450 1.453 6969
2.083 -0.454 1.455 7324
2.126 -0.463 1.473 10640
2.130 -0.464 1.467 12567
2.134 -0.465 1.461 13543
2.151 -0.469 1.462 13061
2.155 -0.469 1.456 11531
2.165 -0.472 1.453 9742
2.195 -0.478 1.463 6966
2.213 -0.482 1.464 7475
2.210 -0.481 1.453 9447
2.207 -0.481 1.443 11638
2.217 -0.483 1.440 10632
2.241 -0.488 1.445 8926
2.251 -0.490 1.442 8398
2.255 -0.491 1.435 7125
2.279 -0.496 1.440 6435
2.290 -0.499 1.437 7032
2.314 -0.504 1.441 8378
2.317 -0.505 1.434 8762
2.321 -0.506 1.427 9146
2.325 -0.506 1.420 8923
2.328 -0.507 1.413 6849
2.441 -0.532 1.465 5642
2.445 -0.533 1.457 7119
2.449 -0.534 1.450 8597
2.439 -0.531 1.435 7927
2.436 -0.531 1.424 8148
2.439 -0.531 1.417 8544
2.443 -0.532 1.410 8940
2.453 -0.534 1.406 7777
2.464 -0.537 1.402 6885
2.467 -0.538 1.394 5305
2.464 -0.537 1.384 3828
2.572 -0.560 1.428 3951
2.583 -0.563 1.423 5644
2.607 -0.568 1.426 7019
2.611 -0.569 1.418 8712
2.615 -0.570 1.410 8712
2.618 -0.570 1.402 7153
2.615 -0.570 1.391 5646
2.689 -0.586 1.416 5774
2.692 -0.586 1.408 7435
2.696 -0.587 1.400 6883
2.699 -0.588 1.392 6331
2.703 -0.589 1.384 5058
2.699 -0.588 1.372 3865
2.696 -0.587 1.361 3978
2.798 -0.610 1.397 4366
2.802 -0.610 1.388 5090
2.806 -0.611 1.380 2545
1.427 -0.311 0.774 855
0.626 -0.138 1.605 52794
0.630 -0.139 1.603 53680
0.634 -0.140 1.601 54566
0.638 -0.141 1.599 50691
0.643 -0.142 1.597 46816
0.647 -0.143 1.595 38351
0.651 -0.144 1.593 28477
0.652 -0.144 1.584 27991
0.656 -0.145 1.582 25716
0.663 -0.147 1.587 24046
0.667 -0.148 1.585 20763
0.675 -0.149 1.590 18190
0.682 -0.151 1.595 14320
0.690 -0.153 1.600 10749
0.694 -0.153 1.598 11142
0.698 -0.154 1.596 11495
0.702 -0.155 1.593 13067
0.710 -0.157 1.598 15409
0.718 -0.159 1.603 15042
0.722 -0.160 1.601 13621
0.722 -0.160 1.592 12850
0.726 -0.161 1.589 11830
0.731 -0.162 1.587 11735
0.735 -0.162 1.585 14428
0.742 -0.164 1.590 17140
0.747 -0.165 1.587 18375
0.754 -0.167 1.592 16060
0.762 -0.169 1.597 12913
0.770 -0.170 1.601 11398
0.774 -0.171 1.599 9819
0.782 -0.173 1.603 13159
0.786 -0.174 1.601 16659
0.794 -0.176 1.605 18285
0.802 -0.177 1.610 20421
0.803 -0.177 1.600 20567
0.803 -0.177 1.591 19613
0.811 -0.179 1.595 17179
0.819 -0.181 1.600 12544
0.839 -0.185 1.624 10329
0.843 -0.186 1.622 10046
0.843 -0.186 1.613 9948
0.847 -0.187 1.610 11832
0.848 -0.187 1.601 14027
0.844 -0.187 1.585 15242
0.848 -0.187 1.582 13847
0.852 -0.188 1.579 13566
0.852 -0.188 1.570 14822
0.860 -0.190 1.574 15471
0.864 -0.191 1.571 13379
0.868 -0.192 1.569 10476
0.880 -0.195 1.579 13291
0.889 -0.196 1.583 15061
0.897 -0.198 1.587 15554
0.914 -0.202 1.604 16035
0.927 -0.205 1.615 18266
0.935 -0.207 1.619 15517
0.922 -0.204 1.589 11011
0.930 -0.206 1.593 13574
0.943 -0.209 1.603 19013
0.952 -0.210 1.607 17274
0.960 -0.212 1.611 20172
0.964 -0.213 1.608 23768
0.973 -0.215 1.611 24461
0.977 -0.216 1.608 19348
0.981 -0.217 1.605 10786
0.981 -0.217 1.596 8664
0.985 -0.218 1.593 9192
0.994 -0.220 1.596 10378
1.007 -0.223 1.606 11018
1.020 -0.226 1.616 8923
1.033 -0.228 1.625 9067
1.033 -0.228 1.616 10788
1.042 -0.230 1.619 12702
1.046 -0.231 1.616 22925
1.050 -0.232 1.613 34920
1.054 -0.233 1.610 31032
1.059 -0.234 1.606 15881
1.067 -0.236 1.609 7705
1.076 -0.238 1.612 6488
1.080 -0.239 1.609 7191
1.085 -0.240 1.606 8881
1.084 -0.240 1.596 8124
1.088 -0.241 1.593 5769
1.092 -0.241 1.590 7155
1.096 -0.242 1.586 11317
1.100 -0.243 1.583 12091
1.104 -0.244 1.580 11725
1.113 -0.246 1.582 11683
1.122 -0.248 1.585 8832
1.141 -0.252 1.600 5011
1.145 -0.253 1.597 7204
1.149 -0.254 1.593 11265
1.154 -0.255 1.590 11871
1.158 -0.256 1.586 9919
1.167 -0.258 1.589 6945
1.181 -0.261 1.597 6977
1.190 -0.263 1.600 8546
1.194 -0.264 1.596 6965
1.203 -0.266 1.598 7057
1.202 -0.266 1.589 9095
1.206 -0.267 1.585 8151
1.205 -0.267 1.575 8448
1.209 -0.267 1.572 14242
1.214 -0.268 1.568 18623
1.218 -0.269 1.564 22836
1.227 -0.271 1.567 29616
1.236 -0.273 1.569 24778
1.240 -0.274 1.565 15718
1.239 -0.274 1.555 20111
1.248 -0.276 1.557 22179
1.263 -0.279 1.565 15885
1.267 -0.280 1.561 15000
1.276 -0.282 1.563 16199
1.280 -0.283 1.559 17184
1.289 -0.285 1.561 18271
1.288 -0.285 1.552 13258
1.292 -0.286 1.548 9326
1.296 -0.287 1.544 7010
1.305 -0.289 1.545 11844
1.315 -0.291 1.547 17078
1.340 -0.296 1.566 19211
1.344 -0.297 1.562 16256
1.348 -0.298 1.558 13908
1.358 -0.300 1.559 16701
1.367 -0.302 1.560 13187
1.377 -0.304 1.562 8775
1.370 -0.303 1.547 7883
1.385 -0.306 1.553 26163
1.389 -0.307 1.549 45385
1.393 -0.308 1.545 43598
1.397 -0.309 1.541 34756
1.395 -0.308 1.531 22496
1.405 -0.311 1.532 14541
1.420 -0.314 1.539 16602
1.424 -0.315 1.535 21272
1.434 -0.317 1.536 30204
1.438 -0.318 1.531 35733
1.453 -0.321 1.538 34446
1.451 -0.321 1.528 30782
1.455 -0.322 1.524 19465
1.465 -0.324 1.524 11474
1.486 -0.329 1.536 6363
1.501 -0.332 1.542 5999
1.488 -0.329 1.522 5774
1.480 -0.327 1.507 6640
1.496 -0.331 1.513 10811
1.500 -0.332 1.508 17575
1.509 -0.334 1.509 22791
1.519 -0.336 1.509 28122
1.523 -0.337 1.505 30962
1.533 -0.339 1.505 27662
1.548 -0.342 1.511 19811
1.582 -0.350 1.532 19230
1.586 -0.351 1.527 21673
1.602 -0.354 1.532 19545
1.617 -0.358 1.537 14501
1.615 -0.357 1.527 12902
1.607 -0.355 1.512 12096
1.617 -0.358 1.513 11386
1.627 -0.360 1.513 15034
1.643 -0.363 1.518 21134
1.647 -0.364 1.513 21803
1.657 -0.366 1.513 13690
1.679 -0.371 1.522 19443
1.683 -0.372 1.517 29493
1.693 -0.374 1.517 27504
1.697 -0.375 1.512 23249
1.694 -0.375 1.502 17464
1.704 -0.377 1.502 12754
1.708 -0.378 1.496 10000
1.731 -0.383 1.506 8556
1.753 -0.388 1.515 13058
1.751 -0.387 1.505 14211
1.748 -0.387 1.494 13156
1.771 -0.392 1.503 14340
1.781 -0.394 1.503 16679
1.791 -0.396 1.502 14245
1.795 -0.397 1.496 11271
1.799 -0.398 1.491 11447
1.803 -0.399 1.486 12716
1.844 -0.408 1.508 14914
1.848 -0.409 1.502 15568
1.865 -0.412 1.506 13104
1.868 -0.413 1.500 14302
1.879 -0.415 1.499 14467
1.902 -0.420 1.507 13069
1.905 -0.421 1.501 12169
1.909 -0.422 1.495 12339
1.926 -0.426 1.498 12762
1.949 -0.431 1.506 21347
1.953 -0.432 1.500 27682
1.957 -0.433 1.494 29095
1.960 -0.433 1.488 26165
1.964 -0.434 1.482 15929
1.975 -0.437 1.480 10448
1.978 -0.437 1.474 12070
1.989 -0.440 1.473 15468
1.999 -0.442 1.471 15295
1.996 -0.441 1.461 13219
2.019 -0.446 1.467 10984
2.043 -0.452 1.474 13394
2.047 -0.452 1.468 14914
2.050 -0.453 1.461 14777
2.061 -0.456 1.459 11033
2.071 -0.458 1.457 7306
2.081 -0.460 1.455 7303
2.125 -0.470 1.473 10364
2.129 -0.471 1.467 12296
2.132 -0.471 1.461 12670
2.149 -0.475 1.462 12365
2.153 -0.476 1.456 11444
2.163 -0.478 1.453 9900
2.194 -0.485 1.463 6589
2.211 -0.489 1.464 6328
2.208 -0.488 1.453 8141
2.205 -0.488 1.443 10146
2.216 -0.490 1.440 9358
2.246 -0.497 1.449 8804
2.250 -0.497 1.442 8994
2.260 -0.500 1.439 7958
2.271 -0.502 1.436 7327
2.281 -0.504 1.433 7542
2.305 -0.510 1.437 8048
2.309 -0.510 1.430 8452
2.319 -0.513 1.427 8923
2.323 -0.514 1.420 8859
2.327 -0.514 1.413 6700
2.440 -0.539 1.465 6363
2.444 -0.540 1.457 7868
2.447 -0.541 1.450 9373
2.437 -0.539 1.435 8729
2.434 -0.538 1.424 8826
2.438 -0.539 1.417 9242
2.441 -0.540 1.410 9659
2.452 -0.542 1.406 8486
2.462 -0.544 1.402 7655
2.466 -0.545 1.394 5852
2.462 -0.544 1.384 4136
2.577 -0.570 1.431 3968
2.588 -0.572 1.427 5436
2.606 -0.576 1.426 7040
2.609 -0.577 1.418 8885
2.613 -0.578 1.410 8885
2.616 -0.578 1.402 7545
2.620 -0.579 1.394 6206
2.680 -0.592 1.413 6967
2.690 -0.595 1.408 8835
2.694 -0.596 1.400 8003
2.705 -0.598 1.395 7218
2.701 -0.597 1.384 5301
2.797 -0.618 1.417 3658
2.800 -0.619 1.408 3658
2.804 -0.620 1.400 4274
2.800 -0.619 1.388 4921
2.804 -0.620 1.380 2460
1.426 -0.315 0.774 885
0.626 -0.140 1.605 53715
0.630 -0.141 1.603 54537
0.634 -0.142 1.601 55359
0.638 -0.143 1.599 51756
0.642 -0.144 1.597 48153
0.646 -0.145 1.595 39244
0.651 -0.145 1.593 28907
0.651 -0.146 1.584 28302
0.655 -0.147 1.582 25829
0.663 -0.148 1.587 23947
0.667 -0.149 1.585 20656
0.674 -0.151 1.590 18038
0.682 -0.152 1.595 13926
0.686 -0.153 1.593 10114
0.694 -0.155 1.598 11007
0.698 -0.156 1.596 11926
0.702 -0.157 1.593 13470
0.710 -0.159 1.598 15761
0.717 -0.160 1.603 15245
0.721 -0.161 1.601 13538
0.726 -0.162 1.599 12586
0.726 -0.162 1.589 11271
0.727 -0.162 1.580 11221
0.734 -0.164 1.585 14178
0.742 -0.166 1.590 17236
0.746 -0.167 1.587 18412
0.754 -0.169 1.592 15807
0.762 -0.170 1.597 12425
0.766 -0.171 1.594 10934
0.774 -0.173 1.599 9425
0.782 -0.175 1.603 12219
0.786 -0.176 1.601 15362
0.794 -0.178 1.605 16670
0.802 -0.179 1.610 18459
0.802 -0.179 1.600 18826
0.802 -0.179 1.591 18599
0.807 -0.180 1.589 16659
0.815 -0.182 1.593 12769
0.838 -0.187 1.624 9944
0.839 -0.188 1.615 10524
0.843 -0.188 1.613 11433
0.847 -0.189 1.610 12332
0.843 -0.189 1.594 13527
0.839 -0.188 1.578 14898
0.847 -0.189 1.582 13805
0.851 -0.190 1.579 13830
0.851 -0.190 1.570 14897
0.859 -0.192 1.574 15215
0.864 -0.193 1.571 13045
0.888 -0.199 1.602 11675
0.880 -0.197 1.579 15744
0.888 -0.199 1.583 18125
0.892 -0.200 1.581 17903
0.913 -0.204 1.604 16403
0.926 -0.207 1.615 18995
0.930 -0.208 1.612 16478
0.922 -0.206 1.589 11927
0.930 -0.208 1.593 13597
0.943 -0.211 1.603 18710
0.951 -0.213 1.607 16985
0.960 -0.215 1.611 19279
0.964 -0.216 1.608 22642
0.972 -0.217 1.611 23515
0.977 -0.218 1.608 18474
0.981 -0.219 1.605 10197
0.980 -0.219 1.596 8463
0.985 -0.220 1.593 9211
0.993 -0.222 1.596 10239
1.011 -0.226 1.612 10433
1.020 -0.228 1.616 8809
1.033 -0.231 1.625 9823
1.037 -0.232 1.622 11706
1.046 -0.234 1.626 13900
1.050 -0.235 1.622 23809
1.050 -0.235 1.613 34754
1.054 -0.236 1.610 30432
1.058 -0.237 1.606 15732
1.067 -0.239 1.609 9031
1.071 -0.239 1.606 8303
1.080 -0.241 1.609 8090
1.079 -0.241 1.600 9086
1.083 -0.242 1.596 8201
1.088 -0.243 1.593 6451
1.092 -0.244 1.590 8814
1.096 -0.245 1.586 13698
1.100 -0.246 1.583 13915
1.104 -0.247 1.580 11906
1.113 -0.249 1.582 10992
1.117 -0.250 1.579 8360
1.141 -0.255 1.600 4458
1.155 -0.258 1.609 5099
1.154 -0.258 1.599 7416
1.153 -0.258 1.590 10357
1.157 -0.259 1.586 10856
1.161 -0.260 1.583 8313
1.180 -0.264 1.597 8268
1.189 -0.266 1.600 10902
1.193 -0.267 1.596 10431
1.198 -0.268 1.592 8714
1.207 -0.270 1.595 6474
1.206 -0.270 1.585 5948
1.205 -0.269 1.575 10865
1.209 -0.270 1.572 17349
1.208 -0.270 1.562 19520
1.217 -0.272 1.564 21939
1.226 -0.274 1.567 26495
1.235 -0.276 1.569 20598
1.239 -0.277 1.565 14357
1.238 -0.277 1.555 18759
1.247 -0.279 1.557 20296
1.262 -0.282 1.565 15356
1.266 -0.283 1.561 14333
1.275 -0.285 1.563 15238
1.279 -0.286 1.559 16397
1.289 -0.288 1.561 18075
1.287 -0.288 1.552 15068
1.291 -0.289 1.548 12726
1.295 -0.290 1.544 8260
1.305 -0.292 1.545 10358
1.314 -0.294 1.547 14862
1.340 -0.300 1.566 17770
1.344 -0.300 1.562 16555
1.342 -0.300 1.552 13243
1.357 -0.303 1.559 14698
1.361 -0.304 1.555 13576
1.365 -0.305 1.551 8855
1.369 -0.306 1.547 9592
1.384 -0.310 1.553 24678
1.388 -0.310 1.549 36270
1.392 -0.311 1.545 36552
1.396 -0.312 1.541 32184
1.395 -0.312 1.531 21214
1.404 -0.314 1.532 13001
1.419 -0.317 1.539 15233
1.423 -0.318 1.535 21013
1.433 -0.320 1.536 32114
1.437 -0.321 1.531 39700
1.446 -0.323 1.532 38659
1.450 -0.324 1.528 33815
1.454 -0.325 1.524 19333
1.464 -0.327 1.524 9037
1.485 -0.332 1.536 5907
1.501 -0.336 1.542 6177
1.499 -0.335 1.532 4932
1.491 -0.333 1.517 3826
1.501 -0.336 1.518 6990
1.499 -0.335 1.508 13804
1.509 -0.337 1.509 19646
1.518 -0.339 1.509 24604
1.522 -0.340 1.505 27469
1.532 -0.343 1.505 25974
1.548 -0.346 1.511 20727
1.575 -0.352 1.526 20428
1.585 -0.354 1.527 23352
1.601 -0.358 1.532 21798
1.617 -0.361 1.537 15317
1.620 -0.362 1.532 13140
1.606 -0.359 1.512 10824
1.616 -0.361 1.513 9588
1.632 -0.365 1.518 14628
1.642 -0.367 1.518 20434
1.646 -0.368 1.513 20535
1.656 -0.370 1.513 11913
1.678 -0.375 1.522 15624
1.682 -0.376 1.517 25762
1.692 -0.378 1.517 26478
1.696 -0.379 1.512 23699
1.694 -0.379 1.502 17004
1.704 -0.381 1.502 12525
1.707 -0.382 1.496 11123
1.730 -0.387 1.506 9451
1.752 -0.392 1.515 13285
1.750 -0.391 1.505 14416
1.741 -0.389 1.490 12176
1.776 -0.397 1.508 12764
1.786 -0.399 1.507 17097
1.790 -0.400 1.502 15356
1.794 -0.401 1.496 11900
1.798 -0.402 1.491 11301
1.802 -0.403 1.486 11570
1.843 -0.412 1.508 13972
1.847 -0.413 1.502 13858
1.864 -0.417 1.506 11274
1.867 -0.418 1.500 13030
1.878 -0.420 1.499 13725
1.900 -0.425 1.507 12960
1.904 -0.426 1.501 12428
1.915 -0.428 1.500 13396
1.931 -0.432 1.503 14335
1.948 -0.436 1.506 23013
1.952 -0.436 1.500 29752
1.956 -0.437 1.494 30186
1.959 -0.438 1.488 25194
1.963 -0.439 1.482 14429
1.973 -0.441 1.480 9243
1.977 -0.442 1.474 10696
1.988 -0.444 1.473 14318
1.998 -0.447 1.471 16190
2.002 -0.448 1.465 15136
2.012 -0.450 1.463 12601
2.035 -0.455 1.470 13629
2.046 -0.457 1.468 15373
2.056 -0.460 1.466 15366
2.066 -0.462 1.464 11867
2.070 -0.463 1.457 7966
2.080 -0.465 1.455 7465
2.117 -0.473 1.469 9750
2.121 -0.474 1.463 11614
2.131 -0.477 1.461 11418
2.148 -0.480 1.462 11570
2.152 -0.481 1.456 11466
2.162 -0.483 1.453 10279
2.186 -0.489 1.459 6417
2.203 -0.493 1.460 5089
2.207 -0.493 1.453 6812
2.204 -0.493 1.443 8677
2.214 -0.495 1.440 8155
2.245 -0.502 1.449 8812
2.255 -0.504 1.446 9539
2.259 -0.505 1.439 8724
2.270 -0.507 1.436 8273
2.280 -0.510 1.433 8232
2.284 -0.511 1.426 8261
2.308 -0.516 1.430 8221
2.318 -0.518 1.427 8634
2.322 -0.519 1.420 8694
2.325 -0.520 1.413 6611
2.439 -0.545 1.465 7140
2.442 -0.546 1.457 8660
2.446 -0.547 1.450 10179
2.436 -0.545 1.435 9504
2.433 -0.544 1.424 9376
2.436 -0.545 1.417 9772
2.440 -0.546 1.410 10169
2.457 -0.549 1.409 9037
2.468 -0.552 1.405 8357
2.465 -0.551 1.394 6229
2.461 -0.550 1.384 4273
2.576 -0.576 1.431 4364
2.587 -0.578 1.427 5313
2.604 -0.582 1.426 7121
2.608 -0.583 1.418 9124
2.611 -0.584 1.410 9124
2.622 -0.586 1.405 7988
2.626 -0.587 1.398 6904
2.678 -0.599 1.413 8266
2.689 -0.601 1.408 10255
2.692 -0.602 1.400 9124
2.703 -0.604 1.395 8097
2.700 -0.604 1.384 5655
2.795 -0.625 1.417 3713
2.799 -0.626 1.408 3713
2.802 -0.627 1.400 4290
2.806 -0.627 1.391 4867
2.809 -0.628 1.383 2433
1.425 -0.319 0.774 889
0.625 -0.141 1.605 54407
0.630 -0.142 1.603 55133
0.634 -0.143 1.601 55859
0.638 -0.144 1.599 52470
0.642 -0.145 1.597 49081
0.646 -0.146 1.595 39760
0.650 -0.147 1.593 28991
0.651 -0.147 1.584 28259
0.655 -0.148 1.582 25653
0.663 -0.150 1.587 23632
0.667 -0.151 1.585 20372
0.674 -0.152 1.590 17758
0.682 -0.154 1.595 13481
0.686 -0.155 1.593 9511
0.693 -0.157 1.598 10912
0.698 -0.157 1.596 12409
0.702 -0.158 1.593 13924
0.709 -0.160 1.598 16170
0.717 -0.162 1.603 15532
0.721 -0.163 1.601 13533
0.725 -0.164 1.599 12399
0.726 -0.164 1.589 10729
0.726 -0.164 1.580 10680
0.734 -0.166 1.585 13824
0.742 -0.167 1.590 17178
0.746 -0.168 1.587 18312
0.754 -0.170 1.592 15479
0.758 -0.171 1.590 11991
0.766 -0.173 1.594 10605
0.770 -0.174 1.592 9108
0.778 -0.176 1.596 11363
0.786 -0.177 1.601 13969
0.794 -0.179 1.605 15033
0.802 -0.181 1.610 16509
0.798 -0.180 1.594 17298
0.798 -0.180 1.584 17616
0.806 -0.182 1.589 16262
0.814 -0.184 1.593 13265
0.822 -0.186 1.597 10489
0.830 -0.187 1.602 11615
0.838 -0.189 1.606 13083
0.843 -0.190 1.603 12816
0.843 -0.190 1.594 13056
0.839 -0.189 1.578 14571
0.847 -0.191 1.582 13760
0.851 -0.192 1.579 14153
0.855 -0.193 1.577 15227
0.859 -0.194 1.574 15056
0.863 -0.195 1.571 13322
0.884 -0.200 1.595 13658
0.880 -0.199 1.579 19165
0.884 -0.200 1.577 21990
0.892 -0.201 1.581 21065
0.904 -0.204 1.591 17473
0.926 -0.209 1.615 19643
0.926 -0.209 1.605 17516
0.917 -0.207 1.583 13129
0.925 -0.209 1.587 13632
0.938 -0.212 1.597 18327
0.946 -0.214 1.601 16773
0.955 -0.216 1.604 18270
0.963 -0.218 1.608 20982
0.972 -0.219 1.611 21929
0.976 -0.220 1.608 17001
0.980 -0.221 1.605 9286
0.980 -0.221 1.596 8090
0.984 -0.222 1.593 9020
0.993 -0.224 1.596 9891
1.010 -0.228 1.612 9804
1.024 -0.231 1.622 8847
1.032 -0.233 1.625 10270
1.037 -0.234 1.622 11961
1.045 -0.236 1.626 14729
1.050 -0.237 1.622 24746
1.049 -0.237 1.613 34684
1.053 -0.238 1.610 29846
1.053 -0.238 1.600 16254
1.062 -0.240 1.603 11162
1.070 -0.242 1.606 10523
1.079 -0.244 1.609 9414
1.079 -0.244 1.600 9783
1.078 -0.243 1.590 8802
1.082 -0.244 1.587 7423
1.091 -0.246 1.590 10478
1.095 -0.247 1.586 15881
1.099 -0.248 1.583 15729
1.103 -0.249 1.580 12413
1.107 -0.250 1.576 10815
