1.365 5.957 1.176 5063
1.367 5.968 1.160 3267
1.405 6.131 1.169 3315
1.404 6.126 1.150 3625
1.430 6.243 1.150 2682
1.428 6.231 1.129 2162
1.488 6.493 1.151 2112
1.473 6.427 1.121 2066
1.412 6.163 1.062 2178
1.525 6.654 1.116 1843
1.564 6.825 1.121 2001
1.564 6.828 1.100 2232
1.607 7.014 1.105 2518
1.613 7.039 1.088 2924
1.682 7.341 1.106 2255
1.777 7.757 1.138 2187
1.774 7.744 1.113 2511
1.772 7.732 1.088 2459
1.772 7.734 1.065 2496
1.840 8.028 1.077 3152
1.838 8.023 1.052 2917
1.865 8.141 1.041 3178
1.868 8.151 1.017 2694
1.866 8.146 0.992 2230
1.865 8.141 0.967 1971
1.978 8.634 0.992 3110
1.982 8.652 0.968 4295
1.983 8.655 0.942 5131
1.982 8.649 0.915 5322
1.982 8.651 0.890 4625
1.983 8.653 0.864 2866
2.181 9.517 0.908 3174
2.181 9.519 0.880 2917
2.508 10.945 0.959 2976
2.510 10.955 0.926 3613
2.512 10.965 0.894 4059
2.513 10.967 0.862 3596
2.513 10.969 0.829 3229
2.514 10.971 0.796 3012
2.512 10.965 0.763 3300
2.513 10.967 0.730 3811
2.513 10.968 0.698 4100
2.514 10.970 0.665 3931
2.514 10.971 0.632 3472
2.514 10.973 0.600 2381
2.709 11.822 0.600 899
3.131 13.667 0.631 777
3.029 13.221 0.576 817
3.143 13.715 0.551 739
3.122 13.624 0.508 704
3.124 13.633 0.467 665
3.126 13.641 0.427 561
3.191 13.928 0.391 564
3.193 13.936 0.350 607
3.197 13.952 0.309 547
3.202 13.975 0.267 451
3.197 13.953 0.225 347
3.193 13.937 0.184 273
0.311 1.357 -0.025 252
0.462 2.004 1.574 2267
0.463 2.009 1.568 4535
0.461 2.000 1.553 4988
0.462 2.004 1.548 5793
0.465 2.014 1.546 6050
0.470 2.037 1.554 5605
0.474 2.054 1.557 6417
0.475 2.058 1.551 6168
0.476 2.062 1.545 5920
0.477 2.066 1.539 5920
0.481 2.083 1.542 8484
0.483 2.093 1.540 11607
0.487 2.110 1.543 13757
0.489 2.120 1.541 16881
0.490 2.124 1.535 17056
0.493 2.135 1.533 17609
0.493 2.139 1.527 13907
0.494 2.143 1.520 10204
0.498 2.160 1.523 8655
0.508 2.203 1.542 10661
0.508 2.200 1.531 11593
0.509 2.204 1.525 13949
0.511 2.215 1.522 15295
0.513 2.225 1.520 12457
0.516 2.236 1.518 10623
0.518 2.246 1.515 7116
0.524 2.270 1.521 4349
0.532 2.307 1.535 4976
0.535 2.317 1.532 6193
0.537 2.328 1.530 6904
0.538 2.332 1.523 7579
0.537 2.329 1.512 7676
0.535 2.320 1.497 7335
0.535 2.317 1.486 7510
0.551 2.387 1.519 6248
0.552 2.391 1.512 9373
0.553 2.395 1.505 10036
0.554 2.399 1.498 10698
0.551 2.390 1.483 8288
0.566 2.454 1.511 6749
0.562 2.438 1.492 8078
0.563 2.441 1.485 7885
0.564 2.445 1.478 7666
0.568 2.463 1.478 7675
0.575 2.494 1.486 9234
0.578 2.504 1.483 10090
0.580 2.515 1.479 8174
0.583 2.526 1.475 5532
0.585 2.536 1.471 6663
0.589 2.554 1.471 8098
0.592 2.564 1.467 9114
0.602 2.609 1.482 8655
0.604 2.620 1.478 10933
0.607 2.631 1.473 11720
0.609 2.641 1.469 11601
0.613 2.659 1.469 11322
0.619 2.683 1.471 13927
0.622 2.694 1.467 14279
0.624 2.705 1.462 11579
0.623 2.702 1.451 10556
0.623 2.698 1.440 11765
0.623 2.702 1.432 10270
0.627 2.720 1.431 7849
0.648 2.807 1.463 7477
0.649 2.811 1.455 12448
0.648 2.808 1.443 13251
0.649 2.811 1.435 12444
0.653 2.829 1.433 8966
0.667 2.889 1.451 9298
0.669 2.900 1.445 12144
0.671 2.910 1.440 10296
0.674 2.921 1.435 8262
0.675 2.925 1.426 6561
0.674 2.921 1.414 6434
0.678 2.939 1.412 6975
0.690 2.993 1.425 7252
0.693 3.003 1.419 8307
0.692 3.000 1.408 8278
0.719 3.117 1.447 8270
0.722 3.128 1.441 10046
0.724 3.139 1.435 10393
0.730 3.164 1.435 7669
0.736 3.189 1.434 4843
0.743 3.222 1.437 4712
0.744 3.225 1.427 5235
0.738 3.200 1.406 5027
0.749 3.247 1.414 6581
0.747 3.236 1.399 8994
0.749 3.247 1.392 11070
0.755 3.272 1.391 11670
0.757 3.283 1.384 8770
0.752 3.258 1.363 6769
0.774 3.355 1.389 7570
0.775 3.359 1.379 6499
0.801 3.471 1.410 4557
0.783 3.395 1.370 6613
0.784 3.398 1.360 8171
0.810 3.511 1.390 6471
0.802 3.478 1.366 6962
0.802 3.474 1.353 6439
0.823 3.565 1.374 5355
0.825 3.576 1.366 6160
0.827 3.587 1.358 7816
0.832 3.605 1.352 6915
0.834 3.616 1.344 3755
0.847 3.670 1.351 3842
0.856 3.710 1.352 5739
0.862 3.736 1.348 9741
0.864 3.747 1.340 8913
0.865 3.750 1.329 6169
0.891 3.864 1.353 5659
0.894 3.875 1.344 6407
0.895 3.878 1.332 5723
0.894 3.874 1.318 6301
0.896 3.885 1.309 5999
0.902 3.910 1.304 7047
0.903 3.914 1.293 6934
0.904 3.917 1.281 3034
0.932 4.039 1.304 3436
0.946 4.102 1.310 4798
0.947 4.105 1.297 6833
0.950 4.116 1.287 7589
0.952 4.126 1.277 5582
0.951 4.122 1.263 4004
0.971 4.207 1.273 5277
1.014 4.397 1.311 6735
1.013 4.393 1.296 5821
1.011 4.381 1.279 5611
1.013 4.392 1.268 7532
1.017 4.410 1.259 8290
1.056 4.578 1.288 6859
1.057 4.581 1.274 5979
1.058 4.584 1.261 4148
1.058 4.588 1.247 3693
1.085 4.703 1.261 3721
1.088 4.714 1.249 4177
1.087 4.710 1.233 3747
1.113 4.826 1.245 3706
1.121 4.859 1.238 5498
1.122 4.862 1.223 6192
1.124 4.873 1.210 4426
1.163 5.042 1.232 3452
1.164 5.045 1.217 4798
1.166 5.055 1.204 4672
1.211 5.247 1.229 2864
1.210 5.243 1.212 4229
1.222 5.299 1.207 3700
1.225 5.309 1.193 3840
1.245 5.396 1.193 5168
1.242 5.383 1.174 4269
1.292 5.599 1.199 3010
1.322 5.731 1.207 3489
1.323 5.734 1.190 4223
1.320 5.721 1.170 3693
1.373 5.952 1.194 4603
1.374 5.955 1.176 4633
1.376 5.966 1.160 3145
1.414 6.129 1.169 3188
1.411 6.116 1.148 3489
1.443 6.256 1.152 2560
1.423 6.168 1.119 1979
1.497 6.491 1.151 2056
1.482 6.425 1.121 2189
1.421 6.160 1.062 2053
1.508 6.537 1.099 1845
1.574 6.822 1.121 2084
1.576 6.833 1.101 2373
1.616 7.004 1.104 2619
1.624 7.037 1.088 2857
1.693 7.338 1.106 2239
1.789 7.754 1.138 2050
1.784 7.734 1.112 2373
1.781 7.721 1.087 2577
1.782 7.724 1.064 2615
1.852 8.025 1.077 2688
1.875 8.128 1.064 2851
1.878 8.138 1.041 3295
1.880 8.148 1.017 2742
1.879 8.143 0.992 2366
1.878 8.138 0.967 2199
1.993 8.639 0.993 3001
1.996 8.649 0.968 4417
1.996 8.652 0.942 5308
1.995 8.646 0.915 5477
1.995 8.648 0.890 4750
1.996 8.650 0.864 2968
2.195 9.514 0.908 2976
2.195 9.516 0.880 2844
2.524 10.941 0.959 3210
2.527 10.951 0.926 3886
2.527 10.953 0.894 4354
2.529 10.963 0.862 3797
2.530 10.965 0.829 3362
2.528 10.959 0.796 3106
2.529 10.961 0.763 3438
2.529 10.963 0.730 4018
2.530 10.965 0.698 4348
2.530 10.966 0.665 4171
2.530 10.968 0.632 3664
2.531 10.969 0.600 2500
2.531 10.970 0.567 926
3.152 13.662 0.631 761
3.049 13.216 0.576 824
3.163 13.711 0.551 718
3.140 13.612 0.508 689
3.144 13.628 0.467 652
3.146 13.637 0.427 578
3.214 13.930 0.392 669
3.216 13.939 0.350 803
3.220 13.955 0.309 871
3.221 13.963 0.267 810
3.222 13.963 0.225 607
3.222 13.963 0.184 404
3.222 13.963 0.142 257
0.465 2.004 1.574 2269
0.466 2.008 1.568 4539
0.464 1.999 1.553 4818
0.465 2.003 1.548 5391
0.468 2.014 1.546 5530
0.475 2.043 1.558 5388
0.477 2.053 1.557 6491
0.478 2.057 1.551 6362
0.479 2.061 1.545 6232
0.480 2.065 1.539 6232
0.484 2.082 1.542 8305
0.486 2.093 1.540 11033
0.490 2.109 1.543 13382
0.492 2.120 1.541 16772
0.493 2.124 1.535 16842
0.496 2.134 1.533 17273
0.497 2.138 1.527 13588
0.498 2.142 1.520 9904
0.502 2.159 1.523 8596
0.512 2.202 1.542 10454
0.511 2.199 1.531 11404
0.512 2.203 1.525 13793
0.514 2.214 1.522 15133
0.517 2.224 1.520 12266
0.521 2.241 1.522 10510
0.523 2.252 1.520 7228
0.527 2.269 1.521 4862
0.536 2.306 1.535 4763
0.538 2.316 1.532 5849
0.541 2.327 1.530 6726
0.541 2.331 1.523 7597
0.541 2.328 1.512 7620
0.539 2.319 1.497 6816
0.536 2.309 1.482 6999
0.554 2.387 1.519 6020
0.555 2.391 1.512 8874
0.556 2.394 1.505 9915
0.556 2.392 1.494 11117
0.555 2.389 1.483 8974
0.570 2.453 1.511 7104
0.568 2.444 1.496 8621
0.569 2.447 1.489 8225
0.569 2.451 1.482 7788
0.572 2.462 1.478 7388
0.582 2.506 1.494 8597
0.583 2.510 1.486 9602
0.586 2.521 1.483 8223
0.586 2.525 1.475 5984
0.589 2.535 1.471 7273
0.593 2.553 1.471 8880
0.595 2.563 1.467 9914
0.606 2.608 1.482 8596
0.608 2.619 1.478 10756
0.611 2.630 1.473 11733
0.613 2.640 1.469 11774
0.616 2.651 1.465 11200
0.623 2.682 1.471 13654
0.626 2.693 1.467 14124
0.628 2.704 1.462 11285
0.627 2.701 1.451 10077
0.627 2.697 1.440 11503
0.629 2.708 1.435 10429
0.632 2.719 1.431 8375
0.632 2.722 1.423 7083
0.653 2.810 1.455 12108
0.652 2.807 1.443 13426
0.653 2.810 1.435 12783
0.659 2.835 1.436 9304
0.671 2.888 1.451 9479
0.673 2.899 1.445 12011
0.676 2.909 1.440 10368
0.678 2.920 1.435 8474
0.679 2.924 1.426 6740
0.678 2.920 1.414 6350
0.683 2.938 1.412 6440
0.695 2.992 1.425 7179
0.699 3.009 1.423 8658
0.698 3.006 1.411 8604
0.722 3.109 1.444 7796
0.726 3.127 1.441 10265
0.729 3.138 1.435 11136
0.735 3.163 1.435 7895
0.741 3.188 1.434 4745
0.748 3.221 1.437 5192
0.751 3.231 1.430 5761
0.743 3.199 1.406 5367
0.754 3.246 1.414 7321
0.752 3.235 1.399 9711
0.754 3.246 1.392 11125
0.760 3.271 1.391 11320
0.762 3.282 1.384 8501
0.760 3.271 1.369 6848
0.779 3.354 1.389 7380
0.780 3.357 1.379 5919
0.806 3.470 1.410 4465
0.790 3.401 1.373 7004
0.789 3.397 1.360 8424
0.788 3.393 1.347 6226
0.806 3.469 1.364 6435
0.805 3.466 1.351 5859
0.828 3.564 1.374 4352
0.830 3.575 1.366 5373
0.833 3.585 1.358 7610
0.835 3.596 1.350 7022
0.840 3.614 1.344 3793
0.852 3.669 1.351 4648
0.860 3.702 1.350 6780
0.868 3.735 1.348 9991
0.870 3.745 1.340 9205
0.873 3.756 1.331 6546
0.896 3.855 1.350 6123
0.898 3.866 1.341 7115
0.901 3.877 1.332 6469
0.900 3.873 1.318 7100
0.902 3.884 1.309 6686
0.908 3.909 1.304 7576
0.909 3.912 1.293 6946
0.929 3.997 1.305 3127
0.934 4.023 1.300 3640
0.944 4.063 1.299 4132
0.952 4.096 1.295 6139
0.954 4.107 1.285 7678
0.956 4.117 1.275 6600
0.957 4.121 1.263 4190
0.979 4.213 1.275 5287
1.021 4.395 1.311 5440
1.020 4.391 1.296 4796
1.019 4.387 1.281 4938
1.022 4.398 1.270 6130
1.024 4.408 1.259 6384
1.063 4.576 1.288 6634
1.064 4.580 1.274 6001
1.063 4.575 1.259 3723
1.065 4.586 1.247 3093
1.090 4.694 1.259 4332
1.093 4.705 1.247 4596
1.094 4.708 1.233 3707
1.121 4.824 1.245 3607
1.128 4.857 1.238 5544
1.129 4.860 1.223 6264
1.130 4.863 1.209 4274
1.171 5.040 1.232 3085
1.171 5.043 1.217 4403
1.172 5.046 1.203 4223
1.217 5.238 1.227 3083
1.217 5.241 1.212 4119
1.230 5.297 1.207 3112
1.233 5.307 1.193 3606
1.255 5.401 1.195 5017
1.248 5.374 1.173 4407
1.300 5.597 1.199 2926
1.331 5.729 1.207 3437
1.331 5.732 1.190 3895
1.327 5.712 1.169 3258
1.382 5.950 1.194 4039
1.383 5.953 1.176 3917
1.384 5.956 1.158 2973
1.423 6.126 1.169 3082
1.420 6.114 1.148 3326
1.456 6.269 1.155 2668
1.432 6.165 1.119 1865
1.495 6.435 1.143 1979
1.492 6.423 1.121 2138
1.516 6.524 1.117 1903
1.518 6.535 1.099 2060
1.583 6.812 1.119 2247
1.585 6.823 1.100 2511
1.625 6.994 1.103 2674
1.632 7.027 1.087 2688
1.704 7.336 1.106 2151
1.676 7.216 1.069 2137
1.794 7.724 1.111 2291
1.791 7.711 1.086 2755
1.792 7.714 1.063 2804
1.794 7.724 1.041 2421
1.887 8.125 1.064 3060
1.888 8.128 1.040 3497
1.890 8.138 1.016 2884
1.891 8.140 0.992 2516
1.890 8.135 0.967 2370
2.006 8.636 0.993 2820
2.009 8.646 0.968 4377
2.009 8.649 0.942 5359
2.008 8.643 0.915 5531
2.008 8.645 0.890 4829
2.009 8.647 0.864 3059
2.209 9.510 0.908 2710
2.210 9.513 0.880 2745
2.541 10.937 0.959 3375
2.543 10.947 0.926 4062
2.544 10.950 0.894 4536
2.546 10.959 0.862 3923
2.545 10.954 0.828 3446
2.545 10.956 0.796 3167
2.545 10.957 0.763 3517
2.546 10.959 0.730 4145
2.546 10.961 0.698 4503
2.547 10.962 0.665 4320
2.547 10.964 0.632 3777
2.547 10.965 0.600 2569
2.548 10.966 0.567 949
3.069 13.210 0.615 800
3.069 13.211 0.576 869
3.068 13.205 0.536 749
3.241 13.954 0.517 845
3.242 13.955 0.475 659
3.165 13.624 0.427 593
3.165 13.625 0.386 545
3.167 13.633 0.345 421
3.233 13.919 0.308 331
3.235 13.927 0.267 346
3.239 13.943 0.225 291
3.246 13.974 0.184 281
0.311 1.341 -0.023 320
0.470 2.003 1.574 2285
0.470 2.007 1.568 4571
0.470 2.005 1.558 4677
0.469 2.002 1.548 4976
0.470 2.006 1.542 4993
0.479 2.042 1.558 5176
0.481 2.052 1.557 6398
0.482 2.056 1.551 6442
0.482 2.054 1.540 6543
0.482 2.058 1.534 6543
0.488 2.081 1.542 8124
0.490 2.092 1.540 10492
0.494 2.108 1.543 12990
0.497 2.119 1.541 16603
0.498 2.123 1.535 16539
0.500 2.133 1.533 16806
0.501 2.137 1.527 13139
0.502 2.141 1.520 9473
0.504 2.151 1.518 8413
0.516 2.201 1.542 9890
0.517 2.205 1.535 10875
0.516 2.202 1.525 13245
0.519 2.213 1.522 14566
0.521 2.223 1.520 11779
0.525 2.240 1.522 10210
0.528 2.251 1.520 7295
0.532 2.268 1.521 5083
0.540 2.305 1.535 4357
0.543 2.315 1.532 5373
0.545 2.326 1.530 6442
0.546 2.330 1.523 7538
0.547 2.334 1.516 7525
0.543 2.318 1.497 6172
0.540 2.302 1.478 6407
0.559 2.385 1.519 5936
0.560 2.389 1.512 8591
0.559 2.387 1.501 10050
0.559 2.384 1.490 11854
0.558 2.381 1.479 9847
0.575 2.452 1.511 7579
0.574 2.449 1.500 9273
0.573 2.446 1.489 8671
0.574 2.450 1.482 7964
0.577 2.461 1.478 7108
0.589 2.512 1.497 7946
0.590 2.516 1.490 9024
0.591 2.520 1.483 8269
0.592 2.523 1.475 6437
0.594 2.534 1.471 7872
0.598 2.552 1.471 9613
0.601 2.562 1.467 10604
0.606 2.586 1.471 8595
0.614 2.618 1.478 10414
0.616 2.628 1.473 11608
0.619 2.639 1.469 11819
0.621 2.650 1.465 10951
0.629 2.681 1.471 13222
0.631 2.692 1.467 13710
0.634 2.703 1.462 10809
0.633 2.699 1.451 9524
0.632 2.696 1.440 11116
0.635 2.707 1.435 10525
0.637 2.717 1.431 8960
0.638 2.721 1.423 7691
0.657 2.802 1.451 11687
0.658 2.805 1.443 13383
0.658 2.809 1.435 12833
0.664 2.834 1.436 9658
0.677 2.887 1.451 9568
0.679 2.897 1.445 11657
0.682 2.908 1.440 10130
0.684 2.919 1.435 8358
0.685 2.923 1.426 6720
0.684 2.919 1.414 6259
0.688 2.937 1.412 6078
0.701 2.990 1.425 7174
0.705 3.008 1.423 9030
0.706 3.012 1.414 8885
0.727 3.101 1.441 7610
0.733 3.126 1.441 10399
0.735 3.136 1.435 11660
0.741 3.162 1.435 8250
0.747 3.187 1.434 4816
0.755 3.219 1.437 5582
0.757 3.230 1.430 6172
0.760 3.241 1.423 5762
0.761 3.244 1.414 8036
0.758 3.234 1.399 10531
0.761 3.244 1.392 11377
0.766 3.269 1.391 10929
0.769 3.280 1.384 8029
0.768 3.277 1.371 7005
0.784 3.345 1.386 6961
0.787 3.356 1.379 5163
0.811 3.461 1.407 4416
0.797 3.399 1.373 7161
0.796 3.395 1.360 8407
0.797 3.399 1.350 6197
0.810 3.453 1.358 6356
0.810 3.457 1.348 5655
0.835 3.562 1.374 3343
0.838 3.573 1.366 4584
0.840 3.584 1.358 7317
0.843 3.594 1.350 7005
0.847 3.613 1.344 3759
0.860 3.667 1.351 5278
0.867 3.700 1.350 7854
0.873 3.725 1.346 10282
0.878 3.744 1.340 9231
0.884 3.769 1.336 7008
0.886 3.780 1.327 6702
0.904 3.857 1.339 7423
0.907 3.868 1.330 6949
0.907 3.871 1.318 7674
0.910 3.882 1.309 7201
0.916 3.907 1.304 7802
0.917 3.910 1.293 6835
0.924 3.943 1.290 2980
0.943 4.021 1.300 3291
0.950 4.054 1.297 4109
0.960 4.094 1.295 6323
0.962 4.105 1.285 7369
0.963 4.108 1.273 5700
0.986 4.208 1.288 3765
0.989 4.219 1.277 5474
1.030 4.393 1.311 4479
1.031 4.397 1.298 4669
1.030 4.392 1.283 5302
1.030 4.396 1.270 5904
1.033 4.406 1.259 6001
1.072 4.574 1.288 6602
1.073 4.577 1.274 6001
1.072 4.573 1.259 3196
1.099 4.689 1.273 3044
1.100 4.692 1.259 4831
1.102 4.703 1.247 5011
1.101 4.698 1.231 3715
1.132 4.829 1.247 3509
1.138 4.855 1.238 5466
1.139 4.858 1.223 6139
1.136 4.846 1.205 4188
1.179 5.030 1.231 2870
1.182 5.040 1.217 4089
1.189 5.074 1.209 3923
1.227 5.235 1.227 3065
1.228 5.238 1.212 3914
1.225 5.226 1.193 2913
1.244 5.305 1.193 3227
1.266 5.399 1.195 4728
1.259 5.371 1.173 4532
1.258 5.367 1.156 2874
1.342 5.726 1.207 3536
1.343 5.729 1.190 4096
1.338 5.709 1.169 3208
1.392 5.940 1.192 3532
1.365 5.821 1.153 3559
1.396 5.953 1.158 3051
1.437 6.131 1.170 3007
1.434 6.119 1.150 3047
1.469 6.266 1.155 2765
1.445 6.163 1.119 1894
1.504 6.417 1.140 2048
1.505 6.420 1.121 2205
1.529 6.521 1.117 1956
1.531 6.532 1.099 2181
1.594 6.802 1.118 2391
1.597 6.812 1.099 2676
1.637 6.983 1.102 2763
1.646 7.024 1.087 2504
1.719 7.332 1.106 1995
1.691 7.212 1.069 2261
1.810 7.720 1.111 2239
1.807 7.707 1.086 2914
1.807 7.710 1.063 2968
1.808 7.713 1.040 2459
1.904 8.121 1.064 3264
1.904 8.124 1.040 3700
1.907 8.134 1.016 3009
1.907 8.136 0.992 2595
1.906 8.131 0.967 2436
2.024 8.632 0.993 2679
2.026 8.642 0.968 4268
2.025 8.637 0.941 5242
2.025 8.639 0.915 5330
2.026 8.641 0.890 4692
2.026 8.643 0.864 3024
2.075 8.853 0.855 2775
2.078 8.862 0.829 2640
2.563 10.932 0.959 3456
2.563 10.935 0.926 4147
2.566 10.944 0.894 4607
2.568 10.954 0.862 3949
2.567 10.948 0.828 3449
2.567 10.950 0.796 3143
2.567 10.952 0.763 3510
2.568 10.954 0.730 4182
2.568 10.956 0.698 4565
2.569 10.957 0.665 4385
2.569 10.959 0.632 3823
2.569 10.960 0.600 2593
2.570 10.961 0.567 952
3.097 13.212 0.616 853
3.096 13.205 0.576 908
3.094 13.199 0.536 783
3.094 13.200 0.497 671
3.190 13.609 0.467 636
3.192 13.618 0.427 602
3.265 13.927 0.392 728
3.263 13.920 0.350 611
3.263 13.920 0.308 400
3.272 13.959 0.267 428
3.271 13.952 0.225 362
3.267 13.937 0.184 332
0.316 1.348 -0.020 270
0.314 1.340 -0.023 371
0.471 2.002 1.574 2239
0.472 2.007 1.568 4479
0.473 2.011 1.563 4502
0.473 2.008 1.552 4525
0.472 2.006 1.542 4455
0.480 2.042 1.558 5027
0.484 2.058 1.561 6340
0.484 2.056 1.551 6511
0.482 2.047 1.536 6840
0.484 2.058 1.534 6818
0.490 2.081 1.542 7985
0.492 2.091 1.540 10016
0.496 2.108 1.543 12601
0.498 2.118 1.541 16374
0.499 2.122 1.535 16143
0.502 2.133 1.533 16234
0.503 2.137 1.527 12583
0.504 2.141 1.520 8932
0.506 2.151 1.518 8214
0.518 2.200 1.542 9169
0.519 2.204 1.535 10202
0.518 2.202 1.525 12564
0.521 2.212 1.522 13863
0.523 2.223 1.520 11236
0.527 2.240 1.522 9855
0.530 2.250 1.520 7387
0.532 2.261 1.517 5395
0.528 2.245 1.498 3902
0.545 2.315 1.532 4691
0.547 2.325 1.530 5912
0.548 2.329 1.523 7187
0.549 2.333 1.516 7206
0.545 2.317 1.497 5485
0.541 2.301 1.478 5825
0.561 2.385 1.519 5887
0.561 2.382 1.508 8395
0.560 2.379 1.497 10355
0.559 2.377 1.486 12670
0.560 2.380 1.479 10625
0.577 2.452 1.511 7962
0.576 2.449 1.500 9830
0.577 2.453 1.493 8997
0.576 2.450 1.482 8024
0.579 2.460 1.478 6782
0.591 2.511 1.497 7298
0.592 2.515 1.490 8425
0.593 2.519 1.483 8148
0.594 2.523 1.475 6744
0.596 2.534 1.471 8363
0.600 2.551 1.471 10312
0.603 2.562 1.467 11262
0.607 2.579 1.467 8867
0.616 2.617 1.478 10005
0.618 2.628 1.473 11376
0.621 2.639 1.469 11767
0.623 2.649 1.465 10660
0.631 2.681 1.471 12705
0.633 2.691 1.467 13120
0.636 2.702 1.462 10171
0.635 2.699 1.451 8916
0.634 2.696 1.440 10750
0.637 2.706 1.435 10756
0.641 2.724 1.434 9739
0.640 2.721 1.423 8403
0.659 2.801 1.451 11003
0.660 2.805 1.443 13127
0.663 2.815 1.438 12802
0.668 2.840 1.440 9985
0.679 2.886 1.451 9460
0.682 2.897 1.445 11089
0.684 2.908 1.440 9650
0.687 2.918 1.435 7966
0.688 2.922 1.426 6642
0.687 2.919 1.414 6446
0.691 2.936 1.412 6104
0.703 2.990 1.425 7294
0.708 3.007 1.423 9566
0.710 3.018 1.417 9444
0.716 3.043 1.417 7883
0.735 3.125 1.441 10344
0.738 3.136 1.435 11975
0.744 3.161 1.435 8649
0.750 3.186 1.434 5083
0.757 3.218 1.437 5948
0.760 3.229 1.430 6524
0.754 3.204 1.409 6221
0.763 3.244 1.414 8617
0.761 3.233 1.399 11194
0.763 3.244 1.392 11487
0.769 3.269 1.391 10375
0.772 3.280 1.384 7606
0.771 3.276 1.371 7197
0.777 3.301 1.370 7339
0.778 3.305 1.360 5310
0.778 3.308 1.350 4463
0.800 3.398 1.373 7168
0.799 3.395 1.360 8438
0.800 3.398 1.350 6253
0.812 3.453 1.358 6594
0.813 3.456 1.348 5602
0.816 3.467 1.340 3262
0.842 3.580 1.368 3913
0.843 3.583 1.358 7008
0.844 3.586 1.347 6960
0.869 3.692 1.371 4173
0.866 3.681 1.356 5948
0.870 3.699 1.350 8789
0.876 3.725 1.346 10616
0.881 3.743 1.340 9314
0.888 3.776 1.338 7887
0.888 3.772 1.324 7686
0.907 3.856 1.339 7607
0.910 3.867 1.330 7252
0.912 3.878 1.321 8137
0.913 3.881 1.309 7483
0.919 3.906 1.304 7777
0.922 3.917 1.295 6554
0.938 3.987 1.303 2960
0.944 4.013 1.298 3160
0.954 4.053 1.297 3872
0.963 4.093 1.295 6438
0.966 4.104 1.285 7872
0.966 4.107 1.273 6302
0.992 4.215 1.290 3993
0.994 4.225 1.279 5726
0.995 4.229 1.267 4212
1.036 4.403 1.300 3985
1.032 4.384 1.281 5238
1.036 4.402 1.272 5277
1.077 4.577 1.303 4451
1.076 4.573 1.288 6600
1.077 4.577 1.274 6038
1.076 4.572 1.259 2675
1.103 4.688 1.273 3370
1.104 4.691 1.259 4951
1.106 4.702 1.247 4963
1.105 4.697 1.231 3545
1.136 4.828 1.247 3198
1.142 4.854 1.238 4886
1.141 4.849 1.222 5782
1.138 4.837 1.204 4304
1.182 5.021 1.229 2648
1.188 5.047 1.219 3756
1.195 5.080 1.211 3760
1.232 5.234 1.227 3054
1.231 5.230 1.210 3692
1.222 5.195 1.187 2773
1.271 5.402 1.212 2929
1.270 5.398 1.195 4351
1.264 5.370 1.173 4241
1.261 5.358 1.154 2964
1.347 5.725 1.207 3450
1.346 5.720 1.188 4164
1.343 5.708 1.169 3406
1.372 5.832 1.173 3019
1.370 5.820 1.153 3390
1.377 5.853 1.141 3206
1.414 6.008 1.150 2968
1.441 6.125 1.151 2796
1.476 6.273 1.156 2821
1.448 6.154 1.118 1980
1.510 6.415 1.140 2161
1.528 6.494 1.133 2324
1.532 6.513 1.116 2126
1.537 6.531 1.099 2245
1.600 6.800 1.118 2546
1.603 6.811 1.099 2854
1.641 6.974 1.101 2906
1.651 7.015 1.086 2339
1.694 7.201 1.089 2005
1.697 7.211 1.069 2411
1.814 7.711 1.110 2176
1.813 7.706 1.086 3030
1.814 7.709 1.063 3106
1.813 7.703 1.040 2514
1.911 8.120 1.064 3364
1.911 8.122 1.040 3802
1.914 8.132 1.016 3059
1.914 8.135 0.992 2617
1.913 8.130 0.967 2459
2.081 8.845 1.014 2651
2.033 8.640 0.968 4241
2.032 8.635 0.941 5104
2.032 8.637 0.915 5032
2.033 8.640 0.890 4407
2.082 8.849 0.881 3066
2.083 8.851 0.855 2909
2.085 8.861 0.829 2817
2.572 10.930 0.959 3456
2.573 10.932 0.926 4149
2.575 10.942 0.894 4612
2.577 10.952 0.862 3937
2.576 10.946 0.828 3430
2.576 10.948 0.796 3099
2.577 10.950 0.763 3464
2.577 10.952 0.730 4160
2.577 10.953 0.698 4548
2.578 10.955 0.665 4359
2.578 10.956 0.632 3783
2.578 10.958 0.600 2560
2.579 10.959 0.567 935
3.108 13.209 0.616 907
3.107 13.203 0.576 949
3.105 13.196 0.536 809
3.105 13.197 0.497 692
3.202 13.606 0.467 619
3.204 13.615 0.427 606
3.284 13.955 0.392 611
3.282 13.948 0.350 604
3.279 13.933 0.309 604
3.277 13.926 0.267 613
3.279 13.934 0.225 467
3.279 13.934 0.184 324
0.315 1.340 -0.019 289
0.314 1.332 -0.022 407
0.476 2.008 1.579 2186
0.477 2.012 1.573 4373
0.476 2.010 1.563 4288
0.477 2.014 1.557 4122
0.481 2.030 1.560 4055
0.485 2.047 1.563 5057
0.488 2.058 1.561 6381
0.487 2.055 1.551 6618
0.486 2.053 1.540 7040
0.487 2.057 1.534 7040
0.493 2.080 1.542 7831
0.495 2.090 1.540 9412
0.501 2.114 1.547 12199
0.502 2.118 1.541 15985
0.504 2.128 1.539 15667
0.505 2.132 1.533 15589
0.506 2.136 1.527 11978
0.507 2.140 1.520 8367
0.510 2.150 1.518 8041
0.521 2.200 1.542 8465
0.522 2.204 1.535 9541
0.522 2.201 1.525 11881
0.524 2.211 1.522 13137
0.527 2.222 1.520 10651
0.531 2.239 1.522 9390
0.533 2.249 1.520 7425
0.536 2.260 1.517 5702
0.533 2.251 1.502 4374
0.548 2.314 1.532 4062
0.551 2.325 1.530 5435
0.553 2.335 1.527 6929
0.554 2.339 1.520 7097
0.557 2.350 1.517 5161
0.544 2.294 1.474 5243
0.562 2.371 1.511 6016
0.563 2.375 1.504 8592
0.562 2.372 1.493 10949
0.563 2.376 1.486 13347
0.562 2.373 1.476 11403
0.581 2.451 1.511 8329
0.580 2.448 1.500 10379
0.581 2.452 1.493 9478
0.580 2.449 1.482 8172
0.583 2.459 1.478 6459
0.597 2.517 1.501 6646
0.597 2.521 1.494 7764
0.597 2.518 1.483 7954
0.598 2.522 1.475 7006
0.600 2.533 1.471 8847
0.604 2.550 1.471 11047
0.607 2.561 1.467 11963
0.611 2.578 1.467 9168
0.622 2.623 1.481 9376
0.623 2.627 1.473 10824
0.625 2.638 1.469 11440
0.628 2.648 1.465 10259
0.635 2.680 1.471 12096
0.639 2.697 1.470 12402
0.640 2.701 1.462 9555
0.639 2.698 1.451 8439
0.639 2.695 1.440 10541
0.641 2.705 1.435 11097
0.645 2.723 1.434 10520
0.644 2.720 1.423 8927
0.664 2.800 1.451 10252
0.664 2.804 1.443 12743
0.667 2.814 1.438 12721
0.674 2.846 1.443 10476
0.684 2.885 1.451 9283
0.686 2.896 1.445 10305
0.689 2.906 1.440 8826
0.691 2.917 1.435 7217
0.692 2.921 1.426 6407
0.693 2.925 1.418 6597
0.696 2.935 1.412 6122
0.708 2.988 1.425 7617
0.714 3.013 1.426 10193
0.715 3.017 1.417 10062
0.723 3.049 1.420 8363
0.739 3.117 1.438 10119
0.743 3.135 1.435 11913
0.747 3.153 1.432 9151
0.739 3.121 1.408 5635
0.762 3.217 1.437 6139
0.765 3.228 1.430 6767
0.759 3.203 1.409 6894
0.767 3.235 1.411 9295
0.766 3.232 1.399 11991
0.768 3.242 1.392 11534
0.774 3.268 1.391 9580
0.777 3.278 1.384 7252
0.778 3.282 1.374 7627
0.782 3.300 1.370 7867
0.783 3.303 1.360 5666
0.818 3.452 1.404 4638
0.805 3.397 1.373 7069
0.804 3.393 1.360 8267
0.807 3.404 1.353 6141
0.818 3.451 1.358 6602
0.819 3.455 1.348 5478
0.821 3.465 1.340 3480
0.853 3.600 1.376 3621
0.849 3.582 1.358 6891
0.850 3.585 1.347 7119
0.873 3.684 1.369 4720
0.874 3.687 1.358 6899
0.876 3.698 1.350 9977
0.881 3.716 1.343 11114
0.887 3.741 1.340 9300
0.896 3.782 1.340 9009
0.895 3.778 1.327 8562
0.912 3.847 1.337 8007
0.916 3.865 1.330 7590
0.919 3.876 1.321 8548
0.919 3.879 1.309 7532
0.925 3.905 1.304 7348
0.930 3.923 1.297 6060
0.944 3.986 1.303 3121
0.952 4.018 1.300 3583
0.958 4.044 1.295 3976
0.966 4.077 1.291 5609
0.972 4.102 1.285 7493
0.975 4.113 1.275 7207
0.974 4.109 1.261 4430
1.003 4.231 1.281 5923
1.003 4.234 1.269 4199
1.047 4.417 1.304 3462
1.039 4.383 1.281 5569
1.041 4.393 1.270 5641
1.083 4.568 1.301 4750
1.083 4.572 1.288 6502
1.084 4.575 1.274 5997
1.113 4.698 1.290 2471
1.112 4.694 1.275 3681
1.113 4.697 1.261 4966
1.112 4.692 1.245 4889
1.111 4.688 1.229 3315
1.142 4.819 1.245 2960
1.148 4.845 1.236 4532
1.149 4.848 1.222 5501
1.144 4.828 1.202 4444
1.184 4.997 1.224 2629
1.203 5.075 1.226 3446
1.203 5.078 1.211 3391
1.238 5.225 1.226 2798
1.239 5.228 1.210 3214
1.229 5.186 1.185 2571
1.249 5.272 1.187 2744
1.250 5.275 1.171 3902
1.270 5.361 1.171 4071
1.269 5.356 1.154 3003
1.356 5.723 1.207 3485
1.355 5.718 1.188 4251
1.352 5.706 1.169 3332
1.382 5.830 1.173 3163
1.384 5.841 1.157 3395
1.387 5.851 1.141 3556
1.421 5.998 1.148 3120
1.453 6.131 1.152 2576
1.486 6.270 1.156 2761
1.494 6.304 1.142 2041
1.518 6.405 1.139 2233
1.538 6.492 1.133 2522
1.541 6.502 1.115 2215
1.547 6.528 1.099 2278
1.613 6.805 1.119 2698
1.613 6.808 1.099 2982
1.652 6.971 1.101 3160
1.658 6.997 1.084 2277
1.706 7.198 1.089 2052
1.708 7.208 1.069 2531
1.827 7.708 1.110 2116
1.825 7.703 1.086 3119
1.826 7.706 1.063 3202
1.825 7.701 1.040 2611
1.922 8.109 1.063 3464
1.924 8.119 1.040 3883
1.925 8.122 1.016 3120
1.927 8.132 0.992 2617
1.926 8.126 0.967 2433
2.095 8.842 1.014 2608
2.047 8.637 0.968 4107
2.046 8.632 0.941 4939
2.046 8.634 0.915 4784
2.047 8.636 0.890 4133
2.096 8.846 0.881 3176
2.097 8.848 0.855 3002
2.099 8.857 0.829 2940
2.589 10.926 0.959 3372
2.590 10.928 0.926 4046
2.592 10.938 0.894 4490
2.594 10.948 0.862 3820
2.593 10.942 0.828 3329
2.594 10.944 0.796 2987
2.594 10.946 0.763 3350
2.594 10.948 0.730 4054
2.595 10.949 0.698 4454
2.595 10.951 0.665 4282
2.595 10.952 0.632 3710
2.596 10.954 0.600 2502
2.835 11.963 0.606 941
3.129 13.204 0.616 921
3.128 13.198 0.576 951
3.128 13.199 0.536 816
3.126 13.192 0.497 712
3.223 13.601 0.467 601
3.225 13.610 0.427 604
3.227 13.618 0.386 603
3.227 13.619 0.345 432
3.290 13.881 0.308 266
0.320 1.350 -0.001 326
0.320 1.349 -0.005 339
0.320 1.349 -0.009 434
0.320 1.348 -0.013 526
0.319 1.348 -0.017 580
0.319 1.348 -0.020 633
0.319 1.347 -0.024 847
0.479 2.007 1.579 2082
0.480 2.011 1.573 4165
0.481 2.015 1.567 4080
0.482 2.019 1.561 3967
0.486 2.036 1.564 4154
0.490 2.053 1.567 5196
0.492 2.063 1.566 6507
0.491 2.061 1.555 6746
0.489 2.052 1.540 7254
0.490 2.056 1.534 7254
0.496 2.079 1.542 7645
0.498 2.090 1.540 8737
0.504 2.113 1.547 11767
0.505 2.117 1.541 15453
0.507 2.127 1.539 15152
0.508 2.131 1.533 14860
0.509 2.135 1.527 11311
0.510 2.139 1.520 7762
0.513 2.149 1.518 7815
0.515 2.160 1.516 8103
0.525 2.203 1.535 8836
0.526 2.207 1.529 11063
0.527 2.211 1.522 12235
0.530 2.221 1.520 9940
0.534 2.238 1.522 8823
0.536 2.249 1.520 7424
0.537 2.253 1.513 6107
0.537 2.250 1.502 4998
0.552 2.313 1.532 3385
0.553 2.317 1.526 4968
0.557 2.334 1.527 6741
0.559 2.345 1.524 7074
0.562 2.356 1.521 5308
0.545 2.286 1.470 4739
0.564 2.363 1.507 6421
0.564 2.367 1.500 9185
0.564 2.364 1.489 11552
0.565 2.368 1.482 14026
0.566 2.372 1.476 11997
0.584 2.450 1.511 8665
0.585 2.454 1.504 10871
0.584 2.451 1.493 9891
0.585 2.455 1.486 8267
0.586 2.458 1.478 6016
0.600 2.516 1.501 5934
0.601 2.520 1.494 7030
0.602 2.524 1.486 7626
0.601 2.521 1.475 7135
0.604 2.532 1.471 9173
0.608 2.549 1.471 11587
0.610 2.560 1.467 12402
0.613 2.570 1.464 9335
0.625 2.622 1.481 8701
0.628 2.633 1.477 10146
0.629 2.637 1.469 10884
0.631 2.647 1.465 9769
0.639 2.679 1.471 11415
0.643 2.696 1.470 11536
0.644 2.700 1.462 8939
0.640 2.683 1.444 8208
0.642 2.694 1.440 10539
0.645 2.704 1.435 11596
0.649 2.722 1.434 11356
0.650 2.726 1.426 9676
0.667 2.799 1.451 9805
0.670 2.810 1.446 12533
0.673 2.820 1.441 12679
0.678 2.845 1.443 10914
0.686 2.877 1.447 9035
0.690 2.895 1.445 9512
0.693 2.905 1.440 7897
0.695 2.916 1.435 6297
0.696 2.920 1.426 5985
0.697 2.924 1.418 6564
0.701 2.941 1.415 6105
0.712 2.987 1.425 7969
0.718 3.012 1.426 10907
0.721 3.023 1.420 10652
0.727 3.048 1.420 8629
0.743 3.116 1.438 9597
0.747 3.134 1.435 11315
0.748 3.137 1.426 9248
0.746 3.127 1.411 6623
0.767 3.216 1.437 6332
0.769 3.227 1.430 6964
0.764 3.202 1.409 7367
0.771 3.234 1.411 9978
0.770 3.231 1.399 12675
0.773 3.241 1.392 11431
0.779 3.267 1.391 8641
0.781 3.277 1.384 6912
0.782 3.281 1.374 7986
0.787 3.299 1.370 8197
0.787 3.302 1.360 5920
0.823 3.450 1.404 5009
0.810 3.396 1.373 6784
0.811 3.400 1.363 7837
0.820 3.439 1.366 6051
0.821 3.443 1.356 6907
0.824 3.454 1.348 5680
0.828 3.472 1.343 3934
0.860 3.606 1.379 3941
0.854 3.580 1.358 6944
0.855 3.584 1.347 7390
0.878 3.682 1.369 5181
0.879 3.686 1.358 7770
0.881 3.697 1.350 11183
0.886 3.715 1.343 11950
0.892 3.740 1.340 9600
0.901 3.780 1.340 10027
0.901 3.776 1.327 9147
0.915 3.839 1.334 8745
0.920 3.857 1.327 7983
0.924 3.875 1.321 8640
0.925 3.878 1.309 7419
0.931 3.904 1.304 6840
0.935 3.922 1.297 5499
0.950 3.984 1.303 3198
0.960 4.025 1.302 4196
0.964 4.043 1.295 4168
0.974 4.083 1.293 5095
0.978 4.101 1.285 6948
0.980 4.112 1.275 7156
0.979 4.108 1.261 4311
1.009 4.230 1.281 5912
1.011 4.240 1.271 4095
1.051 4.408 1.302 3135
1.043 4.374 1.279 5519
1.044 4.377 1.266 5143
1.089 4.567 1.301 5158
1.090 4.570 1.288 6505
1.091 4.573 1.274 6003
1.118 4.689 1.289 2940
1.119 4.692 1.275 3901
1.120 4.695 1.261 4795
1.120 4.698 1.247 4562
1.139 4.777 1.250 3326
1.174 4.922 1.269 2850
1.155 4.843 1.236 4009
1.156 4.846 1.222 5145
1.151 4.827 1.202 4641
1.191 4.995 1.224 2633
1.210 5.074 1.226 3040
1.211 5.077 1.211 2832
1.244 5.215 1.224 2601
1.246 5.226 1.210 2803
1.236 5.184 1.185 2591
1.255 5.262 1.185 2725
1.256 5.265 1.169 3887
1.278 5.359 1.171 3676
1.259 5.279 1.140 2978
1.366 5.728 1.208 3258
1.311 5.496 1.148 4216
1.310 5.492 1.130 3720
1.390 5.828 1.173 3194
1.392 5.839 1.157 3415
1.395 5.849 1.141 3645
1.421 5.958 1.142 3176
1.461 6.128 1.152 2563
1.497 6.276 1.157 2855
1.503 6.302 1.142 2370
1.527 6.403 1.139 2364
1.548 6.490 1.133 2333
1.550 6.500 1.115 2009
1.620 6.793 1.139 2385
1.622 6.803 1.119 2877
1.623 6.806 1.099 3147
1.662 6.969 1.101 3379
1.661 6.964 1.079 2332
1.716 7.196 1.089 2105
1.718 7.206 1.069 2664
1.723 7.224 1.049 2147
1.836 7.700 1.086 3155
1.835 7.695 1.062 3242
1.836 7.698 1.040 2655
1.933 8.106 1.063 3571
1.934 8.109 1.039 3934
1.936 8.119 1.016 3129
1.938 8.129 0.992 2578
1.939 8.131 0.968 2376
2.108 8.839 1.014 2475
2.059 8.634 0.968 3792
2.058 8.629 0.941 4609
2.058 8.631 0.915 4435
2.059 8.633 0.890 3836
2.109 8.843 0.881 3200
2.111 8.852 0.856 3017
2.111 8.854 0.829 2985
2.605 10.922 0.959 3190
2.605 10.925 0.926 3856
2.607 10.935 0.894 4326
2.610 10.944 0.862 3690
2.608 10.939 0.828 3208
2.609 10.941 0.796 2834
2.609 10.942 0.763 3150
2.610 10.944 0.730 3841
2.610 10.946 0.698 4238
2.610 10.947 0.665 4067
2.611 10.949 0.632 3498
2.611 10.950 0.600 2355
2.852 11.959 0.606 1033
2.854 11.968 0.571 961
3.148 13.201 0.576 951
3.146 13.194 0.536 800
3.145 13.188 0.497 684
3.242 13.597 0.467 569
3.244 13.605 0.427 566
3.312 13.891 0.391 582
3.311 13.884 0.350 540
3.313 13.892 0.308 422
3.316 13.908 0.267 386
3.318 13.916 0.225 317
3.320 13.924 0.184 259
0.322 1.350 0.003 254
0.322 1.349 -0.001 381
0.322 1.349 -0.005 402
0.322 1.348 -0.009 578
0.321 1.348 -0.013 744
0.321 1.348 -0.017 964
0.321 1.347 -0.020 1184
0.321 1.347 -0.024 1602
0.484 2.013 1.583 1958
0.485 2.017 1.578 3916
0.484 2.015 1.567 3889
0.487 2.025 1.566 4033
0.491 2.042 1.569 4425
0.495 2.058 1.572 5329
0.497 2.069 1.570 6541
0.495 2.060 1.555 6724
0.495 2.058 1.545 7250
0.496 2.062 1.539 7250
0.500 2.078 1.542 7383
0.502 2.089 1.540 8129
0.509 2.118 1.552 11458
0.510 2.122 1.545 15055
0.511 2.126 1.539 14547
0.512 2.130 1.533 14040
0.513 2.134 1.527 10580
0.528 2.196 1.559 7827
0.517 2.149 1.518 7540
0.519 2.159 1.516 8000
0.522 2.169 1.514 8302
0.530 2.206 1.529 10070
0.531 2.210 1.522 11077
0.534 2.220 1.520 9005
0.540 2.244 1.526 8028
0.540 2.248 1.520 7110
0.540 2.245 1.509 6242
0.541 2.249 1.502 5416
0.540 2.246 1.492 3263
0.557 2.316 1.526 4438
0.563 2.340 1.531 6510
0.564 2.344 1.524 7131
0.568 2.361 1.525 5631
0.575 2.392 1.534 4699
0.568 2.362 1.507 6917
0.569 2.366 1.500 9759
0.568 2.363 1.489 12187
0.569 2.367 1.482 14660
0.570 2.371 1.476 12526
0.587 2.442 1.507 8948
0.590 2.453 1.504 11218
0.591 2.456 1.497 10206
0.590 2.454 1.486 8328
0.602 2.505 1.505 5822
0.605 2.515 1.501 5205
0.606 2.519 1.494 6247
0.607 2.523 1.486 7177
0.608 2.527 1.479 7066
0.610 2.537 1.475 9316
0.613 2.548 1.471 11914
0.615 2.559 1.467 12613
0.616 2.562 1.460 9355
0.630 2.621 1.481 7788
0.633 2.632 1.477 9122
0.634 2.636 1.469 9870
0.636 2.646 1.465 9038
0.644 2.678 1.471 10601
0.648 2.695 1.470 10503
0.649 2.699 1.462 8348
0.645 2.682 1.444 8171
0.647 2.692 1.440 10713
0.652 2.710 1.439 12184
0.654 2.721 1.434 11964
0.655 2.724 1.426 10094
0.673 2.798 1.451 9089
0.675 2.809 1.446 11909
0.681 2.833 1.448 12380
0.684 2.844 1.443 11059
0.691 2.876 1.447 8702
0.696 2.893 1.445 8647
0.698 2.904 1.440 6856
0.703 2.922 1.438 5274
0.703 2.926 1.429 5465
0.703 2.922 1.418 6411
0.707 2.940 1.415 6027
0.718 2.986 1.425 8208
0.724 3.011 1.426 11296
0.727 3.022 1.420 11000
0.733 3.047 1.420 8832
0.747 3.107 1.435 9030
0.753 3.132 1.435 10612
0.754 3.136 1.426 9555
0.751 3.125 1.411 7616
0.773 3.215 1.437 6182
0.774 3.218 1.427 7001
0.770 3.200 1.409 7917
0.777 3.233 1.411 10467
0.776 3.229 1.399 13185
0.779 3.240 1.392 11223
0.785 3.265 1.391 7829
0.789 3.283 1.387 6799
0.789 3.279 1.374 8295
0.793 3.297 1.370 8375
0.795 3.308 1.363 5996
0.829 3.449 1.404 5046
0.818 3.402 1.375 6614
0.817 3.398 1.363 7425
0.828 3.445 1.369 6772
0.827 3.441 1.356 7495
0.832 3.459 1.351 5920
0.836 3.477 1.346 4327
0.867 3.605 1.379 4291
0.861 3.579 1.358 6969
0.861 3.582 1.347 7683
0.885 3.681 1.369 5573
0.888 3.692 1.360 8501
0.888 3.695 1.350 12041
0.893 3.713 1.343 12453
0.901 3.746 1.342 9770
0.909 3.779 1.340 10698
0.908 3.775 1.327 9597
0.923 3.837 1.334 9238
0.925 3.848 1.325 8126
0.930 3.866 1.318 8341
0.932 3.876 1.309 7237
0.936 3.894 1.302 6219
0.955 3.972 1.313 4875
0.965 4.012 1.312 3468
0.967 4.023 1.302 4920
0.972 4.041 1.295 4360
0.983 4.089 1.295 4444
0.986 4.099 1.285 6372
0.988 4.110 1.275 7253
0.987 4.106 1.261 4704
1.017 4.228 1.281 5708
1.021 4.246 1.273 3949
1.059 4.406 1.302 3196
1.051 4.372 1.279 6003
1.052 4.375 1.266 5783
1.094 4.550 1.298 5369
1.098 4.568 1.288 6323
1.101 4.579 1.276 5906
1.125 4.679 1.287 3635
1.128 4.690 1.275 3961
1.128 4.693 1.261 4199
1.149 4.779 1.266 4181
1.148 4.774 1.250 3636
1.151 4.785 1.238 3073
1.162 4.833 1.234 3582
1.163 4.836 1.220 4712
1.160 4.824 1.202 4640
1.202 5.000 1.226 2775
1.219 5.071 1.226 2704
1.222 5.082 1.212 2164
1.252 5.206 1.222 2264
1.249 5.194 1.204 2392
1.244 5.174 1.184 2447
1.261 5.245 1.182 2468
1.265 5.263 1.169 3592
1.286 5.349 1.170 3378
1.269 5.276 1.140 3078
1.320 5.491 1.164 3263
1.321 5.494 1.148 4559
1.320 5.489 1.130 3906
1.401 5.826 1.173 3172
1.403 5.836 1.157 3343
1.406 5.847 1.141 3736
1.432 5.956 1.142 3382
1.475 6.133 1.153 2359
1.508 6.273 1.157 2747
1.516 6.306 1.144 2552
1.537 6.393 1.138 2458
1.560 6.487 1.133 2413
1.557 6.475 1.112 2016
1.631 6.782 1.137 2468
1.635 6.800 1.119 3024
1.636 6.803 1.099 3248
1.673 6.958 1.100 3381
1.674 6.961 1.079 2298
1.729 7.192 1.089 2133
1.732 7.203 1.069 2753
1.736 7.221 1.049 2269
1.851 7.697 1.086 3084
1.850 7.692 1.062 3188
1.850 7.695 1.040 2653
1.948 8.103 1.063 3547
1.949 8.105 1.039 3839
1.951 8.115 1.016 3008
1.954 8.125 0.992 2480
1.952 8.120 0.967 2325
2.124 8.835 1.014 2270
2.075 8.630 0.968 3461
2.074 8.625 0.941 4115
2.074 8.627 0.915 3867
2.075 8.630 0.890 3350
2.125 8.839 0.881 3137
2.128 8.848 0.856 2954
2.128 8.850 0.829 2938
2.625 10.917 0.959 2991
2.626 10.920 0.926 3619
2.628 10.930 0.894 4074
2.630 10.939 0.862 3479
2.629 10.934 0.828 3028
2.628 10.928 0.795 2653
2.630 10.937 0.763 2919
2.630 10.939 0.730 3583
2.631 10.941 0.698 3967
2.631 10.942 0.665 3801
2.631 10.944 0.632 3251
2.632 10.945 0.600 2178
2.874 11.954 0.606 1103
2.876 11.963 0.571 1036
3.173 13.195 0.576 914
3.171 13.189 0.536 772
3.170 13.182 0.497 670
3.170 13.183 0.457 565
3.270 13.599 0.427 554
3.272 13.608 0.386 572
3.341 13.893 0.350 513
3.341 13.894 0.308 478
3.341 13.894 0.267 355
0.324 1.349 0.003 302
0.322 1.341 -0.000 446
0.322 1.341 -0.004 472
0.322 1.340 -0.008 631
0.322 1.340 -0.012 791
0.322 1.339 -0.016 984
0.322 1.339 -0.019 1177
0.322 1.338 -0.023 1618
0.487 2.012 1.583 1876
0.488 2.016 1.578 3753
0.489 2.020 1.572 3855
0.490 2.024 1.566 4334
0.494 2.041 1.569 4893
0.498 2.057 1.572 5527
0.502 2.074 1.575 6663
0.499 2.059 1.555 6690
0.498 2.057 1.545 7240
0.499 2.061 1.539 7240
0.503 2.078 1.542 7167
0.513 2.120 1.562 7827
0.513 2.117 1.552 11177
0.514 2.121 1.545 14545
0.515 2.125 1.539 13840
0.516 2.129 1.533 13135
0.517 2.133 1.527 9837
0.532 2.196 1.559 8188
0.531 2.193 1.548 7338
0.521 2.152 1.512 7936
0.525 2.169 1.514 7864
0.534 2.205 1.529 9039
0.535 2.209 1.522 9857
0.537 2.219 1.520 8073
0.543 2.243 1.526 7271
0.544 2.247 1.520 6830
0.543 2.244 1.509 6548
0.544 2.248 1.502 5910
0.545 2.252 1.496 3705
0.561 2.315 1.526 4103
0.566 2.339 1.531 6563
0.567 2.343 1.524 7308
0.571 2.360 1.525 6128
0.577 2.384 1.530 5124
0.572 2.361 1.507 7425
0.571 2.359 1.496 10225
0.572 2.362 1.489 12592
0.573 2.366 1.482 14959
0.574 2.370 1.476 12846
0.591 2.441 1.507 9084
0.594 2.452 1.504 11285
0.595 2.455 1.497 10342
0.594 2.453 1.486 8280
0.606 2.504 1.505 5646
0.610 2.521 1.505 4662
0.611 2.525 1.497 5547
0.611 2.522 1.486 6702
0.612 2.526 1.479 7059
0.612 2.530 1.471 9479
0.617 2.547 1.471 12185
0.619 2.558 1.467 12726
0.620 2.561 1.460 9385
0.636 2.627 1.485 6725
0.637 2.631 1.477 7864
0.638 2.635 1.469 8624
0.645 2.666 1.476 8252
0.648 2.677 1.471 9836
0.652 2.694 1.470 9489
0.653 2.698 1.462 7946
0.649 2.681 1.444 8661
0.652 2.691 1.440 11276
0.656 2.709 1.439 12907
0.658 2.720 1.434 12632
0.659 2.723 1.426 10492
0.677 2.797 1.451 8379
0.680 2.807 1.446 11304
0.687 2.839 1.451 12190
0.688 2.843 1.443 11073
0.696 2.875 1.447 8225
0.699 2.885 1.442 7705
0.699 2.889 1.434 5762
0.707 2.921 1.438 4235
0.708 2.925 1.429 5083
0.707 2.921 1.418 6512
0.713 2.946 1.418 6138
0.723 2.985 1.425 8343
0.729 3.010 1.426 11560
0.733 3.028 1.423 11296
0.737 3.045 1.420 8948
0.752 3.106 1.435 8523
0.756 3.124 1.432 9970
0.757 3.128 1.423 9650
0.756 3.124 1.411 8414
0.757 3.128 1.401 6256
0.779 3.217 1.427 6863
0.775 3.199 1.409 8019
0.782 3.232 1.411 10809
0.782 3.228 1.399 13566
0.784 3.239 1.392 11073
0.790 3.264 1.391 7247
0.795 3.282 1.387 6940
0.794 3.278 1.374 8659
0.798 3.296 1.370 8307
0.801 3.307 1.363 5985
0.836 3.455 1.407 5386
0.825 3.408 1.378 6538
0.824 3.404 1.365 6756
0.836 3.451 1.371 6829
0.835 3.447 1.358 7719
0.839 3.465 1.353 6592
0.843 3.483 1.348 5276
0.872 3.603 1.379 4630
0.864 3.570 1.355 7055
0.867 3.581 1.347 8004
0.889 3.672 1.366 6043
0.893 3.690 1.360 9162
0.894 3.694 1.350 12619
0.899 3.712 1.343 12761
0.907 3.744 1.342 9951
0.915 3.777 1.340 11044
0.914 3.773 1.327 9849
0.927 3.828 1.332 9976
0.929 3.839 1.323 8402
0.936 3.864 1.318 7811
0.938 3.875 1.309 6706
0.943 3.893 1.302 5597
0.963 3.978 1.315 4559
0.971 4.010 1.312 3737
0.975 4.029 1.304 5497
0.976 4.032 1.292 4655
0.988 4.080 1.293 3507
0.994 4.105 1.287 5887
0.995 4.108 1.275 7517
0.995 4.112 1.263 5004
1.023 4.226 1.281 5342
1.028 4.244 1.273 3631
1.043 4.307 1.276 3493
1.056 4.363 1.277 4835
1.057 4.366 1.264 5411
1.101 4.548 1.298 5295
1.106 4.566 1.288 5891
1.108 4.577 1.276 5610
1.132 4.677 1.287 4156
1.133 4.681 1.273 4095
1.136 4.691 1.261 3821
1.157 4.777 1.266 4248
1.156 4.773 1.250 3784
1.158 4.783 1.238 3343
1.170 4.831 1.234 3222
1.171 4.834 1.220 4245
1.168 4.823 1.202 4431
1.210 4.999 1.226 2941
1.224 5.054 1.222 2262
1.204 4.975 1.190 1955
1.211 5.000 1.180 2189
1.220 5.041 1.173 2182
1.247 5.149 1.179 2390
1.268 5.235 1.181 2278
1.272 5.253 1.168 3300
1.276 5.271 1.155 3217
1.279 5.282 1.141 3144
1.327 5.481 1.162 3180
1.330 5.492 1.148 4636
1.329 5.487 1.130 3894
1.404 5.801 1.169 3226
1.412 5.834 1.157 3049
1.415 5.844 1.141 3503
1.441 5.953 1.142 3410
1.514 6.253 1.174 2356
1.518 6.271 1.157 2747
1.526 6.304 1.144 2844
1.545 6.383 1.137 2527
1.548 6.393 1.119 2268
1.628 6.723 1.150 2068
1.641 6.779 1.137 2453
1.646 6.797 1.119 3153
1.646 6.800 1.099 3324
1.686 6.963 1.101 3337
1.685 6.958 1.079 2279
1.741 7.190 1.089 2170
1.743 7.200 1.069 2800
1.748 7.218 1.049 2350
1.863 7.694 1.086 2951
1.862 7.689 1.062 3073
1.860 7.684 1.039 2596
1.961 8.099 1.063 3401
1.962 8.102 1.039 3590
2.036 8.411 1.048 2959
2.035 8.405 1.022 2589
1.967 8.125 0.968 2383
2.138 8.832 1.014 2034
2.089 8.627 0.968 3208
2.087 8.622 0.941 3711
2.088 8.624 0.915 3393
2.089 8.626 0.890 2872
2.139 8.835 0.881 2987
2.142 8.845 0.856 2808
2.144 8.855 0.830 2808
2.642 10.913 0.959 2697
2.643 10.916 0.926 3302
2.645 10.925 0.894 3771
2.646 10.928 0.861 3236
2.646 10.930 0.828 2810
2.645 10.924 0.795 2441
2.647 10.933 0.763 2641
2.648 10.935 0.730 3265
2.648 10.937 0.698 3623
2.648 10.938 0.665 3463
2.649 10.940 0.632 2946
2.649 10.941 0.600 1962
2.895 11.957 0.607 1172
2.895 11.958 0.571 1098
3.194 13.190 0.576 892
3.192 13.184 0.536 752
3.425 14.146 0.523 677
3.191 13.178 0.457 565
3.360 13.879 0.433 525
3.293 13.603 0.386 523
3.359 13.872 0.350 526
3.363 13.888 0.308 442
3.365 13.897 0.267 363
0.276 1.140 0.126 255
0.276 1.140 0.123 264
0.274 1.132 0.120 276
0.274 1.132 0.117 283
0.274 1.132 0.113 257
0.323 1.334 0.012 440
0.323 1.334 0.008 664
0.325 1.341 0.004 957
0.325 1.340 -0.000 1333
0.323 1.332 -0.003 1427
0.323 1.332 -0.007 1766
0.324 1.339 -0.012 2118
0.324 1.339 -0.016 2352
0.324 1.338 -0.019 2587
0.322 1.330 -0.022 3550
0.491 2.017 1.588 1824
0.492 2.022 1.582 3648
0.490 2.013 1.567 3995
0.493 2.023 1.566 4833
0.497 2.040 1.569 5533
0.501 2.057 1.572 5899
0.505 2.073 1.575 7077
0.503 2.065 1.560 6868
0.502 2.063 1.549 7281
0.503 2.067 1.543 7281
0.507 2.083 1.546 7041
0.516 2.119 1.562 8060
0.517 2.123 1.556 11018
0.516 2.121 1.545 14036
0.517 2.125 1.539 13137
0.518 2.129 1.533 12238
0.521 2.139 1.531 9195
0.533 2.188 1.555 8632
0.534 2.192 1.548 7429
0.525 2.157 1.516 7893
0.526 2.161 1.510 7570
0.535 2.198 1.525 8032
0.538 2.208 1.522 8583
0.540 2.219 1.520 7089
0.546 2.242 1.526 6414
0.547 2.246 1.520 6444
0.546 2.243 1.509 6706
0.547 2.247 1.502 6226
0.548 2.251 1.496 4072
0.567 2.328 1.534 3853
0.569 2.338 1.531 6436
0.572 2.349 1.528 7364
0.575 2.359 1.525 6485
0.580 2.383 1.530 5523
0.575 2.361 1.507 7821
0.576 2.364 1.500 10526
0.575 2.362 1.489 12816
0.576 2.365 1.482 15114
0.577 2.369 1.476 13053
0.594 2.440 1.507 9153
0.597 2.451 1.504 11246
0.598 2.455 1.497 10373
0.604 2.479 1.501 8349
0.609 2.503 1.505 5546
0.614 2.520 1.505 4229
0.615 2.524 1.497 4911
0.614 2.521 1.486 6209
0.615 2.525 1.479 6994
0.616 2.529 1.471 9531
0.620 2.546 1.471 12288
0.623 2.557 1.467 12651
0.622 2.554 1.456 9310
0.639 2.626 1.485 5796
0.640 2.630 1.477 6641
0.641 2.634 1.469 7520
0.649 2.665 1.476 8028
0.652 2.676 1.471 9480
0.656 2.693 1.470 8731
0.648 2.662 1.445 7658
0.651 2.673 1.441 9231
0.655 2.691 1.440 11789
0.659 2.708 1.439 13494
0.662 2.719 1.434 13046
0.663 2.722 1.426 10576
0.681 2.796 1.451 8048
0.683 2.807 1.446 11118
0.691 2.838 1.451 12178
0.692 2.842 1.443 11054
0.696 2.860 1.441 7835
0.702 2.884 1.442 6868
0.700 2.874 1.427 5213
0.690 2.835 1.400 4118
0.712 2.924 1.429 4810
0.713 2.927 1.421 6652
0.717 2.945 1.418 6293
0.727 2.984 1.425 8457
0.733 3.009 1.426 11694
0.737 3.027 1.423 11542
0.741 3.045 1.420 9185
0.756 3.105 1.435 7827
0.760 3.123 1.432 9173
0.761 3.127 1.423 9482
0.760 3.123 1.411 8759
0.761 3.127 1.401 6571
0.781 3.209 1.424 6666
0.779 3.198 1.409 8052
0.785 3.223 1.408 10932
0.786 3.227 1.399 13572
0.788 3.238 1.392 10986
0.795 3.263 1.391 7544
0.797 3.273 1.384 7525
0.798 3.277 1.374 8953
0.802 3.295 1.370 8125
0.805 3.306 1.363 5913
0.841 3.454 1.407 5724
0.830 3.407 1.378 6257
0.830 3.410 1.368 6028
0.842 3.457 1.374 7384
0.841 3.453 1.361 8240
0.844 3.464 1.353 7237
0.848 3.482 1.348 6064
0.866 3.558 1.363 5608
0.869 3.569 1.355 7287
0.872 3.580 1.347 8349
0.874 3.591 1.339 6720
0.897 3.682 1.358 9778
0.899 3.692 1.350 13125
0.902 3.703 1.341 13188
0.912 3.743 1.342 10219
0.919 3.776 1.340 11295
0.920 3.779 1.329 9934
0.932 3.827 1.332 10676
0.934 3.838 1.323 8648
0.941 3.863 1.318 7007
0.943 3.874 1.309 5970
0.948 3.892 1.302 4978
0.970 3.984 1.317 4236
0.976 4.009 1.312 4187
0.981 4.027 1.304 6090
0.980 4.023 1.290 5065
0.971 3.989 1.268 3298
0.998 4.096 1.285 5146
1.000 4.107 1.275 7350
1.001 4.110 1.263 5022
1.027 4.217 1.279 5173
1.053 4.325 1.295 4378
1.048 4.306 1.276 4227
1.062 4.361 1.277 4459
1.065 4.372 1.266 5166
1.107 4.547 1.298 5175
1.110 4.557 1.286 5709
1.114 4.575 1.276 5489
1.139 4.676 1.287 4584
1.136 4.664 1.269 4492
1.127 4.630 1.246 4193
1.161 4.768 1.265 3897
1.160 4.764 1.249 3852
1.164 4.782 1.238 3555
1.174 4.822 1.232 3233
1.177 4.833 1.220 4053
1.176 4.828 1.204 4191
1.217 4.997 1.226 3117
1.205 4.947 1.200 2542
1.207 4.958 1.186 2036
1.219 5.006 1.181 2296
1.225 5.032 1.171 2250
1.252 5.140 1.178 2269
1.276 5.241 1.182 2243
1.279 5.252 1.168 3267
1.283 5.270 1.155 3244
1.288 5.288 1.142 3336
1.334 5.480 1.162 3260
1.337 5.490 1.148 4710
1.334 5.478 1.128 3885
1.410 5.791 1.168 3412
1.422 5.840 1.159 2831
1.425 5.850 1.143 3518
1.451 5.959 1.143 3514
1.520 6.243 1.172 2484
1.526 6.269 1.157 2738
1.536 6.309 1.145 3166
1.554 6.381 1.137 2524
1.554 6.384 1.118 2328
1.637 6.721 1.150 2192
1.650 6.777 1.137 2457
1.653 6.788 1.118 3227
1.654 6.790 1.098 3421
1.695 6.961 1.101 3275
1.649 6.773 1.054 2323
1.750 7.187 1.089 2144
1.753 7.198 1.069 2743
1.757 7.216 1.049 2317
1.873 7.692 1.086 2790
1.872 7.687 1.062 2941
1.871 7.682 1.039 2514
1.970 8.089 1.062 3132
1.972 8.099 1.039 3161
2.047 8.408 1.048 3116
2.046 8.403 1.022 2865
1.978 8.122 0.968 2443
2.111 8.668 0.998 1987
2.100 8.624 0.968 2862
2.099 8.619 0.941 3334
2.099 8.621 0.915 3057
2.102 8.631 0.890 2564
2.151 8.833 0.881 2775
2.153 8.842 0.856 2642
2.156 8.852 0.830 2676
2.305 9.468 0.850 2407
2.657 10.912 0.926 2969
2.660 10.922 0.894 3477
2.660 10.924 0.861 3026
2.661 10.926 0.828 2628
2.659 10.920 0.795 2257
2.660 10.922 0.763 2368
2.662 10.931 0.730 2916
2.662 10.933 0.698 3234
2.663 10.935 0.665 3073
2.663 10.936 0.632 2594
2.663 10.937 0.600 1724
2.911 11.953 0.607 1225
2.911 11.955 0.571 1142
2.911 11.956 0.535 908
3.445 14.148 0.566 725
3.444 14.142 0.523 698
3.208 13.174 0.457 529
3.309 13.590 0.427 463
3.311 13.598 0.386 488
3.377 13.868 0.350 404
3.377 13.869 0.308 308
0.274 1.124 0.117 262
0.274 1.124 0.114 252
0.325 1.334 0.020 325
0.325 1.334 0.016 517
0.325 1.334 0.012 945
0.325 1.333 0.008 1372
0.326 1.340 0.004 1876
0.326 1.340 -0.000 2531
0.324 1.332 -0.003 2724
0.324 1.332 -0.007 3277
0.324 1.331 -0.011 3830
0.324 1.331 -0.015 4282
0.324 1.330 -0.019 4734
0.324 1.330 -0.022 6587
0.489 1.991 1.570 1815
0.490 1.996 1.564 3631
0.493 2.006 1.563 4248
0.497 2.022 1.566 5372
0.499 2.033 1.564 6218
0.505 2.056 1.572 6324
0.509 2.072 1.575 7612
0.510 2.077 1.569 7307
0.506 2.062 1.549 7393
0.507 2.066 1.543 7393
0.518 2.108 1.564 7110
0.520 2.118 1.562 8327
0.521 2.122 1.556 10954
0.522 2.126 1.550 13581
0.523 2.130 1.543 12415
0.524 2.134 1.537 11248
0.525 2.138 1.531 8643
0.537 2.187 1.555 9087
0.538 2.191 1.548 7763
0.530 2.156 1.516 7844
0.531 2.160 1.510 7246
0.540 2.197 1.525 6976
0.542 2.207 1.522 7097
0.545 2.218 1.520 5940
0.551 2.241 1.526 5343
0.550 2.238 1.515 5808
0.549 2.236 1.505 6482
0.552 2.246 1.502 6209
0.553 2.250 1.496 4310
0.573 2.333 1.538 3871
0.574 2.337 1.531 6359
0.577 2.348 1.528 7479
0.579 2.358 1.525 6874
0.585 2.382 1.530 5916
0.580 2.359 1.507 8163
0.579 2.357 1.496 10677
0.580 2.360 1.489 12885
0.581 2.364 1.482 15092
0.582 2.368 1.476 13134
0.599 2.439 1.507 9159
0.602 2.450 1.504 11020
0.604 2.460 1.500 10356
0.609 2.478 1.501 8606
0.615 2.502 1.505 5540
