1.041 3.864 1.314 4853
1.054 3.912 1.316 5228
1.055 3.915 1.304 6659
1.079 4.006 1.319 5832
1.084 4.024 1.311 6414
1.087 4.035 1.301 4166
1.110 4.119 1.312 2333
1.113 4.130 1.302 3673
1.106 4.104 1.282 4661
1.104 4.099 1.267 5083
1.105 4.103 1.255 4761
1.162 4.313 1.299 6982
1.161 4.309 1.284 10412
1.162 4.312 1.271 11135
1.162 4.315 1.258 10893
1.167 4.333 1.249 9588
1.168 4.336 1.236 5767
1.221 4.532 1.272 4973
1.248 4.632 1.283 4441
1.245 4.620 1.265 4338
1.242 4.609 1.248 7599
1.250 4.642 1.241 6322
1.283 4.764 1.256 4772
1.282 4.759 1.240 6207
1.281 4.755 1.224 4071
1.330 4.937 1.250 4498
1.329 4.933 1.234 4047
1.348 5.003 1.234 4196
1.351 5.014 1.221 4857
1.356 5.032 1.209 3171
1.391 5.162 1.221 3268
1.387 5.150 1.202 2773
1.431 5.311 1.219 3644
1.460 5.419 1.225 6408
1.461 5.422 1.208 6111
1.427 5.297 1.167 5842
1.470 5.458 1.182 4512
1.499 5.566 1.185 3794
1.500 5.569 1.169 4031
1.499 5.564 1.151 2870
1.538 5.710 1.160 2882
1.565 5.811 1.160 2907
1.599 5.934 1.164 3278
1.599 5.937 1.146 3498
1.677 6.227 1.176 4191
1.676 6.222 1.156 4139
1.624 6.029 1.106 2825
1.684 6.250 1.122 2637
1.683 6.246 1.103 3068
1.685 6.256 1.085 2353
1.792 6.652 1.125 2382
1.685 6.254 1.046 2712
1.685 6.256 1.028 1946
1.959 7.274 1.151 1693
1.864 6.920 1.080 2325
1.865 6.923 1.060 2019
1.892 7.024 1.052 1637
2.169 8.051 1.162 2499
2.168 8.046 1.137 3693
2.168 8.049 1.112 4629
2.171 8.059 1.089 4838
2.170 8.054 1.064 4079
2.170 8.057 1.040 3427
2.247 8.341 1.046 3203
2.248 8.343 1.021 3338
2.252 8.361 0.998 3649
2.257 8.378 0.974 4145
2.256 8.373 0.948 2813
2.418 8.977 0.980 2026
2.417 8.971 0.952 2217
2.417 8.974 0.925 2111
2.422 8.991 0.899 2041
2.425 9.001 0.873 2122
2.425 9.003 0.846 2071
2.426 9.005 0.819 1465
2.433 9.030 0.794 678
2.433 9.031 0.766 516
2.429 9.018 0.738 482
2.428 9.012 0.711 392
0.532 1.967 1.560 3735
0.533 1.971 1.555 7470
0.534 1.975 1.549 7196
0.538 1.992 1.552 7441
0.541 2.002 1.551 8260
0.549 2.031 1.563 7097
0.555 2.054 1.570 7174
0.560 2.070 1.573 5022
0.564 2.087 1.576 3649
0.565 2.091 1.570 3649
0.568 2.101 1.568 4710
0.571 2.112 1.567 5868
0.572 2.116 1.560 5851
0.575 2.126 1.558 5838
0.578 2.137 1.556 6142
0.580 2.147 1.554 6663
0.580 2.145 1.544 6963
0.579 2.142 1.533 7283
0.584 2.159 1.535 6576
0.587 2.169 1.533 6563
0.589 2.180 1.531 5511
0.599 2.216 1.546 6098
0.602 2.226 1.543 7306
0.603 2.230 1.537 6475
0.597 2.208 1.514 6986
0.600 2.219 1.511 6429
0.608 2.249 1.521 7098
0.613 2.266 1.523 5416
0.624 2.309 1.540 5383
0.616 2.280 1.513 5223
0.616 2.277 1.503 5426
0.619 2.288 1.500 5532
0.632 2.338 1.521 4476
0.635 2.348 1.518 4144
0.641 2.372 1.523 3743
0.650 2.402 1.532 4239
0.651 2.406 1.525 5201
0.652 2.410 1.518 6164
0.647 2.394 1.499 5242
0.646 2.391 1.488 3952
0.662 2.448 1.511 3644
0.663 2.452 1.504 3473
0.659 2.436 1.486 3272
0.669 2.473 1.497 4597
0.670 2.477 1.490 5988
0.671 2.481 1.483 6754
0.674 2.491 1.479 6200
0.678 2.509 1.479 5306
0.683 2.526 1.479 5364
0.686 2.537 1.475 6409
0.689 2.547 1.471 6879
0.688 2.544 1.460 6443
0.709 2.623 1.492 7215
0.710 2.627 1.484 9713
0.713 2.637 1.480 12195
0.714 2.641 1.472 10179
0.717 2.652 1.468 7544
0.718 2.655 1.460 9524
0.719 2.659 1.452 15883
0.722 2.670 1.448 19921
0.723 2.673 1.440 16919
0.729 2.698 1.442 12635
0.732 2.708 1.437 12322
0.735 2.719 1.433 12645
0.745 2.757 1.441 12159
0.748 2.768 1.436 11102
0.768 2.841 1.461 12897
0.769 2.844 1.453 13472
0.772 2.855 1.447 10210
0.775 2.866 1.442 4710
0.776 2.869 1.434 4290
0.777 2.873 1.425 5535
0.782 2.891 1.423 5514
0.792 2.929 1.430 6847
0.797 2.947 1.428 7697
0.798 2.951 1.419 7176
0.801 2.961 1.413 6647
0.807 2.986 1.414 7204
0.808 2.990 1.405 8683
0.811 3.000 1.399 9096
0.814 3.011 1.393 8942
0.817 3.021 1.387 6349
0.845 3.124 1.419 7120
0.851 3.149 1.419 8196
0.858 3.174 1.418 6601
0.867 3.206 1.420 4601
0.864 3.195 1.405 3788
0.888 3.285 1.430 3987
0.891 3.295 1.423 5509
0.890 3.292 1.410 6212
0.891 3.295 1.401 4838
0.902 3.335 1.405 3632
0.901 3.331 1.392 4611
0.900 3.327 1.379 5865
0.903 3.338 1.372 6143
0.905 3.349 1.365 5663
0.916 3.388 1.368 6462
0.931 3.442 1.376 5314
0.934 3.453 1.369 7774
0.936 3.463 1.361 7416
0.939 3.474 1.353 7748
0.936 3.463 1.338 7774
0.959 3.546 1.355 9840
0.960 3.549 1.345 9084
0.968 3.582 1.344 6718
0.971 3.593 1.336 8742
0.972 3.596 1.325 8791
1.014 3.752 1.365 6467
1.017 3.763 1.356 8347
1.018 3.766 1.345 10166
1.021 3.777 1.336 9268
1.026 3.795 1.330 7676
1.031 3.813 1.323 7139
1.038 3.838 1.318 7081
1.045 3.863 1.314 4917
1.057 3.911 1.316 5244
1.058 3.914 1.304 6695
1.083 4.005 1.319 5710
1.088 4.023 1.311 6273
1.091 4.034 1.301 4243
1.113 4.118 1.312 2223
1.116 4.129 1.302 3635
1.107 4.095 1.279 4829
1.108 4.098 1.267 4956
1.109 4.102 1.255 4287
1.166 4.312 1.299 7081
1.165 4.308 1.284 10720
1.166 4.311 1.271 11321
1.166 4.314 1.258 11055
1.171 4.332 1.249 9866
1.172 4.335 1.236 5953
1.223 4.524 1.271 4948
1.252 4.631 1.283 4320
1.257 4.649 1.273 4252
1.246 4.607 1.248 7370
1.255 4.640 1.241 6251
1.288 4.763 1.256 4559
1.287 4.758 1.240 6186
1.285 4.754 1.224 4277
1.335 4.936 1.250 4127
1.333 4.932 1.234 3973
1.352 5.002 1.234 4317
1.355 5.013 1.221 4958
1.358 5.023 1.207 3102
1.395 5.161 1.221 3318
1.392 5.149 1.202 2897
1.464 5.414 1.241 3603
1.465 5.417 1.225 6660
1.466 5.420 1.208 6404
1.432 5.296 1.167 5879
1.475 5.456 1.182 4776
1.504 5.565 1.185 3876
1.503 5.560 1.167 4103
1.504 5.563 1.151 3022
1.543 5.709 1.160 2923
1.571 5.809 1.160 3102
1.604 5.933 1.164 3173
1.605 5.936 1.146 3351
1.683 6.225 1.176 4107
1.682 6.221 1.156 4064
1.630 6.027 1.106 3201
1.690 6.249 1.122 2940
1.688 6.244 1.103 3386
1.689 6.247 1.084 2519
1.798 6.650 1.125 2398
1.793 6.630 1.102 2656
1.793 6.633 1.082 2010
1.896 7.014 1.115 1735
1.871 6.919 1.080 2165
1.869 6.914 1.059 1890
1.897 7.015 1.051 1609
2.176 8.049 1.162 2259
2.177 8.052 1.138 3395
2.176 8.047 1.112 4276
2.178 8.057 1.089 4481
2.177 8.052 1.064 3768
2.178 8.055 1.040 3155
2.254 8.338 1.046 3140
2.255 8.341 1.021 3225
2.260 8.359 0.998 3282
2.265 8.376 0.974 3531
2.263 8.371 0.948 2348
2.424 8.967 0.979 2115
2.423 8.962 0.951 2352
2.426 8.971 0.925 2238
2.430 8.989 0.899 2158
2.433 8.999 0.873 2243
2.433 9.001 0.846 2197
2.434 9.003 0.819 1558
2.424 8.966 0.789 756
2.441 9.029 0.766 526
2.435 9.008 0.738 503
2.436 9.010 0.711 412
0.535 1.966 1.560 3629
0.536 1.970 1.555 7258
0.537 1.974 1.549 6979
0.541 1.991 1.552 7218
0.546 2.007 1.555 7993
0.550 2.024 1.558 6941
0.558 2.053 1.570 6863
0.564 2.076 1.578 4743
0.569 2.093 1.581 3544
0.570 2.097 1.574 3544
0.571 2.101 1.568 4724
0.574 2.111 1.567 5970
0.575 2.115 1.560 5809
0.576 2.119 1.554 5648
0.581 2.136 1.556 5937
0.583 2.146 1.554 6585
0.583 2.144 1.544 6758
0.582 2.141 1.533 7059
0.587 2.158 1.535 6287
0.591 2.175 1.538 6336
0.592 2.179 1.531 5392
0.604 2.222 1.550 6041
0.607 2.232 1.548 7198
0.606 2.230 1.537 6337
0.600 2.207 1.514 6777
0.603 2.218 1.511 6348
0.611 2.248 1.521 7190
0.616 2.265 1.523 5432
0.627 2.308 1.540 5144
0.619 2.279 1.513 4980
0.619 2.276 1.503 5148
0.620 2.280 1.496 5212
0.635 2.337 1.521 4142
0.638 2.347 1.518 3840
0.644 2.371 1.523 3570
0.653 2.401 1.532 4194
0.654 2.405 1.525 5050
0.655 2.409 1.518 5905
0.650 2.393 1.499 4857
0.650 2.390 1.488 3612
0.665 2.448 1.511 3732
0.666 2.451 1.504 3700
0.671 2.469 1.505 3417
0.672 2.472 1.497 4521
0.673 2.476 1.490 5626
0.674 2.480 1.483 6476
0.677 2.491 1.479 6185
0.682 2.508 1.479 5563
0.686 2.525 1.479 5799
0.691 2.542 1.479 6931
0.692 2.546 1.471 7433
0.691 2.543 1.460 6991
0.713 2.622 1.492 7281
0.716 2.632 1.488 9398
0.717 2.636 1.480 11769
0.718 2.640 1.472 10203
0.720 2.651 1.468 7971
0.721 2.654 1.460 10105
0.722 2.658 1.452 16418
0.725 2.669 1.448 20260
0.724 2.665 1.436 17177
0.733 2.697 1.442 12689
0.736 2.707 1.437 12267
0.739 2.718 1.433 12586
0.749 2.756 1.441 12195
0.754 2.774 1.440 10740
0.772 2.840 1.461 12902
0.773 2.843 1.453 13483
0.776 2.854 1.447 10100
0.773 2.844 1.433 4602
0.780 2.868 1.434 3989
0.781 2.872 1.425 5054
0.789 2.904 1.429 5131
0.796 2.928 1.430 6919
0.801 2.946 1.428 7614
0.802 2.950 1.419 7274
0.805 2.960 1.413 6926
0.811 2.985 1.414 7243
0.812 2.989 1.405 8430
0.815 2.999 1.399 8992
0.818 3.010 1.393 8688
0.821 3.020 1.387 6233
0.849 3.123 1.419 7497
0.854 3.141 1.416 8148
0.864 3.180 1.421 6892
0.869 3.198 1.418 5154
0.866 3.187 1.402 4483
0.892 3.283 1.430 4171
0.895 3.294 1.423 5506
0.896 3.298 1.413 5916
0.895 3.294 1.401 4539
0.906 3.333 1.405 3579
0.903 3.323 1.389 4766
0.904 3.326 1.379 5809
0.907 3.337 1.372 5940
0.912 3.355 1.367 5732
0.921 3.387 1.368 6714
0.935 3.441 1.376 5216
0.938 3.451 1.369 7668
0.941 3.462 1.361 7506
0.944 3.473 1.353 8189
0.943 3.469 1.340 8128
0.964 3.545 1.355 10063
0.964 3.548 1.345 9174
0.971 3.573 1.342 6498
0.976 3.591 1.336 8524
0.977 3.595 1.325 9045
0.976 3.591 1.312 6646
1.022 3.761 1.356 8224
1.023 3.765 1.345 10091
1.026 3.776 1.336 9003
1.031 3.793 1.330 7379
1.036 3.811 1.323 7017
1.041 3.829 1.316 7104
1.050 3.862 1.314 4902
1.063 3.909 1.316 5261
1.063 3.913 1.304 6707
1.088 4.004 1.319 5517
1.093 4.022 1.311 6007
1.096 4.033 1.301 4314
1.105 4.065 1.297 2313
1.120 4.120 1.300 3651
1.113 4.094 1.279 4869
1.114 4.097 1.267 4923
1.114 4.100 1.255 4110
1.172 4.310 1.299 6973
1.170 4.306 1.284 10645
1.171 4.309 1.271 11181
1.172 4.312 1.258 11048
1.177 4.330 1.249 10120
1.178 4.333 1.236 6049
1.227 4.515 1.269 4920
1.258 4.629 1.283 4050
1.263 4.647 1.273 4149
1.254 4.613 1.250 7118
1.261 4.639 1.241 6182
1.292 4.753 1.254 4328
1.293 4.757 1.240 6096
1.294 4.760 1.226 4443
1.341 4.934 1.250 3760
1.340 4.930 1.234 3811
1.359 5.000 1.234 4324
1.362 5.011 1.221 4960
1.365 5.021 1.207 2998
1.402 5.159 1.221 3324
1.399 5.147 1.202 3024
1.469 5.405 1.239 3728
1.472 5.415 1.225 6880
1.473 5.418 1.208 6710
1.439 5.294 1.167 5778
1.483 5.454 1.182 4903
1.512 5.563 1.185 3937
1.511 5.558 1.167 4111
1.514 5.568 1.152 3093
1.551 5.707 1.160 2962
1.579 5.807 1.160 3141
1.614 5.938 1.165 3120
1.615 5.941 1.147 3188
1.691 6.223 1.176 3879
1.690 6.218 1.156 3873
1.638 6.025 1.106 3367
1.698 6.247 1.122 3067
1.697 6.242 1.103 3526
1.697 6.245 1.084 2590
1.807 6.648 1.125 2386
1.802 6.628 1.102 2699
1.802 6.631 1.082 2106
1.906 7.012 1.115 1803
1.880 6.916 1.080 2003
1.879 6.911 1.059 1797
2.021 7.437 1.106 1646
2.187 8.046 1.162 2003
2.188 8.049 1.138 3092
2.186 8.044 1.112 3928
2.189 8.054 1.089 4123
2.188 8.049 1.064 3420
2.267 8.340 1.072 2894
2.266 8.335 1.046 3069
2.266 8.338 1.021 3112
2.269 8.348 0.997 2990
2.276 8.373 0.974 2997
2.274 8.368 0.948 1939
2.405 8.849 0.968 2197
2.435 8.958 0.951 2456
2.438 8.968 0.925 2347
2.442 8.986 0.899 2269
2.445 8.995 0.873 2338
2.446 8.997 0.846 2294
2.444 8.992 0.818 1635
2.436 8.963 0.789 859
2.451 9.018 0.766 564
2.448 9.005 0.738 554
2.448 9.006 0.711 455
0.537 1.966 1.560 3516
0.538 1.970 1.555 7032
0.539 1.974 1.549 6770
0.545 1.997 1.557 7048
0.548 2.007 1.555 7802
0.552 2.023 1.558 6839
0.560 2.052 1.570 6564
0.567 2.075 1.578 4555
0.576 2.111 1.594 3682
0.578 2.115 1.588 3682
0.575 2.106 1.573 4862
0.576 2.110 1.567 6082
0.577 2.114 1.560 5764
0.578 2.118 1.554 5445
0.581 2.129 1.552 5719
0.586 2.146 1.554 6463
0.585 2.143 1.544 6486
0.585 2.141 1.533 6730
0.589 2.157 1.535 5983
0.594 2.174 1.538 6090
0.595 2.178 1.531 5272
0.606 2.221 1.550 5952
0.609 2.231 1.548 7009
0.609 2.229 1.537 6154
0.603 2.207 1.514 6577
0.611 2.237 1.524 6332
0.614 2.247 1.521 7332
0.616 2.257 1.519 5506
0.630 2.307 1.540 4847
0.622 2.278 1.513 4739
0.621 2.276 1.503 4849
0.622 2.279 1.496 4862
0.638 2.336 1.521 3809
0.641 2.347 1.518 3521
0.649 2.377 1.527 3361
0.654 2.394 1.528 4140
0.657 2.405 1.525 4903
0.658 2.408 1.518 5670
0.657 2.406 1.507 4605
0.654 2.396 1.492 3344
0.668 2.447 1.511 3797
0.669 2.451 1.504 3978
0.674 2.468 1.505 3726
0.675 2.472 1.497 4516
0.676 2.475 1.490 5306
0.679 2.486 1.486 6195
0.682 2.497 1.483 6213
0.685 2.507 1.479 5797
0.691 2.531 1.482 6055
0.694 2.542 1.479 7169
0.695 2.545 1.471 7620
0.694 2.542 1.460 7262
0.716 2.621 1.492 7281
0.719 2.632 1.488 9049
0.720 2.635 1.480 11253
0.721 2.639 1.472 10101
0.724 2.650 1.468 8290
0.725 2.653 1.460 10516
0.726 2.657 1.452 16757
0.728 2.668 1.448 20481
0.728 2.665 1.436 17435
0.736 2.696 1.442 12762
0.739 2.706 1.437 12158
0.742 2.717 1.433 12434
0.752 2.755 1.441 12204
0.757 2.773 1.440 10396
0.775 2.839 1.461 12785
0.776 2.843 1.453 13347
0.777 2.846 1.444 9935
0.776 2.843 1.433 4647
0.779 2.854 1.427 3813
0.782 2.864 1.422 4588
0.795 2.910 1.433 4931
0.799 2.927 1.430 7071
0.806 2.952 1.431 7489
0.807 2.956 1.422 7339
0.810 2.966 1.416 7252
0.815 2.984 1.414 7238
0.816 2.988 1.405 8096
0.817 2.991 1.396 8881
0.820 3.002 1.390 8507
0.824 3.019 1.387 6094
0.853 3.122 1.419 7963
0.855 3.133 1.413 8290
0.870 3.186 1.424 7340
0.871 3.190 1.415 5938
0.870 3.186 1.402 5292
0.896 3.282 1.430 4284
0.899 3.293 1.423 5478
0.877 3.211 1.379 6229
0.876 3.207 1.367 4622
0.908 3.325 1.402 3555
0.901 3.300 1.381 5106
0.908 3.325 1.379 5782
0.911 3.336 1.372 5726
0.916 3.354 1.367 5889
0.925 3.386 1.368 6986
0.939 3.440 1.376 5126
0.942 3.450 1.369 7564
0.945 3.461 1.361 7563
0.948 3.472 1.353 8624
0.947 3.468 1.340 8530
0.968 3.544 1.355 10302
0.969 3.547 1.345 9258
0.971 3.558 1.337 6463
0.980 3.590 1.336 8225
0.979 3.586 1.323 9352
0.980 3.589 1.312 7262
1.027 3.760 1.356 8133
1.028 3.764 1.345 10222
1.031 3.774 1.336 8827
1.034 3.785 1.327 7093
1.040 3.810 1.323 6932
1.045 3.828 1.316 7203
1.054 3.861 1.314 4814
1.065 3.901 1.313 5303
1.068 3.911 1.304 6774
1.093 4.003 1.319 5195
1.098 4.021 1.311 5708
1.099 4.024 1.299 4401
1.110 4.064 1.297 2498
1.125 4.119 1.300 3536
1.118 4.092 1.279 5002
1.118 4.096 1.267 4812
1.152 4.217 1.288 3776
1.177 4.309 1.299 6562
1.175 4.305 1.284 10261
1.176 4.308 1.271 10926
1.179 4.318 1.260 10934
1.182 4.329 1.249 10043
1.227 4.495 1.278 5988
1.249 4.573 1.284 5007
1.262 4.620 1.281 3689
1.269 4.646 1.273 3926
1.267 4.642 1.257 6942
1.266 4.637 1.241 6100
1.298 4.752 1.254 4113
1.298 4.755 1.240 5945
1.301 4.766 1.227 4556
1.347 4.933 1.250 3410
1.346 4.928 1.234 3711
1.365 4.999 1.234 4322
1.368 5.009 1.221 4949
1.371 5.020 1.207 2868
1.408 5.157 1.221 3171
1.405 5.145 1.202 2966
1.475 5.403 1.239 3986
1.478 5.414 1.225 7108
1.479 5.417 1.208 6749
1.445 5.292 1.167 5557
1.489 5.453 1.182 4682
1.518 5.561 1.185 3927
1.519 5.564 1.169 4072
1.520 5.567 1.152 3163
1.558 5.705 1.160 2969
1.585 5.806 1.160 3146
1.621 5.936 1.165 3046
1.622 5.939 1.147 2991
1.699 6.221 1.176 3626
1.697 6.216 1.156 3656
1.645 6.023 1.106 3330
1.705 6.245 1.122 3268
1.704 6.240 1.103 3703
1.705 6.243 1.084 2644
1.815 6.646 1.125 2366
1.811 6.633 1.103 2746
1.812 6.636 1.083 2220
1.914 7.010 1.115 1795
1.888 6.914 1.080 1870
1.887 6.909 1.059 1684
2.030 7.434 1.106 1655
2.058 7.535 1.097 1992
2.197 8.046 1.138 2737
2.196 8.041 1.112 3530
2.199 8.052 1.089 3731
2.197 8.047 1.064 3044
2.277 8.338 1.072 2744
2.275 8.333 1.046 2986
2.276 8.335 1.021 2990
2.279 8.345 0.997 2700
2.284 8.363 0.973 2481
2.413 8.837 0.994 1693
2.416 8.847 0.968 2360
2.445 8.955 0.951 2555
2.448 8.965 0.925 2434
2.453 8.983 0.899 2347
2.456 8.992 0.873 2431
2.456 8.994 0.846 2401
2.455 8.989 0.818 1728
2.447 8.960 0.789 970
2.456 8.992 0.764 597
2.458 9.002 0.738 580
2.456 8.996 0.710 488
2.457 8.997 0.683 256
0.539 1.965 1.560 3423
0.540 1.969 1.555 6846
0.541 1.973 1.549 6613
0.547 1.996 1.557 6967
0.550 2.006 1.555 7669
0.553 2.017 1.554 6827
0.561 2.046 1.566 6387
0.570 2.081 1.582 4471
0.577 2.104 1.590 4067
0.578 2.108 1.583 4067
0.579 2.112 1.577 5193
0.578 2.110 1.567 6324
0.579 2.114 1.560 5852
0.580 2.118 1.554 5380
0.583 2.128 1.552 5523
0.588 2.145 1.554 6286
0.587 2.143 1.544 6180
0.586 2.140 1.533 6385
0.591 2.157 1.535 5703
0.596 2.174 1.538 5875
0.606 2.210 1.552 5276
0.610 2.227 1.554 5890
0.611 2.231 1.548 6831
0.612 2.235 1.541 5986
0.604 2.206 1.514 6295
0.613 2.236 1.524 6288
0.616 2.247 1.521 7402
0.618 2.257 1.519 5553
0.632 2.307 1.540 4517
0.624 2.278 1.513 4433
0.623 2.275 1.503 4506
0.624 2.279 1.496 4512
0.625 2.283 1.489 3558
0.643 2.346 1.518 3207
0.651 2.376 1.527 3214
0.656 2.393 1.528 4058
0.657 2.397 1.521 4691
0.660 2.408 1.518 5332
0.659 2.405 1.507 4350
0.667 2.436 1.515 3141
0.670 2.446 1.511 3896
0.673 2.457 1.508 4219
0.676 2.467 1.505 4003
0.677 2.471 1.497 4427
0.680 2.482 1.494 4886
0.681 2.485 1.486 5914
0.684 2.496 1.483 6350
0.689 2.513 1.483 6210
0.693 2.531 1.482 6302
0.696 2.541 1.479 7182
0.699 2.552 1.475 7571
0.696 2.542 1.460 7345
0.699 2.552 1.456 7208
0.721 2.631 1.488 8538
0.722 2.635 1.480 10671
0.723 2.639 1.472 10077
0.726 2.649 1.468 8703
0.727 2.653 1.460 11089
0.728 2.657 1.452 17269
0.729 2.660 1.444 20824
0.730 2.664 1.436 17749
0.738 2.695 1.442 12945
0.741 2.706 1.437 12224
0.744 2.716 1.433 12451
0.755 2.755 1.441 12325
0.761 2.779 1.443 10116
0.778 2.838 1.461 12638
0.779 2.842 1.453 13183
0.780 2.846 1.444 9790
0.779 2.842 1.433 4724
0.782 2.853 1.427 3770
0.785 2.863 1.422 4136
0.801 2.923 1.439 5014
0.802 2.927 1.430 7348
0.809 2.951 1.431 7384
0.810 2.955 1.422 7401
0.814 2.973 1.419 7672
0.817 2.983 1.414 7227
0.818 2.987 1.405 7800
0.819 2.990 1.396 8881
0.822 3.001 1.390 8411
0.827 3.019 1.387 5985
0.853 3.114 1.417 8407
0.858 3.132 1.413 8464
0.873 3.185 1.424 7761
0.874 3.189 1.415 6814
0.875 3.192 1.405 6112
0.876 3.196 1.396 4531
0.902 3.292 1.423 5446
0.880 3.210 1.379 6852
0.879 3.207 1.367 5419
0.903 3.296 1.391 3843
0.902 3.292 1.378 5902
0.909 3.317 1.377 5922
0.914 3.335 1.372 5522
0.921 3.360 1.370 6024
0.927 3.385 1.368 7251
0.932 3.403 1.363 5112
0.947 3.457 1.371 7532
0.948 3.460 1.361 7645
0.953 3.478 1.356 9064
0.950 3.467 1.340 8919
0.971 3.543 1.355 10546
0.972 3.546 1.345 9425
0.975 3.557 1.337 6697
0.983 3.589 1.336 8062
0.982 3.585 1.323 9807
0.983 3.589 1.312 7950
1.030 3.759 1.356 8063
1.031 3.763 1.345 10158
1.034 3.773 1.336 8218
1.037 3.784 1.327 6487
1.044 3.809 1.323 6740
1.047 3.820 1.314 7208
1.058 3.860 1.314 4642
1.069 3.900 1.313 5339
1.069 3.903 1.302 6809
1.070 3.906 1.290 5125
1.099 4.012 1.309 5180
1.102 4.023 1.299 4394
1.105 4.034 1.289 2736
1.120 4.088 1.292 3555
1.121 4.092 1.279 5315
1.122 4.095 1.267 4852
1.155 4.216 1.288 3872
1.182 4.315 1.301 6059
1.181 4.311 1.286 9823
1.180 4.307 1.271 10599
1.183 4.317 1.260 10650
1.186 4.328 1.249 9613
1.229 4.487 1.276 6497
1.253 4.571 1.284 5260
1.239 4.523 1.257 3520
1.273 4.645 1.273 3640
1.271 4.640 1.257 6849
1.270 4.636 1.241 5979
1.300 4.743 1.252 3941
1.303 4.754 1.240 5875
1.305 4.764 1.227 4847
1.310 4.782 1.216 3082
1.350 4.927 1.234 3579
1.369 4.998 1.234 4369
1.372 5.008 1.221 5060
1.375 5.019 1.207 2823
1.411 5.149 1.219 3152
1.410 5.144 1.202 3035
1.480 5.402 1.239 4085
1.483 5.412 1.225 7338
1.484 5.415 1.208 6904
1.450 5.291 1.167 5509
1.494 5.451 1.182 4523
1.523 5.559 1.185 3877
1.524 5.562 1.169 3932
1.527 5.573 1.153 3092
1.563 5.703 1.160 3105
1.564 5.706 1.143 3240
1.626 5.935 1.165 3016
1.629 5.945 1.148 2769
1.704 6.220 1.176 3377
1.703 6.215 1.156 3401
1.650 6.022 1.106 3377
1.711 6.243 1.122 3392
1.709 6.238 1.103 3813
1.708 6.233 1.083 2721
1.821 6.644 1.125 2309
1.817 6.632 1.103 2717
1.818 6.635 1.083 2338
1.920 7.008 1.115 1799
1.894 6.912 1.080 1731
1.913 6.983 1.069 1567
2.036 7.432 1.106 1722
2.062 7.526 1.096 2114
2.204 8.044 1.138 2355
2.205 8.047 1.113 3102
2.206 8.050 1.089 3325
2.204 8.045 1.064 2665
2.240 8.176 1.054 2756
2.283 8.331 1.046 2922
2.283 8.333 1.021 2888
2.286 8.343 0.997 2418
2.291 8.361 0.973 1971
2.423 8.842 0.995 1811
2.423 8.845 0.968 2583
2.453 8.953 0.951 2642
2.456 8.963 0.925 2512
2.463 8.988 0.900 2409
2.463 8.990 0.873 2482
2.464 8.992 0.846 2472
2.462 8.987 0.818 1796
2.452 8.950 0.789 1086
2.461 8.983 0.764 647
2.464 8.992 0.737 608
2.464 8.994 0.710 517
2.465 8.995 0.683 275
0.541 1.965 1.560 3291
0.542 1.969 1.555 6582
0.543 1.973 1.549 6340
0.549 1.995 1.557 6750
0.552 2.006 1.555 7402
0.555 2.016 1.554 6709
0.560 2.032 1.557 6216
0.573 2.080 1.582 4501
0.579 2.103 1.590 4541
0.580 2.107 1.583 4541
0.581 2.112 1.577 5553
0.582 2.116 1.571 6564
0.582 2.113 1.560 5856
0.581 2.111 1.550 5196
0.586 2.128 1.552 5286
0.592 2.151 1.559 6135
0.590 2.142 1.544 5903
0.589 2.139 1.533 6026
0.594 2.156 1.535 5484
0.600 2.179 1.542 5781
0.608 2.209 1.552 5373
0.613 2.226 1.554 5860
0.614 2.230 1.548 6615
0.615 2.234 1.541 5786
0.607 2.205 1.514 5960
0.617 2.242 1.528 6153
0.618 2.246 1.521 7349
0.621 2.256 1.519 5526
0.635 2.306 1.540 4203
0.627 2.277 1.513 4070
0.626 2.274 1.503 4105
0.627 2.278 1.496 4148
0.628 2.282 1.489 3312
0.646 2.345 1.518 2895
0.654 2.375 1.527 3106
0.659 2.393 1.528 4000
0.660 2.397 1.521 4550
0.661 2.400 1.514 5100
0.662 2.404 1.507 4120
0.670 2.435 1.515 3051
0.673 2.445 1.511 3909
0.676 2.456 1.508 4422
0.679 2.466 1.505 4285
0.682 2.477 1.501 4398
0.683 2.481 1.494 4579
0.684 2.485 1.486 5711
0.687 2.495 1.483 6558
0.692 2.512 1.483 6665
0.696 2.530 1.482 6563
0.701 2.547 1.482 7280
0.702 2.551 1.475 7587
0.700 2.541 1.460 7489
0.702 2.551 1.456 7399
0.726 2.637 1.491 8188
0.725 2.634 1.480 10179
0.726 2.638 1.472 10040
0.727 2.641 1.464 9133
0.730 2.652 1.460 11409
0.731 2.656 1.452 17264
0.734 2.666 1.448 20635
0.733 2.663 1.436 17703
0.742 2.694 1.442 12991
0.745 2.705 1.437 12171
0.748 2.715 1.433 12356
0.758 2.754 1.441 12341
0.767 2.785 1.446 9917
0.781 2.837 1.461 12368
0.782 2.841 1.453 12896
0.783 2.845 1.444 9597
0.782 2.841 1.433 4751
0.783 2.845 1.424 3669
0.786 2.856 1.419 3763
0.806 2.929 1.442 5313
0.805 2.926 1.430 7571
0.812 2.950 1.431 7178
0.815 2.961 1.425 7368
0.820 2.979 1.423 7963
0.821 2.982 1.414 7164
0.822 2.986 1.405 7538
0.823 2.989 1.396 8819
0.826 3.000 1.390 8229
0.831 3.018 1.387 5832
0.857 3.113 1.417 8710
0.862 3.131 1.413 8521
0.877 3.184 1.424 8186
0.878 3.188 1.415 7603
0.879 3.191 1.405 6828
0.880 3.195 1.396 4966
0.906 3.291 1.423 5369
0.883 3.209 1.379 7248
0.882 3.205 1.367 6116
0.907 3.295 1.391 4319
0.906 3.291 1.378 6635
0.913 3.316 1.377 6018
0.916 3.327 1.369 5347
0.925 3.359 1.370 6154
0.932 3.384 1.368 7357
0.937 3.402 1.363 5129
0.951 3.456 1.371 7564
0.954 3.466 1.364 7739
0.957 3.477 1.356 9460
0.954 3.466 1.340 9213
0.975 3.542 1.355 10678
0.976 3.545 1.345 9509
0.979 3.556 1.337 6859
0.986 3.581 1.333 7832
0.987 3.584 1.323 10042
0.988 3.587 1.312 8434
1.033 3.751 1.354 7773
1.036 3.761 1.345 9840
1.038 3.772 1.336 7477
1.041 3.783 1.327 5867
1.050 3.815 1.325 6500
1.051 3.819 1.314 7051
1.060 3.851 1.311 4361
1.073 3.898 1.313 5329
1.074 3.902 1.302 6817
1.075 3.905 1.290 5089
1.104 4.011 1.309 4646
1.107 4.022 1.299 4210
1.110 4.032 1.289 2941
1.123 4.080 1.290 3741
1.126 4.090 1.279 5527
1.125 4.086 1.265 4936
1.160 4.215 1.288 3976
1.188 4.314 1.301 5588
1.186 4.310 1.286 9443
1.187 4.313 1.273 10284
1.188 4.316 1.260 10390
1.193 4.334 1.251 9249
1.235 4.485 1.276 6990
1.258 4.570 1.284 5409
1.247 4.529 1.259 3508
1.278 4.643 1.273 3385
1.277 4.639 1.257 6674
1.276 4.635 1.241 5732
1.305 4.742 1.252 3746
1.308 4.752 1.240 5650
1.313 4.770 1.229 5046
1.316 4.781 1.216 3171
1.356 4.926 1.234 3346
1.375 4.996 1.234 4306
1.378 5.006 1.221 5097
1.381 5.017 1.207 2740
1.417 5.147 1.219 3027
1.412 5.128 1.199 3035
1.487 5.400 1.239 4143
1.490 5.411 1.225 7477
1.490 5.414 1.208 7022
1.456 5.289 1.167 5322
1.500 5.450 1.182 4247
1.530 5.558 1.185 3858
1.531 5.561 1.169 3837
1.534 5.571 1.153 3087
1.570 5.702 1.160 3045
1.570 5.704 1.143 3289
1.633 5.933 1.165 2939
1.634 5.936 1.147 2633
1.712 6.217 1.176 3135
1.663 6.039 1.128 3262
1.657 6.020 1.106 3355
1.718 6.241 1.122 3470
1.717 6.236 1.103 3896
1.716 6.231 1.083 2736
1.831 6.650 1.126 2260
1.825 6.630 1.103 2692
1.826 6.632 1.083 2465
1.822 6.620 1.061 1902
1.867 6.781 1.063 1738
1.922 6.981 1.069 1627
2.046 7.430 1.106 1788
2.071 7.524 1.096 2233
2.072 7.526 1.073 2428
2.215 8.044 1.113 2686
2.215 8.047 1.089 2914
2.216 8.050 1.065 2283
2.250 8.174 1.054 2843
2.253 8.184 1.031 2848
2.293 8.331 1.021 2767
2.296 8.341 0.997 2154
2.274 8.259 0.964 1570
2.433 8.839 0.995 1913
2.434 8.842 0.968 2746
2.435 8.844 0.942 2760
2.467 8.960 0.925 2568
2.474 8.985 0.900 2440
2.474 8.987 0.873 2508
2.475 8.989 0.846 2520
2.473 8.984 0.818 1845
2.463 8.947 0.789 1173
2.468 8.964 0.763 711
2.475 8.989 0.737 641
2.475 8.991 0.710 537
2.476 8.992 0.683 283
0.850 3.087 -0.229 301
0.543 1.964 1.560 3137
0.544 1.968 1.555 6274
0.547 1.978 1.553 6061
0.551 1.995 1.557 6502
0.554 2.005 1.555 7119
0.557 2.015 1.554 6587
0.560 2.026 1.552 6162
0.576 2.086 1.587 4709
0.581 2.103 1.590 5108
0.582 2.107 1.583 5108
0.583 2.111 1.577 5971
0.584 2.115 1.571 6835
0.584 2.113 1.560 5884
0.583 2.110 1.550 5080
0.593 2.146 1.565 5203
0.594 2.150 1.559 6091
0.593 2.148 1.548 5741
0.591 2.139 1.533 5759
0.596 2.156 1.535 5408
0.604 2.185 1.546 5851
0.610 2.209 1.552 5592
0.615 2.226 1.554 5921
0.616 2.230 1.548 6496
0.617 2.233 1.541 5656
0.609 2.205 1.514 5673
0.619 2.241 1.528 6084
0.620 2.245 1.521 7352
0.623 2.256 1.519 5574
0.630 2.279 1.524 3993
0.629 2.276 1.513 3734
0.628 2.274 1.503 3701
0.629 2.278 1.496 3775
0.630 2.281 1.489 3040
0.648 2.345 1.518 2532
0.656 2.375 1.527 2991
0.661 2.392 1.528 3901
0.662 2.396 1.521 4374
0.663 2.400 1.514 4846
0.662 2.397 1.503 3861
0.673 2.434 1.515 2944
0.675 2.445 1.511 3889
0.678 2.455 1.508 4594
0.681 2.466 1.505 4555
0.684 2.476 1.501 4395
0.685 2.480 1.494 4277
0.686 2.484 1.486 5500
0.689 2.494 1.483 6709
0.694 2.512 1.483 6978
0.699 2.529 1.482 6655
0.704 2.546 1.482 7260
0.705 2.550 1.475 7543
0.702 2.540 1.460 7569
0.705 2.551 1.456 7493
0.728 2.636 1.491 7855
0.729 2.640 1.483 9586
0.729 2.637 1.472 9723
0.730 2.641 1.464 9239
0.733 2.651 1.460 11552
0.734 2.655 1.452 17325
0.735 2.659 1.444 20618
0.736 2.662 1.436 17864
0.742 2.687 1.439 12994
0.747 2.704 1.437 12095
0.750 2.715 1.433 12172
0.761 2.753 1.441 12252
0.771 2.791 1.450 9796
0.784 2.836 1.461 12084
0.785 2.840 1.453 12553
0.786 2.844 1.444 9335
0.785 2.841 1.433 4736
0.786 2.844 1.424 3537
0.810 2.932 1.454 3771
0.809 2.928 1.442 5761
0.808 2.925 1.430 7801
0.815 2.950 1.431 6889
0.818 2.960 1.425 7249
0.823 2.978 1.423 8064
0.824 2.982 1.414 7098
0.825 2.985 1.405 7452
0.826 2.989 1.396 8862
0.827 2.992 1.387 8074
0.832 3.010 1.384 5696
0.860 3.112 1.417 8866
0.865 3.130 1.413 8497
0.880 3.183 1.424 8498
0.881 3.187 1.415 8279
0.881 3.191 1.405 7466
0.882 3.194 1.396 5391
0.883 3.198 1.386 5426
0.884 3.201 1.377 7840
0.885 3.205 1.367 6914
0.910 3.294 1.391 4946
0.909 3.290 1.378 7445
0.916 3.315 1.377 6101
0.919 3.326 1.369 5122
0.928 3.358 1.370 6241
0.933 3.376 1.365 7426
0.938 3.394 1.361 5168
0.954 3.455 1.371 7673
0.957 3.465 1.364 7845
0.960 3.476 1.356 9773
0.959 3.472 1.343 9444
0.978 3.541 1.355 10688
0.979 3.544 1.345 9528
0.982 3.555 1.337 7070
0.987 3.573 1.331 7752
0.990 3.583 1.323 10299
0.991 3.587 1.312 8860
1.036 3.750 1.354 7580
1.039 3.761 1.345 9411
1.042 3.771 1.336 6529
1.049 3.796 1.332 5095
1.054 3.814 1.325 6125
1.055 3.818 1.314 6659
1.064 3.850 1.311 3969
1.077 3.897 1.313 5319
1.078 3.901 1.302 6841
1.079 3.904 1.290 5068
1.108 4.010 1.309 4067
1.109 4.013 1.297 3928
1.114 4.031 1.289 2976
1.127 4.079 1.290 3880
1.128 4.082 1.277 5651
1.129 4.085 1.265 4946
1.166 4.221 1.290 4060
1.191 4.313 1.301 5154
1.190 4.308 1.286 8887
1.191 4.312 1.273 9992
1.194 4.322 1.262 10077
1.197 4.333 1.251 8879
1.239 4.484 1.276 7373
1.264 4.576 1.286 5339
1.253 4.535 1.261 3474
1.282 4.642 1.273 3109
1.279 4.630 1.255 6557
1.280 4.633 1.241 5544
1.310 4.741 1.252 3567
1.313 4.751 1.240 5432
1.318 4.769 1.229 5266
1.321 4.780 1.216 3218
1.361 4.924 1.234 3195
1.380 4.995 1.234 4195
1.383 5.005 1.221 4989
1.382 5.001 1.204 2644
1.422 5.146 1.219 2847
1.414 5.119 1.198 3085
1.492 5.399 1.239 4203
1.492 5.402 1.223 7541
1.495 5.412 1.208 6911
1.461 5.288 1.167 4942
1.505 5.448 1.182 3944
1.535 5.556 1.185 3772
1.536 5.559 1.169 3746
1.539 5.570 1.153 2978
1.606 5.813 1.180 3023
1.576 5.703 1.143 3072
1.581 5.721 1.128 2885
1.640 5.934 1.147 2543
1.717 6.216 1.176 2917
1.668 6.038 1.128 3257
1.663 6.018 1.106 3303
1.724 6.240 1.122 3624
1.723 6.235 1.103 3911
1.721 6.230 1.083 2759
1.837 6.648 1.126 2206
1.833 6.636 1.104 2715
1.832 6.631 1.083 2642
1.828 6.618 1.061 2127
1.932 6.991 1.092 1817
1.928 6.979 1.069 1836
2.050 7.421 1.105 1831
2.047 7.408 1.081 2313
2.079 7.524 1.073 2532
2.222 8.042 1.113 2288
2.223 8.045 1.089 2533
2.255 8.161 1.078 2036
2.258 8.172 1.054 2878
2.260 8.182 1.031 2896
2.301 8.328 1.021 2674
2.276 8.240 0.987 2001
2.281 8.257 0.964 1371
2.444 8.845 0.996 2039
2.442 8.839 0.968 2898
2.443 8.842 0.942 2950
2.473 8.950 0.925 2600
2.482 8.983 0.900 2452
2.482 8.985 0.873 2516
2.481 8.979 0.845 2557
2.479 8.974 0.818 1887
2.471 8.945 0.789 1241
2.476 8.962 0.763 749
2.483 8.987 0.737 642
2.483 8.988 0.710 541
2.484 8.990 0.683 289
0.855 3.095 -0.221 273
0.853 3.086 -0.229 376
0.547 1.963 1.560 2935
0.548 1.967 1.555 5871
0.551 1.977 1.553 5717
0.555 1.994 1.557 6196
0.560 2.010 1.560 6801
0.561 2.014 1.554 6445
0.564 2.024 1.552 6132
0.582 2.091 1.591 4982
0.585 2.102 1.590 5603
0.586 2.106 1.583 5603
0.588 2.110 1.577 6371
0.589 2.114 1.571 7138
0.588 2.111 1.560 5971
0.587 2.109 1.550 5045
0.597 2.145 1.565 5097
0.598 2.149 1.559 5949
0.598 2.147 1.548 5569
0.595 2.138 1.533 5498
0.602 2.161 1.540 5367
0.608 2.184 1.546 6035
0.615 2.207 1.552 5855
0.619 2.224 1.554 5997
0.621 2.228 1.548 6402
0.622 2.232 1.541 5555
0.614 2.204 1.514 5354
0.624 2.240 1.528 6046
0.625 2.244 1.521 7383
0.626 2.248 1.515 5658
0.633 2.271 1.520 3894
0.634 2.275 1.513 3370
0.633 2.272 1.503 3266
0.634 2.276 1.496 3407
0.635 2.280 1.489 2801
0.651 2.337 1.514 2256
0.661 2.374 1.527 2945
0.664 2.384 1.524 3939
0.665 2.388 1.517 4376
0.666 2.392 1.510 4814
0.665 2.389 1.499 3841
0.678 2.433 1.515 2837
0.680 2.443 1.511 3842
0.683 2.454 1.508 4709
0.686 2.464 1.505 4773
0.689 2.475 1.501 4421
0.692 2.485 1.497 4100
0.693 2.489 1.490 5430
0.694 2.493 1.483 6916
0.699 2.510 1.483 7288
0.704 2.528 1.482 6804
0.709 2.545 1.482 7310
0.710 2.549 1.475 7548
0.709 2.546 1.464 7694
0.710 2.549 1.456 7508
0.734 2.635 1.491 7437
0.735 2.639 1.483 8972
0.734 2.635 1.472 9386
0.735 2.639 1.464 9334
0.738 2.650 1.460 11753
0.739 2.653 1.452 17398
0.740 2.657 1.444 20518
0.741 2.661 1.436 17842
0.748 2.685 1.439 12976
0.753 2.703 1.437 12126
0.756 2.713 1.433 12039
0.766 2.751 1.441 12061
0.777 2.790 1.450 9711
0.790 2.835 1.461 11615
0.791 2.839 1.453 12047
0.792 2.842 1.444 8987
0.791 2.839 1.433 4697
0.792 2.843 1.424 3440
0.816 2.930 1.454 4012
0.813 2.920 1.439 6245
0.814 2.923 1.430 8035
0.821 2.948 1.431 6557
0.824 2.959 1.425 6975
0.829 2.976 1.423 7905
0.830 2.980 1.414 6902
0.831 2.983 1.405 7342
0.832 2.987 1.396 8915
0.833 2.990 1.387 8095
0.838 3.008 1.384 5676
0.866 3.111 1.417 8898
0.871 3.128 1.413 8330
0.886 3.182 1.424 8608
0.887 3.185 1.415 8653
0.888 3.189 1.405 7816
0.889 3.192 1.396 5639
0.890 3.196 1.386 5552
0.891 3.199 1.377 8281
0.892 3.203 1.367 7584
0.917 3.292 1.391 5404
0.916 3.288 1.378 7967
0.921 3.306 1.374 6141
0.928 3.331 1.372 4888
0.935 3.356 1.370 6236
0.940 3.374 1.365 7423
0.945 3.392 1.361 5209
0.962 3.453 1.371 7768
0.965 3.463 1.364 7899
0.968 3.474 1.356 9988
0.975 3.499 1.353 9791
0.986 3.539 1.355 10600
0.988 3.549 1.347 9539
0.989 3.553 1.337 7250
0.992 3.563 1.328 7668
0.997 3.581 1.323 10313
0.998 3.584 1.312 9039
1.044 3.748 1.354 7393
1.047 3.758 1.345 9160
1.050 3.769 1.336 5858
1.059 3.802 1.334 4543
1.062 3.812 1.325 5811
1.063 3.816 1.314 6313
1.070 3.841 1.309 3664
1.085 3.895 1.313 5222
1.086 3.899 1.302 6696
1.089 3.909 1.292 4980
1.090 3.912 1.281 3870
1.117 4.011 1.297 3598
1.122 4.029 1.289 2952
1.133 4.069 1.287 4024
1.136 4.079 1.277 5863
1.137 4.083 1.265 5116
1.175 4.218 1.290 4056
1.202 4.318 1.303 4885
1.199 4.306 1.286 8067
1.200 4.309 1.273 9368
1.203 4.320 1.262 9572
1.208 4.338 1.253 8542
1.248 4.482 1.276 7465
1.274 4.574 1.286 5234
1.271 4.562 1.268 3627
1.290 4.632 1.271 2986
1.289 4.628 1.255 6425
1.290 4.631 1.241 5333
1.317 4.730 1.250 3533
1.322 4.748 1.240 5237
1.327 4.766 1.229 5365
1.330 4.777 1.216 3223
1.371 4.922 1.234 3195
1.388 4.984 1.232 4104
1.393 5.002 1.221 4877
1.394 5.005 1.206 2601
1.432 5.143 1.219 2566
1.423 5.108 1.196 3035
1.503 5.396 1.239 4226
1.504 5.399 1.223 7646
1.506 5.409 1.208 6986
1.472 5.285 1.167 4571
1.516 5.445 1.182 3657
1.547 5.553 1.185 3635
1.547 5.556 1.169 3609
1.550 5.566 1.153 2861
1.618 5.810 1.180 2875
1.587 5.700 1.143 3058
1.592 5.718 1.128 2957
1.650 5.923 1.146 2463
1.730 6.212 1.176 2807
1.681 6.034 1.128 3167
1.675 6.015 1.106 3267
1.737 6.236 1.122 3707
1.735 6.231 1.103 3952
1.734 6.226 1.083 2759
1.850 6.644 1.126 2127
1.849 6.639 1.105 2669
1.848 6.634 1.084 2722
1.842 6.614 1.061 2271
1.944 6.980 1.091 1938
1.943 6.975 1.069 2025
2.065 7.416 1.105 1866
2.062 7.404 1.081 2412
2.094 7.520 1.073 2690
2.095 7.523 1.050 2034
2.239 8.040 1.089 2191
2.272 8.157 1.078 2010
2.275 8.167 1.054 2879
2.277 8.177 1.031 2902
2.318 8.324 1.021 2571
2.293 8.235 0.987 1899
2.470 8.867 1.025 1500
2.462 8.840 0.996 2139
2.460 8.834 0.968 2974
2.461 8.837 0.942 3043
2.491 8.945 0.925 2617
2.500 8.978 0.900 2415
2.501 8.980 0.873 2460
2.499 8.974 0.845 2524
2.498 8.969 0.818 1880
2.490 8.940 0.789 1291
2.492 8.950 0.762 787
2.499 8.974 0.737 645
2.502 8.983 0.710 534
2.504 8.992 0.684 283
0.861 3.093 -0.221 255
0.859 3.084 -0.229 357
0.551 1.969 1.565 2716
0.552 1.973 1.559 5432
0.555 1.983 1.558 5354
0.560 1.999 1.561 5892
0.562 2.010 1.560 6489
0.564 2.013 1.554 6348
0.565 2.017 1.548 6207
0.585 2.091 1.591 5314
0.588 2.101 1.590 6169
0.589 2.105 1.583 6169
0.590 2.109 1.577 6850
0.591 2.113 1.571 7532
0.591 2.111 1.560 6135
0.590 2.108 1.550 5056
0.602 2.151 1.570 5014
0.603 2.155 1.563 5882
0.602 2.152 1.552 5430
0.600 2.143 1.538 5261
0.605 2.160 1.540 5402
0.613 2.190 1.550 6314
0.618 2.207 1.552 6178
0.620 2.217 1.550 6091
0.623 2.227 1.548 6311
0.625 2.231 1.541 5437
0.617 2.203 1.514 5051
0.627 2.239 1.528 5955
0.628 2.243 1.521 7348
0.629 2.247 1.515 5717
0.635 2.270 1.520 3807
0.637 2.274 1.513 2995
0.636 2.272 1.503 2806
0.637 2.275 1.496 3018
0.638 2.279 1.489 2521
0.641 2.290 1.486 2053
0.664 2.373 1.527 2848
0.665 2.377 1.520 3988
0.666 2.380 1.513 4470
0.667 2.384 1.506 4953
0.667 2.382 1.495 4040
0.656 2.345 1.465 3052
0.684 2.442 1.511 3788
0.687 2.453 1.508 4861
0.689 2.464 1.505 5055
0.692 2.474 1.501 4435
0.695 2.485 1.497 3894
0.696 2.488 1.490 5334
0.697 2.492 1.483 7120
0.700 2.503 1.479 7649
0.707 2.527 1.482 6883
0.712 2.544 1.482 7180
0.713 2.548 1.475 7382
0.712 2.545 1.464 7653
0.713 2.548 1.456 7378
0.737 2.634 1.491 6858
0.738 2.638 1.483 8301
0.737 2.635 1.472 9137
0.738 2.638 1.464 9530
0.739 2.642 1.456 11953
0.742 2.653 1.452 17273
0.743 2.656 1.444 20151
0.744 2.660 1.436 17730
0.751 2.684 1.439 13084
0.756 2.702 1.437 12210
0.759 2.712 1.433 11887
0.770 2.750 1.441 11809
0.780 2.789 1.450 9716
0.793 2.834 1.461 11179
0.794 2.838 1.453 11611
0.795 2.841 1.444 8784
0.794 2.838 1.433 4691
0.815 2.911 1.456 3677
0.818 2.922 1.451 4438
0.817 2.919 1.439 6826
0.816 2.915 1.427 8349
0.817 2.919 1.418 6250
0.828 2.958 1.425 6594
0.833 2.975 1.423 7603
0.834 2.979 1.414 6633
0.833 2.975 1.402 7214
0.834 2.979 1.393 8926
0.837 2.989 1.387 8083
0.842 3.007 1.384 5645
0.870 3.110 1.417 8751
0.875 3.127 1.413 7994
0.890 3.180 1.424 8787
0.891 3.184 1.415 9129
0.892 3.188 1.405 8200
0.893 3.191 1.396 5808
0.894 3.195 1.386 5518
0.895 3.198 1.377 8571
0.896 3.202 1.367 8211
0.921 3.291 1.391 5977
0.920 3.287 1.378 8685
0.925 3.305 1.374 6301
0.932 3.330 1.372 4713
0.941 3.362 1.373 6296
0.944 3.373 1.365 7391
0.965 3.448 1.382 5416
0.966 3.452 1.371 7917
0.969 3.462 1.364 7911
0.974 3.480 1.358 10181
0.979 3.498 1.353 10143
0.990 3.537 1.355 10389
0.993 3.548 1.347 9546
0.994 3.551 1.337 7553
0.997 3.562 1.328 7663
1.002 3.580 1.323 10245
1.003 3.583 1.312 9153
1.046 3.739 1.352 6967
1.049 3.750 1.343 8752
1.054 3.768 1.336 5050
1.064 3.800 1.334 4007
1.067 3.811 1.325 5524
1.067 3.814 1.314 6082
1.068 3.817 1.302 3450
1.090 3.894 1.313 5027
1.091 3.897 1.302 6471
1.094 3.908 1.292 4846
1.095 3.911 1.281 3927
1.122 4.010 1.297 3141
1.125 4.020 1.287 2683
1.138 4.067 1.287 4303
1.139 4.071 1.275 6489
1.142 4.081 1.265 5541
1.180 4.217 1.290 3962
1.208 4.316 1.303 4718
1.207 4.312 1.288 7469
1.208 4.315 1.275 8843
1.211 4.326 1.264 9046
1.216 4.344 1.255 8191
1.254 4.480 1.276 7445
1.280 4.572 1.286 5136
1.276 4.560 1.268 3790
1.294 4.623 1.269 3099
1.295 4.626 1.255 6353
1.293 4.622 1.240 5145
1.323 4.729 1.250 3500
1.331 4.754 1.242 5116
1.336 4.772 1.231 5554
1.347 4.812 1.225 3352
1.377 4.920 1.234 3049
1.394 4.983 1.232 3985
1.399 5.000 1.221 4861
1.400 5.003 1.206 2637
1.439 5.141 1.219 2421
1.427 5.099 1.194 3060
1.510 5.394 1.239 4192
1.510 5.397 1.223 7492
1.513 5.407 1.208 6647
1.479 5.283 1.167 4273
1.523 5.443 1.182 3193
1.556 5.559 1.187 3519
1.556 5.561 1.170 3473
1.557 5.564 1.153 2697
1.625 5.808 1.180 2703
1.597 5.705 1.144 2904
1.608 5.746 1.133 3008
1.655 5.914 1.144 2602
1.738 6.210 1.176 2645
1.686 6.025 1.126 2950
1.683 6.013 1.106 3219
1.745 6.234 1.122 3661
1.743 6.229 1.103 3817
1.742 6.224 1.083 2698
1.861 6.649 1.127 2038
1.860 6.644 1.106 2618
1.854 6.624 1.083 2785
1.851 6.612 1.061 2401
1.953 6.977 1.091 2009
1.951 6.972 1.069 2051
2.075 7.414 1.105 1926
2.069 7.394 1.080 2563
2.104 7.517 1.073 2836
2.105 7.520 1.050 2119
2.252 8.045 1.090 1856
2.282 8.154 1.078 1975
2.285 8.164 1.054 2866
2.288 8.174 1.031 2903
2.327 8.313 1.021 2496
2.304 8.232 0.987 1830
2.481 8.864 1.025 1641
2.473 8.836 0.996 2225
2.474 8.839 0.969 3030
2.474 8.841 0.942 3114
2.503 8.942 0.925 2590
2.512 8.975 0.900 2366
2.512 8.977 0.873 2411
2.511 8.971 0.845 2500
2.509 8.965 0.818 1879
2.501 8.937 0.789 1337
2.506 8.954 0.763 825
2.511 8.971 0.737 659
2.511 8.973 0.710 540
2.516 8.989 0.684 280
0.863 3.083 -0.229 323
0.552 1.968 1.565 2614
0.554 1.972 1.559 5229
0.556 1.982 1.558 5209
0.561 1.999 1.561 5731
0.564 2.009 1.560 6255
0.565 2.013 1.554 6310
0.566 2.017 1.548 6364
0.587 2.090 1.591 5655
0.590 2.100 1.590 6684
0.591 2.105 1.583 6684
0.592 2.109 1.577 7292
0.593 2.113 1.571 7899
0.592 2.110 1.560 6308
0.592 2.108 1.550 5079
0.604 2.150 1.570 5022
0.605 2.154 1.563 5865
0.604 2.152 1.552 5382
0.603 2.149 1.542 5136
0.608 2.166 1.544 5466
0.615 2.189 1.550 6604
0.617 2.200 1.548 6487
0.622 2.217 1.550 6236
0.625 2.227 1.548 6278
0.628 2.237 1.545 5383
0.618 2.202 1.514 4781
0.628 2.239 1.528 5896
0.630 2.243 1.521 7326
0.632 2.253 1.519 5777
0.637 2.270 1.520 3772
0.638 2.274 1.513 2674
0.638 2.271 1.503 2375
0.639 2.275 1.496 2656
0.642 2.285 1.493 2285
0.643 2.289 1.486 1962
0.660 2.352 1.515 2780
0.665 2.369 1.516 4061
0.666 2.373 1.509 4568
0.667 2.377 1.502 5075
0.666 2.374 1.491 4234
0.658 2.345 1.465 3217
0.685 2.442 1.511 3796
0.688 2.452 1.508 5023
0.693 2.470 1.508 5323
0.694 2.474 1.501 4475
0.697 2.484 1.497 3747
0.698 2.488 1.490 5262
0.699 2.492 1.483 7285
0.702 2.502 1.479 7956
0.707 2.519 1.479 6980
0.714 2.543 1.482 7088
0.715 2.547 1.475 7275
0.714 2.544 1.464 7619
0.715 2.548 1.456 7214
0.716 2.552 1.448 6425
0.740 2.637 1.483 7634
0.739 2.634 1.472 8661
0.740 2.638 1.464 9366
0.741 2.641 1.456 11804
0.744 2.652 1.452 16995
0.745 2.656 1.444 19817
0.746 2.659 1.436 17667
0.753 2.684 1.439 13110
0.758 2.701 1.437 12207
0.761 2.712 1.433 11672
0.772 2.750 1.441 11612
0.783 2.788 1.450 9749
0.795 2.833 1.461 10627
0.798 2.844 1.456 11069
0.795 2.834 1.441 8533
0.796 2.837 1.433 4693
0.815 2.904 1.453 4179
0.818 2.914 1.448 4833
0.819 2.918 1.439 7229
0.818 2.915 1.427 8581
0.819 2.918 1.418 6047
0.832 2.964 1.428 6193
0.835 2.975 1.423 7193
0.836 2.978 1.414 6349
0.835 2.975 1.402 7175
0.836 2.978 1.393 9025
0.839 2.989 1.387 8071
0.844 3.006 1.384 5632
0.873 3.109 1.417 8549
0.878 3.127 1.413 7585
0.893 3.180 1.424 8815
0.894 3.183 1.415 9286
0.895 3.187 1.405 8249
0.896 3.190 1.396 5762
0.897 3.194 1.386 5516
0.898 3.198 1.377 9072
0.901 3.208 1.370 9079
0.922 3.283 1.388 6491
0.923 3.286 1.378 9230
0.928 3.304 1.374 6370
0.935 3.329 1.372 4543
0.944 3.361 1.373 6252
0.947 3.372 1.365 7248
0.968 3.447 1.382 5761
0.969 3.451 1.371 8035
0.972 3.461 1.364 7896
0.977 3.479 1.358 10337
0.980 3.490 1.351 10401
0.993 3.537 1.355 10117
0.996 3.547 1.347 9453
0.997 3.551 1.337 7700
1.000 3.561 1.328 7601
1.005 3.579 1.323 10149
1.006 3.582 1.312 9151
1.049 3.738 1.352 6636
1.052 3.749 1.343 8294
1.057 3.767 1.336 4274
1.069 3.807 1.337 3531
1.069 3.810 1.325 5152
1.068 3.806 1.311 5667
1.071 3.817 1.302 3285
1.093 3.893 1.313 4782
1.092 3.889 1.299 6104
1.097 3.907 1.292 4654
1.098 3.910 1.281 4037
1.125 4.009 1.297 2784
1.116 3.975 1.274 2557
1.141 4.067 1.287 4594
1.142 4.070 1.275 7036
1.145 4.080 1.265 5829
1.183 4.216 1.290 4002
1.207 4.300 1.299 4720
1.210 4.311 1.288 7117
1.211 4.314 1.275 8467
1.214 4.325 1.264 8676
1.219 4.343 1.255 7915
1.257 4.479 1.276 7361
1.258 4.482 1.263 5042
1.280 4.559 1.268 3878
1.297 4.622 1.269 3266
1.296 4.618 1.253 6290
1.297 4.621 1.240 4943
1.325 4.720 1.249 3565
1.336 4.761 1.243 4949
1.339 4.771 1.231 5647
1.351 4.811 1.225 3527
1.381 4.919 1.234 2940
1.398 4.981 1.232 3844
1.403 4.999 1.221 4746
1.406 5.010 1.207 2577
1.443 5.140 1.219 2340
1.429 5.091 1.193 3086
1.514 5.393 1.239 4026
1.515 5.396 1.223 7139
1.518 5.406 1.208 6266
1.483 5.282 1.167 4036
1.486 5.292 1.153 3011
1.562 5.565 1.188 3347
1.561 5.560 1.170 3287
1.562 5.563 1.153 2531
1.630 5.806 1.180 2652
1.601 5.704 1.144 2774
1.612 5.744 1.133 3044
1.660 5.913 1.144 2708
1.743 6.209 1.176 2441
1.691 6.024 1.126 2788
1.687 6.011 1.106 2968
1.749 6.232 1.122 3547
1.748 6.228 1.103 3601
1.745 6.215 1.082 2634
1.866 6.648 1.127 1948
1.865 6.643 1.106 2565
1.859 6.623 1.083 2862
1.853 6.603 1.060 2562
1.958 6.976 1.091 1920
1.957 6.971 1.069 1884
2.081 7.412 1.105 1963
2.075 7.392 1.080 2629
2.110 7.516 1.073 2880
2.066 7.359 1.031 2121
2.156 7.680 1.047 1730
2.288 8.152 1.078 1924
2.293 8.170 1.055 2822
2.294 8.172 1.031 2863
2.333 8.311 1.021 2428
2.310 8.230 0.987 1712
2.488 8.862 1.025 1763
2.482 8.842 0.996 2331
2.481 8.837 0.969 3103
2.481 8.839 0.942 3196
2.484 8.849 0.916 2623
2.491 8.874 0.892 2336
2.519 8.975 0.873 2361
2.518 8.969 0.845 2467
2.514 8.956 0.817 1866
2.506 8.927 0.788 1359
2.511 8.944 0.762 820
2.515 8.961 0.736 614
2.518 8.971 0.710 493
2.523 8.987 0.684 256
0.557 1.974 1.570 2597
0.558 1.978 1.564 5195
0.561 1.988 1.563 5202
0.564 1.998 1.561 5647
0.567 2.008 1.560 6091
0.568 2.012 1.554 6289
0.569 2.016 1.548 6488
0.590 2.089 1.591 6015
0.591 2.093 1.585 7250
0.592 2.097 1.579 7250
0.595 2.108 1.577 7739
0.596 2.112 1.571 8269
0.595 2.109 1.560 6482
0.595 2.107 1.550 5096
0.606 2.149 1.570 5043
0.609 2.160 1.567 5841
0.607 2.151 1.552 5336
0.606 2.148 1.542 5063
0.611 2.165 1.544 5619
0.618 2.188 1.550 6943
0.620 2.199 1.548 6849
0.623 2.209 1.546 6417
0.628 2.226 1.548 6273
0.631 2.237 1.545 5337
0.621 2.202 1.514 4544
0.631 2.238 1.528 5843
0.633 2.242 1.521 7301
0.636 2.252 1.519 5856
0.640 2.269 1.520 3782
0.641 2.273 1.513 2459
0.642 2.277 1.507 2043
0.642 2.274 1.496 2347
0.645 2.284 1.493 2081
0.659 2.334 1.514 1903
0.662 2.345 1.511 2912
0.666 2.362 1.512 4213
0.669 2.372 1.509 4731
0.671 2.376 1.502 5287
0.670 2.373 1.491 4536
0.663 2.351 1.469 3468
0.689 2.441 1.511 3864
0.692 2.452 1.508 5250
0.695 2.462 1.505 5664
0.700 2.479 1.505 4566
0.706 2.503 1.509 3650
0.702 2.487 1.490 5163
0.703 2.491 1.483 7376
0.706 2.501 1.479 8162
0.711 2.518 1.479 6998
0.717 2.542 1.482 6921
0.718 2.546 1.475 7121
0.718 2.543 1.464 7553
0.719 2.547 1.456 7066
0.722 2.557 1.452 6160
0.744 2.636 1.483 6972
0.743 2.633 1.472 8106
0.744 2.637 1.464 9105
0.745 2.640 1.456 11654
0.748 2.651 1.452 16785
0.749 2.655 1.444 19558
0.750 2.658 1.436 17605
0.755 2.676 1.435 13139
0.760 2.693 1.434 12207
0.765 2.711 1.433 11369
0.778 2.756 1.445 11414
0.786 2.787 1.450 9866
0.799 2.832 1.461 10047
0.802 2.843 1.456 10490
0.799 2.833 1.441 8334
0.810 2.871 1.449 4725
0.819 2.903 1.453 4685
0.822 2.913 1.448 5243
0.821 2.910 1.436 7683
0.822 2.914 1.427 8819
0.823 2.917 1.418 5879
0.836 2.963 1.428 5716
0.839 2.973 1.423 6661
0.840 2.977 1.414 5985
0.839 2.974 1.402 7082
0.840 2.977 1.393 9070
0.843 2.988 1.387 8046
0.848 3.005 1.384 5630
0.877 3.108 1.417 8204
0.882 3.125 1.413 7179
0.897 3.179 1.424 8834
0.898 3.182 1.415 9431
0.899 3.186 1.405 8320
0.900 3.189 1.396 5845
0.901 3.193 1.386 5539
0.902 3.196 1.377 9314
0.905 3.207 1.370 9625
0.926 3.282 1.388 6791
0.927 3.285 1.378 9526
0.932 3.303 1.374 6440
0.941 3.335 1.375 4415
0.948 3.360 1.373 6161
0.951 3.371 1.365 7028
0.972 3.446 1.382 6067
0.975 3.457 1.374 8070
0.976 3.460 1.364 7779
0.981 3.478 1.358 10426
0.984 3.489 1.351 10627
0.998 3.535 1.355 9732
1.001 3.546 1.347 9307
1.002 3.549 1.337 7867
1.005 3.560 1.328 7503
1.010 3.578 1.323 9893
1.010 3.581 1.312 8968
1.054 3.737 1.352 6287
1.055 3.740 1.340 7879
1.060 3.758 1.334 3705
1.074 3.805 1.337 3093
1.062 3.765 1.311 4772
1.074 3.805 1.311 5202
1.077 3.815 1.302 3184
1.096 3.884 1.311 4570
1.097 3.887 1.299 5810
1.102 3.905 1.292 4459
1.105 3.916 1.283 4157
1.106 3.919 1.271 2706
1.121 3.974 1.274 2461
1.147 4.065 1.287 4881
1.148 4.068 1.275 7487
1.151 4.079 1.265 6200
1.158 4.104 1.259 3869
1.213 4.299 1.299 4580
1.216 4.309 1.288 6413
1.217 4.312 1.275 8022
1.220 4.323 1.264 8257
1.227 4.348 1.257 7538
1.263 4.477 1.276 7064
1.264 4.480 1.263 4964
1.280 4.535 1.263 4032
1.304 4.620 1.269 3515
1.302 4.616 1.253 6273
1.301 4.611 1.238 4761
1.331 4.719 1.249 3710
1.345 4.766 1.245 4949
1.348 4.777 1.232 5777
1.357 4.810 1.225 3773
1.387 4.917 1.234 2951
1.403 4.972 1.231 3681
1.410 4.997 1.221 4660
1.413 5.008 1.207 2513
1.427 5.056 1.202 2469
1.436 5.089 1.193 3183
1.521 5.390 1.239 3885
1.522 5.394 1.223 6777
1.525 5.404 1.208 5734
1.456 5.160 1.143 3860
1.493 5.290 1.153 2802
1.570 5.563 1.188 3269
1.573 5.573 1.173 3166
1.605 5.689 1.177 2653
1.636 5.797 1.179 2500
1.611 5.709 1.145 2646
1.620 5.742 1.133 2915
1.668 5.910 1.144 2777
1.645 5.830 1.113 2317
1.699 6.021 1.126 2562
1.696 6.009 1.106 2795
1.758 6.230 1.122 3481
1.757 6.225 1.103 3489
1.753 6.213 1.082 2574
1.877 6.653 1.128 1796
1.874 6.640 1.106 2471
1.866 6.613 1.082 2913
1.862 6.601 1.060 2692
1.867 6.618 1.042 1917
1.966 6.968 1.069 1816
2.091 7.409 1.105 2063
2.085 7.389 1.080 2721
2.120 7.513 1.073 2973
2.076 7.357 1.031 2231
2.166 7.677 1.047 1879
2.299 8.149 1.078 1855
2.302 8.159 1.054 2736
2.305 8.169 1.031 2777
2.344 8.308 1.021 2361
2.319 8.220 0.986 1591
2.500 8.859 1.025 1888
2.494 8.839 0.996 2426
2.493 8.833 0.969 3132
2.493 8.836 0.942 3227
2.498 8.853 0.917 2693
2.503 8.871 0.892 2469
2.531 8.971 0.873 2269
2.530 8.966 0.845 2392
2.526 8.953 0.817 1826
2.518 8.924 0.788 1368
2.523 8.941 0.762 828
2.528 8.958 0.736 634
2.530 8.967 0.710 506
2.535 8.984 0.684 263
0.559 1.973 1.570 2587
0.560 1.977 1.564 5175
0.563 1.987 1.563 5169
0.565 1.998 1.561 5521
0.568 2.008 1.560 5910
0.569 2.012 1.554 6239
0.571 2.016 1.548 6568
0.591 2.089 1.591 6346
0.592 2.093 1.585 7769
0.594 2.097 1.579 7769
0.596 2.107 1.577 8142
0.598 2.111 1.571 8595
0.597 2.109 1.560 6639
0.596 2.107 1.550 5107
0.608 2.149 1.570 5072
0.611 2.159 1.567 5869
0.609 2.150 1.552 5324
0.610 2.154 1.546 5017
0.613 2.165 1.544 5760
0.619 2.188 1.550 7247
0.622 2.198 1.548 7176
0.625 2.209 1.546 6634
0.630 2.226 1.548 6290
0.633 2.236 1.545 5296
0.634 2.240 1.539 4412
0.635 2.244 1.532 5784
0.634 2.241 1.521 7265
0.637 2.252 1.519 5935
0.642 2.269 1.520 3843
0.645 2.279 1.517 2389
0.644 2.276 1.507 1911
0.644 2.274 1.496 2161
0.648 2.291 1.497 1970
0.661 2.334 1.514 2047
0.664 2.344 1.511 3107
0.668 2.361 1.512 4383
0.669 2.365 1.505 4904
0.672 2.376 1.502 5439
0.670 2.366 1.487 4822
0.667 2.357 1.472 3724
0.689 2.434 1.508 4074
0.694 2.451 1.508 5504
0.697 2.461 1.505 6006
0.702 2.479 1.505 4680
0.708 2.503 1.509 3723
0.704 2.486 1.490 5064
0.705 2.490 1.483 7377
0.708 2.501 1.479 8238
0.713 2.518 1.479 6907
0.719 2.542 1.482 6666
0.719 2.539 1.471 6901
0.720 2.543 1.464 7417
0.723 2.553 1.460 6901
0.724 2.557 1.452 5948
0.744 2.629 1.480 6366
0.743 2.626 1.469 7639
0.746 2.636 1.464 8857
0.747 2.640 1.456 11523
0.750 2.650 1.452 16542
