1.191 0.202 1.406 18414
1.195 0.202 1.402 23685
1.204 0.204 1.404 32143
1.213 0.205 1.406 28568
1.222 0.207 1.408 25909
1.226 0.208 1.404 24727
1.229 0.208 1.401 23153
1.250 0.212 1.413 20648
1.253 0.212 1.410 16201
1.263 0.214 1.411 17232
1.272 0.215 1.413 14265
1.275 0.216 1.409 17575
1.285 0.218 1.411 24211
1.294 0.219 1.413 23071
1.298 0.220 1.409 26484
1.301 0.220 1.405 24345
1.311 0.222 1.406 23526
1.314 0.222 1.402 21237
1.318 0.223 1.398 15957
1.321 0.224 1.394 17484
1.319 0.223 1.385 21450
1.323 0.224 1.381 21753
1.320 0.224 1.372 19682
1.330 0.225 1.373 22700
1.339 0.227 1.374 22359
1.343 0.227 1.370 15930
1.346 0.228 1.366 10259
1.356 0.230 1.367 8991
1.365 0.231 1.368 8468
1.386 0.235 1.380 16047
1.390 0.235 1.376 27342
1.393 0.236 1.372 25093
1.403 0.237 1.372 16893
1.412 0.239 1.373 15908
1.416 0.240 1.369 15377
1.419 0.240 1.365 9496
1.435 0.243 1.371 5842
1.456 0.247 1.381 7239
1.460 0.247 1.377 13488
1.463 0.248 1.373 28574
1.467 0.248 1.368 46357
1.477 0.250 1.369 56101
1.480 0.251 1.364 58982
1.484 0.251 1.360 58829
1.487 0.252 1.356 53321
1.491 0.252 1.351 43344
1.494 0.253 1.347 31826
1.497 0.254 1.342 21753
1.501 0.254 1.338 13930
1.510 0.256 1.338 9024
1.526 0.258 1.343 8154
1.524 0.258 1.334 8557
1.527 0.259 1.329 10645
1.543 0.261 1.334 18319
1.546 0.262 1.329 27962
1.550 0.262 1.325 32122
1.553 0.263 1.320 28980
1.556 0.263 1.315 20655
1.566 0.265 1.315 21903
1.569 0.266 1.311 30018
1.566 0.265 1.301 27406
1.570 0.266 1.297 21639
1.579 0.267 1.296 15726
1.583 0.268 1.292 11647
1.592 0.270 1.291 14833
1.602 0.271 1.291 15397
1.605 0.272 1.286 9207
1.634 0.277 1.299 9890
1.631 0.276 1.290 13453
1.641 0.278 1.290 14064
1.664 0.282 1.298 13997
1.667 0.282 1.293 13585
1.690 0.286 1.301 11533
1.713 0.290 1.309 12101
1.729 0.293 1.313 12643
1.726 0.292 1.303 15783
1.729 0.293 1.298 19117
1.732 0.293 1.293 19834
1.742 0.295 1.292 20441
1.746 0.296 1.287 19832
1.762 0.298 1.290 21550
1.778 0.301 1.293 26797
1.782 0.302 1.288 27378
1.798 0.304 1.291 23528
1.815 0.307 1.294 20991
1.818 0.308 1.288 21521
1.828 0.310 1.287 19267
1.831 0.310 1.281 16960
1.835 0.311 1.276 13376
1.824 0.309 1.262 10242
1.828 0.309 1.257 10447
1.838 0.311 1.255 9169
1.901 0.322 1.286 9391
1.911 0.324 1.284 14210
1.915 0.324 1.278 17864
1.918 0.325 1.272 21517
1.921 0.325 1.267 20321
1.931 0.327 1.265 15333
1.962 0.332 1.275 13063
1.965 0.333 1.269 13589
1.975 0.334 1.267 14318
1.992 0.337 1.268 11078
2.022 0.342 1.277 11456
2.019 0.342 1.268 12412
2.029 0.343 1.265 12023
2.039 0.345 1.263 11969
2.042 0.346 1.257 11727
2.038 0.345 1.247 11615
2.049 0.347 1.245 9308
2.086 0.353 1.257 7719
2.096 0.355 1.254 7928
2.100 0.355 1.248 8166
2.110 0.357 1.245 6986
2.134 0.361 1.250 6730
2.137 0.362 1.243 8084
2.147 0.364 1.240 9484
2.150 0.364 1.234 8314
2.153 0.365 1.227 7143
2.163 0.366 1.224 6856
2.188 0.370 1.228 7484
2.198 0.372 1.225 9638
2.208 0.374 1.222 12302
2.225 0.377 1.222 11301
2.235 0.378 1.219 10999
2.245 0.380 1.215 9971
2.256 0.382 1.212 9200
2.266 0.384 1.209 10641
2.269 0.384 1.202 12133
2.272 0.385 1.195 12133
2.282 0.386 1.192 9994
2.285 0.387 1.185 7922
2.288 0.387 1.178 5332
2.277 0.385 1.165 2962
2.287 0.387 1.161 3704
2.297 0.389 1.157 4583
2.300 0.389 1.150 4583
2.302 0.390 1.144 4956
0.616 0.103 1.569 6330
0.620 0.103 1.567 6181
0.624 0.104 1.565 6069
0.629 0.105 1.563 5017
0.629 0.105 1.554 4035
0.630 0.105 1.545 3302
0.631 0.105 1.536 2590
0.635 0.106 1.534 3572
0.642 0.107 1.539 5376
0.653 0.109 1.551 6579
0.657 0.109 1.549 10786
0.661 0.110 1.547 14994
0.665 0.111 1.545 18847
0.669 0.111 1.543 22700
0.673 0.112 1.541 28875
0.677 0.113 1.539 35456
0.681 0.113 1.537 38235
0.689 0.115 1.542 41601
0.693 0.115 1.540 40140
0.697 0.116 1.538 38678
0.701 0.117 1.536 36690
0.705 0.117 1.533 34702
0.709 0.118 1.531 32560
0.716 0.119 1.536 30498
0.717 0.119 1.527 27684
0.721 0.120 1.525 24950
0.724 0.121 1.523 21903
0.728 0.121 1.520 18855
0.736 0.123 1.525 18633
0.740 0.123 1.523 18662
0.744 0.124 1.521 20889
0.748 0.125 1.518 23117
0.756 0.126 1.523 24935
0.760 0.127 1.521 29525
0.764 0.127 1.518 31729
0.768 0.128 1.516 32277
0.772 0.128 1.514 32787
0.776 0.129 1.511 29895
0.780 0.130 1.509 25750
0.787 0.131 1.513 20682
0.795 0.132 1.518 11804
0.803 0.134 1.522 7521
0.803 0.134 1.513 5899
0.799 0.133 1.497 4761
0.811 0.135 1.508 5724
0.815 0.136 1.505 6805
0.819 0.136 1.503 6755
0.823 0.137 1.500 6095
0.827 0.138 1.498 8544
0.831 0.138 1.495 11651
0.839 0.140 1.500 15921
0.843 0.140 1.497 25640
0.846 0.141 1.495 30685
0.855 0.142 1.499 33575
0.859 0.143 1.496 35058
0.862 0.144 1.493 27408
0.871 0.145 1.497 20050
0.879 0.146 1.501 19331
0.887 0.148 1.505 18770
0.895 0.149 1.509 17956
0.891 0.148 1.493 18618
0.894 0.149 1.490 23850
0.898 0.150 1.488 29630
0.902 0.150 1.485 32063
0.906 0.151 1.482 32407
0.910 0.151 1.480 31803
0.918 0.153 1.483 27727
0.917 0.153 1.474 18123
0.926 0.154 1.478 11177
0.930 0.155 1.475 7176
0.929 0.155 1.466 3063
0.933 0.155 1.463 1995
0.955 0.159 1.485 4176
0.959 0.160 1.483 11778
0.958 0.159 1.473 20606
0.962 0.160 1.470 25008
0.966 0.161 1.468 27496
0.974 0.162 1.471 30300
0.987 0.164 1.481 27614
0.996 0.166 1.484 19193
1.005 0.167 1.487 12542
1.004 0.167 1.478 14146
0.998 0.166 1.462 15279
0.992 0.165 1.447 16510
0.996 0.166 1.444 14865
0.999 0.166 1.441 13475
1.013 0.169 1.450 18158
1.022 0.170 1.453 19276
1.025 0.171 1.450 14489
1.034 0.172 1.453 13703
1.038 0.173 1.450 13458
1.047 0.174 1.453 10017
1.055 0.176 1.456 9785
1.054 0.175 1.447 12048
1.068 0.178 1.456 14154
1.077 0.179 1.458 14900
1.091 0.182 1.467 9418
1.099 0.183 1.470 4883
1.093 0.182 1.455 6433
1.092 0.182 1.445 10730
1.095 0.182 1.442 11967
1.104 0.184 1.445 14336
1.113 0.185 1.447 16181
1.117 0.186 1.444 13564
1.126 0.187 1.446 16463
1.135 0.189 1.449 18874
1.139 0.190 1.445 12317
1.137 0.189 1.436 7854
1.141 0.190 1.433 7346
1.150 0.191 1.435 10574
1.153 0.192 1.432 18454
1.162 0.194 1.434 25954
1.166 0.194 1.430 29121
1.170 0.195 1.427 22710
1.179 0.196 1.429 20063
1.183 0.197 1.426 24517
1.186 0.197 1.422 25481
1.190 0.198 1.418 21978
1.188 0.198 1.409 22774
1.192 0.198 1.406 22107
1.201 0.200 1.408 25289
1.204 0.201 1.404 33766
1.214 0.202 1.406 27549
1.223 0.204 1.408 25154
1.221 0.203 1.399 30916
1.224 0.204 1.395 29465
1.245 0.207 1.408 21119
1.248 0.208 1.404 14692
1.269 0.211 1.417 13722
1.272 0.212 1.413 13024
1.253 0.209 1.387 17916
1.291 0.215 1.416 20185
1.295 0.216 1.413 22138
1.293 0.215 1.403 28066
1.302 0.217 1.405 23402
1.305 0.217 1.401 22340
1.309 0.218 1.397 19323
1.313 0.219 1.393 15393
1.322 0.220 1.394 20592
1.320 0.220 1.385 26562
1.323 0.220 1.381 26822
1.321 0.220 1.372 21389
1.330 0.221 1.373 22282
1.340 0.223 1.374 21992
1.343 0.224 1.370 15228
1.341 0.223 1.361 8885
1.350 0.225 1.362 6868
1.354 0.225 1.358 8413
1.387 0.231 1.380 15542
1.390 0.231 1.376 25916
1.394 0.232 1.372 23253
1.403 0.234 1.372 14642
1.419 0.236 1.378 12880
1.422 0.237 1.374 11354
1.420 0.236 1.365 5994
1.429 0.238 1.366 5529
1.451 0.242 1.376 8965
1.461 0.243 1.377 14567
1.464 0.244 1.373 27637
1.468 0.244 1.368 43412
1.477 0.246 1.369 53255
1.481 0.247 1.364 57501
1.484 0.247 1.360 57628
1.488 0.248 1.356 51258
1.491 0.248 1.351 40597
1.495 0.249 1.347 29452
1.498 0.249 1.342 20213
1.502 0.250 1.338 13087
1.511 0.252 1.338 8360
1.521 0.253 1.338 7098
1.524 0.254 1.334 7896
1.528 0.254 1.329 10497
1.544 0.257 1.334 17900
1.547 0.258 1.329 26621
1.550 0.258 1.325 31673
1.554 0.259 1.320 29465
1.563 0.260 1.320 20583
1.567 0.261 1.315 21252
1.570 0.261 1.311 28164
1.567 0.261 1.301 24437
1.570 0.261 1.297 19044
1.574 0.262 1.292 15219
1.583 0.264 1.292 11241
1.599 0.266 1.296 12241
1.609 0.268 1.296 12491
1.625 0.271 1.300 8402
1.635 0.272 1.299 11603
1.638 0.273 1.295 15716
1.642 0.273 1.290 16293
1.664 0.277 1.298 16416
1.668 0.278 1.293 14824
1.690 0.281 1.301 11938
1.713 0.285 1.309 12450
1.730 0.288 1.313 12381
1.733 0.289 1.307 14612
1.730 0.288 1.298 16994
1.733 0.289 1.293 17392
1.743 0.290 1.292 18273
1.746 0.291 1.287 19165
1.763 0.293 1.290 23176
1.779 0.296 1.293 29226
1.783 0.297 1.288 29562
1.799 0.300 1.291 24748
1.816 0.302 1.294 21693
1.819 0.303 1.288 21838
1.829 0.304 1.287 19413
1.839 0.306 1.285 17318
1.836 0.306 1.276 13434
1.825 0.304 1.262 10381
1.829 0.304 1.257 10787
1.838 0.306 1.255 8828
1.909 0.318 1.290 9508
1.912 0.318 1.284 15167
1.916 0.319 1.278 18818
1.919 0.319 1.272 22469
1.922 0.320 1.267 21232
1.925 0.321 1.261 15295
1.935 0.322 1.259 10927
1.973 0.328 1.273 11784
1.976 0.329 1.267 13146
1.993 0.332 1.268 10579
2.023 0.337 1.277 10598
2.027 0.337 1.271 11155
2.030 0.338 1.265 11342
2.040 0.340 1.263 11579
2.036 0.339 1.253 11634
2.039 0.340 1.247 11738
2.050 0.341 1.245 9564
2.087 0.348 1.257 7709
2.097 0.349 1.254 7727
2.101 0.350 1.248 7860
2.111 0.351 1.245 7141
2.128 0.354 1.246 6869
2.145 0.357 1.247 7905
2.148 0.358 1.240 9166
2.151 0.358 1.234 7930
2.154 0.359 1.227 6695
2.164 0.360 1.224 6036
2.189 0.364 1.228 6435
2.206 0.367 1.229 8667
2.216 0.369 1.225 11461
2.233 0.372 1.226 10873
2.243 0.373 1.222 11034
2.254 0.375 1.219 10486
2.257 0.376 1.212 10039
2.267 0.377 1.209 11376
2.270 0.378 1.202 12828
2.273 0.378 1.195 12828
2.283 0.380 1.192 10566
2.286 0.381 1.185 8408
2.282 0.380 1.175 5611
2.285 0.380 1.168 2971
2.295 0.382 1.164 3758
2.298 0.383 1.157 4715
2.301 0.383 1.150 4715
2.318 0.386 1.150 5158
0.617 0.101 1.569 6585
0.621 0.102 1.567 6769
0.625 0.103 1.565 6940
0.629 0.103 1.563 5960
0.633 0.104 1.561 4980
0.630 0.104 1.545 3297
0.617 0.101 1.507 1984
0.625 0.103 1.512 3231
0.642 0.106 1.539 5324
0.650 0.107 1.544 6851
0.657 0.108 1.549 10823
0.661 0.109 1.547 14863
0.665 0.109 1.545 18577
0.669 0.110 1.543 22292
0.673 0.111 1.541 28404
0.677 0.111 1.539 34873
0.681 0.112 1.537 37711
0.689 0.113 1.542 41113
0.693 0.114 1.540 39870
0.697 0.115 1.538 38628
0.701 0.115 1.536 36832
0.705 0.116 1.533 35037
0.709 0.117 1.531 32976
0.717 0.118 1.536 31085
0.717 0.118 1.527 27983
0.721 0.118 1.525 25051
0.725 0.119 1.523 21629
0.729 0.120 1.520 18208
0.736 0.121 1.525 17395
0.740 0.122 1.523 16785
0.744 0.122 1.521 19209
0.748 0.123 1.518 21632
0.756 0.124 1.523 24067
0.760 0.125 1.521 29816
0.764 0.126 1.518 32629
0.768 0.126 1.516 33651
0.772 0.127 1.514 34571
0.776 0.128 1.511 31856
0.780 0.128 1.509 27836
0.788 0.129 1.513 22581
0.796 0.131 1.518 12948
0.804 0.132 1.522 8036
0.804 0.132 1.513 6601
0.803 0.132 1.504 5438
0.811 0.133 1.508 6772
0.815 0.134 1.505 8103
0.819 0.135 1.503 8125
0.823 0.135 1.500 7044
0.827 0.136 1.498 8082
0.831 0.137 1.495 10202
0.839 0.138 1.500 14328
0.843 0.139 1.497 24317
0.847 0.139 1.495 29688
0.855 0.141 1.499 32881
0.859 0.141 1.496 34849
0.863 0.142 1.493 27289
0.871 0.143 1.497 20125
0.879 0.145 1.501 18687
0.887 0.146 1.505 17218
0.896 0.147 1.509 16435
0.891 0.146 1.493 18120
0.895 0.147 1.490 24897
0.899 0.148 1.488 30969
0.902 0.148 1.485 33374
0.906 0.149 1.482 33305
0.910 0.150 1.480 31735
0.914 0.150 1.477 27059
0.918 0.151 1.474 17713
0.926 0.152 1.478 11227
0.930 0.153 1.475 7055
0.934 0.153 1.472 3738
0.938 0.154 1.469 3042
0.951 0.156 1.479 4077
0.959 0.158 1.483 11783
0.958 0.158 1.473 20986
0.962 0.158 1.470 25459
0.966 0.159 1.468 28106
0.974 0.160 1.471 30855
0.988 0.162 1.481 27669
0.996 0.164 1.484 18714
1.000 0.164 1.481 11619
1.004 0.165 1.478 13286
0.998 0.164 1.462 15937
0.992 0.163 1.447 17158
0.991 0.163 1.438 14515
1.000 0.164 1.441 13263
1.013 0.167 1.450 18212
1.022 0.168 1.453 19340
1.026 0.169 1.450 13903
1.034 0.170 1.453 12967
1.038 0.171 1.450 13830
1.052 0.173 1.459 10776
1.056 0.174 1.456 10297
1.054 0.173 1.447 12969
1.068 0.176 1.456 14753
1.082 0.178 1.464 15300
1.091 0.179 1.467 10170
1.095 0.180 1.464 5408
1.088 0.179 1.449 6960
1.087 0.179 1.439 10888
1.096 0.180 1.442 11209
1.105 0.182 1.445 13338
1.114 0.183 1.447 15225
1.117 0.184 1.444 13034
1.126 0.185 1.446 16039
1.135 0.187 1.449 18151
1.139 0.187 1.445 11494
1.137 0.187 1.436 6818
1.141 0.188 1.433 7775
1.145 0.188 1.429 12916
1.154 0.190 1.432 20881
1.163 0.191 1.434 26955
1.167 0.192 1.430 28841
1.170 0.192 1.427 21380
1.179 0.194 1.429 17655
1.178 0.194 1.420 22648
1.181 0.194 1.416 26491
1.185 0.195 1.413 25040
1.189 0.195 1.409 27392
1.192 0.196 1.406 24922
1.201 0.197 1.408 25610
1.205 0.198 1.404 33164
1.208 0.199 1.400 26594
1.218 0.200 1.402 26373
1.221 0.201 1.399 37494
1.225 0.201 1.395 36820
1.234 0.203 1.397 24973
1.249 0.205 1.404 15790
1.269 0.209 1.417 12805
1.250 0.206 1.391 15852
1.254 0.206 1.387 19936
1.286 0.211 1.411 16650
1.289 0.212 1.407 21734
1.293 0.213 1.403 29630
1.297 0.213 1.399 23996
1.306 0.215 1.401 22646
1.304 0.214 1.391 18448
1.313 0.216 1.393 16788
1.322 0.217 1.394 24488
1.320 0.217 1.385 31137
1.324 0.218 1.381 30614
1.322 0.217 1.372 22156
1.331 0.219 1.373 20769
1.334 0.219 1.369 20560
1.338 0.220 1.365 14437
1.341 0.220 1.361 8695
1.351 0.222 1.362 7813
1.360 0.224 1.363 12623
1.381 0.227 1.375 18579
1.391 0.229 1.376 25373
1.394 0.229 1.372 21048
1.404 0.231 1.372 11770
1.419 0.233 1.378 9417
1.429 0.235 1.379 7643
1.426 0.234 1.370 4652
1.430 0.235 1.366 7678
1.439 0.237 1.366 11331
1.455 0.239 1.372 14703
1.465 0.241 1.373 24983
1.468 0.241 1.368 37252
1.478 0.243 1.369 48146
1.481 0.243 1.364 55288
1.485 0.244 1.360 54986
1.488 0.245 1.356 46994
1.492 0.245 1.351 36119
1.495 0.246 1.347 26535
1.499 0.246 1.342 18157
1.502 0.247 1.338 11586
1.512 0.248 1.338 7620
1.515 0.249 1.333 6637
1.518 0.250 1.329 7592
1.534 0.252 1.334 10257
1.544 0.254 1.334 16518
1.547 0.254 1.329 23725
1.551 0.255 1.325 29153
1.561 0.257 1.325 28573
1.564 0.257 1.320 20051
1.574 0.259 1.320 20558
1.577 0.259 1.315 25943
1.568 0.258 1.301 21028
1.565 0.257 1.292 16406
1.581 0.260 1.296 14237
1.597 0.262 1.301 11507
1.606 0.264 1.300 10618
1.623 0.267 1.305 10710
1.632 0.268 1.304 9305
1.636 0.269 1.299 13494
1.639 0.269 1.295 17496
1.649 0.271 1.294 18187
1.665 0.274 1.298 18301
1.668 0.274 1.293 15674
1.691 0.278 1.301 11442
1.714 0.282 1.309 11394
1.737 0.285 1.317 11325
1.740 0.286 1.312 13425
1.730 0.284 1.298 14794
1.734 0.285 1.293 14730
1.744 0.287 1.292 15940
1.747 0.287 1.287 18393
1.763 0.290 1.290 24527
1.780 0.293 1.293 31303
1.783 0.293 1.288 31426
1.800 0.296 1.291 25532
1.816 0.299 1.294 21849
1.820 0.299 1.288 21682
1.830 0.301 1.287 19229
1.840 0.302 1.285 17535
1.836 0.302 1.276 13222
1.833 0.301 1.266 10153
1.836 0.302 1.261 10683
1.832 0.301 1.251 8109
1.910 0.314 1.290 10594
1.913 0.314 1.284 16121
1.916 0.315 1.278 19777
1.920 0.316 1.272 23432
1.923 0.316 1.267 22253
1.919 0.315 1.257 16376
1.929 0.317 1.255 11417
1.932 0.318 1.249 10864
1.983 0.326 1.270 11777
2.000 0.329 1.272 9972
2.024 0.333 1.277 9750
2.027 0.333 1.271 10039
2.031 0.334 1.265 10630
2.034 0.334 1.259 11221
2.037 0.335 1.253 11334
2.040 0.335 1.247 11446
2.050 0.337 1.245 9393
2.060 0.339 1.242 7499
2.098 0.345 1.254 7351
2.108 0.347 1.251 7513
2.111 0.347 1.245 7110
2.129 0.350 1.246 6878
2.146 0.353 1.247 7682
2.149 0.353 1.240 8838
2.152 0.354 1.234 7593
2.155 0.354 1.227 6349
2.179 0.358 1.231 5442
2.196 0.361 1.232 5640
2.214 0.364 1.232 7913
2.224 0.366 1.229 10766
2.234 0.367 1.226 10708
2.251 0.370 1.226 11367
2.254 0.371 1.219 11001
2.257 0.371 1.212 10636
2.268 0.373 1.209 11779
2.271 0.373 1.202 13125
2.274 0.374 1.195 13125
2.277 0.374 1.188 10805
2.287 0.376 1.185 8552
2.283 0.375 1.175 5697
2.336 0.384 1.190 2960
2.296 0.377 1.164 3671
2.306 0.379 1.160 4617
2.309 0.379 1.154 4617
2.326 0.382 1.153 5131
0.617 0.100 1.569 6862
0.621 0.100 1.567 7450
0.625 0.101 1.565 7949
0.629 0.102 1.563 7086
0.633 0.102 1.561 6223
0.634 0.103 1.552 4060
0.635 0.103 1.543 2168
0.639 0.103 1.541 3420
0.643 0.104 1.539 5813
0.650 0.105 1.544 7089
0.657 0.106 1.549 10804
0.661 0.107 1.547 14645
0.665 0.108 1.545 18148
0.670 0.108 1.543 21651
0.674 0.109 1.541 27594
0.678 0.110 1.539 33864
0.682 0.110 1.537 36903
0.689 0.111 1.542 40435
0.693 0.112 1.540 39431
0.697 0.113 1.538 38428
0.701 0.113 1.536 36817
0.705 0.114 1.533 35206
0.709 0.115 1.531 33313
0.717 0.116 1.536 31701
0.717 0.116 1.527 28462
0.721 0.117 1.525 25504
0.725 0.117 1.523 21682
0.729 0.118 1.520 17859
0.737 0.119 1.525 16333
0.741 0.120 1.523 14921
0.745 0.120 1.521 17436
0.749 0.121 1.518 19950
0.756 0.122 1.523 22967
0.760 0.123 1.521 29856
0.764 0.124 1.518 33330
0.768 0.124 1.516 34825
0.772 0.125 1.514 36152
0.776 0.126 1.511 33584
0.780 0.126 1.509 29684
0.788 0.127 1.513 24275
0.796 0.129 1.518 13993
0.804 0.130 1.522 8535
0.804 0.130 1.513 7187
0.808 0.131 1.510 5974
0.812 0.131 1.508 7504
0.816 0.132 1.505 9066
0.820 0.133 1.503 9214
0.823 0.133 1.500 7940
0.827 0.134 1.498 7591
0.831 0.134 1.495 8518
0.839 0.136 1.500 12420
0.843 0.136 1.497 22546
0.847 0.137 1.495 28251
0.855 0.138 1.499 31748
0.859 0.139 1.496 34222
0.863 0.140 1.493 26898
0.871 0.141 1.497 20040
0.880 0.142 1.501 17891
0.888 0.144 1.505 15661
0.896 0.145 1.509 14977
0.891 0.144 1.493 17851
0.895 0.145 1.490 26215
0.899 0.145 1.488 32498
0.903 0.146 1.485 34738
0.907 0.147 1.482 34168
0.910 0.147 1.480 31312
0.914 0.148 1.477 25591
0.923 0.149 1.480 16309
0.927 0.150 1.478 10349
0.935 0.151 1.481 7312
0.939 0.152 1.478 5839
0.943 0.152 1.476 5771
0.951 0.154 1.479 5432
0.960 0.155 1.483 12314
0.959 0.155 1.473 21854
0.963 0.156 1.470 26492
0.966 0.156 1.468 29151
0.975 0.158 1.471 31365
0.988 0.160 1.481 27473
0.997 0.161 1.484 18147
1.001 0.162 1.481 10807
1.000 0.162 1.472 13096
0.994 0.161 1.456 17277
0.993 0.161 1.447 17812
0.992 0.160 1.438 14119
0.995 0.161 1.435 12900
1.014 0.164 1.450 17968
1.022 0.165 1.453 19148
1.026 0.166 1.450 13148
1.035 0.167 1.453 12098
1.044 0.169 1.456 14008
1.052 0.170 1.459 11402
1.056 0.171 1.456 11081
1.055 0.171 1.447 14162
1.069 0.173 1.456 15532
1.083 0.175 1.464 15951
1.091 0.177 1.467 11404
1.090 0.176 1.458 6838
1.089 0.176 1.449 7848
1.087 0.176 1.439 10694
1.096 0.177 1.442 9936
1.110 0.180 1.451 11882
1.114 0.180 1.447 13524
1.113 0.180 1.438 11811
1.127 0.182 1.446 14768
1.136 0.184 1.449 16651
1.139 0.184 1.445 10759
1.138 0.184 1.436 7084
1.136 0.184 1.427 9176
1.145 0.185 1.429 15007
1.154 0.187 1.432 22427
1.163 0.188 1.434 27043
1.167 0.189 1.430 27334
1.171 0.189 1.427 18498
1.180 0.191 1.429 14278
1.178 0.191 1.420 20508
1.182 0.191 1.416 26406
1.185 0.192 1.413 27093
1.184 0.191 1.403 31009
1.193 0.193 1.406 26072
1.202 0.194 1.408 24189
1.205 0.195 1.404 31119
1.209 0.196 1.400 26092
1.218 0.197 1.402 28320
1.222 0.198 1.399 42364
1.225 0.198 1.395 42800
1.234 0.200 1.397 29209
1.244 0.201 1.399 20535
1.253 0.203 1.400 16614
1.251 0.202 1.391 20274
1.260 0.204 1.393 22803
1.264 0.204 1.389 15932
1.284 0.208 1.402 22698
1.288 0.208 1.398 30774
1.291 0.209 1.394 25168
1.301 0.210 1.395 24069
1.299 0.210 1.386 20531
1.308 0.212 1.388 20582
1.317 0.213 1.389 28746
1.321 0.214 1.385 35119
1.319 0.213 1.376 33413
1.322 0.214 1.372 23534
1.331 0.215 1.373 21903
1.341 0.217 1.374 22179
1.338 0.217 1.365 16181
1.342 0.217 1.361 8993
1.357 0.220 1.367 8742
1.367 0.221 1.368 16601
1.376 0.223 1.370 22299
1.391 0.225 1.376 25134
1.395 0.226 1.372 18922
1.404 0.227 1.372 8750
1.432 0.232 1.389 6284
1.435 0.232 1.384 5937
1.433 0.232 1.375 6001
1.431 0.231 1.366 11324
1.440 0.233 1.366 13998
1.456 0.235 1.372 13996
1.459 0.236 1.368 20848
1.469 0.238 1.368 29211
1.478 0.239 1.369 41717
1.482 0.240 1.364 52313
1.485 0.240 1.360 50669
1.483 0.240 1.351 40841
1.492 0.241 1.351 30772
1.502 0.243 1.351 23528
1.499 0.243 1.342 16138
1.503 0.243 1.338 9921
1.512 0.245 1.338 7034
1.516 0.245 1.333 6966
1.519 0.246 1.329 7652
1.535 0.248 1.334 9512
1.545 0.250 1.334 14241
1.548 0.250 1.329 19495
1.558 0.252 1.329 24749
1.561 0.253 1.325 25837
1.571 0.254 1.325 18795
1.574 0.255 1.320 19702
1.578 0.255 1.315 24093
1.575 0.255 1.306 18400
1.578 0.255 1.301 13952
1.588 0.257 1.301 14514
1.604 0.259 1.305 12647
1.620 0.262 1.310 10312
1.636 0.265 1.314 10918
1.639 0.265 1.309 11191
1.636 0.265 1.299 15246
1.640 0.265 1.295 18621
1.649 0.267 1.294 19296
1.666 0.269 1.298 19476
1.669 0.270 1.293 16189
1.679 0.272 1.292 10711
1.708 0.276 1.305 9182
1.738 0.281 1.317 9858
1.741 0.282 1.312 12853
1.738 0.281 1.302 13234
1.728 0.280 1.289 12342
1.738 0.281 1.288 13681
1.748 0.283 1.287 17499
1.771 0.286 1.294 25707
1.781 0.288 1.293 33019
1.784 0.289 1.288 32972
1.801 0.291 1.291 25886
1.817 0.294 1.294 21443
1.820 0.294 1.288 20992
1.837 0.297 1.291 18533
1.840 0.298 1.285 17226
1.844 0.298 1.280 12846
1.833 0.297 1.266 9750
1.837 0.297 1.261 10138
1.860 0.301 1.267 8017
1.904 0.308 1.286 12044
1.914 0.310 1.284 17139
1.917 0.310 1.278 20812
1.920 0.311 1.272 24484
1.917 0.310 1.263 23706
1.913 0.309 1.253 18402
1.916 0.310 1.247 14019
1.919 0.311 1.242 12480
1.929 0.312 1.240 11068
2.001 0.324 1.272 9302
2.025 0.328 1.277 8797
2.028 0.328 1.271 8856
2.031 0.329 1.265 9673
2.035 0.329 1.259 10491
2.038 0.330 1.253 10652
2.041 0.330 1.247 10813
2.051 0.332 1.245 8822
2.061 0.333 1.242 6965
2.099 0.340 1.254 6728
2.109 0.341 1.251 7046
2.112 0.342 1.245 6866
2.122 0.343 1.242 6732
2.147 0.347 1.247 7276
2.157 0.349 1.244 8389
2.160 0.349 1.237 7155
2.163 0.350 1.231 5921
2.187 0.354 1.235 4999
2.204 0.357 1.235 5066
2.222 0.359 1.235 7473
2.232 0.361 1.232 10149
2.242 0.363 1.229 10732
2.252 0.364 1.226 11858
2.255 0.365 1.219 11368
2.258 0.365 1.212 10877
2.261 0.366 1.205 11721
2.272 0.367 1.202 12830
2.275 0.368 1.195 12830
2.278 0.368 1.188 10601
2.281 0.369 1.181 8372
2.284 0.369 1.175 5596
2.279 0.369 1.165 2836
2.297 0.372 1.164 3459
2.307 0.373 1.160 4290
2.310 0.374 1.154 4290
2.384 0.386 1.177 4894
0.617 0.098 1.569 7151
0.621 0.099 1.567 8063
0.625 0.100 1.565 8852
0.629 0.100 1.563 8165
0.633 0.101 1.561 7477
0.637 0.102 1.559 5173
0.652 0.104 1.579 3064
0.639 0.102 1.541 4157
0.646 0.103 1.546 6285
0.650 0.104 1.544 7307
0.658 0.105 1.549 10705
0.662 0.106 1.547 14248
0.666 0.106 1.545 17619
0.670 0.107 1.543 20991
0.674 0.108 1.541 26651
0.678 0.108 1.539 32638
0.682 0.109 1.537 35912
0.689 0.110 1.542 39584
0.693 0.111 1.540 38912
0.697 0.111 1.538 38241
0.701 0.112 1.536 36731
0.705 0.113 1.533 35222
0.713 0.114 1.538 33622
0.717 0.114 1.536 32295
0.717 0.114 1.527 29066
0.721 0.115 1.525 26202
0.725 0.116 1.523 22009
0.733 0.117 1.527 17822
0.737 0.118 1.525 15505
0.741 0.118 1.523 13189
0.745 0.119 1.521 15776
0.749 0.119 1.518 18363
0.757 0.121 1.523 22020
0.761 0.121 1.521 29914
0.765 0.122 1.518 33869
0.769 0.123 1.516 35865
0.773 0.123 1.514 37640
0.776 0.124 1.511 35121
0.780 0.125 1.509 31186
0.788 0.126 1.513 25527
0.792 0.126 1.511 14801
0.800 0.128 1.515 9013
0.804 0.128 1.513 7560
0.808 0.129 1.510 6154
0.816 0.130 1.515 7692
0.816 0.130 1.505 9564
0.820 0.131 1.503 9995
0.824 0.131 1.500 8686
0.828 0.132 1.498 7080
0.832 0.133 1.495 6783
0.840 0.134 1.500 10335
0.844 0.135 1.497 20390
0.847 0.135 1.495 26388
0.856 0.137 1.499 30236
0.859 0.137 1.496 33318
0.863 0.138 1.493 26429
0.872 0.139 1.497 20024
0.880 0.140 1.501 17074
0.888 0.142 1.505 14336
0.896 0.143 1.509 13838
0.887 0.142 1.487 18064
0.895 0.143 1.490 27497
0.899 0.143 1.488 33511
0.903 0.144 1.485 35315
0.907 0.145 1.482 34239
0.911 0.145 1.480 30131
0.915 0.146 1.477 23340
0.923 0.147 1.480 14167
0.927 0.148 1.478 8998
0.935 0.149 1.481 8024
0.939 0.150 1.478 8574
0.943 0.150 1.476 8633
0.947 0.151 1.473 7255
0.960 0.153 1.483 13427
0.959 0.153 1.473 23142
0.963 0.154 1.470 27884
0.967 0.154 1.468 30371
0.975 0.156 1.471 31613
0.989 0.158 1.481 26594
0.997 0.159 1.484 17098
1.001 0.160 1.481 9965
0.995 0.159 1.465 13020
0.999 0.159 1.462 18146
0.998 0.159 1.453 17952
0.992 0.158 1.438 13646
0.996 0.159 1.435 12512
1.014 0.162 1.450 17195
1.023 0.163 1.453 18419
1.027 0.164 1.450 12243
1.035 0.165 1.453 11346
1.044 0.167 1.456 14165
1.053 0.168 1.459 11834
1.056 0.169 1.456 11526
1.055 0.168 1.447 14787
1.064 0.170 1.449 15608
1.083 0.173 1.464 15868
1.087 0.173 1.461 12839
1.085 0.173 1.452 8778
1.089 0.174 1.449 8834
1.088 0.174 1.439 9929
1.097 0.175 1.442 8218
1.111 0.177 1.451 10884
1.114 0.178 1.447 12824
1.113 0.178 1.438 11486
1.122 0.179 1.440 13699
1.136 0.181 1.449 15259
1.140 0.182 1.445 10474
1.138 0.182 1.436 8530
1.137 0.181 1.427 11101
1.146 0.183 1.429 16405
1.155 0.184 1.432 23256
1.158 0.185 1.428 26263
1.167 0.186 1.430 24526
1.176 0.188 1.433 14587
1.180 0.188 1.429 11039
1.178 0.188 1.420 18639
1.182 0.189 1.416 25135
1.180 0.188 1.407 28144
1.184 0.189 1.403 33286
1.193 0.190 1.406 25827
1.197 0.191 1.402 21110
1.200 0.192 1.398 27038
1.209 0.193 1.400 24833
1.213 0.194 1.397 30286
1.222 0.195 1.399 45115
1.226 0.196 1.395 45169
1.235 0.197 1.397 31586
1.244 0.199 1.399 25989
1.248 0.199 1.395 21918
1.251 0.200 1.391 24847
1.261 0.201 1.393 25932
1.264 0.202 1.389 17841
1.285 0.205 1.402 24202
1.288 0.206 1.398 29899
1.292 0.206 1.394 25791
1.295 0.207 1.390 25937
1.299 0.207 1.386 24332
1.308 0.209 1.388 25948
1.318 0.210 1.389 32557
1.321 0.211 1.385 37142
1.319 0.210 1.376 33753
1.323 0.211 1.372 23856
1.332 0.213 1.373 22931
1.335 0.213 1.369 23263
1.339 0.214 1.365 17819
1.348 0.215 1.366 10956
1.358 0.217 1.367 12667
1.367 0.218 1.368 23425
1.377 0.220 1.370 26995
1.386 0.221 1.371 24767
1.390 0.222 1.366 16547
1.393 0.222 1.362 7225
1.420 0.227 1.378 5274
1.430 0.228 1.379 7085
1.434 0.229 1.375 8750
1.431 0.228 1.366 14739
1.435 0.229 1.361 16131
1.450 0.231 1.367 12752
1.460 0.233 1.368 16213
1.475 0.235 1.373 21272
1.479 0.236 1.369 34539
1.482 0.237 1.364 47002
1.480 0.236 1.355 42738
1.483 0.237 1.351 32669
1.493 0.238 1.351 25582
1.502 0.240 1.351 21037
1.506 0.240 1.347 14581
1.509 0.241 1.342 8549
1.513 0.241 1.338 6793
1.516 0.242 1.333 7824
1.520 0.242 1.329 7776
1.536 0.245 1.334 8304
1.545 0.247 1.334 11495
1.549 0.247 1.329 14752
1.558 0.249 1.329 19621
1.568 0.250 1.329 22260
1.571 0.251 1.325 17613
1.581 0.252 1.325 19651
1.584 0.253 1.320 23287
1.582 0.252 1.310 17451
1.585 0.253 1.306 13970
1.601 0.255 1.310 15529
1.611 0.257 1.310 14256
1.633 0.261 1.319 11288
1.643 0.262 1.318 12171
1.640 0.262 1.309 13058
1.643 0.262 1.304 16427
1.640 0.262 1.295 18884
1.650 0.263 1.294 19367
1.666 0.266 1.298 19746
1.670 0.266 1.293 16347
1.673 0.267 1.288 10412
1.696 0.271 1.296 6860
1.738 0.277 1.317 8468
1.742 0.278 1.312 13149
1.738 0.277 1.302 12810
1.722 0.275 1.284 11311
1.738 0.277 1.288 12136
1.748 0.279 1.287 16691
1.771 0.283 1.294 26479
1.781 0.284 1.293 34113
1.785 0.285 1.288 33957
1.801 0.287 1.291 25785
1.818 0.290 1.294 20567
1.821 0.291 1.288 19833
1.838 0.293 1.291 17571
1.848 0.295 1.289 16591
1.844 0.294 1.280 12395
1.834 0.293 1.266 9572
1.844 0.294 1.265 9737
1.881 0.300 1.279 9543
1.904 0.304 1.286 13371
1.914 0.305 1.284 17913
1.918 0.306 1.278 21705
1.921 0.307 1.272 25496
1.917 0.306 1.263 25119
1.914 0.305 1.253 20845
1.917 0.306 1.247 16928
1.920 0.306 1.242 14462
1.930 0.308 1.240 12019
2.002 0.319 1.272 8649
2.019 0.322 1.274 8039
2.029 0.324 1.271 7765
2.032 0.324 1.265 8660
2.035 0.325 1.259 9555
2.039 0.325 1.253 9713
2.042 0.326 1.247 9871
2.045 0.326 1.241 7937
2.055 0.328 1.239 6069
2.100 0.335 1.254 5987
2.110 0.337 1.251 6520
2.113 0.337 1.245 6443
2.116 0.338 1.239 6366
2.147 0.343 1.247 6641
2.157 0.344 1.244 7752
2.161 0.345 1.237 6592
2.171 0.346 1.234 5519
2.195 0.350 1.238 4721
2.226 0.355 1.245 5239
2.229 0.356 1.239 7472
2.233 0.356 1.232 9706
2.243 0.358 1.229 10831
2.253 0.359 1.226 12307
2.256 0.360 1.219 11538
2.259 0.360 1.212 10770
2.262 0.361 1.205 11331
2.272 0.363 1.202 12147
2.275 0.363 1.195 12147
2.278 0.364 1.188 10089
2.281 0.364 1.181 8030
2.284 0.364 1.175 5332
2.259 0.360 1.155 2857
2.290 0.365 1.161 3103
2.379 0.380 1.192 3913
2.382 0.380 1.185 3913
2.385 0.381 1.177 5030
0.617 0.097 1.569 7319
0.621 0.098 1.567 8600
0.625 0.098 1.565 9717
0.630 0.099 1.563 9255
0.634 0.099 1.561 8792
0.641 0.101 1.566 6456
0.648 0.102 1.571 4299
0.642 0.101 1.548 5058
0.646 0.101 1.546 6783
0.650 0.102 1.544 7478
0.658 0.103 1.549 10518
0.662 0.104 1.547 13697
0.666 0.105 1.545 16957
0.670 0.105 1.543 20217
0.674 0.106 1.541 25451
0.678 0.106 1.539 31021
0.682 0.107 1.537 34540
0.690 0.108 1.542 38397
0.694 0.109 1.540 38244
0.698 0.110 1.538 38091
0.702 0.110 1.536 36631
0.706 0.111 1.533 35172
0.713 0.112 1.538 33974
0.717 0.113 1.536 32977
0.718 0.113 1.527 29756
0.722 0.113 1.525 26950
0.726 0.114 1.523 22429
0.733 0.115 1.527 18088
0.737 0.116 1.525 14942
0.737 0.116 1.516 11854
0.745 0.117 1.521 14165
0.749 0.118 1.518 16534
0.757 0.119 1.523 20964
0.761 0.119 1.521 29987
0.765 0.120 1.518 34508
0.769 0.121 1.516 36854
0.773 0.121 1.514 38935
0.777 0.122 1.511 36396
0.781 0.123 1.509 32372
0.789 0.124 1.513 26505
0.793 0.124 1.511 15409
0.801 0.126 1.515 9376
0.804 0.126 1.513 7747
0.808 0.127 1.510 6055
0.816 0.128 1.515 7633
0.820 0.129 1.512 9842
0.820 0.129 1.503 10517
0.824 0.129 1.500 9263
0.828 0.130 1.498 6536
0.823 0.129 1.482 5201
0.840 0.132 1.500 8173
0.844 0.132 1.497 17912
0.848 0.133 1.495 24129
0.856 0.134 1.499 28265
0.860 0.135 1.496 31872
0.864 0.136 1.493 25516
0.872 0.137 1.497 19700
0.885 0.139 1.508 16209
0.888 0.139 1.505 13517
0.897 0.141 1.509 13319
0.887 0.139 1.487 18826
0.896 0.141 1.490 28540
0.900 0.141 1.488 33901
0.903 0.142 1.485 35074
0.907 0.142 1.482 33479
0.911 0.143 1.480 27989
0.915 0.144 1.477 19814
0.923 0.145 1.480 10904
0.927 0.146 1.478 7127
0.936 0.147 1.481 8991
0.939 0.147 1.478 12024
0.943 0.148 1.476 12058
0.947 0.149 1.473 9737
0.956 0.150 1.476 15055
0.959 0.151 1.473 24633
0.963 0.151 1.470 29427
0.967 0.152 1.468 31526
0.976 0.153 1.471 31278
0.984 0.154 1.474 25019
0.998 0.157 1.484 15482
0.997 0.156 1.475 9221
0.996 0.156 1.465 13120
0.999 0.157 1.462 18913
0.998 0.157 1.453 18533
0.997 0.157 1.444 13196
0.996 0.156 1.435 11885
1.014 0.159 1.450 16238
1.023 0.161 1.453 17268
1.027 0.161 1.450 10999
1.036 0.163 1.453 10733
1.044 0.164 1.456 14768
1.053 0.165 1.459 12498
1.057 0.166 1.456 11623
1.061 0.166 1.453 14781
1.064 0.167 1.449 15100
1.083 0.170 1.464 15681
1.087 0.171 1.461 14827
1.086 0.170 1.452 11354
1.090 0.171 1.449 10101
1.093 0.172 1.445 9716
1.102 0.173 1.448 7066
1.116 0.175 1.457 10266
1.115 0.175 1.447 13062
1.113 0.175 1.438 12697
1.122 0.176 1.440 13701
1.137 0.178 1.449 14127
1.140 0.179 1.445 10320
1.139 0.179 1.436 10177
1.137 0.178 1.427 13143
1.141 0.179 1.423 17266
1.155 0.181 1.432 22711
1.159 0.182 1.428 24209
1.168 0.183 1.430 20700
1.166 0.183 1.421 12184
1.170 0.184 1.418 10888
1.174 0.184 1.414 18357
1.177 0.185 1.411 23541
1.181 0.185 1.407 27718
1.184 0.186 1.403 33540
1.194 0.187 1.406 24136
1.197 0.188 1.402 17183
1.201 0.188 1.398 22137
1.210 0.190 1.400 23089
1.213 0.190 1.397 31723
1.223 0.192 1.399 45776
1.232 0.193 1.401 44415
1.235 0.194 1.397 31868
1.245 0.195 1.399 31059
1.248 0.196 1.395 27213
1.252 0.196 1.391 28312
1.261 0.198 1.393 27828
1.265 0.198 1.389 19487
1.280 0.201 1.396 24561
1.283 0.201 1.392 27466
1.287 0.202 1.388 25239
1.296 0.203 1.390 27035
1.300 0.204 1.386 27800
1.309 0.205 1.388 30995
1.318 0.207 1.389 35758
1.322 0.207 1.385 37579
1.320 0.207 1.376 32509
1.323 0.208 1.372 23111
1.332 0.209 1.373 22398
1.336 0.210 1.369 22771
1.339 0.210 1.365 18074
1.349 0.212 1.366 12079
1.364 0.214 1.373 15538
1.368 0.215 1.368 27020
1.377 0.216 1.370 29736
1.387 0.218 1.371 24730
1.390 0.218 1.366 14730
1.394 0.219 1.362 7662
1.403 0.220 1.363 8178
1.419 0.223 1.369 9874
1.428 0.224 1.370 11381
1.432 0.225 1.366 17698
1.435 0.225 1.361 17720
1.445 0.227 1.362 11264
1.460 0.229 1.368 11596
1.470 0.231 1.368 14349
1.479 0.232 1.369 26584
1.483 0.233 1.364 37766
1.480 0.232 1.355 32143
1.484 0.233 1.351 24170
1.493 0.234 1.351 20681
1.503 0.236 1.351 18823
1.507 0.236 1.347 13572
1.510 0.237 1.342 7771
1.520 0.239 1.343 7175
1.517 0.238 1.333 9182
1.520 0.239 1.329 7844
1.542 0.242 1.338 6856
1.546 0.243 1.334 8470
1.549 0.243 1.329 9979
1.565 0.246 1.334 14247
1.575 0.247 1.334 18167
1.578 0.248 1.329 16847
1.594 0.250 1.334 20947
1.591 0.250 1.324 23651
1.595 0.250 1.320 18059
1.598 0.251 1.315 15284
1.608 0.252 1.315 17112
1.611 0.253 1.310 16343
1.634 0.256 1.319 12681
1.644 0.258 1.318 13301
1.641 0.258 1.309 14599
1.644 0.258 1.304 16835
1.641 0.258 1.295 18287
1.651 0.259 1.294 18422
1.667 0.262 1.298 19098
1.677 0.263 1.297 16303
1.673 0.263 1.288 10637
1.677 0.263 1.283 7335
1.719 0.270 1.304 7948
1.736 0.272 1.307 14531
1.739 0.273 1.302 13599
1.716 0.269 1.280 11378
1.739 0.273 1.288 11475
1.756 0.276 1.291 16009
1.772 0.278 1.294 26859
1.782 0.280 1.293 34651
1.785 0.280 1.288 34539
1.795 0.282 1.286 25699
1.818 0.285 1.294 19489
1.828 0.287 1.292 18417
1.838 0.289 1.291 16349
1.848 0.290 1.289 15768
1.845 0.290 1.280 11943
1.828 0.287 1.262 9460
1.885 0.296 1.289 10403
1.888 0.296 1.283 11437
1.905 0.299 1.286 14546
1.915 0.301 1.284 18599
1.918 0.301 1.278 22601
1.915 0.301 1.269 26740
1.918 0.301 1.263 26548
1.915 0.301 1.253 22972
1.918 0.301 1.247 19377
1.921 0.301 1.242 16046
1.931 0.303 1.240 12806
1.934 0.304 1.234 8529
2.013 0.316 1.270 7517
2.023 0.317 1.268 6791
2.026 0.318 1.262 7675
2.029 0.319 1.256 8560
2.032 0.319 1.250 8723
2.036 0.319 1.243 8886
2.046 0.321 1.241 6986
2.049 0.322 1.235 5088
2.101 0.330 1.254 5261
2.104 0.330 1.248 6123
2.107 0.331 1.242 5940
2.117 0.332 1.239 5771
2.148 0.337 1.247 5677
2.158 0.339 1.244 6731
2.169 0.340 1.241 5717
2.179 0.342 1.238 4990
2.210 0.347 1.245 4685
2.227 0.350 1.245 5720
2.230 0.350 1.239 7449
2.241 0.352 1.236 9398
2.251 0.353 1.232 10969
2.254 0.354 1.226 12796
2.257 0.354 1.219 11621
2.253 0.354 1.209 10458
2.263 0.355 1.205 10574
2.273 0.357 1.202 10954
2.276 0.357 1.195 10954
2.279 0.358 1.188 9185
2.282 0.358 1.181 7416
2.278 0.358 1.171 5069
2.260 0.355 1.155 3123
2.377 0.373 1.199 3034
2.380 0.374 1.192 4019
2.383 0.374 1.185 4019
2.386 0.375 1.177 5119
0.617 0.096 1.569 7297
0.621 0.097 1.567 8851
0.626 0.097 1.565 10228
0.630 0.098 1.563 10019
0.634 0.098 1.561 9809
0.641 0.100 1.566 7483
0.649 0.101 1.571 5258
0.643 0.100 1.548 5798
0.647 0.100 1.546 7113
0.651 0.101 1.544 7560
0.658 0.102 1.549 10281
0.666 0.103 1.554 13158
0.666 0.103 1.545 16209
0.670 0.104 1.543 19325
0.674 0.105 1.541 24183
0.678 0.105 1.539 29379
0.682 0.106 1.537 33085
0.690 0.107 1.542 37068
0.694 0.108 1.540 37441
0.698 0.108 1.538 37814
0.702 0.109 1.536 36509
0.706 0.110 1.533 35204
0.714 0.111 1.538 34264
0.718 0.111 1.536 33519
0.722 0.112 1.534 30468
0.722 0.112 1.525 27797
0.726 0.113 1.523 22955
0.734 0.114 1.527 18479
0.737 0.115 1.525 14654
0.741 0.115 1.523 10829
0.745 0.116 1.521 12887
0.749 0.116 1.518 14945
0.757 0.118 1.523 20038
0.761 0.118 1.521 29895
0.765 0.119 1.518 34775
0.769 0.119 1.516 37289
0.773 0.120 1.514 39513
0.777 0.121 1.511 36986
0.781 0.121 1.509 32954
0.789 0.123 1.513 26892
0.793 0.123 1.511 15379
0.801 0.124 1.515 9102
0.805 0.125 1.513 7326
0.813 0.126 1.517 5658
0.817 0.127 1.515 7377
0.821 0.127 1.512 9974
0.825 0.128 1.510 10925
0.828 0.129 1.507 9805
0.832 0.129 1.505 6725
0.832 0.129 1.495 4842
0.840 0.131 1.500 6998
0.844 0.131 1.497 15703
0.848 0.132 1.495 21986
0.856 0.133 1.499 26287
0.860 0.134 1.496 30201
0.864 0.134 1.493 24340
0.876 0.136 1.504 19251
0.880 0.137 1.501 15551
0.889 0.138 1.505 13115
0.893 0.139 1.502 13579
0.888 0.138 1.487 19688
0.896 0.139 1.490 29130
0.900 0.140 1.488 33677
0.904 0.140 1.485 34278
0.908 0.141 1.482 32397
0.911 0.142 1.480 25826
0.920 0.143 1.483 16335
0.924 0.143 1.480 9099
0.927 0.144 1.478 7927
0.931 0.145 1.475 11434
0.940 0.146 1.478 15455
0.944 0.147 1.476 15238
0.947 0.147 1.473 12301
0.956 0.148 1.476 16780
0.960 0.149 1.473 25751
0.963 0.150 1.470 30413
0.972 0.151 1.474 31887
0.976 0.152 1.471 29861
0.984 0.153 1.474 22530
0.998 0.155 1.484 13330
0.992 0.154 1.468 8168
0.996 0.155 1.465 12787
1.000 0.155 1.462 19402
0.999 0.155 1.453 19025
0.997 0.155 1.444 12559
0.996 0.155 1.435 10994
1.015 0.158 1.450 15170
1.023 0.159 1.453 15856
1.032 0.160 1.456 9826
1.041 0.162 1.459 10422
1.045 0.162 1.456 15344
1.053 0.164 1.459 13049
1.057 0.164 1.456 11502
1.061 0.165 1.453 14411
1.065 0.165 1.449 14339
1.084 0.168 1.464 15718
1.082 0.168 1.455 17120
1.086 0.169 1.452 14167
1.090 0.169 1.449 12123
1.094 0.170 1.445 11263
1.108 0.172 1.454 7565
1.117 0.173 1.457 10282
1.110 0.172 1.441 14897
1.114 0.173 1.438 15049
1.117 0.174 1.435 14198
1.132 0.176 1.443 13208
1.141 0.177 1.445 10184
1.134 0.176 1.430 11792
1.137 0.177 1.427 15305
1.141 0.177 1.423 17334
1.150 0.179 1.426 20205
1.159 0.180 1.428 21019
1.163 0.181 1.425 18055
1.161 0.180 1.415 13178
1.165 0.181 1.412 14293
1.174 0.182 1.414 19489
1.177 0.183 1.411 20949
1.181 0.183 1.407 25583
1.185 0.184 1.403 32488
1.194 0.185 1.406 22286
1.197 0.186 1.402 14117
1.207 0.187 1.404 17857
1.210 0.188 1.400 20967
1.214 0.189 1.397 30818
1.223 0.190 1.399 43497
1.232 0.191 1.401 40865
1.236 0.192 1.397 30564
1.245 0.193 1.399 34623
1.249 0.194 1.395 30843
1.252 0.195 1.391 29304
1.261 0.196 1.393 26865
1.271 0.197 1.395 19530
1.280 0.199 1.396 22701
1.283 0.199 1.392 23281
1.293 0.201 1.394 22517
1.296 0.201 1.390 25989
1.300 0.202 1.386 29974
1.309 0.203 1.388 34724
1.319 0.205 1.389 37962
1.322 0.205 1.385 36592
1.320 0.205 1.376 30040
1.323 0.206 1.372 22414
1.333 0.207 1.373 22395
1.342 0.209 1.374 22263
1.346 0.209 1.370 17892
1.355 0.211 1.371 13892
1.370 0.213 1.378 19235
1.368 0.213 1.368 29381
1.377 0.214 1.370 30833
1.387 0.215 1.371 23852
1.384 0.215 1.361 13127
1.394 0.217 1.362 8896
1.403 0.218 1.363 12398
1.413 0.219 1.364 12715
1.428 0.222 1.370 13029
1.432 0.222 1.366 19335
1.435 0.223 1.361 18174
1.439 0.224 1.357 10090
1.455 0.226 1.363 8685
1.470 0.228 1.368 10796
1.474 0.229 1.364 21252
1.483 0.230 1.364 29550
1.481 0.230 1.355 23039
1.484 0.231 1.351 17716
1.500 0.233 1.356 17893
1.503 0.234 1.351 17434
1.513 0.235 1.352 12961
1.517 0.236 1.347 7992
1.520 0.236 1.343 8550
1.523 0.237 1.338 10858
1.527 0.237 1.334 7824
1.549 0.241 1.343 5741
1.559 0.242 1.343 6794
1.562 0.243 1.339 7665
1.572 0.244 1.339 11158
1.582 0.246 1.339 15006
1.591 0.247 1.339 17019
1.595 0.248 1.334 22840
1.598 0.248 1.329 24796
1.602 0.249 1.324 19462
1.605 0.249 1.319 17092
1.608 0.250 1.315 18816
1.618 0.251 1.314 18355
1.628 0.253 1.314 14429
1.644 0.255 1.318 14217
1.641 0.255 1.309 15313
1.638 0.254 1.299 16264
1.641 0.255 1.295 16821
1.651 0.256 1.294 16578
1.667 0.259 1.298 17626
1.677 0.261 1.297 16123
1.680 0.261 1.292 11681
1.677 0.261 1.283 9443
1.707 0.265 1.295 10695
1.736 0.270 1.307 16024
1.739 0.270 1.302 14610
1.730 0.269 1.289 11612
1.739 0.270 1.288 11353
1.756 0.273 1.291 15621
1.772 0.275 1.294 26900
1.782 0.277 1.293 34701
1.786 0.277 1.288 34736
1.796 0.279 1.286 25669
1.819 0.283 1.294 18551
1.829 0.284 1.292 17066
1.839 0.286 1.291 15053
1.849 0.287 1.289 14722
1.839 0.286 1.276 11611
1.822 0.283 1.258 9489
1.892 0.294 1.293 11374
1.889 0.293 1.283 12633
1.906 0.296 1.286 15128
1.916 0.298 1.284 18841
1.919 0.298 1.278 23109
1.915 0.298 1.269 27690
1.919 0.298 1.263 27503
1.915 0.298 1.253 24274
1.918 0.298 1.247 20847
1.928 0.300 1.246 16957
1.931 0.300 1.240 13306
1.941 0.302 1.238 8621
2.006 0.312 1.266 7670
2.016 0.313 1.264 6619
2.020 0.314 1.258 7097
2.023 0.314 1.252 7575
2.026 0.315 1.246 7909
2.036 0.316 1.243 8281
2.032 0.316 1.234 6600
2.035 0.316 1.228 4957
2.101 0.326 1.254 4699
2.104 0.327 1.248 5933
2.107 0.327 1.242 5521
2.111 0.328 1.235 5108
2.149 0.334 1.247 4581
2.159 0.335 1.244 5537
2.169 0.337 1.241 4789
2.186 0.340 1.241 4359
2.210 0.343 1.245 4903
2.221 0.345 1.242 6160
2.238 0.348 1.242 7324
2.241 0.348 1.236 8977
2.251 0.350 1.232 10948
2.254 0.350 1.226 13007
2.250 0.350 1.215 11495
2.253 0.350 1.209 10144
2.264 0.352 1.205 9548
2.274 0.353 1.202 9463
2.277 0.354 1.195 9463
2.280 0.354 1.188 8048
2.276 0.354 1.178 6699
2.271 0.353 1.168 4932
2.267 0.352 1.158 3442
2.378 0.369 1.199 2989
2.381 0.370 1.192 3976
2.384 0.370 1.185 3976
2.387 0.371 1.177 4933
0.618 0.094 1.569 7284
0.622 0.095 1.567 9095
0.626 0.095 1.565 10722
0.630 0.096 1.563 10767
0.634 0.096 1.561 10813
0.641 0.098 1.566 8466
0.649 0.099 1.571 6159
0.646 0.098 1.555 6569
0.647 0.098 1.546 7439
0.651 0.099 1.544 7651
0.658 0.100 1.549 9993
0.666 0.101 1.554 12571
0.666 0.101 1.545 15475
0.671 0.102 1.543 18547
0.678 0.103 1.548 23061
0.679 0.103 1.539 27873
0.683 0.104 1.537 31786
0.690 0.105 1.542 35933
0.694 0.106 1.540 36856
0.698 0.106 1.538 37779
0.702 0.107 1.536 36480
0.706 0.107 1.533 35181
0.714 0.109 1.538 34627
0.718 0.109 1.536 34222
0.722 0.110 1.534 31340
0.722 0.110 1.525 28772
0.730 0.111 1.530 23766
0.734 0.112 1.527 19073
0.738 0.112 1.525 14621
0.742 0.113 1.523 10169
0.746 0.113 1.521 11943
0.750 0.114 1.518 13716
0.758 0.115 1.523 19224
0.762 0.116 1.521 29660
0.765 0.116 1.518 34817
0.769 0.117 1.516 37462
0.773 0.118 1.514 39800
0.777 0.118 1.511 37239
0.781 0.119 1.509 33156
0.789 0.120 1.513 26869
0.793 0.121 1.511 14908
0.801 0.122 1.515 8434
0.809 0.123 1.520 6563
0.813 0.124 1.517 4951
0.817 0.124 1.515 6830
0.821 0.125 1.512 9839
0.825 0.126 1.510 11182
0.829 0.126 1.507 10488
0.833 0.127 1.505 8201
0.832 0.127 1.495 6640
0.836 0.127 1.493 7410
0.844 0.128 1.497 14317
0.848 0.129 1.495 20300
0.857 0.130 1.499 24597
0.860 0.131 1.496 28586
0.869 0.132 1.500 23383
0.877 0.133 1.504 18925
0.881 0.134 1.501 14962
0.885 0.135 1.499 13123
0.889 0.135 1.496 14797
0.888 0.135 1.487 21195
0.896 0.136 1.490 30137
0.905 0.138 1.494 33736
0.909 0.138 1.492 33882
0.912 0.139 1.489 31558
0.916 0.139 1.486 24547
0.920 0.140 1.483 14475
0.924 0.141 1.480 9698
0.928 0.141 1.478 11234
0.932 0.142 1.475 14685
0.940 0.143 1.478 18189
0.944 0.144 1.476 17606
0.948 0.144 1.473 14378
0.956 0.146 1.476 18182
0.960 0.146 1.473 26304
0.964 0.147 1.470 30632
0.972 0.148 1.474 31498
0.976 0.149 1.471 27242
0.980 0.149 1.468 18811
0.998 0.152 1.484 10541
0.988 0.150 1.462 6854
0.996 0.152 1.465 11759
1.000 0.152 1.462 19009
1.004 0.153 1.459 18873
1.003 0.153 1.450 11880
0.997 0.152 1.435 10213
1.015 0.154 1.450 13792
1.024 0.156 1.453 14116
1.033 0.157 1.456 8782
1.041 0.158 1.459 10246
1.050 0.160 1.462 15483
1.054 0.160 1.459 13190
1.063 0.162 1.462 11594
1.061 0.162 1.453 14113
1.070 0.163 1.456 13288
1.084 0.165 1.464 15311
1.083 0.165 1.455 18864
1.087 0.165 1.452 16074
1.090 0.166 1.449 13954
1.099 0.167 1.451 14399
1.103 0.168 1.448 10547
1.112 0.169 1.451 12873
1.111 0.169 1.441 19835
1.114 0.170 1.438 19599
1.118 0.170 1.435 15763
1.132 0.172 1.443 12327
1.141 0.174 1.445 9676
1.134 0.173 1.430 12840
1.138 0.173 1.427 16745
1.142 0.174 1.423 16373
1.151 0.175 1.426 17240
1.160 0.176 1.428 18317
1.163 0.177 1.425 17812
1.162 0.177 1.415 16769
1.165 0.177 1.412 18322
1.174 0.179 1.414 20031
1.178 0.179 1.411 17489
1.182 0.180 1.407 22229
1.185 0.180 1.403 30129
1.194 0.182 1.406 20473
1.198 0.182 1.402 12729
1.207 0.184 1.404 16581
1.211 0.184 1.400 20120
1.214 0.185 1.397 27469
1.224 0.186 1.399 37108
1.233 0.188 1.401 35231
1.242 0.189 1.402 28668
1.246 0.190 1.399 35338
1.249 0.190 1.395 32684
1.253 0.191 1.391 28232
1.262 0.192 1.393 23009
1.271 0.193 1.395 17130
1.280 0.195 1.396 19398
1.284 0.195 1.392 19245
1.293 0.197 1.394 18413
1.303 0.198 1.395 22688
1.306 0.199 1.391 30847
1.310 0.199 1.388 36986
1.319 0.201 1.389 39082
1.323 0.201 1.385 34857
1.321 0.201 1.376 27581
1.324 0.201 1.372 21931
1.333 0.203 1.373 22510
1.343 0.204 1.374 21767
1.346 0.205 1.370 17244
1.362 0.207 1.377 15135
1.371 0.209 1.378 22311
1.369 0.208 1.368 31669
1.378 0.210 1.370 30993
1.388 0.211 1.371 22056
1.385 0.211 1.361 12329
1.395 0.212 1.362 10727
1.404 0.214 1.363 16332
1.414 0.215 1.364 15565
1.423 0.217 1.365 14369
1.427 0.217 1.361 19953
1.430 0.218 1.356 17974
1.434 0.218 1.352 9531
1.449 0.220 1.358 7511
1.465 0.223 1.363 9059
1.474 0.224 1.364 17187
1.484 0.226 1.364 23440
1.488 0.226 1.360 18001
1.491 0.227 1.356 14959
1.501 0.228 1.356 17483
1.510 0.230 1.356 17037
1.514 0.230 1.352 12591
1.517 0.231 1.347 8596
1.521 0.231 1.343 10430
1.524 0.232 1.338 12529
1.534 0.233 1.338 8037
1.569 0.239 1.358 5805
1.572 0.239 1.353 6740
1.569 0.239 1.343 8555
1.573 0.239 1.339 11017
1.582 0.241 1.339 13131
1.592 0.242 1.339 17354
1.596 0.243 1.334 24461
1.599 0.243 1.329 26286
1.602 0.244 1.324 21007
1.612 0.245 1.324 18905
1.616 0.246 1.319 20474
1.619 0.246 1.314 20600
1.629 0.248 1.314 16529
1.645 0.250 1.318 14888
1.642 0.250 1.309 15328
1.639 0.249 1.299 15017
1.642 0.250 1.295 14754
1.652 0.251 1.294 14193
1.675 0.255 1.302 15802
1.678 0.255 1.297 15718
1.681 0.256 1.292 13381
1.691 0.257 1.292 12803
1.707 0.260 1.295 13936
1.737 0.264 1.307 16728
1.740 0.265 1.302 15059
1.737 0.264 1.293 12077
1.747 0.266 1.292 11471
1.757 0.267 1.291 15607
1.773 0.270 1.294 26764
1.783 0.271 1.293 34336
1.787 0.272 1.288 34564
1.797 0.273 1.286 25565
1.813 0.276 1.289 17944
1.823 0.277 1.288 15891
1.840 0.280 1.291 13721
1.850 0.281 1.289 13450
1.826 0.278 1.268 11385
1.823 0.277 1.258 9680
1.893 0.288 1.293 11875
1.890 0.288 1.283 13277
1.907 0.290 1.286 15365
1.917 0.292 1.284 18741
1.920 0.292 1.278 23317
1.916 0.292 1.269 28350
1.920 0.292 1.263 28060
1.916 0.292 1.253 24862
1.926 0.293 1.251 21504
1.929 0.294 1.246 17530
1.939 0.295 1.244 13719
1.977 0.301 1.257 9524
2.000 0.304 1.262 8295
2.011 0.306 1.260 7206
2.014 0.306 1.254 7161
2.017 0.307 1.248 7165
2.020 0.307 1.242 7794
2.030 0.309 1.240 8523
2.033 0.309 1.234 7245
2.036 0.310 1.228 5967
2.060 0.313 1.232 5118
2.098 0.319 1.244 6058
2.101 0.320 1.238 5253
2.105 0.320 1.232 4448
2.150 0.327 1.247 3380
2.160 0.329 1.244 4161
2.177 0.331 1.244 3771
2.187 0.333 1.241 3696
2.212 0.336 1.245 4966
2.222 0.338 1.242 6443
2.239 0.341 1.242 7166
2.249 0.342 1.239 8605
2.252 0.343 1.232 10860
2.248 0.342 1.222 13115
2.252 0.343 1.215 11425
2.255 0.343 1.209 9735
2.265 0.345 1.205 8377
2.282 0.347 1.205 7844
2.285 0.348 1.198 7844
2.281 0.347 1.188 6807
2.270 0.345 1.175 6021
2.273 0.346 1.168 4923
2.276 0.346 1.162 3826
2.379 0.362 1.199 3159
2.375 0.361 1.189 4287
2.378 0.362 1.181 4287
2.381 0.362 1.174 5054
0.618 0.093 1.569 7318
0.622 0.094 1.567 9343
0.626 0.094 1.565 11213
0.630 0.095 1.563 11397
0.634 0.096 1.561 11581
0.642 0.097 1.566 9289
0.646 0.097 1.564 7003
0.650 0.098 1.562 7278
0.650 0.098 1.553 7676
0.651 0.098 1.544 7659
0.659 0.099 1.549 9780
0.666 0.100 1.554 12144
0.667 0.100 1.545 14746
0.671 0.101 1.543 17554
0.678 0.102 1.548 21823
0.679 0.102 1.539 26279
0.683 0.103 1.537 30559
0.690 0.104 1.542 34970
0.694 0.105 1.540 36307
0.695 0.105 1.531 37720
0.702 0.106 1.536 36275
0.706 0.106 1.533 34906
0.714 0.108 1.538 34790
0.718 0.108 1.536 34770
0.722 0.109 1.534 32116
0.722 0.109 1.525 29737
0.730 0.110 1.530 24542
0.734 0.111 1.527 19620
0.738 0.111 1.525 14648
0.746 0.112 1.530 9847
0.750 0.113 1.527 11227
0.754 0.114 1.525 12607
0.758 0.114 1.523 18453
0.762 0.115 1.521 29294
0.766 0.115 1.518 34600
0.770 0.116 1.516 37216
0.774 0.117 1.514 39521
0.777 0.117 1.511 36868
0.781 0.118 1.509 32691
0.789 0.119 1.513 26229
0.797 0.120 1.518 14046
0.805 0.121 1.522 7612
0.809 0.122 1.520 5589
0.813 0.123 1.517 3985
0.817 0.123 1.515 6067
0.821 0.124 1.512 9566
0.825 0.124 1.510 11402
0.829 0.125 1.507 11405
0.833 0.125 1.505 10370
0.833 0.125 1.495 9424
0.837 0.126 1.493 8803
0.840 0.127 1.490 13424
0.849 0.128 1.495 18466
0.857 0.129 1.499 22662
0.861 0.130 1.496 26665
0.869 0.131 1.500 22442
0.873 0.131 1.497 18643
0.881 0.133 1.501 14470
0.885 0.133 1.499 13639
0.884 0.133 1.489 16721
0.888 0.134 1.487 22987
0.897 0.135 1.490 30944
0.905 0.136 1.494 33233
0.909 0.137 1.492 32728
0.913 0.137 1.489 30422
0.917 0.138 1.486 23477
0.925 0.139 1.490 14352
0.924 0.139 1.480 12114
0.928 0.140 1.478 15247
0.932 0.140 1.475 17994
0.936 0.141 1.472 20361
0.944 0.142 1.476 19496
0.948 0.143 1.473 16246
0.957 0.144 1.476 19474
0.960 0.145 1.473 26594
0.964 0.145 1.470 30479
0.973 0.147 1.474 30767
0.972 0.146 1.465 24285
0.980 0.148 1.468 15272
0.999 0.150 1.484 7684
0.988 0.149 1.462 5695
0.997 0.150 1.465 10668
1.000 0.151 1.462 18148
1.004 0.151 1.459 18200
1.003 0.151 1.450 11055
1.002 0.151 1.441 9479
1.015 0.153 1.450 12543
1.024 0.154 1.453 12519
1.033 0.156 1.456 8080
1.042 0.157 1.459 9917
1.050 0.158 1.462 14767
1.054 0.159 1.459 12541
