0.461 1.843 1.702 5046
0.467 1.866 1.711 4100
0.345 1.378 1.300 5369
0.346 1.381 1.296 6027
0.347 1.385 1.292 4968
0.349 1.394 1.292 6107
0.351 1.403 1.293 9396
0.352 1.407 1.289 9611
0.353 1.410 1.284 7686
0.354 1.413 1.280 6015
0.356 1.422 1.281 6145
0.358 1.432 1.281 6603
0.361 1.441 1.281 7644
0.361 1.444 1.277 11291
0.362 1.447 1.273 10712
0.366 1.463 1.278 9020
0.369 1.472 1.278 10997
0.369 1.475 1.273 9614
0.370 1.479 1.269 10488
0.372 1.488 1.269 13264
0.375 1.497 1.269 12484
0.377 1.507 1.269 8423
0.381 1.523 1.274 4792
0.382 1.526 1.269 3616
0.537 2.146 1.709 3250
0.541 2.163 1.711 4880
0.542 2.167 1.704 9435
0.542 2.165 1.693 10217
0.540 2.157 1.678 8838
0.560 2.238 1.725 7208
0.563 2.248 1.722 6513
0.556 2.221 1.693 7402
0.559 2.232 1.691 9732
0.561 2.243 1.689 10284
0.561 2.240 1.677 8568
0.568 2.271 1.688 7984
0.569 2.275 1.681 10938
0.570 2.279 1.674 11182
0.576 2.303 1.680 11321
0.582 2.327 1.686 13430
0.585 2.338 1.683 14215
0.586 2.342 1.676 10445
0.607 2.424 1.719 6952
0.611 2.442 1.720 5056
0.603 2.407 1.688 5802
0.610 2.438 1.697 8656
0.613 2.449 1.693 11327
0.617 2.466 1.694 10696
0.622 2.484 1.695 8339
0.626 2.501 1.695 7313
0.626 2.499 1.684 6411
0.623 2.490 1.668 6743
0.626 2.501 1.665 7518
0.627 2.505 1.657 5707
0.628 2.510 1.649 3896
0.629 2.514 1.642 3169
0.640 2.558 1.658 2746
0.641 2.562 1.650 3037
0.666 2.660 1.696 3971
0.667 2.665 1.688 5490
0.665 2.656 1.672 5807
0.664 2.653 1.661 6054
0.694 2.772 1.717 5756
0.671 2.682 1.656 6265
0.674 2.693 1.651 7417
0.675 2.697 1.643 6502
0.676 2.701 1.635 5586
0.701 2.801 1.678 5321
0.704 2.812 1.674 6386
0.707 2.823 1.669 5437
0.708 2.827 1.660 4626
0.707 2.825 1.648 3279
0.706 2.822 1.636 2190
0.738 2.950 1.691 3125
0.739 2.954 1.682 4227
0.741 2.959 1.673 4968
0.742 2.963 1.664 5709
0.741 2.960 1.652 5037
0.742 2.964 1.643 4437
0.743 2.969 1.634 3520
0.746 2.980 1.628 2613
0.757 3.026 1.640 3677
0.758 3.030 1.631 5015
0.754 3.013 1.611 4692
0.754 3.010 1.599 4906
0.755 3.014 1.590 4482
0.754 3.012 1.577 3143
0.795 3.176 1.643 3104
0.796 3.181 1.634 3009
0.797 3.185 1.624 2915
0.805 3.217 1.627 2657
0.808 3.228 1.621 2687
0.807 3.225 1.608 2965
0.807 3.222 1.595 3334
0.808 3.227 1.585 3334
0.809 3.231 1.575 1667
0.386 1.544 0.829 291
0.167 0.660 1.691 11004
0.169 0.667 1.696 13371
0.171 0.675 1.701 16537
0.172 0.679 1.699 17621
0.174 0.687 1.704 19120
0.175 0.691 1.702 19562
0.177 0.699 1.707 15661
0.178 0.703 1.705 11908
0.181 0.714 1.717 8391
0.183 0.722 1.722 5774
0.184 0.727 1.720 9989
0.184 0.728 1.710 14233
0.185 0.732 1.708 15420
0.186 0.737 1.706 19091
0.188 0.741 1.704 21575
0.189 0.745 1.701 22535
0.191 0.753 1.706 24303
0.193 0.761 1.711 22273
0.195 0.769 1.715 20861
0.196 0.774 1.713 15510
0.198 0.782 1.718 10161
0.198 0.782 1.708 10651
0.199 0.787 1.706 11143
0.201 0.795 1.710 12118
0.202 0.799 1.708 13297
0.203 0.804 1.705 13854
0.205 0.808 1.703 14412
0.207 0.816 1.707 14262
0.208 0.821 1.705 14338
0.210 0.829 1.709 13648
0.211 0.833 1.707 12733
0.211 0.834 1.697 9971
0.212 0.838 1.695 6906
0.214 0.846 1.699 6199
0.215 0.851 1.696 5714
0.217 0.859 1.700 5305
0.219 0.863 1.698 8641
0.220 0.868 1.695 11978
0.221 0.872 1.692 14010
0.223 0.880 1.697 15373
0.225 0.889 1.701 15646
0.227 0.897 1.705 14017
0.228 0.902 1.702 12592
0.229 0.906 1.699 13598
0.230 0.910 1.696 14657
0.233 0.919 1.700 15311
0.234 0.923 1.697 15666
0.235 0.928 1.695 15823
0.236 0.932 1.692 15625
0.237 0.936 1.689 12298
0.237 0.937 1.679 8311
0.239 0.945 1.683 7508
0.240 0.949 1.680 9750
0.243 0.958 1.684 13457
0.245 0.966 1.687 15034
0.244 0.962 1.671 11266
0.248 0.979 1.688 7807
0.249 0.984 1.685 9076
0.250 0.988 1.682 13863
0.251 0.992 1.679 21871
0.252 0.997 1.676 24889
0.253 1.001 1.673 24687
0.255 1.005 1.670 19664
0.260 1.027 1.693 18365
0.260 1.027 1.683 35277
0.261 1.032 1.680 46313
0.263 1.040 1.683 44189
0.266 1.049 1.686 35862
0.269 1.063 1.696 28285
0.270 1.067 1.693 27918
0.271 1.071 1.689 27134
0.272 1.076 1.686 22878
0.273 1.080 1.683 18499
0.273 1.080 1.673 18727
0.274 1.084 1.670 24846
0.276 1.088 1.666 27013
0.277 1.093 1.663 17657
0.282 1.116 1.685 13952
0.285 1.125 1.688 17649
0.287 1.134 1.691 24225
0.288 1.138 1.687 28179
0.289 1.142 1.684 21867
0.292 1.151 1.686 18682
0.294 1.161 1.689 22232
0.295 1.165 1.685 24053
0.297 1.174 1.688 20687
0.300 1.183 1.691 14313
0.301 1.188 1.687 12712
0.302 1.192 1.683 14405
0.304 1.201 1.686 12417
0.308 1.215 1.694 11716
0.309 1.220 1.691 12866
0.310 1.224 1.687 9893
0.307 1.213 1.665 7998
0.310 1.223 1.667 15612
0.313 1.237 1.676 23779
0.317 1.251 1.684 28093
0.318 1.256 1.680 30846
0.320 1.265 1.682 33290
0.324 1.279 1.690 27745
0.326 1.289 1.692 16193
0.329 1.298 1.694 11328
0.328 1.297 1.684 15114
0.330 1.302 1.680 21236
0.332 1.311 1.682 30527
0.333 1.316 1.678 34775
0.333 1.315 1.668 19024
0.338 1.335 1.682 15416
0.340 1.344 1.684 26921
0.341 1.348 1.680 31916
0.344 1.358 1.681 37644
0.344 1.357 1.671 43649
0.345 1.361 1.667 47443
0.347 1.371 1.669 48753
0.347 1.370 1.659 38516
0.349 1.379 1.660 27007
0.350 1.384 1.656 18974
0.354 1.399 1.663 11670
0.362 1.430 1.687 12412
0.364 1.439 1.689 12999
0.364 1.438 1.679 13136
0.364 1.437 1.669 16655
0.365 1.442 1.664 17820
0.367 1.451 1.665 19320
0.371 1.467 1.672 14974
0.374 1.476 1.673 7099
0.373 1.475 1.663 8597
0.376 1.485 1.664 9878
0.380 1.500 1.671 7544
0.384 1.516 1.677 8231
0.385 1.520 1.672 10054
0.387 1.530 1.673 7416
0.339 1.339 1.478 11259
0.340 1.343 1.474 10470
0.338 1.335 1.459 8577
0.338 1.333 1.449 7621
0.340 1.343 1.451 5533
0.338 1.335 1.436 3769
0.392 1.548 1.630 3998
0.337 1.331 1.417 4053
0.336 1.329 1.408 5033
0.337 1.333 1.404 5619
0.337 1.330 1.394 5794
0.338 1.334 1.390 5694
0.413 1.631 1.653 5959
0.414 1.635 1.648 5562
0.339 1.339 1.373 4050
0.387 1.528 1.535 3140
0.388 1.531 1.530 3107
0.390 1.541 1.530 3390
0.342 1.352 1.356 5184
0.342 1.350 1.347 4085
0.451 1.782 1.715 3390
0.400 1.580 1.532 2943
0.341 1.348 1.324 2980
0.342 1.352 1.320 5348
0.343 1.355 1.316 7399
0.344 1.358 1.312 5699
0.465 1.838 1.707 5902
0.466 1.842 1.702 4556
0.348 1.374 1.304 4064
0.347 1.371 1.295 5620
0.350 1.381 1.296 5921
0.350 1.384 1.292 5024
0.353 1.393 1.292 6475
0.354 1.396 1.288 9263
0.356 1.406 1.289 9070
0.357 1.409 1.284 7194
0.357 1.412 1.280 5716
0.360 1.421 1.281 5881
0.361 1.424 1.276 6117
0.363 1.434 1.277 7048
0.365 1.443 1.277 10532
0.366 1.446 1.273 9954
0.370 1.462 1.278 8304
0.372 1.471 1.278 10153
0.373 1.474 1.273 8925
0.374 1.478 1.269 9893
0.376 1.487 1.269 12607
0.379 1.496 1.269 11980
0.381 1.506 1.269 8192
0.385 1.521 1.274 4625
0.542 2.140 1.715 3496
0.543 2.144 1.709 3441
0.547 2.161 1.711 4647
0.550 2.172 1.709 9544
0.548 2.164 1.693 10912
0.547 2.162 1.682 9758
0.548 2.166 1.676 6989
0.559 2.209 1.696 6011
0.560 2.213 1.689 8266
0.565 2.230 1.691 10555
0.566 2.235 1.684 10986
0.567 2.239 1.677 9794
0.574 2.269 1.688 9713
0.576 2.273 1.681 12966
0.577 2.278 1.674 13292
0.583 2.301 1.680 12611
0.587 2.319 1.681 14125
0.591 2.336 1.683 14850
0.593 2.340 1.676 11050
0.612 2.416 1.715 6251
0.598 2.362 1.670 5164
0.609 2.405 1.688 5838
0.617 2.436 1.697 8243
0.620 2.447 1.693 10960
0.624 2.464 1.694 10725
0.628 2.482 1.695 8333
0.633 2.500 1.695 6929
0.632 2.497 1.684 6240
0.630 2.488 1.668 6965
0.633 2.499 1.665 7649
0.634 2.504 1.657 5759
0.633 2.501 1.645 3926
0.634 2.505 1.638 2974
0.649 2.563 1.661 2501
0.650 2.567 1.654 3096
0.653 2.578 1.650 3890
0.674 2.663 1.688 4941
0.669 2.640 1.665 5671
0.670 2.645 1.657 6203
0.672 2.656 1.652 5730
0.679 2.680 1.656 6000
0.681 2.691 1.651 7119
0.682 2.695 1.643 6279
0.684 2.700 1.635 5440
0.709 2.799 1.678 5309
0.711 2.810 1.674 6302
0.713 2.814 1.665 5318
0.715 2.825 1.660 4477
0.715 2.823 1.648 3146
0.714 2.820 1.636 2050
0.715 2.824 1.627 2959
0.747 2.952 1.682 4034
0.749 2.957 1.673 4708
0.724 2.858 1.612 5403
0.749 2.958 1.652 4853
0.750 2.962 1.643 4469
0.751 2.967 1.634 3562
0.754 2.978 1.628 2663
0.766 3.024 1.640 4103
0.767 3.028 1.631 5660
0.764 3.018 1.615 5279
0.762 3.008 1.599 5360
0.763 3.012 1.590 4795
0.762 3.009 1.577 3222
0.804 3.174 1.643 3063
0.805 3.178 1.634 3086
0.804 3.176 1.621 3130
0.812 3.208 1.624 2893
0.815 3.219 1.618 3024
0.814 3.216 1.605 3380
0.815 3.220 1.595 3787
0.816 3.224 1.585 3787
0.817 3.228 1.575 1893
0.391 1.543 0.829 283
0.168 0.659 1.691 11514
0.170 0.667 1.696 13506
0.172 0.675 1.701 16156
0.173 0.679 1.699 17365
0.175 0.687 1.704 18894
0.176 0.691 1.702 19324
0.177 0.695 1.700 15629
0.179 0.703 1.705 12018
0.181 0.711 1.710 8477
0.184 0.722 1.722 5842
0.185 0.726 1.720 9820
0.185 0.727 1.710 13868
0.186 0.732 1.708 15103
0.187 0.736 1.706 18710
0.189 0.741 1.704 21082
0.190 0.745 1.701 21996
0.192 0.753 1.706 23716
0.194 0.761 1.711 21487
0.196 0.769 1.715 19857
0.197 0.773 1.713 14777
0.198 0.778 1.711 9696
0.199 0.782 1.708 10880
0.200 0.787 1.706 12065
0.202 0.795 1.710 13299
0.203 0.799 1.708 14822
0.205 0.803 1.705 15407
0.206 0.808 1.703 15993
0.208 0.816 1.707 15462
0.209 0.820 1.705 15176
0.211 0.828 1.709 14355
0.212 0.833 1.707 13335
0.212 0.834 1.697 10613
0.213 0.838 1.695 7579
0.215 0.846 1.699 6981
0.218 0.854 1.703 6200
0.219 0.859 1.700 5536
0.220 0.863 1.698 8944
0.221 0.867 1.695 12351
0.222 0.872 1.692 14705
0.224 0.880 1.697 16306
0.226 0.889 1.701 16436
0.228 0.897 1.705 14420
0.229 0.901 1.702 12619
0.231 0.906 1.699 13760
0.232 0.910 1.696 15149
0.234 0.918 1.700 15947
0.235 0.923 1.697 16524
0.236 0.927 1.695 17205
0.237 0.932 1.692 17308
0.238 0.936 1.689 13652
0.238 0.936 1.679 8421
0.241 0.945 1.683 6789
0.243 0.953 1.687 10154
0.245 0.962 1.690 15294
0.246 0.966 1.687 17235
0.246 0.966 1.678 12441
0.247 0.971 1.675 7495
0.249 0.979 1.678 7424
0.252 0.988 1.682 11683
0.253 0.992 1.679 19905
0.254 0.996 1.676 25110
0.255 1.001 1.673 26439
0.257 1.009 1.676 22004
0.259 1.018 1.680 19789
0.261 1.027 1.683 34032
0.263 1.031 1.680 44597
0.265 1.040 1.683 42242
0.267 1.049 1.686 33572
0.270 1.062 1.696 25852
0.272 1.067 1.693 25918
0.273 1.071 1.689 25754
0.274 1.075 1.686 22248
0.275 1.080 1.683 18401
0.275 1.079 1.673 18505
0.277 1.088 1.676 25096
0.278 1.093 1.673 26526
0.278 1.092 1.663 16197
0.285 1.120 1.691 12132
0.287 1.129 1.694 16175
0.289 1.133 1.691 22773
0.290 1.138 1.687 26910
0.291 1.142 1.684 22040
0.293 1.151 1.686 17929
0.297 1.165 1.695 21011
0.298 1.169 1.692 23439
0.299 1.174 1.688 21275
0.301 1.183 1.691 16023
0.302 1.187 1.687 14762
0.303 1.191 1.683 16840
0.306 1.201 1.686 15923
0.309 1.215 1.694 13745
0.310 1.219 1.691 13620
0.310 1.219 1.681 10446
0.309 1.213 1.665 9169
0.311 1.222 1.667 16872
0.315 1.237 1.676 24274
0.318 1.251 1.684 27172
0.320 1.255 1.680 30610
0.322 1.264 1.682 33932
0.324 1.274 1.684 27718
0.327 1.283 1.686 17651
0.329 1.293 1.688 13280
0.330 1.297 1.684 13757
0.331 1.301 1.680 19539
0.334 1.311 1.682 30714
0.334 1.310 1.672 36084
0.335 1.314 1.668 21060
0.340 1.334 1.682 13854
0.342 1.344 1.684 21336
0.343 1.348 1.680 25680
0.346 1.357 1.681 31521
0.345 1.357 1.671 38091
0.347 1.361 1.667 44925
0.349 1.370 1.669 49215
0.349 1.369 1.659 38274
0.351 1.379 1.660 27564
0.352 1.383 1.656 19782
0.356 1.398 1.663 11560
0.364 1.429 1.687 13750
0.365 1.434 1.683 13159
0.365 1.433 1.673 12751
0.366 1.437 1.669 17346
0.367 1.441 1.664 18723
0.369 1.451 1.665 20485
0.372 1.461 1.666 15395
0.374 1.470 1.668 7671
0.374 1.469 1.658 9693
0.378 1.484 1.664 10646
0.382 1.500 1.671 7046
0.386 1.515 1.677 6880
0.387 1.519 1.672 7830
0.343 1.346 1.493 6452
0.341 1.339 1.478 10747
0.342 1.342 1.474 10777
0.340 1.335 1.459 9428
0.339 1.333 1.449 8244
0.338 1.325 1.435 5998
0.387 1.521 1.613 4533
0.394 1.548 1.630 4476
0.400 1.569 1.641 4133
0.338 1.329 1.408 4860
0.339 1.332 1.404 6249
0.339 1.330 1.394 6606
0.340 1.333 1.390 5907
0.415 1.630 1.653 5639
0.340 1.335 1.377 5581
0.341 1.338 1.373 4341
0.387 1.521 1.529 3270
0.390 1.531 1.530 3314
0.392 1.541 1.530 3470
0.344 1.352 1.356 4919
0.345 1.355 1.352 3964
0.454 1.781 1.715 3029
0.344 1.350 1.334 3037
0.343 1.348 1.324 4602
0.344 1.351 1.320 7354
0.345 1.354 1.316 9151
0.346 1.358 1.312 6599
0.468 1.837 1.707 5248
0.469 1.842 1.702 3910
0.348 1.368 1.299 4789
0.349 1.371 1.295 5786
0.351 1.380 1.296 5510
0.352 1.383 1.292 4914
0.353 1.387 1.288 6653
0.355 1.396 1.288 8859
0.358 1.405 1.289 8177
0.360 1.414 1.289 6450
0.359 1.411 1.280 5226
0.360 1.415 1.276 5456
0.363 1.424 1.276 5520
0.365 1.433 1.277 6218
0.367 1.443 1.277 9287
0.368 1.446 1.273 8771
0.404 1.585 1.372 8246
0.374 1.471 1.278 8998
0.375 1.474 1.273 7875
0.376 1.477 1.269 8790
0.379 1.486 1.269 11347
0.381 1.496 1.269 10925
0.385 1.512 1.274 7681
0.540 2.122 1.712 4580
0.542 2.127 1.706 4008
0.543 2.131 1.699 3977
0.549 2.154 1.707 4871
0.553 2.171 1.709 9598
0.552 2.169 1.698 11289
0.552 2.167 1.687 10493
0.553 2.172 1.680 7772
0.556 2.183 1.678 6822
0.563 2.212 1.689 9380
0.566 2.223 1.687 11549
0.569 2.234 1.684 11922
0.570 2.238 1.677 11254
0.578 2.268 1.688 11526
0.579 2.273 1.681 14962
0.580 2.277 1.674 15357
0.584 2.294 1.676 13954
0.590 2.318 1.681 14686
0.593 2.329 1.679 15271
0.594 2.333 1.672 11484
0.597 2.344 1.669 6646
0.601 2.361 1.670 6062
0.604 2.372 1.667 6780
0.622 2.442 1.701 7557
0.625 2.453 1.698 10167
0.627 2.464 1.694 10443
0.630 2.475 1.691 8133
0.636 2.499 1.695 6218
0.632 2.483 1.676 6121
0.633 2.488 1.668 7237
0.636 2.498 1.665 7849
0.636 2.496 1.653 5921
0.637 2.500 1.645 3995
0.638 2.505 1.638 2848
0.661 2.595 1.681 2891
0.657 2.580 1.661 3616
0.658 2.584 1.654 4411
0.659 2.588 1.646 5206
0.670 2.633 1.661 5776
0.673 2.644 1.657 6493
0.674 2.648 1.649 6053
0.681 2.673 1.652 5919
0.685 2.690 1.651 6735
0.686 2.695 1.643 5945
0.687 2.699 1.635 5155
0.712 2.798 1.678 5210
0.715 2.809 1.674 6126
0.716 2.813 1.665 5201
0.719 2.824 1.660 4361
0.719 2.822 1.648 3084
0.718 2.819 1.636 1999
0.719 2.824 1.627 3014
0.720 2.828 1.619 4029
0.725 2.846 1.617 4644
0.727 2.857 1.612 5544
0.753 2.957 1.652 4507
0.752 2.955 1.639 4454
0.755 2.966 1.634 3522
0.767 3.011 1.645 2804
0.770 3.023 1.640 4513
0.771 3.027 1.631 6219
0.768 3.017 1.615 5836
0.768 3.014 1.602 5858
0.767 3.011 1.590 5088
0.766 3.008 1.577 3324
0.808 3.173 1.643 2934
0.807 3.170 1.630 3107
0.808 3.175 1.621 3349
0.815 3.200 1.621 3116
0.818 3.211 1.614 3418
0.819 3.215 1.605 3837
0.820 3.219 1.595 4256
0.821 3.223 1.585 4256
0.822 3.227 1.575 2128
0.393 1.542 0.829 273
0.170 0.659 1.691 12257
0.172 0.666 1.696 13865
0.174 0.674 1.701 15826
0.175 0.678 1.699 17194
0.177 0.686 1.704 18843
0.178 0.690 1.702 19246
0.179 0.695 1.700 15648
0.181 0.699 1.698 12050
0.183 0.707 1.703 8698
0.186 0.721 1.722 6039
0.187 0.722 1.713 9723
0.188 0.727 1.710 13460
0.189 0.731 1.708 14742
0.190 0.736 1.706 18198
0.191 0.740 1.704 20372
0.192 0.744 1.701 21201
0.194 0.752 1.706 22804
0.196 0.760 1.711 20413
0.198 0.768 1.715 18593
0.200 0.773 1.713 13967
0.201 0.777 1.711 9342
0.202 0.781 1.708 11187
0.203 0.786 1.706 13033
0.204 0.790 1.703 14546
0.206 0.798 1.708 16351
0.207 0.803 1.705 16891
0.208 0.807 1.703 17431
0.211 0.815 1.707 16459
0.212 0.820 1.705 15787
0.214 0.828 1.709 14920
0.215 0.832 1.707 13883
0.215 0.833 1.697 11267
0.216 0.837 1.695 8125
0.218 0.845 1.699 7397
0.220 0.854 1.703 6504
0.222 0.858 1.700 5737
0.223 0.862 1.698 9186
0.224 0.867 1.695 12636
0.225 0.871 1.692 15231
0.227 0.879 1.697 17045
0.229 0.888 1.701 17101
0.231 0.896 1.705 14601
0.234 0.904 1.709 12457
0.234 0.905 1.699 13651
0.235 0.909 1.696 15420
0.237 0.918 1.700 16412
0.238 0.922 1.697 17356
0.239 0.926 1.695 18643
0.240 0.931 1.692 18985
0.242 0.935 1.689 14902
0.243 0.940 1.686 8363
0.244 0.944 1.683 5857
0.246 0.952 1.687 10350
0.248 0.961 1.690 16857
0.249 0.965 1.687 18858
0.249 0.965 1.678 13422
0.250 0.970 1.675 7402
0.252 0.974 1.672 6466
0.254 0.983 1.675 9951
0.256 0.991 1.679 17845
0.257 0.996 1.676 25019
0.258 1.000 1.673 27750
0.260 1.009 1.676 23875
0.263 1.017 1.680 20604
0.265 1.026 1.683 32105
0.266 1.030 1.680 42012
0.268 1.039 1.683 39458
0.271 1.048 1.686 30745
0.274 1.061 1.696 23153
0.275 1.066 1.693 23576
0.276 1.070 1.689 23945
0.277 1.074 1.686 21105
0.279 1.079 1.683 17751
0.280 1.083 1.679 17979
0.281 1.087 1.676 24974
0.282 1.092 1.673 25700
0.283 1.096 1.669 14732
0.290 1.123 1.698 10996
0.291 1.128 1.694 15380
0.294 1.137 1.697 21684
0.294 1.137 1.687 25074
0.295 1.141 1.684 21784
0.297 1.150 1.686 16748
0.301 1.164 1.695 19154
0.302 1.168 1.692 22048
0.303 1.173 1.688 21162
0.305 1.182 1.691 17308
0.306 1.186 1.687 16346
0.309 1.195 1.690 19114
0.310 1.200 1.686 19288
0.312 1.209 1.688 15738
0.315 1.218 1.691 14589
0.314 1.218 1.681 11695
0.312 1.207 1.659 11342
0.315 1.221 1.667 18598
0.318 1.230 1.670 24346
0.323 1.250 1.684 25672
0.324 1.254 1.680 30243
0.325 1.258 1.676 34984
0.327 1.268 1.678 27573
0.330 1.277 1.680 19363
0.334 1.292 1.688 16223
0.335 1.296 1.684 13737
0.334 1.295 1.674 18241
0.337 1.305 1.676 30617
0.338 1.309 1.672 37016
0.339 1.313 1.668 22847
0.344 1.333 1.682 12403
0.345 1.337 1.678 14892
0.348 1.347 1.680 17960
0.350 1.356 1.681 23803
0.350 1.355 1.671 31146
0.351 1.360 1.667 41227
0.354 1.369 1.669 48292
0.355 1.374 1.665 37109
0.356 1.378 1.660 27353
0.358 1.387 1.662 20508
0.361 1.397 1.663 12740
0.367 1.423 1.682 16249
0.369 1.427 1.677 16557
0.368 1.426 1.667 15589
0.371 1.436 1.669 17375
0.373 1.445 1.670 18452
0.376 1.455 1.671 20788
0.377 1.459 1.666 15239
0.378 1.464 1.662 8369
0.379 1.468 1.658 10995
0.382 1.478 1.659 11297
0.346 1.339 1.511 6665
0.351 1.359 1.523 5061
0.353 1.369 1.524 6171
0.347 1.345 1.493 6492
0.345 1.337 1.478 9662
0.346 1.341 1.474 10515
0.344 1.334 1.459 10131
0.344 1.332 1.449 8722
0.342 1.324 1.435 6410
0.394 1.525 1.618 5231
0.399 1.546 1.630 4883
0.405 1.568 1.641 4128
0.343 1.327 1.408 4479
0.342 1.325 1.398 6572
0.343 1.329 1.394 7189
0.344 1.332 1.390 5793
0.419 1.623 1.648 5481
0.344 1.334 1.377 6048
0.347 1.343 1.378 4413
0.392 1.520 1.529 3110
0.394 1.524 1.525 3281
0.396 1.533 1.525 3324
0.349 1.351 1.356 4459
0.350 1.354 1.352 3789
0.348 1.346 1.338 3087
0.348 1.349 1.334 4416
0.348 1.347 1.324 6136
0.349 1.350 1.320 9221
0.349 1.353 1.316 10839
0.349 1.351 1.307 7648
0.348 1.348 1.298 4766
0.350 1.357 1.299 4863
0.353 1.366 1.299 5731
0.354 1.370 1.295 5892
0.355 1.373 1.291 5080
0.478 1.851 1.674 5465
0.358 1.385 1.288 6834
0.360 1.395 1.288 8278
0.361 1.398 1.284 7067
0.365 1.413 1.289 5372
0.364 1.410 1.280 4352
0.365 1.413 1.276 4703
0.367 1.423 1.276 4715
0.512 1.983 1.705 6406
0.512 1.982 1.694 8852
0.513 1.986 1.688 9622
0.409 1.583 1.372 9343
0.411 1.593 1.371 9196
0.380 1.473 1.273 6560
0.381 1.476 1.269 7408
0.385 1.491 1.274 9674
0.388 1.501 1.274 9449
0.390 1.510 1.274 6779
0.546 2.114 1.708 5589
0.545 2.112 1.697 4857
0.548 2.123 1.695 4969
0.553 2.140 1.698 5989
0.560 2.169 1.709 9720
0.560 2.168 1.698 11319
0.559 2.166 1.687 10870
0.560 2.170 1.680 8275
0.563 2.181 1.678 7681
0.569 2.204 1.685 10518
0.574 2.221 1.687 12508
0.576 2.232 1.684 12754
0.577 2.236 1.677 12640
0.584 2.260 1.684 13266
0.586 2.271 1.681 16677
0.587 2.275 1.674 17079
0.592 2.292 1.676 15082
0.598 2.316 1.681 14955
0.601 2.327 1.679 15412
0.602 2.331 1.672 11654
0.605 2.342 1.669 7161
0.609 2.359 1.670 6849
0.612 2.370 1.667 7608
0.632 2.446 1.705 6727
0.635 2.457 1.702 9311
0.637 2.468 1.698 9961
0.638 2.472 1.691 7923
0.640 2.477 1.683 5461
0.641 2.481 1.676 6205
0.642 2.485 1.668 7551
0.643 2.490 1.661 8153
0.644 2.494 1.653 6098
0.643 2.491 1.641 4055
0.646 2.502 1.638 2859
0.677 2.620 1.697 3382
0.667 2.584 1.665 4453
0.667 2.582 1.654 4924
0.668 2.586 1.646 5409
0.679 2.630 1.661 5919
0.682 2.641 1.657 6833
0.683 2.646 1.649 6507
0.688 2.663 1.648 6037
0.692 2.681 1.648 6332
0.693 2.685 1.639 5521
0.696 2.696 1.635 4752
0.722 2.796 1.678 5086
0.723 2.800 1.670 5951
0.726 2.811 1.665 5058
0.729 2.822 1.660 4220
0.728 2.819 1.648 3012
0.727 2.817 1.636 1931
0.729 2.821 1.627 2987
0.730 2.825 1.619 4043
0.734 2.843 1.617 4563
0.739 2.861 1.615 5452
0.740 2.865 1.607 4014
0.761 2.945 1.636 4365
0.763 2.956 1.631 3377
0.777 3.009 1.645 3101
0.780 3.020 1.640 4873
0.781 3.024 1.631 6663
0.780 3.021 1.618 6312
0.778 3.012 1.602 6294
0.777 3.009 1.590 5379
0.778 3.013 1.581 3517
0.819 3.170 1.643 2704
0.818 3.168 1.630 3066
0.819 3.172 1.621 3514
0.824 3.190 1.618 3300
0.828 3.208 1.614 3754
0.830 3.212 1.605 4206
0.831 3.216 1.595 4659
0.832 3.220 1.585 4659
0.833 3.224 1.575 2329
0.398 1.541 0.829 277
0.172 0.662 1.698 12820
0.173 0.666 1.696 14119
0.175 0.674 1.701 15586
0.176 0.678 1.699 17103
0.178 0.686 1.704 18924
0.179 0.690 1.702 19281
0.180 0.695 1.700 15667
0.181 0.699 1.698 12053
0.183 0.703 1.696 8955
0.186 0.718 1.715 6442
0.187 0.722 1.713 9730
0.189 0.727 1.710 13018
0.190 0.731 1.708 14335
0.191 0.735 1.706 17516
0.191 0.736 1.697 19504
0.193 0.744 1.701 20074
0.195 0.752 1.706 21450
0.197 0.760 1.711 18895
0.199 0.768 1.715 16882
0.200 0.772 1.713 13052
0.202 0.777 1.711 9222
0.203 0.781 1.708 11640
0.204 0.786 1.706 14057
0.205 0.790 1.703 15818
0.207 0.798 1.708 17840
0.208 0.802 1.705 18290
0.209 0.807 1.703 18740
0.212 0.815 1.707 17293
0.213 0.819 1.705 16224
0.215 0.827 1.709 15356
0.216 0.832 1.707 14339
0.216 0.833 1.697 11855
0.217 0.837 1.695 8528
0.219 0.845 1.699 7548
0.222 0.853 1.703 6681
0.224 0.862 1.707 5955
0.224 0.862 1.698 9529
0.225 0.866 1.695 13108
0.226 0.871 1.692 15881
0.228 0.879 1.697 17776
0.230 0.887 1.701 17717
0.233 0.896 1.705 14604
0.235 0.904 1.709 12134
0.235 0.905 1.699 13193
0.236 0.909 1.696 15370
0.238 0.917 1.700 16648
0.239 0.922 1.697 18133
0.240 0.926 1.695 20173
0.242 0.931 1.692 20729
0.243 0.935 1.689 16168
0.244 0.939 1.686 8626
0.246 0.948 1.690 5561
0.247 0.952 1.687 10749
0.249 0.961 1.690 18042
0.251 0.965 1.687 19910
0.252 0.969 1.684 14108
0.251 0.965 1.668 7295
0.253 0.974 1.672 5923
0.254 0.978 1.669 8246
0.257 0.991 1.679 15646
0.258 0.995 1.676 24621
0.261 1.004 1.679 28640
0.262 1.008 1.676 25108
0.264 1.017 1.680 20977
0.266 1.026 1.683 30071
0.267 1.030 1.680 39207
0.270 1.039 1.683 36433
0.272 1.048 1.686 27725
0.275 1.061 1.696 20211
0.277 1.065 1.693 20824
0.278 1.070 1.689 21642
0.279 1.074 1.686 19371
0.280 1.078 1.683 16512
0.281 1.083 1.679 17147
0.282 1.087 1.676 24374
0.283 1.091 1.673 24543
0.284 1.096 1.669 13746
0.292 1.123 1.698 10404
0.293 1.127 1.694 15115
0.295 1.137 1.697 20514
0.295 1.136 1.687 22572
0.295 1.136 1.677 21283
0.297 1.145 1.680 16172
0.302 1.163 1.695 17020
0.303 1.168 1.692 19781
0.304 1.172 1.688 20082
0.307 1.181 1.691 17767
0.308 1.186 1.687 17230
0.310 1.195 1.690 20960
0.311 1.199 1.686 22195
0.314 1.208 1.688 17495
0.316 1.218 1.691 15462
0.315 1.212 1.675 13120
0.313 1.207 1.659 13486
0.316 1.216 1.661 20082
0.319 1.230 1.670 24135
0.324 1.249 1.684 24106
0.325 1.254 1.680 30227
0.327 1.258 1.676 36217
0.329 1.267 1.678 27963
0.331 1.277 1.680 21099
0.334 1.286 1.682 18822
0.335 1.290 1.678 14002
0.336 1.295 1.674 17132
0.339 1.304 1.676 29989
0.340 1.308 1.672 37345
0.341 1.313 1.668 24240
0.346 1.332 1.682 11451
0.347 1.337 1.678 9105
0.348 1.341 1.674 10290
0.351 1.351 1.675 15602
0.350 1.350 1.665 23668
0.353 1.359 1.667 36434
0.355 1.369 1.669 45547
0.356 1.373 1.665 34497
0.358 1.377 1.660 26109
0.360 1.387 1.662 20941
0.363 1.397 1.663 14500
0.369 1.422 1.682 19052
0.370 1.427 1.677 21465
0.371 1.431 1.673 19543
0.373 1.435 1.669 16885
0.375 1.445 1.670 17077
0.378 1.455 1.671 20351
0.379 1.459 1.666 14437
0.380 1.463 1.662 9125
0.381 1.467 1.658 12521
0.383 1.477 1.659 11956
0.386 1.487 1.660 7306
0.353 1.359 1.523 5276
0.354 1.363 1.519 6457
0.349 1.344 1.493 6670
0.349 1.343 1.483 7942
0.348 1.341 1.474 9495
0.346 1.333 1.459 10489
0.344 1.326 1.444 9184
0.342 1.318 1.429 6758
0.396 1.525 1.618 5537
0.403 1.552 1.635 5202
0.407 1.567 1.641 4050
0.346 1.333 1.413 4070
0.344 1.325 1.398 6565
0.343 1.323 1.389 7366
0.423 1.630 1.664 6028
0.345 1.330 1.381 5364
0.345 1.327 1.371 6346
0.348 1.342 1.378 4451
0.349 1.346 1.374 3236
0.395 1.523 1.525 3048
0.398 1.533 1.525 2958
0.352 1.356 1.361 3825
0.449 1.728 1.680 3709
0.348 1.340 1.333 4197
0.349 1.343 1.328 5810
0.349 1.346 1.324 7714
0.350 1.350 1.320 10923
0.351 1.353 1.316 12235
0.350 1.350 1.307 8971
0.350 1.347 1.298 6619
0.352 1.357 1.299 6547
0.355 1.366 1.299 6482
0.355 1.369 1.295 5873
0.476 1.834 1.670 4955
0.479 1.845 1.669 6988
0.359 1.385 1.288 6726
0.360 1.388 1.283 7379
0.363 1.397 1.284 5864
0.493 1.898 1.676 4495
0.488 1.878 1.651 3955
0.489 1.882 1.645 4502
0.514 1.978 1.711 4245
0.513 1.977 1.700 6911
0.514 1.981 1.694 9561
0.515 1.985 1.688 10333
0.412 1.589 1.376 10245
0.415 1.599 1.376 10285
0.540 2.079 1.731 6857
0.542 2.089 1.729 7640
0.387 1.491 1.274 7736
0.389 1.500 1.274 7717
0.392 1.510 1.274 5669
0.547 2.107 1.703 7031
0.547 2.105 1.692 6233
0.549 2.116 1.690 6300
0.555 2.139 1.698 7663
0.563 2.169 1.709 9824
0.562 2.167 1.698 10810
0.564 2.171 1.691 10713
0.563 2.169 1.680 8308
0.564 2.174 1.674 8356
0.572 2.203 1.685 11545
0.576 2.220 1.687 13275
0.579 2.231 1.684 13611
0.580 2.235 1.677 14072
0.586 2.259 1.684 14967
0.589 2.270 1.681 18072
0.590 2.274 1.674 18444
0.595 2.291 1.676 15895
0.601 2.315 1.681 14845
0.604 2.326 1.679 15172
0.605 2.330 1.672 11534
0.608 2.341 1.669 7533
0.612 2.358 1.670 7530
0.613 2.363 1.663 8416
0.614 2.367 1.655 6838
0.639 2.463 1.706 8264
0.640 2.467 1.698 9172
0.640 2.465 1.687 7641
0.641 2.469 1.679 5492
0.642 2.474 1.672 6439
0.645 2.485 1.668 7811
0.646 2.489 1.661 8370
0.647 2.493 1.653 6203
0.647 2.491 1.641 4056
0.680 2.621 1.709 3093
0.680 2.619 1.697 3826
0.671 2.583 1.665 5179
0.670 2.581 1.654 5304
0.671 2.585 1.646 5438
0.683 2.630 1.661 5974
0.685 2.641 1.657 7160
0.687 2.645 1.649 6998
0.689 2.656 1.644 6324
0.694 2.674 1.644 6035
0.697 2.685 1.639 5069
0.723 2.784 1.683 4256
0.725 2.795 1.678 5095
0.727 2.799 1.670 5949
0.729 2.810 1.665 5046
0.731 2.814 1.656 4234
0.732 2.819 1.648 3021
0.731 2.816 1.636 1921
0.732 2.820 1.627 2937
0.733 2.824 1.619 3953
0.736 2.835 1.614 4341
0.742 2.860 1.615 5169
0.747 2.878 1.614 3881
0.762 2.937 1.633 4311
0.762 2.935 1.620 3237
0.781 3.008 1.645 3373
0.784 3.019 1.640 5128
0.785 3.023 1.631 6922
0.784 3.020 1.618 6677
0.783 3.018 1.605 6674
0.783 3.015 1.593 5694
0.784 3.019 1.584 3792
0.786 3.030 1.578 2888
0.822 3.167 1.630 2933
0.821 3.164 1.618 3597
0.824 3.175 1.611 3500
0.831 3.200 1.611 4021
0.834 3.211 1.605 4510
0.835 3.215 1.595 5019
0.836 3.219 1.585 5019
0.837 3.223 1.575 2509
0.400 1.540 0.829 272
0.174 0.661 1.698 13021
0.176 0.669 1.704 14227
0.177 0.673 1.701 15511
0.178 0.678 1.699 17143
0.180 0.685 1.704 19142
0.182 0.690 1.702 19470
0.183 0.694 1.700 15784
0.184 0.698 1.698 12098
0.185 0.703 1.696 9224
0.189 0.717 1.715 6860
0.190 0.722 1.713 9627
0.191 0.726 1.710 12393
0.192 0.730 1.708 13714
0.193 0.731 1.699 16582
0.194 0.736 1.697 18239
0.196 0.744 1.701 18490
0.198 0.751 1.706 19570
0.200 0.759 1.711 16909
0.202 0.767 1.715 14749
0.203 0.772 1.713 12081
0.204 0.776 1.711 9414
0.206 0.780 1.708 12366
0.207 0.785 1.706 15319
0.208 0.789 1.703 17274
0.210 0.797 1.708 19440
0.211 0.802 1.705 19755
0.212 0.806 1.703 20071
0.214 0.814 1.707 18112
0.217 0.822 1.712 16651
0.218 0.827 1.709 15768
0.219 0.831 1.707 14745
0.219 0.832 1.697 12358
0.220 0.836 1.695 8721
0.222 0.844 1.699 7330
0.224 0.853 1.703 6564
0.229 0.868 1.721 6038
0.227 0.861 1.698 9740
0.228 0.866 1.695 13527
0.229 0.870 1.692 16419
0.231 0.878 1.697 18307
0.233 0.887 1.701 18112
0.235 0.891 1.698 14446
0.238 0.903 1.709 11441
0.237 0.900 1.692 12461
0.239 0.908 1.696 15007
0.241 0.917 1.700 16668
0.242 0.921 1.697 18766
0.244 0.925 1.695 21649
0.245 0.930 1.692 22433
0.246 0.934 1.689 17420
0.247 0.938 1.686 9425
0.249 0.947 1.690 6442
0.250 0.951 1.687 11607
0.253 0.960 1.690 18800
0.254 0.964 1.687 20373
0.255 0.968 1.684 14490
0.255 0.969 1.675 7311
0.256 0.973 1.672 5900
0.257 0.977 1.669 6929
0.261 0.990 1.679 13284
0.263 0.999 1.682 23737
0.264 1.003 1.679 28713
0.265 1.007 1.676 25443
0.268 1.016 1.680 21036
0.270 1.025 1.683 28295
0.271 1.029 1.680 36580
0.272 1.033 1.677 33709
0.276 1.047 1.686 24752
0.279 1.060 1.696 16984
0.280 1.064 1.693 17603
0.280 1.064 1.683 18912
0.283 1.073 1.686 17145
0.284 1.077 1.683 14840
0.285 1.082 1.679 15991
0.286 1.086 1.676 23338
0.287 1.090 1.673 23062
0.288 1.095 1.669 13467
0.295 1.122 1.698 10077
0.297 1.126 1.694 15031
0.298 1.131 1.691 19266
0.299 1.135 1.687 19603
0.299 1.135 1.677 20505
0.301 1.144 1.680 16458
0.306 1.162 1.695 15077
0.307 1.167 1.692 16641
0.310 1.176 1.694 17955
0.311 1.180 1.691 17460
0.312 1.185 1.687 17491
0.314 1.194 1.690 22067
0.315 1.198 1.686 24295
0.317 1.202 1.682 18789
0.320 1.217 1.691 16186
0.319 1.211 1.675 14614
0.317 1.206 1.659 15286
0.320 1.215 1.661 21077
0.324 1.229 1.670 23779
0.327 1.243 1.678 23473
0.328 1.247 1.674 31210
0.331 1.257 1.676 37737
0.332 1.261 1.672 29098
0.335 1.270 1.674 22946
0.337 1.280 1.676 20503
0.338 1.284 1.673 14133
0.339 1.288 1.669 15917
0.343 1.303 1.676 28514
0.344 1.307 1.672 36367
0.345 1.312 1.668 24657
0.352 1.336 1.688 12293
0.353 1.341 1.684 7653
0.349 1.324 1.656 5961
0.354 1.344 1.670 8498
0.355 1.349 1.665 17217
0.358 1.358 1.667 30097
0.360 1.368 1.669 40109
0.361 1.372 1.665 30069
0.364 1.381 1.666 23416
0.365 1.386 1.662 20244
0.369 1.401 1.669 16319
0.373 1.416 1.676 21884
0.375 1.425 1.677 25879
0.376 1.430 1.673 23254
0.378 1.434 1.669 15838
0.380 1.444 1.670 15070
0.383 1.453 1.671 19233
0.384 1.457 1.666 13096
0.385 1.462 1.662 9519
0.385 1.461 1.652 14122
0.387 1.470 1.653 12846
0.390 1.480 1.654 9314
0.389 1.479 1.644 6482
0.354 1.345 1.502 7081
0.390 1.482 1.629 7178
0.396 1.502 1.641 6499
0.351 1.334 1.468 8061
0.349 1.327 1.453 10627
0.349 1.325 1.444 9627
0.347 1.317 1.429 6808
0.403 1.529 1.623 5522
0.410 1.556 1.640 5372
0.414 1.571 1.646 3832
0.352 1.337 1.418 3645
0.349 1.324 1.398 6348
0.348 1.321 1.389 7493
0.429 1.628 1.664 6031
0.348 1.323 1.376 5728
0.349 1.326 1.371 6337
0.350 1.330 1.367 4577
0.351 1.333 1.363 4052
0.434 1.649 1.639 3247
0.402 1.526 1.520 2549
0.455 1.728 1.690 3738
0.453 1.720 1.675 3918
0.352 1.338 1.333 5428
0.353 1.342 1.328 6977
0.354 1.345 1.324 8769
0.355 1.348 1.320 12019
0.354 1.346 1.311 13211
0.354 1.343 1.302 10334
0.354 1.346 1.298 8455
0.357 1.355 1.299 8141
0.358 1.359 1.294 7270
0.359 1.362 1.290 5848
0.481 1.827 1.665 7355
0.484 1.837 1.665 9019
0.493 1.871 1.683 7185
0.365 1.387 1.283 6390
0.497 1.886 1.677 6669
0.495 1.878 1.661 5391
0.424 1.609 1.439 4828
0.497 1.887 1.650 4945
0.520 1.977 1.711 4266
0.520 1.975 1.700 7273
0.520 1.973 1.689 10151
0.521 1.977 1.683 10868
0.418 1.588 1.376 10757
0.421 1.597 1.376 11177
0.547 2.077 1.731 7558
0.548 2.081 1.724 8490
0.549 2.086 1.718 6524
0.395 1.499 1.274 5848
0.552 2.095 1.705 6866
0.553 2.099 1.699 8649
0.552 2.097 1.688 7915
0.557 2.114 1.690 7801
0.561 2.131 1.693 9402
0.569 2.160 1.704 9868
0.572 2.171 1.702 9946
0.571 2.169 1.691 10109
0.569 2.161 1.676 7877
0.572 2.172 1.674 8649
0.578 2.195 1.680 12529
0.584 2.218 1.687 13841
0.589 2.236 1.689 14404
0.590 2.240 1.682 15467
0.594 2.257 1.684 16468
0.597 2.268 1.681 19040
0.598 2.272 1.674 19283
0.603 2.289 1.676 16174
0.609 2.313 1.681 14304
0.612 2.324 1.679 14549
0.613 2.328 1.672 11147
0.616 2.339 1.669 7760
0.620 2.356 1.670 8045
0.622 2.360 1.663 9045
0.623 2.365 1.655 7627
0.650 2.467 1.710 7049
0.649 2.465 1.698 8072
0.647 2.456 1.683 7565
0.646 2.454 1.671 6220
0.649 2.465 1.668 7046
0.652 2.476 1.664 8295
0.655 2.487 1.661 8762
0.656 2.491 1.653 6425
0.655 2.488 1.641 4119
0.690 2.619 1.709 3276
0.685 2.603 1.689 4166
0.678 2.574 1.661 5811
0.679 2.579 1.654 5605
0.680 2.583 1.646 5399
0.692 2.627 1.661 5988
0.695 2.638 1.657 7517
0.698 2.649 1.652 7623
0.699 2.653 1.644 6765
0.702 2.664 1.640 6004
0.704 2.675 1.636 4642
0.734 2.788 1.687 4254
0.735 2.792 1.678 5084
0.736 2.796 1.670 5914
0.737 2.801 1.661 5025
0.740 2.812 1.656 4190
0.740 2.809 1.644 3056
0.741 2.813 1.636 1975
0.740 2.811 1.624 2897
0.741 2.815 1.615 3821
0.746 2.833 1.614 4074
0.752 2.857 1.615 4796
0.761 2.889 1.621 3880
0.769 2.921 1.626 4367
0.768 2.918 1.613 3466
0.793 3.012 1.649 3551
0.794 3.016 1.640 5244
0.795 3.020 1.631 6990
0.795 3.018 1.618 6904
0.794 3.015 1.605 6989
0.793 3.012 1.593 5966
0.794 3.016 1.584 4164
0.797 3.027 1.578 3423
0.833 3.164 1.630 2772
0.832 3.161 1.618 3664
0.835 3.172 1.611 3691
0.842 3.197 1.611 4275
0.845 3.208 1.605 4742
0.846 3.212 1.595 5293
0.847 3.216 1.585 5293
0.848 3.220 1.575 2646
0.405 1.539 0.829 268
0.177 0.664 1.706 13083
0.178 0.668 1.704 14322
0.179 0.673 1.701 15561
0.181 0.680 1.707 17209
0.182 0.685 1.704 19328
0.183 0.689 1.702 19619
0.185 0.693 1.700 15839
0.186 0.698 1.698 12058
0.187 0.702 1.696 9386
0.191 0.717 1.715 7165
0.192 0.721 1.713 9379
0.193 0.725 1.710 11594
0.194 0.730 1.708 12913
0.195 0.731 1.699 15481
0.196 0.735 1.697 16805
0.198 0.743 1.701 16791
0.200 0.751 1.706 17584
0.202 0.759 1.711 14861
0.204 0.767 1.715 12593
0.204 0.768 1.706 11119
0.206 0.772 1.704 9749
0.208 0.780 1.708 12989
0.209 0.784 1.706 16354
0.210 0.789 1.703 18503
0.212 0.797 1.708 20782
0.213 0.801 1.705 21017
0.214 0.806 1.703 21253
0.217 0.814 1.707 18801
0.219 0.822 1.712 17008
0.220 0.826 1.709 16032
0.221 0.831 1.707 14958
0.221 0.831 1.697 12672
0.222 0.836 1.695 8793
0.225 0.844 1.699 7060
0.227 0.852 1.703 6495
0.231 0.868 1.721 6302
0.229 0.861 1.698 9990
0.230 0.865 1.695 13893
0.231 0.869 1.692 16896
0.234 0.878 1.697 18802
0.236 0.886 1.701 18466
0.237 0.890 1.698 14337
0.240 0.903 1.709 10619
0.239 0.899 1.692 11600
0.242 0.907 1.696 14451
0.244 0.916 1.700 16600
0.245 0.920 1.697 19284
0.246 0.925 1.695 22919
0.247 0.929 1.692 23870
0.248 0.933 1.689 18397
0.250 0.938 1.686 10401
0.252 0.946 1.690 7921
0.253 0.951 1.687 12626
0.255 0.959 1.690 19051
0.256 0.963 1.687 20160
0.259 0.972 1.691 14417
0.258 0.968 1.675 7460
0.259 0.972 1.672 6338
0.261 0.981 1.675 5930
0.263 0.989 1.679 11236
0.266 0.998 1.682 22317
0.267 1.002 1.679 27608
0.268 1.007 1.676 24594
0.270 1.015 1.680 20565
0.273 1.024 1.683 26796
0.274 1.028 1.680 34264
0.275 1.033 1.677 31339
0.278 1.046 1.686 22203
0.282 1.059 1.696 14037
0.283 1.064 1.693 14414
0.283 1.063 1.683 16126
0.285 1.072 1.686 14613
0.287 1.077 1.683 12766
0.288 1.081 1.679 14635
0.289 1.085 1.676 22226
0.290 1.090 1.673 21657
0.291 1.094 1.669 13494
0.295 1.107 1.679 10588
0.298 1.121 1.688 15515
0.301 1.130 1.691 18480
0.302 1.134 1.687 17052
0.302 1.134 1.677 19768
0.304 1.143 1.680 17443
0.309 1.162 1.695 13718
0.310 1.166 1.692 13050
0.313 1.175 1.694 15196
0.314 1.179 1.691 16632
0.315 1.184 1.687 17101
0.318 1.193 1.690 22177
0.317 1.192 1.680 25257
0.320 1.202 1.682 19430
0.322 1.211 1.685 16613
0.321 1.205 1.669 16163
0.321 1.205 1.659 16897
0.324 1.219 1.667 22059
0.327 1.228 1.670 24031
0.331 1.242 1.678 23918
0.332 1.247 1.674 32991
0.333 1.251 1.670 39535
0.335 1.260 1.672 30024
0.337 1.265 1.668 24036
0.339 1.274 1.670 21206
0.339 1.273 1.661 14228
0.340 1.277 1.657 14417
0.347 1.302 1.676 26186
0.348 1.306 1.672 34171
0.349 1.311 1.668 24014
0.356 1.335 1.688 14237
0.357 1.340 1.684 11045
0.358 1.344 1.680 7043
0.356 1.338 1.664 6440
0.357 1.342 1.660 12074
0.363 1.362 1.673 23560
0.364 1.367 1.669 32802
0.365 1.371 1.665 23987
0.367 1.380 1.666 19539
0.370 1.390 1.668 18597
0.373 1.400 1.669 18004
0.377 1.415 1.676 24187
0.379 1.424 1.677 28884
0.380 1.428 1.673 25627
0.383 1.438 1.674 15208
0.384 1.442 1.670 13251
0.385 1.447 1.665 17689
0.388 1.456 1.666 11513
0.387 1.455 1.656 9626
0.387 1.454 1.646 15526
0.391 1.469 1.653 13589
0.394 1.479 1.654 11261
0.395 1.483 1.650 8802
0.355 1.333 1.492 7854
0.394 1.481 1.629 9022
0.397 1.490 1.630 7957
0.353 1.327 1.463 6601
0.353 1.326 1.453 10403
0.352 1.324 1.444 10030
0.350 1.316 1.429 6836
0.411 1.545 1.640 5322
0.415 1.560 1.646 5354
0.418 1.570 1.646 3494
0.356 1.336 1.418 3070
0.352 1.323 1.398 5793
0.352 1.320 1.389 7300
0.433 1.627 1.664 5844
0.352 1.322 1.376 5983
0.353 1.325 1.371 5925
0.354 1.329 1.367 4717
0.353 1.326 1.358 5096
0.352 1.324 1.349 3652
0.448 1.681 1.659 3107
0.458 1.721 1.685 4021
0.355 1.334 1.337 4607
0.354 1.331 1.327 6716
0.357 1.341 1.328 7934
0.358 1.344 1.324 9299
0.359 1.347 1.320 12271
0.358 1.345 1.311 13548
0.357 1.342 1.302 11382
0.358 1.345 1.298 9919
0.361 1.354 1.299 9209
0.361 1.358 1.294 7762
0.485 1.821 1.671 6734
0.486 1.825 1.665 10213
0.489 1.836 1.665 11359
0.491 1.846 1.664 7895
0.501 1.880 1.683 6288
0.500 1.879 1.672 7758
0.500 1.877 1.661 6406
0.428 1.608 1.439 5594
0.504 1.892 1.655 5537
0.505 1.896 1.649 4665
0.525 1.973 1.700 7543
0.525 1.972 1.689 10774
0.526 1.976 1.683 11281
0.424 1.593 1.381 10848
0.425 1.596 1.376 11564
0.553 2.075 1.731 8014
0.554 2.080 1.724 9399
0.555 2.084 1.718 7477
0.554 2.083 1.707 5904
0.557 2.093 1.705 8055
0.557 2.091 1.694 10066
0.558 2.096 1.688 9430
0.561 2.106 1.686 9133
0.567 2.129 1.693 10829
0.573 2.153 1.700 9966
0.576 2.163 1.698 8689
0.575 2.161 1.687 8959
0.573 2.153 1.671 7382
0.578 2.170 1.674 8754
0.584 2.193 1.680 13358
0.590 2.217 1.687 14047
0.595 2.234 1.689 14963
0.596 2.238 1.682 16477
0.599 2.249 1.679 17658
0.603 2.266 1.681 19550
0.604 2.270 1.674 19658
0.607 2.281 1.671 16011
0.615 2.311 1.681 13350
0.618 2.322 1.679 13596
0.619 2.326 1.672 10618
0.622 2.337 1.669 7854
0.625 2.348 1.666 8311
0.626 2.352 1.659 9426
0.629 2.363 1.655 8223
0.634 2.380 1.656 6225
0.652 2.450 1.690 7034
0.650 2.441 1.675 8367
0.649 2.439 1.663 8012
0.654 2.456 1.664 8057
0.659 2.474 1.664 8631
0.661 2.485 1.661 8877
0.663 2.489 1.653 6380
0.662 2.487 1.641 3933
0.667 2.504 1.642 3290
0.678 2.548 1.658 4515
0.683 2.566 1.658 6258
0.686 2.577 1.654 5748
0.687 2.581 1.646 5264
0.699 2.625 1.661 5936
0.704 2.643 1.661 7861
0.705 2.647 1.652 8263
0.706 2.652 1.644 7199
0.707 2.656 1.636 6135
0.710 2.667 1.632 4442
0.742 2.786 1.687 4355
0.743 2.790 1.678 5175
0.744 2.794 1.670 5994
0.745 2.799 1.661 5112
0.746 2.803 1.653 4229
0.747 2.807 1.644 3092
0.748 2.811 1.636 1956
0.748 2.809 1.624 2749
0.749 2.813 1.615 3575
0.752 2.824 1.610 3704
0.764 2.869 1.622 4407
0.772 2.901 1.628 4124
0.777 2.919 1.626 4559
0.776 2.916 1.613 3789
0.801 3.010 1.649 3665
0.802 3.014 1.640 5233
0.803 3.018 1.631 6891
0.803 3.015 1.618 6971
0.802 3.013 1.605 7154
0.803 3.017 1.596 6138
0.804 3.021 1.587 4537
0.805 3.025 1.578 3953
0.806 3.029 1.569 2891
0.841 3.159 1.618 3661
0.844 3.170 1.611 3783
0.851 3.195 1.611 4337
0.852 3.199 1.601 4783
0.855 3.210 1.595 5315
0.856 3.214 1.585 5315
0.857 3.218 1.575 2657
0.408 1.531 0.826 278
0.178 0.664 1.706 12756
0.179 0.668 1.704 14377
0.181 0.672 1.701 15999
0.183 0.680 1.707 17622
0.184 0.684 1.704 19515
0.185 0.689 1.702 19779
0.186 0.693 1.700 15797
0.187 0.697 1.698 11816
0.189 0.705 1.703 9430
0.192 0.716 1.715 7398
0.193 0.721 1.713 8951
0.195 0.725 1.710 10504
0.196 0.729 1.708 11834
0.196 0.730 1.699 14184
0.197 0.735 1.697 15242
0.199 0.743 1.701 15038
0.201 0.750 1.706 15597
0.204 0.758 1.711 12828
0.205 0.763 1.708 10481
0.206 0.767 1.706 10422
0.207 0.772 1.704 10364
0.208 0.776 1.701 13759
0.210 0.784 1.706 17232
0.212 0.788 1.703 19479
0.214 0.796 1.708 21725
0.215 0.801 1.705 21919
0.216 0.805 1.703 22113
0.218 0.813 1.707 19211
0.221 0.821 1.712 17142
0.222 0.826 1.709 16005
0.223 0.830 1.707 14791
0.223 0.831 1.697 12502
0.224 0.835 1.695 8376
0.226 0.843 1.699 6310
0.229 0.851 1.703 6125
0.232 0.864 1.714 6275
0.232 0.864 1.705 10039
0.232 0.865 1.695 13972
0.233 0.869 1.692 17074
0.236 0.877 1.697 19084
0.238 0.885 1.701 18649
0.239 0.890 1.698 14073
0.241 0.898 1.702 9654
0.241 0.899 1.692 10424
0.244 0.907 1.696 13519
0.246 0.915 1.700 16218
0.246 0.916 1.691 19634
0.248 0.924 1.695 23946
0.249 0.928 1.692 25030
0.250 0.933 1.689 19056
0.252 0.937 1.686 11478
0.254 0.946 1.690 9863
0.255 0.950 1.687 13660
0.257 0.959 1.690 18520
0.259 0.963 1.687 18890
0.261 0.971 1.691 13655
0.261 0.972 1.681 7341
0.262 0.976 1.678 6541
0.264 0.984 1.682 5682
0.267 0.993 1.686 10149
0.268 0.997 1.682 20520
0.269 1.002 1.679 25610
0.271 1.010 1.683 22967
0.272 1.015 1.680 19602
0.275 1.023 1.683 25407
0.276 1.028 1.680 32010
0.277 1.032 1.677 29044
0.281 1.045 1.686 19842
0.283 1.054 1.690 11587
0.285 1.063 1.693 11628
0.285 1.063 1.683 13704
0.287 1.067 1.680 12396
0.289 1.076 1.683 10564
0.290 1.080 1.679 13206
0.291 1.085 1.676 21109
0.292 1.089 1.673 20296
0.294 1.093 1.669 13416
0.296 1.102 1.672 11666
0.300 1.116 1.682 16472
0.302 1.125 1.684 18548
0.302 1.124 1.675 15693
0.303 1.129 1.671 19645
0.305 1.138 1.674 19121
0.310 1.156 1.689 13468
0.312 1.161 1.685 10371
0.314 1.170 1.688 12445
0.315 1.174 1.684 15319
0.318 1.183 1.687 16167
0.320 1.192 1.690 21509
0.320 1.192 1.680 24991
0.322 1.201 1.682 19240
0.325 1.210 1.685 16689
0.323 1.205 1.669 16916
0.325 1.209 1.665 17912
0.327 1.218 1.667 23164
0.330 1.227 1.670 25135
0.333 1.242 1.678 25076
0.335 1.246 1.674 34677
0.336 1.250 1.670 40694
0.337 1.254 1.666 30562
0.338 1.259 1.662 24028
0.342 1.273 1.670 20188
0.342 1.272 1.661 13168
0.345 1.287 1.669 12212
0.349 1.301 1.676 22976
0.351 1.306 1.672 30682
0.352 1.310 1.668 22233
0.358 1.335 1.688 15937
0.360 1.339 1.684 14559
0.361 1.343 1.680 10682
0.359 1.337 1.664 7013
0.360 1.342 1.660 8617
0.366 1.362 1.673 17910
0.368 1.371 1.674 24534
0.369 1.375 1.670 16833
0.370 1.380 1.666 14786
0.373 1.389 1.668 16247
0.376 1.399 1.669 19377
0.378 1.408 1.670 26327
0.382 1.423 1.677 30492
0.383 1.428 1.673 26659
0.386 1.437 1.674 15677
0.387 1.442 1.670 12728
0.388 1.446 1.665 15871
0.389 1.450 1.661 10172
0.389 1.449 1.651 9716
0.390 1.453 1.646 16522
0.394 1.468 1.653 13797
0.397 1.478 1.654 12625
0.398 1.482 1.650 11104
0.398 1.481 1.639 9342
0.399 1.485 1.635 11063
0.398 1.484 1.625 9372
0.397 1.477 1.610 7732
0.354 1.319 1.448 9865
0.355 1.323 1.444 10395
0.353 1.315 1.429 6914
0.416 1.550 1.645 4953
0.419 1.559 1.646 5212
0.421 1.569 1.646 3064
0.359 1.335 1.418 2697
0.353 1.316 1.393 5615
0.353 1.314 1.384 7178
0.354 1.317 1.380 5646
0.353 1.315 1.370 5945
0.356 1.324 1.371 5264
0.357 1.328 1.367 4846
0.354 1.320 1.353 6157
0.354 1.317 1.344 4646
0.451 1.680 1.659 3712
0.462 1.720 1.685 4067
0.356 1.327 1.332 5900
0.357 1.331 1.327 7959
0.360 1.340 1.328 8473
0.361 1.343 1.324 9243
0.362 1.347 1.320 11833
0.361 1.344 1.311 13249
0.360 1.341 1.302 11805
0.361 1.345 1.298 10727
0.363 1.354 1.299 9830
0.364 1.357 1.294 7967
0.489 1.820 1.671 9266
0.491 1.830 1.670 13418
0.493 1.835 1.665 13713
0.495 1.845 1.664 8800
0.498 1.855 1.663 6763
0.503 1.872 1.667 9075
0.504 1.876 1.661 7468
0.431 1.607 1.439 6259
0.508 1.890 1.655 6231
0.509 1.895 1.649 5424
0.530 1.972 1.700 7866
0.529 1.971 1.689 11506
0.530 1.975 1.683 11693
0.427 1.592 1.381 10559
0.428 1.595 1.376 11530
0.540 2.012 1.684 8951
0.556 2.072 1.720 10308
0.538 2.002 1.658 8686
0.560 2.088 1.711 6673
0.560 2.086 1.701 9105
0.561 2.090 1.694 11410
0.562 2.094 1.688 10781
0.565 2.105 1.686 10425
0.571 2.128 1.693 11972
0.576 2.145 1.695 10424
0.577 2.149 1.689 7757
0.575 2.141 1.673 8121
0.576 2.145 1.667 7389
0.581 2.162 1.669 8826
0.589 2.192 1.680 13957
0.591 2.203 1.678 13909
0.599 2.233 1.689 14957
0.601 2.237 1.682 16905
0.603 2.248 1.679 18377
0.608 2.265 1.681 19543
0.609 2.269 1.674 19493
0.612 2.280 1.671 15386
0.620 2.310 1.681 11995
0.625 2.327 1.683 12380
0.624 2.325 1.672 9962
0.625 2.329 1.664 7876
0.630 2.347 1.666 8354
0.631 2.351 1.659 9581
0.634 2.362 1.655 8584
0.642 2.392 1.665 7283
0.652 2.429 1.678 7655
0.653 2.433 1.670 9677
0.654 2.438 1.663 9809
0.657 2.448 1.660 9498
0.664 2.472 1.664 9002
0.667 2.483 1.661 9004
0.668 2.488 1.653 6288
0.667 2.485 1.641 3665
0.695 2.589 1.693 3243
0.684 2.547 1.658 4738
0.689 2.564 1.658 6504
0.690 2.569 1.650 5791
0.691 2.573 1.642 5078
0.706 2.631 1.665 5839
0.709 2.642 1.661 8214
0.710 2.646 1.652 8839
0.712 2.650 1.644 7576
0.713 2.654 1.636 6313
0.714 2.658 1.628 4469
0.748 2.784 1.687 4540
0.749 2.788 1.678 5348
0.748 2.786 1.666 6232
0.749 2.790 1.658 5271
0.750 2.795 1.649 4309
0.753 2.806 1.644 3096
0.754 2.810 1.636 1895
0.754 2.807 1.624 2548
0.753 2.804 1.611 3313
0.758 2.822 1.610 3336
0.775 2.888 1.633 4223
0.778 2.899 1.628 4394
0.781 2.910 1.622 4823
0.781 2.907 1.610 4214
0.780 2.905 1.598 3947
0.809 3.012 1.640 5101
0.810 3.016 1.631 6630
0.809 3.014 1.618 6880
0.808 3.011 1.605 7171
0.810 3.015 1.596 6257
0.811 3.019 1.587 4918
0.812 3.023 1.578 4493
0.813 3.027 1.569 3434
0.848 3.157 1.618 3639
0.851 3.168 1.611 3829
0.855 3.186 1.608 4261
0.858 3.197 1.601 4610
0.861 3.208 1.595 5079
0.862 3.212 1.585 5079
0.864 3.216 1.575 2539
0.413 1.537 0.829 274
0.181 0.666 1.713 12164
0.182 0.671 1.711 14483
0.183 0.675 1.709 16803
0.184 0.679 1.707 18206
0.186 0.687 1.712 19855
0.188 0.691 1.709 20188
0.189 0.696 1.707 15925
0.190 0.700 1.705 11661
0.191 0.705 1.703 9446
0.194 0.716 1.715 7558
0.195 0.720 1.713 8418
0.197 0.724 1.710 9278
0.198 0.729 1.708 10597
0.198 0.730 1.699 12740
0.199 0.734 1.697 13559
0.200 0.739 1.694 13291
0.203 0.750 1.706 13664
0.205 0.754 1.704 11151
0.207 0.762 1.708 8877
0.208 0.767 1.706 9964
0.209 0.771 1.704 11051
0.210 0.775 1.701 14494
0.212 0.780 1.699 17938
0.214 0.788 1.703 20199
0.215 0.792 1.701 22485
0.217 0.800 1.705 22505
0.218 0.805 1.703 22657
0.220 0.813 1.707 19394
0.223 0.821 1.712 17101
0.224 0.825 1.709 15762
0.225 0.829 1.707 14366
0.226 0.834 1.704 12162
0.226 0.834 1.695 7871
0.229 0.843 1.699 5573
0.231 0.851 1.703 5715
0.233 0.859 1.707 6171
0.234 0.863 1.705 9856
0.234 0.864 1.695 13661
0.236 0.868 1.692 16837
0.238 0.877 1.697 19139
0.239 0.881 1.694 18905
0.241 0.889 1.698 13955
0.242 0.894 1.695 9135
0.244 0.898 1.692 9441
0.246 0.906 1.696 12620
0.247 0.911 1.694 15888
0.248 0.915 1.691 19860
0.251 0.923 1.695 24605
0.252 0.928 1.692 25789
0.253 0.932 1.689 19497
0.254 0.936 1.686 12622
0.256 0.945 1.690 11972
0.258 0.949 1.687 14766
0.260 0.958 1.690 17758
0.261 0.962 1.687 17299
0.263 0.971 1.691 12638
0.266 0.979 1.695 7241
0.267 0.984 1.692 6737
0.268 0.988 1.689 6291
0.270 0.997 1.692 9931
0.270 0.997 1.682 18147
0.272 1.001 1.679 22538
0.274 1.010 1.683 20509
0.276 1.018 1.686 18379
0.277 1.023 1.683 24366
0.277 1.023 1.673 30183
0.280 1.031 1.677 27193
0.283 1.045 1.686 18048
0.286 1.053 1.690 10010
0.287 1.058 1.686 9971
0.287 1.058 1.677 12036
0.289 1.066 1.680 10645
0.292 1.075 1.683 8431
0.293 1.080 1.679 11768
0.295 1.088 1.682 19977
0.295 1.088 1.673 18993
0.296 1.092 1.669 13189
0.299 1.101 1.672 12449
0.301 1.110 1.675 17425
0.304 1.119 1.678 19490
0.305 1.124 1.675 15748
0.306 1.128 1.671 19687
0.308 1.137 1.674 20650
0.312 1.151 1.683 14668
0.312 1.150 1.673 10605
0.316 1.164 1.682 11607
0.318 1.173 1.684 14494
0.321 1.182 1.687 15117
0.323 1.191 1.690 20152
0.323 1.191 1.680 23556
0.326 1.200 1.682 18186
0.327 1.204 1.678 16359
0.327 1.204 1.669 17543
0.328 1.208 1.665 18783
0.330 1.217 1.667 24383
0.333 1.227 1.670 27261
0.337 1.241 1.678 26633
0.338 1.245 1.674 35423
0.339 1.249 1.670 41002
0.340 1.254 1.666 30884
0.341 1.258 1.662 23728
0.344 1.267 1.665 18446
0.345 1.271 1.661 11676
0.349 1.286 1.669 10250
0.353 1.300 1.676 19696
0.354 1.305 1.672 26468
0.357 1.314 1.674 19923
0.360 1.329 1.682 16762
0.363 1.338 1.684 16152
0.364 1.342 1.680 12037
0.365 1.347 1.675 7445
0.367 1.351 1.671 7854
0.371 1.366 1.679 15127
0.373 1.375 1.680 17155
0.374 1.380 1.676 11185
0.375 1.384 1.672 11449
0.377 1.388 1.668 14217
0.379 1.398 1.669 20450
0.382 1.407 1.670 28253
0.384 1.417 1.672 30513
0.387 1.427 1.673 25880
0.388 1.431 1.669 16430
0.389 1.435 1.664 13433
0.392 1.445 1.665 14475
0.392 1.444 1.655 9655
0.393 1.448 1.651 9685
0.394 1.452 1.646 16651
0.397 1.462 1.648 13454
0.402 1.483 1.660 12865
0.403 1.487 1.655 12420
0.402 1.480 1.639 10926
0.403 1.484 1.635 12840
0.402 1.483 1.625 10402
0.400 1.476 1.610 8853
0.358 1.318 1.448 9031
0.359 1.322 1.444 10484
0.355 1.309 1.424 7217
0.420 1.548 1.645 4456
0.423 1.558 1.646 4897
0.399 1.472 1.556 3148
0.397 1.465 1.540 2770
0.355 1.310 1.388 5435
0.356 1.313 1.384 6851
0.356 1.311 1.374 5608
0.357 1.314 1.370 5587
0.358 1.318 1.366 4766
0.358 1.321 1.362 5268
0.358 1.319 1.353 7181
0.357 1.316 1.344 5705
0.456 1.679 1.659 4023
0.359 1.323 1.336 4131
0.360 1.326 1.332 6874
