-0.041 1.635 1.863 19666
-0.041 1.645 1.863 28498
-0.041 1.650 1.858 25182
-0.041 1.655 1.854 24324
-0.042 1.660 1.849 27028
-0.042 1.665 1.844 18574
-0.042 1.676 1.844 16673
-0.042 1.698 1.856 15240
-0.043 1.708 1.857 15023
-0.043 1.713 1.852 14119
-0.043 1.712 1.841 18638
-0.043 1.723 1.842 27605
-0.043 1.739 1.847 27908
-0.044 1.744 1.842 18007
-0.044 1.761 1.848 14780
-0.045 1.783 1.859 15708
-0.045 1.799 1.865 14735
-0.045 1.810 1.865 14386
-0.046 1.827 1.870 18438
-0.046 1.838 1.870 19718
-0.046 1.848 1.870 15329
-0.046 1.848 1.859 15006
-0.046 1.847 1.849 16407
-0.046 1.858 1.848 23073
-0.046 1.857 1.838 24814
-0.047 1.862 1.832 14731
-0.047 1.878 1.837 6593
-0.048 1.931 1.874 4638
-0.049 1.948 1.878 6002
-0.049 1.947 1.867 8201
-0.049 1.952 1.862 10574
-0.049 1.969 1.866 11993
-0.049 1.980 1.865 9129
-0.050 2.003 1.875 7823
-0.050 2.014 1.874 13044
-0.050 2.019 1.868 16399
-0.050 2.018 1.857 17397
-0.051 2.029 1.856 17786
-0.051 2.046 1.860 13980
-0.052 2.063 1.864 7740
-0.052 2.074 1.863 6469
-0.052 2.086 1.862 8793
-0.053 2.109 1.871 13794
-0.053 2.114 1.865 14352
-0.053 2.119 1.859 10858
-0.053 2.105 1.838 9650
-0.054 2.148 1.861 10706
-0.054 2.177 1.874 12483
-0.055 2.201 1.882 14442
-0.055 2.219 1.885 14389
-0.055 2.199 1.859 11995
-0.055 2.210 1.858 10665
-0.056 2.234 1.866 6345
-0.058 2.315 1.916 4380
-0.057 2.269 1.871 7190
-0.057 2.287 1.874 13593
-0.057 2.292 1.868 13080
-0.058 2.335 1.889 11850
-0.059 2.347 1.887 14542
-0.059 2.345 1.875 16843
-0.059 2.350 1.868 15827
-0.060 2.387 1.884 13223
-0.060 2.405 1.887 11443
-0.060 2.410 1.880 7998
-0.060 2.415 1.872 7055
-0.061 2.420 1.865 6655
-0.062 2.464 1.885 6770
-0.061 2.437 1.856 9880
-0.061 2.455 1.857 17232
-0.062 2.466 1.855 19331
-0.062 2.491 1.861 13453
-0.063 2.522 1.871 12511
-0.063 2.534 1.868 12625
-0.064 2.552 1.869 12119
-0.064 2.564 1.866 12325
-0.064 2.575 1.863 8434
-0.065 2.613 1.877 8269
-0.066 2.625 1.874 9614
-0.066 2.637 1.870 13576
-0.066 2.635 1.858 14130
-0.066 2.647 1.855 12333
-0.066 2.645 1.843 8642
-0.068 2.703 1.869 8630
-0.068 2.702 1.857 10093
-0.068 2.707 1.849 8562
-0.068 2.718 1.845 5707
-0.069 2.743 1.849 5238
-0.069 2.755 1.845 5578
-0.069 2.767 1.841 5902
-0.069 2.779 1.837 6047
-0.072 2.899 1.898 6386
-0.073 2.924 1.902 9715
-0.073 2.936 1.897 10235
-0.074 2.941 1.889 7305
-0.074 2.960 1.888 4451
-0.074 2.958 1.875 3700
-0.075 3.011 1.894 3790
-0.075 3.010 1.881 4942
-0.076 3.022 1.876 4266
-0.076 3.033 1.871 3644
-0.076 3.039 1.863 3647
-0.079 3.175 1.927 4068
-0.079 3.180 1.917 5026
-0.080 3.185 1.908 6486
-0.080 3.190 1.899 7947
-0.080 3.195 1.889 8705
-0.080 3.201 1.880 9462
-0.080 3.199 1.867 7519
-0.080 3.190 1.850 5965
-0.080 3.216 1.852 4784
-0.081 3.235 1.849 4590
-0.083 3.331 1.887 5038
-0.085 3.413 1.917 3933
-0.087 3.489 1.943 4041
-0.087 3.487 1.930 3470
-0.087 3.464 1.905 3109
-0.087 3.469 1.895 2814
-0.087 3.481 1.888 2531
-0.088 3.508 1.888 2301
-0.088 3.527 1.885 2736
-0.088 3.532 1.875 2736
-0.089 3.544 1.868 4493
-0.089 3.556 1.861 6447
-0.089 3.561 1.850 6646
-0.089 3.566 1.840 6846
-0.089 3.564 1.826 4825
-0.091 3.655 1.855 4394
-0.091 3.653 1.841 4139
-0.091 3.636 1.821 4393
-0.091 3.634 1.807 3181
-0.090 3.602 1.780 2778
-0.090 3.607 1.769 2976
-0.103 4.104 1.977 2209
-0.103 4.109 1.965 2445
-0.102 4.100 1.946 2957
-0.103 4.105 1.934 3574
-0.101 4.038 1.891 2049
-0.101 4.043 1.879 1024
-0.016 0.726 1.792 7263
-0.016 0.731 1.790 7811
-0.016 0.739 1.795 8431
-0.017 0.744 1.793 8431
-0.017 0.749 1.790 13903
-0.017 0.753 1.788 19374
-0.017 0.758 1.786 24810
-0.017 0.766 1.791 30327
-0.017 0.771 1.788 29827
-0.017 0.776 1.786 29327
-0.017 0.784 1.791 28447
-0.018 0.789 1.789 22480
-0.018 0.794 1.786 17198
-0.018 0.799 1.784 12364
-0.018 0.807 1.788 7662
-0.018 0.812 1.786 5546
-0.019 0.842 1.833 3934
-0.018 0.821 1.781 4609
-0.018 0.826 1.779 5788
-0.019 0.842 1.797 7224
-0.019 0.847 1.795 9009
-0.019 0.855 1.799 10427
-0.019 0.864 1.804 12644
-0.019 0.876 1.815 12826
-0.020 0.881 1.812 13564
-0.020 0.886 1.810 10974
-0.020 0.887 1.800 8632
-0.020 0.884 1.784 8031
-0.020 0.889 1.781 7648
-0.020 0.893 1.778 7640
-0.020 0.898 1.776 7632
-0.020 0.911 1.787 9195
-0.020 0.919 1.791 11405
-0.021 0.928 1.795 13114
-0.021 0.937 1.799 14440
-0.021 0.942 1.796 13099
-0.021 0.947 1.793 11703
-0.021 0.951 1.791 10537
-0.021 0.956 1.788 8737
-0.022 0.973 1.805 7478
-0.022 0.990 1.823 6021
-0.022 0.999 1.826 5656
-0.022 1.004 1.823 6038
-0.022 1.009 1.820 9536
-0.023 1.014 1.817 13034
-0.023 1.019 1.814 17255
-0.023 1.024 1.811 23749
-0.023 1.029 1.808 26021
-0.023 1.033 1.805 22813
-0.023 1.042 1.809 18567
-0.023 1.047 1.806 16650
-0.023 1.056 1.809 24969
-0.024 1.061 1.806 35711
-0.024 1.066 1.803 37967
-0.024 1.071 1.800 41900
-0.024 1.076 1.797 49082
-0.024 1.081 1.793 52330
-0.024 1.085 1.790 51953
-0.024 1.086 1.780 47495
-0.024 1.095 1.784 38877
-0.024 1.100 1.780 34898
-0.025 1.104 1.777 27261
-0.025 1.118 1.787 18309
-0.025 1.132 1.796 14770
-0.026 1.155 1.819 16087
-0.026 1.165 1.822 25030
-0.026 1.174 1.825 30736
-0.026 1.188 1.834 32785
-0.027 1.198 1.837 32169
-0.027 1.207 1.840 30938
-0.027 1.217 1.843 26275
-0.027 1.222 1.839 22442
-0.027 1.227 1.836 27240
-0.027 1.232 1.832 31382
-0.028 1.241 1.835 30238
-0.028 1.246 1.831 23204
-0.028 1.251 1.827 19514
-0.028 1.261 1.830 23068
-0.028 1.275 1.839 18507
-0.029 1.285 1.841 11544
-0.029 1.290 1.837 12000
-0.029 1.295 1.833 11686
-0.029 1.315 1.848 9632
-0.030 1.334 1.863 9329
-0.030 1.334 1.853 10607
-0.030 1.339 1.849 11050
-0.030 1.354 1.857 9340
-0.030 1.354 1.847 13182
-0.030 1.359 1.843 20274
-0.030 1.369 1.845 19369
-0.030 1.369 1.835 16773
-0.031 1.374 1.831 17720
-0.031 1.384 1.833 13965
-0.032 1.419 1.865 11357
-0.032 1.424 1.861 17492
-0.032 1.429 1.857 23316
-0.032 1.445 1.864 18065
-0.032 1.455 1.866 12600
-0.032 1.455 1.856 9140
-0.032 1.454 1.846 7149
-0.032 1.459 1.841 8773
-0.033 1.480 1.855 12976
-0.033 1.495 1.862 12563
-0.034 1.516 1.876 18068
-0.034 1.516 1.865 34906
-0.034 1.526 1.867 36138
-0.034 1.537 1.868 24814
-0.034 1.536 1.857 26019
-0.034 1.541 1.853 31116
-0.034 1.541 1.843 22646
-0.034 1.551 1.844 17775
-0.035 1.567 1.851 24142
-0.035 1.583 1.858 22185
-0.036 1.604 1.870 22304
-0.036 1.609 1.865 25785
-0.036 1.619 1.866 26222
-0.036 1.624 1.862 20362
-0.036 1.635 1.863 20438
-0.037 1.645 1.863 30823
-0.037 1.650 1.858 27706
-0.037 1.655 1.854 27145
-0.037 1.660 1.849 28069
-0.037 1.665 1.844 19041
-0.037 1.676 1.844 16459
-0.038 1.698 1.856 19585
-0.038 1.708 1.857 19720
-0.038 1.713 1.852 12165
-0.038 1.713 1.841 16912
-0.038 1.723 1.842 26811
-0.039 1.740 1.847 28698
-0.039 1.750 1.848 18902
-0.039 1.767 1.853 14623
-0.039 1.772 1.848 15605
-0.040 1.800 1.865 15880
-0.040 1.810 1.865 15218
-0.041 1.827 1.870 17259
-0.041 1.832 1.865 18234
-0.041 1.843 1.865 16290
-0.041 1.842 1.854 18658
-0.041 1.847 1.849 18113
-0.041 1.852 1.843 22875
-0.041 1.857 1.838 24541
-0.041 1.856 1.827 14487
-0.041 1.861 1.821 6773
-0.043 1.937 1.879 4168
-0.043 1.942 1.873 6653
-0.043 1.947 1.867 9133
-0.043 1.946 1.856 11699
-0.044 1.963 1.861 12566
-0.044 1.968 1.855 9233
-0.044 1.991 1.865 7821
-0.045 2.014 1.874 12440
-0.045 2.013 1.863 15804
-0.045 2.018 1.857 17990
-0.045 2.029 1.856 18669
-0.045 2.040 1.855 14524
-0.046 2.063 1.864 8352
-0.046 2.068 1.858 8004
-0.046 2.073 1.852 10617
-0.047 2.103 1.866 12608
-0.046 2.083 1.840 13748
-0.046 2.088 1.834 14346
-0.047 2.106 1.838 12090
-0.048 2.141 1.856 10806
-0.048 2.178 1.874 12137
-0.049 2.201 1.882 14468
-0.049 2.219 1.885 14616
-0.049 2.193 1.855 10993
-0.049 2.198 1.848 9271
-0.050 2.240 1.870 4713
-0.050 2.252 1.869 4814
-0.050 2.263 1.867 9999
-0.051 2.281 1.870 16416
-0.051 2.305 1.877 15713
-0.052 2.323 1.880 12668
-0.052 2.340 1.882 14313
-0.052 2.345 1.875 17398
-0.052 2.350 1.868 16536
-0.053 2.388 1.884 13558
-0.053 2.405 1.887 11156
-0.054 2.417 1.884 8443
-0.054 2.422 1.877 8530
-0.054 2.427 1.870 7879
-0.055 2.458 1.881 7718
-0.054 2.444 1.860 11290
-0.055 2.455 1.857 18998
-0.055 2.467 1.855 19887
-0.055 2.485 1.856 13664
-0.056 2.516 1.867 12192
-0.056 2.534 1.868 11359
-0.057 2.552 1.869 10146
-0.057 2.557 1.862 9430
-0.057 2.569 1.859 6631
-0.058 2.613 1.877 5981
-0.058 2.632 1.878 7857
-0.059 2.637 1.870 13058
-0.059 2.635 1.858 14127
-0.059 2.640 1.851 11919
-0.059 2.638 1.839 8017
-0.060 2.697 1.865 8583
-0.060 2.702 1.857 10434
-0.060 2.707 1.849 8911
-0.060 2.718 1.845 5756
-0.061 2.750 1.853 5249
-0.061 2.749 1.841 5193
-0.061 2.767 1.841 5390
-0.062 2.779 1.837 5908
-0.065 2.906 1.902 6555
-0.065 2.925 1.902 9949
-0.065 2.937 1.897 10336
-0.065 2.942 1.889 7338
-0.066 2.960 1.888 4438
-0.066 2.959 1.875 3675
-0.067 3.012 1.894 3670
-0.067 3.010 1.881 4845
-0.067 3.022 1.876 4350
-0.067 3.034 1.871 3914
-0.068 3.039 1.863 4022
-0.071 3.175 1.927 4173
-0.071 3.180 1.917 5009
-0.071 3.185 1.908 6465
-0.071 3.191 1.899 7921
-0.071 3.196 1.889 8634
-0.071 3.201 1.880 9347
-0.071 3.199 1.867 7504
-0.071 3.190 1.850 6165
-0.071 3.202 1.844 4866
-0.074 3.326 1.897 4646
-0.074 3.331 1.887 5247
-0.076 3.414 1.917 4053
-0.076 3.412 1.904 4041
-0.077 3.487 1.930 3318
-0.077 3.464 1.905 3078
-0.077 3.469 1.895 2755
-0.077 3.467 1.881 2439
-0.078 3.501 1.885 2464
-0.078 3.527 1.885 3546
-0.078 3.532 1.875 3546
-0.079 3.544 1.868 5406
-0.079 3.549 1.857 7413
-0.079 3.561 1.850 7146
-0.079 3.574 1.843 6973
-0.079 3.571 1.829 4561
-0.081 3.648 1.852 4288
-0.081 3.646 1.838 4283
-0.081 3.629 1.818 4771
-0.080 3.598 1.791 4257
-0.080 3.603 1.780 3980
-0.080 3.607 1.769 3885
-0.080 3.612 1.759 2547
-0.091 4.110 1.965 2289
-0.091 4.100 1.946 2880
-0.091 4.106 1.934 3505
-0.090 4.038 1.891 2088
-0.090 4.043 1.879 1044
-0.014 0.723 1.785 8077
-0.015 0.731 1.790 7901
-0.015 0.739 1.795 7873
-0.015 0.744 1.793 7873
-0.015 0.749 1.790 13407
-0.015 0.753 1.788 18941
-0.015 0.758 1.786 24532
-0.015 0.766 1.791 30180
-0.015 0.771 1.788 29785
-0.015 0.776 1.786 29391
-0.016 0.784 1.791 28354
-0.016 0.789 1.789 22536
-0.016 0.794 1.786 17402
-0.016 0.799 1.784 12513
-0.016 0.803 1.781 7623
-0.016 0.808 1.779 5643
-0.016 0.809 1.770 3726
-0.016 0.821 1.781 4721
-0.017 0.833 1.793 6114
-0.017 0.842 1.797 7856
-0.017 0.847 1.795 9709
-0.017 0.855 1.799 11192
-0.017 0.864 1.804 13335
-0.017 0.872 1.808 13298
-0.018 0.881 1.812 14039
-0.018 0.886 1.810 11415
-0.018 0.883 1.793 9345
-0.018 0.884 1.784 8910
-0.018 0.889 1.781 8539
-0.018 0.893 1.778 8518
-0.018 0.898 1.776 8496
-0.018 0.911 1.787 9700
-0.018 0.920 1.791 11478
-0.018 0.928 1.795 13060
-0.019 0.937 1.799 14479
-0.019 0.942 1.796 13300
-0.019 0.947 1.793 11880
-0.019 0.951 1.791 10669
-0.019 0.956 1.788 8918
-0.019 0.973 1.805 7658
-0.020 0.990 1.823 6353
-0.020 0.999 1.826 5790
-0.020 1.004 1.823 5917
-0.020 1.009 1.820 9426
-0.020 1.014 1.817 12935
-0.020 1.019 1.814 16997
-0.020 1.024 1.811 23054
-0.020 1.029 1.808 25049
-0.021 1.038 1.812 22191
-0.021 1.043 1.809 19753
-0.021 1.047 1.806 19234
-0.021 1.056 1.809 27088
-0.021 1.061 1.806 36732
-0.021 1.066 1.803 38198
-0.021 1.071 1.800 42202
-0.021 1.076 1.797 49441
-0.021 1.076 1.787 52750
-0.022 1.085 1.790 52487
-0.022 1.086 1.780 48244
-0.022 1.095 1.784 40412
-0.022 1.100 1.780 37276
-0.022 1.105 1.777 29064
-0.022 1.118 1.787 19384
-0.023 1.132 1.796 14749
-0.023 1.155 1.819 13779
-0.023 1.165 1.822 20823
-0.023 1.179 1.831 27987
-0.024 1.193 1.841 32804
-0.024 1.198 1.837 33256
-0.024 1.207 1.840 31286
-0.024 1.217 1.843 25278
-0.024 1.222 1.839 20683
-0.024 1.227 1.836 23849
-0.024 1.232 1.832 26301
-0.025 1.241 1.835 24444
-0.025 1.246 1.831 18703
-0.025 1.251 1.827 19062
-0.025 1.261 1.830 24122
-0.025 1.275 1.839 18471
-0.026 1.285 1.841 12108
-0.026 1.290 1.837 14280
-0.026 1.300 1.840 15944
-0.026 1.315 1.848 13867
-0.026 1.329 1.857 12413
-0.027 1.334 1.853 11800
-0.027 1.339 1.849 11002
-0.027 1.354 1.857 8707
-0.027 1.354 1.847 11907
-0.027 1.359 1.843 19830
-0.027 1.364 1.839 19726
-0.027 1.369 1.835 17724
-0.027 1.374 1.831 17968
-0.027 1.379 1.827 13799
-0.028 1.409 1.853 9301
-0.028 1.419 1.855 15355
-0.028 1.424 1.851 21580
-0.029 1.434 1.852 14828
-0.029 1.455 1.866 7224
-0.029 1.444 1.844 4746
-0.029 1.449 1.840 5540
-0.029 1.454 1.835 7986
-0.029 1.480 1.855 11291
-0.030 1.501 1.868 12798
-0.030 1.516 1.876 19754
-0.030 1.516 1.865 36966
-0.030 1.526 1.867 39771
-0.031 1.537 1.868 28718
-0.031 1.536 1.857 29372
-0.031 1.541 1.853 33906
-0.031 1.541 1.843 24359
-0.031 1.551 1.844 20787
-0.031 1.567 1.851 28550
-0.031 1.583 1.858 22937
-0.032 1.604 1.870 21589
-0.032 1.609 1.865 23454
-0.032 1.620 1.866 21731
-0.032 1.625 1.862 17055
-0.032 1.635 1.863 20205
-0.033 1.646 1.863 31842
-0.033 1.651 1.858 29257
-0.033 1.656 1.854 29071
-0.033 1.661 1.849 28296
-0.033 1.665 1.844 19900
-0.033 1.676 1.844 17320
-0.034 1.703 1.862 25452
-0.034 1.714 1.862 25398
-0.034 1.713 1.852 11373
-0.034 1.713 1.841 16400
-0.034 1.723 1.842 26449
-0.035 1.740 1.847 29324
-0.035 1.750 1.848 20584
-0.035 1.767 1.853 15215
-0.035 1.766 1.843 15831
-0.036 1.788 1.854 16206
-0.036 1.805 1.859 15072
-0.036 1.827 1.870 15565
-0.036 1.832 1.865 17258
-0.037 1.837 1.859 17803
-0.036 1.836 1.849 21853
-0.037 1.841 1.843 19386
-0.037 1.846 1.838 22263
-0.037 1.851 1.832 23528
-0.037 1.856 1.827 14129
-0.037 1.861 1.821 7103
-0.038 1.931 1.874 4282
-0.039 1.942 1.873 6824
-0.039 1.941 1.862 9243
-0.039 1.946 1.856 12666
-0.039 1.957 1.856 13472
-0.039 1.962 1.850 9882
-0.039 1.961 1.839 9340
-0.040 2.008 1.869 12491
-0.040 2.013 1.863 15158
-0.040 2.018 1.857 17675
-0.040 2.029 1.856 18430
-0.041 2.040 1.855 13991
-0.041 2.045 1.849 8542
-0.041 2.056 1.848 9748
-0.041 2.067 1.847 12731
-0.041 2.078 1.846 13475
-0.041 2.083 1.840 17193
-0.042 2.088 1.834 18464
-0.042 2.099 1.833 14732
-0.042 2.129 1.846 11129
-0.043 2.178 1.874 11536
-0.044 2.201 1.882 13934
-0.044 2.219 1.885 13450
-0.043 2.186 1.850 9670
-0.043 2.185 1.839 8289
-0.045 2.259 1.885 6115
-0.045 2.258 1.873 8123
-0.045 2.263 1.867 11441
-0.045 2.287 1.874 17350
-0.046 2.305 1.877 18570
-0.046 2.323 1.880 13721
-0.046 2.334 1.877 14690
-0.047 2.345 1.875 18182
-0.047 2.351 1.868 17262
-0.047 2.388 1.884 13322
-0.048 2.406 1.887 10446
-0.048 2.417 1.884 8526
-0.048 2.422 1.877 9676
-0.048 2.434 1.874 9185
-0.049 2.452 1.876 9263
-0.049 2.450 1.865 12909
-0.049 2.449 1.853 20224
-0.049 2.460 1.850 19776
-0.049 2.478 1.852 13649
-0.050 2.516 1.867 11880
-0.050 2.528 1.864 10329
-0.051 2.546 1.865 8343
-0.051 2.557 1.862 6985
-0.051 2.569 1.859 6021
-0.052 2.620 1.882 7391
-0.052 2.632 1.878 9931
-0.052 2.637 1.870 13904
-0.052 2.635 1.858 11909
-0.052 2.627 1.842 8587
-0.052 2.632 1.834 6373
-0.054 2.697 1.865 7478
-0.054 2.702 1.857 9256
-0.054 2.707 1.849 7901
-0.054 2.719 1.845 5117
-0.055 2.757 1.858 4812
-0.055 2.762 1.849 4358
-0.055 2.774 1.845 4800
-0.055 2.779 1.837 5632
-0.058 2.906 1.902 6777
-0.058 2.925 1.902 9888
-0.058 2.937 1.897 10085
-0.059 2.949 1.893 7187
-0.059 2.961 1.888 4377
-0.059 2.952 1.871 3751
-0.059 2.957 1.863 3936
-0.060 3.017 1.885 4799
-0.060 3.029 1.880 4505
-0.060 3.034 1.871 4229
-0.060 3.039 1.863 4423
-0.063 3.168 1.923 4202
-0.063 3.174 1.914 4936
-0.063 3.186 1.908 6255
-0.063 3.191 1.899 7627
-0.064 3.196 1.889 8310
-0.063 3.194 1.876 9000
-0.063 3.192 1.863 7351
-0.063 3.190 1.850 6325
-0.064 3.202 1.844 5021
-0.066 3.326 1.897 4770
-0.066 3.331 1.887 5410
-0.068 3.414 1.917 4209
-0.068 3.412 1.904 4127
-0.068 3.424 1.897 3250
-0.069 3.464 1.905 3020
-0.069 3.462 1.891 2756
-0.069 3.467 1.881 2530
-0.070 3.501 1.885 3127
-0.070 3.520 1.882 4397
-0.070 3.525 1.871 4397
-0.070 3.537 1.864 5957
-0.071 3.550 1.857 7733
-0.071 3.562 1.850 7003
-0.071 3.574 1.843 6543
-0.071 3.593 1.839 4652
-0.073 3.648 1.852 3846
-0.072 3.646 1.838 3966
-0.071 3.593 1.801 4576
-0.072 3.598 1.791 4477
-0.072 3.603 1.780 4066
-0.072 3.608 1.769 3753
-0.072 3.627 1.765 2668
-0.073 3.653 1.764 2198
-0.081 4.093 1.943 2788
-0.081 4.099 1.931 3457
-0.080 4.038 1.891 2122
-0.080 4.043 1.879 1061
-0.033 1.642 0.851 290
-0.013 0.723 1.785 8790
-0.013 0.728 1.783 7985
-0.014 0.736 1.788 7343
-0.014 0.741 1.786 7343
-0.014 0.749 1.790 12899
-0.014 0.753 1.788 18571
-0.014 0.758 1.786 24179
-0.014 0.763 1.784 29787
-0.014 0.771 1.788 29484
-0.014 0.776 1.786 29187
-0.014 0.784 1.791 28014
-0.015 0.789 1.789 22374
-0.015 0.790 1.779 17424
-0.015 0.799 1.784 12641
-0.015 0.803 1.781 7871
-0.015 0.805 1.772 5984
-0.015 0.809 1.770 4236
-0.015 0.818 1.774 4889
-0.015 0.833 1.793 6469
-0.016 0.842 1.797 8302
-0.016 0.847 1.795 10158
-0.016 0.855 1.799 11675
-0.016 0.864 1.804 13720
-0.016 0.872 1.808 13605
-0.016 0.881 1.812 14313
-0.016 0.882 1.803 11843
-0.016 0.879 1.786 10161
-0.016 0.884 1.784 9766
-0.016 0.889 1.781 9371
-0.017 0.893 1.778 9315
-0.017 0.902 1.783 9283
-0.017 0.907 1.780 10240
-0.017 0.920 1.791 11701
-0.017 0.928 1.795 13055
-0.017 0.937 1.799 14383
-0.017 0.942 1.796 13276
-0.018 0.947 1.793 11814
-0.018 0.947 1.784 10621
-0.018 0.956 1.788 8887
-0.018 0.977 1.812 7684
-0.018 0.990 1.823 6558
-0.018 0.999 1.826 5869
-0.019 1.004 1.823 5816
-0.019 1.009 1.820 9189
-0.019 1.014 1.817 12562
-0.019 1.019 1.814 16577
-0.019 1.024 1.811 22376
-0.019 1.029 1.808 24159
-0.019 1.038 1.812 21644
-0.019 1.043 1.809 20703
-0.019 1.047 1.806 21404
-0.020 1.057 1.809 28960
-0.020 1.061 1.806 37882
-0.020 1.066 1.803 38823
-0.020 1.071 1.800 42727
-0.020 1.076 1.797 49784
-0.020 1.076 1.787 53152
-0.020 1.085 1.790 52969
-0.020 1.086 1.780 48596
-0.020 1.095 1.784 41488
-0.020 1.100 1.780 39387
-0.021 1.109 1.784 30898
-0.021 1.118 1.787 20058
-0.021 1.132 1.796 14524
-0.021 1.155 1.819 12051
-0.021 1.160 1.815 16625
-0.022 1.179 1.831 24521
-0.022 1.193 1.841 31880
-0.022 1.198 1.837 33580
-0.022 1.207 1.840 31158
-0.022 1.217 1.843 23882
-0.023 1.222 1.839 18815
-0.023 1.227 1.836 20801
-0.023 1.232 1.832 21527
-0.023 1.241 1.835 18922
-0.023 1.246 1.831 15614
-0.023 1.251 1.827 20171
-0.023 1.261 1.830 26069
-0.024 1.275 1.839 19314
-0.024 1.285 1.841 12624
-0.024 1.295 1.843 16760
-0.024 1.300 1.840 19756
-0.024 1.315 1.848 17243
-0.024 1.325 1.851 15174
-0.025 1.334 1.853 13163
-0.025 1.344 1.855 11444
-0.025 1.349 1.851 8513
-0.025 1.354 1.847 10936
-0.025 1.359 1.843 19155
-0.025 1.364 1.839 19900
-0.025 1.369 1.835 18238
-0.025 1.374 1.831 17770
-0.025 1.379 1.827 13852
-0.026 1.399 1.841 9588
-0.026 1.414 1.849 14061
-0.026 1.424 1.851 20704
-0.026 1.429 1.846 15637
-0.027 1.439 1.848 6938
-0.026 1.429 1.826 5532
-0.027 1.444 1.834 5550
-0.027 1.459 1.841 7932
-0.027 1.480 1.855 10920
-0.028 1.501 1.868 12653
-0.028 1.516 1.876 19505
-0.028 1.516 1.865 36820
-0.028 1.526 1.867 41757
-0.028 1.537 1.868 31832
-0.028 1.536 1.857 32010
-0.028 1.541 1.853 36009
-0.029 1.546 1.848 25839
-0.029 1.551 1.844 23276
-0.029 1.562 1.845 31900
-0.029 1.577 1.852 23608
-0.030 1.599 1.864 20823
-0.030 1.609 1.865 20957
-0.030 1.620 1.866 16927
-0.030 1.625 1.862 13131
-0.030 1.635 1.863 19112
-0.030 1.646 1.863 31585
-0.031 1.651 1.858 29637
-0.031 1.656 1.854 29665
-0.031 1.661 1.849 27527
-0.031 1.671 1.849 20734
-0.031 1.682 1.850 18968
-0.031 1.703 1.862 31305
-0.032 1.714 1.862 31664
-0.032 1.719 1.857 13745
-0.032 1.713 1.841 18298
-0.032 1.723 1.842 27483
-0.032 1.740 1.847 30430
-0.032 1.750 1.848 22370
-0.033 1.767 1.853 15679
-0.033 1.766 1.843 15796
-0.033 1.788 1.854 15925
-0.033 1.805 1.859 14315
-0.034 1.815 1.859 14313
-0.034 1.826 1.859 16888
-0.034 1.837 1.859 19037
-0.034 1.836 1.849 23726
-0.034 1.841 1.843 19755
-0.034 1.846 1.838 21380
-0.034 1.851 1.832 21989
-0.034 1.856 1.827 13276
-0.034 1.861 1.821 7177
-0.036 1.931 1.874 4498
-0.036 1.942 1.873 6426
-0.036 1.941 1.862 8833
-0.036 1.940 1.851 13231
-0.036 1.951 1.851 13882
-0.036 1.956 1.845 10060
-0.036 1.955 1.834 10549
-0.037 2.002 1.864 12526
-0.037 2.013 1.863 13770
-0.037 2.018 1.857 16120
-0.038 2.029 1.856 17080
-0.038 2.040 1.855 12746
-0.038 2.045 1.849 9003
-0.038 2.056 1.848 11534
-0.038 2.061 1.842 14671
-0.038 2.072 1.841 15666
-0.039 2.083 1.840 20496
-0.039 2.088 1.834 21885
-0.039 2.099 1.833 16957
-0.039 2.123 1.841 11699
-0.040 2.178 1.874 10783
-0.041 2.202 1.882 12941
-0.041 2.219 1.885 12093
-0.040 2.174 1.840 8946
-0.040 2.179 1.834 7885
-0.042 2.247 1.875 8165
-0.042 2.246 1.864 8611
-0.042 2.276 1.876 11721
-0.042 2.287 1.874 20357
-0.042 2.299 1.872 21194
-0.043 2.316 1.875 14301
-0.043 2.334 1.877 14896
-0.043 2.339 1.871 18593
-0.043 2.351 1.868 17607
-0.043 2.349 1.857 13988
-0.043 2.335 1.836 11795
-0.043 2.340 1.829 9737
-0.045 2.422 1.877 10238
-0.045 2.434 1.874 10511
-0.045 2.445 1.872 10883
-0.045 2.450 1.865 14559
-0.045 2.449 1.853 20875
-0.045 2.460 1.850 19270
-0.046 2.472 1.847 13620
-0.046 2.477 1.840 12361
-0.046 2.482 1.833 9779
-0.047 2.539 1.861 7178
-0.047 2.524 1.840 5406
-0.047 2.569 1.859 5683
-0.048 2.587 1.860 8051
-0.049 2.625 1.874 8813
-0.049 2.637 1.870 10670
-0.049 2.642 1.863 8793
-0.049 2.647 1.855 6812
-0.049 2.672 1.860 5481
-0.050 2.697 1.865 7417
-0.050 2.702 1.857 8749
-0.050 2.707 1.849 7390
-0.050 2.719 1.845 4494
-0.051 2.778 1.870 5059
-0.051 2.783 1.862 4560
-0.051 2.781 1.850 4593
-0.051 2.779 1.837 5213
-0.054 2.906 1.902 6825
-0.054 2.925 1.902 9491
-0.054 2.937 1.897 9525
-0.055 2.949 1.893 6984
-0.055 2.961 1.888 4481
-0.055 2.952 1.871 4102
-0.055 2.950 1.859 4528
-0.056 3.031 1.893 4867
-0.056 3.029 1.880 4674
-0.056 3.034 1.871 4508
-0.056 3.046 1.866 4773
-0.056 3.051 1.857 4323
-0.059 3.174 1.914 4881
-0.059 3.186 1.908 5890
-0.059 3.198 1.902 7070
-0.059 3.196 1.889 7701
-0.059 3.194 1.876 8357
-0.059 3.192 1.863 7032
-0.059 3.190 1.850 6328
-0.059 3.195 1.841 5132
-0.061 3.326 1.897 4780
-0.062 3.331 1.887 5481
-0.063 3.407 1.914 4191
-0.063 3.412 1.904 4003
-0.063 3.424 1.897 3157
-0.064 3.464 1.905 2830
-0.064 3.477 1.898 2781
-0.064 3.489 1.892 2759
-0.065 3.501 1.885 4030
-0.065 3.513 1.878 5448
-0.065 3.518 1.868 5448
-0.065 3.530 1.861 6559
-0.065 3.542 1.854 8112
-0.066 3.555 1.847 7075
-0.066 3.567 1.840 6230
-0.066 3.572 1.829 4327
-0.067 3.648 1.852 3189
-0.067 3.646 1.838 3286
-0.066 3.586 1.798 3459
-0.067 3.598 1.791 3612
-0.067 3.603 1.780 3428
-0.067 3.615 1.773 3181
-0.067 3.634 1.768 2848
-0.067 3.646 1.761 2728
-0.076 4.093 1.943 2717
-0.076 4.099 1.931 3400
-0.075 4.038 1.891 2144
-0.075 4.043 1.879 1072
-0.030 1.642 0.851 290
-0.011 0.720 1.778 9543
-0.011 0.728 1.783 8254
-0.012 0.736 1.788 7040
-0.012 0.741 1.786 7040
-0.012 0.749 1.790 12343
-0.012 0.754 1.788 17870
-0.012 0.758 1.786 23499
-0.012 0.763 1.784 29128
-0.012 0.771 1.788 29005
-0.012 0.776 1.786 28936
-0.012 0.781 1.784 27755
-0.012 0.789 1.789 22116
-0.012 0.790 1.779 17329
-0.013 0.795 1.777 12742
-0.013 0.800 1.774 8155
-0.013 0.805 1.772 6449
-0.013 0.809 1.770 4743
-0.013 0.821 1.781 5119
-0.013 0.837 1.800 6788
-0.013 0.842 1.797 8856
-0.013 0.847 1.795 10923
-0.014 0.855 1.799 12578
-0.014 0.860 1.797 14615
-0.014 0.872 1.808 14337
-0.014 0.881 1.812 14964
-0.014 0.882 1.803 12557
-0.014 0.875 1.779 11003
-0.014 0.880 1.777 10500
-0.014 0.885 1.774 9996
-0.014 0.894 1.778 9989
-0.014 0.902 1.783 10122
-0.014 0.907 1.780 10882
-0.015 0.920 1.791 12017
-0.015 0.928 1.795 13063
-0.015 0.937 1.799 14203
-0.015 0.942 1.796 13153
-0.015 0.947 1.793 11712
-0.015 0.947 1.784 10674
-0.015 0.956 1.788 8872
-0.016 0.981 1.819 7806
-0.016 0.990 1.823 6810
-0.016 0.999 1.826 5978
-0.016 1.004 1.823 5736
-0.016 1.009 1.820 8748
-0.016 1.014 1.817 11760
-0.016 1.019 1.814 15680
-0.016 1.024 1.811 21317
-0.016 1.029 1.808 23034
-0.016 1.038 1.812 21166
-0.016 1.043 1.809 21865
-0.017 1.047 1.806 23714
-0.017 1.057 1.809 30787
-0.017 1.061 1.806 38711
-0.017 1.066 1.803 39039
-0.017 1.071 1.800 42510
-0.017 1.076 1.797 49205
-0.017 1.076 1.787 52838
-0.017 1.085 1.790 52873
-0.017 1.086 1.780 48156
-0.017 1.095 1.784 41641
-0.017 1.104 1.787 41024
-0.018 1.109 1.784 32096
-0.018 1.118 1.787 20453
-0.018 1.137 1.803 14306
-0.018 1.142 1.800 10922
-0.018 1.160 1.815 12512
-0.019 1.183 1.838 20743
-0.019 1.193 1.841 30448
-0.019 1.198 1.837 33567
-0.019 1.203 1.834 31139
-0.019 1.217 1.843 22632
-0.019 1.222 1.839 17176
-0.019 1.222 1.829 18174
-0.019 1.232 1.832 17191
-0.020 1.241 1.835 13804
-0.020 1.246 1.831 13235
-0.020 1.251 1.827 21477
-0.020 1.261 1.830 27290
-0.020 1.276 1.839 20144
-0.020 1.290 1.847 11772
-0.020 1.295 1.843 16454
-0.021 1.300 1.840 22364
-0.021 1.315 1.848 20245
-0.021 1.325 1.851 17783
-0.021 1.334 1.853 14866
-0.021 1.344 1.855 12213
-0.021 1.349 1.851 9070
-0.021 1.354 1.847 10585
-0.021 1.359 1.843 18239
-0.022 1.364 1.839 19577
-0.022 1.369 1.835 18193
-0.022 1.374 1.831 17046
-0.022 1.389 1.839 14442
-0.022 1.394 1.835 11346
-0.022 1.414 1.849 13176
-0.022 1.419 1.845 20057
-0.023 1.429 1.846 17676
-0.023 1.434 1.842 11605
-0.023 1.439 1.838 9459
-0.023 1.449 1.840 7561
-0.023 1.465 1.847 8856
-0.023 1.480 1.855 11599
-0.024 1.501 1.868 12368
-0.024 1.516 1.876 18154
-0.024 1.516 1.865 35167
-0.024 1.526 1.867 42353
-0.024 1.537 1.868 34034
-0.024 1.536 1.857 33769
-0.024 1.541 1.853 37131
-0.024 1.546 1.848 26560
-0.025 1.557 1.850 24663
-0.025 1.562 1.845 33726
-0.025 1.577 1.852 23764
-0.025 1.599 1.864 20054
-0.025 1.604 1.860 18906
-0.026 1.625 1.872 12492
-0.026 1.625 1.862 9186
-0.026 1.635 1.863 17588
-0.026 1.646 1.863 30434
-0.026 1.651 1.858 29077
-0.026 1.656 1.854 29192
-0.026 1.661 1.849 26101
-0.026 1.671 1.849 21212
-0.027 1.682 1.850 20481
-0.027 1.704 1.862 36089
-0.027 1.714 1.862 38581
-0.027 1.725 1.863 19888
-0.027 1.713 1.841 22799
-0.027 1.723 1.842 29960
-0.027 1.740 1.847 32279
-0.028 1.750 1.848 25110
-0.028 1.761 1.848 17388
-0.028 1.760 1.837 16709
-0.028 1.788 1.854 15040
-0.028 1.799 1.854 13346
-0.029 1.816 1.859 13993
-0.029 1.826 1.859 16979
-0.029 1.831 1.854 19869
-0.029 1.836 1.849 24114
-0.029 1.835 1.838 18849
-0.029 1.840 1.832 19600
-0.029 1.845 1.827 19730
-0.029 1.850 1.822 11949
-0.029 1.867 1.827 7066
-0.030 1.925 1.868 4436
-0.030 1.930 1.863 5885
-0.030 1.923 1.846 8894
-0.031 1.934 1.846 13712
-0.031 1.945 1.845 13797
-0.031 1.956 1.845 10157
-0.031 1.949 1.829 11597
-0.031 1.948 1.818 14422
-0.031 1.953 1.812 12984
-0.032 2.018 1.857 13459
-0.032 2.029 1.856 14993
-0.032 2.034 1.850 11496
-0.032 2.039 1.844 9773
-0.032 2.056 1.848 12912
-0.033 2.061 1.842 15928
-0.033 2.066 1.836 17505
-0.033 2.084 1.840 23103
-0.033 2.088 1.834 24297
-0.033 2.100 1.833 18437
-0.033 2.117 1.836 12159
-0.034 2.178 1.874 9873
-0.035 2.202 1.882 11837
-0.035 2.219 1.885 10655
-0.034 2.162 1.830 9375
-0.034 2.173 1.829 7859
-0.036 2.260 1.885 4588
-0.035 2.246 1.864 7630
-0.036 2.251 1.857 14661
-0.036 2.281 1.870 22908
-0.036 2.299 1.872 21961
-0.037 2.316 1.875 14065
-0.037 2.334 1.877 14609
-0.037 2.339 1.871 18667
-0.037 2.344 1.864 17837
-0.037 2.349 1.857 15051
-0.037 2.335 1.836 13645
-0.037 2.340 1.829 11141
-0.038 2.429 1.882 10496
-0.039 2.440 1.879 11748
-0.039 2.445 1.872 12527
-0.039 2.450 1.865 15757
-0.039 2.449 1.853 20793
-0.039 2.460 1.850 18167
-0.039 2.465 1.843 13196
-0.039 2.477 1.840 12770
-0.039 2.482 1.833 10111
-0.039 2.493 1.830 6532
-0.040 2.511 1.831 5266
-0.041 2.582 1.867 6595
-0.041 2.594 1.864 10390
-0.041 2.592 1.852 10156
-0.042 2.630 1.866 10533
-0.042 2.629 1.854 9962
-0.041 2.620 1.838 9294
-0.041 2.625 1.830 7772
-0.043 2.697 1.865 8368
-0.043 2.695 1.852 9631
-0.043 2.707 1.849 7565
-0.044 2.786 1.887 4601
-0.044 2.791 1.878 6070
-0.044 2.803 1.874 5782
-0.044 2.788 1.854 4695
-0.044 2.786 1.841 4800
-0.046 2.906 1.902 6776
-0.046 2.925 1.902 8950
-0.046 2.937 1.897 8842
-0.047 2.949 1.893 6882
-0.047 2.961 1.888 4802
-0.047 2.952 1.871 4797
-0.047 2.950 1.859 5296
-0.047 2.955 1.850 5468
-0.048 3.036 1.884 4846
-0.048 3.034 1.871 4776
-0.048 3.053 1.870 5060
-0.048 3.051 1.857 4447
-0.050 3.167 1.910 4871
-0.050 3.179 1.904 5446
-0.051 3.198 1.902 6468
-0.050 3.196 1.889 6933
-0.051 3.201 1.880 7493
-0.050 3.192 1.863 6528
-0.050 3.190 1.850 6167
-0.050 3.195 1.841 5177
-0.053 3.326 1.897 4659
-0.053 3.338 1.891 5368
-0.054 3.407 1.914 4204
-0.054 3.412 1.904 3911
-0.054 3.424 1.897 2993
-0.055 3.458 1.901 2559
-0.055 3.484 1.902 2866
-0.055 3.489 1.892 3271
-0.055 3.501 1.885 4859
-0.055 3.506 1.875 6509
-0.055 3.511 1.864 6509
-0.056 3.531 1.861 7282
-0.056 3.543 1.854 8683
-0.056 3.555 1.847 7496
-0.056 3.567 1.840 6416
-0.056 3.565 1.826 4343
-0.058 3.648 1.852 2677
-0.058 3.653 1.841 2893
-0.058 3.658 1.831 3109
-0.058 3.670 1.823 2904
-0.057 3.610 1.783 3121
-0.064 4.027 1.957 3016
-0.057 3.634 1.768 2926
-0.057 3.639 1.758 2914
-0.065 4.086 1.940 2633
-0.065 4.092 1.928 3311
-0.064 4.039 1.891 2101
-0.064 4.044 1.879 1050
-0.026 1.642 0.851 302
-0.009 0.720 1.778 10407
-0.009 0.728 1.783 8627
-0.009 0.733 1.781 6961
-0.009 0.737 1.778 6961
-0.010 0.749 1.790 11773
-0.010 0.754 1.788 17043
-0.010 0.758 1.786 22685
-0.010 0.763 1.784 28328
-0.010 0.771 1.788 28320
-0.010 0.776 1.786 28332
-0.010 0.781 1.784 27192
-0.010 0.789 1.789 21598
-0.010 0.790 1.779 17046
-0.010 0.795 1.777 12865
-0.010 0.800 1.774 8683
-0.010 0.805 1.772 6924
-0.010 0.813 1.777 5263
-0.011 0.829 1.795 5564
-0.011 0.841 1.807 7148
-0.011 0.842 1.797 9355
-0.011 0.847 1.795 11615
-0.011 0.855 1.799 13377
-0.011 0.860 1.797 15515
-0.011 0.872 1.808 14895
-0.011 0.881 1.812 15425
-0.011 0.882 1.803 13136
-0.011 0.879 1.786 11730
-0.011 0.880 1.777 11110
-0.011 0.885 1.774 10493
-0.011 0.894 1.778 10572
-0.012 0.902 1.783 10926
-0.012 0.907 1.780 11599
-0.012 0.916 1.784 12596
-0.012 0.928 1.795 13266
-0.012 0.937 1.799 14270
-0.012 0.942 1.796 13319
-0.012 0.943 1.787 11758
-0.012 0.948 1.784 10658
-0.012 0.952 1.781 8756
-0.013 0.981 1.819 7774
-0.013 0.990 1.823 7091
-0.013 0.999 1.826 6198
-0.013 1.004 1.823 5771
-0.013 1.009 1.820 8411
-0.013 1.014 1.817 11050
-0.013 1.019 1.814 14731
-0.013 1.024 1.811 19958
-0.013 1.029 1.808 21504
-0.013 1.038 1.812 20439
-0.013 1.043 1.809 22882
-0.013 1.047 1.806 25892
-0.014 1.057 1.809 32468
-0.014 1.061 1.806 39443
-0.014 1.066 1.803 39198
-0.014 1.071 1.800 42028
-0.014 1.076 1.797 48236
-0.014 1.076 1.787 52247
-0.014 1.086 1.790 52571
-0.014 1.090 1.787 47232
-0.014 1.095 1.784 41131
-0.014 1.104 1.787 42098
-0.014 1.114 1.790 32725
-0.014 1.118 1.787 20417
-0.015 1.141 1.809 14297
-0.015 1.155 1.819 10396
-0.015 1.165 1.822 9687
-0.015 1.183 1.838 17011
-0.015 1.193 1.841 28688
-0.015 1.198 1.837 33153
-0.015 1.203 1.834 31164
-0.015 1.212 1.836 21684
-0.016 1.222 1.839 15532
-0.016 1.222 1.829 16063
-0.016 1.232 1.832 13850
-0.016 1.242 1.835 10142
-0.016 1.246 1.831 12039
-0.016 1.251 1.827 22724
-0.016 1.261 1.830 27757
-0.016 1.276 1.839 20024
-0.016 1.290 1.847 11593
-0.017 1.300 1.850 15835
-0.017 1.305 1.846 22418
-0.017 1.315 1.848 22005
-0.017 1.325 1.851 20329
-0.017 1.335 1.853 16493
-0.017 1.344 1.855 13061
-0.017 1.349 1.851 10029
-0.017 1.349 1.841 10881
-0.017 1.354 1.837 17766
-0.017 1.359 1.833 19159
-0.017 1.369 1.835 17584
-0.018 1.379 1.837 15873
-0.018 1.394 1.845 15552
-0.018 1.399 1.841 13509
-0.018 1.409 1.843 12622
-0.018 1.419 1.845 19352
-0.018 1.429 1.846 19864
-0.018 1.440 1.848 16480
-0.018 1.439 1.838 13696
-0.019 1.455 1.846 9768
-0.019 1.475 1.859 10396
-0.019 1.480 1.855 13079
-0.019 1.496 1.862 12087
-0.019 1.516 1.876 15841
-0.019 1.516 1.865 32037
-0.020 1.526 1.867 41234
-0.020 1.537 1.868 34797
-0.020 1.536 1.857 34172
-0.020 1.541 1.853 36827
-0.020 1.546 1.848 26211
-0.020 1.557 1.850 25033
-0.020 1.562 1.845 33786
-0.020 1.578 1.852 23160
-0.020 1.593 1.859 19113
-0.020 1.604 1.860 18187
-0.021 1.620 1.866 9341
-0.021 1.619 1.856 5873
-0.021 1.630 1.857 15909
-0.021 1.640 1.858 28520
-0.021 1.645 1.853 27897
-0.021 1.656 1.854 27882
-0.021 1.666 1.854 24273
-0.021 1.671 1.849 20701
-0.022 1.687 1.856 21024
-0.022 1.704 1.862 38630
-0.022 1.714 1.862 44246
-0.022 1.719 1.857 27115
-0.022 1.713 1.841 28551
-0.022 1.723 1.842 35019
-0.022 1.734 1.842 36812
-0.022 1.745 1.842 29511
-0.022 1.755 1.843 20350
-0.022 1.755 1.832 18235
-0.023 1.777 1.843 14449
-0.023 1.799 1.854 12785
-0.023 1.810 1.854 14414
-0.023 1.821 1.854 17322
-0.023 1.826 1.849 20068
-0.023 1.831 1.843 22941
-0.023 1.836 1.838 16911
-0.024 1.840 1.832 17285
-0.024 1.839 1.822 17020
-0.024 1.850 1.822 10295
-0.024 1.867 1.827 6914
-0.024 1.884 1.832 4613
-0.025 1.924 1.857 5665
-0.024 1.917 1.841 9128
-0.025 1.928 1.841 13697
-0.025 1.945 1.845 13453
-0.025 1.950 1.840 10153
-0.025 1.949 1.829 12205
-0.025 1.948 1.818 14829
-0.025 1.953 1.812 13040
-0.026 2.018 1.857 10665
-0.026 2.029 1.856 12608
-0.026 2.034 1.850 10666
-0.026 2.033 1.839 10877
-0.026 2.050 1.843 13655
-0.026 2.061 1.842 16255
-0.026 2.066 1.836 18744
-0.027 2.077 1.835 24904
-0.027 2.089 1.834 25523
-0.027 2.093 1.828 19266
-0.027 2.111 1.831 12376
-0.028 2.178 1.874 8662
-0.028 2.202 1.882 10669
-0.028 2.226 1.890 9634
-0.028 2.162 1.830 9820
-0.028 2.173 1.829 7944
-0.029 2.241 1.870 6898
-0.029 2.252 1.869 9247
-0.029 2.263 1.867 15254
-0.029 2.281 1.870 23890
-0.029 2.292 1.868 22893
-0.029 2.297 1.861 13937
-0.030 2.328 1.873 14059
-0.030 2.339 1.871 18366
-0.030 2.344 1.864 17783
-0.030 2.343 1.852 15840
-0.030 2.335 1.836 15224
-0.030 2.340 1.829 12145
-0.031 2.429 1.882 10443
-0.031 2.434 1.874 12835
-0.031 2.445 1.872 13967
-0.031 2.450 1.865 16590
-0.031 2.449 1.853 20143
-0.031 2.454 1.846 16765
-0.032 2.465 1.843 12937
-0.032 2.477 1.840 13499
-0.032 2.482 1.833 10657
-0.032 2.493 1.830 7172
-0.032 2.505 1.827 5491
-0.033 2.576 1.863 6288
-0.033 2.587 1.860 9498
-0.033 2.599 1.857 9310
-0.034 2.631 1.866 10445
-0.034 2.622 1.850 9256
-0.033 2.621 1.838 7707
-0.034 2.625 1.830 6581
-0.034 2.691 1.860 7797
-0.034 2.689 1.848 9192
-0.035 2.701 1.845 7094
-0.036 2.786 1.887 4896
-0.036 2.791 1.878 6537
-0.036 2.803 1.874 6574
-0.036 2.808 1.866 5203
-0.036 2.786 1.841 4574
-0.037 2.906 1.902 6637
-0.037 2.918 1.898 8225
-0.038 2.937 1.897 7900
-0.038 2.949 1.893 6698
-0.038 2.947 1.880 5368
-0.038 2.952 1.871 5707
-0.038 2.950 1.859 6117
-0.038 2.948 1.846 6088
-0.039 3.043 1.888 4982
-0.039 3.034 1.871 4936
-0.039 3.053 1.870 5202
-0.039 3.058 1.861 4420
-0.040 3.160 1.906 4896
-0.041 3.179 1.904 4972
-0.041 3.198 1.902 5722
-0.041 3.196 1.889 6043
-0.041 3.201 1.880 6535
-0.041 3.192 1.863 6003
-0.041 3.190 1.850 5990
-0.041 3.195 1.841 5238
-0.041 3.221 1.842 4718
-0.043 3.339 1.891 5133
-0.043 3.400 1.910 4055
-0.044 3.412 1.904 3643
-0.044 3.424 1.897 2764
-0.043 3.330 1.837 2163
-0.045 3.491 1.905 2848
-0.045 3.496 1.895 3625
-0.045 3.501 1.885 5445
-0.045 3.506 1.875 7264
-0.045 3.511 1.864 7264
-0.045 3.531 1.861 7857
-0.045 3.543 1.854 9252
-0.045 3.548 1.843 8054
-0.045 3.560 1.836 6935
-0.045 3.558 1.823 5011
-0.045 3.548 1.805 3514
-0.045 3.560 1.798 3045
-0.047 3.673 1.837 3143
-0.047 3.678 1.826 3237
-0.047 3.683 1.816 3331
-0.047 3.688 1.805 3331
-0.047 3.649 1.775 2798
-0.047 3.646 1.761 2856
-0.052 4.086 1.940 2606
-0.052 4.092 1.928 3246
-0.052 4.039 1.891 2077
-0.052 4.044 1.879 1038
-0.021 1.642 0.851 309
-0.007 0.720 1.778 11401
-0.007 0.728 1.783 9170
-0.007 0.733 1.781 7051
-0.008 0.737 1.778 7051
-0.008 0.749 1.790 11264
-0.008 0.754 1.788 16321
-0.008 0.758 1.786 21903
-0.008 0.767 1.791 27523
-0.008 0.771 1.788 27637
-0.008 0.776 1.786 27751
-0.008 0.781 1.784 26676
-0.008 0.786 1.781 21205
-0.008 0.790 1.779 16810
-0.008 0.795 1.777 13017
-0.008 0.800 1.774 9224
-0.008 0.808 1.779 7412
-0.008 0.817 1.784 5766
-0.009 0.832 1.802 6035
-0.009 0.841 1.807 7424
-0.009 0.842 1.797 9653
-0.009 0.847 1.795 12084
-0.009 0.855 1.799 14009
-0.009 0.860 1.797 16325
-0.009 0.872 1.808 15478
-0.009 0.881 1.812 15980
-0.009 0.882 1.803 13791
-0.009 0.879 1.786 12521
-0.009 0.880 1.777 11750
-0.009 0.885 1.774 10999
-0.009 0.894 1.778 11183
-0.009 0.902 1.783 11773
-0.009 0.907 1.780 12388
-0.009 0.916 1.784 13317
-0.010 0.928 1.795 13631
-0.010 0.937 1.799 14573
-0.010 0.942 1.796 13769
-0.010 0.943 1.787 12070
-0.010 0.948 1.784 10845
-0.010 0.952 1.781 8789
-0.010 0.986 1.826 7684
-0.010 0.990 1.823 7301
-0.010 0.999 1.826 6386
-0.010 1.004 1.823 5793
-0.010 1.009 1.820 8014
-0.010 1.014 1.817 10236
-0.010 1.019 1.814 13640
-0.010 1.024 1.811 18422
-0.011 1.029 1.808 19799
-0.011 1.038 1.812 19690
-0.011 1.043 1.809 23826
-0.011 1.047 1.806 27822
-0.011 1.052 1.803 33990
-0.011 1.061 1.806 39895
-0.011 1.066 1.803 39172
-0.011 1.071 1.800 41169
-0.011 1.072 1.790 46992
-0.011 1.076 1.787 51400
-0.011 1.086 1.790 52051
-0.011 1.090 1.787 46305
-0.011 1.100 1.790 40407
-0.011 1.104 1.787 42889
-0.011 1.114 1.790 33527
-0.012 1.127 1.800 20329
-0.012 1.146 1.816 14792
-0.012 1.155 1.819 11418
-0.012 1.146 1.796 8649
-0.012 1.188 1.844 13849
-0.012 1.188 1.834 26586
-0.012 1.193 1.831 32616
-0.012 1.198 1.827 30671
-0.012 1.208 1.830 20949
-0.012 1.217 1.833 13906
-0.013 1.222 1.829 14075
-0.013 1.227 1.826 11595
-0.013 1.242 1.835 9457
-0.013 1.246 1.831 13655
-0.013 1.251 1.827 24293
-0.013 1.261 1.830 28190
-0.013 1.276 1.839 19887
-0.013 1.290 1.847 11710
-0.013 1.300 1.850 16382
-0.013 1.305 1.846 23085
-0.013 1.315 1.848 23224
-0.014 1.325 1.851 22331
-0.014 1.335 1.853 18286
-0.014 1.340 1.849 14103
-0.014 1.345 1.845 10944
-0.014 1.349 1.841 11280
-0.014 1.354 1.837 17384
-0.014 1.359 1.833 18378
-0.014 1.369 1.835 16278
-0.014 1.379 1.837 14534
-0.014 1.394 1.845 16963
-0.014 1.399 1.841 15782
-0.014 1.409 1.843 12577
-0.015 1.419 1.845 18849
-0.015 1.429 1.846 21785
-0.015 1.440 1.848 20474
-0.015 1.445 1.844 17187
-0.015 1.455 1.846 12004
-0.015 1.475 1.859 12028
-0.015 1.480 1.855 15234
-0.015 1.490 1.856 12771
-0.015 1.511 1.870 13624
-0.016 1.516 1.865 27916
-0.016 1.527 1.867 38549
-0.016 1.537 1.868 34088
-0.016 1.537 1.857 33380
-0.016 1.542 1.853 35261
-0.016 1.546 1.848 24853
-0.016 1.557 1.850 24289
-0.016 1.567 1.851 32428
-0.016 1.578 1.852 21973
-0.016 1.593 1.859 17963
-0.016 1.604 1.860 17358
-0.016 1.609 1.855 8414
-0.017 1.614 1.850 4902
-0.017 1.630 1.857 14890
-0.017 1.640 1.858 26551
-0.017 1.645 1.853 26326
-0.017 1.656 1.854 26113
-0.017 1.666 1.854 22204
-0.017 1.677 1.855 19319
-0.017 1.693 1.861 21317
-0.017 1.709 1.867 40111
-0.018 1.714 1.862 48310
-0.018 1.719 1.857 34211
-0.018 1.719 1.847 35571
-0.018 1.724 1.842 42773
-0.018 1.734 1.842 44667
-0.018 1.745 1.842 35347
-0.018 1.755 1.843 23269
-0.018 1.755 1.832 18445
-0.018 1.771 1.838 14021
-0.018 1.793 1.849 12593
-0.019 1.810 1.854 15473
-0.019 1.815 1.849 18095
-0.019 1.826 1.849 20144
-0.019 1.831 1.843 20894
-0.019 1.836 1.838 14269
-0.019 1.835 1.827 14986
-0.019 1.840 1.822 14375
-0.019 1.850 1.822 8395
-0.019 1.861 1.821 6408
-0.019 1.884 1.832 4573
-0.019 1.889 1.826 5978
-0.020 1.911 1.836 9192
-0.020 1.922 1.836 13354
-0.020 1.939 1.840 12696
-0.020 1.950 1.840 9195
-0.020 1.943 1.824 11022
-0.020 1.948 1.818 14499
-0.020 1.953 1.812 13642
-0.020 1.964 1.811 8798
-0.021 2.023 1.851 10160
-0.021 2.028 1.845 10158
-0.021 2.033 1.839 12360
-0.021 2.050 1.843 13977
-0.021 2.061 1.842 15882
-0.021 2.060 1.831 19099
-0.021 2.078 1.835 25486
-0.021 2.082 1.829 25826
-0.021 2.094 1.828 19720
-0.022 2.105 1.826 12371
-0.022 2.178 1.874 7382
-0.023 2.202 1.882 9395
-0.022 2.157 1.837 8645
-0.022 2.162 1.830 10124
-0.023 2.204 1.853 7899
-0.023 2.234 1.866 9606
-0.023 2.246 1.864 9747
-0.023 2.257 1.862 15701
-0.023 2.275 1.865 25230
-0.023 2.286 1.863 23104
-0.023 2.291 1.856 13552
-0.024 2.328 1.873 13151
-0.024 2.339 1.871 17634
-0.024 2.344 1.864 17437
-0.024 2.343 1.852 16212
-0.024 2.335 1.836 15985
-0.024 2.340 1.829 12450
-0.025 2.429 1.882 10334
-0.025 2.434 1.874 13727
-0.025 2.446 1.872 14988
-0.025 2.451 1.865 16903
-0.025 2.449 1.853 18926
-0.025 2.454 1.846 15253
-0.025 2.465 1.843 12401
-0.025 2.477 1.840 13554
-0.025 2.482 1.833 10752
-0.026 2.493 1.830 7767
-0.026 2.498 1.822 5910
-0.026 2.582 1.867 7624
-0.027 2.594 1.864 10859
-0.027 2.599 1.857 10818
-0.027 2.624 1.862 9380
-0.027 2.649 1.867 7881
-0.027 2.627 1.842 6946
-0.027 2.632 1.834 6351
-0.028 2.691 1.860 7205
-0.028 2.689 1.848 8712
-0.027 2.654 1.815 7217
-0.029 2.786 1.887 5145
-0.029 2.791 1.878 6942
-0.029 2.803 1.874 7227
-0.029 2.808 1.866 5776
-0.028 2.779 1.837 4869
-0.030 2.906 1.902 6239
-0.030 2.918 1.898 7322
-0.030 2.944 1.901 6786
-0.030 2.942 1.889 6569
-0.030 2.947 1.880 6325
-0.030 2.952 1.871 6732
-0.030 2.950 1.859 6835
-0.030 2.949 1.846 6544
-0.031 3.050 1.892 5121
-0.031 3.034 1.871 4925
-0.031 3.067 1.878 5478
-0.032 3.107 1.888 4864
-0.032 3.160 1.906 4819
-0.032 3.172 1.900 4510
-0.033 3.205 1.906 4983
-0.033 3.203 1.893 5123
-0.033 3.201 1.880 5462
-0.033 3.192 1.863 5397
-0.033 3.190 1.850 5738
-0.033 3.202 1.844 5260
-0.033 3.214 1.838 4965
-0.034 3.353 1.898 4925
-0.035 3.400 1.910 4016
-0.035 3.405 1.900 3452
-0.034 3.319 1.844 2668
-0.034 3.338 1.841 2659
-0.036 3.498 1.909 2797
-0.036 3.496 1.895 3928
-0.036 3.501 1.885 5891
-0.036 3.506 1.875 7854
-0.036 3.512 1.864 7854
-0.036 3.531 1.861 8412
-0.036 3.543 1.854 9864
-0.036 3.548 1.843 8751
-0.036 3.553 1.833 7638
-0.036 3.558 1.823 5906
-0.036 3.548 1.805 4491
-0.036 3.560 1.798 3972
-0.037 3.572 1.791 3579
-0.037 3.577 1.781 3679
-0.041 4.015 1.965 3484
-0.041 4.020 1.953 3484
-0.041 4.025 1.942 2808
-0.037 3.654 1.764 2872
-0.042 4.079 1.937 2575
-0.042 4.085 1.925 3147
-0.041 4.039 1.891 2062
-0.041 4.044 1.879 1031
-0.017 1.642 0.851 369
-0.006 0.720 1.778 12181
-0.006 0.725 1.776 9651
-0.007 0.733 1.781 7126
-0.007 0.737 1.778 7126
-0.007 0.745 1.783 10880
-0.007 0.754 1.788 15758
-0.007 0.758 1.786 21186
-0.007 0.767 1.791 26682
-0.007 0.771 1.788 26888
-0.007 0.776 1.786 27094
-0.007 0.781 1.784 26076
-0.007 0.786 1.781 20735
-0.007 0.790 1.779 16413
-0.007 0.795 1.777 13015
-0.007 0.800 1.774 9618
-0.007 0.808 1.779 7856
-0.007 0.817 1.784 6295
-0.007 0.836 1.809 6457
-0.007 0.844 1.814 7550
-0.007 0.842 1.797 9768
-0.008 0.847 1.795 12363
-0.008 0.852 1.792 14544
-0.008 0.860 1.797 17052
-0.008 0.872 1.808 16024
-0.008 0.881 1.812 16505
-0.008 0.882 1.803 14346
-0.008 0.879 1.786 13094
-0.008 0.880 1.777 12221
-0.008 0.885 1.774 11394
-0.008 0.894 1.778 11731
-0.008 0.902 1.783 12579
-0.008 0.907 1.780 13131
-0.008 0.916 1.784 13979
-0.008 0.928 1.795 13902
-0.008 0.937 1.799 14755
-0.008 0.942 1.796 14113
-0.008 0.943 1.787 12360
-0.008 0.948 1.784 11073
-0.008 0.952 1.781 8864
-0.009 0.986 1.826 7597
-0.009 0.990 1.823 7467
-0.009 0.995 1.820 6592
-0.009 1.000 1.817 5846
-0.009 1.009 1.820 7610
-0.009 1.018 1.824 9449
-0.009 1.019 1.814 12497
-0.009 1.024 1.811 16813
-0.009 1.029 1.808 18040
-0.009 1.038 1.812 18958
-0.009 1.043 1.809 24579
-0.009 1.048 1.806 29260
-0.009 1.052 1.803 35068
-0.009 1.062 1.806 40067
-0.009 1.066 1.803 39012
-0.010 1.071 1.800 40102
-0.010 1.072 1.790 45512
-0.010 1.076 1.787 50368
-0.010 1.086 1.790 51243
-0.010 1.090 1.787 45100
-0.010 1.100 1.790 39770
-0.010 1.109 1.793 43408
-0.010 1.118 1.797 34126
-0.010 1.137 1.813 20784
-0.010 1.146 1.816 15613
-0.010 1.155 1.819 13148
-0.010 1.165 1.822 9568
-0.011 1.183 1.838 12368
-0.011 1.188 1.834 24767
-0.011 1.193 1.831 31557
-0.011 1.198 1.827 30251
-0.011 1.203 1.824 20542
-0.011 1.213 1.826 12769
-0.011 1.218 1.823 12290
-0.011 1.227 1.826 10024
-0.011 1.242 1.835 10555
-0.011 1.246 1.831 16835
-0.011 1.251 1.827 25728
-0.011 1.261 1.830 28183
-0.011 1.276 1.839 19847
-0.011 1.295 1.854 11185
-0.012 1.300 1.850 15775
-0.012 1.305 1.846 23515
-0.012 1.315 1.848 23993
-0.012 1.325 1.851 23352
-0.012 1.335 1.853 19686
-0.012 1.340 1.849 15205
-0.012 1.345 1.845 11744
-0.012 1.349 1.841 11719
-0.012 1.354 1.837 17348
-0.012 1.359 1.833 17595
-0.012 1.369 1.835 14459
-0.012 1.384 1.843 13068
-0.012 1.394 1.845 18064
-0.012 1.399 1.841 17786
-0.013 1.409 1.843 12551
-0.013 1.419 1.845 17966
-0.013 1.435 1.852 22801
-0.013 1.440 1.848 23155
-0.013 1.445 1.844 19662
-0.013 1.455 1.846 13480
-0.013 1.470 1.853 13279
-0.013 1.480 1.855 17577
-0.013 1.490 1.856 14838
-0.013 1.511 1.870 12317
-0.013 1.511 1.859 23376
-0.014 1.527 1.867 34526
-0.014 1.537 1.868 31835
-0.014 1.537 1.857 31310
-0.014 1.542 1.853 32568
-0.014 1.547 1.848 22800
-0.014 1.557 1.850 22768
-0.014 1.567 1.851 30069
-0.014 1.578 1.852 20310
-0.014 1.593 1.859 16534
-0.014 1.598 1.854 16445
-0.014 1.609 1.855 9258
-0.014 1.614 1.850 6160
-0.014 1.624 1.851 14259
-0.015 1.640 1.858 24126
-0.015 1.645 1.853 24130
-0.015 1.656 1.854 23762
-0.015 1.666 1.854 20152
-0.015 1.677 1.855 17638
-0.015 1.699 1.867 21359
-0.015 1.709 1.867 41267
-0.015 1.714 1.862 51176
-0.015 1.719 1.857 40657
-0.015 1.719 1.847 42674
-0.015 1.724 1.842 49603
-0.015 1.734 1.842 50999
-0.015 1.745 1.842 39961
-0.016 1.756 1.843 25110
-0.016 1.755 1.832 17917
-0.016 1.771 1.838 13543
-0.016 1.793 1.849 12616
-0.016 1.810 1.854 16197
-0.016 1.815 1.849 19021
-0.016 1.820 1.843 20165
-0.016 1.831 1.843 17954
-0.016 1.836 1.838 11063
-0.016 1.835 1.827 12540
-0.016 1.828 1.811 12873
-0.016 1.850 1.822 6781
-0.017 1.861 1.821 6046
-0.017 1.884 1.832 4671
-0.017 1.889 1.826 6616
-0.017 1.894 1.820 9418
-0.017 1.916 1.830 13386
-0.017 1.933 1.835 11906
-0.017 1.950 1.840 7964
-0.017 1.931 1.813 11527
-0.017 1.942 1.813 13724
-0.017 1.959 1.817 12802
-0.017 1.952 1.801 8513
-0.018 2.023 1.851 8304
-0.018 2.022 1.840 9758
-0.018 2.027 1.834 13036
-0.018 2.044 1.838 13603
-0.018 2.062 1.842 14841
-0.018 2.060 1.831 18439
-0.018 2.078 1.835 24516
-0.018 2.082 1.829 25369
-0.019 2.087 1.823 19976
-0.019 2.098 1.822 12376
-0.019 2.172 1.869 6074
-0.020 2.202 1.882 8010
-0.019 2.157 1.837 9099
-0.019 2.162 1.830 10192
-0.020 2.211 1.858 7935
-0.020 2.234 1.866 9613
-0.020 2.246 1.864 9394
-0.020 2.251 1.857 15212
-0.020 2.275 1.865 23913
-0.020 2.286 1.863 21446
-0.020 2.291 1.856 12255
-0.021 2.334 1.877 11910
-0.021 2.339 1.871 16441
-0.021 2.344 1.864 16619
-0.021 2.337 1.847 16232
-0.021 2.335 1.836 16448
-0.021 2.347 1.834 12377
-0.022 2.423 1.877 10071
-0.022 2.434 1.874 14200
-0.022 2.439 1.867 15627
-0.022 2.444 1.860 16638
-0.022 2.449 1.853 17286
-0.022 2.454 1.846 13868
-0.022 2.466 1.843 12186
-0.022 2.477 1.840 13745
-0.022 2.488 1.837 11020
-0.022 2.493 1.830 8530
-0.022 2.498 1.822 6524
-0.023 2.582 1.867 7794
-0.023 2.594 1.864 9952
-0.023 2.592 1.852 9899
-0.023 2.611 1.853 9195
-0.023 2.616 1.845 8329
-0.023 2.614 1.834 8524
-0.023 2.619 1.826 9142
-0.023 2.637 1.827 9268
-0.024 2.649 1.823 9575
-0.023 2.647 1.811 7412
-0.025 2.786 1.887 5216
-0.025 2.791 1.878 7174
-0.025 2.803 1.874 7551
-0.025 2.808 1.866 6019
-0.025 2.779 1.837 4629
-0.026 2.906 1.902 5728
-0.026 2.912 1.894 6499
-0.025 2.835 1.837 6710
-0.026 2.942 1.889 6404
-0.026 2.947 1.880 7073
-0.026 2.952 1.871 7521
-0.026 2.950 1.859 7361
-0.026 2.949 1.846 6867
-0.026 2.954 1.837 5301
-0.027 3.034 1.871 4866
-0.027 3.074 1.882 5586
-0.028 3.107 1.888 5283
-0.028 3.153 1.902 4734
-0.028 3.117 1.870 4154
-0.028 3.205 1.906 4313
-0.028 3.203 1.893 4288
-0.028 3.118 1.835 4504
-0.028 3.192 1.863 4780
-0.028 3.190 1.850 5466
-0.028 3.202 1.844 5278
-0.029 3.214 1.838 5229
-0.030 3.367 1.906 4639
-0.030 3.400 1.910 3808
-0.030 3.405 1.900 3203
-0.029 3.319 1.844 2735
-0.030 3.331 1.837 3028
-0.030 3.343 1.831 2694
-0.031 3.503 1.899 4064
-0.031 3.501 1.885 6033
-0.031 3.507 1.875 8087
-0.031 3.512 1.864 8087
-0.031 3.531 1.861 8812
-0.031 3.543 1.854 10444
-0.031 3.548 1.843 9397
-0.032 3.553 1.833 8350
-0.032 3.551 1.819 6393
-0.031 3.548 1.805 4804
-0.032 3.560 1.798 4178
-0.032 3.572 1.791 3647
-0.032 3.577 1.781 3677
-0.036 4.015 1.965 3642
-0.036 4.020 1.953 3642
-0.036 4.025 1.942 2910
-0.032 3.654 1.764 2549
-0.036 4.079 1.937 2548
-0.036 4.085 1.925 3042
-0.036 4.039 1.891 2025
-0.036 4.044 1.879 1012
-0.015 1.642 0.851 351
-0.004 0.720 1.778 12851
-0.004 0.725 1.776 10043
-0.004 0.729 1.773 7236
-0.004 0.734 1.771 7236
-0.004 0.745 1.783 10427
-0.004 0.754 1.788 14970
-0.004 0.758 1.786 20226
-0.005 0.767 1.791 25605
-0.005 0.771 1.788 26013
-0.005 0.776 1.786 26421
-0.005 0.781 1.784 25490
-0.005 0.786 1.781 20326
-0.005 0.787 1.772 16161
-0.005 0.795 1.777 13169
-0.005 0.804 1.781 10362
-0.005 0.808 1.779 8434
-0.005 0.820 1.791 6898
-0.005 0.836 1.809 6911
-0.005 0.844 1.814 7742
-0.005 0.846 1.804 9833
-0.005 0.847 1.795 12545
-0.005 0.852 1.792 15028
