0.831 -0.131 1.468 33909
0.834 -0.131 1.465 35892
0.838 -0.132 1.463 37535
0.846 -0.133 1.467 31587
0.854 -0.135 1.471 27426
0.858 -0.135 1.468 26172
0.858 -0.135 1.459 21337
0.866 -0.136 1.463 20477
0.865 -0.136 1.454 21190
0.865 -0.136 1.445 18332
0.882 -0.139 1.462 17189
0.899 -0.142 1.479 20276
0.907 -0.143 1.482 22416
0.911 -0.144 1.480 26041
0.915 -0.144 1.477 23150
0.914 -0.144 1.468 15935
0.923 -0.145 1.471 12580
0.926 -0.146 1.468 13793
0.930 -0.147 1.466 14210
0.929 -0.146 1.456 12159
0.933 -0.147 1.454 14832
0.942 -0.148 1.457 18603
0.936 -0.147 1.442 25898
0.940 -0.148 1.439 34349
0.948 -0.149 1.442 32611
0.957 -0.151 1.446 30002
0.960 -0.151 1.443 28054
0.964 -0.152 1.440 23989
0.968 -0.152 1.437 21680
0.976 -0.154 1.440 23625
0.980 -0.154 1.437 19777
0.984 -0.155 1.434 9777
0.992 -0.156 1.438 4926
1.006 -0.158 1.447 6750
1.005 -0.158 1.438 9075
1.003 -0.158 1.429 8683
1.002 -0.158 1.419 6532
1.006 -0.158 1.416 5078
1.024 -0.161 1.432 6704
1.033 -0.163 1.435 11039
1.037 -0.163 1.432 11143
1.040 -0.164 1.428 7609
1.044 -0.164 1.425 5920
1.048 -0.165 1.422 9679
1.057 -0.166 1.425 17029
1.060 -0.167 1.422 20696
1.064 -0.168 1.419 18869
1.068 -0.168 1.415 16323
1.071 -0.169 1.412 17276
1.080 -0.170 1.415 23428
1.084 -0.171 1.412 31044
1.087 -0.171 1.408 35863
1.096 -0.173 1.411 31517
1.100 -0.173 1.408 24792
1.103 -0.174 1.404 26733
1.107 -0.174 1.401 25602
1.116 -0.176 1.404 15814
1.120 -0.176 1.400 11204
1.123 -0.177 1.397 14914
1.132 -0.178 1.399 20566
1.141 -0.180 1.402 22206
1.145 -0.180 1.398 17875
1.154 -0.182 1.400 18692
1.157 -0.182 1.397 21422
1.166 -0.184 1.399 17809
1.170 -0.184 1.396 12757
1.173 -0.185 1.392 14106
1.183 -0.186 1.394 17175
1.192 -0.188 1.396 18744
1.201 -0.189 1.398 13305
1.204 -0.190 1.395 12233
1.202 -0.189 1.386 17249
1.211 -0.191 1.388 12631
1.215 -0.191 1.384 17788
1.213 -0.191 1.375 24898
1.222 -0.192 1.377 19459
1.220 -0.192 1.367 20231
1.212 -0.191 1.353 22739
1.221 -0.192 1.355 16412
1.248 -0.196 1.373 11829
1.257 -0.198 1.374 15567
1.255 -0.198 1.365 15539
1.264 -0.199 1.367 17821
1.273 -0.201 1.368 21162
1.277 -0.201 1.365 18415
1.280 -0.202 1.361 15385
1.289 -0.203 1.362 15061
1.293 -0.204 1.358 16985
1.302 -0.205 1.360 14350
1.306 -0.206 1.356 9408
1.309 -0.206 1.352 7568
1.318 -0.208 1.353 15604
1.322 -0.208 1.349 24640
1.319 -0.208 1.340 24757
1.329 -0.209 1.341 25890
1.332 -0.210 1.337 30344
1.341 -0.211 1.339 32357
1.351 -0.213 1.340 30024
1.360 -0.214 1.341 20200
1.370 -0.216 1.342 18945
1.373 -0.216 1.338 21953
1.376 -0.217 1.334 21712
1.380 -0.217 1.329 26452
1.377 -0.217 1.320 21771
1.375 -0.217 1.311 16908
1.384 -0.218 1.312 14925
1.393 -0.219 1.313 10817
1.409 -0.222 1.319 12293
1.406 -0.221 1.309 16217
1.416 -0.223 1.310 14747
1.437 -0.226 1.321 11245
1.435 -0.226 1.311 10977
1.444 -0.227 1.312 15704
1.447 -0.228 1.308 21057
1.451 -0.229 1.303 25117
1.466 -0.231 1.309 29253
1.476 -0.232 1.309 28946
1.486 -0.234 1.309 23307
1.489 -0.235 1.305 16268
1.486 -0.234 1.296 9873
1.489 -0.235 1.291 8842
1.486 -0.234 1.282 11609
1.496 -0.236 1.282 13091
1.505 -0.237 1.282 12394
1.528 -0.241 1.292 11528
1.544 -0.243 1.297 11187
1.553 -0.245 1.297 14920
1.550 -0.244 1.287 17739
1.547 -0.244 1.278 18570
1.550 -0.244 1.274 14523
1.560 -0.246 1.273 11566
1.570 -0.247 1.273 16318
1.579 -0.249 1.273 19695
1.595 -0.251 1.277 17427
1.599 -0.252 1.273 15474
1.602 -0.252 1.268 15773
1.605 -0.253 1.263 17069
1.615 -0.254 1.263 21535
1.618 -0.255 1.258 26217
1.621 -0.255 1.253 27343
1.624 -0.256 1.248 22710
1.628 -0.256 1.243 18618
1.637 -0.258 1.243 18771
1.647 -0.259 1.242 17387
1.644 -0.259 1.233 12204
1.680 -0.265 1.249 9795
1.676 -0.264 1.240 13952
1.679 -0.265 1.235 15064
1.676 -0.264 1.226 13787
1.686 -0.265 1.225 11955
1.695 -0.267 1.224 11162
1.705 -0.269 1.223 8759
1.708 -0.269 1.218 8262
1.718 -0.271 1.217 11638
1.728 -0.272 1.216 15423
1.731 -0.273 1.211 15718
1.734 -0.273 1.206 14684
1.744 -0.275 1.204 10494
1.787 -0.281 1.223 9286
1.797 -0.283 1.222 11825
1.793 -0.282 1.212 11681
1.803 -0.284 1.211 11944
1.813 -0.286 1.210 12656
1.823 -0.287 1.208 12067
1.833 -0.289 1.207 11853
1.843 -0.290 1.205 9908
1.859 -0.293 1.207 8602
1.862 -0.293 1.202 9226
1.872 -0.295 1.200 9967
1.875 -0.295 1.194 10737
1.878 -0.296 1.189 9966
1.888 -0.297 1.187 10070
1.891 -0.298 1.181 12081
1.901 -0.299 1.179 14123
1.911 -0.301 1.177 15948
1.907 -0.300 1.168 14666
1.903 -0.300 1.158 14192
1.913 -0.301 1.156 13022
1.916 -0.302 1.151 12064
1.925 -0.303 1.148 10482
1.935 -0.305 1.146 9048
1.952 -0.307 1.148 8731
1.969 -0.310 1.149 9190
1.986 -0.313 1.150 7128
2.003 -0.315 1.151 6385
2.027 -0.319 1.155 7503
2.037 -0.321 1.153 9498
2.040 -0.321 1.147 8881
2.092 -0.330 1.164 9891
2.095 -0.330 1.158 11311
2.105 -0.332 1.155 12924
2.108 -0.332 1.149 10789
2.104 -0.331 1.139 8743
2.106 -0.332 1.133 8743
2.116 -0.333 1.130 6525
2.141 -0.337 1.133 4967
2.143 -0.338 1.127 6140
2.153 -0.339 1.124 7369
2.156 -0.340 1.117 7314
2.166 -0.341 1.114 7303
2.169 -0.342 1.108 7303
2.172 -0.342 1.101 6752
2.189 -0.345 1.101 6386
2.199 -0.346 1.097 9154
0.604 -0.096 1.540 7898
0.608 -0.097 1.538 8116
0.612 -0.097 1.536 8259
0.616 -0.098 1.534 9386
0.620 -0.099 1.532 10513
0.621 -0.099 1.523 11437
0.621 -0.099 1.514 13017
0.625 -0.100 1.512 10713
0.629 -0.100 1.510 8410
0.637 -0.101 1.516 8410
0.637 -0.101 1.507 7831
0.637 -0.102 1.498 7373
0.638 -0.102 1.488 7101
0.642 -0.102 1.487 6932
0.646 -0.103 1.485 10329
0.649 -0.103 1.483 13815
0.657 -0.105 1.488 12748
0.661 -0.105 1.486 11888
0.668 -0.106 1.491 8429
0.676 -0.108 1.496 5175
0.683 -0.109 1.501 5060
0.676 -0.108 1.478 5232
0.687 -0.109 1.489 9309
0.691 -0.110 1.487 13694
0.699 -0.111 1.492 14185
0.703 -0.112 1.490 14791
0.710 -0.113 1.495 13465
0.718 -0.114 1.500 12704
0.722 -0.115 1.497 12232
0.726 -0.116 1.495 11760
0.726 -0.116 1.486 9932
0.722 -0.115 1.470 7938
0.733 -0.117 1.482 7164
0.737 -0.117 1.479 6675
0.741 -0.118 1.477 5777
0.753 -0.120 1.489 7520
0.761 -0.121 1.493 9494
0.769 -0.122 1.498 10124
0.776 -0.124 1.502 11856
0.780 -0.124 1.500 13213
0.784 -0.125 1.497 13712
0.788 -0.126 1.495 13063
0.792 -0.126 1.493 11012
0.796 -0.127 1.490 7122
0.800 -0.127 1.488 5305
0.804 -0.128 1.485 7447
0.807 -0.129 1.483 9402
0.815 -0.130 1.487 13377
0.819 -0.130 1.485 20093
0.823 -0.131 1.482 23809
0.827 -0.132 1.480 27728
0.827 -0.132 1.470 32365
0.830 -0.132 1.468 33566
0.834 -0.133 1.465 35145
0.842 -0.134 1.470 36566
0.846 -0.135 1.467 31306
0.859 -0.137 1.478 28191
0.858 -0.137 1.468 28117
0.857 -0.137 1.459 23712
0.866 -0.138 1.463 21834
0.865 -0.138 1.454 21935
0.864 -0.138 1.445 17836
0.881 -0.140 1.462 14896
0.899 -0.143 1.479 19526
0.907 -0.144 1.482 22831
0.911 -0.145 1.480 27546
0.915 -0.146 1.477 25128
0.914 -0.146 1.468 16116
0.922 -0.147 1.471 11093
0.931 -0.148 1.475 12302
0.930 -0.148 1.466 13924
0.924 -0.147 1.450 13516
0.928 -0.148 1.447 15770
0.937 -0.149 1.451 19562
0.936 -0.149 1.442 29129
0.939 -0.150 1.439 38058
0.948 -0.151 1.442 35289
0.956 -0.152 1.446 31491
0.960 -0.153 1.443 29066
0.964 -0.153 1.440 25963
0.967 -0.154 1.437 24354
0.976 -0.155 1.440 26290
0.980 -0.156 1.437 21866
0.979 -0.156 1.428 11027
0.992 -0.158 1.438 5188
1.005 -0.160 1.447 8657
1.004 -0.160 1.438 12924
1.003 -0.160 1.429 12468
1.002 -0.160 1.419 8890
1.006 -0.160 1.416 7025
1.024 -0.163 1.432 9210
1.033 -0.164 1.435 12798
1.036 -0.165 1.432 11290
1.040 -0.166 1.428 7394
1.044 -0.166 1.425 6437
1.048 -0.167 1.422 10973
1.056 -0.168 1.425 18862
1.060 -0.169 1.422 21759
1.064 -0.169 1.419 17882
1.067 -0.170 1.415 14335
1.071 -0.171 1.412 16465
1.080 -0.172 1.415 23024
1.083 -0.173 1.412 29573
1.087 -0.173 1.408 32849
1.091 -0.174 1.405 28326
1.100 -0.175 1.408 25701
1.103 -0.176 1.404 29631
1.107 -0.176 1.401 25880
1.116 -0.178 1.404 13440
1.125 -0.179 1.406 8629
1.123 -0.179 1.397 14521
1.132 -0.180 1.399 21573
1.141 -0.182 1.402 23572
1.144 -0.182 1.398 17360
1.153 -0.184 1.400 15799
1.157 -0.184 1.397 18962
1.171 -0.187 1.405 16345
1.175 -0.187 1.401 11761
1.173 -0.187 1.392 12585
1.182 -0.188 1.394 15862
1.191 -0.190 1.396 17608
1.195 -0.190 1.393 12227
1.204 -0.192 1.395 10230
1.202 -0.191 1.386 15320
1.206 -0.192 1.382 13087
1.215 -0.193 1.384 16249
1.213 -0.193 1.375 22760
1.216 -0.194 1.371 20419
1.214 -0.193 1.362 22191
1.212 -0.193 1.353 23443
1.227 -0.195 1.360 15817
1.247 -0.199 1.373 11627
1.256 -0.200 1.374 15654
1.249 -0.199 1.360 16883
1.258 -0.200 1.361 16562
1.267 -0.202 1.363 17647
1.276 -0.203 1.365 16563
1.280 -0.204 1.361 16172
1.289 -0.205 1.362 17255
1.292 -0.206 1.358 17375
1.302 -0.207 1.360 12556
1.305 -0.208 1.356 8874
1.303 -0.208 1.347 8857
1.312 -0.209 1.348 18257
1.321 -0.210 1.349 29697
1.319 -0.210 1.340 30849
1.328 -0.212 1.341 30795
1.332 -0.212 1.337 32987
1.341 -0.214 1.339 33999
1.345 -0.214 1.334 32257
1.354 -0.216 1.336 22893
1.363 -0.217 1.337 23490
1.373 -0.219 1.338 26493
1.370 -0.218 1.328 24839
1.380 -0.220 1.329 29547
1.377 -0.219 1.320 23374
1.374 -0.219 1.311 19386
1.372 -0.218 1.302 18340
1.369 -0.218 1.293 14196
1.384 -0.220 1.299 16483
1.400 -0.223 1.304 21031
1.409 -0.224 1.305 17875
1.431 -0.228 1.316 14124
1.434 -0.228 1.311 12947
1.444 -0.230 1.312 17758
1.447 -0.230 1.308 22530
1.450 -0.231 1.303 24622
1.460 -0.233 1.304 27125
1.476 -0.235 1.309 27441
1.485 -0.237 1.309 23379
1.489 -0.237 1.305 17155
1.486 -0.237 1.296 10109
1.483 -0.236 1.286 8918
1.492 -0.238 1.287 13475
1.502 -0.239 1.287 16886
1.511 -0.241 1.287 15605
1.521 -0.242 1.287 12565
1.537 -0.245 1.292 11296
1.553 -0.247 1.297 14515
1.550 -0.247 1.287 17080
1.547 -0.246 1.278 17840
1.550 -0.247 1.274 13652
1.560 -0.248 1.273 10828
1.569 -0.250 1.273 15322
1.579 -0.251 1.273 17828
1.595 -0.254 1.277 14849
1.598 -0.255 1.273 13195
1.601 -0.255 1.268 14683
1.605 -0.256 1.263 17851
1.614 -0.257 1.263 22479
1.618 -0.258 1.258 24502
1.621 -0.258 1.253 24147
1.617 -0.258 1.244 20543
1.634 -0.260 1.248 19862
1.643 -0.262 1.247 22320
1.647 -0.262 1.242 20150
1.643 -0.262 1.233 14077
1.666 -0.265 1.241 11147
1.676 -0.267 1.240 15515
1.672 -0.266 1.231 16633
1.675 -0.267 1.226 14947
1.685 -0.268 1.225 11836
1.702 -0.271 1.228 10543
1.705 -0.271 1.223 8283
1.708 -0.272 1.218 8177
1.717 -0.274 1.217 12261
1.734 -0.276 1.220 16918
1.737 -0.277 1.215 17567
1.740 -0.277 1.210 16813
1.750 -0.279 1.208 12289
1.787 -0.285 1.223 11124
1.790 -0.285 1.218 13626
1.793 -0.286 1.212 13118
1.803 -0.287 1.211 12181
1.812 -0.289 1.210 12031
1.816 -0.289 1.204 11085
1.832 -0.292 1.207 10432
1.842 -0.293 1.205 8338
1.859 -0.296 1.207 8397
1.862 -0.297 1.202 10298
1.865 -0.297 1.196 11510
1.868 -0.297 1.190 12721
1.871 -0.298 1.185 9972
1.894 -0.302 1.190 7898
1.897 -0.302 1.185 9272
1.907 -0.304 1.183 12410
1.910 -0.304 1.177 15227
1.906 -0.304 1.168 14730
1.902 -0.303 1.158 14844
1.912 -0.305 1.156 13839
1.922 -0.306 1.154 13080
1.925 -0.307 1.148 11280
1.928 -0.307 1.143 9481
1.952 -0.311 1.148 8614
1.976 -0.315 1.152 9029
1.999 -0.318 1.157 8077
2.009 -0.320 1.154 8045
2.019 -0.322 1.152 9102
2.029 -0.323 1.149 10606
2.039 -0.325 1.147 9738
2.077 -0.331 1.157 10231
2.094 -0.334 1.158 10939
2.104 -0.335 1.155 12248
2.107 -0.336 1.149 10022
2.103 -0.335 1.139 7865
2.106 -0.335 1.133 7865
2.123 -0.338 1.133 5513
2.169 -0.345 1.146 4675
2.157 -0.344 1.133 6313
2.153 -0.343 1.124 8245
2.163 -0.344 1.121 7846
2.166 -0.345 1.114 7473
2.168 -0.345 1.108 7473
2.178 -0.347 1.104 6940
2.195 -0.350 1.104 6991
2.198 -0.350 1.097 9681
0.607 -0.098 1.547 6765
0.611 -0.099 1.545 6895
0.615 -0.100 1.543 7019
0.616 -0.100 1.534 8309
0.620 -0.100 1.532 9626
0.620 -0.101 1.523 10802
0.621 -0.101 1.514 12632
0.625 -0.101 1.512 10526
0.629 -0.102 1.510 8421
0.636 -0.103 1.516 8460
0.640 -0.104 1.514 7370
0.641 -0.104 1.505 6397
0.638 -0.103 1.488 6646
0.638 -0.103 1.479 7123
0.645 -0.105 1.485 10987
0.649 -0.105 1.483 14988
0.653 -0.106 1.481 13868
0.660 -0.107 1.486 13035
0.668 -0.108 1.491 9255
0.675 -0.109 1.496 5793
0.679 -0.110 1.494 5821
0.676 -0.110 1.478 6044
0.687 -0.111 1.489 10009
0.691 -0.112 1.487 14169
0.698 -0.113 1.492 14464
0.702 -0.114 1.490 14849
0.710 -0.115 1.495 13415
0.718 -0.116 1.500 12445
0.721 -0.117 1.497 12026
0.725 -0.118 1.495 11607
0.725 -0.118 1.486 9705
0.722 -0.117 1.470 7610
0.733 -0.119 1.482 7219
0.737 -0.119 1.479 7036
0.741 -0.120 1.477 6276
0.752 -0.122 1.489 8055
0.760 -0.123 1.493 10105
0.772 -0.125 1.504 11166
0.776 -0.126 1.502 13558
0.780 -0.126 1.500 15379
0.784 -0.127 1.497 15969
0.788 -0.128 1.495 15175
0.792 -0.128 1.493 12582
0.795 -0.129 1.490 7857
0.799 -0.130 1.488 5793
0.803 -0.130 1.485 7371
0.807 -0.131 1.483 9140
0.815 -0.132 1.487 13453
0.819 -0.133 1.485 19690
0.823 -0.133 1.482 22753
0.827 -0.134 1.480 26028
0.826 -0.134 1.470 30622
0.830 -0.135 1.468 32064
0.834 -0.135 1.465 33547
0.842 -0.136 1.470 35169
0.846 -0.137 1.467 30899
0.854 -0.138 1.471 28770
0.858 -0.139 1.468 29506
0.857 -0.139 1.459 25932
0.865 -0.140 1.463 24104
0.865 -0.140 1.454 23970
0.864 -0.140 1.445 18598
0.877 -0.142 1.455 13277
0.898 -0.146 1.479 18745
0.902 -0.146 1.476 23087
0.910 -0.148 1.480 28615
0.914 -0.148 1.477 26472
0.914 -0.148 1.468 16156
0.922 -0.149 1.471 10109
0.930 -0.151 1.475 11459
0.930 -0.151 1.466 14120
0.924 -0.150 1.450 15647
0.928 -0.150 1.447 16854
0.932 -0.151 1.444 20343
0.935 -0.152 1.442 31861
0.939 -0.152 1.439 41146
0.947 -0.154 1.442 37532
0.956 -0.155 1.446 32372
0.960 -0.156 1.443 28979
0.963 -0.156 1.440 26494
0.967 -0.157 1.437 25628
0.976 -0.158 1.440 27978
0.979 -0.159 1.437 23693
0.978 -0.159 1.428 12916
0.992 -0.161 1.438 6170
1.005 -0.163 1.447 10216
1.004 -0.163 1.438 15831
1.003 -0.163 1.429 15694
1.001 -0.162 1.419 11537
1.010 -0.164 1.423 9905
1.019 -0.165 1.426 12458
1.032 -0.167 1.435 14913
1.041 -0.169 1.438 12229
1.040 -0.169 1.428 8465
1.043 -0.169 1.425 8358
1.047 -0.170 1.422 11823
1.056 -0.171 1.425 18164
1.060 -0.172 1.422 20588
1.068 -0.173 1.425 16041
1.067 -0.173 1.415 12915
1.076 -0.174 1.418 17120
1.079 -0.175 1.415 24293
1.083 -0.176 1.412 29659
1.087 -0.176 1.408 30533
1.090 -0.177 1.405 26046
1.099 -0.178 1.408 27830
1.103 -0.179 1.404 33599
1.106 -0.179 1.401 26341
1.110 -0.180 1.398 11935
1.113 -0.181 1.394 6625
1.122 -0.182 1.397 13338
1.131 -0.183 1.399 20506
1.140 -0.185 1.402 21413
1.144 -0.185 1.398 15069
1.147 -0.186 1.395 12588
1.156 -0.187 1.397 14808
1.165 -0.189 1.399 12706
1.174 -0.190 1.401 8856
1.173 -0.190 1.392 8391
1.187 -0.192 1.400 11825
1.196 -0.194 1.402 15332
1.200 -0.195 1.398 11289
1.214 -0.197 1.406 8049
1.201 -0.195 1.386 11367
1.205 -0.195 1.382 12573
1.209 -0.196 1.378 17089
1.212 -0.197 1.375 21754
1.210 -0.196 1.365 20202
1.214 -0.197 1.362 22150
1.211 -0.196 1.353 21362
1.232 -0.200 1.365 14691
1.247 -0.202 1.373 10928
1.250 -0.203 1.369 14653
1.242 -0.201 1.354 17623
1.251 -0.203 1.356 15654
1.266 -0.205 1.363 14601
1.270 -0.206 1.359 15686
1.279 -0.207 1.361 16740
1.288 -0.209 1.362 18242
1.292 -0.209 1.358 16474
1.295 -0.210 1.354 10264
1.299 -0.211 1.351 8523
1.302 -0.211 1.347 10515
1.312 -0.213 1.348 20702
1.321 -0.214 1.349 33662
1.318 -0.214 1.340 35751
1.328 -0.215 1.341 34562
1.331 -0.216 1.337 34173
1.341 -0.217 1.339 34030
1.344 -0.218 1.334 33064
1.347 -0.218 1.330 26172
1.363 -0.221 1.337 29520
1.366 -0.221 1.333 31583
1.369 -0.222 1.328 28418
1.379 -0.224 1.329 33005
1.376 -0.223 1.320 26134
1.374 -0.223 1.311 24067
1.371 -0.222 1.302 25687
1.368 -0.222 1.293 21270
1.384 -0.224 1.299 24558
1.393 -0.226 1.299 28589
1.402 -0.227 1.300 22397
1.418 -0.230 1.306 17092
1.434 -0.232 1.311 14360
1.443 -0.234 1.312 18849
1.446 -0.234 1.308 23337
1.450 -0.235 1.303 23903
1.459 -0.237 1.304 24603
1.475 -0.239 1.309 25095
1.485 -0.241 1.309 22650
1.488 -0.241 1.305 17443
1.485 -0.241 1.296 10290
1.482 -0.240 1.286 9417
1.492 -0.242 1.287 15653
1.501 -0.243 1.287 20868
1.511 -0.245 1.287 19649
1.520 -0.246 1.287 15357
1.530 -0.248 1.287 11857
1.552 -0.252 1.297 13292
1.543 -0.250 1.283 16230
1.546 -0.251 1.278 17203
1.549 -0.251 1.274 13028
1.559 -0.253 1.273 10157
1.569 -0.254 1.273 13916
1.578 -0.256 1.273 15177
1.588 -0.257 1.273 11606
1.604 -0.260 1.277 10353
1.601 -0.260 1.268 13144
1.610 -0.261 1.267 18334
1.614 -0.262 1.263 22873
1.617 -0.262 1.258 21928
1.620 -0.263 1.253 19863
1.623 -0.263 1.248 18479
1.633 -0.265 1.248 22025
1.643 -0.266 1.247 25081
1.646 -0.267 1.242 22263
1.649 -0.267 1.237 15891
1.659 -0.269 1.236 13168
1.668 -0.270 1.236 17428
1.672 -0.271 1.231 18208
1.675 -0.271 1.226 16016
1.684 -0.273 1.225 11801
1.701 -0.276 1.228 10105
1.704 -0.276 1.223 7900
1.707 -0.277 1.218 8125
1.717 -0.278 1.217 12877
1.733 -0.281 1.220 18408
1.736 -0.281 1.215 19514
1.739 -0.282 1.210 19110
1.756 -0.285 1.212 14487
1.779 -0.288 1.219 13285
1.782 -0.289 1.214 15455
1.792 -0.291 1.212 14178
1.802 -0.292 1.211 12141
1.812 -0.294 1.210 11366
1.815 -0.294 1.204 10261
1.825 -0.296 1.203 9326
1.848 -0.300 1.209 7444
1.858 -0.301 1.207 8418
1.854 -0.301 1.198 11039
1.864 -0.302 1.196 12641
1.867 -0.303 1.190 14352
1.863 -0.302 1.181 11058
1.866 -0.303 1.175 7874
1.876 -0.304 1.174 7726
1.900 -0.308 1.179 11157
1.909 -0.310 1.177 14721
1.905 -0.309 1.168 15111
1.901 -0.308 1.158 15705
1.911 -0.310 1.156 14786
1.921 -0.311 1.154 14203
1.924 -0.312 1.148 11992
1.927 -0.312 1.143 9781
1.944 -0.315 1.144 8359
1.996 -0.324 1.163 8800
2.006 -0.325 1.160 9076
2.015 -0.327 1.158 9521
2.018 -0.327 1.152 10795
2.028 -0.329 1.149 12194
2.038 -0.330 1.147 11057
2.062 -0.334 1.151 10884
2.093 -0.339 1.158 10170
2.103 -0.341 1.155 11133
2.106 -0.341 1.149 9003
2.102 -0.341 1.139 6914
2.105 -0.341 1.133 6914
2.129 -0.345 1.136 5024
2.168 -0.351 1.146 5470
2.163 -0.351 1.137 7199
2.159 -0.350 1.127 9360
2.162 -0.350 1.121 8517
2.165 -0.351 1.114 7673
2.167 -0.351 1.108 7673
2.177 -0.353 1.104 7092
2.202 -0.357 1.107 7425
2.197 -0.356 1.097 10019
0.607 -0.100 1.547 5827
0.611 -0.101 1.545 5748
0.615 -0.101 1.543 5882
0.616 -0.102 1.534 7316
0.620 -0.102 1.532 8865
0.620 -0.102 1.523 10319
0.621 -0.102 1.514 12372
0.625 -0.103 1.512 10336
0.632 -0.104 1.518 8301
0.639 -0.105 1.523 8446
0.643 -0.106 1.521 7036
0.651 -0.107 1.526 5676
0.634 -0.105 1.481 6317
0.638 -0.105 1.479 7645
0.645 -0.106 1.485 11665
0.649 -0.107 1.483 15861
0.653 -0.108 1.481 14646
0.660 -0.109 1.486 13706
0.668 -0.110 1.491 9740
0.679 -0.112 1.503 6241
0.679 -0.112 1.494 6573
0.679 -0.112 1.485 7022
0.687 -0.113 1.489 10733
0.691 -0.114 1.487 14553
0.698 -0.115 1.492 14621
0.702 -0.116 1.490 14765
0.710 -0.117 1.495 13246
0.717 -0.118 1.500 12084
0.721 -0.119 1.497 11724
0.725 -0.120 1.495 11364
0.725 -0.120 1.486 9528
0.721 -0.119 1.470 7635
0.733 -0.121 1.482 7826
0.741 -0.122 1.486 7977
0.744 -0.123 1.484 7218
0.752 -0.124 1.489 8907
0.760 -0.125 1.493 10815
0.772 -0.127 1.504 12155
0.776 -0.128 1.502 14972
0.780 -0.129 1.500 17224
0.783 -0.129 1.497 18069
0.787 -0.130 1.495 17310
0.791 -0.131 1.493 14194
0.795 -0.131 1.490 8793
0.803 -0.132 1.494 6649
0.803 -0.132 1.485 7476
0.807 -0.133 1.483 8788
0.815 -0.134 1.487 13242
0.819 -0.135 1.485 19126
0.822 -0.136 1.482 21724
0.826 -0.136 1.480 24394
0.826 -0.136 1.470 29089
0.830 -0.137 1.468 30829
0.833 -0.137 1.465 32187
0.842 -0.139 1.470 33726
0.845 -0.139 1.467 30250
0.853 -0.141 1.471 29062
0.857 -0.141 1.468 30424
0.857 -0.141 1.459 27700
0.865 -0.143 1.463 26065
0.869 -0.143 1.461 25783
0.859 -0.142 1.438 18940
0.863 -0.142 1.436 12040
0.898 -0.148 1.479 17684
0.902 -0.149 1.476 23549
0.910 -0.150 1.480 29517
0.914 -0.151 1.477 27578
0.913 -0.151 1.468 16260
0.926 -0.153 1.478 9556
0.930 -0.153 1.475 10813
0.924 -0.153 1.459 14594
0.919 -0.152 1.444 17935
0.923 -0.152 1.441 18205
0.931 -0.154 1.444 21059
0.935 -0.154 1.442 33920
0.939 -0.155 1.439 43516
0.947 -0.156 1.442 39442
0.955 -0.158 1.446 33166
0.959 -0.158 1.443 28469
0.963 -0.159 1.440 26446
0.967 -0.159 1.437 26612
0.975 -0.161 1.440 29382
0.979 -0.161 1.437 25350
0.978 -0.161 1.428 14929
0.991 -0.163 1.438 7615
1.000 -0.165 1.441 12011
1.003 -0.166 1.438 18934
1.002 -0.165 1.429 19120
1.001 -0.165 1.419 13879
1.010 -0.167 1.423 11886
1.018 -0.168 1.426 14957
1.032 -0.170 1.435 16713
1.041 -0.172 1.438 12767
1.039 -0.171 1.428 9011
1.043 -0.172 1.425 9607
1.047 -0.173 1.422 12378
1.055 -0.174 1.425 18026
1.059 -0.175 1.422 20289
1.068 -0.176 1.425 15416
1.066 -0.176 1.415 12808
1.075 -0.177 1.418 18251
1.079 -0.178 1.415 25086
1.082 -0.179 1.412 29165
1.086 -0.179 1.408 27654
1.090 -0.180 1.405 24099
1.099 -0.181 1.408 29613
1.102 -0.182 1.404 35240
1.106 -0.182 1.401 25315
1.109 -0.183 1.398 11077
1.113 -0.184 1.394 6765
1.122 -0.185 1.397 13292
1.131 -0.187 1.399 19405
1.134 -0.187 1.396 19797
1.138 -0.188 1.392 14291
1.147 -0.189 1.395 11912
1.151 -0.190 1.391 12525
1.159 -0.191 1.393 9920
1.168 -0.193 1.396 7595
1.172 -0.193 1.392 7668
1.187 -0.196 1.400 10266
1.196 -0.197 1.402 12549
1.199 -0.198 1.398 10334
1.219 -0.201 1.412 7197
1.195 -0.197 1.380 9057
1.199 -0.198 1.376 11961
1.208 -0.199 1.378 14838
1.212 -0.200 1.375 17904
1.210 -0.200 1.365 19499
1.207 -0.199 1.356 21803
1.216 -0.201 1.358 17454
1.237 -0.204 1.371 12386
1.240 -0.205 1.367 9340
1.238 -0.204 1.358 12549
1.242 -0.205 1.354 17186
1.245 -0.205 1.351 14698
1.260 -0.208 1.358 13295
1.269 -0.209 1.359 16103
1.279 -0.211 1.361 17144
1.282 -0.211 1.357 18478
1.285 -0.212 1.353 14814
1.295 -0.214 1.354 8426
1.298 -0.214 1.351 9287
1.302 -0.215 1.347 12618
1.311 -0.216 1.348 22636
1.320 -0.218 1.349 35926
1.318 -0.217 1.340 38681
1.327 -0.219 1.341 36795
1.331 -0.219 1.337 34074
1.340 -0.221 1.339 32328
1.343 -0.222 1.334 31691
1.347 -0.222 1.330 28846
1.362 -0.225 1.337 34740
1.365 -0.225 1.333 35556
1.369 -0.226 1.328 31547
1.372 -0.226 1.324 36717
1.376 -0.227 1.320 29607
1.373 -0.226 1.311 29571
1.370 -0.226 1.302 33669
1.368 -0.226 1.293 28545
1.383 -0.228 1.299 33063
1.392 -0.230 1.299 36150
1.402 -0.231 1.300 27012
1.411 -0.233 1.301 20182
1.433 -0.236 1.311 14911
1.442 -0.238 1.312 18510
1.446 -0.238 1.308 22872
1.449 -0.239 1.303 22562
1.459 -0.241 1.304 21894
1.474 -0.243 1.309 22776
1.484 -0.245 1.309 21806
1.487 -0.245 1.305 17380
1.491 -0.246 1.300 10504
1.488 -0.245 1.291 10224
1.491 -0.246 1.287 17681
1.500 -0.248 1.287 24196
1.510 -0.249 1.287 23303
1.520 -0.251 1.287 18282
1.529 -0.252 1.287 12757
1.532 -0.253 1.283 12402
1.542 -0.254 1.283 15544
1.539 -0.254 1.274 16603
1.549 -0.255 1.274 12406
1.558 -0.257 1.273 9444
1.568 -0.259 1.273 12196
1.571 -0.259 1.269 12185
1.581 -0.261 1.268 8405
1.610 -0.266 1.282 7797
1.607 -0.265 1.272 11734
1.610 -0.266 1.267 18443
1.613 -0.266 1.263 22691
1.616 -0.267 1.258 18840
1.619 -0.267 1.253 15091
1.629 -0.269 1.252 16490
1.632 -0.269 1.248 23090
1.642 -0.271 1.247 25994
1.645 -0.271 1.242 22854
1.648 -0.272 1.237 17379
1.658 -0.273 1.236 15805
1.668 -0.275 1.236 19547
1.671 -0.276 1.231 19613
1.674 -0.276 1.226 17037
1.677 -0.277 1.221 11898
1.700 -0.280 1.228 9654
1.703 -0.281 1.223 7447
1.706 -0.281 1.218 7952
1.723 -0.284 1.221 13416
1.732 -0.286 1.220 19626
1.735 -0.286 1.215 21210
1.745 -0.288 1.214 21528
1.755 -0.290 1.212 16991
1.778 -0.293 1.219 15592
1.775 -0.293 1.210 17242
1.784 -0.294 1.209 15010
1.801 -0.297 1.211 11942
1.811 -0.299 1.210 10998
1.814 -0.299 1.204 9865
1.831 -0.302 1.207 8944
1.847 -0.305 1.209 7530
1.857 -0.306 1.207 8591
1.853 -0.306 1.198 10923
1.856 -0.306 1.192 13070
1.866 -0.308 1.190 15224
1.862 -0.307 1.181 12164
1.858 -0.307 1.172 9283
1.868 -0.308 1.170 8674
1.892 -0.312 1.175 10821
1.902 -0.314 1.173 14551
1.905 -0.314 1.168 15441
1.901 -0.314 1.158 16403
1.910 -0.315 1.156 15532
1.920 -0.317 1.154 15103
1.923 -0.317 1.148 12550
1.926 -0.318 1.143 9998
1.936 -0.319 1.140 8082
2.002 -0.330 1.166 8820
2.012 -0.332 1.164 9613
2.015 -0.332 1.158 10552
2.017 -0.333 1.152 12003
2.027 -0.334 1.149 13535
2.030 -0.335 1.143 12268
2.054 -0.339 1.147 11780
2.085 -0.344 1.155 9236
2.102 -0.347 1.155 9819
2.105 -0.347 1.149 7939
2.101 -0.347 1.139 6075
2.104 -0.347 1.133 6075
2.157 -0.356 1.150 5328
2.159 -0.356 1.143 6554
2.155 -0.356 1.133 8424
2.158 -0.356 1.127 10513
2.161 -0.356 1.121 9177
2.156 -0.356 1.111 7914
2.159 -0.356 1.104 7914
2.176 -0.359 1.104 7105
2.201 -0.363 1.107 7710
2.196 -0.362 1.097 10083
0.607 -0.101 1.547 5132
0.611 -0.102 1.545 4757
0.615 -0.102 1.543 4905
0.615 -0.102 1.534 6395
0.619 -0.103 1.532 8068
0.617 -0.103 1.516 9860
0.621 -0.103 1.514 12062
0.625 -0.104 1.512 10097
0.632 -0.105 1.518 8235
0.639 -0.106 1.523 8512
0.647 -0.108 1.528 6933
0.654 -0.109 1.533 5546
0.634 -0.106 1.481 6766
0.638 -0.106 1.479 9321
0.645 -0.107 1.485 13093
0.649 -0.108 1.483 17145
0.653 -0.109 1.481 15537
0.660 -0.110 1.486 14238
0.667 -0.111 1.491 10280
0.675 -0.112 1.496 6885
0.679 -0.113 1.494 7439
0.679 -0.113 1.485 8051
0.687 -0.114 1.489 11555
0.690 -0.115 1.487 15117
0.698 -0.116 1.492 14969
0.702 -0.117 1.490 14929
0.709 -0.118 1.495 13181
0.713 -0.119 1.493 11788
0.721 -0.120 1.497 11345
0.725 -0.121 1.495 10935
0.725 -0.121 1.486 9134
0.717 -0.119 1.463 7316
0.736 -0.123 1.489 8563
0.740 -0.123 1.486 9462
0.744 -0.124 1.484 8824
0.752 -0.125 1.489 10036
0.760 -0.127 1.493 11443
0.772 -0.128 1.504 13003
0.776 -0.129 1.502 16230
0.779 -0.130 1.500 18907
0.783 -0.130 1.497 19867
0.787 -0.131 1.495 19001
0.791 -0.132 1.493 15483
0.795 -0.132 1.490 9400
0.803 -0.134 1.494 7148
0.807 -0.134 1.492 7313
0.806 -0.134 1.483 8202
0.810 -0.135 1.480 12748
0.818 -0.136 1.485 18308
0.822 -0.137 1.482 20489
0.826 -0.138 1.480 22224
0.826 -0.137 1.470 26938
0.829 -0.138 1.468 29339
0.833 -0.139 1.465 30769
0.841 -0.140 1.470 31869
0.845 -0.141 1.467 28771
0.853 -0.142 1.471 28208
0.857 -0.143 1.468 30141
0.856 -0.143 1.459 28961
0.865 -0.144 1.463 28426
0.868 -0.145 1.461 28060
0.859 -0.143 1.438 19900
0.858 -0.143 1.429 13216
0.898 -0.149 1.479 16827
0.901 -0.150 1.476 23871
0.910 -0.152 1.480 30269
0.909 -0.151 1.470 28665
0.913 -0.152 1.468 16491
0.926 -0.154 1.478 9433
0.925 -0.154 1.468 10638
0.920 -0.153 1.453 15710
0.919 -0.153 1.444 20595
0.922 -0.154 1.441 20283
0.926 -0.154 1.438 22056
0.935 -0.156 1.442 35643
0.938 -0.156 1.439 45424
0.947 -0.158 1.442 41049
0.955 -0.159 1.446 33720
0.959 -0.160 1.443 27382
0.963 -0.160 1.440 25331
0.966 -0.161 1.437 26550
0.970 -0.162 1.434 30025
0.974 -0.162 1.431 26531
0.977 -0.163 1.428 16528
0.991 -0.165 1.438 8728
0.999 -0.166 1.441 13292
1.003 -0.167 1.438 21313
1.002 -0.167 1.429 21157
1.006 -0.167 1.426 14752
1.009 -0.168 1.423 13289
1.018 -0.170 1.426 18185
1.032 -0.172 1.435 19712
1.040 -0.173 1.438 14149
1.039 -0.173 1.428 9679
1.043 -0.174 1.425 10285
1.046 -0.174 1.422 13059
1.055 -0.176 1.425 18722
1.064 -0.177 1.428 20618
1.068 -0.178 1.425 15250
1.066 -0.178 1.415 12698
1.075 -0.179 1.418 18433
1.079 -0.180 1.415 24744
1.082 -0.180 1.412 27077
1.086 -0.181 1.408 23501
1.089 -0.181 1.405 23429
1.098 -0.183 1.408 32193
1.102 -0.183 1.404 34782
1.100 -0.183 1.395 23860
1.104 -0.184 1.392 10921
1.107 -0.184 1.389 8138
1.116 -0.186 1.391 13617
1.125 -0.187 1.393 17210
1.134 -0.189 1.396 16725
1.138 -0.189 1.392 15055
1.147 -0.191 1.395 15289
1.150 -0.192 1.391 13319
1.159 -0.193 1.393 10299
1.163 -0.194 1.390 9076
1.166 -0.194 1.386 8108
1.186 -0.198 1.400 8475
1.206 -0.201 1.413 10045
1.188 -0.198 1.387 8769
1.192 -0.198 1.384 7391
1.190 -0.198 1.374 11173
1.199 -0.200 1.376 12741
1.208 -0.201 1.378 11155
1.206 -0.201 1.369 12650
1.198 -0.200 1.354 20316
1.207 -0.201 1.356 21421
1.211 -0.202 1.353 12240
1.237 -0.206 1.371 9676
1.217 -0.203 1.345 9728
1.215 -0.202 1.336 12106
1.236 -0.206 1.349 15756
1.239 -0.206 1.345 13407
1.260 -0.210 1.358 12540
1.269 -0.211 1.359 16930
1.278 -0.213 1.361 17448
1.282 -0.213 1.357 18371
1.285 -0.214 1.353 13489
1.277 -0.213 1.339 8632
1.292 -0.215 1.345 11107
1.301 -0.217 1.347 14364
1.311 -0.218 1.348 23563
1.320 -0.220 1.349 36180
1.323 -0.220 1.345 39714
1.327 -0.221 1.341 37572
1.330 -0.222 1.337 32975
1.340 -0.223 1.339 29071
1.343 -0.224 1.334 27803
1.346 -0.224 1.330 29240
1.362 -0.227 1.337 37886
1.365 -0.227 1.333 37312
1.363 -0.227 1.323 33899
1.372 -0.228 1.324 40069
1.375 -0.229 1.320 33014
1.373 -0.229 1.311 34862
1.370 -0.228 1.302 40668
1.367 -0.228 1.293 34706
1.383 -0.230 1.299 40246
1.392 -0.232 1.299 42524
1.395 -0.232 1.295 30639
1.405 -0.234 1.296 22381
1.433 -0.239 1.311 14594
1.442 -0.240 1.312 16841
1.445 -0.241 1.308 21075
1.449 -0.241 1.303 20537
1.458 -0.243 1.304 19348
1.474 -0.245 1.309 21081
1.483 -0.247 1.309 21196
1.487 -0.248 1.305 17105
1.490 -0.248 1.300 10827
1.487 -0.248 1.291 11493
1.490 -0.248 1.287 19678
1.500 -0.250 1.287 27001
1.510 -0.251 1.287 26469
1.519 -0.253 1.287 20882
1.522 -0.254 1.283 13639
1.532 -0.255 1.283 12055
1.535 -0.256 1.278 15150
1.539 -0.256 1.274 16026
1.548 -0.258 1.274 11760
1.558 -0.259 1.273 8754
1.561 -0.260 1.269 10420
1.571 -0.262 1.269 9421
1.574 -0.262 1.264 6201
1.609 -0.268 1.282 6549
1.606 -0.267 1.272 10666
1.609 -0.268 1.267 18126
1.613 -0.269 1.263 22092
1.616 -0.269 1.258 15887
1.625 -0.271 1.257 11206
1.635 -0.272 1.257 14754
1.638 -0.273 1.252 22787
1.641 -0.273 1.247 24877
1.645 -0.274 1.242 21919
1.648 -0.274 1.237 18762
1.657 -0.276 1.236 19176
1.661 -0.277 1.231 22043
1.664 -0.277 1.226 21294
1.667 -0.278 1.221 18234
1.677 -0.279 1.221 11986
1.700 -0.283 1.228 9028
1.709 -0.285 1.227 6886
1.706 -0.284 1.218 7541
1.729 -0.288 1.225 13791
1.739 -0.290 1.224 20502
1.742 -0.290 1.219 22599
1.745 -0.291 1.214 23696
1.761 -0.293 1.216 19498
1.778 -0.296 1.219 17817
1.774 -0.295 1.210 18905
1.784 -0.297 1.209 15557
1.801 -0.300 1.211 11582
1.810 -0.301 1.210 11001
1.813 -0.302 1.204 10093
1.830 -0.305 1.207 9734
1.847 -0.308 1.209 8859
1.857 -0.309 1.207 9047
1.860 -0.310 1.202 10277
1.863 -0.310 1.196 12787
1.866 -0.311 1.190 15297
1.862 -0.310 1.181 12733
1.844 -0.307 1.164 10870
1.861 -0.310 1.166 10450
1.878 -0.313 1.168 11776
1.894 -0.315 1.170 14521
1.897 -0.316 1.164 15652
1.907 -0.318 1.162 16789
1.910 -0.318 1.156 15873
1.920 -0.320 1.154 15544
1.923 -0.320 1.148 12792
1.926 -0.321 1.143 10041
1.935 -0.322 1.140 7696
2.008 -0.334 1.170 8462
2.011 -0.335 1.164 9701
2.014 -0.335 1.158 10940
2.017 -0.336 1.152 12649
2.027 -0.338 1.149 14414
2.030 -0.338 1.143 13171
2.047 -0.341 1.144 12572
2.064 -0.344 1.145 9160
2.109 -0.351 1.158 8409
2.105 -0.351 1.149 6789
2.079 -0.346 1.129 5388
2.082 -0.347 1.123 5388
2.156 -0.359 1.150 5934
2.159 -0.360 1.143 7811
2.155 -0.359 1.133 9706
2.157 -0.359 1.127 11681
2.153 -0.359 1.117 9877
2.156 -0.359 1.111 8215
2.159 -0.359 1.104 8215
2.176 -0.362 1.104 6928
2.200 -0.366 1.107 7701
2.196 -0.366 1.097 9758
0.603 -0.102 1.540 4462
0.614 -0.104 1.552 3868
0.618 -0.105 1.551 4029
0.615 -0.104 1.534 5807
0.616 -0.104 1.525 7758
0.616 -0.105 1.516 9848
0.617 -0.105 1.507 12159
0.624 -0.106 1.512 10170
0.635 -0.108 1.525 8428
0.639 -0.108 1.523 8758
0.646 -0.110 1.528 6987
0.657 -0.112 1.540 5688
0.633 -0.107 1.481 7159
0.637 -0.108 1.479 10722
0.641 -0.109 1.478 14150
0.645 -0.109 1.476 17747
0.652 -0.111 1.481 15864
0.660 -0.112 1.486 14283
0.663 -0.113 1.484 10462
0.678 -0.115 1.503 7204
0.678 -0.115 1.494 8142
0.682 -0.116 1.491 9112
0.686 -0.116 1.489 12311
0.690 -0.117 1.487 15509
0.698 -0.118 1.492 15036
0.701 -0.119 1.490 14723
0.709 -0.120 1.495 12836
0.713 -0.121 1.493 11274
0.721 -0.122 1.497 10758
0.724 -0.123 1.495 10285
0.725 -0.123 1.486 8647
0.717 -0.122 1.463 7323
0.736 -0.125 1.489 9352
0.740 -0.126 1.486 10683
0.744 -0.126 1.484 9985
0.752 -0.128 1.489 10775
0.759 -0.129 1.493 11688
0.771 -0.131 1.504 13521
0.775 -0.132 1.502 17053
0.779 -0.132 1.500 20004
0.783 -0.133 1.497 21105
0.791 -0.134 1.502 20238
0.791 -0.134 1.493 16460
0.795 -0.135 1.490 9878
0.802 -0.136 1.494 7483
0.806 -0.137 1.492 7119
0.806 -0.137 1.483 7511
0.810 -0.137 1.480 11892
0.818 -0.139 1.485 17258
0.822 -0.139 1.482 19264
0.826 -0.140 1.480 20153
0.825 -0.140 1.470 24717
0.829 -0.141 1.468 27696
0.833 -0.141 1.465 29384
0.841 -0.143 1.470 30290
0.845 -0.143 1.467 27489
0.853 -0.145 1.471 27343
0.857 -0.145 1.468 29649
0.860 -0.146 1.466 29767
0.864 -0.147 1.463 30396
0.868 -0.147 1.461 30043
0.858 -0.146 1.438 20969
0.858 -0.146 1.429 14818
0.893 -0.151 1.472 16333
0.901 -0.153 1.476 23772
0.905 -0.154 1.473 30357
0.909 -0.154 1.470 28976
0.912 -0.155 1.468 16449
0.925 -0.157 1.478 9543
0.925 -0.157 1.468 10743
0.919 -0.156 1.453 16361
0.918 -0.156 1.444 22265
0.922 -0.156 1.441 21590
0.926 -0.157 1.438 22297
0.934 -0.158 1.442 36339
0.938 -0.159 1.439 46399
0.946 -0.161 1.442 42167
0.959 -0.163 1.452 34313
0.958 -0.163 1.443 26273
0.962 -0.163 1.440 23771
0.966 -0.164 1.437 25693
0.970 -0.165 1.434 29642
0.973 -0.165 1.431 26911
0.977 -0.166 1.428 17946
0.990 -0.168 1.438 9862
0.999 -0.169 1.441 14233
1.003 -0.170 1.438 22979
1.001 -0.170 1.429 22496
1.005 -0.171 1.426 15061
1.009 -0.171 1.423 13979
1.017 -0.173 1.426 20406
1.026 -0.174 1.429 21880
1.035 -0.176 1.432 14906
1.038 -0.176 1.428 10069
1.042 -0.177 1.425 10637
1.051 -0.178 1.428 12623
1.055 -0.179 1.425 18216
1.063 -0.180 1.428 20494
1.067 -0.181 1.425 15099
1.066 -0.181 1.415 12805
1.074 -0.182 1.418 19027
1.078 -0.183 1.415 24535
1.082 -0.184 1.412 24988
1.085 -0.184 1.408 19981
1.089 -0.185 1.405 23093
1.098 -0.186 1.408 34100
1.101 -0.187 1.404 33356
1.100 -0.187 1.395 21881
1.103 -0.187 1.392 10417
1.112 -0.189 1.394 9169
1.121 -0.190 1.397 14257
1.125 -0.191 1.393 15229
1.128 -0.191 1.390 13544
1.137 -0.193 1.392 14535
1.146 -0.194 1.395 17073
1.150 -0.195 1.391 13386
1.153 -0.196 1.388 9792
1.162 -0.197 1.390 10118
1.166 -0.198 1.386 9745
1.175 -0.199 1.389 9385
1.217 -0.206 1.425 9897
1.215 -0.206 1.415 7505
1.191 -0.202 1.384 9210
1.194 -0.203 1.380 13744
1.198 -0.203 1.376 13112
1.213 -0.206 1.384 9059
1.199 -0.204 1.364 9345
1.197 -0.203 1.354 20984
1.201 -0.204 1.351 21725
1.204 -0.204 1.347 12453
1.208 -0.205 1.344 12206
1.211 -0.206 1.340 14020
1.209 -0.205 1.331 13654
1.229 -0.209 1.343 13856
1.239 -0.210 1.345 11525
1.259 -0.214 1.358 11277
1.268 -0.215 1.359 16796
1.278 -0.217 1.361 16938
1.275 -0.216 1.352 17596
1.273 -0.216 1.342 13503
1.276 -0.217 1.339 10755
1.291 -0.219 1.345 12883
1.301 -0.221 1.347 15275
1.310 -0.222 1.348 23368
1.313 -0.223 1.344 34398
1.323 -0.224 1.345 38554
1.326 -0.225 1.341 36394
1.330 -0.226 1.337 30681
1.339 -0.227 1.339 24741
1.336 -0.227 1.329 23005
1.346 -0.228 1.330 28173
1.361 -0.231 1.337 38510
1.364 -0.232 1.333 36601
1.362 -0.231 1.323 34180
1.371 -0.233 1.324 41291
1.369 -0.232 1.315 34921
1.372 -0.233 1.311 37459
1.369 -0.232 1.302 43886
1.373 -0.233 1.298 37846
1.388 -0.236 1.304 44649
1.391 -0.236 1.299 46466
1.395 -0.237 1.295 32936
1.404 -0.238 1.296 23859
1.407 -0.239 1.292 14712
1.441 -0.245 1.312 14680
1.445 -0.245 1.308 18654
1.448 -0.246 1.303 18485
1.464 -0.248 1.309 17609
1.473 -0.250 1.309 20023
1.483 -0.252 1.309 20489
1.486 -0.252 1.305 16368
1.489 -0.253 1.300 10924
1.486 -0.252 1.291 12832
1.490 -0.253 1.287 21352
1.499 -0.254 1.287 28877
1.509 -0.256 1.287 28499
1.518 -0.258 1.287 22250
1.522 -0.258 1.283 13797
1.525 -0.259 1.278 11733
1.528 -0.259 1.274 14739
1.538 -0.261 1.274 15505
1.547 -0.263 1.274 11276
1.557 -0.264 1.273 8147
1.560 -0.265 1.269 9115
1.563 -0.265 1.264 7997
1.580 -0.268 1.268 6479
1.602 -0.272 1.277 7919
1.605 -0.272 1.272 10915
1.602 -0.272 1.263 17828
1.605 -0.272 1.258 21571
1.615 -0.274 1.258 14721
1.625 -0.276 1.257 10430
1.634 -0.277 1.257 14585
1.637 -0.278 1.252 21949
1.641 -0.278 1.247 22858
1.644 -0.279 1.242 20588
1.647 -0.279 1.237 20134
1.657 -0.281 1.236 22373
1.660 -0.282 1.231 24245
1.663 -0.282 1.226 22529
1.666 -0.283 1.221 19125
1.676 -0.284 1.221 12046
1.699 -0.288 1.228 8345
1.708 -0.290 1.227 6232
1.705 -0.289 1.218 7035
1.735 -0.294 1.229 13969
1.738 -0.295 1.224 21044
1.741 -0.295 1.219 23629
1.751 -0.297 1.218 25358
1.760 -0.299 1.216 21547
1.777 -0.301 1.219 19442
1.773 -0.301 1.210 19899
1.776 -0.301 1.205 15759
1.800 -0.305 1.211 11062
1.809 -0.307 1.210 11128
1.819 -0.309 1.208 10793
1.836 -0.312 1.210 11340
1.846 -0.313 1.209 10903
1.856 -0.315 1.207 9877
1.866 -0.317 1.205 10066
1.862 -0.316 1.196 12207
1.865 -0.316 1.190 14582
1.861 -0.316 1.181 12659
1.843 -0.313 1.164 11946
1.860 -0.316 1.166 11922
1.877 -0.318 1.168 13287
1.886 -0.320 1.166 14733
1.896 -0.322 1.164 15800
1.906 -0.323 1.162 17055
1.916 -0.325 1.160 15966
1.926 -0.327 1.158 15690
1.922 -0.326 1.148 12799
1.925 -0.327 1.143 9988
1.927 -0.327 1.137 7392
2.007 -0.341 1.170 7758
2.010 -0.341 1.164 9243
2.013 -0.342 1.158 10728
2.016 -0.342 1.152 12704
2.026 -0.344 1.149 14694
2.029 -0.344 1.143 13585
2.046 -0.347 1.144 12971
2.056 -0.349 1.141 9404
2.108 -0.358 1.158 6962
2.068 -0.351 1.132 5956
2.071 -0.351 1.126 5506
2.074 -0.352 1.120 5506
2.155 -0.366 1.150 6340
2.151 -0.365 1.140 8706
2.154 -0.365 1.133 10621
2.156 -0.366 1.127 12536
2.152 -0.365 1.117 10437
2.155 -0.366 1.111 8514
2.158 -0.366 1.104 8514
2.196 -0.373 1.114 6829
2.206 -0.374 1.110 7636
2.194 -0.372 1.097 9387
0.603 -0.103 1.540 3796
0.607 -0.104 1.538 3102
0.611 -0.105 1.536 3287
0.612 -0.105 1.527 5539
0.612 -0.105 1.518 7969
0.616 -0.106 1.516 10371
0.617 -0.106 1.507 12882
0.624 -0.107 1.512 10631
0.635 -0.109 1.525 8740
0.639 -0.109 1.523 9085
0.646 -0.111 1.528 7275
0.657 -0.113 1.540 6101
0.633 -0.108 1.481 7633
0.637 -0.109 1.479 11827
0.641 -0.110 1.478 14853
0.645 -0.110 1.476 18006
0.652 -0.112 1.481 15908
0.656 -0.112 1.479 14211
0.663 -0.114 1.484 10715
0.678 -0.116 1.503 7677
0.678 -0.116 1.494 9012
0.682 -0.117 1.491 10368
0.686 -0.117 1.489 13046
0.690 -0.118 1.487 15724
0.697 -0.119 1.492 14902
0.701 -0.120 1.490 14272
0.709 -0.121 1.495 12280
0.713 -0.122 1.493 10577
0.720 -0.123 1.497 10155
0.724 -0.124 1.495 9739
0.724 -0.124 1.486 8440
0.728 -0.125 1.484 7601
0.736 -0.126 1.489 10395
0.744 -0.127 1.493 12063
0.748 -0.128 1.491 11328
0.751 -0.129 1.489 11508
0.759 -0.130 1.493 11809
0.771 -0.132 1.504 13749
0.779 -0.133 1.509 17448
0.779 -0.133 1.500 20555
0.783 -0.134 1.497 22021
0.791 -0.135 1.502 21416
0.790 -0.135 1.493 17535
0.794 -0.136 1.490 10504
0.802 -0.137 1.494 7799
0.806 -0.138 1.492 7061
0.806 -0.138 1.483 7035
0.810 -0.139 1.480 10957
0.818 -0.140 1.485 16248
0.822 -0.141 1.482 18240
0.825 -0.141 1.480 18288
0.825 -0.141 1.470 22496
0.829 -0.142 1.468 26126
0.833 -0.143 1.465 28274
0.841 -0.144 1.470 28950
0.844 -0.145 1.467 26295
0.848 -0.145 1.464 26468
0.856 -0.147 1.468 29020
0.860 -0.147 1.466 30547
0.864 -0.148 1.463 32356
0.868 -0.149 1.461 32152
0.863 -0.148 1.445 22411
0.857 -0.147 1.429 16661
0.875 -0.150 1.446 17579
0.896 -0.153 1.469 23776
0.905 -0.155 1.473 30087
0.908 -0.156 1.470 28795
0.912 -0.156 1.468 16375
0.925 -0.158 1.478 9719
0.920 -0.158 1.462 10909
0.914 -0.157 1.446 16884
0.918 -0.157 1.444 23721
0.922 -0.158 1.441 22848
0.930 -0.159 1.444 22436
0.934 -0.160 1.442 36410
0.938 -0.161 1.439 46695
0.951 -0.163 1.449 42937
0.959 -0.164 1.452 35349
0.958 -0.164 1.443 25551
0.962 -0.165 1.440 22424
0.966 -0.165 1.437 24689
0.969 -0.166 1.434 28608
0.973 -0.167 1.431 26674
0.977 -0.167 1.428 19120
0.980 -0.168 1.425 10713
0.999 -0.171 1.441 14315
1.002 -0.172 1.438 23721
1.006 -0.172 1.435 23215
1.005 -0.172 1.426 15023
1.009 -0.173 1.423 14248
1.022 -0.175 1.432 21863
1.026 -0.176 1.429 23506
1.034 -0.177 1.432 16150
1.038 -0.178 1.428 11680
1.042 -0.178 1.425 12447
1.051 -0.180 1.428 12552
1.054 -0.181 1.425 16723
1.063 -0.182 1.428 20009
1.067 -0.183 1.425 15199
1.065 -0.182 1.415 13307
1.074 -0.184 1.418 20343
1.078 -0.185 1.415 25990
1.081 -0.185 1.412 25400
1.085 -0.186 1.408 19272
1.094 -0.187 1.411 23804
1.097 -0.188 1.408 34733
1.101 -0.189 1.404 31479
1.099 -0.188 1.395 19271
1.103 -0.189 1.392 9498
1.112 -0.190 1.394 10336
1.121 -0.192 1.397 14855
1.124 -0.193 1.393 13102
1.133 -0.194 1.396 11193
1.137 -0.195 1.392 14258
1.146 -0.196 1.395 17445
1.144 -0.196 1.385 12297
1.147 -0.197 1.382 9181
1.156 -0.198 1.384 11415
1.160 -0.199 1.381 11251
1.169 -0.200 1.383 12415
1.200 -0.205 1.408 13023
1.214 -0.208 1.415 11139
1.207 -0.207 1.400 13672
1.200 -0.205 1.386 15920
1.198 -0.205 1.376 12237
1.212 -0.208 1.384 8989
1.216 -0.208 1.380 7884
1.197 -0.205 1.354 21144
1.195 -0.205 1.345 23808
1.193 -0.204 1.336 17319
1.202 -0.206 1.338 19888
1.205 -0.206 1.334 20203
1.209 -0.207 1.331 15939
1.223 -0.210 1.338 11820
1.238 -0.212 1.345 9275
1.259 -0.216 1.358 9868
1.268 -0.217 1.359 15694
1.271 -0.218 1.355 15680
1.275 -0.218 1.352 16302
1.273 -0.218 1.342 13220
1.276 -0.219 1.339 12190
1.285 -0.220 1.340 13910
1.300 -0.223 1.347 15278
1.310 -0.224 1.348 22200
1.313 -0.225 1.344 31249
1.322 -0.226 1.345 35693
1.326 -0.227 1.341 33462
1.329 -0.228 1.337 27289
1.339 -0.229 1.339 20177
1.342 -0.230 1.334 18942
1.351 -0.231 1.336 27293
1.361 -0.233 1.337 37295
1.364 -0.234 1.333 34049
1.361 -0.233 1.323 32366
1.371 -0.235 1.324 40172
1.368 -0.234 1.315 34833
1.366 -0.234 1.306 37574
1.369 -0.234 1.302 43906
1.372 -0.235 1.298 38285
1.388 -0.238 1.304 46410
1.391 -0.238 1.299 48234
1.394 -0.239 1.295 34140
1.404 -0.240 1.296 24982
1.401 -0.240 1.287 16136
1.441 -0.247 1.312 12339
1.444 -0.247 1.308 15869
1.448 -0.248 1.303 16420
1.463 -0.251 1.309 16693
1.473 -0.252 1.309 19536
1.476 -0.253 1.305 19765
1.486 -0.254 1.305 15327
1.489 -0.255 1.300 10810
1.486 -0.254 1.291 14153
1.489 -0.255 1.287 22759
1.499 -0.257 1.287 30037
1.508 -0.258 1.287 29605
1.518 -0.260 1.287 22615
1.521 -0.261 1.283 13436
1.525 -0.261 1.278 11319
1.528 -0.262 1.274 14304
1.537 -0.263 1.274 14968
1.547 -0.265 1.274 10934
1.550 -0.265 1.269 7696
1.553 -0.266 1.264 8446
1.563 -0.268 1.264 8312
1.579 -0.270 1.268 8775
1.595 -0.273 1.273 10492
1.598 -0.274 1.268 11975
1.602 -0.274 1.263 18112
1.605 -0.275 1.258 21646
1.608 -0.275 1.253 15867
1.624 -0.278 1.257 13291
1.634 -0.280 1.257 16446
1.637 -0.280 1.252 21434
1.640 -0.281 1.247 20865
1.643 -0.281 1.242 19568
1.647 -0.282 1.237 21574
1.656 -0.284 1.236 25141
1.659 -0.284 1.231 25995
1.662 -0.285 1.226 23452
1.666 -0.285 1.221 19812
1.669 -0.286 1.216 12254
1.672 -0.286 1.211 8335
1.675 -0.287 1.206 5804
1.704 -0.292 1.218 6518
1.734 -0.297 1.229 14026
1.737 -0.298 1.224 21241
1.740 -0.298 1.219 24193
1.750 -0.300 1.218 26525
1.767 -0.303 1.220 23019
1.776 -0.304 1.219 20569
1.773 -0.304 1.210 20418
1.776 -0.304 1.205 15672
1.792 -0.307 1.207 10441
1.809 -0.310 1.210 11384
1.826 -0.313 1.212 11944
1.835 -0.314 1.210 13609
1.838 -0.315 1.205 13730
1.848 -0.317 1.203 12135
1.858 -0.318 1.202 11086
1.861 -0.319 1.196 12260
1.864 -0.319 1.190 13434
1.860 -0.319 1.181 12294
1.850 -0.317 1.168 12580
1.859 -0.318 1.166 13198
1.876 -0.321 1.168 14805
1.879 -0.322 1.162 15220
1.896 -0.325 1.164 15887
1.906 -0.326 1.162 17209
1.915 -0.328 1.160 15995
1.925 -0.330 1.158 15691
1.928 -0.330 1.152 12771
1.924 -0.330 1.143 9913
1.927 -0.330 1.137 7106
2.007 -0.344 1.170 6761
2.010 -0.344 1.164 8448
2.013 -0.345 1.158 10136
2.015 -0.345 1.152 12345
2.018 -0.346 1.146 14554
2.028 -0.347 1.143 13619
2.038 -0.349 1.140 13105
2.048 -0.351 1.138 9839
2.058 -0.352 1.135 6642
2.061 -0.353 1.129 6230
2.064 -0.353 1.123 5818
2.066 -0.354 1.116 5818
2.154 -0.369 1.150 6518
2.150 -0.368 1.140 9253
2.153 -0.369 1.133 11171
2.156 -0.369 1.127 13089
2.151 -0.368 1.117 10893
2.154 -0.369 1.111 8893
2.157 -0.369 1.104 8893
2.196 -0.376 1.114 6758
2.206 -0.378 1.110 7506
2.194 -0.376 1.097 8916
0.599 -0.105 1.533 3492
0.607 -0.106 1.538 2862
0.611 -0.106 1.536 3065
0.611 -0.107 1.527 5666
0.612 -0.107 1.518 8528
0.613 -0.107 1.509 10976
0.616 -0.108 1.507 13511
0.624 -0.109 1.512 11091
0.631 -0.110 1.518 9107
0.638 -0.111 1.523 9435
0.646 -0.113 1.528 7841
0.657 -0.115 1.540 6673
0.633 -0.110 1.481 8678
0.637 -0.111 1.479 13167
0.641 -0.112 1.478 15570
0.644 -0.112 1.476 18061
0.648 -0.113 1.474 15758
0.656 -0.114 1.479 13834
0.663 -0.116 1.484 10643
0.674 -0.118 1.496 7929
0.678 -0.118 1.494 9682
0.682 -0.119 1.491 11436
0.686 -0.120 1.489 13600
0.689 -0.120 1.487 15764
0.697 -0.122 1.492 14709
0.701 -0.122 1.490 13866
0.709 -0.124 1.495 11713
0.716 -0.125 1.500 9881
0.720 -0.126 1.497 9382
0.724 -0.126 1.495 8883
0.728 -0.127 1.493 8067
0.728 -0.127 1.484 8014
0.736 -0.128 1.489 11403
0.743 -0.130 1.493 13386
0.747 -0.130 1.491 12588
0.751 -0.131 1.489 12096
0.759 -0.132 1.493 11724
0.771 -0.134 1.504 13635
0.778 -0.136 1.509 17387
0.778 -0.136 1.500 20486
0.786 -0.137 1.504 22286
0.790 -0.138 1.502 21907
0.790 -0.138 1.493 18091
0.794 -0.138 1.490 10916
0.802 -0.140 1.494 7829
0.806 -0.141 1.492 7012
0.810 -0.141 1.490 6833
0.813 -0.142 1.487 10061
0.817 -0.143 1.485 15083
0.821 -0.143 1.482 17105
0.829 -0.145 1.486 16723
0.825 -0.144 1.470 20321
0.828 -0.144 1.468 24525
0.832 -0.145 1.465 27252
0.840 -0.147 1.470 27511
0.844 -0.147 1.467 24790
0.848 -0.148 1.464 25148
0.856 -0.149 1.468 27779
0.860 -0.150 1.466 30737
0.864 -0.151 1.463 33716
0.867 -0.151 1.461 33585
0.862 -0.150 1.445 23635
0.857 -0.149 1.429 18367
0.874 -0.152 1.446 19211
0.896 -0.156 1.469 23520
0.904 -0.158 1.473 29295
0.908 -0.158 1.470 28069
0.912 -0.159 1.468 16034
0.925 -0.161 1.478 10012
0.919 -0.160 1.462 11406
0.914 -0.159 1.446 17713
0.918 -0.160 1.444 25469
0.921 -0.161 1.441 24581
0.930 -0.162 1.444 22882
0.933 -0.163 1.442 36061
0.937 -0.163 1.439 46335
0.950 -0.166 1.449 43422
0.959 -0.167 1.452 36115
0.958 -0.167 1.443 25028
0.961 -0.168 1.440 20955
0.965 -0.168 1.437 23040
0.969 -0.169 1.434 26779
0.973 -0.170 1.431 26230
0.976 -0.170 1.428 20758
0.980 -0.171 1.425 12466
0.998 -0.174 1.441 15218
1.002 -0.175 1.438 24853
1.006 -0.175 1.435 24118
1.004 -0.175 1.426 14792
1.013 -0.177 1.429 14479
1.022 -0.178 1.432 23475
1.025 -0.179 1.429 25537
1.034 -0.180 1.432 17517
1.038 -0.181 1.428 12023
1.041 -0.182 1.425 11936
1.050 -0.183 1.428 11126
1.059 -0.185 1.431 14915
1.062 -0.185 1.428 19302
1.066 -0.186 1.425 15254
1.065 -0.186 1.415 13558
1.073 -0.187 1.418 20137
1.077 -0.188 1.415 24817
1.081 -0.188 1.412 22935
1.090 -0.190 1.414 18559
1.093 -0.191 1.411 26323
1.097 -0.191 1.408 36064
1.100 -0.192 1.404 30071
1.099 -0.192 1.395 17270
1.102 -0.192 1.392 8533
1.117 -0.195 1.400 10443
1.120 -0.195 1.397 14576
1.124 -0.196 1.393 11768
1.133 -0.198 1.396 10659
1.142 -0.199 1.398 14772
1.145 -0.200 1.395 17640
1.143 -0.199 1.385 12104
1.147 -0.200 1.382 9208
1.156 -0.202 1.384 12414
1.159 -0.202 1.381 12891
1.168 -0.204 1.383 15065
1.199 -0.209 1.408 18226
1.214 -0.212 1.415 14158
1.217 -0.212 1.412 14889
1.205 -0.210 1.391 17695
1.203 -0.210 1.382 13394
1.212 -0.211 1.384 10141
1.199 -0.209 1.364 8811
1.191 -0.208 1.349 22431
1.194 -0.208 1.345 28148
1.192 -0.208 1.336 24005
1.201 -0.209 1.338 27344
1.205 -0.210 1.334 25676
1.208 -0.211 1.331 17289
1.223 -0.213 1.338 9820
1.238 -0.216 1.345 7738
1.264 -0.220 1.363 8721
1.262 -0.220 1.354 14483
1.259 -0.220 1.345 15264
1.268 -0.221 1.346 14797
1.272 -0.222 1.342 11877
1.275 -0.222 1.339 12209
1.279 -0.223 1.335 13459
1.300 -0.227 1.347 14107
1.309 -0.228 1.348 20121
1.312 -0.229 1.344 27108
1.322 -0.230 1.345 31719
1.325 -0.231 1.341 29596
1.334 -0.233 1.343 23621
1.338 -0.233 1.339 17089
1.341 -0.234 1.334 17200
1.351 -0.236 1.336 26848
1.360 -0.237 1.337 34010
1.363 -0.238 1.333 29606
1.361 -0.237 1.323 28732
1.370 -0.239 1.324 36887
1.367 -0.238 1.315 32593
1.371 -0.239 1.311 34739
1.368 -0.239 1.302 40198
1.371 -0.239 1.298 35223
1.387 -0.242 1.304 44380
1.396 -0.244 1.304 46969
1.394 -0.243 1.295 33775
1.397 -0.244 1.291 25862
1.394 -0.243 1.282 18526
1.440 -0.251 1.312 10301
1.444 -0.252 1.308 13007
1.447 -0.252 1.303 14298
1.462 -0.255 1.309 16268
1.472 -0.257 1.309 19511
1.475 -0.257 1.305 19603
1.485 -0.259 1.305 14466
1.482 -0.258 1.296 10886
1.485 -0.259 1.291 15309
1.489 -0.260 1.287 23597
1.498 -0.261 1.287 30289
1.508 -0.263 1.287 29763
1.517 -0.265 1.287 22312
1.520 -0.265 1.283 12838
1.524 -0.266 1.278 10567
1.527 -0.266 1.274 13118
1.537 -0.268 1.274 13917
1.546 -0.270 1.274 10625
1.549 -0.270 1.269 7581
1.553 -0.271 1.264 8719
1.569 -0.274 1.269 10093
1.578 -0.275 1.268 11648
1.594 -0.278 1.273 13052
1.591 -0.277 1.263 13381
1.594 -0.278 1.259 18742
1.604 -0.280 1.258 21882
1.607 -0.280 1.253 17983
1.623 -0.283 1.257 17361
1.633 -0.285 1.257 19453
1.636 -0.285 1.252 21806
1.639 -0.286 1.247 19350
1.643 -0.286 1.242 18892
1.646 -0.287 1.237 22630
