0.245 1.262 1.678 9666
0.247 1.271 1.680 8761
0.250 1.286 1.688 12652
0.252 1.301 1.696 15784
0.262 1.351 1.746 18407
0.263 1.356 1.742 24120
0.264 1.360 1.738 27074
0.265 1.365 1.734 22447
0.266 1.369 1.729 12486
0.268 1.379 1.731 10991
0.270 1.389 1.733 13316
0.271 1.399 1.735 10405
0.276 1.424 1.754 9975
0.277 1.429 1.749 13643
0.278 1.433 1.745 16254
0.278 1.433 1.735 18164
0.279 1.437 1.731 18354
0.281 1.447 1.732 16214
0.283 1.457 1.733 13742
0.287 1.477 1.746 11351
0.290 1.493 1.753 16191
0.291 1.497 1.749 19811
0.293 1.507 1.750 19273
0.295 1.517 1.751 15228
0.295 1.522 1.746 15159
0.295 1.521 1.736 16462
0.296 1.526 1.732 16993
0.296 1.525 1.721 24443
0.296 1.524 1.711 21532
0.298 1.534 1.712 13468
0.299 1.538 1.707 18211
0.298 1.537 1.697 18886
0.299 1.541 1.693 10863
0.316 1.630 1.770 12625
0.317 1.634 1.766 14967
0.317 1.633 1.755 18644
0.318 1.638 1.750 15683
0.320 1.648 1.751 21264
0.321 1.653 1.746 34805
0.322 1.657 1.741 28854
0.324 1.668 1.741 21676
0.325 1.672 1.736 17546
0.324 1.671 1.726 8603
0.327 1.687 1.731 6334
0.331 1.703 1.737 8338
0.333 1.713 1.737 7116
0.304 1.567 1.595 5016
0.304 1.566 1.585 3260
0.344 1.774 1.763 3197
0.344 1.772 1.753 3892
0.346 1.783 1.753 3892
0.347 1.787 1.747 5636
0.349 1.798 1.747 7038
0.352 1.814 1.752 9325
0.354 1.825 1.752 10876
0.354 1.823 1.741 7131
0.312 1.608 1.547 5211
0.364 1.874 1.766 5433
0.365 1.879 1.760 6654
0.364 1.877 1.749 5585
0.366 1.888 1.749 3510
0.370 1.905 1.753 3803
0.373 1.921 1.757 6341
0.373 1.920 1.747 7816
0.375 1.931 1.746 5581
0.381 1.965 1.765 7683
0.380 1.958 1.749 9045
0.380 1.956 1.738 8031
0.383 1.973 1.742 9016
0.384 1.978 1.736 9364
0.385 1.982 1.730 6836
0.387 1.993 1.729 4538
0.394 2.028 1.747 3367
0.398 2.051 1.755 4400
0.400 2.062 1.754 5964
0.401 2.067 1.748 6084
0.403 2.078 1.746 4706
0.405 2.088 1.745 4419
0.407 2.099 1.743 5898
0.408 2.104 1.737 5085
0.339 1.744 1.460 4658
0.339 1.748 1.455 4818
0.340 1.752 1.449 4190
0.396 2.040 1.652 4186
0.397 2.044 1.645 4084
0.398 2.048 1.639 4112
0.398 2.053 1.633 3953
0.225 1.159 0.988 3559
0.224 1.155 0.980 4486
0.225 1.157 0.976 5203
0.225 1.159 0.973 4218
0.225 1.162 0.969 2589
0.226 1.164 0.966 2489
0.225 1.160 0.958 3315
0.224 1.156 0.950 3634
0.226 1.165 0.951 4712
0.228 1.173 0.951 7546
0.228 1.176 0.948 9389
0.230 1.184 0.949 9004
0.230 1.187 0.945 6746
0.468 2.411 1.743 6426
0.468 2.409 1.731 6728
0.232 1.193 0.934 5808
0.468 2.411 1.712 4533
0.489 2.521 1.773 4500
0.493 2.539 1.773 4814
0.495 2.550 1.770 6903
0.495 2.548 1.758 8246
0.497 2.560 1.755 8732
0.498 2.564 1.747 8520
0.492 2.536 1.719 8542
0.498 2.567 1.727 10107
0.500 2.578 1.724 12391
0.500 2.576 1.712 11746
0.502 2.587 1.708 9973
0.508 2.618 1.716 9936
0.512 2.636 1.717 7607
0.513 2.641 1.709 4668
0.516 2.659 1.709 3600
0.516 2.656 1.697 3875
0.516 2.661 1.689 4166
0.519 2.672 1.685 4126
0.519 2.676 1.677 4112
0.537 2.769 1.718 3902
0.538 2.774 1.710 6276
0.539 2.778 1.702 7371
0.539 2.776 1.690 6051
0.552 2.842 1.715 6333
0.551 2.839 1.703 6792
0.549 2.830 1.687 7903
0.551 2.841 1.682 7433
0.554 2.853 1.677 7099
0.556 2.864 1.672 7669
0.559 2.882 1.671 8772
0.560 2.886 1.662 6971
0.569 2.932 1.675 5732
0.573 2.950 1.673 4568
0.579 2.983 1.679 4223
0.589 3.036 1.694 4781
0.590 3.040 1.685 6786
0.588 3.031 1.669 8874
0.589 3.035 1.660 11467
0.590 3.039 1.651 11948
0.591 3.044 1.642 11963
0.593 3.055 1.636 11285
0.594 3.059 1.627 11304
0.595 3.063 1.618 9317
0.593 3.053 1.602 7745
0.595 3.065 1.596 7497
0.596 3.069 1.587 6817
0.598 3.080 1.581 6351
0.599 3.084 1.572 5397
0.601 3.095 1.566 4478
0.659 3.398 1.691 3898
0.659 3.395 1.678 4998
0.661 3.406 1.671 5086
0.662 3.411 1.661 5222
0.663 3.415 1.651 5222
0.664 3.419 1.640 2611
0.136 0.693 1.749 12635
0.137 0.698 1.747 12116
0.138 0.703 1.745 11598
0.139 0.707 1.742 11019
0.141 0.715 1.747 10461
0.141 0.720 1.745 10563
0.142 0.724 1.743 9215
0.144 0.732 1.748 7915
0.145 0.737 1.746 7653
0.146 0.741 1.743 7391
0.146 0.742 1.734 7227
0.147 0.750 1.739 7233
0.149 0.758 1.744 7462
0.149 0.759 1.734 5927
0.150 0.764 1.732 4411
0.152 0.772 1.737 4988
0.154 0.784 1.748 5979
0.155 0.788 1.746 8942
0.156 0.793 1.744 11906
0.157 0.797 1.741 13727
0.158 0.802 1.739 15548
0.159 0.807 1.736 14133
0.160 0.815 1.741 12848
0.162 0.823 1.745 11202
0.163 0.831 1.750 10373
0.164 0.836 1.747 10676
0.164 0.837 1.738 11282
0.165 0.841 1.735 11875
0.166 0.846 1.733 12468
0.167 0.850 1.730 12018
0.169 0.859 1.734 11841
0.170 0.863 1.732 15991
0.171 0.868 1.729 21219
0.172 0.876 1.733 23025
0.173 0.881 1.731 22777
0.174 0.885 1.728 21690
0.175 0.890 1.725 18984
0.176 0.894 1.722 16278
0.177 0.899 1.720 12281
0.178 0.903 1.717 11130
0.179 0.912 1.721 14058
0.180 0.916 1.718 14522
0.182 0.925 1.722 15142
0.183 0.929 1.719 12429
0.183 0.930 1.710 8757
0.183 0.930 1.700 8234
0.184 0.934 1.697 10465
0.185 0.943 1.701 12267
0.187 0.952 1.705 12344
0.189 0.960 1.709 11352
0.190 0.969 1.713 11689
0.191 0.973 1.710 14793
0.192 0.978 1.707 17053
0.193 0.982 1.704 15148
0.195 0.991 1.707 12783
0.196 0.996 1.704 23584
0.197 1.000 1.701 43129
0.198 1.009 1.705 53292
0.199 1.013 1.702 51917
0.200 1.018 1.699 38202
0.202 1.027 1.702 26841
0.203 1.035 1.705 26637
0.204 1.040 1.702 26910
0.205 1.044 1.699 21718
0.206 1.049 1.696 16399
0.207 1.053 1.693 16668
0.209 1.062 1.696 16225
0.210 1.067 1.693 13961
0.211 1.076 1.696 14642
0.212 1.080 1.693 18959
0.213 1.084 1.689 19900
0.213 1.084 1.680 18381
0.215 1.093 1.683 18989
0.217 1.102 1.686 21455
0.217 1.107 1.682 21252
0.220 1.120 1.692 17325
0.222 1.129 1.695 16159
0.225 1.143 1.704 19594
0.224 1.138 1.688 19351
0.226 1.147 1.691 18511
0.228 1.161 1.700 15038
0.233 1.185 1.721 11989
0.235 1.194 1.724 11459
0.237 1.204 1.726 11513
0.236 1.198 1.710 12805
0.234 1.193 1.694 14872
0.236 1.202 1.697 13005
0.240 1.222 1.712 14148
0.241 1.226 1.708 15978
0.242 1.230 1.704 14101
0.242 1.230 1.694 10673
0.243 1.234 1.691 11343
0.243 1.239 1.687 14461
0.245 1.248 1.689 12438
0.248 1.263 1.698 11359
0.248 1.262 1.688 10990
0.248 1.261 1.678 9206
0.250 1.271 1.680 9667
0.254 1.290 1.694 14472
0.254 1.295 1.690 18154
0.254 1.294 1.680 19803
0.266 1.355 1.742 22892
0.267 1.360 1.738 25447
0.268 1.364 1.734 21274
0.269 1.369 1.729 12461
0.271 1.378 1.731 10252
0.273 1.388 1.733 12009
0.275 1.398 1.735 9577
0.280 1.423 1.754 8501
0.281 1.428 1.749 11789
0.281 1.427 1.739 16195
0.281 1.432 1.735 20337
0.282 1.436 1.731 21334
0.284 1.446 1.732 17759
0.285 1.451 1.728 13940
0.289 1.471 1.740 10667
0.293 1.492 1.753 13983
0.294 1.497 1.749 17762
0.295 1.501 1.744 17792
0.298 1.517 1.751 14024
0.299 1.521 1.746 17636
0.299 1.520 1.736 18693
0.298 1.514 1.720 14887
0.298 1.518 1.716 22297
0.299 1.523 1.711 23148
0.301 1.533 1.712 15414
0.302 1.537 1.707 18615
0.302 1.536 1.697 21208
0.303 1.541 1.693 13032
0.319 1.623 1.765 10893
0.321 1.634 1.766 12240
0.321 1.633 1.755 14773
0.322 1.637 1.750 13418
0.323 1.642 1.745 20078
0.325 1.652 1.746 31665
0.326 1.657 1.741 25748
0.328 1.667 1.741 19222
0.328 1.671 1.736 15173
0.331 1.682 1.736 8980
0.334 1.698 1.742 10071
0.335 1.702 1.737 12284
0.337 1.713 1.737 9061
0.308 1.567 1.595 4064
0.342 1.739 1.742 3944
0.345 1.755 1.748 4629
0.347 1.766 1.748 4996
0.350 1.782 1.753 4648
0.351 1.787 1.747 6182
0.353 1.797 1.747 7103
0.356 1.813 1.752 9027
0.358 1.824 1.752 10620
0.358 1.823 1.741 6874
0.317 1.613 1.552 5100
0.367 1.867 1.761 4767
0.368 1.872 1.755 5827
0.368 1.871 1.744 4910
0.367 1.869 1.734 4177
0.368 1.874 1.728 5064
0.376 1.914 1.752 6673
0.377 1.919 1.747 8976
0.379 1.930 1.746 7016
0.384 1.952 1.755 6698
0.383 1.951 1.744 7390
0.327 1.663 1.503 7082
0.388 1.972 1.742 7846
0.389 1.977 1.736 7905
0.389 1.981 1.730 6159
0.391 1.992 1.729 4750
0.397 2.021 1.742 3525
0.403 2.050 1.755 4761
0.405 2.061 1.754 6663
0.407 2.072 1.753 6694
0.408 2.077 1.746 5115
0.339 1.726 1.471 4194
0.341 1.736 1.470 4871
0.343 1.746 1.470 4853
0.343 1.743 1.460 4761
0.343 1.747 1.455 4880
0.344 1.751 1.449 4352
0.401 2.039 1.652 4500
0.402 2.043 1.645 4439
0.402 2.047 1.639 4348
0.403 2.052 1.633 4083
0.405 2.062 1.631 3395
0.228 1.160 0.984 3701
0.229 1.163 0.981 4927
0.228 1.159 0.973 5296
0.227 1.155 0.965 4788
0.227 1.157 0.961 4609
0.228 1.159 0.958 5139
0.227 1.155 0.950 5340
0.229 1.164 0.951 5807
0.230 1.173 0.951 8804
0.231 1.175 0.948 11189
0.231 1.177 0.944 11134
0.232 1.180 0.941 8580
0.232 1.182 0.937 6991
0.234 1.191 0.938 7812
0.234 1.193 0.934 7474
0.235 1.195 0.931 5330
0.494 2.514 1.768 4729
0.385 1.958 1.405 4659
0.500 2.543 1.766 6082
0.501 2.547 1.758 7690
0.502 2.552 1.750 8640
0.502 2.556 1.743 9017
0.499 2.541 1.723 9806
0.503 2.559 1.723 10013
0.505 2.570 1.720 11358
0.506 2.575 1.712 10849
0.509 2.592 1.712 9865
0.513 2.610 1.712 10527
0.517 2.628 1.713 8019
0.519 2.639 1.709 5226
0.522 2.657 1.709 4325
0.522 2.655 1.697 3972
0.523 2.659 1.689 3627
0.524 2.664 1.681 3161
0.539 2.743 1.715 2817
0.544 2.768 1.718 3473
0.545 2.772 1.710 5320
0.546 2.777 1.702 6278
0.545 2.774 1.690 5255
0.560 2.847 1.719 5946
0.559 2.845 1.706 6524
0.555 2.822 1.683 7993
0.557 2.833 1.678 7537
0.562 2.858 1.681 7330
0.564 2.869 1.676 7996
0.566 2.881 1.671 9161
0.568 2.892 1.666 7296
0.575 2.924 1.672 5772
0.577 2.935 1.666 4334
0.587 2.988 1.682 4293
0.595 3.027 1.691 5542
0.597 3.039 1.685 7767
0.595 3.029 1.669 9879
0.596 3.034 1.660 12516
0.597 3.038 1.651 13124
0.598 3.042 1.642 13188
0.600 3.053 1.636 12577
0.601 3.058 1.627 12719
0.602 3.062 1.618 10626
0.601 3.059 1.605 8878
0.602 3.063 1.596 8473
0.603 3.067 1.587 7506
0.604 3.071 1.578 6943
0.606 3.083 1.572 5964
0.608 3.094 1.566 5010
0.666 3.389 1.688 4001
0.667 3.393 1.678 5111
0.668 3.398 1.668 5188
0.670 3.409 1.661 5327
0.671 3.414 1.651 5327
0.672 3.418 1.640 2663
0.137 0.690 1.742 13239
0.139 0.698 1.747 12671
0.140 0.702 1.745 12203
0.140 0.707 1.742 11533
0.142 0.715 1.747 10747
0.143 0.719 1.745 10728
0.144 0.724 1.743 9145
0.145 0.732 1.748 7675
0.146 0.736 1.746 7561
0.147 0.741 1.743 7448
0.148 0.745 1.741 7236
0.149 0.750 1.739 7250
0.151 0.758 1.744 7665
0.152 0.763 1.741 5987
0.152 0.767 1.739 4309
0.155 0.779 1.751 4778
0.156 0.783 1.748 5464
0.157 0.788 1.746 8509
0.158 0.792 1.744 11553
0.158 0.797 1.741 13520
0.159 0.802 1.739 15488
0.160 0.806 1.736 14305
0.161 0.811 1.734 13123
0.163 0.819 1.738 10494
0.166 0.835 1.757 8912
0.165 0.832 1.740 9758
0.166 0.836 1.738 10953
0.167 0.841 1.735 11776
0.168 0.845 1.733 12598
0.169 0.850 1.730 12107
0.171 0.858 1.734 11824
0.171 0.863 1.732 16238
0.172 0.867 1.729 21986
0.174 0.876 1.733 23908
0.175 0.880 1.731 23373
0.176 0.885 1.728 21973
0.177 0.889 1.725 18997
0.178 0.894 1.722 16021
0.179 0.898 1.720 11961
0.179 0.903 1.717 10316
0.181 0.911 1.721 12901
0.182 0.916 1.718 13502
0.184 0.924 1.722 14381
0.185 0.929 1.719 12096
0.185 0.929 1.710 8941
0.184 0.926 1.694 8602
0.186 0.934 1.697 10755
0.187 0.943 1.701 12477
0.189 0.951 1.705 12519
0.191 0.960 1.709 11180
0.193 0.969 1.713 10909
0.193 0.973 1.710 13521
0.194 0.978 1.707 15444
0.195 0.982 1.704 13504
0.197 0.991 1.707 11361
0.198 0.995 1.704 22310
0.200 1.004 1.708 42593
0.200 1.008 1.705 53371
0.201 1.013 1.702 52271
0.202 1.017 1.699 38478
0.204 1.026 1.702 25002
0.205 1.031 1.699 23438
0.207 1.039 1.702 23778
0.207 1.044 1.699 19300
0.208 1.048 1.696 14478
0.208 1.048 1.686 14865
0.210 1.057 1.690 14434
0.212 1.066 1.693 13403
0.213 1.071 1.690 15293
0.215 1.079 1.693 20196
0.215 1.084 1.689 21895
0.216 1.088 1.686 20940
0.217 1.093 1.683 20350
0.218 1.097 1.679 22035
0.220 1.106 1.682 22668
0.223 1.120 1.692 18452
0.223 1.124 1.688 16931
0.226 1.138 1.698 20442
0.226 1.138 1.688 20782
0.227 1.142 1.684 19731
0.230 1.156 1.693 15396
0.234 1.180 1.715 11899
0.237 1.194 1.724 11558
0.239 1.203 1.726 11508
0.237 1.193 1.704 13328
0.237 1.193 1.694 15385
0.239 1.202 1.697 12974
0.243 1.221 1.712 12710
0.244 1.226 1.708 14438
0.244 1.230 1.704 13518
0.244 1.229 1.694 11599
0.246 1.239 1.697 14255
0.246 1.238 1.687 16986
0.248 1.248 1.689 13681
0.251 1.262 1.698 12390
0.251 1.262 1.688 11388
0.251 1.261 1.678 9354
0.253 1.270 1.680 11068
0.256 1.290 1.694 17296
0.257 1.294 1.690 20454
0.257 1.294 1.680 20359
0.269 1.354 1.742 20933
0.270 1.359 1.738 23224
0.270 1.358 1.728 20000
0.271 1.363 1.724 12708
0.274 1.378 1.731 9471
0.276 1.388 1.733 10582
0.278 1.397 1.735 8793
0.282 1.418 1.748 7519
0.283 1.422 1.744 10305
0.284 1.427 1.739 15638
0.283 1.426 1.729 21747
0.285 1.436 1.731 23068
0.287 1.446 1.732 18461
0.288 1.450 1.728 13948
0.291 1.465 1.735 10230
0.295 1.486 1.747 11480
0.297 1.496 1.749 15283
0.298 1.501 1.744 15907
0.300 1.511 1.745 12794
0.301 1.515 1.741 20035
0.301 1.514 1.730 21423
0.301 1.513 1.720 13957
0.302 1.518 1.716 19967
0.301 1.517 1.706 23288
0.305 1.532 1.712 17045
0.305 1.537 1.707 19118
0.306 1.541 1.703 23006
0.307 1.546 1.698 15744
0.308 1.550 1.693 11711
0.307 1.543 1.678 10779
0.324 1.632 1.755 10821
0.325 1.637 1.750 11273
0.326 1.641 1.745 19307
0.328 1.651 1.746 28054
0.330 1.662 1.746 21905
0.331 1.666 1.741 17068
0.333 1.676 1.741 12973
0.335 1.687 1.742 8608
0.337 1.697 1.742 13241
0.338 1.702 1.737 17051
0.339 1.706 1.732 12436
0.341 1.716 1.732 5548
0.346 1.738 1.742 6465
0.348 1.749 1.742 7762
0.351 1.765 1.748 6822
0.353 1.775 1.748 5456
0.355 1.786 1.747 6374
0.357 1.796 1.747 6770
0.360 1.813 1.752 8552
0.362 1.823 1.752 10222
0.362 1.822 1.741 6575
0.321 1.613 1.552 4928
0.371 1.867 1.761 4294
0.372 1.871 1.755 5385
0.370 1.864 1.739 5267
0.370 1.862 1.729 5454
0.372 1.873 1.728 6537
0.380 1.914 1.752 6752
0.382 1.924 1.752 9779
0.383 1.929 1.746 8485
0.387 1.946 1.750 6209
0.331 1.664 1.513 7078
0.330 1.662 1.503 6848
0.392 1.971 1.742 6513
0.393 1.976 1.736 6348
0.394 1.981 1.730 5351
0.396 1.991 1.729 4780
0.402 2.020 1.742 3682
0.407 2.050 1.755 4959
0.410 2.060 1.754 6885
0.412 2.071 1.753 6880
0.413 2.076 1.746 5264
0.414 2.080 1.740 4293
0.345 1.735 1.470 4711
0.347 1.745 1.470 4841
0.346 1.743 1.460 4774
0.347 1.746 1.455 4739
0.404 2.034 1.658 4385
0.405 2.038 1.652 4786
0.406 2.042 1.645 4689
0.407 2.047 1.639 4409
0.408 2.051 1.633 4022
0.410 2.061 1.631 3468
0.411 2.066 1.625 2619
0.232 1.169 0.985 3205
0.232 1.165 0.977 4378
0.231 1.161 0.969 5492
0.231 1.163 0.966 5987
0.230 1.159 0.958 6481
0.231 1.161 0.954 6603
0.231 1.163 0.951 5858
0.233 1.172 0.951 8092
0.233 1.175 0.948 11501
0.234 1.177 0.944 12635
0.234 1.179 0.941 12062
0.235 1.181 0.937 12018
0.235 1.184 0.934 12587
0.236 1.186 0.930 12133
0.237 1.195 0.931 9566
0.388 1.953 1.411 6532
0.389 1.957 1.405 7650
0.390 1.961 1.399 7962
0.505 2.540 1.754 7405
0.507 2.551 1.750 8525
0.505 2.542 1.735 9615
0.505 2.540 1.723 10763
0.507 2.551 1.719 10388
0.509 2.562 1.716 10612
0.512 2.573 1.712 10058
0.515 2.591 1.712 9732
0.519 2.609 1.712 10476
0.522 2.627 1.713 7891
0.524 2.638 1.709 5535
0.525 2.643 1.701 4990
0.528 2.654 1.697 4194
0.527 2.652 1.685 3431
0.548 2.758 1.735 2759
0.549 2.762 1.727 2698
0.550 2.767 1.718 3006
0.547 2.751 1.699 4261
0.548 2.755 1.690 5341
0.551 2.773 1.690 4705
0.566 2.846 1.719 5049
0.560 2.816 1.692 6234
0.561 2.821 1.683 8042
0.562 2.825 1.675 7585
0.566 2.850 1.677 7304
0.570 2.868 1.676 7567
0.574 2.886 1.675 8570
0.575 2.891 1.666 6876
0.581 2.923 1.672 5586
0.594 2.989 1.695 4248
0.595 2.994 1.686 4632
0.601 3.026 1.691 6439
0.604 3.037 1.685 8719
0.603 3.035 1.673 10784
0.603 3.032 1.660 13336
0.604 3.037 1.651 13905
0.604 3.041 1.642 13893
0.607 3.052 1.636 13320
0.608 3.056 1.627 13560
0.608 3.061 1.618 11479
0.608 3.058 1.605 9702
0.609 3.062 1.596 9035
0.609 3.066 1.587 7786
0.610 3.070 1.578 7202
0.612 3.081 1.572 6257
0.613 3.085 1.563 5387
0.673 3.388 1.688 4056
0.674 3.392 1.678 5175
0.675 3.396 1.668 5365
0.677 3.408 1.661 5590
0.678 3.412 1.651 5590
0.679 3.416 1.640 2795
0.139 0.690 1.742 13627
0.140 0.697 1.747 12961
0.141 0.702 1.745 12522
0.142 0.706 1.742 11771
0.144 0.714 1.747 10711
0.145 0.719 1.745 10528
0.146 0.723 1.743 8707
0.147 0.731 1.748 7062
0.148 0.736 1.746 7084
0.149 0.741 1.743 7106
0.150 0.745 1.741 6917
0.152 0.753 1.746 7047
0.153 0.761 1.751 7583
0.154 0.766 1.748 6108
0.156 0.774 1.753 4661
0.157 0.778 1.751 4921
0.158 0.783 1.748 5180
0.159 0.788 1.746 8370
0.160 0.792 1.744 11560
0.160 0.797 1.741 13631
0.161 0.801 1.739 15702
0.162 0.806 1.736 14729
0.163 0.810 1.734 13757
0.165 0.819 1.738 10290
0.168 0.834 1.757 7653
0.167 0.831 1.740 8992
0.168 0.832 1.731 10635
0.169 0.837 1.728 11501
0.170 0.845 1.733 12398
0.171 0.849 1.730 11882
0.173 0.858 1.734 11498
0.174 0.862 1.732 16080
0.175 0.867 1.729 22286
0.176 0.871 1.726 24436
0.177 0.880 1.731 23512
0.178 0.884 1.728 21787
0.179 0.889 1.725 18555
0.180 0.893 1.722 15323
0.181 0.898 1.720 11305
0.182 0.902 1.717 9148
0.183 0.911 1.721 11295
0.185 0.919 1.725 12246
0.186 0.924 1.722 13457
0.187 0.928 1.719 11739
0.187 0.929 1.710 9256
0.186 0.925 1.694 9119
0.188 0.934 1.697 11076
0.190 0.942 1.701 12603
0.191 0.951 1.705 12596
0.193 0.959 1.709 11026
0.195 0.968 1.713 10108
0.196 0.973 1.710 12010
0.197 0.977 1.707 13503
0.198 0.981 1.704 11569
0.199 0.990 1.707 9695
0.200 0.995 1.704 20641
0.202 1.003 1.708 41633
0.203 1.008 1.705 53174
0.204 1.012 1.702 52209
0.205 1.017 1.699 38563
0.207 1.026 1.702 23406
0.207 1.030 1.699 20546
0.208 1.034 1.696 21320
0.210 1.043 1.699 17912
0.211 1.048 1.696 13572
0.211 1.048 1.686 14129
0.213 1.057 1.690 13346
0.214 1.061 1.686 12720
0.216 1.070 1.690 15519
0.217 1.079 1.693 21036
0.218 1.083 1.689 23650
0.219 1.088 1.686 23210
0.220 1.092 1.683 21285
0.221 1.097 1.679 21893
0.223 1.106 1.682 23108
0.225 1.119 1.692 18726
0.226 1.124 1.688 17181
0.229 1.138 1.698 20890
0.229 1.137 1.688 21918
0.230 1.142 1.684 20485
0.233 1.156 1.693 15369
0.237 1.179 1.715 11710
0.239 1.188 1.717 11648
0.241 1.198 1.720 11852
0.240 1.192 1.704 14666
0.241 1.197 1.700 16158
0.243 1.206 1.703 12701
0.246 1.220 1.712 11190
0.247 1.225 1.708 13006
0.248 1.229 1.704 12833
0.249 1.234 1.700 12861
0.249 1.238 1.697 17545
0.250 1.243 1.693 19287
0.251 1.247 1.689 14974
0.254 1.261 1.698 13516
0.254 1.261 1.688 11769
0.255 1.265 1.684 9026
0.257 1.275 1.686 11931
0.259 1.284 1.688 20193
0.261 1.294 1.690 23388
0.260 1.293 1.680 21751
0.262 1.303 1.682 20359
0.262 1.302 1.673 21981
0.264 1.311 1.674 18983
0.274 1.362 1.724 13067
0.276 1.372 1.725 8869
0.278 1.382 1.727 9479
0.281 1.397 1.735 8462
0.284 1.412 1.742 7283
0.286 1.421 1.744 9316
0.287 1.426 1.739 14757
0.287 1.425 1.729 22285
0.289 1.435 1.731 23695
0.291 1.445 1.732 18379
0.292 1.449 1.728 13808
0.294 1.459 1.729 9768
0.299 1.485 1.747 8955
0.301 1.495 1.749 12929
0.302 1.500 1.744 14105
0.304 1.510 1.745 12035
0.305 1.514 1.741 22141
0.305 1.514 1.730 23853
0.304 1.507 1.715 14000
0.304 1.512 1.710 18120
0.305 1.516 1.706 22077
0.308 1.532 1.712 17892
0.309 1.536 1.707 19208
0.310 1.540 1.703 23843
0.310 1.539 1.693 17722
0.312 1.549 1.693 12345
0.312 1.548 1.683 10114
0.329 1.631 1.755 7533
0.329 1.636 1.750 9026
0.330 1.640 1.745 18378
0.331 1.645 1.740 24792
0.335 1.661 1.746 18089
0.337 1.671 1.747 15547
0.339 1.681 1.747 12967
0.342 1.697 1.752 9116
0.342 1.696 1.742 13428
0.343 1.701 1.737 19423
0.343 1.705 1.732 15209
0.346 1.716 1.732 6606
0.350 1.738 1.742 8861
0.352 1.748 1.742 11471
0.354 1.758 1.742 8921
0.356 1.769 1.742 6326
0.360 1.785 1.747 6406
0.362 1.795 1.747 6189
0.365 1.812 1.752 7901
0.367 1.822 1.752 9590
0.367 1.821 1.741 6322
0.326 1.618 1.557 4731
0.375 1.860 1.756 3812
0.374 1.858 1.745 5751
0.375 1.863 1.739 7065
0.376 1.867 1.734 7200
0.377 1.872 1.728 7610
0.379 1.883 1.727 7385
0.387 1.923 1.752 10190
0.388 1.928 1.746 9767
0.390 1.938 1.745 6289
0.335 1.663 1.513 6708
0.336 1.667 1.508 6465
0.397 1.970 1.742 5053
0.397 1.969 1.731 4816
0.401 1.992 1.740 4593
0.401 1.990 1.729 4839
0.405 2.013 1.737 3859
0.413 2.049 1.755 4969
0.415 2.059 1.754 6817
0.417 2.070 1.753 6743
0.418 2.075 1.746 5181
0.418 2.073 1.735 4392
0.349 1.734 1.470 4636
0.351 1.744 1.470 4804
0.351 1.742 1.460 4559
0.428 2.122 1.733 4214
0.409 2.033 1.658 4531
0.410 2.037 1.652 4926
0.411 2.041 1.645 4827
0.412 2.045 1.639 4429
0.413 2.050 1.633 3896
0.415 2.060 1.631 3283
0.416 2.065 1.625 2337
0.442 2.197 1.709 2939
0.442 2.195 1.698 2802
0.235 1.166 0.974 4311
0.234 1.162 0.966 6169
0.235 1.165 0.962 7331
0.235 1.167 0.959 7815
0.236 1.169 0.955 6414
0.236 1.172 0.951 6609
0.238 1.180 0.952 10276
0.238 1.183 0.949 12992
0.239 1.185 0.945 14932
0.239 1.187 0.941 17377
0.240 1.190 0.938 17658
0.240 1.192 0.934 16881
0.241 1.194 0.931 14178
0.241 1.196 0.927 9195
0.393 1.949 1.401 10425
0.393 1.953 1.395 10180
0.394 1.957 1.389 7717
0.512 2.543 1.746 8078
0.512 2.541 1.735 9823
0.511 2.539 1.723 11244
0.514 2.550 1.719 10622
0.516 2.561 1.716 10261
0.518 2.572 1.712 9577
0.522 2.590 1.712 9605
0.525 2.608 1.712 10268
0.528 2.619 1.709 7604
0.531 2.637 1.709 6012
0.533 2.648 1.705 6111
0.534 2.653 1.697 4919
0.535 2.657 1.689 3726
0.555 2.756 1.735 2800
0.559 2.774 1.734 2750
0.558 2.772 1.722 2934
0.552 2.742 1.695 4730
0.555 2.754 1.690 6332
0.557 2.765 1.686 5513
0.559 2.776 1.681 4871
0.566 2.808 1.688 5357
0.566 2.812 1.679 6597
0.567 2.817 1.671 6461
0.570 2.828 1.666 6378
0.577 2.867 1.676 5740
0.581 2.885 1.675 6328
0.585 2.903 1.673 5184
0.588 2.921 1.672 4306
0.605 3.002 1.702 4342
0.604 2.999 1.689 5197
0.609 3.025 1.691 7087
0.610 3.029 1.682 9337
0.611 3.033 1.673 11309
0.610 3.031 1.660 13726
0.611 3.035 1.651 14247
0.612 3.039 1.642 14191
0.614 3.051 1.636 13660
0.617 3.062 1.631 14028
0.616 3.059 1.618 12030
0.616 3.056 1.605 10304
0.616 3.060 1.596 9365
0.617 3.064 1.587 7822
0.618 3.069 1.578 7218
0.620 3.080 1.572 6310
0.621 3.084 1.563 5529
0.682 3.386 1.688 4090
0.683 3.390 1.678 5175
0.684 3.395 1.668 5474
0.686 3.406 1.661 5795
0.687 3.410 1.651 5795
0.688 3.415 1.640 2897
0.140 0.689 1.742 13874
0.141 0.694 1.740 13298
0.142 0.702 1.745 12920
0.143 0.706 1.742 12125
0.144 0.711 1.740 10848
0.146 0.719 1.745 10500
0.147 0.723 1.743 8319
0.148 0.731 1.748 6280
0.149 0.736 1.746 6335
0.150 0.740 1.743 6391
0.151 0.745 1.741 6338
0.153 0.753 1.746 6774
0.154 0.761 1.751 7492
0.155 0.765 1.748 6375
0.157 0.774 1.753 5312
0.158 0.778 1.751 5153
0.158 0.779 1.741 5041
0.160 0.787 1.746 8379
0.161 0.792 1.744 11764
0.162 0.796 1.741 13834
0.163 0.801 1.739 15905
0.163 0.802 1.729 15138
0.164 0.806 1.727 14491
0.165 0.815 1.731 10441
0.168 0.827 1.743 7002
0.168 0.827 1.733 8732
0.169 0.832 1.731 10465
0.170 0.836 1.728 11333
0.171 0.841 1.726 12201
0.172 0.849 1.730 11551
0.174 0.858 1.734 11020
0.174 0.858 1.725 15706
0.176 0.867 1.729 22248
0.177 0.871 1.726 24696
0.178 0.880 1.731 23340
0.179 0.884 1.728 21333
0.180 0.889 1.725 17749
0.181 0.893 1.722 14165
0.182 0.898 1.720 10313
0.184 0.906 1.724 7944
0.185 0.911 1.721 9714
0.187 0.919 1.725 11195
0.187 0.924 1.722 12799
0.188 0.928 1.719 11560
0.188 0.929 1.710 9473
0.188 0.925 1.694 9211
0.189 0.933 1.697 11251
0.190 0.938 1.695 12954
0.192 0.946 1.698 13044
0.195 0.959 1.709 11122
0.196 0.968 1.713 9482
0.197 0.972 1.710 10658
0.198 0.977 1.707 11759
0.199 0.981 1.704 10033
0.201 0.990 1.707 8469
0.202 0.994 1.704 19365
0.203 0.999 1.701 41055
0.204 1.008 1.705 53147
0.205 1.012 1.702 52198
0.206 1.016 1.699 38505
0.207 1.021 1.695 21596
0.209 1.030 1.699 16847
0.210 1.034 1.696 18101
0.211 1.039 1.693 16131
0.212 1.043 1.689 12876
0.213 1.047 1.686 13561
0.213 1.052 1.683 12619
0.215 1.061 1.686 12123
0.217 1.070 1.690 15294
0.219 1.079 1.693 21057
0.220 1.083 1.689 24379
0.221 1.087 1.686 24659
0.222 1.092 1.683 21841
0.222 1.096 1.679 21659
0.225 1.110 1.689 23420
0.227 1.119 1.692 18658
0.228 1.123 1.688 17096
0.230 1.132 1.691 21188
0.231 1.137 1.688 23228
0.232 1.141 1.684 21808
0.234 1.155 1.693 15970
0.238 1.174 1.709 11588
0.241 1.188 1.717 11685
0.242 1.192 1.714 12573
0.242 1.192 1.704 16340
0.243 1.197 1.700 17117
0.245 1.206 1.703 12380
0.248 1.220 1.712 10063
0.249 1.225 1.708 11906
0.248 1.224 1.698 11890
0.249 1.228 1.694 14161
0.251 1.238 1.697 21390
0.251 1.237 1.687 21668
0.254 1.252 1.695 15234
0.256 1.261 1.698 14154
0.256 1.261 1.688 12566
0.257 1.265 1.684 9020
0.259 1.274 1.686 13401
0.261 1.284 1.688 23403
0.262 1.293 1.690 26533
0.262 1.293 1.680 23667
0.263 1.297 1.676 22510
0.265 1.307 1.678 24388
0.266 1.311 1.674 20613
0.275 1.357 1.718 13566
0.278 1.372 1.725 8608
0.279 1.376 1.721 9086
0.281 1.386 1.723 9033
0.284 1.401 1.730 8311
0.286 1.410 1.732 9238
0.288 1.420 1.733 13993
0.289 1.425 1.729 22106
0.291 1.435 1.731 23464
0.293 1.444 1.732 17848
0.294 1.449 1.728 13770
0.296 1.459 1.729 9279
0.302 1.490 1.753 6476
0.303 1.495 1.749 10509
0.304 1.499 1.744 12300
0.304 1.499 1.734 12161
0.307 1.514 1.741 23746
0.308 1.519 1.736 25199
0.306 1.507 1.715 14662
0.307 1.511 1.710 16856
0.308 1.516 1.706 19739
0.311 1.531 1.712 17418
0.312 1.536 1.707 18608
0.313 1.540 1.703 23614
0.313 1.544 1.698 18287
0.315 1.554 1.699 11899
0.316 1.559 1.694 9171
0.315 1.552 1.679 6020
0.333 1.641 1.756 6810
0.332 1.634 1.740 17449
0.334 1.644 1.740 22120
0.337 1.660 1.746 14418
0.339 1.671 1.747 14280
0.341 1.681 1.747 14726
0.344 1.697 1.752 10446
0.345 1.701 1.747 12812
0.345 1.700 1.737 19562
0.346 1.705 1.732 16281
0.350 1.727 1.742 7425
0.354 1.743 1.748 11377
0.355 1.747 1.742 14954
0.357 1.758 1.742 10858
0.358 1.762 1.737 7335
0.360 1.773 1.737 6766
0.364 1.795 1.747 5477
0.368 1.811 1.752 6983
0.370 1.822 1.752 8609
0.369 1.820 1.741 5973
0.329 1.623 1.562 4467
0.376 1.853 1.750 3530
0.376 1.852 1.740 7041
0.377 1.856 1.734 9542
0.379 1.867 1.734 9393
0.379 1.865 1.723 8404
0.382 1.882 1.727 7632
0.390 1.923 1.752 10417
0.391 1.927 1.746 10926
0.392 1.932 1.740 6865
0.337 1.663 1.513 5968
0.338 1.667 1.508 5748
0.339 1.671 1.503 3981
0.402 1.980 1.741 3359
0.404 1.991 1.740 4011
0.404 1.990 1.729 4718
0.408 2.013 1.737 4060
0.416 2.048 1.755 4852
0.418 2.059 1.754 6521
0.420 2.070 1.753 6375
0.421 2.074 1.746 4914
0.421 2.072 1.735 4371
0.353 1.740 1.475 4462
0.354 1.744 1.470 4549
0.353 1.741 1.460 4106
0.432 2.128 1.738 3992
0.412 2.032 1.658 4343
0.413 2.036 1.652 4738
0.414 2.041 1.645 4565
0.415 2.045 1.639 4011
0.440 2.170 1.720 3481
0.418 2.060 1.631 2857
0.445 2.191 1.716 2544
0.446 2.196 1.709 3412
0.447 2.200 1.702 2982
0.237 1.166 0.974 2974
0.237 1.168 0.970 5556
0.238 1.171 0.966 7263
0.238 1.173 0.963 8598
0.237 1.169 0.955 9085
0.238 1.171 0.951 7943
0.239 1.180 0.952 8590
0.240 1.182 0.949 10486
0.240 1.185 0.945 14092
0.241 1.187 0.941 18863
0.243 1.196 0.942 19713
0.243 1.198 0.938 18866
0.244 1.200 0.935 16204
0.244 1.203 0.931 11087
0.396 1.949 1.401 10883
0.396 1.952 1.395 10626
0.397 1.956 1.389 8032
0.515 2.535 1.742 7510
0.515 2.540 1.735 9800
0.515 2.538 1.723 11742
0.517 2.549 1.719 10983
0.518 2.554 1.712 10265
0.520 2.565 1.708 9307
0.525 2.589 1.712 9487
0.528 2.600 1.708 10128
0.531 2.618 1.709 7413
0.536 2.643 1.713 6217
0.537 2.647 1.705 6658
0.538 2.652 1.697 5214
0.539 2.656 1.689 3771
0.540 2.661 1.681 3171
0.539 2.658 1.669 2589
0.542 2.669 1.665 2992
0.556 2.742 1.695 4435
0.557 2.746 1.687 6152
0.560 2.757 1.682 5575
0.562 2.768 1.678 5144
0.566 2.787 1.677 4789
0.569 2.805 1.676 5116
0.571 2.816 1.671 5474
0.575 2.834 1.670 5966
0.576 2.838 1.661 5246
0.584 2.877 1.671 4730
0.589 2.902 1.673 3786
0.608 2.996 1.711 3125
0.609 3.001 1.702 4510
0.610 3.005 1.693 5895
0.614 3.024 1.691 7638
0.615 3.028 1.682 9723
0.615 3.032 1.673 11273
0.615 3.030 1.660 13194
0.616 3.034 1.651 13653
0.617 3.038 1.642 13597
0.619 3.050 1.636 13299
0.621 3.061 1.631 13988
0.621 3.058 1.618 12183
0.620 3.055 1.605 10640
0.621 3.059 1.596 9439
0.620 3.057 1.584 7634
0.623 3.068 1.578 7026
0.625 3.079 1.572 6192
0.627 3.090 1.566 5530
0.687 3.385 1.688 4060
0.686 3.382 1.675 5128
0.689 3.394 1.668 5573
0.690 3.398 1.658 6027
0.690 3.402 1.647 6027
0.691 3.406 1.637 3013
0.142 0.689 1.742 14145
0.143 0.693 1.740 13620
0.145 0.701 1.745 13218
0.146 0.706 1.742 12411
0.146 0.710 1.740 11023
0.148 0.718 1.745 10474
0.149 0.723 1.743 8000
0.151 0.731 1.748 5572
0.152 0.735 1.746 5612
0.153 0.740 1.743 5652
0.154 0.748 1.748 5925
0.156 0.756 1.753 6848
0.157 0.760 1.751 7600
0.158 0.765 1.748 6881
0.159 0.770 1.746 6162
0.160 0.774 1.744 5725
0.160 0.775 1.734 5347
0.162 0.783 1.739 8582
0.163 0.791 1.744 12090
0.164 0.796 1.741 14026
0.165 0.800 1.739 15962
0.165 0.801 1.729 15485
0.166 0.806 1.727 15031
0.168 0.814 1.731 10708
0.170 0.822 1.736 6983
0.170 0.827 1.733 8675
0.171 0.828 1.724 10518
0.172 0.836 1.728 11183
0.173 0.840 1.726 11999
0.175 0.849 1.730 11148
0.177 0.857 1.734 10456
0.177 0.858 1.725 15177
0.179 0.866 1.729 21888
0.180 0.871 1.726 24584
0.181 0.879 1.731 22897
0.182 0.883 1.728 20701
0.183 0.888 1.725 16724
0.184 0.893 1.722 12748
0.185 0.897 1.720 9135
0.187 0.905 1.724 6970
0.188 0.910 1.721 8603
0.189 0.919 1.725 10480
0.190 0.923 1.722 12446
0.191 0.928 1.719 11502
0.191 0.928 1.710 9615
0.191 0.924 1.694 9270
0.192 0.933 1.697 11327
0.193 0.937 1.695 13186
0.195 0.946 1.698 13286
0.198 0.959 1.709 10995
0.199 0.967 1.713 8763
0.200 0.972 1.710 9364
0.201 0.976 1.707 10098
0.202 0.981 1.704 8673
0.204 0.989 1.707 7418
0.205 0.994 1.704 18169
0.206 0.998 1.701 40345
0.208 1.007 1.705 52828
0.209 1.011 1.702 52108
0.209 1.016 1.699 38838
0.210 1.020 1.695 20508
0.211 1.025 1.692 13970
0.213 1.033 1.696 15513
0.215 1.042 1.699 14667
0.216 1.047 1.696 12120
0.216 1.047 1.686 12726
0.217 1.051 1.683 11800
0.219 1.060 1.686 11292
0.220 1.069 1.690 14433
0.222 1.078 1.693 20171
0.223 1.082 1.689 24039
0.224 1.087 1.686 25161
0.225 1.091 1.683 22042
0.227 1.100 1.686 21550
0.229 1.109 1.689 23793
0.230 1.114 1.685 18457
0.231 1.123 1.688 16838
0.233 1.132 1.691 21325
0.234 1.136 1.688 24167
0.235 1.141 1.684 23164
0.238 1.154 1.693 16907
0.241 1.168 1.702 11674
0.244 1.182 1.711 11561
0.245 1.187 1.708 13525
0.245 1.187 1.698 18246
0.247 1.196 1.700 18101
0.248 1.205 1.703 12113
0.250 1.214 1.705 9790
0.251 1.219 1.702 11855
0.252 1.223 1.698 11120
0.253 1.228 1.694 15264
0.254 1.232 1.691 24784
0.255 1.237 1.687 23858
0.257 1.246 1.689 15203
0.260 1.260 1.698 14062
0.260 1.260 1.688 12939
0.261 1.264 1.684 8978
0.263 1.274 1.686 14689
0.265 1.283 1.688 25761
0.267 1.292 1.690 28925
0.266 1.292 1.680 25382
0.267 1.296 1.676 24228
0.269 1.306 1.678 25540
0.271 1.315 1.680 20803
0.279 1.351 1.712 13966
0.282 1.365 1.719 8650
0.282 1.370 1.715 9591
0.284 1.380 1.717 10369
0.288 1.395 1.725 10180
0.290 1.404 1.726 10570
0.293 1.419 1.733 13443
0.294 1.424 1.729 21139
0.296 1.434 1.731 22316
0.297 1.438 1.726 16968
0.299 1.448 1.728 13596
0.301 1.458 1.729 8986
0.308 1.495 1.759 4906
0.308 1.494 1.749 8415
0.309 1.498 1.744 10781
0.310 1.503 1.740 12390
0.312 1.513 1.741 24382
0.313 1.518 1.736 25177
0.310 1.506 1.715 15058
0.311 1.510 1.710 15775
0.312 1.515 1.706 16779
0.316 1.530 1.712 15332
0.318 1.540 1.713 17260
0.317 1.539 1.703 22631
0.318 1.543 1.698 17811
0.320 1.553 1.699 11112
0.322 1.563 1.700 9115
0.321 1.557 1.684 6968
0.324 1.572 1.690 6834
0.336 1.628 1.734 17432
0.338 1.638 1.735 20002
0.342 1.659 1.746 11524
0.345 1.675 1.752 14333
0.346 1.680 1.747 16908
0.349 1.690 1.747 12104
0.349 1.695 1.742 13467
0.350 1.699 1.737 20401
0.351 1.704 1.732 17390
0.358 1.737 1.753 8525
0.359 1.742 1.748 13474
0.360 1.746 1.742 17755
0.362 1.757 1.742 12402
0.362 1.755 1.732 8184
0.364 1.766 1.732 7412
0.369 1.788 1.742 4857
0.373 1.810 1.752 6096
0.375 1.821 1.752 7550
0.376 1.825 1.746 5551
0.335 1.622 1.562 4003
0.381 1.846 1.745 3918
0.380 1.845 1.735 8546
0.383 1.855 1.734 11786
0.383 1.860 1.729 11013
0.384 1.864 1.723 8642
0.388 1.881 1.727 7326
0.395 1.915 1.747 10400
0.396 1.920 1.741 11634
0.397 1.925 1.735 7688
0.343 1.662 1.513 5024
0.343 1.666 1.508 4849
0.344 1.670 1.503 3418
0.367 1.777 1.580 3135
0.412 1.996 1.745 3772
0.410 1.988 1.729 4577
0.415 2.011 1.737 4208
0.419 2.034 1.746 4542
0.424 2.057 1.754 5931
0.426 2.068 1.753 5874
0.427 2.073 1.746 4623
0.427 2.071 1.735 4201
0.359 1.739 1.475 4341
0.359 1.743 1.470 4416
0.359 1.740 1.460 3848
0.373 1.807 1.501 3811
0.419 2.031 1.658 4161
0.420 2.035 1.652 4561
0.444 2.153 1.728 4316
0.421 2.044 1.639 3650
0.447 2.168 1.720 3096
0.451 2.186 1.722 2566
0.453 2.196 1.720 3419
0.453 2.194 1.709 4714
0.453 2.199 1.702 3721
0.240 1.165 0.974 2815
0.241 1.168 0.970 5147
0.241 1.170 0.966 7104
0.242 1.172 0.963 8843
0.242 1.175 0.959 10072
0.244 1.184 0.960 9263
0.245 1.186 0.957 7740
0.245 1.188 0.953 7200
0.245 1.190 0.949 11110
0.246 1.193 0.946 16882
0.246 1.195 0.942 18173
0.248 1.204 0.943 17338
0.249 1.206 0.939 14823
0.249 1.208 0.935 10033
0.402 1.948 1.401 9329
0.402 1.951 1.395 8971
0.519 2.516 1.741 7213
0.521 2.527 1.738 7140
0.523 2.538 1.735 9722
0.524 2.543 1.727 12299
0.525 2.547 1.719 11474
0.526 2.552 1.712 10648
0.529 2.563 1.708 9236
0.534 2.588 1.712 9324
0.536 2.599 1.708 10015
0.538 2.610 1.705 7397
0.546 2.648 1.717 6239
0.547 2.652 1.709 6742
0.548 2.657 1.701 5342
0.549 2.661 1.693 3943
0.550 2.666 1.685 4204
0.551 2.670 1.677 4466
0.550 2.668 1.665 4486
0.565 2.740 1.695 4025
0.566 2.744 1.687 5795
0.568 2.756 1.682 5643
0.569 2.760 1.674 5497
0.571 2.771 1.669 4911
0.574 2.782 1.665 4398
0.580 2.814 1.671 4506
0.583 2.825 1.666 5102
0.583 2.830 1.658 4946
0.584 2.834 1.649 4790
0.256 1.243 0.808 5713
0.255 1.238 0.801 6400
0.256 1.240 0.797 6792
0.619 3.003 1.693 7272
0.622 3.015 1.687 8783
0.624 3.026 1.682 10571
0.623 3.024 1.669 11473
0.624 3.028 1.660 12532
0.625 3.032 1.651 12842
0.626 3.036 1.642 12700
0.628 3.048 1.636 12640
0.631 3.059 1.631 13649
0.630 3.056 1.618 12062
0.630 3.053 1.605 10707
0.630 3.057 1.596 9149
0.630 3.055 1.584 7078
0.631 3.059 1.575 6415
0.634 3.077 1.572 5628
0.637 3.088 1.566 5106
0.698 3.383 1.688 3920
0.698 3.387 1.678 4948
0.699 3.391 1.668 5654
0.702 3.403 1.661 6375
0.703 3.407 1.651 6375
0.703 3.411 1.640 3187
0.143 0.689 1.742 14456
0.144 0.693 1.740 13875
0.146 0.701 1.745 13341
0.147 0.706 1.742 12483
0.148 0.710 1.740 10899
0.148 0.715 1.738 10171
0.150 0.723 1.743 7504
0.151 0.727 1.741 4880
0.153 0.735 1.746 4993
0.154 0.740 1.743 5131
0.155 0.744 1.741 5873
0.157 0.756 1.753 7170
0.158 0.760 1.751 7943
0.159 0.765 1.748 7477
0.159 0.766 1.739 7040
0.160 0.770 1.737 6524
0.161 0.775 1.734 6009
0.163 0.783 1.739 9047
0.164 0.791 1.744 12503
0.165 0.796 1.741 14263
0.165 0.797 1.732 16071
0.166 0.801 1.729 15791
0.167 0.806 1.727 15512
0.169 0.814 1.731 11016
0.171 0.822 1.736 7111
0.171 0.823 1.726 8760
0.172 0.827 1.724 10488
0.174 0.836 1.728 10928
0.175 0.840 1.726 11680
0.176 0.848 1.730 10689
0.177 0.853 1.727 9893
0.178 0.857 1.725 14608
0.179 0.862 1.722 21517
0.181 0.870 1.726 24341
0.182 0.875 1.724 22405
0.183 0.883 1.728 20039
0.184 0.888 1.725 15718
0.185 0.892 1.722 11397
0.186 0.897 1.720 8004
0.188 0.905 1.724 6162
0.189 0.910 1.721 7767
0.191 0.918 1.725 9934
0.192 0.923 1.722 12222
0.193 0.927 1.719 11567
0.192 0.924 1.703 10106
0.192 0.924 1.694 9768
0.194 0.932 1.697 11630
0.195 0.937 1.695 13216
0.196 0.945 1.698 13154
0.198 0.954 1.702 10645
0.201 0.967 1.713 8032
0.202 0.971 1.710 8383
0.203 0.976 1.707 8889
0.204 0.980 1.704 7697
0.205 0.989 1.707 6604
0.206 0.993 1.704 16962
0.207 0.998 1.701 39225
0.209 1.007 1.705 51974
0.209 1.007 1.695 51821
0.211 1.016 1.699 39433
0.212 1.020 1.695 20383
0.213 1.024 1.692 12546
0.215 1.033 1.696 14109
0.216 1.042 1.699 13762
0.217 1.046 1.696 10946
0.217 1.046 1.686 10841
0.218 1.051 1.683 10219
0.220 1.060 1.686 9847
0.222 1.069 1.690 12600
0.224 1.078 1.693 18720
0.225 1.082 1.689 23496
0.226 1.086 1.686 25467
0.227 1.091 1.683 22128
0.228 1.100 1.686 21302
0.230 1.109 1.689 23535
0.231 1.113 1.685 17877
0.233 1.122 1.688 16316
0.235 1.131 1.691 20972
0.236 1.136 1.688 24489
0.237 1.140 1.684 24131
0.240 1.154 1.693 17889
0.243 1.168 1.702 11984
0.246 1.182 1.711 11394
0.246 1.187 1.708 14375
0.246 1.186 1.698 20089
0.248 1.195 1.700 19026
0.250 1.205 1.703 12470
0.252 1.214 1.705 10912
0.253 1.218 1.702 12668
0.254 1.223 1.698 10520
0.255 1.227 1.694 16108
0.256 1.232 1.691 27362
0.257 1.236 1.687 25298
0.259 1.246 1.689 15113
0.262 1.260 1.698 13807
0.262 1.259 1.688 13230
0.261 1.259 1.678 9469
0.263 1.268 1.680 15939
0.266 1.283 1.688 27161
0.268 1.292 1.690 30266
0.268 1.291 1.680 26076
0.270 1.301 1.682 24968
0.271 1.305 1.678 26251
0.273 1.315 1.680 21054
0.279 1.345 1.706 14152
0.284 1.365 1.719 8791
0.285 1.370 1.715 10659
0.287 1.379 1.717 12060
0.289 1.389 1.719 12059
0.291 1.399 1.720 12339
0.294 1.414 1.728 13325
0.296 1.423 1.729 19795
0.297 1.428 1.725 20725
0.299 1.438 1.726 15917
0.301 1.448 1.728 13060
0.303 1.458 1.729 9166
0.303 1.457 1.719 5103
0.300 1.445 1.697 7353
0.298 1.433 1.676 9665
0.312 1.503 1.740 12232
0.314 1.513 1.741 23668
0.315 1.517 1.736 24007
0.314 1.511 1.720 15055
0.314 1.510 1.710 14487
0.315 1.514 1.706 13650
0.319 1.535 1.718 13423
0.320 1.540 1.713 15676
0.321 1.544 1.708 20305
0.321 1.543 1.698 16128
0.324 1.559 1.704 10210
0.326 1.569 1.705 9951
0.324 1.562 1.690 8681
0.328 1.577 1.696 8551
0.338 1.627 1.734 17654
0.339 1.632 1.729 18494
0.343 1.653 1.741 9967
0.348 1.675 1.752 14778
0.349 1.679 1.747 19021
0.350 1.684 1.742 13333
0.352 1.694 1.742 13726
0.353 1.699 1.737 21341
0.354 1.703 1.732 19183
0.360 1.731 1.748 9242
0.362 1.741 1.748 14645
0.363 1.746 1.742 19784
0.365 1.756 1.742 13566
0.365 1.755 1.732 8925
0.367 1.765 1.732 8132
0.369 1.776 1.732 4478
0.377 1.815 1.757 5254
0.378 1.820 1.752 6459
0.380 1.830 1.751 5185
0.338 1.628 1.567 3483
0.382 1.840 1.740 5240
0.383 1.844 1.735 10307
0.385 1.855 1.734 13563
0.386 1.859 1.729 11750
0.387 1.864 1.723 8314
0.389 1.874 1.722 6793
0.398 1.915 1.747 10227
0.399 1.919 1.741 11906
0.400 1.924 1.735 8260
0.401 1.928 1.729 4099
0.346 1.665 1.508 4013
0.348 1.675 1.507 2974
0.370 1.783 1.585 3258
0.415 1.995 1.745 3894
0.413 1.988 1.729 4602
0.418 2.011 1.737 4373
0.421 2.028 1.741 4435
0.426 2.051 1.749 5234
0.430 2.068 1.753 5292
0.430 2.072 1.746 4344
0.430 2.070 1.735 3971
0.368 1.769 1.499 4599
0.371 1.786 1.503 4858
0.374 1.802 1.507 4646
0.375 1.806 1.501 4671
0.376 1.810 1.496 4084
0.446 2.148 1.735 4385
0.447 2.152 1.728 3894
0.424 2.043 1.639 3076
0.452 2.174 1.724 2279
0.455 2.191 1.727 2693
0.456 2.196 1.720 4393
0.456 2.194 1.709 5477
0.457 2.198 1.702 4078
0.242 1.165 0.974 3362
0.244 1.174 0.974 5250
0.244 1.176 0.971 7114
0.245 1.178 0.967 8793
0.245 1.181 0.964 9719
0.247 1.190 0.965 9348
0.248 1.192 0.961 8275
0.248 1.194 0.957 7584
0.247 1.190 0.949 9017
0.248 1.192 0.946 12008
0.250 1.201 0.946 13575
0.251 1.210 0.947 12859
0.252 1.212 0.943 10787
0.252 1.215 0.940 7223
0.404 1.947 1.401 7497
0.520 2.504 1.745 7414
0.521 2.509 1.737 7448
0.523 2.520 1.734 7004
0.527 2.538 1.735 9749
0.528 2.542 1.727 12635
0.529 2.547 1.719 11676
0.530 2.551 1.712 10718
0.532 2.562 1.708 8947
0.539 2.593 1.716 8918
0.540 2.598 1.708 9528
0.541 2.602 1.701 7196
0.550 2.647 1.717 6458
0.551 2.652 1.709 7307
0.552 2.656 1.701 6005
0.553 2.660 1.693 4704
0.554 2.665 1.685 5584
0.556 2.676 1.680 6494
0.555 2.674 1.669 6174
0.555 2.671 1.657 4955
0.570 2.743 1.687 4910
0.569 2.741 1.675 5186
0.570 2.745 1.666 5500
0.571 2.750 1.658 5003
0.574 2.761 1.653 4512
0.584 2.813 1.671 4018
0.587 2.824 1.666 4447
0.257 1.239 0.816 5545
0.258 1.241 0.812 8004
0.258 1.243 0.808 9495
0.259 1.245 0.804 9626
0.259 1.247 0.801 9611
0.624 3.002 1.693 7986
0.626 3.014 1.687 9422
0.628 3.025 1.682 11071
0.628 3.023 1.669 11518
0.629 3.027 1.660 11987
0.630 3.031 1.651 11949
0.629 3.029 1.639 11660
0.633 3.047 1.636 11752
0.635 3.058 1.631 13058
0.635 3.055 1.618 11641
0.636 3.059 1.609 10523
0.635 3.057 1.596 8704
0.634 3.054 1.584 6494
0.635 3.058 1.575 5832
0.639 3.076 1.572 5062
0.641 3.087 1.566 4637
0.702 3.382 1.688 3735
0.703 3.386 1.678 4699
0.704 3.390 1.668 5572
0.707 3.402 1.661 6496
0.708 3.406 1.651 6496
0.708 3.410 1.640 3248
0.145 0.688 1.742 15027
0.146 0.693 1.740 14295
0.147 0.697 1.737 13563
0.149 0.705 1.742 12593
0.150 0.710 1.740 10755
0.151 0.714 1.738 9859
0.152 0.719 1.736 7060
0.153 0.727 1.741 4344
0.155 0.735 1.746 4559
0.157 0.742 1.751 4875
0.157 0.744 1.741 6143
0.159 0.752 1.746 7855
0.160 0.760 1.751 8543
0.161 0.761 1.741 8354
0.162 0.765 1.739 8291
0.162 0.766 1.730 7495
0.163 0.771 1.727 6738
0.164 0.779 1.732 9407
0.166 0.787 1.737 12705
0.167 0.792 1.734 14324
0.168 0.796 1.732 15942
0.169 0.801 1.729 15829
0.169 0.801 1.720 15821
0.171 0.810 1.724 11335
0.173 0.818 1.729 7345
0.174 0.822 1.726 8910
0.175 0.827 1.724 10474
0.175 0.831 1.721 10713
0.177 0.840 1.726 11219
0.178 0.844 1.723 10171
0.179 0.849 1.720 9324
0.181 0.857 1.725 13929
0.182 0.861 1.722 20955
0.184 0.870 1.726 23815
0.185 0.874 1.724 21772
0.186 0.879 1.721 19240
0.187 0.887 1.725 14490
0.188 0.892 1.722 9898
0.189 0.896 1.720 6731
0.191 0.905 1.724 5448
0.192 0.909 1.721 7238
0.193 0.914 1.718 9757
0.194 0.918 1.715 12276
0.195 0.923 1.713 11962
0.195 0.923 1.703 10866
0.195 0.923 1.694 10477
0.197 0.932 1.697 11990
0.198 0.936 1.695 12900
0.199 0.945 1.698 12503
0.201 0.953 1.702 9942
0.203 0.962 1.706 7259
0.205 0.971 1.710 7670
0.206 0.975 1.707 8066
0.207 0.980 1.704 6985
0.208 0.984 1.701 6009
0.210 0.993 1.704 15625
0.211 0.997 1.701 37652
0.211 1.002 1.698 50502
0.212 1.006 1.695 51096
0.213 1.010 1.692 39918
0.215 1.019 1.695 20805
0.217 1.028 1.699 12494
0.219 1.037 1.702 14069
0.220 1.041 1.699 13652
0.221 1.046 1.696 10016
0.220 1.041 1.680 9107
0.221 1.046 1.677 8589
0.223 1.054 1.680 7683
0.225 1.068 1.690 9604
0.226 1.072 1.686 16522
0.228 1.081 1.689 22351
0.229 1.086 1.686 24588
0.230 1.090 1.683 21264
0.232 1.099 1.686 20475
0.234 1.108 1.689 22446
0.235 1.112 1.685 16715
0.237 1.122 1.688 15379
0.238 1.126 1.685 20350
0.239 1.130 1.682 24476
0.241 1.139 1.684 24915
0.243 1.153 1.693 19319
0.245 1.162 1.696 12977
0.248 1.176 1.705 11543
0.249 1.181 1.701 15222
0.250 1.185 1.698 21723
0.252 1.195 1.700 20122
0.254 1.204 1.703 13553
0.255 1.208 1.699 12987
0.257 1.218 1.702 14116
0.257 1.217 1.692 10942
0.258 1.222 1.688 17448
0.260 1.231 1.691 29120
0.261 1.235 1.687 26246
0.262 1.240 1.683 15165
0.265 1.254 1.691 13747
0.265 1.253 1.682 13792
0.264 1.253 1.672 10550
0.268 1.267 1.680 17036
0.271 1.282 1.688 27335
0.273 1.291 1.690 30454
0.272 1.291 1.680 26133
0.274 1.300 1.682 25277
0.275 1.304 1.678 26560
0.277 1.314 1.680 21064
0.284 1.344 1.706 14106
0.288 1.364 1.719 9036
0.288 1.363 1.709 12082
0.290 1.373 1.711 13919
0.293 1.388 1.719 13854
0.294 1.392 1.714 14180
0.296 1.402 1.716 13482
0.300 1.423 1.729 17705
0.301 1.427 1.725 18490
0.303 1.437 1.726 14527
0.305 1.447 1.728 12441
0.306 1.451 1.723 9935
0.306 1.450 1.713 6865
0.305 1.444 1.697 8474
0.302 1.432 1.676 11799
0.317 1.502 1.740 11611
0.319 1.512 1.741 21712
0.320 1.516 1.736 21818
0.319 1.510 1.720 14511
0.319 1.509 1.710 13327
0.321 1.519 1.711 10903
0.324 1.534 1.718 11434
0.325 1.539 1.713 14190
0.326 1.543 1.708 17286
0.327 1.548 1.704 13654
0.328 1.552 1.699 9002
0.331 1.568 1.705 10656
0.331 1.566 1.695 10963
0.334 1.582 1.701 11338
0.342 1.620 1.729 17456
0.343 1.625 1.724 16506
0.345 1.635 1.725 9361
0.353 1.674 1.752 14532
0.353 1.672 1.741 19937
0.355 1.683 1.742 13949
0.357 1.693 1.742 12927
0.358 1.697 1.737 20551
0.359 1.702 1.732 19858
0.361 1.712 1.732 10021
0.367 1.740 1.748 15184
0.368 1.745 1.742 20992
0.369 1.749 1.737 14432
0.369 1.748 1.727 9544
0.371 1.758 1.727 8869
0.373 1.769 1.726 4530
0.383 1.814 1.757 4688
0.385 1.825 1.757 5508
0.386 1.829 1.751 4932
0.386 1.828 1.741 4345
0.387 1.832 1.735 6973
0.389 1.843 1.735 12188
0.391 1.853 1.734 15023
0.392 1.858 1.729 11905
0.393 1.862 1.723 7590
0.395 1.873 1.722 6159
0.404 1.914 1.747 10023
0.405 1.918 1.741 11869
0.406 1.923 1.735 8537
0.407 1.927 1.729 4498
0.351 1.664 1.508 3151
0.416 1.973 1.747 2880
0.376 1.782 1.585 3350
0.422 2.000 1.750 3847
0.421 1.992 1.734 4436
0.424 2.009 1.737 4412
0.428 2.026 1.741 4279
0.377 1.784 1.544 4770
0.436 2.066 1.753 4586
0.436 2.065 1.742 3997
0.375 1.777 1.513 4180
0.373 1.768 1.499 5352
0.377 1.785 1.503 5658
0.380 1.801 1.507 5291
0.381 1.805 1.501 5339
0.382 1.809 1.496 4640
0.453 2.146 1.735 3953
0.382 1.810 1.480 3448
0.431 2.042 1.639 2469
0.463 2.192 1.738 2181
0.464 2.196 1.731 2801
0.463 2.194 1.720 4713
0.463 2.192 1.709 5839
0.465 2.203 1.707 4460
0.247 1.171 0.978 3447
0.248 1.173 0.974 5066
0.249 1.182 0.975 6594
0.249 1.178 0.967 7915
0.249 1.180 0.964 8159
0.251 1.189 0.965 7891
0.251 1.191 0.961 9384
0.252 1.193 0.957 10793
0.250 1.183 0.945 9956
0.250 1.185 0.941 9460
0.253 1.200 0.946 9364
0.255 1.209 0.947 8799
0.257 1.218 0.948 7514
0.528 2.500 1.764 7994
0.529 2.504 1.757 8192
0.528 2.502 1.745 8070
0.529 2.507 1.737 7889
0.532 2.518 1.734 7284
0.535 2.536 1.735 10254
0.536 2.540 1.727 13088
0.537 2.545 1.719 11876
0.538 2.549 1.712 10663
0.541 2.561 1.708 8563
0.546 2.585 1.712 8262
0.548 2.596 1.708 8844
0.548 2.594 1.697 7262
0.558 2.645 1.717 6529
0.559 2.650 1.709 7564
0.560 2.654 1.701 6330
0.567 2.686 1.708 5227
0.564 2.670 1.688 6378
0.563 2.667 1.677 7638
0.564 2.672 1.669 7206
0.565 2.676 1.661 5287
0.562 2.660 1.641 3908
0.577 2.732 1.671 4109
0.578 2.737 1.663 4753
0.579 2.741 1.654 4581
0.580 2.745 1.646 4410
0.595 2.818 1.675 3931
0.262 1.243 0.823 4593
0.263 1.245 0.819 6390
0.263 1.247 0.816 8420
0.262 1.242 0.808 9870
0.263 1.244 0.804 9654
0.264 1.253 0.804 9399
0.633 3.000 1.693 7621
0.636 3.012 1.687 9051
0.637 3.016 1.678 10619
0.638 3.021 1.669 10724
0.639 3.025 1.660 10830
0.638 3.022 1.648 10392
0.639 3.026 1.639 9881
0.643 3.045 1.636 10305
0.645 3.056 1.631 11937
0.646 3.060 1.621 10910
0.645 3.057 1.609 10109
0.645 3.054 1.596 7974
0.644 3.052 1.584 5642
0.645 3.056 1.575 5021
0.649 3.074 1.572 4329
0.651 3.085 1.566 3967
0.713 3.379 1.688 3502
0.714 3.384 1.678 4346
0.715 3.388 1.668 5366
0.718 3.400 1.661 6446
0.719 3.404 1.651 6446
0.719 3.408 1.640 3223
0.147 0.685 1.734 15795
0.148 0.692 1.740 14771
0.149 0.697 1.737 13850
0.150 0.701 1.735 12750
0.152 0.709 1.740 10666
0.153 0.714 1.738 9621
0.154 0.718 1.736 6721
0.156 0.726 1.741 3854
0.157 0.734 1.746 4041
0.159 0.742 1.751 4451
0.159 0.743 1.741 6261
0.160 0.748 1.739 8449
0.162 0.756 1.744 8985
0.163 0.760 1.741 9136
0.163 0.761 1.732 9460
0.164 0.766 1.730 8559
0.165 0.770 1.727 7659
0.167 0.778 1.732 10038
0.168 0.787 1.737 13115
0.169 0.791 1.734 14339
0.170 0.796 1.732 15563
0.171 0.800 1.729 15567
0.172 0.801 1.720 15790
0.173 0.809 1.724 11459
0.175 0.817 1.729 7586
0.176 0.822 1.726 8983
0.176 0.823 1.717 10487
0.178 0.831 1.721 10377
0.180 0.839 1.726 10571
0.181 0.844 1.723 9518
0.182 0.848 1.720 8656
0.183 0.856 1.725 13037
0.184 0.861 1.722 20083
0.186 0.869 1.726 22940
0.187 0.874 1.724 20919
0.188 0.878 1.721 18440
0.189 0.883 1.718 13539
0.191 0.891 1.722 8662
0.192 0.896 1.720 5613
0.194 0.904 1.724 5015
0.194 0.905 1.714 7361
0.196 0.913 1.718 10030
0.197 0.917 1.715 12828
0.197 0.922 1.713 12556
0.198 0.922 1.703 11534
0.198 0.923 1.694 10965
0.199 0.931 1.697 12059
0.200 0.936 1.695 12177
0.202 0.944 1.698 11454
0.204 0.953 1.702 8992
0.206 0.961 1.706 6500
0.208 0.970 1.710 7252
0.210 0.979 1.713 7651
0.210 0.979 1.704 6587
0.211 0.983 1.701 5704
0.212 0.988 1.698 14726
0.213 0.997 1.701 36521
0.214 1.001 1.698 49522
0.215 1.005 1.695 50373
0.216 1.010 1.692 39876
0.218 1.019 1.695 21457
0.220 1.027 1.699 13852
0.223 1.041 1.709 15782
0.223 1.041 1.699 14475
0.224 1.045 1.696 9443
0.223 1.041 1.680 7307
0.224 1.045 1.677 7105
0.225 1.049 1.673 5298
0.229 1.067 1.690 6622
0.230 1.072 1.686 14167
0.231 1.081 1.689 20197
0.232 1.085 1.686 22353
0.233 1.089 1.683 19549
0.235 1.098 1.686 19010
0.237 1.107 1.689 20624
0.238 1.112 1.685 15522
0.240 1.121 1.688 14669
0.241 1.125 1.685 19538
0.242 1.130 1.682 24177
0.244 1.139 1.684 25705
0.247 1.153 1.693 21100
0.248 1.157 1.690 14587
0.250 1.166 1.693 12202
0.253 1.180 1.701 15747
0.254 1.185 1.698 22769
0.255 1.189 1.694 20943
0.258 1.203 1.703 14737
0.259 1.208 1.699 15254
0.261 1.217 1.702 15696
0.261 1.216 1.692 11873
0.261 1.221 1.688 18786
0.262 1.225 1.685 30362
0.264 1.235 1.687 27001
0.265 1.239 1.683 15477
0.267 1.248 1.685 13859
0.268 1.253 1.682 14298
0.268 1.252 1.672 11523
