0.357 1.064 1.666 8923
0.360 1.073 1.669 7860
0.365 1.086 1.679 8670
0.366 1.091 1.675 8560
0.368 1.095 1.672 7863
0.367 1.094 1.662 9412
0.369 1.099 1.659 10579
0.370 1.103 1.655 12220
0.376 1.121 1.670 17816
0.378 1.125 1.667 23656
0.379 1.129 1.663 24525
0.381 1.133 1.660 27519
0.384 1.142 1.662 32853
0.387 1.151 1.665 32725
0.390 1.160 1.667 27321
0.393 1.169 1.670 21212
0.394 1.173 1.666 14863
0.397 1.182 1.669 12508
0.398 1.187 1.665 13324
0.398 1.186 1.655 14834
0.401 1.195 1.658 13814
0.408 1.214 1.672 12064
0.409 1.218 1.668 16586
0.412 1.227 1.670 24887
0.415 1.236 1.672 25415
0.415 1.236 1.662 21474
0.416 1.240 1.659 17167
0.419 1.249 1.661 19727
0.419 1.248 1.651 25006
0.419 1.247 1.641 22160
0.410 1.221 1.602 20024
0.411 1.225 1.598 24045
0.413 1.229 1.594 17234
0.411 1.223 1.579 16898
0.414 1.232 1.581 23373
0.413 1.231 1.571 22031
0.415 1.235 1.567 23111
0.418 1.244 1.569 26659
0.417 1.243 1.559 31013
0.419 1.247 1.555 37518
0.422 1.256 1.557 33822
0.423 1.260 1.553 20645
0.424 1.263 1.549 20071
0.426 1.267 1.545 25019
0.427 1.271 1.541 18260
0.432 1.286 1.549 14177
0.431 1.284 1.539 10908
0.434 1.293 1.541 10055
0.471 1.403 1.649 21188
0.473 1.407 1.644 38308
0.474 1.412 1.640 50223
0.475 1.416 1.635 53443
0.477 1.420 1.631 57369
0.476 1.419 1.621 59013
0.479 1.428 1.622 56020
0.481 1.432 1.618 56003
0.482 1.436 1.613 46809
0.487 1.451 1.619 36655
0.492 1.466 1.626 26954
0.501 1.492 1.643 14321
0.504 1.502 1.644 13448
0.506 1.506 1.639 14720
0.507 1.510 1.634 15046
0.510 1.520 1.635 13877
0.513 1.529 1.635 10823
0.466 1.389 1.493 11397
0.468 1.392 1.488 8769
0.523 1.558 1.637 6951
0.523 1.557 1.627 7071
0.526 1.567 1.627 8577
0.529 1.576 1.627 9464
0.533 1.586 1.628 10675
0.536 1.596 1.628 12707
0.539 1.606 1.628 12041
0.542 1.615 1.628 18390
0.544 1.619 1.623 21949
0.547 1.629 1.623 22701
0.548 1.633 1.618 25476
0.550 1.637 1.613 24841
0.555 1.653 1.618 18885
0.564 1.680 1.633 13764
0.567 1.690 1.633 14561
0.569 1.694 1.628 12827
0.570 1.698 1.622 10893
0.575 1.714 1.627 12019
0.575 1.712 1.617 11037
0.584 1.740 1.631 8429
0.589 1.756 1.636 11833
0.593 1.766 1.635 13718
0.596 1.776 1.634 21038
0.600 1.786 1.634 27623
0.603 1.796 1.633 30558
0.602 1.794 1.623 27134
0.604 1.798 1.617 20908
0.609 1.814 1.621 20301
0.612 1.824 1.620 18352
0.612 1.822 1.610 10971
0.615 1.832 1.609 9013
0.619 1.842 1.608 10015
0.628 1.870 1.621 10997
0.631 1.880 1.620 12272
0.635 1.890 1.619 11390
0.638 1.901 1.617 9973
0.633 1.886 1.598 8776
0.672 2.000 1.675 8561
0.671 1.998 1.664 19053
0.670 1.996 1.653 26699
0.672 2.001 1.647 32344
0.673 2.005 1.641 34086
0.672 2.003 1.630 36886
0.674 2.007 1.624 37666
0.675 2.011 1.617 34891
0.679 2.021 1.616 31523
0.680 2.025 1.609 29223
0.681 2.029 1.603 23512
0.681 2.027 1.592 14082
0.713 2.125 1.652 12136
0.713 2.123 1.641 12231
0.710 2.114 1.625 15839
0.711 2.118 1.619 14329
0.734 2.185 1.655 10970
0.722 2.152 1.623 10931
0.726 2.162 1.620 10627
0.749 2.229 1.656 10971
0.752 2.240 1.653 10887
0.730 2.174 1.600 8991
0.733 2.184 1.597 9780
0.735 2.188 1.591 8127
0.736 2.192 1.584 5926
0.759 2.260 1.618 8426
0.763 2.271 1.615 9452
0.777 2.314 1.633 8861
0.778 2.318 1.626 7740
0.775 2.309 1.610 7241
0.809 2.410 1.664 7632
0.806 2.401 1.648 8666
0.805 2.399 1.637 7874
0.816 2.429 1.645 7029
0.819 2.439 1.641 7772
0.823 2.450 1.638 6780
0.833 2.480 1.646 5379
0.839 2.497 1.646 4287
0.838 2.495 1.634 4882
0.837 2.493 1.623 5547
0.841 2.503 1.619 5620
0.840 2.501 1.607 5579
0.865 2.577 1.641 6015
0.869 2.588 1.637 5980
0.870 2.592 1.629 6024
0.872 2.596 1.621 5482
0.869 2.587 1.605 5190
0.870 2.591 1.597 3977
0.905 2.695 1.644 2912
0.908 2.706 1.639 3131
0.914 2.723 1.638 3503
0.922 2.747 1.641 3897
0.926 2.758 1.636 4729
0.927 2.762 1.627 4269
0.927 2.759 1.615 3912
0.928 2.763 1.606 4128
0.929 2.768 1.598 4343
0.926 2.758 1.582 4597
0.925 2.755 1.570 5152
0.926 2.759 1.562 3890
0.316 0.942 0.634 4017
0.317 0.943 0.631 5407
0.319 0.951 0.631 7493
0.320 0.953 0.628 9626
0.320 0.954 0.625 10303
0.319 0.949 0.619 10996
0.321 0.957 0.619 10133
0.322 0.958 0.616 9285
0.320 0.952 0.610 7130
0.992 2.955 1.550 5538
0.993 2.959 1.541 4684
0.995 2.962 1.531 3830
0.996 2.966 1.522 3830
0.997 2.970 1.513 2816
1.066 3.174 1.594 2327
0.323 0.961 0.589 1856
0.323 0.962 0.586 2351
0.223 0.657 1.720 7592
0.224 0.661 1.718 9132
0.226 0.665 1.716 10672
0.227 0.670 1.714 9161
0.229 0.674 1.712 7336
0.231 0.682 1.717 7064
0.233 0.686 1.714 8652
0.234 0.690 1.712 10241
0.236 0.695 1.710 12174
0.238 0.702 1.715 14371
0.240 0.707 1.713 16521
0.241 0.711 1.710 18671
0.244 0.718 1.715 18244
0.244 0.719 1.706 15539
0.246 0.724 1.704 13260
0.247 0.728 1.701 9534
0.247 0.729 1.692 5841
0.251 0.740 1.704 6438
0.254 0.748 1.708 7395
0.255 0.752 1.706 9564
0.257 0.756 1.704 11733
0.258 0.761 1.701 14525
0.259 0.761 1.692 17394
0.261 0.769 1.696 17534
0.263 0.774 1.694 17752
0.264 0.778 1.692 15296
0.266 0.782 1.689 12839
0.268 0.790 1.694 9844
0.273 0.805 1.712 7991
0.274 0.806 1.702 6580
0.275 0.810 1.700 4634
0.277 0.814 1.697 3546
0.279 0.822 1.702 3922
0.282 0.830 1.706 5100
0.282 0.831 1.696 5443
0.282 0.832 1.687 6033
0.282 0.832 1.677 6664
0.284 0.836 1.675 7063
0.288 0.848 1.686 7511
0.291 0.856 1.690 7076
0.292 0.860 1.687 5838
0.294 0.865 1.684 4867
0.292 0.861 1.668 4961
0.295 0.869 1.672 8429
0.299 0.881 1.683 15414
0.301 0.886 1.680 19976
0.302 0.890 1.677 18087
0.305 0.898 1.681 11603
0.308 0.906 1.685 7179
0.309 0.911 1.682 7155
0.311 0.915 1.679 11974
0.312 0.919 1.676 16817
0.313 0.923 1.673 16444
0.315 0.927 1.671 11481
0.318 0.936 1.674 7100
0.319 0.940 1.671 6390
0.322 0.948 1.675 6152
0.321 0.944 1.659 7393
0.322 0.948 1.656 14133
0.326 0.961 1.666 29393
0.329 0.969 1.669 43330
0.331 0.974 1.666 47365
0.332 0.978 1.663 41888
0.333 0.982 1.660 27410
0.335 0.986 1.657 12162
0.336 0.990 1.654 5907
0.338 0.995 1.651 7189
0.343 1.012 1.667 13843
0.346 1.020 1.670 21829
0.349 1.029 1.673 26230
0.349 1.029 1.664 28237
0.351 1.033 1.661 27414
0.352 1.037 1.657 22467
0.357 1.050 1.667 15385
0.361 1.063 1.676 11834
0.361 1.063 1.666 9424
0.364 1.072 1.669 9056
0.368 1.085 1.679 10708
0.370 1.089 1.675 11833
0.370 1.089 1.666 11228
0.371 1.093 1.662 11803
0.373 1.097 1.659 13075
0.376 1.106 1.661 14258
0.380 1.120 1.670 17580
0.382 1.124 1.667 22316
0.383 1.128 1.663 23871
0.384 1.132 1.660 26544
0.387 1.141 1.662 30671
0.390 1.150 1.665 30253
0.393 1.159 1.667 24727
0.395 1.163 1.664 18407
0.398 1.172 1.666 11089
0.401 1.181 1.669 6607
0.401 1.180 1.659 9238
0.401 1.180 1.649 13031
0.405 1.194 1.658 11858
0.410 1.208 1.666 10245
0.415 1.222 1.674 14081
0.416 1.226 1.670 21232
0.419 1.235 1.672 21418
0.419 1.234 1.662 17375
0.420 1.238 1.659 13673
0.424 1.247 1.661 16265
0.423 1.247 1.651 21923
0.421 1.241 1.635 21270
0.414 1.220 1.602 21486
0.414 1.219 1.592 25051
0.415 1.223 1.588 18582
0.415 1.222 1.579 18274
0.418 1.231 1.581 22905
0.417 1.230 1.571 19903
0.419 1.234 1.567 21149
0.422 1.243 1.569 27152
0.421 1.241 1.559 33231
0.423 1.245 1.555 39198
0.426 1.254 1.557 34787
0.427 1.258 1.553 20799
0.428 1.262 1.549 21014
0.430 1.266 1.545 27687
0.431 1.270 1.541 22058
0.434 1.279 1.543 19116
0.435 1.283 1.539 14895
0.439 1.292 1.541 12881
0.443 1.306 1.548 17708
0.477 1.406 1.644 31310
0.479 1.410 1.640 41965
0.480 1.414 1.635 45436
0.480 1.413 1.625 52404
0.481 1.417 1.621 56417
0.484 1.426 1.622 53171
0.486 1.430 1.618 52681
0.487 1.435 1.613 42694
0.492 1.449 1.619 33120
0.495 1.459 1.620 25469
0.499 1.469 1.621 11795
0.504 1.484 1.627 12117
0.511 1.504 1.639 14780
0.510 1.503 1.629 14280
0.513 1.512 1.630 11176
0.517 1.522 1.630 8989
0.471 1.387 1.493 11820
0.470 1.385 1.483 9360
0.519 1.529 1.611 6475
0.524 1.544 1.616 7003
0.531 1.565 1.627 8168
0.535 1.574 1.627 8490
0.540 1.590 1.633 9908
0.541 1.594 1.628 12590
0.544 1.604 1.628 11963
0.548 1.613 1.628 17145
0.549 1.618 1.623 20219
0.552 1.627 1.623 21112
0.554 1.631 1.618 24096
0.555 1.635 1.613 24080
0.561 1.651 1.618 19880
0.570 1.678 1.633 13304
0.575 1.694 1.638 12482
0.574 1.692 1.628 11868
0.574 1.690 1.617 11134
0.581 1.712 1.627 11607
0.579 1.704 1.612 11387
0.582 1.714 1.611 8751
0.593 1.748 1.631 11925
0.599 1.764 1.635 13566
0.602 1.774 1.634 20627
0.606 1.784 1.634 26427
0.609 1.794 1.633 28358
0.608 1.792 1.623 25634
0.610 1.796 1.617 19331
0.615 1.812 1.621 18040
0.616 1.816 1.615 16624
0.618 1.820 1.610 10735
0.621 1.830 1.609 9370
0.625 1.840 1.608 9838
0.634 1.868 1.621 11304
0.638 1.878 1.620 12577
0.643 1.894 1.623 11363
0.647 1.905 1.622 10509
0.662 1.951 1.648 9366
0.668 1.968 1.652 10933
0.676 1.990 1.659 21573
0.677 1.994 1.653 29081
0.678 1.998 1.647 34844
0.678 1.996 1.636 37331
0.679 2.000 1.630 40795
0.681 2.004 1.624 41362
0.682 2.009 1.617 38414
0.683 2.013 1.611 34504
0.687 2.023 1.609 30818
0.686 2.021 1.598 25264
0.687 2.025 1.592 16106
0.689 2.029 1.586 12119
0.692 2.039 1.584 11043
0.715 2.105 1.621 14335
0.718 2.116 1.619 13772
0.726 2.139 1.625 10663
0.730 2.149 1.623 10697
0.733 2.160 1.620 10589
0.756 2.227 1.656 9689
0.760 2.237 1.653 9743
0.737 2.172 1.600 10472
0.741 2.182 1.597 11225
0.742 2.186 1.591 9618
0.743 2.190 1.584 7028
0.767 2.258 1.618 7131
0.788 2.320 1.648 8822
0.787 2.317 1.637 8382
0.784 2.309 1.622 7218
0.783 2.306 1.610 6947
0.817 2.407 1.664 7524
0.814 2.398 1.648 8747
0.816 2.402 1.641 7809
0.824 2.426 1.645 6881
0.827 2.437 1.641 7431
0.831 2.447 1.638 6385
0.841 2.477 1.646 4751
0.845 2.488 1.642 3408
0.844 2.486 1.630 4172
0.845 2.490 1.623 4948
0.849 2.500 1.619 5011
0.873 2.570 1.649 5226
0.874 2.574 1.641 5844
0.878 2.585 1.637 5433
0.881 2.596 1.633 5220
0.880 2.593 1.621 4950
0.877 2.584 1.605 4811
0.879 2.588 1.597 3557
0.316 0.931 0.673 3123
0.319 0.939 0.674 3478
0.319 0.940 0.671 3817
0.320 0.942 0.668 4082
0.935 2.755 1.636 3757
0.937 2.759 1.627 3500
0.936 2.756 1.615 3249
0.937 2.760 1.606 3817
0.939 2.764 1.598 4386
0.935 2.755 1.582 4743
0.934 2.752 1.570 5423
0.936 2.756 1.562 3974
0.319 0.941 0.634 4003
0.982 2.892 1.609 4913
0.323 0.950 0.631 7002
0.323 0.952 0.628 9234
0.324 0.953 0.625 10137
0.324 0.954 0.622 11040
0.324 0.956 0.619 10294
0.325 0.957 0.616 9548
0.325 0.958 0.613 7411
1.002 2.951 1.550 5583
1.003 2.955 1.541 4683
1.005 2.959 1.531 3782
1.006 2.963 1.522 3782
1.007 2.967 1.513 2827
1.079 3.177 1.598 2382
0.326 0.960 0.589 1622
0.326 0.961 0.586 2169
0.224 0.656 1.720 7438
0.226 0.661 1.718 8544
0.227 0.665 1.716 9651
0.229 0.669 1.714 8254
0.231 0.677 1.719 6617
0.233 0.681 1.717 6430
0.234 0.686 1.714 8427
0.236 0.690 1.712 10424
0.237 0.694 1.710 12292
0.240 0.702 1.715 14311
0.241 0.706 1.713 16451
0.243 0.710 1.710 18590
0.244 0.715 1.708 18061
0.246 0.719 1.706 15273
0.247 0.723 1.704 13012
0.249 0.728 1.701 9128
0.249 0.728 1.692 5257
0.253 0.740 1.704 6436
0.254 0.744 1.701 7874
0.257 0.752 1.706 9872
0.258 0.756 1.704 11886
0.260 0.760 1.701 14644
0.260 0.761 1.692 17535
0.263 0.769 1.696 17583
0.264 0.773 1.694 17763
0.266 0.777 1.692 15241
0.267 0.782 1.689 12719
0.270 0.789 1.694 10110
0.275 0.805 1.712 8478
0.275 0.805 1.702 7494
0.277 0.810 1.700 5650
0.278 0.814 1.697 4101
0.282 0.826 1.708 4115
0.284 0.830 1.706 4918
0.284 0.830 1.696 5127
0.284 0.831 1.687 5588
0.284 0.831 1.677 6202
0.285 0.836 1.675 6588
0.290 0.848 1.686 6960
0.291 0.852 1.683 6916
0.294 0.860 1.687 6148
0.294 0.860 1.678 5322
0.294 0.861 1.668 5518
0.297 0.869 1.672 8900
0.300 0.877 1.676 15438
0.302 0.885 1.680 19761
0.304 0.889 1.677 17513
0.307 0.897 1.681 10683
0.309 0.906 1.685 6422
0.311 0.910 1.682 7111
0.312 0.914 1.679 12751
0.314 0.918 1.676 17702
0.317 0.927 1.680 17110
0.318 0.931 1.677 11832
0.319 0.935 1.674 7203
0.322 0.944 1.678 6294
0.327 0.956 1.688 5286
0.322 0.944 1.659 6026
0.324 0.948 1.656 12982
0.328 0.960 1.666 28732
0.331 0.969 1.669 43607
0.332 0.973 1.666 48163
0.334 0.977 1.663 42844
0.335 0.981 1.660 28512
0.337 0.986 1.657 13292
0.340 0.994 1.660 7150
0.341 0.998 1.657 7958
0.345 1.011 1.667 13103
0.350 1.024 1.677 20849
0.350 1.024 1.667 26197
0.351 1.028 1.664 29016
0.353 1.032 1.661 28623
0.354 1.036 1.657 24911
0.359 1.050 1.667 17435
0.363 1.063 1.676 11995
0.363 1.062 1.666 9525
0.366 1.071 1.669 10335
0.369 1.080 1.672 12918
0.370 1.084 1.669 15487
0.372 1.088 1.666 14855
0.373 1.092 1.662 14220
0.375 1.097 1.659 15260
0.378 1.105 1.661 16031
0.381 1.114 1.664 17374
0.384 1.123 1.667 20790
0.385 1.127 1.663 22785
0.387 1.131 1.660 25053
0.388 1.136 1.656 27893
0.393 1.149 1.665 27232
0.396 1.158 1.667 21677
0.397 1.162 1.664 15410
0.398 1.167 1.660 8540
0.395 1.156 1.638 5782
0.398 1.165 1.641 9338
0.404 1.184 1.655 12502
0.407 1.193 1.658 11062
0.412 1.207 1.666 8854
0.417 1.221 1.674 11202
0.418 1.225 1.670 17202
0.422 1.234 1.672 17335
0.420 1.228 1.657 13298
0.421 1.233 1.653 10214
0.426 1.247 1.661 12528
0.424 1.241 1.645 18356
0.420 1.230 1.623 20689
0.416 1.219 1.602 22540
0.416 1.218 1.592 25652
0.417 1.222 1.588 19599
0.417 1.221 1.579 19270
0.420 1.230 1.581 22125
0.420 1.229 1.571 16889
0.421 1.233 1.567 17940
0.422 1.237 1.563 26112
0.424 1.241 1.559 33787
0.425 1.244 1.555 39048
0.428 1.253 1.557 34522
0.430 1.257 1.553 20589
0.431 1.261 1.549 21232
0.432 1.265 1.545 29320
0.433 1.269 1.541 25478
0.437 1.278 1.543 23951
0.438 1.282 1.539 18077
0.441 1.291 1.541 14668
0.444 1.300 1.542 19631
0.480 1.405 1.644 23247
0.481 1.409 1.640 30567
0.483 1.413 1.635 32330
0.482 1.412 1.625 43005
0.484 1.416 1.621 50036
0.487 1.426 1.622 45553
0.488 1.430 1.618 44223
0.490 1.434 1.613 35266
0.495 1.449 1.619 27950
0.498 1.458 1.620 23745
0.499 1.462 1.616 11694
0.505 1.477 1.622 11701
0.508 1.487 1.623 15116
0.511 1.496 1.623 13520
0.512 1.500 1.619 9409
0.470 1.377 1.492 9561
0.474 1.386 1.493 11516
0.473 1.384 1.483 9477
0.524 1.533 1.616 8217
0.527 1.543 1.616 9257
0.532 1.558 1.622 9236
0.537 1.573 1.627 7975
0.543 1.589 1.633 9151
0.544 1.593 1.628 11868
0.546 1.597 1.623 11414
0.549 1.607 1.623 14878
0.552 1.617 1.623 17294
0.556 1.626 1.623 18733
0.557 1.630 1.618 21865
0.558 1.634 1.613 22516
0.564 1.650 1.618 20594
0.571 1.671 1.628 13455
0.576 1.687 1.633 10452
0.574 1.680 1.618 11445
0.573 1.678 1.607 12067
0.582 1.705 1.622 11520
0.580 1.697 1.607 11623
0.583 1.707 1.607 9042
0.597 1.747 1.631 11979
0.600 1.757 1.630 13521
0.605 1.772 1.634 18702
0.609 1.782 1.634 23758
0.612 1.792 1.633 25673
0.612 1.791 1.623 24186
0.613 1.795 1.617 18575
0.616 1.805 1.616 17476
0.618 1.809 1.611 15940
0.619 1.813 1.605 10725
0.625 1.829 1.609 10088
0.628 1.839 1.608 9700
0.638 1.867 1.621 11012
0.641 1.877 1.620 12258
0.647 1.893 1.623 11264
0.658 1.928 1.641 12076
0.666 1.950 1.648 10620
0.674 1.972 1.656 13362
0.677 1.983 1.655 23555
0.681 1.993 1.653 30050
0.682 1.997 1.647 35882
0.681 1.995 1.636 39418
0.683 1.999 1.630 43548
0.684 2.003 1.624 43756
0.686 2.007 1.617 40577
0.687 2.011 1.611 35854
0.691 2.022 1.609 31062
0.690 2.019 1.598 26545
0.691 2.023 1.592 17670
0.693 2.027 1.586 13052
0.696 2.038 1.584 12237
0.719 2.104 1.621 13997
0.722 2.114 1.619 13726
0.730 2.137 1.625 10752
0.734 2.148 1.623 10394
0.737 2.158 1.620 10346
0.739 2.162 1.614 9911
0.740 2.166 1.607 9383
0.741 2.170 1.600 11950
0.743 2.174 1.593 12688
0.746 2.185 1.591 11096
0.748 2.189 1.584 8095
0.795 2.327 1.664 6939
0.794 2.325 1.652 8709
0.793 2.322 1.641 7997
0.786 2.301 1.618 6876
0.785 2.298 1.606 6622
0.819 2.399 1.660 7253
0.819 2.397 1.648 8623
0.820 2.401 1.641 7588
0.826 2.418 1.641 6528
0.832 2.435 1.641 6799
0.835 2.446 1.638 5762
0.843 2.469 1.642 4180
0.845 2.473 1.634 2881
0.846 2.478 1.627 3584
0.848 2.482 1.619 4287
0.851 2.492 1.615 4311
0.877 2.569 1.649 5024
0.877 2.566 1.637 5609
0.880 2.577 1.633 4869
0.886 2.594 1.633 4453
0.887 2.598 1.624 4349
0.884 2.589 1.609 4371
0.320 0.935 0.680 4134
0.320 0.937 0.677 4599
0.321 0.938 0.674 4858
0.321 0.940 0.671 5137
0.322 0.941 0.668 5381
0.320 0.936 0.661 4736
0.320 0.937 0.658 4044
0.323 0.946 0.659 3458
0.942 2.759 1.606 3515
0.944 2.763 1.598 4405
0.940 2.753 1.582 4861
0.939 2.750 1.570 5637
0.941 2.754 1.562 4047
0.321 0.940 0.634 3972
0.987 2.891 1.609 4799
0.989 2.895 1.600 6488
0.325 0.951 0.628 8347
0.325 0.952 0.625 9463
0.326 0.954 0.622 10578
0.326 0.955 0.619 9996
0.327 0.956 0.616 9414
0.327 0.958 0.613 7412
0.325 0.952 0.607 5478
0.326 0.953 0.604 4643
1.012 2.964 1.535 3567
1.014 2.968 1.525 3567
1.013 2.965 1.513 2722
1.092 3.196 1.607 2406
0.330 0.966 0.592 1396
0.331 0.968 0.589 1968
0.226 0.656 1.720 7366
0.227 0.660 1.718 8138
0.230 0.668 1.723 8948
0.232 0.672 1.721 7605
0.233 0.676 1.719 6146
0.234 0.681 1.717 6031
0.236 0.685 1.714 8198
0.237 0.689 1.712 10365
0.239 0.694 1.710 12133
0.242 0.701 1.715 13963
0.243 0.705 1.713 16023
0.245 0.710 1.710 18084
0.246 0.714 1.708 17481
0.248 0.718 1.706 14652
0.249 0.723 1.704 12427
0.250 0.727 1.701 8558
0.251 0.728 1.692 4701
0.255 0.739 1.704 6391
0.256 0.743 1.701 8351
0.259 0.751 1.706 10063
0.260 0.755 1.704 11889
0.261 0.756 1.694 14655
0.262 0.760 1.692 17536
0.265 0.768 1.696 17439
0.266 0.772 1.694 17546
0.268 0.777 1.692 14974
0.270 0.785 1.696 12440
0.272 0.789 1.694 10270
0.277 0.804 1.712 8840
0.277 0.805 1.702 8342
0.279 0.809 1.700 6713
0.283 0.821 1.711 5073
0.284 0.825 1.708 4679
0.286 0.829 1.706 5070
0.287 0.833 1.703 5025
0.287 0.834 1.694 5120
0.288 0.834 1.684 5722
0.289 0.839 1.682 6146
0.292 0.847 1.686 6484
0.293 0.851 1.683 6797
0.295 0.855 1.680 6400
0.296 0.859 1.678 5718
0.296 0.860 1.668 5959
0.299 0.868 1.672 9164
0.302 0.876 1.676 15170
0.305 0.884 1.680 19042
0.306 0.888 1.677 16490
0.309 0.897 1.681 9584
0.312 0.905 1.685 5706
0.313 0.909 1.682 7025
0.315 0.913 1.679 13269
0.316 0.918 1.676 18193
0.319 0.926 1.680 17624
0.320 0.930 1.677 12242
0.323 0.938 1.681 7796
0.325 0.943 1.678 7030
0.325 0.943 1.668 5173
0.323 0.939 1.652 5913
0.326 0.947 1.656 12339
0.331 0.960 1.666 28033
0.332 0.964 1.663 43816
0.335 0.972 1.666 48726
0.336 0.976 1.663 43529
0.338 0.980 1.660 29432
0.339 0.985 1.657 14457
0.345 1.002 1.673 8775
0.344 0.997 1.657 8989
0.348 1.010 1.667 12520
0.353 1.023 1.677 20102
0.352 1.023 1.667 26641
0.354 1.027 1.664 30079
0.354 1.027 1.654 29674
0.357 1.035 1.657 26476
0.361 1.049 1.667 18187
0.366 1.062 1.676 11099
0.367 1.066 1.673 8918
0.369 1.070 1.669 11593
0.372 1.079 1.672 15223
0.373 1.083 1.669 19062
0.375 1.087 1.666 18263
0.376 1.091 1.662 16322
0.379 1.100 1.665 16977
0.381 1.104 1.661 17195
0.384 1.113 1.664 16860
0.387 1.122 1.667 18692
0.388 1.126 1.663 20984
0.390 1.130 1.660 22845
0.391 1.135 1.656 24817
0.396 1.148 1.665 23921
0.399 1.157 1.667 18669
0.400 1.161 1.664 12510
0.400 1.161 1.654 7660
0.401 1.165 1.650 7710
0.403 1.169 1.647 11834
0.408 1.183 1.655 13368
0.411 1.192 1.658 11067
0.410 1.191 1.648 8275
0.419 1.215 1.668 8562
0.422 1.224 1.670 13454
0.425 1.233 1.672 13513
0.423 1.227 1.657 9584
0.424 1.231 1.653 7393
0.429 1.246 1.661 9080
0.425 1.235 1.639 15072
0.422 1.224 1.617 20338
0.418 1.213 1.596 22789
0.419 1.217 1.592 25397
0.421 1.221 1.588 20018
0.420 1.220 1.579 19586
0.422 1.224 1.575 20747
0.425 1.233 1.577 13897
0.424 1.232 1.567 14466
0.426 1.236 1.563 23982
0.427 1.239 1.559 32449
0.428 1.243 1.555 37114
0.432 1.252 1.557 33085
0.433 1.256 1.553 19980
0.434 1.260 1.549 20936
0.436 1.264 1.545 29700
0.437 1.268 1.541 27897
0.440 1.277 1.543 27875
0.441 1.281 1.539 19917
0.444 1.290 1.541 14990
0.448 1.299 1.542 20635
0.449 1.303 1.538 20182
0.452 1.312 1.540 22981
0.452 1.310 1.530 28877
0.486 1.411 1.625 29767
0.487 1.415 1.621 36075
0.491 1.424 1.622 31737
0.492 1.428 1.618 30665
0.494 1.432 1.613 25167
0.501 1.453 1.625 22124
0.502 1.457 1.620 21787
0.503 1.461 1.616 11852
0.509 1.476 1.622 11195
0.510 1.480 1.617 15381
0.511 1.484 1.613 13030
0.513 1.488 1.608 9747
0.474 1.376 1.492 9775
0.527 1.529 1.631 11689
0.526 1.528 1.621 11084
0.530 1.537 1.621 10386
0.533 1.547 1.622 12047
0.536 1.557 1.622 11346
0.540 1.566 1.622 8500
0.545 1.582 1.628 8108
0.546 1.586 1.623 10913
0.548 1.590 1.618 10963
0.553 1.605 1.623 11933
0.557 1.615 1.623 13850
0.560 1.625 1.623 16262
0.559 1.623 1.613 19557
0.565 1.639 1.618 20630
0.568 1.648 1.618 20981
0.575 1.670 1.628 14143
0.577 1.674 1.623 10242
0.574 1.666 1.608 12524
0.576 1.670 1.602 13089
0.581 1.686 1.607 11142
0.582 1.690 1.602 11613
0.582 1.688 1.592 9581
0.601 1.745 1.631 10946
0.603 1.749 1.625 12656
0.608 1.765 1.630 15566
0.614 1.781 1.634 19917
0.617 1.791 1.633 23123
0.616 1.789 1.623 23684
0.618 1.793 1.617 19646
0.621 1.803 1.616 19212
0.621 1.801 1.606 16465
0.624 1.811 1.605 11183
0.630 1.827 1.609 10952
0.633 1.837 1.608 9466
0.643 1.865 1.621 10074
0.644 1.869 1.615 11256
0.654 1.898 1.628 11002
0.664 1.926 1.641 13838
0.671 1.948 1.648 11591
0.679 1.971 1.656 15053
0.683 1.981 1.655 24829
0.684 1.985 1.648 30382
0.687 1.995 1.647 36004
0.687 1.993 1.636 40470
0.688 1.997 1.630 45290
0.690 2.001 1.624 45353
0.691 2.005 1.617 42057
0.692 2.009 1.611 36133
0.694 2.013 1.605 30361
0.695 2.018 1.598 27255
0.697 2.022 1.592 18407
0.698 2.025 1.586 12827
0.706 2.048 1.593 12769
0.722 2.096 1.617 14883
0.728 2.113 1.619 14190
0.734 2.129 1.621 11199
0.739 2.146 1.623 10115
0.743 2.156 1.620 9951
0.744 2.160 1.614 10573
0.746 2.164 1.607 10670
0.747 2.168 1.600 13284
0.749 2.172 1.593 14073
0.752 2.183 1.591 12497
0.753 2.187 1.584 9038
0.801 2.325 1.664 6873
0.802 2.329 1.656 8629
0.799 2.320 1.641 7804
0.792 2.299 1.618 6523
0.791 2.296 1.606 6199
0.824 2.390 1.656 6947
0.825 2.395 1.648 8358
0.827 2.399 1.641 7275
0.830 2.409 1.637 6056
0.838 2.433 1.641 5908
0.844 2.450 1.642 4940
0.850 2.467 1.642 3772
0.845 2.452 1.623 2955
0.851 2.469 1.623 3240
0.852 2.473 1.615 3704
0.858 2.490 1.615 3602
0.882 2.560 1.645 4806
0.883 2.564 1.637 5397
0.322 0.935 0.695 4731
0.321 0.930 0.688 5697
0.323 0.938 0.689 6099
0.322 0.933 0.682 6063
0.322 0.935 0.680 5958
0.323 0.936 0.677 6335
0.323 0.938 0.674 6408
0.324 0.939 0.671 6574
0.324 0.940 0.668 6754
0.322 0.935 0.661 6029
0.323 0.937 0.658 5243
0.325 0.945 0.659 4239
0.328 0.953 0.659 3310
0.951 2.760 1.598 4344
0.325 0.942 0.646 5240
0.947 2.748 1.570 5777
0.323 0.938 0.637 4845
0.326 0.946 0.637 4059
0.995 2.888 1.609 4617
0.997 2.892 1.600 6314
0.330 0.957 0.632 7323
0.328 0.952 0.625 8562
0.328 0.953 0.622 9832
0.329 0.954 0.619 9396
0.329 0.955 0.616 8960
0.330 0.957 0.613 7147
0.328 0.951 0.607 5341
0.328 0.952 0.604 4565
1.020 2.961 1.535 3220
1.022 2.965 1.525 3220
1.021 2.962 1.513 2490
1.100 3.193 1.607 2377
1.102 3.197 1.597 1188
0.333 0.967 0.589 1681
0.228 0.655 1.720 7535
0.229 0.659 1.718 7833
0.232 0.667 1.723 8243
0.234 0.671 1.721 6975
0.235 0.676 1.719 5638
0.238 0.683 1.724 5579
0.238 0.684 1.714 7766
0.240 0.688 1.712 9962
0.241 0.693 1.710 11579
0.244 0.700 1.715 13212
0.245 0.705 1.713 15146
0.247 0.709 1.710 17079
0.248 0.713 1.708 16415
0.250 0.718 1.706 13645
0.251 0.722 1.704 11539
0.253 0.726 1.701 8124
0.254 0.730 1.699 4710
0.256 0.735 1.697 6821
0.258 0.742 1.701 9185
0.260 0.747 1.699 10636
0.263 0.754 1.704 12155
0.263 0.755 1.694 14864
0.264 0.760 1.692 17640
0.267 0.767 1.696 17381
0.268 0.772 1.694 17389
0.270 0.776 1.692 14771
0.273 0.784 1.696 12212
0.274 0.788 1.694 10377
0.278 0.799 1.705 9039
0.280 0.804 1.702 8993
0.281 0.808 1.700 7706
0.285 0.820 1.711 6021
0.287 0.824 1.708 5467
0.288 0.828 1.706 5659
0.290 0.833 1.703 5255
0.290 0.833 1.694 4893
0.290 0.834 1.684 5425
0.292 0.838 1.682 5926
0.294 0.846 1.686 6338
0.296 0.850 1.683 6937
0.297 0.854 1.680 6942
0.299 0.859 1.678 6211
0.299 0.859 1.668 6340
0.302 0.867 1.672 9365
0.305 0.875 1.676 14762
0.307 0.883 1.680 18122
0.309 0.887 1.677 15278
0.313 0.900 1.688 8800
0.316 0.908 1.692 5523
0.316 0.908 1.682 7229
0.318 0.912 1.679 13768
0.319 0.917 1.676 18526
0.322 0.925 1.680 17926
0.325 0.933 1.684 12709
0.326 0.937 1.681 8555
0.328 0.942 1.678 7919
0.328 0.942 1.668 5809
0.323 0.929 1.639 6509
0.328 0.942 1.649 11794
0.334 0.958 1.666 26894
0.335 0.963 1.663 43567
0.336 0.967 1.660 49139
0.339 0.975 1.663 43870
0.341 0.979 1.660 30307
0.342 0.984 1.657 15804
0.348 1.001 1.673 10847
0.347 0.996 1.657 10438
0.351 1.009 1.667 12513
0.356 1.022 1.677 19814
0.356 1.022 1.667 27697
0.356 1.022 1.657 31520
0.357 1.026 1.654 30911
0.360 1.034 1.657 27473
0.363 1.043 1.660 18172
0.369 1.061 1.676 10037
0.371 1.065 1.673 8695
0.372 1.069 1.669 13207
0.373 1.073 1.666 17938
0.377 1.082 1.669 22862
0.378 1.086 1.666 21663
0.379 1.090 1.662 18391
0.382 1.099 1.665 18509
0.384 1.103 1.661 17566
0.387 1.112 1.664 15445
0.390 1.121 1.667 16013
0.392 1.125 1.663 18514
0.393 1.129 1.660 19995
0.394 1.133 1.656 21284
0.399 1.147 1.665 20325
0.402 1.156 1.667 15641
0.404 1.160 1.664 10127
0.405 1.164 1.660 7715
0.407 1.168 1.657 10425
0.408 1.173 1.653 14429
0.411 1.182 1.655 14861
0.414 1.191 1.658 11457
0.412 1.185 1.642 9279
0.414 1.189 1.638 8813
0.422 1.213 1.658 10403
0.429 1.232 1.672 10031
0.425 1.221 1.651 6589
0.426 1.225 1.647 5383
0.416 1.195 1.601 6737
0.424 1.219 1.621 13067
0.424 1.218 1.612 19839
0.423 1.217 1.602 22463
0.423 1.216 1.592 24570
0.424 1.220 1.588 19612
0.424 1.219 1.579 19051
0.425 1.222 1.575 18800
0.427 1.226 1.571 11459
0.428 1.230 1.567 11392
0.429 1.234 1.563 20697
0.431 1.238 1.559 29232
0.432 1.242 1.555 33493
0.435 1.251 1.557 30590
0.437 1.255 1.553 18898
0.438 1.259 1.549 20452
0.439 1.263 1.545 29507
0.441 1.266 1.541 29269
0.442 1.270 1.537 30235
0.445 1.279 1.539 20011
0.448 1.288 1.541 13618
0.452 1.298 1.542 20303
0.453 1.301 1.538 19749
0.456 1.311 1.540 21429
0.456 1.309 1.530 26133
0.459 1.318 1.531 27163
0.460 1.322 1.527 25248
0.460 1.320 1.518 19976
0.496 1.427 1.618 18237
0.462 1.328 1.509 19289
0.505 1.451 1.625 16571
0.506 1.455 1.620 19641
0.510 1.465 1.621 11950
0.513 1.474 1.622 10880
0.514 1.478 1.617 15426
0.514 1.477 1.607 13315
0.515 1.481 1.603 11755
0.522 1.501 1.614 12684
0.530 1.522 1.625 15322
0.533 1.532 1.626 14121
0.536 1.541 1.626 13145
0.538 1.545 1.622 15615
0.539 1.549 1.617 14340
0.543 1.559 1.617 9516
0.548 1.574 1.623 6617
0.549 1.579 1.618 9909
0.547 1.571 1.602 11667
0.554 1.592 1.613 9159
0.561 1.613 1.623 10068
0.565 1.623 1.623 13750
0.564 1.621 1.613 17032
0.570 1.637 1.618 18561
0.573 1.647 1.618 21002
0.578 1.662 1.623 15086
0.582 1.672 1.623 11075
0.577 1.659 1.603 14336
0.581 1.669 1.602 14307
0.586 1.684 1.607 11791
0.588 1.688 1.602 11990
0.587 1.686 1.592 10336
0.605 1.737 1.626 10860
0.608 1.747 1.625 12886
0.614 1.763 1.630 12472
0.621 1.785 1.639 15289
0.623 1.789 1.633 21172
0.622 1.787 1.623 24698
0.623 1.791 1.617 22928
0.627 1.801 1.616 22617
0.626 1.799 1.606 17838
0.627 1.803 1.600 12043
0.635 1.825 1.609 11758
0.637 1.829 1.603 9020
0.648 1.863 1.621 8460
0.650 1.867 1.615 9603
0.660 1.896 1.628 10772
0.669 1.924 1.641 15189
0.677 1.946 1.648 12157
0.685 1.968 1.656 15892
0.689 1.979 1.655 25111
0.690 1.983 1.648 29859
0.694 1.993 1.647 35140
0.693 1.991 1.636 40436
0.694 1.995 1.630 46011
0.696 1.999 1.624 46236
0.695 1.997 1.613 43187
0.699 2.007 1.611 35421
0.700 2.011 1.605 28888
0.701 2.015 1.598 27619
0.703 2.019 1.592 18638
0.704 2.023 1.586 11887
0.714 2.052 1.597 13004
0.729 2.094 1.617 16420
0.734 2.110 1.619 15069
0.740 2.127 1.621 12019
0.744 2.137 1.618 10033
0.750 2.154 1.620 9440
0.753 2.164 1.618 11264
0.752 2.162 1.607 11898
0.754 2.166 1.600 14478
0.755 2.170 1.593 15215
0.759 2.180 1.591 13585
0.760 2.184 1.584 9694
0.808 2.322 1.664 6691
0.810 2.326 1.656 8566
0.809 2.324 1.645 7742
0.799 2.296 1.618 6113
0.798 2.294 1.606 5573
0.829 2.381 1.652 6941
0.830 2.386 1.644 8330
0.834 2.396 1.641 7165
0.838 2.407 1.637 5779
0.843 2.424 1.638 5081
0.854 2.454 1.646 4108
0.860 2.471 1.646 3494
0.852 2.449 1.623 3179
0.856 2.460 1.619 3181
0.860 2.470 1.615 3295
0.863 2.481 1.611 2969
0.890 2.557 1.645 4533
0.325 0.933 0.698 5249
0.325 0.934 0.695 6630
0.326 0.936 0.692 7870
0.326 0.937 0.689 8419
0.324 0.932 0.682 8319
0.325 0.934 0.680 8140
0.325 0.935 0.677 8382
0.326 0.937 0.674 8196
0.326 0.938 0.671 8210
0.327 0.939 0.668 8302
0.325 0.934 0.661 7536
0.326 0.936 0.658 6695
0.328 0.944 0.659 5255
0.334 0.958 0.663 3965
0.329 0.946 0.653 4768
0.330 0.948 0.650 5649
0.953 2.738 1.567 5979
0.328 0.944 0.640 5581
0.329 0.945 0.637 4449
1.004 2.885 1.609 4400
1.005 2.889 1.600 6085
0.333 0.956 0.632 6222
0.331 0.951 0.625 7443
0.331 0.952 0.622 8782
0.332 0.953 0.619 8499
0.332 0.954 0.616 8217
0.333 0.956 0.613 6645
0.333 0.957 0.610 5073
0.331 0.951 0.604 4334
0.332 0.953 0.601 2819
1.031 2.962 1.525 2786
1.108 3.185 1.617 2254
1.110 3.189 1.607 2254
1.111 3.193 1.597 1127
0.338 0.973 0.592 1389
0.229 0.655 1.720 7685
0.231 0.659 1.718 7654
0.234 0.666 1.723 7781
0.235 0.671 1.721 6549
0.237 0.675 1.719 5279
0.239 0.683 1.724 5324
0.240 0.684 1.714 7465
0.241 0.688 1.712 9691
0.243 0.692 1.710 11299
0.244 0.697 1.708 12908
0.247 0.704 1.713 14667
0.248 0.708 1.710 16477
0.250 0.713 1.708 15795
0.251 0.717 1.706 13061
0.253 0.721 1.704 11009
0.254 0.726 1.701 7949
0.255 0.726 1.692 4894
0.257 0.734 1.697 7034
0.260 0.742 1.701 9391
0.261 0.746 1.699 10695
0.264 0.754 1.704 12040
0.264 0.755 1.694 14795
0.266 0.759 1.692 17591
0.269 0.767 1.696 17168
0.270 0.771 1.694 17093
0.272 0.775 1.692 14526
0.274 0.783 1.696 12015
0.276 0.787 1.694 10428
0.280 0.799 1.705 9148
0.281 0.803 1.702 9475
0.283 0.807 1.700 8519
0.286 0.815 1.704 6888
0.287 0.820 1.702 6368
0.289 0.824 1.699 6467
0.290 0.828 1.696 5654
0.293 0.836 1.700 4898
0.293 0.837 1.691 5169
0.293 0.837 1.682 5520
0.296 0.845 1.686 6022
0.298 0.849 1.683 6844
0.299 0.854 1.680 7169
0.301 0.858 1.678 6461
0.301 0.858 1.668 6545
0.302 0.862 1.665 9183
0.306 0.874 1.676 13760
0.308 0.879 1.673 16684
0.311 0.887 1.677 13652
0.315 0.899 1.688 8097
0.317 0.903 1.685 5617
0.318 0.907 1.682 7701
0.320 0.912 1.679 14307
0.322 0.920 1.683 18833
0.324 0.924 1.680 18199
0.327 0.933 1.684 13510
0.328 0.937 1.681 9812
0.330 0.941 1.678 9044
0.328 0.937 1.662 6699
0.325 0.929 1.639 7191
0.330 0.941 1.649 11385
0.336 0.958 1.666 25891
0.337 0.962 1.663 43358
0.339 0.966 1.660 49595
0.342 0.975 1.663 44241
0.343 0.979 1.660 31265
0.346 0.987 1.664 17366
0.350 1.000 1.673 13009
0.350 1.000 1.664 12198
0.353 1.008 1.667 12747
0.356 1.017 1.670 19796
0.358 1.021 1.667 28936
0.358 1.021 1.657 32987
0.359 1.025 1.654 31855
0.361 1.029 1.651 28046
0.364 1.038 1.654 17794
0.371 1.060 1.676 9626
0.373 1.064 1.673 9241
0.374 1.068 1.669 14813
0.376 1.072 1.666 20953
0.377 1.077 1.663 26474
0.380 1.085 1.666 24441
0.382 1.089 1.662 20271
0.383 1.094 1.659 20110
0.388 1.107 1.668 17308
0.389 1.111 1.664 13141
0.393 1.120 1.667 13025
0.394 1.124 1.663 15905
0.394 1.124 1.654 17111
0.395 1.128 1.650 17724
0.400 1.141 1.659 16698
0.405 1.155 1.667 13046
0.405 1.154 1.658 9316
0.408 1.163 1.660 8566
0.411 1.172 1.663 11877
0.411 1.172 1.653 15707
0.414 1.181 1.655 16219
0.415 1.185 1.651 12081
0.415 1.184 1.642 10120
0.415 1.183 1.632 10684
0.420 1.197 1.640 10457
0.423 1.206 1.642 8595
0.426 1.215 1.645 4939
0.427 1.219 1.641 4041
0.418 1.194 1.601 7126
0.421 1.203 1.604 13706
0.426 1.217 1.612 19479
0.426 1.216 1.602 21299
0.426 1.215 1.592 22349
0.427 1.219 1.588 18386
0.427 1.218 1.579 18158
0.428 1.222 1.575 17052
0.428 1.220 1.565 10169
0.427 1.219 1.555 9675
0.432 1.233 1.563 16972
0.434 1.237 1.559 24881
0.437 1.246 1.561 28726
0.438 1.250 1.557 27114
0.439 1.254 1.553 17440
0.441 1.258 1.549 19605
0.442 1.262 1.545 29003
0.443 1.266 1.541 29381
0.445 1.269 1.537 30061
0.448 1.278 1.539 18016
0.453 1.293 1.546 10996
0.454 1.297 1.542 18735
0.456 1.300 1.538 18209
0.459 1.310 1.540 18929
0.460 1.313 1.536 23167
0.462 1.317 1.531 23857
0.463 1.321 1.527 24230
0.462 1.319 1.518 20694
0.462 1.318 1.508 13818
0.463 1.322 1.504 19165
0.464 1.325 1.500 16545
0.510 1.454 1.620 17357
0.515 1.469 1.627 12072
0.518 1.479 1.627 11470
0.518 1.477 1.617 15119
0.517 1.476 1.607 13864
0.520 1.485 1.608 14996
0.526 1.500 1.614 16943
0.533 1.521 1.625 18508
0.536 1.531 1.626 17221
0.540 1.540 1.626 16539
0.541 1.544 1.622 19310
0.543 1.548 1.617 17266
0.544 1.552 1.612 10370
0.538 1.534 1.586 6679
0.551 1.572 1.612 9016
0.550 1.570 1.602 12297
0.550 1.568 1.592 9493
0.557 1.589 1.603 6904
0.568 1.622 1.623 11013
0.566 1.615 1.608 14180
0.573 1.636 1.618 16342
0.577 1.645 1.618 20624
0.580 1.655 1.618 15923
0.579 1.654 1.608 13071
0.581 1.658 1.603 16544
0.582 1.662 1.597 15644
0.588 1.677 1.602 12617
0.591 1.687 1.602 12011
0.591 1.685 1.592 11005
0.608 1.736 1.626 11217
0.614 1.752 1.630 13943
0.619 1.768 1.634 10358
0.625 1.783 1.639 11846
0.626 1.788 1.633 20893
0.626 1.786 1.623 27116
0.627 1.790 1.617 27115
0.629 1.794 1.611 26403
0.628 1.792 1.601 19640
0.631 1.802 1.600 13385
0.637 1.818 1.604 12366
0.641 1.828 1.603 8427
0.650 1.856 1.616 6476
0.656 1.872 1.620 7469
0.666 1.900 1.633 10580
0.672 1.916 1.636 15972
0.673 1.920 1.630 12791
0.691 1.973 1.661 15915
0.693 1.977 1.655 24236
0.694 1.981 1.648 28245
0.698 1.992 1.647 33296
0.697 1.990 1.636 39283
0.699 1.994 1.630 45757
0.700 1.998 1.624 46359
0.699 1.996 1.613 43879
0.701 2.000 1.607 34623
0.702 2.004 1.600 27803
0.704 2.008 1.594 28587
0.705 2.012 1.588 19019
0.715 2.040 1.599 11228
0.723 2.063 1.606 13334
0.733 2.092 1.617 17895
0.739 2.109 1.619 15901
0.745 2.125 1.621 12830
0.746 2.129 1.614 10014
0.754 2.152 1.620 8881
0.758 2.163 1.618 11874
0.757 2.160 1.607 13021
0.758 2.164 1.600 15400
0.760 2.168 1.593 15923
0.764 2.179 1.591 14184
0.765 2.183 1.584 10123
0.815 2.327 1.668 6370
0.815 2.325 1.656 8350
0.814 2.322 1.645 7703
0.809 2.307 1.626 5848
0.801 2.286 1.602 4979
0.832 2.373 1.648 7102
0.835 2.384 1.644 8275
0.837 2.388 1.637 7009
0.843 2.405 1.637 5454
0.849 2.422 1.638 4359
0.850 2.426 1.630 3552
0.865 2.469 1.646 3252
0.858 2.447 1.623 3270
0.861 2.458 1.619 3128
0.863 2.462 1.611 3050
0.326 0.929 0.704 3593
0.326 0.931 0.701 5541
0.327 0.932 0.698 7001
0.327 0.934 0.695 8667
0.328 0.935 0.692 10182
0.328 0.937 0.689 10873
0.329 0.938 0.686 10709
0.327 0.933 0.680 10427
0.327 0.934 0.677 10428
0.328 0.936 0.674 9882
0.328 0.937 0.671 9653
0.327 0.932 0.664 9577
0.327 0.933 0.661 8842
0.328 0.935 0.658 7997
0.330 0.943 0.659 6315
0.336 0.958 0.663 4800
0.331 0.946 0.653 5319
0.332 0.947 0.650 5916
0.959 2.736 1.567 6132
0.331 0.943 0.640 6235
0.331 0.944 0.637 5064
1.013 2.889 1.613 4041
1.012 2.887 1.600 5612
1.015 2.897 1.595 5588
0.335 0.957 0.629 6328
0.333 0.951 0.622 7580
0.334 0.952 0.619 7440
0.337 0.961 0.620 7354
0.335 0.955 0.613 5977
0.335 0.956 0.610 4653
0.333 0.951 0.604 3967
0.334 0.952 0.601 2668
1.037 2.960 1.525 2399
1.115 3.183 1.617 2103
1.117 3.187 1.607 2103
1.118 3.191 1.597 1051
0.341 0.972 0.592 1227
0.231 0.654 1.720 7731
0.232 0.658 1.718 7522
0.235 0.666 1.723 7484
0.237 0.670 1.721 6252
0.238 0.674 1.719 4992
0.241 0.682 1.724 5085
0.241 0.683 1.714 7246
0.243 0.687 1.712 9528
0.244 0.692 1.710 11285
0.246 0.696 1.708 13042
0.248 0.704 1.713 14682
0.250 0.708 1.710 16465
0.251 0.712 1.708 15813
0.253 0.716 1.706 13096
0.255 0.721 1.704 11030
0.256 0.725 1.701 7850
0.256 0.726 1.692 4712
0.259 0.734 1.697 6800
0.262 0.741 1.701 9091
0.263 0.746 1.699 10386
0.266 0.753 1.704 11718
0.266 0.754 1.694 14648
0.268 0.758 1.692 17616
0.269 0.763 1.689 17100
0.272 0.770 1.694 16892
0.274 0.775 1.692 14461
0.276 0.782 1.696 12062
0.278 0.787 1.694 10556
0.282 0.798 1.705 9222
0.282 0.799 1.695 9852
0.285 0.807 1.700 9087
0.288 0.815 1.704 7443
0.289 0.819 1.702 7062
0.291 0.823 1.699 7237
0.292 0.828 1.696 6260
0.294 0.832 1.694 5283
0.295 0.836 1.691 5183
0.297 0.840 1.688 5146
0.298 0.845 1.686 5559
0.300 0.849 1.683 6493
0.301 0.853 1.680 7075
0.303 0.857 1.678 6407
0.303 0.857 1.668 6417
0.304 0.862 1.665 8616
0.307 0.870 1.669 12395
0.310 0.878 1.673 14958
0.311 0.882 1.671 11969
0.317 0.898 1.688 7562
0.319 0.902 1.685 6135
0.320 0.907 1.682 8385
0.322 0.911 1.679 14857
0.325 0.919 1.683 19174
0.328 0.928 1.687 18530
0.329 0.932 1.684 14550
0.331 0.936 1.681 11560
0.332 0.940 1.678 10463
0.331 0.936 1.662 7741
0.329 0.932 1.646 7780
0.332 0.940 1.649 10999
0.338 0.957 1.666 25043
0.339 0.961 1.663 43426
0.341 0.965 1.660 50379
0.342 0.969 1.657 45141
0.345 0.978 1.660 32904
0.348 0.986 1.664 19701
0.351 0.995 1.667 15647
0.353 0.999 1.664 14305
0.356 1.008 1.667 13168
0.359 1.016 1.670 19935
0.360 1.020 1.667 30081
0.360 1.020 1.657 34201
0.362 1.024 1.654 32514
0.363 1.028 1.651 28274
0.365 1.032 1.648 17594
0.374 1.059 1.676 9539
0.377 1.068 1.679 10149
0.377 1.067 1.669 16423
0.378 1.072 1.666 24405
0.380 1.076 1.663 30525
0.381 1.080 1.659 27652
0.384 1.089 1.662 22520
0.386 1.093 1.659 22090
0.391 1.106 1.668 16982
0.392 1.110 1.664 10368
0.395 1.119 1.667 9547
0.398 1.128 1.670 13076
0.396 1.123 1.654 14343
0.398 1.127 1.650 14405
0.403 1.140 1.659 13307
0.406 1.149 1.661 10826
0.407 1.154 1.658 9254
0.409 1.158 1.654 9649
0.414 1.171 1.663 12122
0.413 1.171 1.653 16006
0.417 1.180 1.655 17203
0.416 1.179 1.645 12561
0.418 1.183 1.642 10621
0.418 1.182 1.632 12526
0.421 1.191 1.634 12537
0.422 1.195 1.630 9288
0.425 1.204 1.633 4523
0.422 1.194 1.611 3766
0.421 1.193 1.601 7331
0.424 1.202 1.604 14032
0.428 1.211 1.606 19074
0.427 1.210 1.596 19324
0.429 1.214 1.592 18814
0.430 1.218 1.588 16253
0.430 1.217 1.579 16842
0.431 1.220 1.575 15370
0.429 1.214 1.559 9880
0.428 1.213 1.550 10007
0.433 1.227 1.557 13899
0.437 1.236 1.559 19734
0.440 1.245 1.561 23040
0.441 1.249 1.557 22220
0.441 1.248 1.548 15256
0.442 1.252 1.544 18796
0.445 1.261 1.545 28669
0.447 1.264 1.541 28312
0.448 1.268 1.537 27228
0.449 1.272 1.533 15688
0.454 1.286 1.541 8757
0.457 1.296 1.542 16863
0.459 1.299 1.538 16172
0.460 1.303 1.534 15602
0.463 1.312 1.536 19496
0.465 1.316 1.531 19885
0.464 1.315 1.522 22453
0.466 1.318 1.518 20388
0.465 1.317 1.508 11612
0.464 1.315 1.498 18616
0.466 1.319 1.494 18305
0.513 1.453 1.620 14501
0.518 1.468 1.627 12243
0.522 1.477 1.627 12763
0.521 1.476 1.617 14561
0.521 1.474 1.607 13949
0.524 1.484 1.608 18431
0.529 1.499 1.614 21462
0.535 1.514 1.620 20761
0.540 1.529 1.626 19659
0.543 1.539 1.626 20178
0.543 1.537 1.616 23068
0.546 1.547 1.617 19470
0.548 1.551 1.612 10800
0.541 1.533 1.586 6596
0.555 1.570 1.612 8525
0.554 1.569 1.602 12218
0.553 1.567 1.592 10071
0.555 1.571 1.587 6007
0.572 1.621 1.623 7855
0.568 1.607 1.603 10806
0.577 1.634 1.618 14146
0.581 1.644 1.618 20231
0.584 1.654 1.618 16967
0.583 1.652 1.608 15571
0.585 1.656 1.603 18985
0.586 1.660 1.597 17137
0.592 1.676 1.602 13235
0.593 1.680 1.597 11597
0.595 1.684 1.592 11225
0.615 1.740 1.631 11941
0.620 1.756 1.635 14838
0.624 1.766 1.634 9821
0.629 1.782 1.639 10501
0.629 1.780 1.628 22380
0.630 1.784 1.623 30447
0.631 1.788 1.617 31772
0.633 1.792 1.611 30294
0.632 1.790 1.601 21898
0.634 1.794 1.595 15261
0.639 1.810 1.599 12982
0.643 1.820 1.598 7672
0.648 1.836 1.602 4663
0.665 1.882 1.629 5494
0.673 1.905 1.637 10421
0.676 1.915 1.636 16195
0.678 1.919 1.630 13119
0.696 1.971 1.661 14960
0.698 1.976 1.655 21908
0.699 1.980 1.648 25058
0.703 1.990 1.647 29904
0.702 1.988 1.636 36311
0.703 1.992 1.630 43797
0.705 1.996 1.624 45368
0.704 1.994 1.613 43736
0.706 1.998 1.607 33517
0.705 1.996 1.596 27450
0.706 2.000 1.590 30133
0.710 2.010 1.588 19840
0.720 2.039 1.599 10810
0.735 2.080 1.619 14550
0.738 2.090 1.617 18736
0.744 2.107 1.619 16365
0.750 2.124 1.621 13485
0.751 2.128 1.614 10160
0.759 2.150 1.620 8361
0.763 2.161 1.618 12338
0.762 2.159 1.607 14012
0.764 2.163 1.600 16060
0.765 2.166 1.593 16344
0.769 2.177 1.591 14583
0.770 2.181 1.584 10451
0.821 2.325 1.668 5877
0.822 2.329 1.661 7945
0.819 2.320 1.645 7571
0.819 2.318 1.634 6044
0.831 2.354 1.647 5257
0.835 2.365 1.643 7252
0.839 2.375 1.640 8102
0.843 2.386 1.637 6736
0.844 2.390 1.629 5017
0.852 2.413 1.634 3538
0.854 2.418 1.626 3285
0.857 2.428 1.622 3140
0.861 2.439 1.619 3396
0.329 0.932 0.714 3948
0.327 0.927 0.707 4463
0.328 0.928 0.704 5209
0.328 0.930 0.701 7413
0.329 0.931 0.698 8991
0.329 0.933 0.695 10869
0.330 0.934 0.692 12602
0.330 0.936 0.689 13397
0.331 0.937 0.686 13166
0.329 0.932 0.680 12691
0.330 0.934 0.677 12361
0.330 0.935 0.674 11388
0.331 0.936 0.671 10855
0.329 0.931 0.664 10594
0.329 0.933 0.661 9943
0.330 0.934 0.658 9174
0.333 0.942 0.659 7399
0.336 0.950 0.659 5818
0.336 0.952 0.656 5925
0.334 0.946 0.650 6075
0.963 2.727 1.563 6377
0.333 0.942 0.640 6741
0.333 0.944 0.637 5675
0.336 0.952 0.638 4687
1.019 2.884 1.600 5063
1.022 2.895 1.595 5063
0.338 0.956 0.629 5210
0.338 0.957 0.626 6308
0.338 0.958 0.623 6335
0.339 0.960 0.620 6363
0.337 0.954 0.613 5213
1.035 2.932 1.547 4327
0.338 0.957 0.607 3550
0.336 0.951 0.601 2449
1.039 2.944 1.519 2222
1.121 3.173 1.614 1935
1.122 3.177 1.604 1935
1.123 3.181 1.594 967
0.343 0.971 0.592 980
0.232 0.654 1.720 8004
0.233 0.658 1.718 7618
0.236 0.665 1.723 7409
0.238 0.670 1.721 6151
0.239 0.674 1.719 4838
0.242 0.682 1.724 4891
0.242 0.683 1.714 7063
0.244 0.687 1.712 9345
0.245 0.691 1.710 11076
0.247 0.696 1.708 12808
0.249 0.703 1.713 14266
0.251 0.707 1.710 15906
0.252 0.712 1.708 15302
0.254 0.716 1.706 12699
0.256 0.720 1.704 10701
0.257 0.725 1.701 7704
0.257 0.725 1.692 4772
0.260 0.733 1.697 6774
0.263 0.741 1.701 8975
0.264 0.745 1.699 10207
0.267 0.753 1.704 11491
0.267 0.754 1.694 14535
0.269 0.758 1.692 17632
0.270 0.762 1.689 16995
0.273 0.770 1.694 16589
0.275 0.774 1.692 14331
0.276 0.778 1.689 12073
0.279 0.786 1.694 10621
0.283 0.798 1.705 9209
0.283 0.798 1.695 10200
0.286 0.806 1.700 9672
0.289 0.814 1.704 8086
0.290 0.819 1.702 7810
0.292 0.823 1.699 8005
0.293 0.827 1.696 7038
0.295 0.831 1.694 6071
0.296 0.836 1.691 5461
0.298 0.840 1.688 4959
0.299 0.844 1.686 5208
0.301 0.848 1.683 6063
0.302 0.853 1.680 6775
0.304 0.857 1.678 6102
0.304 0.857 1.668 5995
0.306 0.861 1.665 7899
0.308 0.869 1.669 11199
0.311 0.877 1.673 13404
0.313 0.882 1.671 10724
0.316 0.890 1.674 7495
0.319 0.898 1.678 6964
0.320 0.902 1.675 9198
0.323 0.910 1.679 15145
0.326 0.919 1.683 19053
0.329 0.927 1.687 18439
0.330 0.931 1.684 15133
0.332 0.935 1.681 12886
0.333 0.940 1.678 11395
0.333 0.940 1.668 8782
0.332 0.936 1.652 8491
0.335 0.944 1.656 10987
0.339 0.956 1.666 24222
0.341 0.961 1.663 43183
0.342 0.965 1.660 50703
0.344 0.969 1.657 45951
0.347 0.977 1.660 34384
0.350 0.986 1.664 22122
0.353 0.994 1.667 18532
0.356 1.003 1.670 16540
0.357 1.007 1.667 14081
0.360 1.016 1.670 20660
0.362 1.020 1.667 31175
0.362 1.019 1.657 34986
0.363 1.024 1.654 32653
0.365 1.028 1.651 27846
0.366 1.032 1.648 17757
0.375 1.058 1.676 10165
0.379 1.067 1.679 11586
0.378 1.067 1.669 17911
0.380 1.071 1.666 26948
0.381 1.075 1.663 33481
0.383 1.079 1.659 29918
0.386 1.088 1.662 24387
0.387 1.092 1.659 24075
0.392 1.106 1.668 16824
0.395 1.114 1.670 8004
0.398 1.123 1.673 6706
0.400 1.127 1.670 10592
0.398 1.122 1.654 12417
0.400 1.126 1.650 12089
0.404 1.140 1.659 10796
0.408 1.149 1.661 8946
0.409 1.153 1.658 8894
0.410 1.157 1.654 10350
0.414 1.166 1.657 11441
0.415 1.170 1.653 15155
0.417 1.174 1.649 17593
0.416 1.174 1.639 13212
0.419 1.183 1.642 10404
0.419 1.182 1.632 12808
0.421 1.186 1.628 13481
0.422 1.190 1.625 9419
0.422 1.189 1.615 4738
0.421 1.188 1.605 4309
0.423 1.192 1.601 7050
0.426 1.201 1.604 13272
0.429 1.210 1.606 17796
0.429 1.209 1.596 17188
0.430 1.213 1.592 15414
0.430 1.212 1.582 13435
0.431 1.216 1.579 14786
0.433 1.220 1.575 13745
0.431 1.214 1.559 10279
0.430 1.212 1.550 11065
0.435 1.226 1.557 12402
0.438 1.235 1.559 14751
0.441 1.245 1.561 17292
0.443 1.248 1.557 17078
0.442 1.247 1.548 12904
0.444 1.251 1.544 18114
0.447 1.260 1.545 28670
0.448 1.264 1.541 26445
0.450 1.268 1.537 22417
0.451 1.271 1.533 15847
0.452 1.275 1.529 9560
0.459 1.295 1.542 13494
0.461 1.299 1.538 12353
0.462 1.303 1.534 11200
0.465 1.312 1.536 15560
0.467 1.315 1.531 17068
0.466 1.314 1.522 21552
0.467 1.318 1.518 19774
0.465 1.311 1.502 10914
0.466 1.314 1.498 19305
0.468 1.318 1.494 20218
0.515 1.452 1.620 11043
0.520 1.467 1.627 12047
0.524 1.477 1.627 14471
0.523 1.475 1.617 13678
0.523 1.474 1.607 12803
0.528 1.489 1.613 21074
0.531 1.498 1.614 25493
0.537 1.513 1.620 21984
0.544 1.534 1.631 20911
0.546 1.538 1.626 23045
0.545 1.537 1.616 26248
0.549 1.546 1.617 20553
0.550 1.550 1.612 10948
0.551 1.554 1.607 6776
0.555 1.564 1.607 8583
0.556 1.568 1.602 11530
0.556 1.566 1.592 10223
0.559 1.576 1.592 5712
0.577 1.625 1.628 5759
0.568 1.601 1.598 7381
0.581 1.639 1.623 13058
0.585 1.649 1.623 20240
0.586 1.653 1.618 17953
0.586 1.651 1.608 17897
0.587 1.655 1.603 21002
0.589 1.659 1.597 18184
0.592 1.669 1.597 13614
0.596 1.679 1.597 11019
0.597 1.683 1.592 11294
0.619 1.745 1.636 13069
0.625 1.761 1.640 15811
0.626 1.765 1.634 11984
0.630 1.775 1.634 12513
0.631 1.779 1.628 24540
0.633 1.783 1.623 33571
0.634 1.787 1.617 35794
0.635 1.791 1.611 33268
0.635 1.789 1.601 23750
0.636 1.793 1.595 17198
0.640 1.803 1.595 14038
0.641 1.807 1.589 7854
0.649 1.829 1.597 3990
0.670 1.887 1.634 4987
0.675 1.904 1.637 10449
0.679 1.914 1.636 15790
0.678 1.912 1.625 12963
0.699 1.970 1.661 13513
0.700 1.975 1.655 18806
0.702 1.979 1.648 21024
0.706 1.989 1.647 25644
0.707 1.993 1.641 32227
0.706 1.991 1.630 40255
0.706 1.989 1.619 43429
0.705 1.987 1.608 42479
0.706 1.991 1.602 32741
0.708 1.995 1.596 28428
0.709 1.999 1.590 32224
0.710 2.003 1.583 20958
0.712 2.007 1.577 11319
0.738 2.079 1.619 14752
0.741 2.089 1.617 18651
0.749 2.112 1.623 16332
0.753 2.122 1.621 13874
0.752 2.120 1.610 10445
0.762 2.149 1.620 8024
0.766 2.160 1.618 12566
0.765 2.157 1.607 14704
0.767 2.161 1.600 16287
0.768 2.165 1.593 16252
0.770 2.169 1.587 14634
0.773 2.180 1.584 10460
0.824 2.324 1.668 5357
0.826 2.328 1.661 7467
0.823 2.319 1.645 7422
0.824 2.323 1.638 6464
0.832 2.347 1.643 5899
0.838 2.364 1.643 7446
0.842 2.374 1.640 8042
0.844 2.378 1.633 6658
0.847 2.389 1.629 4970
0.849 2.393 1.622 3344
0.853 2.403 1.618 3585
0.329 0.928 0.719 4154
0.330 0.930 0.717 4846
0.330 0.931 0.714 5664
0.329 0.926 0.707 6249
0.329 0.928 0.704 7041
0.330 0.929 0.701 9351
0.330 0.931 0.698 10936
0.331 0.932 0.695 12905
0.331 0.934 0.692 14747
0.332 0.935 0.689 15597
0.332 0.937 0.686 15281
0.330 0.932 0.680 14615
0.331 0.933 0.677 13954
0.332 0.935 0.674 12577
0.332 0.936 0.671 11710
0.330 0.931 0.664 11230
0.331 0.932 0.661 10663
0.331 0.934 0.658 9971
0.334 0.942 0.659 8237
0.337 0.950 0.659 6712
0.337 0.951 0.656 6467
0.338 0.953 0.653 6222
0.965 2.719 1.560 6654
0.334 0.942 0.640 6977
0.335 0.943 0.637 6063
0.337 0.951 0.638 5239
0.987 2.782 1.550 5241
0.991 2.792 1.544 4733
1.030 2.904 1.589 4538
0.339 0.957 0.626 5126
0.340 0.958 0.623 5206
0.340 0.959 0.620 5286
1.036 2.920 1.552 4661
1.040 2.931 1.547 4529
1.041 2.934 1.537 3485
1.040 2.931 1.525 2465
1.041 2.935 1.516 2465
1.026 2.891 1.485 1813
1.127 3.176 1.604 1687
1.128 3.180 1.594 843
0.344 0.971 0.592 701
0.234 0.653 1.720 8541
0.235 0.657 1.718 7713
0.238 0.665 1.723 7115
0.240 0.669 1.721 5800
0.242 0.677 1.726 4408
0.244 0.681 1.724 4479
0.244 0.682 1.714 6506
0.246 0.686 1.712 8708
0.247 0.691 1.710 10407
0.249 0.695 1.708 12106
0.252 0.702 1.713 13338
0.253 0.707 1.710 14757
0.255 0.711 1.708 14198
0.256 0.715 1.706 11733
0.258 0.720 1.704 9827
0.258 0.720 1.694 7443
0.260 0.725 1.692 5128
0.262 0.732 1.697 7007
0.265 0.740 1.701 9113
0.267 0.744 1.699 10180
0.269 0.752 1.704 11295
0.270 0.753 1.694 14323
0.270 0.754 1.685 17509
0.273 0.761 1.689 16633
0.275 0.769 1.694 16006
0.277 0.773 1.692 14025
0.279 0.778 1.689 12044
0.280 0.782 1.687 10466
0.283 0.790 1.691 8982
0.286 0.798 1.695 10080
0.289 0.805 1.700 9752
0.291 0.813 1.704 8325
0.293 0.818 1.702 8332
0.294 0.822 1.699 8695
0.296 0.826 1.696 7846
0.297 0.830 1.694 6998
0.299 0.835 1.691 5934
0.302 0.843 1.695 5070
0.302 0.843 1.686 4927
0.302 0.844 1.676 5571
0.304 0.848 1.674 6319
0.307 0.856 1.678 5600
0.308 0.860 1.675 5422
0.308 0.860 1.665 6988
0.311 0.868 1.669 9871
0.314 0.877 1.673 11810
0.315 0.881 1.671 9724
0.317 0.885 1.668 7747
0.318 0.889 1.665 7857
0.323 0.901 1.675 10049
0.326 0.909 1.679 15393
0.329 0.918 1.683 18751
0.332 0.926 1.687 18113
0.333 0.930 1.684 15322
0.335 0.934 1.681 13675
0.336 0.939 1.678 11766
0.336 0.939 1.668 9704
0.336 0.939 1.659 9783
0.338 0.943 1.656 11408
0.341 0.951 1.659 23770
