-0.210 1.688 1.909 17732
-0.211 1.698 1.910 14076
-0.210 1.692 1.894 10629
-0.210 1.692 1.883 8918
-0.213 1.714 1.895 6545
-0.214 1.724 1.895 12703
-0.216 1.740 1.901 15534
-0.217 1.745 1.896 9846
-0.215 1.728 1.869 12134
-0.216 1.739 1.869 14699
-0.219 1.766 1.886 12015
-0.222 1.788 1.897 8313
-0.224 1.799 1.897 8780
-0.226 1.821 1.908 10221
-0.228 1.832 1.908 17191
-0.228 1.831 1.897 22295
-0.230 1.848 1.903 17306
-0.232 1.870 1.913 18516
-0.232 1.870 1.902 21812
-0.233 1.875 1.897 20484
-0.234 1.880 1.891 11230
-0.239 1.920 1.917 8861
-0.241 1.942 1.928 13068
-0.242 1.948 1.922 18095
-0.243 1.953 1.916 17341
-0.240 1.934 1.889 9515
-0.244 1.963 1.904 5034
-0.247 1.986 1.914 11494
-0.248 1.997 1.913 21217
-0.249 2.002 1.908 21159
-0.250 2.013 1.907 13075
-0.255 2.054 1.932 11754
-0.256 2.059 1.925 15984
-0.256 2.064 1.919 13382
-0.256 2.063 1.908 10207
-0.261 2.105 1.932 10671
-0.263 2.116 1.931 14368
-0.264 2.127 1.930 14707
-0.265 2.132 1.924 10651
-0.267 2.149 1.927 9382
-0.268 2.155 1.921 13634
-0.268 2.160 1.914 11800
-0.277 2.232 1.962 7782
-0.280 2.250 1.966 9846
-0.279 2.249 1.954 11018
-0.279 2.248 1.942 9664
-0.279 2.247 1.931 12609
-0.282 2.271 1.939 19601
-0.284 2.282 1.937 22489
-0.284 2.287 1.930 15790
-0.285 2.293 1.923 11559
-0.287 2.310 1.926 16745
-0.288 2.315 1.919 19872
-0.288 2.320 1.912 14036
-0.289 2.326 1.905 8827
-0.292 2.350 1.912 11631
-0.293 2.355 1.906 11556
-0.300 2.417 1.940 14086
-0.300 2.416 1.929 15360
-0.298 2.395 1.903 13312
-0.297 2.394 1.891 8264
-0.305 2.457 1.925 11825
-0.304 2.449 1.909 15529
-0.305 2.454 1.902 15788
-0.310 2.498 1.922 12016
-0.314 2.529 1.932 13377
-0.316 2.540 1.929 15773
-0.318 2.559 1.931 16624
-0.319 2.570 1.928 10969
-0.320 2.575 1.920 6571
-0.321 2.580 1.912 5970
-0.325 2.618 1.927 8984
-0.326 2.623 1.919 14790
-0.327 2.628 1.911 12373
-0.328 2.640 1.908 8955
-0.329 2.645 1.900 6278
-0.343 2.762 1.965 4849
-0.353 2.840 2.004 6143
-0.340 2.740 1.927 7980
-0.341 2.745 1.919 8030
-0.359 2.889 2.000 8603
-0.360 2.895 1.991 9699
-0.360 2.894 1.978 8675
-0.364 2.926 1.987 7940
-0.365 2.938 1.982 9390
-0.366 2.943 1.973 8393
-0.366 2.948 1.965 5326
-0.373 3.000 1.984 5274
-0.373 2.999 1.972 5538
-0.372 2.991 1.955 6746
-0.371 2.989 1.942 7682
-0.381 3.069 1.977 7043
-0.380 3.061 1.960 7612
-0.380 3.059 1.947 7797
-0.381 3.064 1.938 6310
-0.382 3.076 1.933 4834
-0.396 3.184 1.982 4396
-0.398 3.203 1.980 3438
-0.422 3.400 2.079 3021
-0.423 3.406 2.069 3969
-0.424 3.411 2.059 4916
-0.425 3.417 2.049 4180
-0.402 3.236 1.937 4225
-0.414 3.331 1.976 4328
-0.415 3.336 1.966 4779
-0.416 3.348 1.960 4278
-0.418 3.361 1.954 3136
-0.449 3.616 2.076 3455
-0.449 3.615 2.062 4148
-0.445 3.585 2.033 5238
-0.444 3.577 2.015 4542
-0.442 3.554 1.990 4521
-0.443 3.567 1.983 4554
-0.444 3.572 1.973 4636
-0.444 3.570 1.959 3947
-0.443 3.568 1.944 3468
-0.469 3.771 2.032 3467
-0.470 3.783 2.024 4199
-0.471 3.789 2.013 4579
-0.471 3.794 2.002 4933
-0.473 3.807 1.994 4958
-0.474 3.812 1.983 3855
-0.485 3.903 2.012 3088
-0.486 3.915 2.004 2736
-0.503 4.049 2.052 3046
-0.519 4.175 2.096 2906
-0.520 4.181 2.084 4028
-0.520 4.187 2.072 3596
-0.500 4.020 1.981 3650
-0.500 4.026 1.969 3650
-0.502 4.038 1.961 3268
-0.503 4.050 1.952 2974
-0.525 4.221 2.013 2712
-0.524 4.219 1.997 3038
-0.525 4.225 1.985 1519
-0.499 4.013 1.879 517
-0.089 0.731 1.814 5260
-0.090 0.742 1.826 7150
-0.091 0.750 1.831 9467
-0.092 0.755 1.829 9467
-0.092 0.760 1.826 12920
-0.093 0.768 1.831 16414
-0.094 0.773 1.829 15519
-0.094 0.778 1.826 14624
-0.095 0.786 1.831 11121
-0.096 0.791 1.829 7982
-0.097 0.799 1.834 8076
-0.098 0.804 1.831 5465
-0.100 0.820 1.850 3245
-0.100 0.825 1.848 2418
-0.101 0.833 1.852 1600
-0.101 0.835 1.843 3428
-0.102 0.839 1.840 5219
-0.102 0.844 1.837 8943
-0.103 0.849 1.835 12713
-0.104 0.858 1.839 14904
-0.105 0.863 1.837 17137
-0.106 0.871 1.841 17456
-0.107 0.880 1.846 18445
-0.107 0.885 1.843 18443
-0.108 0.893 1.847 19036
-0.109 0.902 1.851 16045
-0.111 0.911 1.856 13478
-0.111 0.912 1.846 11134
-0.110 0.905 1.822 9508
-0.112 0.926 1.847 11682
-0.113 0.934 1.851 14857
-0.114 0.943 1.856 14757
-0.116 0.956 1.866 15777
-0.117 0.961 1.864 18372
-0.117 0.966 1.861 20966
-0.118 0.971 1.858 20156
-0.118 0.972 1.848 14786
-0.119 0.977 1.845 10155
-0.118 0.974 1.829 10445
-0.119 0.978 1.826 11085
-0.119 0.983 1.823 9638
-0.121 0.996 1.833 9868
-0.123 1.014 1.850 13112
-0.123 1.014 1.841 16286
-0.124 1.019 1.838 18486
-0.125 1.028 1.841 18432
-0.126 1.042 1.852 17791
-0.127 1.046 1.848 16661
-0.128 1.051 1.845 14009
-0.129 1.061 1.849 13768
-0.130 1.074 1.859 16689
-0.131 1.079 1.856 19487
-0.132 1.088 1.859 18952
-0.132 1.089 1.849 15813
-0.133 1.098 1.853 18300
-0.134 1.103 1.849 20317
-0.134 1.108 1.846 19161
-0.135 1.108 1.836 25459
-0.135 1.113 1.833 37014
-0.136 1.118 1.829 40777
-0.137 1.128 1.833 41891
-0.138 1.137 1.836 37178
-0.139 1.146 1.839 26346
-0.140 1.156 1.842 23877
-0.141 1.161 1.838 22281
-0.143 1.179 1.854 17985
-0.145 1.193 1.864 24436
-0.145 1.198 1.860 32803
-0.146 1.203 1.856 36380
-0.147 1.213 1.859 35253
-0.149 1.227 1.868 25580
-0.151 1.241 1.877 12772
-0.151 1.246 1.874 8847
-0.152 1.251 1.870 10243
-0.152 1.256 1.866 13849
-0.153 1.261 1.863 14265
-0.153 1.261 1.852 10501
-0.157 1.290 1.880 14405
-0.157 1.290 1.870 17054
-0.158 1.305 1.879 14520
-0.160 1.315 1.881 15731
-0.161 1.325 1.883 16128
-0.162 1.334 1.886 14591
-0.163 1.344 1.888 10525
-0.164 1.349 1.884 11606
-0.164 1.354 1.880 16302
-0.166 1.364 1.882 14208
-0.167 1.374 1.884 9232
-0.168 1.384 1.886 7903
-0.169 1.394 1.888 7584
-0.171 1.409 1.896 11294
-0.172 1.414 1.892 18434
-0.174 1.430 1.900 21570
-0.174 1.430 1.889 24328
-0.174 1.435 1.885 26977
-0.175 1.445 1.887 16649
-0.177 1.460 1.895 7912
-0.178 1.470 1.896 11387
-0.180 1.480 1.898 12472
-0.182 1.496 1.905 7739
-0.182 1.501 1.901 8526
-0.182 1.501 1.890 16009
-0.183 1.506 1.886 17909
-0.184 1.516 1.887 14386
-0.187 1.537 1.901 11338
-0.188 1.547 1.902 10885
-0.188 1.552 1.897 13107
-0.190 1.562 1.898 20022
-0.190 1.568 1.894 23890
-0.192 1.578 1.895 13763
-0.193 1.594 1.902 11983
-0.193 1.593 1.891 19802
-0.193 1.593 1.881 17908
-0.195 1.603 1.882 13673
-0.197 1.619 1.888 15942
-0.197 1.619 1.878 12631
-0.198 1.635 1.884 10490
-0.200 1.645 1.885 13141
-0.202 1.667 1.897 14375
-0.204 1.683 1.904 17928
-0.206 1.693 1.904 13976
-0.205 1.687 1.888 11641
-0.205 1.692 1.883 10227
-0.208 1.714 1.895 7204
-0.209 1.725 1.895 11669
-0.211 1.735 1.896 12852
-0.213 1.757 1.907 9269
-0.210 1.729 1.869 12487
-0.211 1.739 1.869 15408
-0.210 1.733 1.853 11583
-0.217 1.789 1.897 8366
-0.218 1.800 1.897 7656
-0.222 1.828 1.914 9906
-0.222 1.833 1.908 19192
-0.222 1.832 1.897 24433
-0.224 1.843 1.897 17433
-0.226 1.865 1.908 15744
-0.226 1.864 1.897 22287
-0.227 1.870 1.891 22104
-0.228 1.875 1.886 11606
-0.234 1.926 1.923 9732
-0.236 1.943 1.928 13625
-0.236 1.948 1.922 17830
-0.236 1.947 1.911 16884
-0.237 1.953 1.905 9603
-0.239 1.969 1.910 7362
-0.241 1.986 1.914 13945
-0.242 1.997 1.913 23739
-0.243 2.003 1.908 23462
-0.244 2.014 1.907 14501
-0.247 2.037 1.916 11751
-0.250 2.060 1.925 15454
-0.250 2.059 1.914 13239
-0.251 2.064 1.908 10623
-0.256 2.105 1.932 10540
-0.257 2.117 1.931 14805
-0.258 2.122 1.925 15185
-0.259 2.133 1.924 10593
-0.262 2.156 1.932 8617
-0.262 2.161 1.926 13978
-0.262 2.160 1.914 12120
-0.271 2.233 1.962 7296
-0.272 2.245 1.961 9330
-0.273 2.250 1.954 9990
-0.273 2.249 1.942 8870
-0.274 2.254 1.936 12535
-0.276 2.272 1.939 20096
-0.277 2.283 1.937 23410
-0.278 2.288 1.930 16660
-0.278 2.293 1.923 12595
-0.281 2.311 1.926 17105
-0.281 2.316 1.919 19051
-0.281 2.315 1.907 13522
-0.282 2.326 1.905 9536
-0.285 2.344 1.908 12328
-0.285 2.349 1.901 12057
-0.293 2.418 1.940 12560
-0.293 2.417 1.929 13807
-0.290 2.390 1.898 13489
-0.290 2.389 1.887 8981
-0.298 2.458 1.925 10023
-0.297 2.450 1.909 13655
-0.298 2.455 1.902 14361
-0.304 2.505 1.926 11836
-0.307 2.530 1.932 13690
-0.308 2.541 1.929 15545
-0.311 2.559 1.931 15318
-0.312 2.571 1.928 9522
-0.313 2.576 1.920 6357
-0.313 2.581 1.912 6950
-0.318 2.619 1.927 9584
-0.319 2.624 1.919 14699
-0.319 2.629 1.911 11404
-0.321 2.648 1.912 7715
-0.322 2.653 1.904 5762
-0.336 2.770 1.969 4486
-0.333 2.742 1.940 6003
-0.333 2.741 1.927 8952
-0.333 2.746 1.919 8881
-0.350 2.884 1.996 8661
-0.352 2.896 1.991 9825
-0.351 2.895 1.978 8797
-0.355 2.927 1.987 7928
-0.357 2.939 1.982 9264
-0.357 2.944 1.973 8235
-0.358 2.949 1.965 5182
-0.364 3.001 1.984 5188
-0.363 2.993 1.967 5467
-0.362 2.985 1.950 6890
-0.363 2.990 1.942 7922
-0.373 3.070 1.977 7190
-0.372 3.062 1.960 7577
-0.371 3.060 1.947 7752
-0.372 3.065 1.938 6236
-0.377 3.105 1.948 5058
-0.386 3.178 1.978 4118
-0.389 3.204 1.980 3302
-0.381 3.141 1.932 2848
-0.414 3.407 2.069 3555
-0.414 3.412 2.059 4457
-0.414 3.411 2.045 3800
-0.393 3.237 1.937 4312
-0.404 3.332 1.976 4443
-0.405 3.337 1.966 5033
-0.407 3.350 1.960 4482
-0.408 3.362 1.954 3238
-0.428 3.527 2.028 3579
-0.440 3.623 2.066 4133
-0.435 3.587 2.033 4995
-0.434 3.578 2.015 4222
-0.432 3.556 1.990 3929
-0.433 3.568 1.983 4250
-0.434 3.573 1.973 4603
-0.434 3.571 1.959 3912
-0.433 3.570 1.944 3422
-0.458 3.772 2.032 3572
-0.459 3.778 2.021 4294
-0.459 3.783 2.010 4550
-0.461 3.795 2.002 4783
-0.461 3.801 1.991 4806
-0.462 3.806 1.979 3605
-0.474 3.904 2.012 2984
-0.492 4.052 2.067 2809
-0.492 4.057 2.055 3131
-0.487 4.013 2.020 2735
-0.508 4.183 2.084 3611
-0.488 4.016 1.993 3404
-0.488 4.022 1.981 3652
-0.489 4.027 1.969 3652
-0.490 4.039 1.961 3351
-0.492 4.052 1.952 3063
-0.513 4.223 2.013 2590
-0.512 4.221 1.997 2930
-0.513 4.226 1.985 1465
-0.487 4.015 1.879 569
-0.087 0.731 1.814 5108
-0.089 0.742 1.826 6975
-0.090 0.750 1.831 9100
-0.090 0.755 1.829 9100
-0.091 0.760 1.826 12589
-0.092 0.768 1.831 16178
-0.092 0.773 1.829 15631
-0.093 0.778 1.826 15084
-0.094 0.786 1.831 11670
-0.095 0.795 1.836 8613
-0.095 0.800 1.834 8753
-0.096 0.808 1.838 6158
-0.098 0.820 1.850 4331
-0.098 0.825 1.848 3474
-0.099 0.830 1.845 2618
-0.100 0.835 1.843 4297
-0.100 0.836 1.833 5963
-0.101 0.845 1.837 9470
-0.101 0.849 1.835 13062
-0.102 0.858 1.839 15002
-0.103 0.863 1.837 16971
-0.104 0.871 1.841 17664
-0.105 0.880 1.846 18855
-0.106 0.885 1.843 19430
-0.107 0.894 1.847 20403
-0.108 0.902 1.851 16988
-0.108 0.907 1.849 14178
-0.109 0.912 1.846 11469
-0.108 0.906 1.822 9213
-0.111 0.926 1.847 11759
-0.112 0.935 1.851 15008
-0.113 0.943 1.856 14714
-0.114 0.956 1.866 15328
-0.115 0.961 1.864 17706
-0.115 0.966 1.861 20083
-0.115 0.967 1.851 19583
-0.116 0.972 1.848 14362
-0.116 0.969 1.831 9865
-0.116 0.974 1.829 10129
-0.116 0.975 1.819 10478
-0.117 0.984 1.823 9406
-0.119 0.997 1.833 10192
-0.121 1.014 1.850 13378
-0.121 1.015 1.841 16877
-0.122 1.019 1.838 19351
-0.123 1.029 1.841 19449
-0.124 1.038 1.845 18452
-0.125 1.047 1.848 16848
-0.126 1.052 1.845 13933
-0.127 1.061 1.849 13342
-0.128 1.074 1.859 16174
-0.129 1.079 1.856 19616
-0.129 1.084 1.852 20130
-0.130 1.089 1.849 17205
-0.131 1.098 1.853 18539
-0.132 1.103 1.849 19635
-0.132 1.108 1.846 18223
-0.133 1.113 1.843 24738
-0.133 1.114 1.833 37019
-0.134 1.118 1.829 41523
-0.135 1.128 1.833 42604
-0.136 1.137 1.836 37424
-0.137 1.147 1.839 25465
-0.138 1.156 1.842 22137
-0.139 1.161 1.838 20984
-0.141 1.184 1.861 18104
-0.143 1.193 1.864 25173
-0.143 1.198 1.860 33506
-0.144 1.203 1.856 36684
-0.145 1.213 1.859 34650
-0.147 1.227 1.868 24866
-0.148 1.241 1.877 13159
-0.149 1.246 1.874 9609
-0.149 1.251 1.870 10978
-0.150 1.256 1.866 14614
-0.150 1.257 1.856 15093
-0.151 1.262 1.852 11056
-0.154 1.286 1.874 14475
-0.154 1.291 1.870 17615
-0.155 1.300 1.872 14324
-0.157 1.315 1.881 14930
-0.158 1.325 1.883 15372
-0.159 1.335 1.886 13822
-0.160 1.340 1.882 10212
-0.161 1.350 1.884 10573
-0.162 1.355 1.880 14502
-0.163 1.365 1.882 12577
-0.164 1.375 1.884 9215
-0.165 1.385 1.886 8915
-0.167 1.395 1.888 8559
-0.168 1.405 1.890 11716
-0.169 1.415 1.892 16990
-0.170 1.425 1.894 17625
-0.171 1.430 1.889 20847
-0.171 1.435 1.885 25022
-0.173 1.445 1.887 16358
-0.174 1.460 1.895 8327
-0.176 1.470 1.896 10487
-0.177 1.481 1.898 11119
-0.179 1.496 1.905 8164
-0.178 1.491 1.889 9976
-0.179 1.496 1.884 17537
-0.180 1.506 1.886 19959
-0.181 1.516 1.887 16949
-0.183 1.532 1.895 11481
-0.185 1.547 1.902 9681
-0.185 1.552 1.897 11296
-0.186 1.558 1.893 16888
-0.187 1.563 1.888 19785
-0.188 1.573 1.889 10963
-0.190 1.594 1.902 10344
-0.190 1.588 1.885 18624
-0.190 1.593 1.881 18292
-0.192 1.604 1.882 15938
-0.193 1.620 1.888 18936
-0.194 1.625 1.884 13836
-0.195 1.635 1.884 10431
-0.197 1.646 1.885 13834
-0.199 1.667 1.897 14457
-0.201 1.683 1.904 17934
-0.201 1.683 1.893 15187
-0.201 1.682 1.882 13457
-0.202 1.693 1.883 11416
-0.204 1.709 1.889 7501
-0.206 1.725 1.895 10367
-0.207 1.730 1.890 10907
-0.202 1.690 1.841 9502
-0.203 1.701 1.841 12724
-0.208 1.740 1.869 15499
-0.208 1.739 1.858 11420
-0.213 1.784 1.892 8434
-0.206 1.726 1.826 7218
-0.218 1.822 1.908 10053
-0.219 1.833 1.908 20975
-0.219 1.832 1.897 25729
-0.220 1.843 1.897 17374
-0.221 1.854 1.897 14841
-0.223 1.865 1.897 23581
-0.223 1.870 1.891 24290
-0.224 1.875 1.886 13221
-0.231 1.933 1.928 10181
-0.231 1.938 1.922 13627
-0.233 1.949 1.922 17010
-0.233 1.948 1.911 16238
-0.233 1.953 1.905 10047
-0.235 1.964 1.904 9914
-0.237 1.987 1.914 15906
-0.239 1.998 1.913 25326
-0.239 2.003 1.908 25034
-0.240 2.008 1.902 15814
-0.243 2.031 1.911 11997
-0.245 2.054 1.920 14674
-0.246 2.059 1.914 13387
-0.245 2.052 1.898 12418
-0.251 2.106 1.932 10213
-0.253 2.117 1.931 14840
-0.253 2.122 1.925 15505
-0.255 2.133 1.924 10687
-0.258 2.163 1.937 8291
-0.259 2.168 1.931 14342
-0.258 2.161 1.914 12507
-0.266 2.228 1.957 6579
-0.268 2.245 1.961 8536
-0.268 2.244 1.949 8635
-0.268 2.243 1.937 7670
-0.268 2.248 1.931 11420
-0.271 2.272 1.939 19282
-0.273 2.284 1.937 23294
-0.273 2.289 1.930 17104
-0.274 2.294 1.923 13575
-0.276 2.312 1.926 17444
-0.277 2.317 1.919 18424
-0.276 2.316 1.907 13809
-0.278 2.327 1.905 10476
-0.280 2.345 1.908 12903
-0.281 2.350 1.901 12384
-0.289 2.418 1.940 11100
-0.285 2.385 1.905 13105
-0.285 2.384 1.894 13357
-0.285 2.389 1.887 9364
-0.293 2.452 1.921 8172
-0.293 2.450 1.909 11507
-0.293 2.456 1.902 12743
-0.300 2.512 1.931 11766
-0.302 2.530 1.932 13863
-0.304 2.542 1.929 14914
-0.305 2.554 1.926 13594
-0.307 2.572 1.928 8106
-0.308 2.583 1.924 6734
-0.308 2.582 1.912 8623
-0.312 2.613 1.922 10642
-0.313 2.625 1.919 14734
-0.314 2.630 1.911 10637
-0.317 2.655 1.916 6919
-0.318 2.660 1.908 5622
-0.318 2.665 1.901 4819
-0.328 2.743 1.940 6526
-0.327 2.741 1.927 9581
-0.328 2.746 1.919 9412
-0.344 2.885 1.996 8412
-0.345 2.890 1.987 9540
-0.345 2.889 1.974 8675
-0.350 2.927 1.987 7793
-0.351 2.939 1.982 8994
-0.352 2.945 1.973 7924
-0.356 2.983 1.985 4990
-0.358 3.002 1.984 4963
-0.358 2.994 1.967 5344
-0.357 2.986 1.950 6986
-0.357 2.991 1.942 8113
-0.367 3.071 1.977 7301
-0.366 3.062 1.960 7537
-0.366 3.061 1.947 7689
-0.366 3.066 1.938 6112
-0.372 3.112 1.952 5380
-0.376 3.152 1.962 4110
-0.388 3.246 2.004 3304
-0.375 3.141 1.932 3376
-0.380 3.181 1.942 3206
-0.407 3.406 2.055 4013
-0.386 3.233 1.946 3909
-0.387 3.238 1.937 4452
-0.397 3.326 1.972 4687
-0.399 3.338 1.966 5314
-0.400 3.350 1.960 4699
-0.402 3.363 1.954 3306
-0.421 3.528 2.028 3730
-0.433 3.624 2.066 4038
-0.433 3.622 2.051 4740
-0.427 3.579 2.015 3932
-0.425 3.556 1.990 3426
-0.426 3.569 1.983 3953
-0.427 3.574 1.973 4503
-0.427 3.572 1.959 3838
-0.426 3.570 1.944 3346
-0.451 3.773 2.032 3668
-0.451 3.778 2.021 4368
-0.452 3.784 2.010 4500
-0.452 3.789 1.998 4628
-0.454 3.802 1.991 4632
-0.455 3.807 1.979 3415
-0.466 3.905 2.012 2900
-0.485 4.060 2.071 2845
-0.485 4.065 2.059 3136
-0.473 3.964 1.997 2747
-0.500 4.183 2.084 3166
-0.480 4.017 1.993 3337
-0.481 4.030 1.985 3616
-0.482 4.035 1.973 3616
-0.482 4.040 1.961 3364
-0.483 4.046 1.949 3113
-0.504 4.224 2.013 2544
-0.503 4.215 1.994 2951
-0.504 4.220 1.982 1475
-0.480 4.016 1.879 620
-0.086 0.734 1.821 5119
-0.087 0.743 1.826 6802
-0.088 0.751 1.831 8650
-0.088 0.756 1.829 8650
-0.089 0.760 1.826 12138
-0.090 0.769 1.831 15797
-0.090 0.774 1.829 15580
-0.091 0.778 1.826 15364
-0.092 0.787 1.831 12078
-0.093 0.795 1.836 9125
-0.093 0.800 1.834 9279
-0.094 0.808 1.838 6888
-0.096 0.820 1.850 5412
-0.096 0.825 1.848 4576
-0.096 0.823 1.831 3816
-0.097 0.831 1.835 5317
-0.098 0.836 1.833 6820
-0.099 0.845 1.837 10036
-0.099 0.850 1.835 13404
-0.100 0.858 1.839 15142
-0.101 0.863 1.837 16901
-0.102 0.872 1.841 18105
-0.102 0.877 1.839 19615
-0.103 0.885 1.843 20635
-0.104 0.894 1.847 21857
-0.105 0.899 1.844 18285
-0.106 0.907 1.849 15026
-0.106 0.912 1.846 11839
-0.106 0.906 1.822 8872
-0.108 0.926 1.847 11762
-0.109 0.935 1.851 15005
-0.110 0.944 1.856 14593
-0.112 0.956 1.866 14846
-0.112 0.958 1.857 16914
-0.112 0.962 1.854 18998
-0.113 0.967 1.851 18895
-0.113 0.968 1.841 14340
-0.112 0.961 1.818 10784
-0.113 0.966 1.815 10439
-0.114 0.975 1.819 10285
-0.115 0.984 1.823 9374
-0.117 1.001 1.840 10485
-0.118 1.014 1.850 13469
-0.119 1.019 1.847 17148
-0.119 1.020 1.838 19815
-0.120 1.029 1.841 20262
-0.121 1.038 1.845 19309
-0.122 1.047 1.848 17295
-0.123 1.052 1.845 14034
-0.124 1.061 1.849 12929
-0.125 1.075 1.859 15516
-0.126 1.080 1.856 19601
-0.127 1.084 1.852 21337
-0.127 1.085 1.843 18888
-0.128 1.094 1.846 19146
-0.129 1.104 1.849 19044
-0.129 1.109 1.846 17353
-0.130 1.113 1.843 23963
-0.130 1.114 1.833 36544
-0.131 1.119 1.829 41547
-0.132 1.128 1.833 42695
-0.133 1.138 1.836 37492
-0.134 1.147 1.839 24745
-0.135 1.156 1.842 20620
-0.135 1.161 1.838 19783
-0.138 1.184 1.861 18239
-0.139 1.194 1.864 25696
-0.140 1.199 1.860 33890
-0.140 1.204 1.856 36654
-0.142 1.213 1.859 33846
-0.143 1.228 1.868 24302
-0.144 1.237 1.871 13956
-0.145 1.247 1.874 10578
-0.146 1.252 1.870 11709
-0.147 1.257 1.866 15326
-0.147 1.257 1.856 15980
-0.147 1.262 1.852 11713
-0.149 1.281 1.868 14627
-0.151 1.291 1.870 18152
-0.152 1.301 1.872 14448
-0.153 1.315 1.881 14307
-0.155 1.325 1.883 14579
-0.155 1.330 1.879 13014
-0.156 1.340 1.882 9894
-0.157 1.345 1.878 9977
-0.158 1.355 1.880 12745
-0.159 1.365 1.882 10804
-0.161 1.380 1.890 9133
-0.162 1.390 1.892 9869
-0.163 1.395 1.888 9595
-0.163 1.400 1.884 12640
-0.164 1.410 1.886 16235
-0.166 1.420 1.888 15034
-0.166 1.425 1.883 17935
-0.167 1.435 1.885 22765
-0.168 1.440 1.881 16084
-0.170 1.461 1.895 9109
-0.172 1.471 1.896 9910
-0.173 1.481 1.898 10337
-0.174 1.491 1.899 9151
-0.173 1.486 1.883 12156
-0.175 1.496 1.884 19110
-0.175 1.501 1.880 21834
-0.176 1.512 1.881 19554
-0.178 1.527 1.889 12224
-0.180 1.543 1.896 8756
-0.181 1.548 1.891 10638
-0.181 1.553 1.887 15522
-0.182 1.558 1.882 16813
-0.183 1.568 1.883 9627
-0.185 1.589 1.896 9540
-0.185 1.589 1.885 16651
-0.186 1.594 1.881 18185
-0.187 1.604 1.882 18039
-0.188 1.615 1.883 21417
-0.190 1.625 1.884 15259
-0.191 1.636 1.884 10374
-0.191 1.641 1.880 13868
-0.194 1.662 1.892 14755
-0.196 1.678 1.898 18030
-0.196 1.678 1.887 17281
-0.196 1.683 1.882 15376
-0.198 1.693 1.883 11961
-0.199 1.710 1.889 7580
-0.201 1.720 1.890 8947
-0.201 1.725 1.885 9263
-0.197 1.691 1.841 10384
-0.197 1.690 1.830 13856
-0.203 1.740 1.869 14877
-0.203 1.740 1.858 10898
-0.208 1.784 1.892 8563
-0.201 1.727 1.826 7139
-0.212 1.817 1.903 10744
-0.213 1.828 1.903 22858
-0.214 1.833 1.897 26022
-0.214 1.838 1.892 17027
-0.216 1.855 1.897 14818
-0.218 1.866 1.897 24744
-0.218 1.871 1.891 26296
-0.218 1.870 1.881 15423
-0.225 1.927 1.923 10047
-0.226 1.938 1.922 13472
-0.227 1.943 1.917 16362
-0.227 1.943 1.906 15642
-0.228 1.954 1.905 10701
-0.229 1.965 1.904 12241
-0.232 1.988 1.914 17387
-0.232 1.993 1.908 26349
-0.233 1.998 1.902 26025
-0.234 2.009 1.902 16968
-0.236 2.026 1.906 12148
-0.240 2.055 1.920 13559
-0.240 2.054 1.909 13935
-0.239 2.053 1.898 15046
-0.241 2.064 1.897 10540
-0.247 2.118 1.931 14604
-0.248 2.123 1.925 15532
-0.249 2.134 1.924 10768
-0.254 2.176 1.947 8455
-0.253 2.169 1.931 14607
-0.252 2.162 1.914 12782
-0.253 2.167 1.908 6412
-0.261 2.240 1.956 7893
-0.262 2.245 1.949 7468
-0.262 2.244 1.937 6463
-0.262 2.249 1.931 9752
-0.266 2.279 1.944 17313
-0.266 2.284 1.937 22096
-0.267 2.289 1.930 17042
-0.268 2.295 1.923 14347
-0.269 2.306 1.921 17875
-0.270 2.311 1.914 18087
-0.270 2.316 1.907 14512
-0.272 2.328 1.905 11591
-0.274 2.345 1.908 13292
-0.274 2.350 1.901 12433
-0.275 2.356 1.894 10672
-0.278 2.380 1.901 12334
-0.278 2.385 1.894 12925
-0.279 2.390 1.887 9357
-0.285 2.440 1.912 6693
-0.286 2.451 1.909 9362
-0.287 2.463 1.906 11235
-0.293 2.513 1.931 11748
-0.294 2.525 1.928 13804
-0.296 2.536 1.925 14075
-0.298 2.554 1.926 11712
-0.301 2.579 1.932 7507
-0.301 2.584 1.924 8341
-0.301 2.583 1.912 10834
-0.303 2.601 1.913 12288
-0.306 2.619 1.914 14972
-0.307 2.631 1.911 10103
-0.311 2.662 1.921 6391
-0.311 2.667 1.913 5749
-0.311 2.666 1.901 5501
-0.320 2.744 1.940 6846
-0.319 2.736 1.923 9905
-0.320 2.741 1.915 9654
-0.337 2.885 1.996 7905
-0.337 2.891 1.987 9048
-0.337 2.889 1.974 8337
-0.342 2.928 1.987 7580
-0.343 2.940 1.982 8621
-0.344 2.945 1.973 7503
-0.348 2.984 1.985 4666
-0.350 3.003 1.984 4569
-0.349 2.995 1.967 5084
-0.349 2.993 1.955 6954
-0.349 2.992 1.942 8146
-0.358 3.072 1.977 7346
-0.357 3.063 1.960 7475
-0.357 3.062 1.947 7609
-0.367 3.149 1.985 6190
-0.364 3.120 1.956 5713
-0.365 3.132 1.951 4450
-0.367 3.144 1.945 3620
-0.367 3.142 1.932 3935
-0.370 3.175 1.938 3498
-0.373 3.194 1.937 3787
-0.376 3.227 1.942 4014
-0.378 3.239 1.937 4568
-0.388 3.327 1.972 4999
-0.390 3.339 1.966 5613
-0.391 3.351 1.960 4889
-0.392 3.364 1.954 3341
-0.412 3.536 2.032 3777
-0.423 3.625 2.066 3833
-0.423 3.631 2.055 4499
-0.424 3.636 2.044 3703
-0.417 3.579 2.001 3002
-0.416 3.570 1.983 3565
-0.417 3.575 1.973 4227
-0.417 3.573 1.959 3649
-0.438 3.755 2.036 3449
-0.439 3.767 2.028 3742
-0.441 3.780 2.021 4349
-0.442 3.785 2.010 4368
-0.441 3.783 1.995 4448
-0.443 3.796 1.987 4473
-0.443 3.801 1.976 3303
-0.456 3.906 2.012 2830
-0.460 3.947 2.017 2893
-0.474 4.067 2.059 3143
-0.463 3.965 1.997 2935
-0.467 4.006 2.002 3075
-0.469 4.019 1.993 3310
-0.470 4.031 1.985 3620
-0.471 4.036 1.973 3620
-0.471 4.042 1.961 3407
-0.472 4.047 1.949 3195
-0.472 4.045 1.934 2552
-0.492 4.216 1.994 3044
-0.492 4.221 1.982 1522
-0.469 4.017 1.879 615
-0.085 0.738 1.828 5353
-0.086 0.746 1.833 6694
-0.086 0.751 1.831 8136
-0.087 0.756 1.829 8136
-0.088 0.764 1.833 11582
-0.088 0.769 1.831 15221
-0.089 0.774 1.829 15328
-0.089 0.779 1.826 15435
-0.090 0.787 1.831 12333
-0.091 0.795 1.836 9538
-0.092 0.800 1.834 9709
-0.093 0.808 1.838 7682
-0.094 0.820 1.850 6569
-0.094 0.822 1.840 5842
-0.094 0.823 1.831 5309
-0.095 0.832 1.835 6567
-0.096 0.836 1.833 7892
-0.097 0.845 1.837 10746
-0.097 0.850 1.835 13823
-0.098 0.858 1.839 15432
-0.099 0.863 1.837 17045
-0.100 0.872 1.841 18911
-0.101 0.877 1.839 20990
-0.102 0.885 1.843 22196
-0.102 0.890 1.840 23671
-0.103 0.899 1.844 19771
-0.104 0.904 1.842 16016
-0.105 0.913 1.846 12257
-0.105 0.918 1.843 8526
-0.106 0.926 1.847 11741
-0.107 0.935 1.851 14969
-0.108 0.940 1.849 14538
-0.109 0.953 1.860 14592
-0.110 0.958 1.857 16185
-0.110 0.963 1.854 17778
-0.111 0.964 1.844 18164
-0.111 0.965 1.834 14649
-0.110 0.961 1.818 11871
-0.111 0.966 1.815 10998
-0.112 0.975 1.819 10152
-0.113 0.984 1.823 9360
-0.115 1.001 1.840 10645
-0.116 1.014 1.850 13407
-0.117 1.019 1.847 17204
-0.117 1.020 1.838 19978
-0.118 1.029 1.841 20832
-0.119 1.038 1.845 20169
-0.120 1.043 1.842 17906
-0.121 1.052 1.845 14222
-0.122 1.061 1.849 12575
-0.123 1.075 1.859 14864
-0.124 1.080 1.856 19629
-0.124 1.085 1.852 22674
-0.124 1.085 1.843 21008
-0.126 1.095 1.846 20058
-0.127 1.104 1.849 18589
-0.127 1.109 1.846 16559
-0.128 1.114 1.843 23232
-0.128 1.114 1.833 35879
-0.128 1.119 1.829 41124
-0.129 1.128 1.833 42255
-0.130 1.133 1.829 37302
-0.131 1.143 1.832 24177
-0.133 1.157 1.842 19297
-0.134 1.166 1.845 18770
-0.136 1.185 1.861 18291
-0.137 1.194 1.864 25993
-0.137 1.199 1.860 33919
-0.138 1.204 1.856 36252
-0.139 1.214 1.859 32814
-0.141 1.228 1.868 24034
-0.142 1.237 1.871 15271
-0.143 1.247 1.874 11706
-0.144 1.252 1.870 12402
-0.144 1.257 1.866 15949
-0.144 1.257 1.856 16868
-0.145 1.262 1.852 12418
-0.147 1.282 1.868 14773
-0.148 1.287 1.864 18584
-0.149 1.301 1.872 14766
-0.151 1.316 1.881 13847
-0.152 1.326 1.883 13621
-0.153 1.331 1.879 11897
-0.153 1.331 1.869 9872
-0.154 1.341 1.871 10178
-0.155 1.351 1.874 11372
-0.156 1.360 1.876 8906
-0.158 1.380 1.890 8862
-0.159 1.390 1.892 10526
-0.160 1.395 1.888 10582
-0.161 1.400 1.884 14003
-0.161 1.405 1.880 16543
-0.162 1.416 1.881 14211
-0.163 1.426 1.883 15884
-0.165 1.436 1.885 20043
-0.165 1.441 1.881 15417
-0.168 1.461 1.895 9980
-0.169 1.471 1.896 9704
-0.170 1.481 1.898 10223
-0.170 1.487 1.893 10581
-0.170 1.486 1.883 14340
-0.172 1.497 1.884 20604
-0.172 1.502 1.880 23627
-0.173 1.512 1.881 22163
-0.175 1.522 1.883 13708
-0.177 1.543 1.896 8284
-0.177 1.543 1.885 11244
-0.177 1.543 1.875 16232
-0.178 1.553 1.876 15033
-0.179 1.563 1.877 9183
-0.182 1.590 1.896 9225
-0.182 1.589 1.885 14127
-0.183 1.594 1.881 17516
-0.184 1.605 1.882 19829
-0.185 1.615 1.883 23325
-0.186 1.626 1.884 16645
-0.187 1.631 1.879 10314
-0.188 1.641 1.880 13249
-0.191 1.663 1.892 15059
-0.192 1.679 1.898 18264
-0.192 1.678 1.887 19247
-0.193 1.683 1.882 16455
-0.194 1.694 1.883 11601
-0.196 1.710 1.889 7448
-0.197 1.721 1.890 7677
-0.198 1.726 1.885 7797
-0.193 1.686 1.835 10957
-0.193 1.685 1.824 15155
-0.200 1.741 1.869 13405
-0.200 1.740 1.858 9937
-0.204 1.779 1.886 8802
-0.199 1.738 1.837 7299
-0.208 1.818 1.903 11688
-0.210 1.828 1.903 23958
-0.210 1.833 1.897 25098
-0.211 1.839 1.892 16068
-0.212 1.849 1.892 14782
-0.213 1.860 1.892 25642
-0.215 1.871 1.891 27647
-0.214 1.870 1.881 17148
-0.221 1.928 1.923 9778
-0.222 1.933 1.917 13583
-0.222 1.938 1.911 16163
-0.222 1.937 1.900 15399
-0.224 1.954 1.905 11510
-0.225 1.965 1.904 14143
-0.227 1.982 1.909 18444
-0.229 1.993 1.908 27043
-0.229 1.998 1.902 26847
-0.230 2.003 1.896 18169
-0.232 2.020 1.901 12310
-0.235 2.049 1.915 12059
-0.236 2.054 1.909 14717
-0.236 2.060 1.903 17704
-0.237 2.071 1.902 12020
-0.243 2.118 1.931 13933
-0.243 2.123 1.925 15009
-0.245 2.135 1.924 10662
-0.250 2.176 1.947 9111
-0.249 2.175 1.936 14551
-0.248 2.162 1.914 12680
-0.249 2.167 1.908 7041
-0.255 2.228 1.946 7720
-0.257 2.239 1.944 6785
-0.257 2.238 1.933 5492
-0.258 2.250 1.931 7640
-0.261 2.280 1.944 14878
-0.262 2.285 1.937 20251
-0.263 2.290 1.930 16701
-0.263 2.295 1.923 14727
-0.265 2.307 1.921 17874
-0.265 2.312 1.914 18117
-0.266 2.317 1.907 15475
-0.267 2.328 1.905 12672
-0.268 2.340 1.903 13616
-0.269 2.345 1.896 12313
-0.270 2.356 1.894 10532
-0.273 2.380 1.901 11424
-0.274 2.385 1.894 12053
-0.274 2.390 1.887 8911
-0.283 2.466 1.930 6238
-0.283 2.465 1.918 8001
-0.283 2.470 1.911 10216
-0.288 2.514 1.931 11552
-0.290 2.525 1.928 13466
-0.291 2.537 1.925 13042
-0.293 2.555 1.926 9719
-0.296 2.580 1.932 7417
-0.296 2.585 1.924 10559
-0.297 2.590 1.917 13342
-0.298 2.602 1.913 14333
-0.300 2.620 1.914 15451
-0.301 2.625 1.907 9847
-0.305 2.663 1.921 6181
-0.306 2.668 1.913 6084
-0.306 2.666 1.901 6162
-0.314 2.738 1.935 7000
-0.314 2.736 1.923 9913
-0.314 2.741 1.915 9600
-0.330 2.879 1.991 7218
-0.331 2.885 1.983 8308
-0.331 2.890 1.974 7791
-0.336 2.929 1.987 7234
-0.336 2.934 1.978 8112
-0.338 2.946 1.973 6860
-0.342 2.985 1.985 4133
-0.344 3.004 1.984 4024
-0.344 2.996 1.967 4665
-0.343 2.994 1.955 6754
-0.343 2.993 1.942 7992
-0.352 3.072 1.977 7346
-0.351 3.064 1.960 7384
-0.351 3.063 1.947 7468
-0.360 3.143 1.981 6194
-0.358 3.121 1.956 5950
-0.359 3.133 1.951 4786
-0.361 3.145 1.945 4053
-0.360 3.143 1.932 4425
-0.364 3.176 1.938 3796
-0.366 3.195 1.937 3979
-0.377 3.290 1.977 4214
-0.372 3.240 1.937 4705
-0.382 3.328 1.972 5198
-0.383 3.340 1.966 5778
-0.384 3.352 1.960 5032
-0.397 3.462 2.006 3687
-0.406 3.537 2.032 3813
-0.407 3.549 2.025 3733
-0.416 3.631 2.055 4209
-0.417 3.637 2.044 3532
-0.421 3.670 2.048 3069
-0.419 3.655 2.026 3300
-0.410 3.576 1.973 3975
-0.429 3.743 2.044 3591
-0.431 3.756 2.036 3767
-0.432 3.768 2.028 3899
-0.434 3.781 2.021 4349
-0.433 3.779 2.006 4274
-0.434 3.784 1.995 4359
-0.435 3.790 1.984 4389
-0.435 3.795 1.973 3307
-0.447 3.900 2.009 2874
-0.454 3.955 2.021 3025
-0.454 3.960 2.009 3326
-0.456 3.973 2.000 3191
-0.459 4.000 1.999 3194
-0.461 4.019 1.993 3309
-0.462 4.032 1.985 3605
-0.463 4.037 1.973 3605
-0.464 4.043 1.961 3448
-0.464 4.048 1.949 3291
-0.464 4.046 1.934 2670
-0.484 4.217 1.994 3208
-0.484 4.222 1.982 1604
-0.461 4.018 1.879 638
-0.083 0.738 1.828 5581
-0.083 0.746 1.833 6548
-0.084 0.751 1.831 7612
-0.085 0.756 1.829 7612
-0.085 0.764 1.833 11026
-0.086 0.769 1.831 14570
-0.087 0.774 1.829 14953
-0.087 0.779 1.826 15337
-0.088 0.787 1.831 12424
-0.089 0.795 1.836 9793
-0.089 0.800 1.834 9976
-0.090 0.809 1.838 8355
-0.092 0.821 1.850 7569
-0.092 0.822 1.840 7085
-0.092 0.823 1.831 6816
-0.093 0.832 1.835 7905
-0.094 0.837 1.833 9127
-0.095 0.845 1.837 11569
-0.095 0.854 1.842 14305
-0.096 0.859 1.839 15859
-0.097 0.864 1.837 17412
-0.098 0.872 1.841 19957
-0.098 0.877 1.839 22655
-0.099 0.886 1.843 23920
-0.100 0.891 1.840 25682
-0.100 0.896 1.837 21311
-0.101 0.904 1.842 17303
-0.102 0.909 1.839 12664
-0.103 0.922 1.850 8417
-0.104 0.927 1.847 11633
-0.104 0.932 1.845 14850
-0.105 0.940 1.849 14554
-0.106 0.949 1.853 14507
-0.107 0.958 1.857 15418
-0.108 0.963 1.854 16433
-0.108 0.964 1.844 17443
-0.107 0.961 1.828 15318
-0.108 0.966 1.825 12965
-0.108 0.967 1.815 11621
-0.109 0.971 1.812 10282
-0.110 0.984 1.823 9447
-0.112 1.002 1.840 10672
-0.113 1.015 1.850 13204
-0.114 1.020 1.847 17097
-0.114 1.020 1.838 20040
-0.115 1.029 1.841 21227
-0.116 1.038 1.845 20890
-0.117 1.043 1.842 18632
-0.118 1.053 1.845 14449
-0.119 1.062 1.849 12202
-0.120 1.071 1.852 14081
-0.121 1.080 1.856 19394
-0.121 1.081 1.846 23662
-0.121 1.086 1.843 22767
-0.122 1.091 1.839 21049
-0.123 1.104 1.849 17972
-0.125 1.114 1.853 15735
-0.125 1.114 1.843 22609
-0.125 1.115 1.833 35481
-0.125 1.119 1.829 40712
-0.126 1.129 1.833 41683
-0.127 1.134 1.829 37141
-0.128 1.143 1.832 23907
-0.129 1.157 1.842 18469
-0.130 1.166 1.845 18193
-0.132 1.185 1.861 18190
-0.134 1.194 1.864 25900
-0.134 1.199 1.860 33526
-0.135 1.204 1.856 35480
-0.136 1.214 1.859 31586
-0.137 1.228 1.868 23940
-0.138 1.233 1.865 16729
-0.139 1.243 1.867 12947
-0.140 1.253 1.870 12900
-0.141 1.258 1.866 16337
-0.141 1.258 1.856 17676
-0.141 1.263 1.852 13202
-0.143 1.282 1.868 14925
-0.144 1.287 1.864 19044
-0.145 1.297 1.866 15621
-0.147 1.311 1.875 13796
-0.148 1.321 1.877 12810
-0.148 1.326 1.873 10678
-0.149 1.331 1.869 10131
-0.149 1.336 1.865 11155
-0.151 1.346 1.867 10489
-0.152 1.361 1.876 7219
-0.154 1.381 1.890 8436
-0.156 1.391 1.892 10755
-0.156 1.396 1.888 11346
-0.156 1.396 1.878 15454
-0.157 1.406 1.880 17718
-0.158 1.411 1.875 15347
-0.159 1.421 1.877 14998
-0.160 1.431 1.879 17452
-0.161 1.441 1.881 14247
-0.163 1.462 1.895 10513
-0.165 1.472 1.896 9819
-0.165 1.477 1.892 10778
-0.166 1.487 1.893 12259
-0.166 1.487 1.883 16259
-0.167 1.497 1.884 21818
-0.168 1.502 1.880 25138
-0.169 1.512 1.881 24549
-0.170 1.517 1.877 15801
-0.172 1.538 1.890 8123
-0.173 1.543 1.885 12237
-0.173 1.543 1.875 17513
-0.174 1.553 1.876 13970
-0.175 1.569 1.883 8962
-0.177 1.585 1.890 9168
-0.178 1.590 1.885 11767
-0.178 1.595 1.881 16500
-0.179 1.605 1.882 21034
-0.181 1.616 1.883 24394
-0.182 1.626 1.884 17772
-0.182 1.631 1.879 10225
-0.184 1.647 1.885 12100
-0.186 1.663 1.892 14945
-0.187 1.674 1.892 18312
-0.188 1.679 1.887 20578
-0.188 1.684 1.882 16574
-0.189 1.694 1.883 10452
-0.191 1.710 1.889 7078
-0.193 1.727 1.895 6592
-0.193 1.726 1.885 6412
-0.188 1.681 1.829 11337
-0.188 1.680 1.819 16341
-0.188 1.679 1.808 14650
-0.190 1.695 1.814 10409
-0.199 1.780 1.886 8853
-0.195 1.745 1.843 7802
-0.203 1.818 1.903 12368
-0.204 1.823 1.897 23704
-0.205 1.834 1.897 22845
-0.206 1.839 1.892 14453
-0.207 1.850 1.892 14230
-0.208 1.861 1.892 25689
-0.209 1.866 1.886 28188
-0.209 1.871 1.881 18033
-0.214 1.917 1.912 9609
-0.216 1.928 1.912 13608
-0.216 1.933 1.906 16323
-0.217 1.938 1.900 15705
-0.218 1.949 1.900 12388
-0.220 1.966 1.904 15360
-0.221 1.977 1.904 19179
-0.223 1.994 1.908 27142
-0.223 1.999 1.902 27195
-0.224 2.004 1.896 19655
-0.225 2.015 1.896 12895
-0.229 2.044 1.910 10647
-0.230 2.055 1.909 15397
-0.230 2.060 1.903 20267
-0.232 2.071 1.902 13249
-0.237 2.119 1.931 12486
-0.237 2.124 1.925 13652
-0.238 2.129 1.919 10188
-0.243 2.177 1.947 9775
-0.243 2.176 1.936 14216
-0.242 2.163 1.914 12242
-0.242 2.168 1.908 7553
-0.246 2.204 1.926 8674
-0.248 2.221 1.929 7059
-0.250 2.233 1.928 5196
-0.251 2.244 1.926 5768
-0.255 2.280 1.944 12054
-0.256 2.286 1.937 17950
-0.257 2.297 1.935 16007
-0.257 2.302 1.928 14583
-0.258 2.307 1.921 17454
-0.259 2.312 1.914 18447
-0.259 2.318 1.907 16711
-0.261 2.335 1.910 13756
-0.262 2.340 1.903 14067
-0.262 2.345 1.896 12271
-0.263 2.350 1.889 10262
-0.266 2.375 1.896 10409
-0.267 2.386 1.894 10997
-0.267 2.391 1.887 8235
-0.277 2.473 1.935 7180
-0.276 2.472 1.923 8429
-0.278 2.483 1.920 10103
-0.281 2.514 1.931 11213
-0.282 2.526 1.928 12873
-0.283 2.531 1.920 11858
-0.285 2.549 1.922 7909
-0.289 2.587 1.936 7666
-0.289 2.586 1.924 12974
-0.290 2.591 1.917 16158
-0.291 2.602 1.913 16433
-0.292 2.614 1.910 15881
-0.294 2.626 1.907 9777
-0.298 2.664 1.921 5829
-0.299 2.675 1.917 6439
-0.298 2.667 1.901 6963
-0.306 2.739 1.935 6982
-0.306 2.737 1.923 9628
-0.307 2.742 1.915 9282
-0.307 2.747 1.907 6448
-0.323 2.886 1.983 7396
-0.323 2.891 1.974 7034
-0.328 2.930 1.987 6835
-0.328 2.935 1.978 7612
-0.330 2.947 1.973 6211
-0.334 2.986 1.985 3581
-0.323 2.890 1.915 3680
-0.336 3.003 1.972 4239
-0.335 2.995 1.955 6506
-0.335 3.000 1.946 7823
-0.343 3.067 1.973 7389
-0.343 3.065 1.960 7371
-0.343 3.064 1.947 7377
-0.352 3.144 1.981 5983
-0.350 3.129 1.960 6096
-0.350 3.134 1.951 5027
-0.352 3.146 1.945 4459
-0.352 3.144 1.932 4890
-0.355 3.177 1.938 4113
-0.367 3.285 1.986 4203
-0.369 3.298 1.980 4490
-0.371 3.317 1.978 4926
-0.372 3.329 1.972 5283
-0.374 3.341 1.966 5797
-0.375 3.353 1.960 5077
-0.386 3.456 2.002 4206
-0.386 3.454 1.988 3880
-0.397 3.550 2.025 3774
-0.399 3.570 2.022 3981
-0.408 3.645 2.048 3316
-0.411 3.672 2.048 3174
-0.411 3.677 2.037 3429
-0.417 3.732 2.051 3849
-0.419 3.744 2.044 3912
-0.420 3.757 2.036 4116
-0.421 3.769 2.028 4112
-0.423 3.782 2.021 4402
-0.423 3.780 2.006 4219
-0.422 3.778 1.992 4341
-0.423 3.784 1.980 4364
-0.424 3.789 1.969 3363
-0.442 3.951 2.032 2857
-0.442 3.956 2.021 3183
-0.443 3.962 2.009 3509
-0.444 3.974 2.000 3472
-0.446 3.987 1.992 3501
-0.450 4.021 1.993 3326
-0.451 4.033 1.985 3541
-0.452 4.039 1.973 3541
-0.452 4.044 1.961 3423
-0.453 4.049 1.949 3304
-0.453 4.047 1.934 2701
-0.472 4.218 1.994 3442
-0.472 4.224 1.982 1721
-0.449 4.019 1.879 612
-0.082 0.738 1.828 5782
-0.082 0.746 1.833 6372
-0.083 0.751 1.831 7103
-0.084 0.756 1.829 7103
-0.084 0.764 1.833 10448
-0.085 0.769 1.831 13843
-0.085 0.774 1.829 14463
-0.086 0.779 1.826 15084
-0.087 0.787 1.831 12358
-0.088 0.796 1.836 9906
-0.088 0.800 1.834 10107
-0.089 0.809 1.838 8922
-0.091 0.821 1.850 8440
-0.091 0.822 1.840 8287
-0.091 0.824 1.831 8336
-0.092 0.832 1.835 9351
-0.092 0.837 1.833 10551
-0.093 0.845 1.837 12548
-0.094 0.854 1.842 14892
-0.095 0.859 1.839 16458
-0.095 0.864 1.837 18024
-0.096 0.872 1.841 21186
-0.097 0.877 1.839 24489
-0.097 0.882 1.836 25741
-0.098 0.891 1.840 27632
-0.099 0.896 1.837 23047
-0.100 0.904 1.842 18513
-0.100 0.905 1.832 13169
-0.102 0.922 1.850 8237
-0.102 0.927 1.847 11417
-0.103 0.932 1.845 14597
-0.104 0.940 1.849 14528
-0.105 0.949 1.853 14556
-0.105 0.954 1.850 14723
-0.106 0.959 1.847 15193
-0.106 0.964 1.844 16619
-0.106 0.961 1.828 15959
-0.107 0.966 1.825 14155
-0.107 0.971 1.822 12277
-0.107 0.972 1.812 10473
-0.109 0.985 1.823 9525
-0.111 1.002 1.840 10548
-0.112 1.015 1.850 12840
-0.113 1.020 1.847 16768
-0.113 1.020 1.838 19905
-0.114 1.030 1.841 21387
-0.115 1.039 1.845 21412
-0.115 1.044 1.842 19224
-0.116 1.053 1.845 14738
-0.117 1.062 1.849 11872
-0.118 1.067 1.846 13243
-0.119 1.080 1.856 18883
-0.119 1.081 1.846 24350
-0.120 1.086 1.843 23938
-0.120 1.091 1.839 21658
-0.122 1.104 1.849 17013
-0.123 1.114 1.853 14584
-0.124 1.119 1.849 22051
-0.124 1.119 1.839 35348
-0.124 1.120 1.829 40238
-0.125 1.129 1.833 40869
-0.125 1.134 1.829 36642
-0.126 1.143 1.832 23684
-0.128 1.157 1.842 17986
-0.129 1.171 1.851 17855
-0.131 1.185 1.861 17916
-0.132 1.195 1.864 25516
-0.132 1.200 1.860 32816
-0.133 1.205 1.856 34435
-0.134 1.214 1.859 30244
-0.136 1.228 1.868 23890
-0.136 1.233 1.865 18617
-0.137 1.243 1.867 14207
-0.138 1.253 1.870 13211
-0.139 1.258 1.866 16499
-0.139 1.258 1.856 18358
-0.139 1.263 1.852 14011
-0.141 1.277 1.861 15082
-0.142 1.287 1.864 19290
-0.143 1.292 1.860 16662
-0.145 1.312 1.875 14169
-0.146 1.321 1.877 12203
-0.146 1.326 1.873 9647
-0.147 1.331 1.869 10064
-0.148 1.341 1.871 12422
-0.149 1.346 1.867 10322
-0.150 1.356 1.870 6674
-0.152 1.376 1.884 8465
-0.153 1.386 1.886 10630
-0.154 1.396 1.888 11926
-0.154 1.396 1.878 16766
-0.155 1.401 1.873 19234
-0.155 1.406 1.869 17909
-0.156 1.416 1.871 15337
-0.158 1.431 1.879 14967
-0.159 1.441 1.881 12586
-0.161 1.462 1.895 10631
-0.163 1.472 1.896 9934
-0.163 1.477 1.892 11667
-0.164 1.482 1.887 13910
-0.164 1.487 1.883 17849
-0.165 1.497 1.884 22730
-0.166 1.502 1.880 26292
-0.167 1.513 1.881 26587
-0.168 1.518 1.877 18222
-0.169 1.528 1.878 8661
-0.170 1.538 1.880 12894
-0.170 1.543 1.875 18382
-0.171 1.548 1.870 13267
-0.173 1.569 1.883 8958
-0.175 1.585 1.890 9739
-0.176 1.595 1.891 10372
-0.176 1.595 1.881 15333
-0.177 1.605 1.882 21519
-0.178 1.616 1.883 24569
-0.180 1.626 1.884 18411
-0.180 1.631 1.879 10026
-0.182 1.647 1.885 10541
-0.184 1.663 1.892 14123
-0.185 1.674 1.892 17738
-0.185 1.679 1.887 21005
-0.186 1.684 1.882 15736
-0.187 1.695 1.883 8562
-0.190 1.716 1.895 6452
-0.192 1.738 1.906 5726
-0.185 1.676 1.834 5975
-0.186 1.681 1.829 11581
-0.186 1.680 1.819 17164
-0.185 1.679 1.808 15935
-0.187 1.695 1.814 11298
-0.197 1.780 1.886 8728
-0.193 1.751 1.848 8470
-0.201 1.818 1.903 12817
-0.201 1.823 1.897 21951
-0.202 1.829 1.892 19575
-0.202 1.834 1.886 12549
-0.204 1.850 1.892 13175
-0.206 1.861 1.892 24771
-0.206 1.866 1.886 27514
-0.207 1.871 1.881 17965
-0.209 1.894 1.891 10028
-0.213 1.928 1.912 13574
-0.213 1.927 1.901 16771
-0.213 1.926 1.890 17172
-0.215 1.949 1.900 13659
-0.216 1.960 1.899 15879
-0.218 1.977 1.904 19464
-0.220 1.994 1.908 26749
-0.221 1.999 1.902 27169
-0.221 2.004 1.896 21239
-0.222 2.009 1.890 14189
-0.225 2.038 1.905 9758
-0.227 2.055 1.909 15670
-0.228 2.061 1.903 21713
-0.229 2.072 1.902 13960
-0.234 2.119 1.931 10503
-0.235 2.124 1.925 11420
-0.235 2.129 1.919 9472
-0.240 2.171 1.942 10249
-0.240 2.170 1.931 13536
-0.239 2.163 1.914 11326
-0.240 2.174 1.913 7820
-0.243 2.204 1.926 9607
-0.246 2.228 1.934 7973
-0.247 2.239 1.933 5525
-0.246 2.226 1.911 4642
-0.253 2.287 1.948 9453
-0.252 2.286 1.937 15431
-0.254 2.297 1.935 14945
-0.254 2.302 1.928 13803
-0.255 2.308 1.921 16625
-0.255 2.313 1.914 18861
-0.256 2.318 1.907 17948
-0.258 2.336 1.910 14726
-0.259 2.347 1.908 14700
-0.259 2.346 1.896 12329
-0.260 2.351 1.889 9938
-0.262 2.375 1.896 9448
-0.264 2.386 1.894 9881
-0.264 2.392 1.887 7417
-0.273 2.473 1.935 8538
-0.274 2.479 1.927 9927
-0.274 2.484 1.920 10708
-0.278 2.515 1.931 10733
-0.279 2.526 1.928 12060
-0.280 2.532 1.920 10630
-0.279 2.530 1.908 6534
-0.286 2.587 1.936 8166
-0.286 2.586 1.924 15217
-0.286 2.591 1.917 18872
-0.287 2.603 1.913 18446
-0.289 2.614 1.910 16434
-0.289 2.619 1.902 9912
-0.294 2.664 1.921 5540
-0.296 2.676 1.917 6842
-0.295 2.674 1.905 7786
-0.299 2.706 1.914 7022
-0.302 2.737 1.923 9068
-0.303 2.743 1.915 8695
-0.303 2.748 1.907 5986
-0.318 2.879 1.979 6324
-0.319 2.885 1.970 6069
-0.324 2.930 1.987 6292
-0.324 2.936 1.978 6989
-0.325 2.941 1.969 5523
-0.319 2.892 1.928 3394
-0.318 2.884 1.911 3690
-0.332 3.004 1.972 3778
-0.332 3.002 1.959 6284
-0.332 3.008 1.950 7631
-0.339 3.067 1.973 7447
-0.339 3.066 1.960 7422
-0.338 3.064 1.947 7338
-0.347 3.144 1.981 5576
-0.346 3.129 1.960 6114
-0.346 3.134 1.951 5224
-0.347 3.146 1.945 4885
-0.347 3.145 1.932 5386
-0.350 3.170 1.934 4426
-0.364 3.293 1.990 4569
-0.365 3.305 1.984 4900
-0.366 3.317 1.978 5330
-0.367 3.322 1.968 5534
-0.368 3.335 1.962 5875
-0.370 3.354 1.960 5042
-0.382 3.456 2.002 4747
-0.382 3.455 1.988 4393
-0.392 3.551 2.025 3728
-0.394 3.563 2.019 3882
-0.395 3.576 2.012 3099
-0.406 3.679 2.051 3279
-0.408 3.692 2.044 3563
-0.412 3.732 2.051 4204
-0.414 3.745 2.044 4235
-0.415 3.757 2.036 4454
-0.416 3.770 2.028 4333
-0.418 3.782 2.021 4492
-0.418 3.781 2.006 4158
-0.417 3.772 1.988 4335
-0.417 3.777 1.977 4346
-0.419 3.790 1.969 3409
-0.437 3.959 2.036 2984
-0.438 3.964 2.024 3386
-0.438 3.969 2.012 3788
-0.439 3.975 2.000 3820
-0.440 3.987 1.992 3902
-0.443 4.014 1.990 3352
-0.445 4.034 1.985 3447
-0.446 4.039 1.973 3447
-0.447 4.044 1.961 3369
-0.447 4.050 1.949 3291
-0.466 4.221 2.010 2806
-0.466 4.219 1.994 3657
-0.467 4.224 1.982 1828
-0.444 4.020 1.879 594
-0.079 0.735 1.821 6081
-0.080 0.747 1.833 6223
-0.081 0.755 1.838 6630
-0.082 0.760 1.836 6630
-0.082 0.765 1.833 9805
-0.083 0.769 1.831 12980
-0.083 0.774 1.829 13832
-0.084 0.779 1.826 14683
-0.084 0.788 1.831 12140
-0.085 0.796 1.836 9870
-0.086 0.801 1.834 10091
-0.087 0.809 1.838 9450
-0.088 0.818 1.843 9392
-0.088 0.822 1.840 9562
-0.088 0.824 1.831 9968
-0.089 0.832 1.835 11009
-0.090 0.837 1.833 12286
-0.091 0.846 1.837 13849
-0.092 0.854 1.842 15799
-0.092 0.859 1.839 17394
-0.093 0.864 1.837 18989
-0.094 0.873 1.841 22659
-0.094 0.877 1.839 26525
-0.095 0.882 1.836 27877
-0.096 0.891 1.840 29625
-0.096 0.896 1.837 24859
-0.097 0.901 1.835 20093
-0.097 0.906 1.832 14152
-0.098 0.911 1.829 8211
-0.099 0.927 1.847 11177
-0.100 0.932 1.845 14288
-0.101 0.941 1.849 14580
-0.101 0.946 1.846 14972
-0.102 0.955 1.850 14173
-0.103 0.960 1.847 13860
-0.103 0.960 1.837 15952
-0.103 0.961 1.828 16623
-0.104 0.966 1.825 15436
-0.104 0.971 1.822 13085
-0.104 0.972 1.812 10755
-0.106 0.985 1.823 9598
-0.107 1.002 1.840 10180
-0.109 1.015 1.850 12252
-0.109 1.016 1.841 16138
-0.110 1.021 1.838 19451
-0.110 1.030 1.841 21216
-0.111 1.039 1.845 21633
-0.112 1.044 1.842 19588
-0.113 1.049 1.839 15119
-0.114 1.062 1.849 11626
-0.114 1.067 1.846 12506
-0.115 1.076 1.849 18296
-0.116 1.081 1.846 24497
-0.117 1.086 1.843 24494
-0.117 1.091 1.839 21750
-0.119 1.105 1.849 15663
-0.120 1.114 1.853 13082
-0.120 1.119 1.849 21198
-0.120 1.120 1.839 34779
-0.121 1.124 1.836 39253
-0.121 1.129 1.833 39424
-0.122 1.134 1.829 35446
-0.123 1.148 1.839 23435
-0.126 1.171 1.861 18248
-0.126 1.171 1.851 17913
-0.127 1.181 1.854 17490
-0.128 1.195 1.864 24749
-0.129 1.200 1.860 31627
-0.129 1.205 1.856 32933
-0.130 1.215 1.859 28671
-0.131 1.224 1.862 23903
-0.132 1.229 1.858 20791
-0.133 1.239 1.861 15638
-0.134 1.248 1.864 13413
-0.135 1.258 1.866 16418
-0.135 1.258 1.856 18858
-0.136 1.263 1.852 14814
-0.137 1.278 1.861 15315
-0.138 1.283 1.857 19401
-0.139 1.293 1.860 17796
-0.140 1.307 1.868 15002
-0.142 1.327 1.883 11886
-0.143 1.332 1.879 9173
-0.143 1.337 1.875 10377
-0.144 1.342 1.871 13758
-0.144 1.347 1.867 10677
-0.145 1.352 1.863 7179
-0.147 1.372 1.878 9179
-0.149 1.387 1.886 10620
-0.149 1.392 1.882 12706
-0.150 1.397 1.878 17921
-0.150 1.402 1.873 20522
-0.151 1.407 1.869 20296
-0.152 1.417 1.871 16466
-0.153 1.427 1.873 12909
-0.155 1.442 1.881 10965
-0.157 1.462 1.895 10754
-0.158 1.472 1.896 9991
-0.159 1.478 1.892 12510
-0.159 1.483 1.887 15433
-0.160 1.488 1.883 19202
-0.161 1.498 1.884 23373
-0.161 1.503 1.880 27046
-0.162 1.513 1.881 28250
-0.163 1.518 1.877 20628
-0.163 1.523 1.872 10143
-0.165 1.539 1.880 13093
-0.166 1.549 1.881 18457
-0.167 1.554 1.876 12277
-0.169 1.575 1.889 8810
-0.171 1.591 1.896 10440
-0.171 1.596 1.891 10030
-0.172 1.601 1.886 14215
-0.172 1.606 1.882 21182
-0.173 1.616 1.883 23723
-0.175 1.627 1.884 18378
-0.176 1.637 1.884 10165
-0.177 1.648 1.885 8900
-0.179 1.664 1.892 12131
-0.180 1.674 1.892 16211
-0.180 1.680 1.887 20462
-0.181 1.685 1.882 13967
-0.182 1.701 1.889 6165
-0.184 1.717 1.895 5680
-0.187 1.739 1.906 5426
-0.178 1.660 1.818 6224
-0.180 1.681 1.829 11770
-0.180 1.681 1.819 17329
-0.180 1.680 1.808 16442
-0.181 1.690 1.809 11854
-0.191 1.780 1.886 8444
-0.188 1.757 1.853 8709
-0.195 1.813 1.897 12628
-0.195 1.818 1.892 18488
-0.196 1.829 1.892 16016
-0.197 1.834 1.886 10846
-0.199 1.851 1.892 11676
-0.200 1.862 1.892 22779
-0.200 1.867 1.886 25446
-0.201 1.872 1.881 16811
-0.203 1.894 1.891 10153
-0.206 1.923 1.906 13249
-0.206 1.922 1.895 17075
-0.207 1.927 1.890 18603
-0.209 1.944 1.895 14723
-0.210 1.961 1.899 15569
-0.212 1.978 1.904 19004
-0.214 1.995 1.908 25766
-0.214 1.994 1.897 26803
-0.215 2.005 1.896 22946
-0.216 2.010 1.890 16281
-0.217 2.027 1.895 9975
-0.221 2.056 1.909 15470
-0.222 2.067 1.908 22445
-0.222 2.072 1.902 14478
-0.227 2.120 1.931 8405
-0.227 2.119 1.920 8665
-0.229 2.136 1.924 8649
-0.232 2.166 1.937 10671
-0.232 2.165 1.926 12463
-0.232 2.164 1.914 9775
-0.233 2.175 1.913 7730
-0.237 2.205 1.926 10134
-0.239 2.229 1.934 9114
-0.240 2.240 1.933 6494
-0.242 2.258 1.936 5206
-0.244 2.275 1.939 7803
-0.245 2.287 1.937 12825
-0.247 2.298 1.935 13367
-0.247 2.303 1.928 12347
-0.248 2.308 1.921 15315
-0.248 2.314 1.914 19096
-0.249 2.319 1.907 18909
-0.251 2.336 1.910 15535
-0.252 2.348 1.908 15660
-0.252 2.347 1.896 12587
-0.252 2.352 1.889 9514
-0.254 2.363 1.887 8763
-0.255 2.381 1.889 8855
-0.264 2.456 1.933 7829
-0.265 2.474 1.935 9997
-0.266 2.479 1.927 11798
-0.267 2.485 1.920 11681
-0.269 2.509 1.926 10070
-0.271 2.527 1.928 10895
-0.271 2.526 1.916 9161
-0.271 2.525 1.904 5836
-0.278 2.588 1.936 9131
-0.278 2.587 1.924 17126
-0.278 2.592 1.917 21236
-0.279 2.604 1.913 20184
-0.281 2.615 1.910 16867
-0.281 2.620 1.902 10256
-0.281 2.619 1.890 6002
-0.286 2.670 1.913 7253
-0.287 2.675 1.905 8705
-0.290 2.700 1.910 7014
-0.294 2.745 1.927 8223
-0.294 2.744 1.915 7821
-0.295 2.749 1.907 5322
-0.308 2.874 1.974 5098
-0.310 2.886 1.970 4906
-0.314 2.924 1.982 5662
-0.314 2.930 1.974 6307
-0.315 2.935 1.965 4987
-0.310 2.893 1.928 3667
-0.310 2.885 1.911 3674
-0.310 2.890 1.902 3386
-0.323 3.010 1.963 6118
-0.323 3.015 1.954 7507
-0.329 3.068 1.973 7599
-0.329 3.067 1.960 7601
-0.329 3.065 1.947 7383
-0.330 3.077 1.942 5446
-0.336 3.130 1.960 6083
-0.336 3.135 1.951 5398
-0.338 3.147 1.945 5307
-0.338 3.153 1.936 5883
-0.340 3.172 1.934 4716
-0.354 3.301 1.994 4633
-0.355 3.306 1.984 5109
-0.356 3.318 1.978 5652
-0.357 3.324 1.968 5692
-0.359 3.343 1.966 5873
-0.360 3.355 1.960 5017
-0.371 3.458 2.002 5251
-0.370 3.449 1.984 4952
-0.381 3.552 2.025 3635
-0.382 3.557 2.015 3826
-0.382 3.563 2.004 3086
-0.396 3.687 2.055 3400
-0.398 3.707 2.051 3810
-0.401 3.734 2.051 4587
-0.402 3.746 2.044 4608
-0.403 3.759 2.036 4859
-0.405 3.771 2.028 4643
-0.406 3.784 2.021 4699
-0.406 3.782 2.006 4184
-0.404 3.766 1.985 4332
-0.405 3.778 1.977 4354
-0.406 3.784 1.966 3482
-0.425 3.960 2.036 3280
-0.426 3.973 2.027 3690
-0.427 3.978 2.015 4107
-0.427 3.983 2.004 4208
-0.428 3.989 1.992 4308
-0.430 4.008 1.987 3469
-0.433 4.035 1.985 3298
-0.433 4.041 1.973 3298
-0.434 4.046 1.961 3261
-0.435 4.051 1.949 3224
-0.452 4.215 2.006 2907
-0.452 4.213 1.991 3825
-0.453 4.219 1.978 1912
-0.431 4.021 1.879 561
-0.078 0.735 1.821 6481
-0.079 0.747 1.833 6124
-0.080 0.755 1.838 6278
-0.080 0.760 1.836 6278
-0.081 0.765 1.833 9200
-0.081 0.770 1.831 12122
-0.082 0.775 1.829 13191
-0.082 0.779 1.826 14260
-0.083 0.788 1.831 11853
-0.084 0.796 1.836 9741
-0.085 0.801 1.834 10000
-0.085 0.809 1.838 9924
-0.086 0.818 1.843 10281
-0.086 0.819 1.833 10731
-0.087 0.824 1.831 11453
-0.088 0.832 1.835 12596
-0.088 0.837 1.833 14021
-0.089 0.846 1.837 15289
-0.090 0.854 1.842 16996
-0.091 0.859 1.839 18686
-0.091 0.864 1.837 20375
-0.092 0.869 1.834 24331
-0.093 0.878 1.839 28566
-0.093 0.883 1.836 29869
-0.094 0.891 1.840 31346
-0.095 0.896 1.837 26425
-0.095 0.901 1.835 21505
-0.096 0.906 1.832 15132
-0.096 0.907 1.822 8845
-0.098 0.927 1.847 11007
-0.098 0.932 1.845 14068
