1.926 1.596 1.257 7082
1.929 1.598 1.250 7229
1.931 1.600 1.243 5449
2.068 1.713 1.310 5329
1.976 1.637 1.250 4233
1.995 1.653 1.251 5883
0.505 0.416 1.634 8689
0.511 0.421 1.639 9408
0.514 0.423 1.637 10248
0.520 0.428 1.642 10512
0.526 0.433 1.647 11207
0.527 0.434 1.638 12267
0.528 0.434 1.629 15959
0.531 0.437 1.627 17951
0.534 0.440 1.625 21534
0.540 0.445 1.630 25185
0.544 0.448 1.627 25115
0.547 0.450 1.625 25044
0.550 0.453 1.623 20423
0.554 0.456 1.621 15802
0.560 0.461 1.626 11144
0.563 0.464 1.624 6556
0.564 0.464 1.615 5314
0.570 0.469 1.619 3510
0.573 0.472 1.617 3123
0.574 0.472 1.608 4612
0.583 0.480 1.620 5715
0.586 0.482 1.617 6169
0.586 0.483 1.608 6683
0.590 0.485 1.606 6918
0.593 0.488 1.604 7291
0.596 0.491 1.601 7036
0.599 0.493 1.599 5723
0.603 0.496 1.597 4872
0.606 0.499 1.594 3890
0.609 0.501 1.592 2900
0.612 0.504 1.589 3576
0.616 0.507 1.587 4251
0.622 0.512 1.592 4276
0.628 0.517 1.596 4392
0.635 0.522 1.600 6154
0.638 0.525 1.598 8571
0.644 0.530 1.602 11801
0.648 0.533 1.600 16338
0.651 0.536 1.597 18150
0.654 0.538 1.595 16883
0.660 0.544 1.599 15630
0.664 0.546 1.596 12208
0.664 0.546 1.587 13146
0.667 0.549 1.585 17560
0.674 0.554 1.589 23578
0.677 0.557 1.586 29631
0.680 0.560 1.583 29305
0.680 0.560 1.574 24763
0.683 0.562 1.571 20721
0.686 0.565 1.569 22418
0.696 0.573 1.579 22551
0.706 0.581 1.590 18660
0.713 0.587 1.594 13792
0.709 0.584 1.578 13122
0.712 0.586 1.575 18993
0.716 0.589 1.572 22788
0.726 0.597 1.583 23659
0.732 0.603 1.587 20816
0.736 0.605 1.584 17006
0.739 0.608 1.581 16806
0.739 0.608 1.572 22278
0.745 0.613 1.575 23688
0.752 0.619 1.579 19979
0.755 0.622 1.576 18252
0.751 0.618 1.560 18718
0.758 0.624 1.564 20060
0.772 0.635 1.580 22547
0.775 0.638 1.577 24178
0.778 0.641 1.574 24715
0.785 0.646 1.577 22496
0.788 0.649 1.574 17856
0.795 0.655 1.578 16591
0.798 0.657 1.575 17832
0.805 0.663 1.578 19270
0.808 0.665 1.575 20664
0.812 0.668 1.572 19324
0.811 0.668 1.562 15253
0.814 0.670 1.559 14109
0.825 0.679 1.568 16629
0.832 0.685 1.572 18202
0.835 0.687 1.568 15979
0.835 0.687 1.559 10958
0.838 0.690 1.556 8048
0.837 0.689 1.546 7448
0.844 0.695 1.549 7414
0.847 0.697 1.546 7153
0.850 0.700 1.543 5457
0.857 0.706 1.546 4131
0.868 0.715 1.554 4305
0.871 0.717 1.551 5764
0.867 0.713 1.536 6970
0.866 0.713 1.526 8042
0.873 0.719 1.529 9975
0.876 0.721 1.525 14004
0.883 0.727 1.528 22060
0.890 0.733 1.531 27676
0.893 0.735 1.527 24701
0.900 0.741 1.530 17808
0.911 0.750 1.538 13613
0.915 0.753 1.535 14730
0.922 0.759 1.537 14788
0.925 0.761 1.534 15797
0.924 0.761 1.524 24268
0.931 0.766 1.527 34412
0.934 0.769 1.523 33364
0.937 0.772 1.519 20727
0.936 0.771 1.510 16684
0.939 0.773 1.506 16279
0.942 0.776 1.503 12586
0.954 0.785 1.511 10322
0.965 0.794 1.519 7997
0.972 0.800 1.521 8086
0.975 0.803 1.517 13784
0.974 0.802 1.508 18397
0.982 0.808 1.509 16679
0.985 0.811 1.506 12121
0.988 0.813 1.502 10190
0.999 0.823 1.510 11217
1.002 0.825 1.506 10724
1.005 0.828 1.502 11039
1.008 0.830 1.498 11710
1.011 0.833 1.494 7010
1.019 0.839 1.496 5217
1.013 0.834 1.481 12478
1.012 0.833 1.471 16040
1.024 0.843 1.478 12162
1.031 0.849 1.480 15703
1.025 0.844 1.465 20902
1.024 0.843 1.456 22778
1.035 0.852 1.463 15903
1.030 0.848 1.448 14960
1.041 0.857 1.455 19688
1.058 0.871 1.467 16052
1.056 0.869 1.457 18275
1.059 0.872 1.453 19078
1.089 0.896 1.482 12767
1.092 0.899 1.478 11381
1.086 0.894 1.463 13251
1.089 0.896 1.458 17257
1.096 0.902 1.460 21027
1.104 0.909 1.461 26996
1.107 0.911 1.456 30633
1.105 0.910 1.447 22735
1.113 0.916 1.448 15144
1.120 0.922 1.449 14765
1.132 0.932 1.455 15100
1.135 0.934 1.451 14412
1.143 0.941 1.452 13507
1.150 0.947 1.452 8121
1.162 0.957 1.458 6591
1.170 0.963 1.459 9254
1.178 0.969 1.460 10306
1.181 0.972 1.455 11082
1.188 0.978 1.456 15689
1.187 0.977 1.446 19068
1.189 0.979 1.441 17324
1.192 0.981 1.437 13044
1.195 0.984 1.432 15667
1.203 0.990 1.433 18652
1.211 0.996 1.433 17036
1.218 1.003 1.433 14934
1.235 1.017 1.443 12333
1.243 1.023 1.444 15781
1.246 1.026 1.439 14037
1.254 1.032 1.439 11822
1.247 1.026 1.424 15057
1.240 1.021 1.410 15688
1.243 1.023 1.405 9719
1.290 1.061 1.444 9498
1.292 1.064 1.439 10519
1.290 1.062 1.429 7826
1.318 1.085 1.448 5751
1.335 1.099 1.457 8857
1.329 1.094 1.443 11233
1.327 1.092 1.433 14918
1.339 1.102 1.437 17680
1.352 1.113 1.441 16197
1.360 1.119 1.441 14512
1.363 1.122 1.436 12540
1.376 1.132 1.440 9475
1.393 1.147 1.448 13127
1.391 1.145 1.438 18529
1.394 1.148 1.433 14316
1.412 1.162 1.441 11642
1.425 1.173 1.445 13589
1.433 1.180 1.444 15040
1.436 1.182 1.438 15344
1.444 1.189 1.437 14698
1.457 1.199 1.441 19420
1.455 1.198 1.431 22249
1.458 1.200 1.425 23335
1.455 1.198 1.415 22958
1.463 1.205 1.414 18571
1.471 1.211 1.413 16219
1.479 1.218 1.411 15247
1.492 1.229 1.414 18482
1.495 1.231 1.408 21744
1.493 1.229 1.398 20676
1.501 1.236 1.397 18893
1.524 1.255 1.408 17240
1.538 1.266 1.411 13076
1.540 1.268 1.405 10669
1.548 1.275 1.403 9985
1.562 1.286 1.406 9865
1.570 1.292 1.404 10497
1.578 1.299 1.402 10283
1.591 1.310 1.404 9710
1.594 1.312 1.398 8994
1.597 1.314 1.392 6816
1.631 1.343 1.410 5001
1.639 1.349 1.408 6330
1.637 1.347 1.397 10061
1.640 1.350 1.391 13863
1.642 1.352 1.385 14850
1.656 1.363 1.386 14009
1.674 1.378 1.392 13656
1.672 1.376 1.382 16043
1.669 1.374 1.371 18724
1.667 1.372 1.361 16404
1.670 1.374 1.355 10686
1.715 1.412 1.379 9757
1.718 1.414 1.372 9430
1.715 1.412 1.362 9145
1.718 1.414 1.355 8310
1.721 1.416 1.349 7474
1.718 1.414 1.338 6980
1.715 1.412 1.328 6954
1.718 1.414 1.322 7222
1.721 1.416 1.315 7490
1.729 1.423 1.312 6294
1.731 1.425 1.306 5160
1.739 1.432 1.303 3745
1.802 1.483 1.335 3929
1.810 1.490 1.332 6095
1.813 1.492 1.325 7948
1.821 1.499 1.321 9894
1.823 1.501 1.314 9632
1.821 1.499 1.304 8848
1.823 1.501 1.297 8261
1.914 1.576 1.345 6073
1.917 1.578 1.337 6819
1.919 1.580 1.330 9429
1.922 1.582 1.323 12040
1.919 1.580 1.312 11237
1.916 1.577 1.302 10623
1.919 1.579 1.294 7891
1.905 1.568 1.277 5322
1.918 1.579 1.276 6478
1.926 1.586 1.272 7684
1.929 1.588 1.265 7684
1.931 1.590 1.257 7915
1.934 1.592 1.250 8145
1.936 1.594 1.243 6086
2.074 1.707 1.310 5502
1.981 1.630 1.250 4512
2.000 1.646 1.251 6238
0.506 0.415 1.634 8905
0.512 0.420 1.639 8889
0.518 0.425 1.644 9127
0.524 0.430 1.649 9618
0.530 0.434 1.654 10583
0.525 0.431 1.631 11893
0.529 0.434 1.629 16790
0.532 0.436 1.627 19430
0.535 0.439 1.625 22996
0.539 0.442 1.622 26562
0.545 0.447 1.627 26535
0.548 0.449 1.625 26582
0.551 0.452 1.623 21505
0.555 0.455 1.621 16428
0.561 0.460 1.626 11210
0.564 0.463 1.624 6338
0.565 0.463 1.615 5546
0.568 0.466 1.612 4111
0.571 0.468 1.610 3746
0.574 0.471 1.608 5589
0.581 0.476 1.613 6609
0.584 0.479 1.610 7137
0.587 0.482 1.608 7757
0.590 0.484 1.606 7636
0.594 0.487 1.604 7783
0.597 0.490 1.601 7424
0.600 0.492 1.599 5786
0.604 0.495 1.597 4651
0.607 0.498 1.594 3742
0.604 0.496 1.578 2992
0.610 0.501 1.583 3746
0.617 0.506 1.587 4579
0.620 0.508 1.585 4405
0.626 0.514 1.589 4353
0.636 0.521 1.600 6007
0.639 0.524 1.598 8638
0.642 0.527 1.595 12064
0.648 0.532 1.600 16761
0.652 0.535 1.597 18692
0.655 0.537 1.595 17428
0.661 0.543 1.599 16155
0.665 0.545 1.596 12735
0.665 0.545 1.587 12489
0.668 0.548 1.585 15655
0.674 0.553 1.589 21610
0.678 0.556 1.586 28104
0.681 0.559 1.583 28264
0.681 0.559 1.574 24106
0.684 0.561 1.571 20469
0.687 0.564 1.569 22185
0.697 0.572 1.579 22095
0.704 0.577 1.583 18274
0.714 0.585 1.594 13867
0.710 0.583 1.578 14681
0.713 0.585 1.575 20849
0.717 0.588 1.572 24134
0.723 0.593 1.576 23644
0.733 0.602 1.587 19425
0.737 0.604 1.584 15282
0.740 0.607 1.581 16225
0.740 0.607 1.572 22886
0.746 0.612 1.575 24192
0.753 0.618 1.579 20469
0.756 0.620 1.576 19216
0.752 0.617 1.560 19889
0.759 0.623 1.564 20669
0.773 0.634 1.580 21170
0.776 0.637 1.577 21989
0.779 0.639 1.574 22536
0.786 0.645 1.577 20559
0.786 0.645 1.568 15852
0.793 0.650 1.571 13427
0.800 0.656 1.575 14291
0.806 0.661 1.578 15943
0.810 0.664 1.575 18555
0.809 0.664 1.565 19391
0.809 0.663 1.556 16854
0.816 0.669 1.559 15608
0.826 0.678 1.568 17804
0.833 0.683 1.572 19622
0.833 0.683 1.562 18034
0.836 0.685 1.559 12387
0.835 0.685 1.549 7866
0.834 0.684 1.540 6441
0.838 0.687 1.537 6463
0.845 0.693 1.540 7086
0.848 0.695 1.536 6180
0.855 0.701 1.539 4455
0.866 0.710 1.548 3294
0.873 0.716 1.551 4281
0.876 0.718 1.548 5382
0.871 0.715 1.532 6802
0.874 0.717 1.529 10888
0.881 0.723 1.532 16506
0.884 0.725 1.528 24828
0.891 0.731 1.531 28647
0.895 0.734 1.527 23151
0.898 0.736 1.524 15173
0.909 0.745 1.532 13956
0.916 0.751 1.535 16432
0.923 0.757 1.537 16085
0.926 0.760 1.534 20052
0.925 0.759 1.524 30011
0.932 0.765 1.527 38004
0.936 0.767 1.523 34562
0.939 0.770 1.519 21862
0.938 0.769 1.510 17565
0.941 0.772 1.506 16713
0.948 0.778 1.509 12894
0.959 0.787 1.517 10033
0.971 0.796 1.524 9086
0.974 0.799 1.521 9540
0.977 0.801 1.517 12857
0.976 0.800 1.508 16096
0.983 0.806 1.509 14763
0.986 0.809 1.506 10823
0.993 0.815 1.508 9404
1.001 0.821 1.510 9431
1.004 0.823 1.506 8104
1.007 0.826 1.502 11428
1.010 0.828 1.498 14240
1.013 0.831 1.494 8630
1.025 0.840 1.501 6414
1.019 0.836 1.486 13107
1.022 0.838 1.482 15133
1.029 0.844 1.484 11534
1.037 0.850 1.486 16783
1.035 0.849 1.476 21322
1.034 0.848 1.467 24436
1.037 0.851 1.463 17118
1.031 0.846 1.448 13279
1.043 0.855 1.455 19755
1.055 0.865 1.462 18642
1.058 0.868 1.457 19672
1.056 0.866 1.448 19502
1.064 0.872 1.449 11610
1.062 0.871 1.440 10699
1.083 0.888 1.457 12363
1.090 0.894 1.458 15576
1.098 0.901 1.460 19646
1.105 0.907 1.461 27788
1.104 0.905 1.451 30903
1.107 0.908 1.447 22853
1.114 0.914 1.448 17870
1.122 0.920 1.449 18774
1.129 0.926 1.450 18136
1.137 0.932 1.451 15406
1.144 0.939 1.452 13675
1.152 0.945 1.452 8534
1.164 0.955 1.458 7294
1.172 0.961 1.459 9883
1.179 0.967 1.460 10555
1.182 0.970 1.455 10888
1.190 0.976 1.456 14414
1.188 0.975 1.446 17067
1.191 0.977 1.441 15067
1.194 0.979 1.437 12308
1.197 0.982 1.432 14639
1.200 0.984 1.428 17030
1.207 0.990 1.428 16375
1.220 1.001 1.433 14696
1.237 1.015 1.443 13418
1.245 1.021 1.444 18614
1.248 1.023 1.439 16754
1.251 1.026 1.434 12243
1.249 1.024 1.424 14266
1.247 1.023 1.415 14437
1.245 1.021 1.405 8300
1.287 1.055 1.439 8517
1.289 1.058 1.434 9791
1.292 1.060 1.429 7838
1.310 1.074 1.438 6051
1.337 1.097 1.457 8628
1.326 1.087 1.438 12515
1.328 1.090 1.433 16692
1.346 1.104 1.442 19541
1.354 1.111 1.441 19166
1.362 1.117 1.441 17072
1.365 1.119 1.436 13126
1.373 1.126 1.435 9025
1.390 1.141 1.443 13158
1.393 1.143 1.438 19683
1.396 1.145 1.433 15666
1.414 1.160 1.441 12552
1.422 1.167 1.440 14306
1.435 1.177 1.444 16042
1.438 1.180 1.438 16927
1.446 1.186 1.437 14203
1.459 1.197 1.441 16766
1.462 1.199 1.435 19511
1.460 1.197 1.425 21680
1.463 1.200 1.419 23574
1.466 1.202 1.414 20003
1.474 1.209 1.413 17087
1.487 1.219 1.416 15389
1.500 1.230 1.418 18700
1.497 1.228 1.408 22459
1.500 1.231 1.403 21729
1.508 1.237 1.401 19415
1.527 1.252 1.408 16388
1.540 1.263 1.411 13368
1.543 1.265 1.405 11693
1.551 1.272 1.403 10484
1.564 1.283 1.406 9363
1.572 1.289 1.404 9479
1.575 1.292 1.398 9221
1.588 1.303 1.400 8743
1.596 1.309 1.398 8106
1.599 1.312 1.392 6382
1.633 1.340 1.410 5208
1.636 1.342 1.404 7106
1.639 1.344 1.397 10808
1.642 1.347 1.391 14510
1.645 1.349 1.385 15144
1.658 1.360 1.386 13546
1.677 1.375 1.392 12624
1.669 1.369 1.378 15516
1.672 1.371 1.371 18879
1.669 1.369 1.361 16369
1.672 1.371 1.355 10248
1.718 1.409 1.379 8983
1.720 1.411 1.372 8461
1.723 1.413 1.366 7939
1.726 1.416 1.359 7420
1.723 1.413 1.349 6906
1.720 1.411 1.338 6744
1.712 1.404 1.325 7279
1.720 1.411 1.322 7535
1.723 1.413 1.315 7844
1.731 1.420 1.312 6606
1.734 1.422 1.306 5419
1.742 1.429 1.303 3977
1.805 1.480 1.335 4452
1.813 1.487 1.332 6562
1.815 1.489 1.325 8380
1.823 1.496 1.321 10360
1.826 1.498 1.314 10124
1.823 1.495 1.304 9306
1.826 1.498 1.297 8751
1.834 1.504 1.294 6107
1.919 1.574 1.337 6669
1.917 1.572 1.327 9156
1.919 1.574 1.319 11758
1.916 1.572 1.309 10979
1.919 1.574 1.302 10509
1.916 1.572 1.291 8258
1.913 1.569 1.280 6178
1.921 1.576 1.276 7174
1.929 1.582 1.272 8268
1.932 1.584 1.265 8268
1.934 1.587 1.257 8540
1.937 1.589 1.250 8811
1.939 1.591 1.243 6566
2.077 1.703 1.310 5596
1.984 1.627 1.250 4678
2.003 1.643 1.251 6487
0.507 0.413 1.634 9732
0.513 0.418 1.639 8610
0.519 0.423 1.644 8013
0.525 0.428 1.649 9119
0.531 0.433 1.654 10284
0.526 0.429 1.631 12340
0.527 0.430 1.621 18089
0.530 0.433 1.619 21412
0.536 0.437 1.625 24894
0.540 0.440 1.622 28489
0.546 0.445 1.627 28041
0.549 0.448 1.625 27915
0.553 0.451 1.623 22457
0.556 0.453 1.621 17000
0.559 0.456 1.619 11411
0.568 0.463 1.631 6322
0.566 0.461 1.615 5735
0.569 0.464 1.612 4419
0.561 0.458 1.582 4165
0.573 0.467 1.601 6371
0.579 0.472 1.606 7549
0.585 0.477 1.610 8275
0.589 0.480 1.608 8948
0.595 0.485 1.613 8412
0.595 0.485 1.604 8107
0.598 0.488 1.601 7415
0.602 0.491 1.599 5414
0.605 0.493 1.597 3998
0.608 0.496 1.594 3501
0.606 0.494 1.578 3111
0.615 0.501 1.589 4121
0.618 0.504 1.587 5185
0.621 0.507 1.585 4830
0.628 0.512 1.589 4610
0.634 0.517 1.594 6004
0.640 0.522 1.598 8530
0.644 0.525 1.595 12126
0.650 0.530 1.600 16754
0.653 0.533 1.597 18769
0.657 0.535 1.595 17799
0.660 0.538 1.592 16818
0.663 0.541 1.590 13743
0.666 0.543 1.587 12030
0.670 0.546 1.585 13380
0.676 0.551 1.589 19109
0.679 0.554 1.586 25989
0.683 0.557 1.583 26717
0.683 0.557 1.574 22979
0.686 0.559 1.571 19751
0.689 0.562 1.569 21431
0.699 0.570 1.579 21130
0.705 0.575 1.583 17811
0.709 0.578 1.581 14092
0.712 0.581 1.578 16892
0.715 0.583 1.575 23694
0.718 0.586 1.572 26487
0.725 0.591 1.576 24462
0.732 0.597 1.580 18209
0.738 0.602 1.584 13432
0.738 0.602 1.574 15495
0.741 0.605 1.572 23263
0.748 0.610 1.575 24397
0.755 0.615 1.579 20671
0.758 0.618 1.576 19797
0.758 0.618 1.566 20940
0.761 0.620 1.564 21241
0.775 0.632 1.580 19731
0.778 0.634 1.577 19587
0.785 0.640 1.580 20283
0.784 0.640 1.571 19130
0.788 0.642 1.568 14696
0.795 0.648 1.571 11205
0.801 0.654 1.575 11332
0.808 0.659 1.578 12379
0.811 0.662 1.575 15539
0.811 0.661 1.565 19215
0.811 0.661 1.556 18571
0.817 0.667 1.559 17467
0.828 0.675 1.568 19151
0.831 0.678 1.565 20786
0.834 0.681 1.562 19168
0.838 0.683 1.559 13486
0.837 0.683 1.549 8092
0.833 0.679 1.534 6095
0.836 0.682 1.531 6577
0.843 0.687 1.534 7855
0.850 0.693 1.536 7403
0.857 0.699 1.539 5582
0.860 0.701 1.536 4319
0.871 0.710 1.545 4707
0.878 0.716 1.548 5474
0.873 0.712 1.532 7414
0.876 0.715 1.529 12523
0.879 0.717 1.525 18972
0.886 0.723 1.528 27018
0.894 0.729 1.531 29940
0.897 0.731 1.527 23271
0.900 0.734 1.524 14202
0.911 0.743 1.532 13792
0.918 0.749 1.535 17224
0.925 0.755 1.537 16002
0.928 0.757 1.534 21628
0.927 0.756 1.524 33839
0.931 0.759 1.521 40588
0.938 0.765 1.523 35114
0.941 0.767 1.519 22464
0.940 0.766 1.510 17507
0.947 0.772 1.512 16723
0.950 0.775 1.509 13275
0.962 0.784 1.517 10781
0.969 0.790 1.519 10866
0.976 0.796 1.521 11647
0.979 0.798 1.517 12341
0.982 0.801 1.513 13385
0.985 0.804 1.509 13082
0.993 0.809 1.511 10806
0.996 0.812 1.508 9446
1.003 0.818 1.510 8208
1.002 0.817 1.500 6845
1.009 0.823 1.502 11760
1.012 0.825 1.498 14852
1.015 0.828 1.494 10473
1.023 0.834 1.496 11052
1.026 0.836 1.492 18353
1.029 0.839 1.488 17253
1.032 0.841 1.484 11751
1.039 0.847 1.486 16366
1.042 0.850 1.482 21023
1.036 0.845 1.467 26112
1.039 0.848 1.463 19480
1.038 0.846 1.453 11906
1.045 0.852 1.455 19423
1.057 0.862 1.462 19915
1.056 0.861 1.452 20215
1.059 0.863 1.448 19328
1.066 0.869 1.449 11234
1.064 0.868 1.440 11385
1.076 0.878 1.447 12387
1.093 0.891 1.458 12908
1.105 0.901 1.465 17596
1.108 0.904 1.461 26999
1.106 0.902 1.451 29598
1.109 0.905 1.447 22285
1.117 0.911 1.448 20132
1.124 0.917 1.449 22148
1.127 0.919 1.445 21040
1.135 0.925 1.445 16892
1.147 0.935 1.452 13737
1.155 0.942 1.452 8419
1.167 0.952 1.458 7459
1.174 0.958 1.459 9907
1.182 0.964 1.460 10246
1.185 0.966 1.455 10173
1.193 0.973 1.456 12844
1.191 0.971 1.446 14879
1.194 0.974 1.441 12352
1.197 0.976 1.437 11210
1.195 0.975 1.427 13312
1.193 0.973 1.418 15543
1.210 0.987 1.428 15570
1.223 0.997 1.433 13944
1.240 1.011 1.443 14098
1.248 1.018 1.444 21026
1.251 1.020 1.439 19198
1.254 1.022 1.434 12977
1.252 1.021 1.424 13893
1.250 1.019 1.415 13818
1.277 1.041 1.434 7356
1.290 1.052 1.439 8423
1.292 1.054 1.434 9561
1.300 1.060 1.434 8520
1.308 1.067 1.434 7305
1.321 1.077 1.438 9087
1.324 1.079 1.433 13443
1.327 1.082 1.428 17692
1.349 1.100 1.442 20735
1.362 1.111 1.446 21687
1.365 1.113 1.441 19335
1.368 1.116 1.436 13360
1.376 1.122 1.435 9001
1.389 1.132 1.439 13927
1.397 1.139 1.438 21004
1.400 1.141 1.433 16911
1.413 1.152 1.437 13605
1.425 1.162 1.440 15217
1.439 1.173 1.444 17036
1.441 1.175 1.438 18543
1.439 1.174 1.428 13473
1.457 1.189 1.436 12868
1.465 1.195 1.435 15528
1.458 1.189 1.421 19609
1.466 1.196 1.419 24482
1.469 1.198 1.414 21875
1.472 1.200 1.408 18507
1.490 1.215 1.416 16098
1.503 1.226 1.418 19138
1.506 1.228 1.413 22888
1.504 1.226 1.403 22036
1.512 1.233 1.401 19251
1.530 1.248 1.408 15514
1.543 1.259 1.411 13418
1.546 1.261 1.405 12314
1.554 1.268 1.403 10808
1.568 1.278 1.406 9122
1.570 1.281 1.400 8864
1.579 1.287 1.398 8392
1.592 1.298 1.400 7861
1.600 1.305 1.398 7353
1.597 1.303 1.388 6236
1.632 1.331 1.406 5610
1.640 1.337 1.404 7900
1.643 1.340 1.397 11539
1.646 1.342 1.391 15179
1.649 1.344 1.385 15466
1.657 1.351 1.382 13380
1.665 1.358 1.380 11490
1.673 1.364 1.378 14955
1.676 1.367 1.371 18460
1.673 1.364 1.361 15908
1.676 1.367 1.355 9666
1.722 1.404 1.379 8054
1.730 1.411 1.376 7430
1.733 1.413 1.369 6929
1.735 1.415 1.363 6861
1.733 1.413 1.352 6820
1.719 1.402 1.335 6855
1.716 1.400 1.325 7864
1.724 1.406 1.322 8057
1.727 1.408 1.315 8327
1.735 1.415 1.312 6954
1.738 1.417 1.306 5635
1.746 1.424 1.303 4129
1.814 1.479 1.339 4920
1.817 1.482 1.332 6907
1.825 1.488 1.328 8693
1.828 1.490 1.321 10689
1.830 1.493 1.314 10473
1.833 1.495 1.307 9698
1.830 1.492 1.297 9167
1.838 1.499 1.294 6466
1.918 1.564 1.334 6602
1.921 1.567 1.327 9069
1.924 1.569 1.319 11537
1.921 1.566 1.309 11057
1.918 1.564 1.298 10731
1.920 1.566 1.291 8970
1.923 1.568 1.284 7210
1.926 1.570 1.276 7974
1.934 1.577 1.272 8757
1.936 1.579 1.265 8757
1.939 1.581 1.257 9023
1.941 1.583 1.250 9288
1.944 1.585 1.243 6958
2.081 1.697 1.310 5467
1.988 1.621 1.250 4819
2.008 1.637 1.251 6743
0.508 0.413 1.634 10369
0.514 0.418 1.639 8349
0.522 0.424 1.651 7234
0.526 0.427 1.649 8973
0.526 0.428 1.640 10808
0.527 0.428 1.631 13279
0.528 0.429 1.621 19813
0.531 0.432 1.619 23543
0.537 0.437 1.625 26663
0.540 0.439 1.622 30129
0.547 0.444 1.627 29394
0.550 0.447 1.625 29161
0.553 0.450 1.623 23391
0.557 0.452 1.621 17622
0.560 0.455 1.619 11739
0.569 0.462 1.631 6349
0.569 0.463 1.622 5948
0.570 0.463 1.612 4759
0.562 0.457 1.582 4552
0.574 0.466 1.601 6860
0.580 0.471 1.606 8174
0.586 0.476 1.610 9018
0.589 0.479 1.608 9790
0.593 0.482 1.606 9021
0.596 0.484 1.604 8329
0.599 0.487 1.601 7276
0.602 0.490 1.599 4974
0.606 0.492 1.597 3344
0.609 0.495 1.594 3359
0.612 0.498 1.592 3447
0.616 0.500 1.589 4570
0.619 0.503 1.587 5694
0.622 0.506 1.585 5265
0.628 0.511 1.589 4964
0.635 0.516 1.594 6217
0.641 0.521 1.598 8628
0.644 0.524 1.595 12353
0.651 0.529 1.600 16684
0.654 0.532 1.597 18567
0.657 0.534 1.595 17713
0.661 0.537 1.592 16882
0.664 0.540 1.590 14302
0.667 0.542 1.587 11577
0.670 0.545 1.585 11457
0.677 0.550 1.589 16759
0.680 0.553 1.586 23716
0.683 0.556 1.583 24932
0.683 0.556 1.574 21610
0.687 0.558 1.571 18832
0.690 0.561 1.569 20510
0.696 0.566 1.573 20191
0.706 0.574 1.583 17517
0.706 0.574 1.574 15070
0.709 0.577 1.571 19286
0.716 0.582 1.575 26522
0.719 0.585 1.572 28716
0.726 0.590 1.576 25047
0.733 0.595 1.580 16509
0.739 0.601 1.584 11153
0.742 0.604 1.581 14118
0.742 0.603 1.572 22716
0.749 0.609 1.575 23911
0.756 0.614 1.579 20318
0.759 0.617 1.576 19838
0.759 0.617 1.566 21515
0.762 0.619 1.564 21522
0.776 0.631 1.580 18359
0.779 0.633 1.577 17407
0.786 0.639 1.580 18350
0.785 0.638 1.571 18209
0.785 0.638 1.562 14401
0.796 0.647 1.571 10260
0.799 0.649 1.568 10015
0.809 0.658 1.578 9898
0.813 0.660 1.575 12840
0.808 0.657 1.559 18650
0.812 0.660 1.556 19630
0.818 0.665 1.559 18621
0.825 0.671 1.562 19694
0.832 0.677 1.565 21124
0.836 0.679 1.562 19557
0.839 0.682 1.559 14135
0.838 0.681 1.549 8131
0.830 0.675 1.528 6020
0.829 0.674 1.518 7693
0.844 0.686 1.534 9099
0.851 0.692 1.536 8518
0.858 0.697 1.539 6403
0.861 0.700 1.536 5869
0.868 0.706 1.539 6678
0.875 0.711 1.542 6773
0.874 0.711 1.532 8535
0.877 0.713 1.529 13490
0.884 0.719 1.532 19912
0.888 0.722 1.528 27824
0.895 0.727 1.531 30417
0.898 0.730 1.527 22406
0.901 0.732 1.524 12374
0.908 0.738 1.526 13902
0.915 0.744 1.529 19993
0.922 0.750 1.531 17641
0.926 0.752 1.528 22666
0.929 0.755 1.524 35893
0.932 0.757 1.521 41082
0.939 0.763 1.523 33795
0.938 0.762 1.514 21771
0.945 0.768 1.516 16571
0.948 0.771 1.512 15547
0.955 0.777 1.514 12587
0.963 0.783 1.517 11405
0.970 0.789 1.519 13224
0.973 0.791 1.515 14782
0.980 0.797 1.517 11688
0.983 0.799 1.513 9694
0.991 0.805 1.515 11732
0.994 0.808 1.511 11479
0.997 0.810 1.508 9618
1.000 0.813 1.504 7403
0.999 0.812 1.494 6537
1.006 0.818 1.496 11710
1.014 0.824 1.498 14532
1.017 0.826 1.494 11483
1.024 0.832 1.496 14816
1.027 0.835 1.492 22985
1.030 0.837 1.488 21591
1.033 0.840 1.484 15238
1.036 0.842 1.480 16195
1.044 0.848 1.482 19482
1.038 0.844 1.467 27091
1.041 0.846 1.463 21548
1.048 0.852 1.464 12155
1.051 0.854 1.460 19795
1.054 0.857 1.456 19796
1.057 0.859 1.452 20221
1.060 0.862 1.448 19280
1.067 0.868 1.449 10468
1.070 0.870 1.445 11701
1.073 0.872 1.441 13330
1.094 0.890 1.458 10139
1.106 0.899 1.465 15270
1.109 0.902 1.461 25398
1.108 0.900 1.451 27575
1.111 0.903 1.447 21401
1.118 0.909 1.448 21723
1.126 0.915 1.449 24505
1.129 0.918 1.445 23614
1.132 0.920 1.440 18530
1.144 0.930 1.446 14182
1.151 0.936 1.447 8041
1.168 0.950 1.458 7250
1.176 0.956 1.459 9667
1.184 0.962 1.460 9753
1.187 0.965 1.455 9263
1.190 0.967 1.450 11411
1.192 0.969 1.446 12908
1.191 0.968 1.436 10035
1.194 0.970 1.432 10234
1.192 0.969 1.422 11884
1.195 0.971 1.418 13976
1.207 0.981 1.423 14728
1.224 0.995 1.433 12818
1.242 1.009 1.443 14386
1.249 1.016 1.444 22769
1.252 1.018 1.439 21039
1.255 1.020 1.434 13713
1.253 1.019 1.424 13807
1.251 1.017 1.415 13630
1.288 1.047 1.444 8282
1.291 1.050 1.439 8840
1.294 1.052 1.434 9880
1.302 1.058 1.434 9773
1.310 1.065 1.434 8872
1.318 1.071 1.433 9825
1.325 1.077 1.433 13676
1.328 1.080 1.428 17449
1.351 1.098 1.442 20992
1.364 1.109 1.446 23555
1.367 1.111 1.441 21111
1.370 1.113 1.436 13422
1.378 1.120 1.435 9733
1.390 1.130 1.439 15908
1.398 1.137 1.438 22306
1.401 1.139 1.433 17870
1.414 1.150 1.437 14628
1.427 1.160 1.440 16046
1.435 1.167 1.439 18244
1.438 1.169 1.434 20197
1.436 1.167 1.424 13453
1.454 1.182 1.432 9646
1.457 1.184 1.426 12333
1.460 1.187 1.421 18554
1.468 1.193 1.419 25666
1.471 1.196 1.414 23705
1.474 1.198 1.408 19938
1.487 1.209 1.411 16913
1.505 1.224 1.418 19430
1.508 1.226 1.413 22959
1.511 1.228 1.407 22012
1.514 1.230 1.401 18457
1.532 1.245 1.408 14818
1.540 1.252 1.407 13447
1.548 1.259 1.405 12575
1.556 1.265 1.403 10950
1.564 1.272 1.401 9211
1.572 1.278 1.400 8712
1.581 1.285 1.398 7856
1.594 1.296 1.400 7277
1.602 1.302 1.398 7035
1.605 1.305 1.392 6412
1.629 1.324 1.402 6266
1.642 1.335 1.404 8512
1.645 1.337 1.397 12102
1.648 1.340 1.391 15693
1.651 1.342 1.385 15667
1.659 1.348 1.382 13199
1.667 1.355 1.380 11098
1.670 1.357 1.374 14316
1.678 1.364 1.371 17656
1.675 1.362 1.361 15134
1.678 1.364 1.355 9046
1.724 1.401 1.379 7512
1.732 1.408 1.376 6893
1.740 1.415 1.373 6431
1.743 1.417 1.367 6656
1.751 1.423 1.364 6897
1.721 1.399 1.335 6910
1.718 1.397 1.325 8099
1.727 1.404 1.322 8230
1.729 1.406 1.315 8515
1.737 1.412 1.312 7134
1.740 1.414 1.306 5831
1.748 1.421 1.303 4317
1.816 1.477 1.339 5236
1.819 1.479 1.332 7008
1.827 1.485 1.328 8763
1.830 1.488 1.321 10719
1.833 1.490 1.314 10520
1.835 1.492 1.307 9852
1.838 1.494 1.300 9381
1.841 1.496 1.294 6691
1.921 1.561 1.334 6788
1.923 1.564 1.327 9184
1.921 1.561 1.316 11632
1.923 1.563 1.309 11438
1.920 1.561 1.298 11337
1.923 1.563 1.291 9802
1.925 1.565 1.284 8266
1.928 1.567 1.276 8733
1.936 1.574 1.272 9225
1.939 1.576 1.265 9225
1.941 1.578 1.257 9406
1.944 1.580 1.250 9588
1.946 1.582 1.243 7182
2.084 1.694 1.310 5348
1.991 1.618 1.250 4814
2.010 1.634 1.251 6893
0.507 0.409 1.626 10415
0.515 0.416 1.639 7837
0.524 0.423 1.651 6464
0.524 0.423 1.642 9044
0.525 0.424 1.633 11925
0.529 0.427 1.631 14509
0.529 0.427 1.621 21287
0.533 0.430 1.619 25253
0.539 0.435 1.625 28112
0.542 0.437 1.622 31372
0.545 0.440 1.620 30636
0.551 0.445 1.625 30379
0.555 0.448 1.623 24157
0.555 0.448 1.614 18084
0.561 0.453 1.619 11832
0.570 0.460 1.631 6208
0.568 0.459 1.615 6014
0.569 0.459 1.605 5059
0.563 0.455 1.582 4945
0.575 0.464 1.601 7171
0.581 0.469 1.606 8537
0.588 0.474 1.610 9315
0.591 0.477 1.608 10030
0.594 0.480 1.606 9054
0.598 0.482 1.604 8154
0.601 0.485 1.601 6989
0.604 0.488 1.599 4796
0.607 0.490 1.597 3310
0.611 0.493 1.594 3897
0.614 0.496 1.592 4573
0.617 0.498 1.589 5655
0.621 0.501 1.587 6737
0.624 0.504 1.585 6195
0.630 0.509 1.589 5731
0.637 0.514 1.594 6918
0.640 0.516 1.591 9269
0.646 0.522 1.595 12880
0.649 0.524 1.593 16763
0.656 0.529 1.597 18225
0.659 0.532 1.595 17323
0.662 0.535 1.592 16495
0.666 0.537 1.590 14391
0.669 0.540 1.587 11218
0.672 0.543 1.585 10221
0.679 0.548 1.589 14918
0.682 0.551 1.586 21484
0.685 0.553 1.583 22918
0.685 0.553 1.574 19877
0.685 0.553 1.565 17465
0.692 0.558 1.569 19192
0.698 0.564 1.573 19033
0.705 0.569 1.577 17564
0.708 0.572 1.574 16832
0.715 0.577 1.578 22532
0.718 0.580 1.575 30201
0.721 0.582 1.572 31764
0.724 0.585 1.570 26554
0.735 0.593 1.580 15249
0.741 0.598 1.584 9129
0.745 0.601 1.581 12872
0.744 0.601 1.572 21833
0.751 0.606 1.575 22844
0.758 0.612 1.579 19370
0.758 0.611 1.569 19429
0.761 0.614 1.566 21786
0.764 0.617 1.564 21742
0.774 0.625 1.574 17312
0.781 0.631 1.577 15133
0.788 0.636 1.580 15987
0.788 0.636 1.571 16925
0.787 0.635 1.562 14256
0.794 0.641 1.565 10145
0.801 0.647 1.568 9803
0.808 0.652 1.572 8802
0.811 0.655 1.568 12043
0.811 0.654 1.559 19895
0.814 0.657 1.556 21527
0.821 0.663 1.559 19846
0.828 0.668 1.562 19835
0.835 0.674 1.565 20979
0.838 0.676 1.562 19832
0.841 0.679 1.559 14860
0.840 0.678 1.549 8549
0.832 0.672 1.528 6490
0.831 0.671 1.518 9010
0.842 0.680 1.527 10054
0.849 0.686 1.530 9104
0.856 0.691 1.533 7292
0.863 0.697 1.536 7935
0.874 0.706 1.545 8010
0.881 0.711 1.548 6756
0.881 0.711 1.538 8912
0.884 0.713 1.535 15201
0.887 0.716 1.532 22007
0.890 0.718 1.528 28295
0.897 0.724 1.531 29581
0.904 0.730 1.533 21755
0.903 0.729 1.524 11860
0.911 0.735 1.526 14958
0.918 0.741 1.529 22099
0.921 0.743 1.525 18948
0.928 0.749 1.528 23753
0.931 0.752 1.524 37122
0.934 0.754 1.521 41222
0.937 0.757 1.517 32997
0.941 0.759 1.514 21462
0.948 0.765 1.516 15187
0.955 0.771 1.518 14457
0.958 0.773 1.514 13223
0.970 0.783 1.522 13021
0.973 0.785 1.519 15763
0.976 0.788 1.515 18658
0.979 0.790 1.511 15042
0.986 0.796 1.513 8958
0.989 0.799 1.509 9417
0.997 0.805 1.511 10643
1.000 0.807 1.508 8916
1.003 0.810 1.504 5774
1.002 0.809 1.494 6114
1.009 0.814 1.496 12440
1.016 0.820 1.498 14041
1.019 0.823 1.494 10933
1.027 0.829 1.496 13265
1.034 0.835 1.497 18042
1.037 0.837 1.494 17581
1.032 0.833 1.478 15272
1.035 0.835 1.474 18890
1.046 0.845 1.482 21193
1.045 0.844 1.472 28643
1.044 0.842 1.463 24235
1.055 0.852 1.470 14836
1.058 0.854 1.466 21104
1.057 0.853 1.456 19372
1.055 0.852 1.447 20287
1.058 0.854 1.443 19581
1.070 0.864 1.449 10159
1.078 0.870 1.451 12531
1.076 0.869 1.441 15145
1.093 0.882 1.453 8451
1.109 0.896 1.465 13209
1.108 0.894 1.455 23566
1.111 0.897 1.451 25046
1.114 0.899 1.447 20404
1.121 0.905 1.448 22620
1.129 0.911 1.449 25648
1.132 0.914 1.445 24929
1.135 0.916 1.440 19745
1.147 0.926 1.446 14544
1.150 0.928 1.442 7929
1.172 0.946 1.458 7021
1.179 0.952 1.459 9447
1.182 0.954 1.454 9467
1.185 0.957 1.450 8611
1.193 0.963 1.450 10103
1.191 0.961 1.441 11292
1.194 0.964 1.436 8460
1.197 0.966 1.432 9493
1.205 0.972 1.432 10601
1.203 0.971 1.423 12328
1.210 0.977 1.423 14081
1.223 0.987 1.428 11560
1.245 1.005 1.443 14340
1.253 1.011 1.444 24034
1.256 1.014 1.439 22316
1.259 1.016 1.434 14201
1.257 1.014 1.424 13605
1.255 1.013 1.415 13255
1.297 1.047 1.449 9526
1.300 1.049 1.444 9703
1.298 1.048 1.434 10752
1.305 1.054 1.434 11363
1.313 1.060 1.434 10456
1.321 1.066 1.433 10384
1.324 1.069 1.428 13215
1.332 1.075 1.428 16106
1.360 1.098 1.446 20823
1.368 1.104 1.446 25033
1.371 1.106 1.441 22504
1.378 1.113 1.440 13377
1.381 1.115 1.435 10925
1.389 1.122 1.434 18644
1.397 1.128 1.434 23609
1.405 1.134 1.433 18724
1.418 1.145 1.437 15872
1.426 1.151 1.436 17146
1.439 1.162 1.439 19571
1.442 1.164 1.434 21877
1.440 1.162 1.424 14437
1.438 1.161 1.414 10059
1.451 1.171 1.417 11560
1.459 1.178 1.416 18365
1.472 1.188 1.419 26557
1.475 1.191 1.414 25179
1.478 1.193 1.408 21139
1.491 1.204 1.411 17404
1.509 1.218 1.418 19542
1.512 1.221 1.413 22777
1.515 1.223 1.407 21643
1.523 1.230 1.406 17624
1.536 1.240 1.408 14338
1.544 1.247 1.407 13418
1.553 1.253 1.405 12532
1.561 1.260 1.403 10965
1.569 1.266 1.401 9440
1.572 1.269 1.395 8835
1.580 1.275 1.394 7617
1.598 1.290 1.400 6960
1.606 1.297 1.398 7202
1.609 1.299 1.392 7063
1.628 1.314 1.398 7242
1.641 1.325 1.400 9104
1.650 1.332 1.397 12544
1.652 1.334 1.391 16075
1.655 1.336 1.385 15719
1.663 1.343 1.382 12910
1.666 1.345 1.376 10756
1.674 1.352 1.374 13560
1.682 1.358 1.371 16486
1.680 1.356 1.361 14013
1.683 1.358 1.355 8279
1.729 1.395 1.379 6879
1.742 1.406 1.380 6384
1.750 1.413 1.377 6047
1.753 1.415 1.370 6324
1.761 1.422 1.367 6671
1.726 1.393 1.335 6775
1.723 1.391 1.325 8208
1.731 1.398 1.322 8491
1.734 1.400 1.315 8915
1.742 1.406 1.312 7344
1.745 1.408 1.306 5775
1.747 1.411 1.299 4216
1.822 1.470 1.339 5439
1.824 1.473 1.332 6853
1.832 1.479 1.328 8544
1.835 1.481 1.321 10371
1.838 1.483 1.314 10197
1.840 1.486 1.307 9672
1.843 1.488 1.300 9322
1.846 1.490 1.294 6704
1.921 1.550 1.331 7250
1.923 1.552 1.323 9692
1.926 1.555 1.316 12133
1.929 1.557 1.309 12132
1.926 1.554 1.298 12195
1.928 1.556 1.291 10758
1.931 1.559 1.284 9322
1.933 1.561 1.276 9457
1.942 1.567 1.272 9640
1.944 1.569 1.265 9640
1.947 1.571 1.257 9697
1.949 1.573 1.250 9754
1.952 1.575 1.243 7267
2.090 1.687 1.310 5300
1.957 1.579 1.228 4779
2.016 1.627 1.251 6723
0.507 0.408 1.626 10611
0.516 0.415 1.639 7467
0.527 0.424 1.658 5635
0.525 0.423 1.642 9136
0.526 0.423 1.633 12992
0.526 0.424 1.624 15779
0.530 0.427 1.621 23003
0.533 0.429 1.619 27129
0.539 0.434 1.625 29642
0.543 0.437 1.622 32667
0.546 0.440 1.620 31457
0.552 0.444 1.625 30753
0.555 0.447 1.623 24409
0.556 0.448 1.614 18210
0.562 0.452 1.619 11886
0.571 0.460 1.631 6150
0.572 0.460 1.622 5875
0.572 0.461 1.612 4725
0.564 0.454 1.582 4408
0.576 0.464 1.601 6729
0.582 0.469 1.606 8319
0.585 0.471 1.603 9229
0.592 0.476 1.608 10018
0.595 0.479 1.606 9160
0.598 0.482 1.604 8006
0.601 0.484 1.601 6506
0.605 0.487 1.599 4553
0.608 0.490 1.597 3367
0.611 0.492 1.594 4385
0.615 0.495 1.592 5493
0.618 0.497 1.589 6388
0.621 0.500 1.587 7284
0.624 0.503 1.585 6661
0.631 0.508 1.589 6073
0.637 0.513 1.594 7366
0.640 0.516 1.591 9834
0.647 0.521 1.595 13190
0.650 0.523 1.593 16519
0.657 0.529 1.597 17440
0.660 0.531 1.595 16595
0.663 0.534 1.592 15903
0.666 0.537 1.590 14537
0.670 0.539 1.587 11214
0.663 0.534 1.564 9638
0.676 0.544 1.582 13187
0.683 0.550 1.586 18981
0.686 0.552 1.583 20635
0.689 0.555 1.581 17965
0.686 0.552 1.565 15899
0.692 0.558 1.569 17582
0.699 0.563 1.573 17635
0.706 0.568 1.577 17478
0.709 0.571 1.574 18431
0.715 0.576 1.578 25669
0.719 0.579 1.575 33677
0.722 0.581 1.572 34543
0.725 0.584 1.570 27979
0.735 0.592 1.580 13710
0.742 0.597 1.584 6866
0.745 0.600 1.581 11003
0.745 0.600 1.572 19884
0.752 0.605 1.575 21009
0.755 0.608 1.572 17936
0.758 0.611 1.569 18744
0.762 0.613 1.566 21980
0.765 0.616 1.564 22020
0.775 0.624 1.574 16684
0.782 0.630 1.577 13209
0.785 0.632 1.574 13716
0.788 0.635 1.571 15644
0.788 0.634 1.562 14233
0.795 0.640 1.565 11202
0.798 0.643 1.562 11546
0.798 0.642 1.552 10864
0.805 0.648 1.556 13371
0.808 0.650 1.553 20644
0.815 0.656 1.556 22390
0.822 0.661 1.559 19960
0.829 0.667 1.562 18730
0.836 0.673 1.565 19300
0.839 0.675 1.562 18430
0.842 0.678 1.559 14332
0.841 0.677 1.549 8620
0.837 0.674 1.534 7745
0.836 0.673 1.524 11137
0.843 0.679 1.527 12281
0.850 0.684 1.530 10515
0.857 0.690 1.533 8384
0.864 0.696 1.536 9714
0.875 0.705 1.545 9052
0.882 0.710 1.548 7218
0.882 0.710 1.538 10148
0.885 0.712 1.535 16251
0.888 0.715 1.532 21082
0.891 0.717 1.528 26041
0.898 0.723 1.531 27241
0.905 0.729 1.533 20361
0.904 0.728 1.524 11221
0.912 0.734 1.526 14955
0.919 0.740 1.529 22135
0.922 0.742 1.525 19276
0.929 0.748 1.528 24050
0.932 0.751 1.524 36749
0.935 0.753 1.521 38638
0.938 0.756 1.517 29054
0.942 0.758 1.514 18699
0.949 0.764 1.516 12541
0.956 0.770 1.518 12975
0.963 0.776 1.520 13229
0.971 0.781 1.522 13162
0.974 0.784 1.519 17355
0.977 0.786 1.515 22606
0.980 0.789 1.511 20125
0.983 0.791 1.508 11060
0.986 0.794 1.504 9099
0.993 0.800 1.506 10648
1.001 0.806 1.508 7874
1.004 0.808 1.504 4486
1.003 0.807 1.494 5587
1.014 0.817 1.502 11733
1.017 0.819 1.498 12361
1.020 0.822 1.494 10743
1.032 0.831 1.501 12295
1.035 0.834 1.497 13262
1.034 0.832 1.488 13223
1.033 0.831 1.478 14587
1.036 0.834 1.474 19376
1.047 0.843 1.482 21968
1.046 0.842 1.472 31232
1.045 0.841 1.463 27337
1.057 0.851 1.470 17621
1.060 0.853 1.466 22440
1.058 0.852 1.456 18378
1.057 0.851 1.447 19660
1.064 0.857 1.448 19020
1.076 0.866 1.455 10643
1.079 0.869 1.451 14421
1.077 0.867 1.441 17408
1.080 0.870 1.437 10121
1.106 0.890 1.460 12093
1.109 0.893 1.455 21196
1.112 0.895 1.451 21701
1.115 0.898 1.447 19035
1.122 0.904 1.448 22864
1.125 0.906 1.444 25963
1.133 0.912 1.445 25628
1.136 0.915 1.440 20570
1.144 0.921 1.441 14816
1.146 0.923 1.437 8104
1.173 0.944 1.458 6878
1.176 0.947 1.454 9176
1.179 0.949 1.449 9231
1.186 0.955 1.450 7859
1.189 0.958 1.445 8945
1.188 0.956 1.436 9969
1.190 0.958 1.431 7442
1.198 0.965 1.432 8661
1.206 0.971 1.432 9645
1.209 0.973 1.428 11813
1.212 0.976 1.423 13784
1.215 0.978 1.418 10492
1.246 1.003 1.443 13927
1.249 1.006 1.439 24896
1.252 1.008 1.434 23042
1.260 1.014 1.434 14350
1.258 1.013 1.424 13207
1.261 1.015 1.420 12801
1.298 1.045 1.449 10874
1.301 1.047 1.444 11137
1.299 1.046 1.434 12069
1.307 1.052 1.434 13132
1.310 1.055 1.429 12145
1.318 1.061 1.429 10979
1.325 1.067 1.428 12575
1.333 1.073 1.428 14256
1.361 1.096 1.446 20455
1.364 1.098 1.441 26064
1.372 1.105 1.441 23452
1.380 1.111 1.440 13451
1.388 1.117 1.440 12570
1.391 1.120 1.434 21700
1.399 1.126 1.434 24842
1.412 1.137 1.437 19531
1.420 1.143 1.437 17261
1.428 1.149 1.436 18342
1.441 1.160 1.439 20674
1.444 1.162 1.434 23292
1.441 1.161 1.424 15659
1.439 1.159 1.414 11320
1.442 1.161 1.408 12934
1.455 1.172 1.412 18985
1.474 1.186 1.419 27666
1.482 1.193 1.418 26832
1.479 1.191 1.408 22486
1.492 1.202 1.411 17732
1.511 1.216 1.418 19599
1.514 1.219 1.413 22686
1.517 1.221 1.407 21481
1.525 1.228 1.406 17146
1.538 1.238 1.408 14181
1.546 1.245 1.407 13297
1.549 1.247 1.401 12227
1.562 1.258 1.403 10961
1.570 1.264 1.401 9863
1.573 1.267 1.395 9256
1.576 1.269 1.389 7565
1.605 1.292 1.404 6750
1.608 1.295 1.398 7492
1.616 1.301 1.396 7909
1.624 1.308 1.394 8503
1.643 1.323 1.400 9667
1.651 1.330 1.397 12759
1.654 1.332 1.391 16147
1.657 1.334 1.385 15442
1.660 1.336 1.379 12436
1.668 1.343 1.376 10322
1.676 1.349 1.374 12590
1.679 1.352 1.367 15125
1.682 1.354 1.361 12713
1.684 1.356 1.355 7629
1.736 1.397 1.383 6390
1.744 1.404 1.380 6091
1.758 1.415 1.381 6000
1.766 1.422 1.378 6152
1.769 1.424 1.371 6341
1.728 1.391 1.335 6509
1.725 1.389 1.325 8177
1.733 1.395 1.322 8826
1.741 1.402 1.319 9687
1.744 1.404 1.312 7773
1.747 1.406 1.306 5858
1.832 1.475 1.353 4826
1.829 1.473 1.342 5593
1.826 1.470 1.332 6404
1.834 1.477 1.328 8078
1.837 1.479 1.321 9776
1.840 1.481 1.314 9601
1.842 1.483 1.307 9256
1.845 1.485 1.300 9087
1.848 1.487 1.294 6574
1.923 1.548 1.331 7972
1.925 1.550 1.323 10386
1.928 1.552 1.316 12800
1.931 1.554 1.309 12967
1.928 1.552 1.298 13149
1.930 1.554 1.291 11831
1.933 1.556 1.284 10514
1.935 1.558 1.276 10312
1.944 1.565 1.272 10203
1.946 1.567 1.265 10203
1.949 1.569 1.257 10048
1.951 1.571 1.250 9893
1.954 1.573 1.243 7312
2.092 1.684 1.310 5211
1.959 1.577 1.228 4731
2.018 1.625 1.251 6522
0.508 0.407 1.626 11283
0.514 0.412 1.632 7588
0.530 0.425 1.666 4996
0.526 0.422 1.642 9404
0.526 0.422 1.633 14009
0.527 0.423 1.624 16938
0.531 0.426 1.621 24299
0.534 0.428 1.619 28504
0.540 0.433 1.625 30657
0.543 0.436 1.622 33343
0.547 0.439 1.620 31834
0.553 0.443 1.625 30818
0.556 0.446 1.623 24467
0.557 0.447 1.614 18239
0.563 0.452 1.619 11903
0.569 0.457 1.624 6077
0.572 0.459 1.622 5754
0.573 0.460 1.612 4535
0.573 0.460 1.603 4206
0.577 0.463 1.601 6594
0.583 0.468 1.606 8268
0.586 0.470 1.603 9186
0.592 0.475 1.608 9849
0.596 0.478 1.606 8911
0.599 0.481 1.604 7411
0.602 0.483 1.601 5659
0.606 0.486 1.599 4237
0.609 0.489 1.597 3631
0.612 0.491 1.594 4883
0.615 0.494 1.592 6201
0.619 0.496 1.589 6943
0.622 0.499 1.587 7685
0.625 0.502 1.585 6952
0.629 0.504 1.582 6219
0.635 0.509 1.587 7553
0.641 0.515 1.591 9960
0.645 0.517 1.589 13090
0.651 0.522 1.593 15726
0.657 0.528 1.597 16190
0.661 0.530 1.595 15631
0.664 0.533 1.592 15301
0.667 0.535 1.590 14825
0.667 0.536 1.580 12086
0.667 0.536 1.571 10335
0.677 0.543 1.582 12321
0.684 0.549 1.586 17014
0.687 0.551 1.583 18956
0.690 0.554 1.581 16678
0.690 0.554 1.571 14632
0.693 0.556 1.569 15752
0.700 0.562 1.573 15692
0.707 0.567 1.577 17099
0.710 0.570 1.574 20039
0.716 0.575 1.578 28815
0.720 0.578 1.575 37292
0.723 0.580 1.572 37647
0.726 0.583 1.570 30076
0.729 0.585 1.567 14530
0.726 0.582 1.551 7159
0.746 0.599 1.581 10292
0.746 0.599 1.572 18267
0.749 0.601 1.569 19714
0.756 0.607 1.572 17112
0.759 0.609 1.569 18014
0.763 0.612 1.566 21621
0.766 0.614 1.564 22135
0.773 0.620 1.567 16847
0.779 0.625 1.571 12578
0.786 0.631 1.574 12100
0.786 0.631 1.565 14599
0.789 0.633 1.562 14412
0.796 0.639 1.565 12776
0.799 0.641 1.562 13825
0.799 0.641 1.552 14068
0.802 0.643 1.549 16442
0.809 0.649 1.553 22412
0.816 0.655 1.556 23540
0.823 0.660 1.559 20088
0.830 0.666 1.562 17311
0.837 0.671 1.565 16801
0.840 0.674 1.562 15797
0.843 0.676 1.559 12670
0.842 0.676 1.549 8509
0.838 0.672 1.534 9478
0.837 0.672 1.524 13581
0.844 0.677 1.527 14749
0.847 0.680 1.524 12174
0.854 0.686 1.527 9695
0.865 0.694 1.536 11784
0.872 0.700 1.539 10419
0.883 0.709 1.548 7358
0.883 0.708 1.538 10165
0.886 0.711 1.535 16549
0.889 0.713 1.532 20487
0.892 0.716 1.528 23274
0.899 0.722 1.531 24082
0.906 0.727 1.533 18341
0.910 0.730 1.530 10245
0.913 0.732 1.526 15338
0.916 0.735 1.523 23399
0.923 0.741 1.525 19940
0.930 0.746 1.528 23103
0.933 0.749 1.524 34830
0.937 0.751 1.521 35226
0.940 0.754 1.517 25195
0.943 0.756 1.514 16241
0.950 0.762 1.516 10529
0.957 0.768 1.518 11949
0.965 0.774 1.520 13527
0.972 0.780 1.522 13110
0.971 0.779 1.513 16438
0.974 0.781 1.509 22467
0.981 0.787 1.511 22239
0.980 0.786 1.502 13923
0.983 0.789 1.498 10691
0.990 0.795 1.500 11635
0.998 0.801 1.502 8631
1.001 0.803 1.498 4532
1.008 0.809 1.500 4578
1.016 0.815 1.502 8848
1.019 0.817 1.498 9641
1.022 0.820 1.494 10182
1.029 0.826 1.496 12709
1.037 0.832 1.497 14033
1.035 0.831 1.488 12247
1.034 0.830 1.478 15055
1.037 0.832 1.474 19777
1.044 0.838 1.476 22419
1.047 0.841 1.472 35478
1.046 0.839 1.463 29374
1.058 0.849 1.470 19134
1.061 0.851 1.466 22861
1.055 0.847 1.451 17379
1.058 0.849 1.447 19143
1.065 0.855 1.448 17942
1.077 0.865 1.455 11314
1.085 0.871 1.456 16711
1.083 0.869 1.447 19659
1.086 0.872 1.442 12477
1.103 0.885 1.454 12490
1.110 0.891 1.455 19151
1.113 0.893 1.451 18336
1.116 0.896 1.447 17391
1.124 0.902 1.448 22359
1.127 0.904 1.444 25782
1.130 0.907 1.439 26054
1.137 0.913 1.440 21004
1.145 0.919 1.441 14643
1.148 0.921 1.437 8493
1.174 0.942 1.458 6954
1.177 0.945 1.454 8920
1.176 0.943 1.444 9109
1.183 0.949 1.445 7202
1.186 0.952 1.440 8392
1.184 0.950 1.431 9713
1.187 0.953 1.426 7242
1.195 0.959 1.427 7773
1.217 0.977 1.442 9370
1.220 0.979 1.438 12474
1.213 0.974 1.423 13915
1.211 0.972 1.413 10446
1.243 0.998 1.439 13392
1.251 1.004 1.439 24980
1.254 1.006 1.434 23155
1.257 1.008 1.429 14157
1.260 1.011 1.424 12815
1.263 1.013 1.420 12664
1.300 1.043 1.449 11713
1.303 1.045 1.444 12337
1.306 1.048 1.439 13598
1.309 1.050 1.434 14679
1.307 1.048 1.424 13472
1.314 1.055 1.424 11485
1.327 1.065 1.428 11855
1.335 1.071 1.428 12409
1.363 1.094 1.446 19693
1.366 1.096 1.441 26307
1.374 1.102 1.441 23436
1.382 1.109 1.440 13637
1.390 1.115 1.440 14502
1.393 1.117 1.434 23909
1.401 1.124 1.434 25274
1.414 1.134 1.437 19899
1.422 1.141 1.437 18254
1.430 1.147 1.436 19052
1.438 1.154 1.435 21457
1.446 1.160 1.434 23733
1.448 1.162 1.428 16307
1.446 1.161 1.418 12572
1.444 1.159 1.408 14654
1.457 1.169 1.412 20033
1.470 1.180 1.415 28043
1.478 1.186 1.414 27488
1.481 1.189 1.408 23068
1.484 1.191 1.403 17740
1.518 1.218 1.423 19171
1.521 1.220 1.417 22032
1.519 1.219 1.407 20866
1.527 1.225 1.406 16665
1.540 1.236 1.408 14073
1.543 1.238 1.402 12989
1.551 1.245 1.401 11585
1.564 1.255 1.403 10926
1.567 1.258 1.397 10345
1.570 1.260 1.391 9879
1.578 1.266 1.389 7761
1.607 1.290 1.404 6610
1.615 1.296 1.402 8047
1.618 1.299 1.396 8912
1.621 1.301 1.390 9764
1.640 1.316 1.396 10154
1.653 1.327 1.397 12700
1.656 1.329 1.391 15902
1.659 1.331 1.385 14912
1.662 1.334 1.379 11820
1.670 1.340 1.376 9757
1.673 1.342 1.370 11538
1.681 1.349 1.367 13655
1.684 1.351 1.361 11329
1.687 1.353 1.355 7036
1.738 1.395 1.383 6059
1.752 1.406 1.384 5911
1.754 1.408 1.377 5878
1.768 1.419 1.378 5777
1.776 1.425 1.375 5818
1.730 1.388 1.335 5902
1.727 1.386 1.325 7582
1.741 1.397 1.325 8686
1.744 1.399 1.319 10020
1.746 1.401 1.312 8053
1.749 1.403 1.306 6086
1.829 1.467 1.349 5343
1.831 1.470 1.342 5576
1.834 1.472 1.335 5809
1.837 1.474 1.328 7331
1.845 1.480 1.325 8878
1.842 1.478 1.314 8659
1.845 1.480 1.307 8499
1.847 1.482 1.300 8536
1.917 1.538 1.335 7022
1.925 1.545 1.331 8650
1.928 1.547 1.323 10988
1.930 1.549 1.316 13327
1.933 1.551 1.309 13564
1.936 1.553 1.302 13801
1.933 1.551 1.291 12644
1.935 1.553 1.284 11516
1.938 1.555 1.276 11054
1.946 1.562 1.272 10766
1.949 1.564 1.265 10766
1.951 1.566 1.257 10380
1.954 1.568 1.250 9995
1.956 1.570 1.243 7336
2.095 1.681 1.310 4939
1.955 1.569 1.225 4733
2.020 1.621 1.251 6189
0.509 0.406 1.626 11814
0.512 0.409 1.624 7920
0.505 0.403 1.594 5553
0.524 0.418 1.635 9807
0.528 0.421 1.633 15019
0.528 0.421 1.624 18104
0.532 0.424 1.621 25545
0.535 0.427 1.619 29786
0.541 0.432 1.625 31564
0.544 0.434 1.622 33873
0.548 0.437 1.620 31773
0.554 0.442 1.625 30146
0.557 0.445 1.623 23852
0.558 0.445 1.614 17595
0.564 0.450 1.619 11625
0.570 0.455 1.624 6115
0.574 0.458 1.622 5655
0.574 0.458 1.612 4318
0.577 0.461 1.610 4046
0.581 0.463 1.608 6303
0.584 0.466 1.606 8048
0.587 0.469 1.603 9047
0.591 0.471 1.601 9740
0.594 0.474 1.599 8844
0.597 0.477 1.597 7179
0.601 0.479 1.594 5357
0.604 0.482 1.592 4401
0.610 0.487 1.597 4344
0.614 0.489 1.594 5576
0.620 0.494 1.599 6837
0.620 0.495 1.589 7470
0.623 0.497 1.587 8125
0.627 0.500 1.585 7392
0.630 0.503 1.582 6659
0.636 0.508 1.587 8028
0.640 0.510 1.584 10342
0.646 0.515 1.589 13108
0.652 0.521 1.593 14778
0.659 0.526 1.597 14569
0.662 0.528 1.595 14316
0.666 0.531 1.592 14360
0.666 0.531 1.583 14948
0.669 0.534 1.580 13387
0.669 0.534 1.571 11672
0.679 0.541 1.582 11988
0.685 0.547 1.586 15432
0.685 0.547 1.577 17811
0.692 0.552 1.581 15893
0.695 0.554 1.578 13699
0.695 0.554 1.569 13731
0.702 0.560 1.573 13410
0.708 0.565 1.577 16660
0.711 0.568 1.574 21879
0.718 0.573 1.578 32204
0.721 0.575 1.575 41129
0.725 0.578 1.572 41004
0.728 0.581 1.570 32613
0.728 0.580 1.560 17142
0.727 0.580 1.551 9691
0.745 0.594 1.574 10310
0.748 0.597 1.572 15909
0.751 0.599 1.569 17689
0.758 0.605 1.572 15663
0.761 0.607 1.569 16705
0.764 0.610 1.566 20752
0.768 0.612 1.564 21897
0.774 0.618 1.567 17089
0.781 0.623 1.571 12454
0.784 0.626 1.568 10988
0.788 0.628 1.565 13652
0.791 0.631 1.562 14672
0.798 0.636 1.565 14141
0.801 0.639 1.562 15532
0.801 0.639 1.552 16607
0.804 0.641 1.549 19418
0.811 0.647 1.553 24009
0.814 0.649 1.550 24182
0.821 0.655 1.553 19342
0.832 0.663 1.562 14432
0.839 0.669 1.565 13315
0.842 0.671 1.562 12921
0.845 0.674 1.559 11247
0.844 0.674 1.549 9253
0.840 0.670 1.534 12277
0.843 0.673 1.531 17212
0.846 0.675 1.527 17984
0.849 0.678 1.524 14095
0.856 0.683 1.527 11138
0.867 0.692 1.536 14483
0.874 0.698 1.539 12236
0.885 0.706 1.548 7270
0.885 0.706 1.538 9625
0.888 0.708 1.535 16425
0.891 0.711 1.532 20260
0.894 0.713 1.528 21164
0.901 0.719 1.531 20423
0.908 0.725 1.533 15839
0.912 0.727 1.530 9168
0.915 0.730 1.526 14806
0.918 0.732 1.523 23144
0.921 0.735 1.519 19533
0.932 0.744 1.528 21169
0.936 0.746 1.524 30886
0.939 0.749 1.521 29078
0.942 0.751 1.517 19003
0.945 0.754 1.514 13463
0.952 0.760 1.516 10557
0.959 0.765 1.518 12669
0.967 0.771 1.520 14489
0.974 0.777 1.522 12438
0.973 0.776 1.513 14672
0.976 0.779 1.509 22462
0.979 0.781 1.505 25147
0.982 0.784 1.502 18348
0.981 0.783 1.492 12933
0.993 0.792 1.500 11807
1.000 0.798 1.502 9121
1.003 0.800 1.498 5193
1.011 0.806 1.500 4732
1.018 0.812 1.502 6795
1.025 0.818 1.504 7920
1.024 0.817 1.494 10450
1.032 0.823 1.496 11886
1.035 0.825 1.492 12294
1.029 0.821 1.477 11477
1.032 0.823 1.473 15344
1.035 0.826 1.469 19766
1.042 0.832 1.471 25573
1.050 0.838 1.472 40844
1.048 0.836 1.463 31374
1.056 0.842 1.464 19933
1.059 0.845 1.460 23211
1.057 0.844 1.451 17179
1.060 0.846 1.447 19144
1.068 0.852 1.448 16936
1.080 0.861 1.455 11695
1.087 0.867 1.456 18844
1.086 0.866 1.447 21822
1.089 0.869 1.442 15134
1.101 0.878 1.449 14873
1.113 0.888 1.455 18322
1.116 0.890 1.451 15631
1.119 0.893 1.447 15866
1.127 0.899 1.448 21256
1.129 0.901 1.444 24679
1.132 0.903 1.439 25590
1.140 0.909 1.440 20595
1.148 0.916 1.441 13932
1.155 0.922 1.442 9432
1.172 0.935 1.453 7477
1.175 0.938 1.449 8703
1.169 0.932 1.434 9353
1.176 0.939 1.435 7157
1.184 0.945 1.435 8806
1.182 0.943 1.426 10463
1.185 0.946 1.421 7689
1.198 0.955 1.427 6555
1.225 0.977 1.447 10310
1.223 0.975 1.438 14544
1.216 0.970 1.423 14842
1.214 0.969 1.413 11169
1.241 0.990 1.434 13024
1.254 1.000 1.439 24452
1.257 1.003 1.434 22619
1.260 1.005 1.429 13646
1.263 1.007 1.424 12080
1.270 1.013 1.425 12459
1.303 1.039 1.449 12213
1.306 1.042 1.444 13275
1.309 1.044 1.439 15361
1.312 1.046 1.434 16354
1.310 1.045 1.424 14797
1.317 1.051 1.424 12123
1.325 1.057 1.424 11371
1.358 1.083 1.447 11155
1.366 1.090 1.446 18820
1.369 1.092 1.441 25973
1.372 1.094 1.436 22632
1.385 1.105 1.440 13771
1.393 1.111 1.440 16336
1.396 1.113 1.434 25148
1.404 1.120 1.434 24794
1.417 1.130 1.437 19789
1.425 1.137 1.437 18975
1.428 1.139 1.431 19704
1.441 1.149 1.435 21918
1.449 1.156 1.434 23414
1.452 1.158 1.428 16312
1.450 1.156 1.418 13249
1.453 1.159 1.413 15696
1.461 1.165 1.412 20448
1.474 1.176 1.415 27351
1.487 1.186 1.418 27210
1.485 1.184 1.408 23069
1.503 1.199 1.416 17523
1.522 1.214 1.423 18820
1.524 1.216 1.417 21152
1.527 1.218 1.411 19970
1.530 1.221 1.406 16298
1.544 1.231 1.408 13986
1.546 1.234 1.402 12495
1.555 1.240 1.401 10725
1.568 1.251 1.403 11216
1.571 1.253 1.397 11471
1.574 1.255 1.391 10891
1.576 1.258 1.385 8425
1.616 1.289 1.408 6777
1.625 1.296 1.406 8631
1.622 1.294 1.396 9881
1.625 1.296 1.390 10979
1.628 1.298 1.384 10803
1.652 1.318 1.393 12535
1.660 1.324 1.391 15311
1.663 1.327 1.385 14006
1.666 1.329 1.379 10856
1.669 1.331 1.372 9010
1.677 1.338 1.370 10340
1.685 1.344 1.367 11902
1.688 1.346 1.361 9695
1.690 1.349 1.355 6361
1.699 1.355 1.352 5318
1.756 1.401 1.384 5217
1.764 1.407 1.381 5438
1.772 1.414 1.378 5564
1.775 1.416 1.371 5738
1.778 1.418 1.364 5796
1.737 1.385 1.328 7264
1.745 1.392 1.325 8382
1.748 1.394 1.319 9628
