1.288 1.343 1.479 36018
1.290 1.345 1.474 36350
1.293 1.348 1.468 31495
1.296 1.351 1.463 28293
1.298 1.354 1.457 23744
1.301 1.357 1.452 15713
1.304 1.359 1.446 9650
1.315 1.371 1.449 7405
1.322 1.379 1.448 7916
1.330 1.386 1.447 7699
1.337 1.394 1.446 7338
1.353 1.411 1.453 11952
1.360 1.418 1.452 20807
1.363 1.421 1.446 25284
1.366 1.424 1.440 22020
1.364 1.422 1.430 14199
1.366 1.425 1.424 9837
1.373 1.432 1.422 8572
1.418 1.478 1.455 6855
1.411 1.471 1.440 9160
1.409 1.469 1.430 11091
1.407 1.467 1.420 10346
1.409 1.470 1.414 8175
1.417 1.477 1.412 6649
1.447 1.509 1.431 8888
1.450 1.512 1.424 11458
1.452 1.515 1.418 10710
1.455 1.517 1.412 9905
1.467 1.530 1.414 9914
1.474 1.537 1.412 10868
1.482 1.545 1.409 8303
1.522 1.587 1.435 8529
1.525 1.590 1.428 11635
1.527 1.592 1.422 11156
1.535 1.600 1.419 10325
1.547 1.613 1.420 10673
1.554 1.620 1.418 11477
1.557 1.623 1.411 10294
1.564 1.631 1.408 8141
1.571 1.638 1.405 7229
1.569 1.636 1.395 6839
1.571 1.639 1.388 6574
1.574 1.641 1.382 5261
1.581 1.649 1.379 4031
1.593 1.662 1.379 6340
1.601 1.669 1.376 9061
1.603 1.672 1.369 10627
1.611 1.679 1.366 11001
1.613 1.682 1.359 9531
1.620 1.690 1.356 7381
1.696 1.769 1.403 5745
1.630 1.700 1.346 6618
1.633 1.702 1.339 7806
1.640 1.710 1.335 6108
1.706 1.779 1.374 6808
1.704 1.776 1.363 6861
1.706 1.779 1.356 7025
1.704 1.776 1.345 5696
1.760 1.836 1.376 5607
1.768 1.843 1.371 5616
1.770 1.846 1.364 7412
1.773 1.848 1.356 9207
1.775 1.851 1.349 7747
1.778 1.854 1.341 6287
1.785 1.861 1.337 5799
1.802 1.879 1.339 5780
1.805 1.882 1.332 5132
1.807 1.884 1.324 4485
1.809 1.887 1.316 4485
1.857 1.936 1.337 5200
1.864 1.944 1.332 7561
1.862 1.941 1.321 9049
1.864 1.944 1.313 10780
1.866 1.946 1.305 5390
1.813 1.891 1.264 2093
0.454 0.472 1.634 4556
0.459 0.477 1.639 5180
0.462 0.480 1.637 5901
0.467 0.486 1.642 4810
0.473 0.491 1.647 3934
0.476 0.494 1.645 3928
0.481 0.500 1.650 3717
0.486 0.506 1.655 3532
0.482 0.501 1.632 3698
0.483 0.502 1.622 4239
0.483 0.503 1.613 3824
0.486 0.506 1.611 3436
0.492 0.511 1.616 4283
0.495 0.514 1.614 5227
0.500 0.520 1.619 9236
0.503 0.523 1.617 13634
0.509 0.529 1.622 13500
0.514 0.534 1.626 15441
0.520 0.540 1.631 17625
0.523 0.543 1.629 15834
0.526 0.546 1.627 14042
0.531 0.552 1.631 11333
0.537 0.558 1.636 9095
0.537 0.558 1.627 9043
0.538 0.559 1.617 10207
0.541 0.562 1.615 11405
0.544 0.565 1.613 12174
0.547 0.568 1.610 12526
0.552 0.574 1.615 14479
0.555 0.577 1.613 16715
0.558 0.580 1.610 19608
0.561 0.583 1.608 22502
0.564 0.586 1.605 21063
0.567 0.589 1.603 19623
0.567 0.589 1.594 16358
0.567 0.590 1.584 12080
0.573 0.596 1.589 11126
0.579 0.602 1.593 10814
0.584 0.607 1.597 9413
0.593 0.616 1.608 9581
0.599 0.622 1.613 10432
0.602 0.625 1.610 9935
0.608 0.632 1.614 8389
0.596 0.620 1.578 8022
0.599 0.623 1.575 9942
0.605 0.629 1.579 9999
0.608 0.632 1.577 8366
0.614 0.638 1.581 9625
0.613 0.638 1.571 15102
0.616 0.641 1.569 20753
0.619 0.644 1.566 24399
0.625 0.650 1.570 25459
0.625 0.650 1.561 23172
0.631 0.656 1.565 17946
0.637 0.662 1.569 12168
0.652 0.677 1.592 11713
0.645 0.671 1.570 16244
0.645 0.671 1.560 23294
0.651 0.677 1.564 23270
0.660 0.686 1.574 18874
0.666 0.693 1.578 18275
0.672 0.699 1.582 21316
0.678 0.705 1.585 22366
0.684 0.711 1.589 29816
0.690 0.718 1.592 31946
0.693 0.721 1.589 19774
0.696 0.724 1.586 12609
0.696 0.723 1.577 10496
0.699 0.726 1.574 9816
0.708 0.736 1.584 16190
0.711 0.739 1.581 24008
0.714 0.742 1.578 27942
0.717 0.745 1.575 27833
0.723 0.752 1.578 23556
0.726 0.755 1.575 23157
0.729 0.758 1.572 26260
0.728 0.757 1.562 22772
0.721 0.750 1.540 21898
0.727 0.756 1.543 24414
0.737 0.766 1.553 20255
0.743 0.772 1.556 20037
0.749 0.779 1.559 20467
0.752 0.782 1.556 19954
0.755 0.785 1.552 21161
0.758 0.788 1.549 18570
0.768 0.798 1.558 16189
0.770 0.801 1.555 13493
0.777 0.807 1.558 18218
0.780 0.810 1.554 28350
0.786 0.817 1.557 29961
0.785 0.816 1.548 25782
0.792 0.823 1.550 20943
0.798 0.829 1.553 15898
0.801 0.832 1.550 12552
0.804 0.835 1.546 15956
0.806 0.838 1.543 20822
0.813 0.845 1.545 18218
0.816 0.848 1.542 10283
0.844 0.877 1.580 8099
0.836 0.869 1.559 14288
0.839 0.872 1.555 21463
0.849 0.882 1.563 26691
0.855 0.889 1.566 37015
0.858 0.892 1.562 40037
0.865 0.899 1.564 37586
0.867 0.902 1.561 43053
0.870 0.905 1.557 46534
0.873 0.908 1.553 44629
0.872 0.907 1.544 47459
0.875 0.910 1.540 45687
0.878 0.913 1.536 32929
0.881 0.915 1.532 27051
0.891 0.926 1.540 34428
0.898 0.933 1.542 30064
0.900 0.936 1.538 22852
0.903 0.939 1.534 20702
0.910 0.946 1.536 19043
0.916 0.953 1.538 16862
0.923 0.959 1.540 18415
0.926 0.962 1.536 18091
0.933 0.969 1.537 18843
0.935 0.972 1.533 30325
0.942 0.979 1.535 36298
0.941 0.978 1.525 24132
0.944 0.981 1.521 12834
0.962 1.000 1.540 12368
0.965 1.003 1.536 16630
0.964 1.002 1.526 15468
0.963 1.001 1.516 8241
0.977 1.016 1.529 14264
0.980 1.019 1.524 26071
0.983 1.022 1.520 28420
0.990 1.029 1.521 21397
0.992 1.031 1.517 23727
0.999 1.039 1.518 26233
1.006 1.046 1.520 27731
1.013 1.053 1.521 30540
1.024 1.064 1.527 21089
1.030 1.071 1.528 20690
1.033 1.074 1.524 15547
1.036 1.077 1.519 7612
1.039 1.080 1.515 6955
1.046 1.087 1.516 6602
1.052 1.094 1.516 5132
1.068 1.110 1.528 5935
1.066 1.108 1.518 10837
1.069 1.111 1.513 10379
1.072 1.114 1.509 7586
1.079 1.121 1.509 7779
1.086 1.128 1.510 7359
1.088 1.131 1.505 5602
1.104 1.147 1.516 4749
1.111 1.154 1.516 9952
1.113 1.157 1.511 13251
1.116 1.160 1.507 14976
1.119 1.163 1.502 20388
1.122 1.166 1.497 20974
1.133 1.177 1.502 17078
1.144 1.189 1.508 16908
1.147 1.192 1.503 13215
1.149 1.195 1.498 9162
1.169 1.216 1.513 16422
1.172 1.218 1.508 24775
1.175 1.221 1.503 26084
1.178 1.224 1.498 26901
1.185 1.231 1.497 24351
1.196 1.243 1.502 17192
1.199 1.246 1.497 11472
1.202 1.249 1.492 9871
1.200 1.247 1.482 11748
1.207 1.255 1.482 13811
1.214 1.262 1.481 16154
1.217 1.265 1.476 15232
1.219 1.268 1.471 11452
1.249 1.298 1.494 11572
1.256 1.305 1.493 12985
1.263 1.313 1.493 12049
1.270 1.320 1.492 14152
1.277 1.328 1.491 17646
1.284 1.335 1.490 22892
1.287 1.338 1.485 29678
1.290 1.341 1.479 34637
1.292 1.343 1.474 33659
1.295 1.346 1.468 28758
1.298 1.349 1.463 26009
1.300 1.352 1.457 22806
1.303 1.355 1.452 16931
1.310 1.362 1.451 11986
1.317 1.369 1.449 8627
1.320 1.372 1.444 7767
1.336 1.389 1.451 6421
1.357 1.411 1.463 6387
1.360 1.414 1.457 12129
1.363 1.416 1.452 20956
1.370 1.424 1.450 25216
1.368 1.422 1.440 22306
1.370 1.425 1.434 14459
1.368 1.422 1.424 9363
1.371 1.425 1.418 7085
1.425 1.481 1.459 7876
1.423 1.479 1.449 9332
1.411 1.467 1.430 10818
1.409 1.465 1.420 9927
1.407 1.463 1.410 8328
1.410 1.465 1.404 7229
1.445 1.502 1.426 8840
1.452 1.510 1.424 11238
1.450 1.507 1.414 10595
1.457 1.515 1.412 10269
1.469 1.527 1.414 10413
1.477 1.535 1.412 11158
1.484 1.543 1.409 8942
1.520 1.580 1.431 8147
1.527 1.587 1.428 10780
1.534 1.595 1.426 10273
1.542 1.603 1.423 9862
1.549 1.610 1.420 9835
1.557 1.618 1.418 10006
1.559 1.621 1.411 8448
1.566 1.628 1.408 6673
1.569 1.631 1.402 6345
1.572 1.634 1.395 6054
1.569 1.631 1.384 5835
1.572 1.634 1.378 4931
1.574 1.636 1.371 4028
1.596 1.659 1.379 5888
1.603 1.667 1.376 8288
1.606 1.669 1.369 9734
1.613 1.677 1.366 10225
1.616 1.679 1.359 9068
1.623 1.687 1.356 7185
1.699 1.766 1.403 5603
1.633 1.697 1.346 6716
1.635 1.700 1.339 7923
1.643 1.707 1.335 6180
1.714 1.781 1.377 6286
1.711 1.779 1.367 6221
1.709 1.776 1.356 6435
1.711 1.779 1.349 5194
1.763 1.833 1.376 4881
1.766 1.835 1.368 4914
1.768 1.838 1.361 6575
1.776 1.846 1.356 8259
1.773 1.843 1.345 7172
1.775 1.846 1.338 6109
1.788 1.858 1.337 5761
1.800 1.871 1.336 5931
1.808 1.879 1.332 5366
1.815 1.887 1.327 4842
1.817 1.889 1.319 4842
1.855 1.928 1.334 4700
1.867 1.941 1.332 6597
1.870 1.944 1.324 8055
1.867 1.941 1.313 9656
1.870 1.943 1.305 4828
1.816 1.888 1.264 2162
0.455 0.470 1.634 4878
0.461 0.475 1.639 5306
0.464 0.479 1.637 5814
0.471 0.486 1.649 4718
0.477 0.492 1.654 3943
0.480 0.495 1.652 3943
0.483 0.498 1.650 3932
0.488 0.504 1.655 3941
0.484 0.500 1.632 4031
0.482 0.498 1.615 4682
0.485 0.501 1.613 4622
0.488 0.504 1.611 4561
0.491 0.507 1.609 4558
0.497 0.513 1.614 4637
0.502 0.518 1.619 8463
0.505 0.521 1.617 12687
0.510 0.527 1.622 12735
0.516 0.533 1.626 15019
0.522 0.538 1.631 17341
0.525 0.542 1.629 15910
0.528 0.545 1.627 14478
0.533 0.550 1.631 11585
0.539 0.556 1.636 9274
0.539 0.557 1.627 9002
0.540 0.557 1.617 9941
0.542 0.560 1.615 11007
0.545 0.563 1.613 11694
0.548 0.566 1.610 12129
0.551 0.569 1.608 14322
0.557 0.575 1.613 16838
0.560 0.578 1.610 19935
0.563 0.581 1.608 23032
0.566 0.584 1.605 21933
0.569 0.587 1.603 20834
0.569 0.588 1.594 17320
0.569 0.588 1.584 13009
0.578 0.597 1.595 12529
0.584 0.602 1.600 13062
0.586 0.605 1.597 12080
0.595 0.614 1.608 11525
0.601 0.620 1.613 11902
0.604 0.623 1.610 11365
0.610 0.629 1.614 9540
0.601 0.621 1.585 8551
0.604 0.624 1.582 10556
0.607 0.627 1.579 10972
0.610 0.630 1.577 9384
0.616 0.636 1.581 10385
0.616 0.636 1.571 15364
0.619 0.639 1.569 20842
0.621 0.642 1.566 23980
0.627 0.648 1.570 24877
0.627 0.647 1.561 22474
0.633 0.654 1.565 17713
0.648 0.669 1.588 12864
0.654 0.675 1.592 13400
0.648 0.669 1.570 16699
0.651 0.672 1.567 22440
0.654 0.675 1.564 22126
0.663 0.684 1.574 18495
0.669 0.690 1.578 18133
0.678 0.700 1.588 20478
0.681 0.703 1.585 21333
0.690 0.712 1.595 28830
0.693 0.715 1.592 31588
0.696 0.718 1.589 20475
0.702 0.725 1.593 13775
0.702 0.724 1.583 11230
0.708 0.731 1.587 11285
0.711 0.734 1.584 18709
0.714 0.737 1.581 26546
0.717 0.740 1.578 29526
0.719 0.743 1.575 28648
0.726 0.749 1.578 23979
0.728 0.752 1.575 21836
0.731 0.755 1.572 23862
0.731 0.755 1.562 21449
0.724 0.747 1.540 22016
0.730 0.754 1.543 24139
0.740 0.764 1.553 20128
0.746 0.770 1.556 20808
0.752 0.776 1.559 21312
0.755 0.779 1.556 21648
0.758 0.782 1.552 24245
0.764 0.789 1.555 21719
0.770 0.795 1.558 18483
0.773 0.798 1.555 13287
0.779 0.805 1.558 15453
0.782 0.808 1.554 25929
0.785 0.811 1.551 29217
0.788 0.814 1.548 26944
0.794 0.820 1.550 21448
0.801 0.827 1.553 13925
0.804 0.830 1.550 10652
0.806 0.833 1.546 14488
0.809 0.836 1.543 19676
0.816 0.842 1.545 19611
0.819 0.845 1.542 12119
0.847 0.874 1.580 8062
0.839 0.866 1.559 12282
0.845 0.873 1.561 19519
0.852 0.879 1.563 26152
0.858 0.886 1.566 36762
0.861 0.889 1.562 40101
0.868 0.896 1.564 37366
0.870 0.899 1.561 43568
0.873 0.902 1.557 47632
0.876 0.905 1.553 45127
0.875 0.904 1.544 47360
0.878 0.907 1.540 45966
0.881 0.910 1.536 33219
0.884 0.912 1.532 25821
0.894 0.923 1.540 31662
0.901 0.930 1.542 26611
0.907 0.937 1.544 19350
0.906 0.936 1.534 18744
0.913 0.943 1.536 18676
0.920 0.949 1.538 19368
0.926 0.956 1.540 22558
0.929 0.959 1.536 20254
0.936 0.966 1.537 19682
0.939 0.969 1.533 29908
0.945 0.976 1.535 35680
0.944 0.975 1.525 25274
0.947 0.978 1.521 16560
0.965 0.997 1.540 14315
0.968 1.000 1.536 20104
0.967 0.999 1.526 19666
0.970 1.001 1.522 11069
0.985 1.017 1.534 15266
0.983 1.015 1.524 25706
0.986 1.018 1.520 30769
0.997 1.029 1.527 23524
1.004 1.036 1.528 25107
1.007 1.039 1.524 28883
1.013 1.046 1.525 32721
1.016 1.049 1.521 37581
1.023 1.056 1.522 23247
1.034 1.068 1.528 17617
1.033 1.066 1.518 12477
1.035 1.069 1.514 7199
1.038 1.072 1.509 8387
1.045 1.079 1.510 8399
1.052 1.086 1.511 6837
1.067 1.102 1.522 6155
1.070 1.105 1.518 10650
1.069 1.103 1.508 11065
1.075 1.110 1.509 8762
1.082 1.118 1.509 9487
1.089 1.125 1.510 8584
1.088 1.123 1.500 5653
1.099 1.135 1.506 3784
1.114 1.151 1.516 8069
1.117 1.153 1.511 11666
1.120 1.156 1.507 13259
1.123 1.159 1.502 18554
1.130 1.166 1.502 21186
1.137 1.174 1.502 17949
1.148 1.185 1.508 15345
1.155 1.193 1.508 10707
1.162 1.200 1.508 8460
1.169 1.207 1.508 15571
1.172 1.210 1.503 21153
1.170 1.208 1.493 22926
1.173 1.211 1.488 24417
1.189 1.227 1.497 19015
1.200 1.239 1.502 12431
1.207 1.247 1.502 9325
1.206 1.245 1.492 8184
1.204 1.243 1.482 8553
1.211 1.250 1.482 11162
1.218 1.258 1.481 15966
1.221 1.261 1.476 16045
1.224 1.263 1.471 13445
1.249 1.289 1.489 12170
1.256 1.296 1.489 13248
1.263 1.304 1.488 12028
1.274 1.316 1.492 14297
1.282 1.323 1.491 18074
1.289 1.331 1.490 23671
1.292 1.333 1.485 29211
1.294 1.336 1.479 32252
1.297 1.339 1.474 30269
1.300 1.342 1.468 25378
1.298 1.340 1.458 23167
1.305 1.347 1.457 21149
1.308 1.350 1.452 17383
1.315 1.358 1.451 13719
1.327 1.370 1.454 10584
1.338 1.382 1.457 9576
1.350 1.394 1.460 7249
1.371 1.416 1.472 7349
1.369 1.414 1.462 12983
1.372 1.416 1.456 21620
1.375 1.419 1.450 25394
1.377 1.422 1.444 22413
1.375 1.420 1.434 15044
1.378 1.423 1.428 9505
1.422 1.468 1.461 7459
1.430 1.476 1.459 8519
1.428 1.474 1.449 9704
1.421 1.467 1.434 10568
1.409 1.455 1.416 9668
1.407 1.453 1.406 8932
1.410 1.456 1.400 8248
1.450 1.497 1.426 8854
1.453 1.500 1.420 11164
1.451 1.498 1.410 10876
1.458 1.505 1.408 10890
1.475 1.522 1.414 11519
1.482 1.530 1.412 12131
1.489 1.538 1.409 10321
1.497 1.545 1.407 8875
1.532 1.582 1.428 9360
1.540 1.590 1.426 9136
1.547 1.597 1.423 9292
1.555 1.605 1.420 9088
1.557 1.608 1.414 8772
1.560 1.610 1.407 6929
1.567 1.618 1.404 5613
1.570 1.621 1.398 5820
1.572 1.623 1.391 5436
1.575 1.626 1.384 5052
1.577 1.628 1.378 4394
1.585 1.636 1.375 3765
1.602 1.654 1.379 5490
1.609 1.661 1.376 7697
1.612 1.664 1.369 9094
1.614 1.666 1.362 9753
1.621 1.674 1.359 8859
1.629 1.682 1.356 7101
1.636 1.689 1.353 5575
1.639 1.692 1.346 6786
1.641 1.694 1.339 7997
1.648 1.702 1.335 6260
1.725 1.781 1.381 5874
1.717 1.773 1.367 5521
1.715 1.771 1.356 5709
1.717 1.773 1.349 4606
1.764 1.822 1.372 4238
1.772 1.829 1.368 4244
1.774 1.832 1.361 5843
1.777 1.835 1.353 7442
1.779 1.837 1.345 6766
1.782 1.840 1.338 6090
1.789 1.847 1.334 5938
1.807 1.865 1.336 6302
1.819 1.878 1.335 5804
1.831 1.891 1.334 5538
1.834 1.893 1.326 5538
1.846 1.906 1.324 4831
1.874 1.935 1.332 5618
1.876 1.937 1.324 7010
1.879 1.940 1.317 8403
1.881 1.942 1.309 4201
1.823 1.882 1.264 2314
0.466 0.478 1.662 4737
0.464 0.476 1.646 5010
0.467 0.479 1.644 5348
0.473 0.485 1.649 4507
0.480 0.493 1.661 4018
0.484 0.496 1.659 4018
0.487 0.499 1.657 4192
0.490 0.502 1.655 4367
0.486 0.498 1.632 4366
0.484 0.496 1.615 5148
0.487 0.499 1.613 5301
0.490 0.502 1.611 5454
0.493 0.505 1.609 5162
0.498 0.511 1.614 4907
0.504 0.517 1.619 8496
0.507 0.520 1.617 12501
0.512 0.525 1.622 12455
0.518 0.531 1.626 14652
0.523 0.537 1.631 16937
0.526 0.540 1.629 15562
0.529 0.543 1.627 14187
0.535 0.549 1.631 11713
0.540 0.555 1.636 9697
0.541 0.555 1.627 9380
0.541 0.555 1.617 10201
0.544 0.558 1.615 11157
0.545 0.559 1.606 11707
0.550 0.565 1.610 12193
0.553 0.568 1.608 14318
0.559 0.573 1.613 16729
0.562 0.576 1.610 19814
0.565 0.580 1.608 22899
0.568 0.583 1.605 22041
0.571 0.586 1.603 21184
0.571 0.586 1.594 17661
0.571 0.586 1.584 13481
0.580 0.595 1.595 13808
0.585 0.601 1.600 15242
0.588 0.604 1.597 14494
0.597 0.612 1.608 13223
0.603 0.618 1.613 13079
0.606 0.622 1.610 12446
0.612 0.628 1.614 10277
0.603 0.619 1.585 8763
0.606 0.622 1.582 10788
0.609 0.625 1.579 11251
0.615 0.631 1.583 9769
0.618 0.634 1.581 10729
0.618 0.634 1.571 15385
0.621 0.637 1.569 20478
0.623 0.640 1.566 22904
0.629 0.646 1.570 23434
0.629 0.646 1.561 21071
0.635 0.652 1.565 17065
0.650 0.667 1.588 14635
0.656 0.673 1.592 15526
0.653 0.670 1.576 17545
0.653 0.670 1.567 21295
0.656 0.673 1.564 20517
0.665 0.682 1.574 17576
0.674 0.691 1.585 17607
0.680 0.698 1.588 19644
0.696 0.714 1.611 21102
0.695 0.713 1.602 28028
0.695 0.713 1.592 30874
0.701 0.719 1.596 21029
0.704 0.722 1.593 15072
0.704 0.722 1.583 12324
0.710 0.729 1.587 13027
0.713 0.732 1.584 20952
0.716 0.735 1.581 28474
0.719 0.738 1.578 30313
0.722 0.741 1.575 28660
0.728 0.747 1.578 23915
0.734 0.753 1.581 20850
0.734 0.753 1.572 22080
0.733 0.752 1.562 20169
0.726 0.745 1.540 21740
0.732 0.751 1.543 23910
0.742 0.761 1.553 20018
0.752 0.771 1.562 21145
0.754 0.774 1.559 21553
0.757 0.777 1.556 22537
0.760 0.780 1.552 25810
0.766 0.786 1.555 23871
0.773 0.793 1.558 20659
0.776 0.796 1.555 13904
0.779 0.799 1.552 13114
0.785 0.805 1.554 22698
0.788 0.808 1.551 27904
0.791 0.811 1.548 27028
0.797 0.818 1.550 21105
0.803 0.824 1.553 12352
0.810 0.831 1.556 9533
0.809 0.830 1.546 12858
0.812 0.833 1.543 18183
0.818 0.840 1.545 21030
0.825 0.846 1.548 14633
0.846 0.868 1.574 7447
0.845 0.867 1.565 9992
0.848 0.870 1.561 18148
0.854 0.877 1.563 26292
0.861 0.883 1.566 36692
0.864 0.886 1.562 39957
0.867 0.889 1.558 36880
0.873 0.896 1.561 42642
0.876 0.899 1.557 47003
0.879 0.902 1.553 45043
0.878 0.901 1.544 47595
0.881 0.904 1.540 45335
0.884 0.907 1.536 32119
0.887 0.910 1.532 24184
0.897 0.920 1.540 28987
0.900 0.923 1.536 23304
0.910 0.934 1.544 15800
0.909 0.933 1.534 16023
0.916 0.940 1.536 17169
0.923 0.947 1.538 19948
0.925 0.949 1.534 23808
0.932 0.956 1.536 21388
0.939 0.963 1.537 20782
0.942 0.966 1.533 29603
0.944 0.969 1.529 34484
0.947 0.972 1.525 26704
0.950 0.975 1.521 20100
0.969 0.994 1.540 17203
0.971 0.997 1.536 22484
0.970 0.995 1.526 21011
0.973 0.998 1.522 13512
0.984 1.009 1.529 16297
0.987 1.012 1.524 25596
0.993 1.019 1.526 32409
1.004 1.030 1.532 25081
1.011 1.037 1.534 25936
1.010 1.036 1.524 31714
1.017 1.043 1.525 38289
1.020 1.046 1.521 43764
1.026 1.053 1.522 25165
1.033 1.060 1.523 14408
1.036 1.063 1.518 10813
1.035 1.062 1.508 8978
1.038 1.064 1.504 10620
1.044 1.072 1.505 9952
1.055 1.083 1.511 7383
1.066 1.094 1.517 6335
1.069 1.097 1.513 10724
1.072 1.100 1.508 11455
1.079 1.107 1.509 9634
1.090 1.118 1.514 10813
1.093 1.121 1.510 9731
1.091 1.120 1.500 6800
1.098 1.127 1.500 6507
1.114 1.143 1.511 9216
1.121 1.150 1.511 13000
1.119 1.148 1.502 14268
1.122 1.151 1.497 16972
1.129 1.158 1.497 19802
1.140 1.170 1.502 17097
1.152 1.182 1.508 13231
1.163 1.193 1.513 10017
1.157 1.187 1.498 9828
1.164 1.195 1.498 16818
1.167 1.197 1.493 19327
1.165 1.196 1.483 21785
1.173 1.203 1.483 23288
1.184 1.215 1.488 15435
1.200 1.231 1.497 8420
1.216 1.247 1.507 8427
1.214 1.246 1.497 10440
1.212 1.244 1.487 9976
1.215 1.247 1.482 10756
1.222 1.254 1.481 15395
1.225 1.257 1.476 16277
1.228 1.260 1.471 14525
1.248 1.281 1.485 13832
1.260 1.292 1.489 14007
1.267 1.300 1.488 12112
1.279 1.312 1.492 14183
1.286 1.319 1.491 17831
1.293 1.327 1.490 23089
1.296 1.329 1.485 27195
1.298 1.332 1.479 28847
1.301 1.335 1.474 26274
1.304 1.338 1.468 21486
1.302 1.336 1.458 19818
1.309 1.343 1.457 18816
1.316 1.351 1.456 16691
1.324 1.358 1.455 14071
1.335 1.370 1.458 12344
1.347 1.382 1.461 12151
1.355 1.390 1.460 9941
1.371 1.407 1.468 8493
1.374 1.409 1.462 14246
1.376 1.412 1.456 22364
1.379 1.415 1.450 25297
1.382 1.418 1.444 22328
1.380 1.416 1.434 15167
1.382 1.418 1.428 9740
1.432 1.469 1.465 7595
1.434 1.472 1.459 8726
1.437 1.474 1.453 9858
1.430 1.467 1.438 10376
1.414 1.451 1.416 9520
1.412 1.449 1.406 9373
1.414 1.451 1.400 8890
1.455 1.493 1.426 8709
1.453 1.490 1.416 10925
1.455 1.493 1.410 11006
1.463 1.501 1.408 11339
1.479 1.518 1.414 12840
1.487 1.525 1.412 13539
1.494 1.533 1.409 11976
1.501 1.540 1.407 10574
1.533 1.572 1.424 7644
1.545 1.585 1.426 7975
1.552 1.593 1.423 8766
1.555 1.595 1.417 8777
1.557 1.598 1.410 8351
1.560 1.601 1.403 6322
1.567 1.608 1.401 5206
1.570 1.611 1.394 5646
1.572 1.613 1.387 4903
1.580 1.621 1.384 4171
1.582 1.623 1.378 3633
1.595 1.636 1.379 3221
1.607 1.649 1.379 5025
1.614 1.656 1.376 7185
1.617 1.659 1.369 8606
1.619 1.661 1.362 9480
1.627 1.669 1.359 8843
1.634 1.676 1.356 7109
1.641 1.684 1.353 5615
1.644 1.687 1.346 6795
1.651 1.694 1.342 8024
1.654 1.697 1.335 6324
1.735 1.780 1.384 5503
1.728 1.773 1.370 4948
1.720 1.765 1.356 4983
1.723 1.768 1.349 3997
1.770 1.816 1.372 3679
1.773 1.819 1.365 3705
1.780 1.826 1.361 5124
1.783 1.829 1.353 6596
1.785 1.831 1.345 6312
1.787 1.834 1.338 6028
1.795 1.842 1.334 6101
1.812 1.860 1.336 6585
1.830 1.878 1.338 6161
1.842 1.890 1.337 6214
1.845 1.893 1.329 6214
1.847 1.895 1.321 5315
1.880 1.929 1.332 4709
1.882 1.931 1.324 5976
1.885 1.934 1.317 7243
1.887 1.936 1.309 3621
1.828 1.876 1.264 2466
0.467 0.477 1.662 4929
0.465 0.476 1.646 4941
0.468 0.479 1.644 5063
0.473 0.484 1.649 4458
0.481 0.492 1.661 4236
0.484 0.495 1.659 4236
0.487 0.499 1.657 4437
0.490 0.502 1.655 4638
0.486 0.497 1.632 4192
0.485 0.496 1.615 4707
0.488 0.499 1.613 5078
0.490 0.502 1.611 5449
0.493 0.505 1.609 5501
0.494 0.505 1.600 5604
0.504 0.516 1.619 8967
0.507 0.519 1.617 12882
0.513 0.525 1.622 12568
0.518 0.530 1.626 14452
0.524 0.536 1.631 16598
0.527 0.539 1.629 15076
0.530 0.542 1.627 13555
0.536 0.548 1.631 11722
0.541 0.554 1.636 10195
0.542 0.554 1.627 10269
0.542 0.554 1.617 11502
0.545 0.558 1.615 12404
0.545 0.558 1.606 12671
0.551 0.564 1.610 12961
0.554 0.567 1.608 14642
0.560 0.573 1.613 16529
0.563 0.576 1.610 19480
0.566 0.579 1.608 22431
0.569 0.582 1.605 21778
0.572 0.585 1.603 21125
0.572 0.585 1.594 17817
0.572 0.585 1.584 13941
0.581 0.594 1.595 15313
0.586 0.600 1.600 17728
0.589 0.603 1.597 17212
0.598 0.612 1.608 14986
0.604 0.618 1.613 14131
0.607 0.621 1.610 13226
0.613 0.627 1.614 10731
0.607 0.621 1.591 8978
0.607 0.621 1.582 10724
0.610 0.624 1.579 10980
0.616 0.630 1.583 9554
0.619 0.633 1.581 10567
0.619 0.633 1.571 15079
0.622 0.636 1.569 19842
0.627 0.642 1.573 21727
0.630 0.645 1.570 21844
0.633 0.648 1.567 19375
0.636 0.651 1.565 16212
0.651 0.666 1.588 17081
0.654 0.669 1.586 18761
0.654 0.669 1.576 19154
0.654 0.669 1.567 19814
0.657 0.672 1.564 18405
0.666 0.681 1.574 16008
0.675 0.690 1.585 16992
0.681 0.697 1.588 19274
0.697 0.713 1.611 21685
0.696 0.712 1.602 27781
0.696 0.712 1.592 29928
0.702 0.718 1.596 21776
0.705 0.721 1.593 16641
0.708 0.724 1.590 13740
0.714 0.731 1.593 14641
0.714 0.730 1.584 23034
0.717 0.733 1.581 30274
0.720 0.736 1.578 30887
0.723 0.739 1.575 28417
0.729 0.746 1.578 23754
0.735 0.752 1.581 20229
0.735 0.752 1.572 20385
0.734 0.751 1.562 18349
0.727 0.744 1.540 21328
0.734 0.750 1.543 24061
0.743 0.760 1.553 20133
0.753 0.770 1.562 21455
0.756 0.773 1.559 21897
0.759 0.776 1.556 23347
0.761 0.779 1.552 26857
0.768 0.785 1.555 25692
0.774 0.792 1.558 22941
0.780 0.798 1.561 15244
0.776 0.794 1.546 11841
0.783 0.800 1.548 20199
0.789 0.807 1.551 26496
0.792 0.810 1.548 26506
0.798 0.816 1.550 20332
0.808 0.827 1.559 11608
0.811 0.830 1.556 9670
0.810 0.829 1.546 12216
0.817 0.835 1.549 17396
0.820 0.838 1.545 22520
0.826 0.845 1.548 17778
0.836 0.855 1.556 9474
0.846 0.866 1.565 9451
0.849 0.869 1.561 18108
0.856 0.875 1.563 27167
0.862 0.882 1.566 36790
0.865 0.885 1.562 39858
0.868 0.888 1.558 35218
0.875 0.895 1.561 38940
0.878 0.898 1.557 44351
0.880 0.900 1.553 43939
0.880 0.900 1.544 46699
0.882 0.902 1.540 43006
0.885 0.905 1.536 29824
0.888 0.908 1.532 22130
0.895 0.915 1.534 25747
0.901 0.922 1.536 19007
0.912 0.932 1.544 10738
0.915 0.935 1.540 11925
0.921 0.942 1.542 14078
0.924 0.945 1.538 18339
0.931 0.952 1.540 22199
0.937 0.959 1.541 20759
0.940 0.962 1.537 21248
0.943 0.965 1.533 29138
0.946 0.968 1.529 33736
0.953 0.974 1.531 27534
0.956 0.977 1.527 22448
0.970 0.992 1.540 19979
0.973 0.995 1.536 24261
0.972 0.994 1.526 21103
0.975 0.997 1.522 14896
0.985 1.008 1.529 16893
0.988 1.011 1.524 24889
0.995 1.018 1.526 32577
1.010 1.033 1.538 25973
1.013 1.036 1.534 26028
1.016 1.039 1.529 33781
1.018 1.042 1.525 42589
1.021 1.044 1.521 47558
1.024 1.047 1.516 26867
1.035 1.058 1.523 12146
1.034 1.057 1.513 10923
1.036 1.060 1.508 11981
1.039 1.063 1.504 12652
1.046 1.070 1.505 10455
1.053 1.077 1.506 6718
1.068 1.092 1.517 6092
1.067 1.091 1.507 10171
1.070 1.094 1.503 11126
1.081 1.105 1.509 9847
1.092 1.117 1.514 11664
1.090 1.115 1.505 10893
1.093 1.118 1.500 8233
1.100 1.125 1.500 9556
1.111 1.137 1.506 12024
1.123 1.148 1.511 16026
1.121 1.147 1.502 17553
1.124 1.150 1.497 16894
1.131 1.157 1.497 18020
1.142 1.168 1.502 15746
1.158 1.184 1.513 11975
1.165 1.191 1.513 11354
1.159 1.186 1.498 13642
1.158 1.184 1.488 19954
1.165 1.191 1.488 20098
1.163 1.189 1.478 21502
1.170 1.197 1.478 22431
1.181 1.208 1.483 14062
1.184 1.211 1.478 7012
1.222 1.250 1.512 8026
1.216 1.244 1.497 13181
1.214 1.242 1.487 13391
1.217 1.245 1.482 11735
1.224 1.252 1.481 14762
1.227 1.255 1.476 16398
1.230 1.258 1.471 16026
1.241 1.269 1.475 16142
1.262 1.290 1.489 14990
1.269 1.298 1.488 12489
1.281 1.310 1.492 13985
1.288 1.317 1.491 16968
1.295 1.325 1.490 21334
1.298 1.327 1.485 24125
1.301 1.330 1.479 25043
1.303 1.333 1.474 22264
1.301 1.331 1.464 17727
1.304 1.334 1.458 16280
1.311 1.341 1.457 16250
1.319 1.349 1.456 15443
1.326 1.356 1.455 13453
1.342 1.373 1.463 13675
1.349 1.380 1.461 14562
1.352 1.383 1.456 12632
1.364 1.395 1.459 10370
1.371 1.403 1.457 15577
1.379 1.410 1.456 22941
1.381 1.413 1.450 24934
1.384 1.415 1.444 21804
1.382 1.413 1.434 14829
1.389 1.421 1.433 9871
1.434 1.467 1.465 7523
1.437 1.469 1.459 8666
1.439 1.472 1.453 9825
1.437 1.470 1.443 10184
1.416 1.449 1.416 9632
1.414 1.446 1.406 9949
1.417 1.449 1.400 9572
1.452 1.485 1.422 8503
1.455 1.488 1.416 10682
1.458 1.491 1.410 11092
1.470 1.503 1.412 11849
1.482 1.515 1.414 14264
1.489 1.523 1.412 15242
1.496 1.531 1.409 13742
1.499 1.533 1.403 12362
1.502 1.536 1.397 9067
1.547 1.583 1.426 6895
1.550 1.585 1.419 8556
1.553 1.588 1.413 8948
1.550 1.586 1.402 9197
1.553 1.588 1.396 7160
1.565 1.601 1.397 5464
1.568 1.603 1.390 5826
1.570 1.606 1.384 4547
1.577 1.613 1.381 3352
1.590 1.626 1.382 2821
1.602 1.639 1.382 2501
1.609 1.646 1.379 4471
1.617 1.654 1.376 6686
1.619 1.656 1.369 8188
1.627 1.664 1.366 9324
1.629 1.666 1.359 8897
1.637 1.674 1.356 7134
1.644 1.681 1.353 5602
1.651 1.689 1.349 6775
1.654 1.691 1.342 7978
1.656 1.694 1.335 6332
1.738 1.778 1.384 5251
1.736 1.775 1.374 4531
1.723 1.762 1.356 4300
1.726 1.765 1.349 3393
1.703 1.742 1.324 3294
1.701 1.739 1.314 3354
1.778 1.818 1.357 4505
1.785 1.826 1.353 5804
1.788 1.829 1.345 5840
1.790 1.831 1.338 5875
1.798 1.839 1.334 6206
1.815 1.857 1.336 6805
1.838 1.880 1.341 6490
1.845 1.887 1.337 6815
1.848 1.890 1.329 6815
1.850 1.892 1.321 5784
1.853 1.895 1.313 4754
1.885 1.928 1.324 5015
1.893 1.936 1.320 6116
1.895 1.939 1.312 3058
1.831 1.873 1.264 2491
0.454 0.462 1.619 7017
0.457 0.465 1.617 5636
0.463 0.470 1.622 4374
0.470 0.478 1.635 5184
0.476 0.484 1.640 6384
0.481 0.489 1.645 6064
0.487 0.495 1.650 5552
0.490 0.498 1.648 5226
0.493 0.501 1.646 3810
0.491 0.499 1.630 2467
0.489 0.497 1.613 2672
0.492 0.500 1.611 2937
0.497 0.506 1.616 3074
0.515 0.524 1.656 3662
0.508 0.517 1.626 6305
0.512 0.520 1.624 9590
0.515 0.523 1.622 9628
0.520 0.529 1.626 11021
0.526 0.534 1.631 12733
0.529 0.537 1.629 12173
0.534 0.543 1.634 11870
0.537 0.546 1.631 12389
0.540 0.549 1.629 12908
0.543 0.552 1.627 13044
0.544 0.553 1.617 13923
0.547 0.556 1.615 14220
0.550 0.559 1.613 14108
0.553 0.562 1.610 14538
0.556 0.565 1.608 16279
0.562 0.571 1.613 18110
0.564 0.574 1.610 20695
0.567 0.577 1.608 23280
0.570 0.580 1.605 22345
0.573 0.583 1.603 21410
0.576 0.586 1.600 17304
0.574 0.583 1.584 12497
0.582 0.592 1.595 14712
0.588 0.598 1.600 17682
0.591 0.601 1.597 17578
0.597 0.607 1.602 14780
0.606 0.616 1.613 13253
0.609 0.619 1.610 12057
0.615 0.625 1.614 9530
0.606 0.616 1.585 8408
0.612 0.622 1.589 10477
0.615 0.625 1.586 11190
0.621 0.631 1.590 10100
0.621 0.631 1.581 10327
0.621 0.631 1.571 13951
0.623 0.634 1.569 17905
0.629 0.640 1.573 19940
0.632 0.643 1.570 20963
0.635 0.646 1.567 18676
0.644 0.655 1.578 16234
0.653 0.664 1.588 19707
0.656 0.667 1.586 23041
0.659 0.670 1.583 22808
0.656 0.667 1.567 18959
0.656 0.666 1.558 15623
0.668 0.679 1.574 13239
0.680 0.692 1.591 16791
0.686 0.698 1.595 21214
0.699 0.710 1.611 23883
0.699 0.710 1.602 28465
0.698 0.710 1.592 28178
0.705 0.716 1.596 20751
0.708 0.719 1.593 16056
0.707 0.719 1.583 12687
0.713 0.725 1.587 13485
0.716 0.728 1.584 22923
0.719 0.731 1.581 30189
0.722 0.734 1.578 29607
0.725 0.737 1.575 26206
0.731 0.744 1.578 21989
0.738 0.750 1.581 20048
0.737 0.749 1.572 20974
0.737 0.749 1.562 18097
0.730 0.742 1.540 20604
0.736 0.748 1.543 24100
0.745 0.758 1.553 19698
0.752 0.764 1.556 19901
0.758 0.771 1.559 20781
0.761 0.773 1.556 23500
0.767 0.780 1.559 27809
0.770 0.783 1.555 27273
0.776 0.789 1.558 24903
0.783 0.796 1.561 16223
0.779 0.792 1.546 11286
0.782 0.795 1.542 18990
0.791 0.805 1.551 25606
0.798 0.811 1.554 25585
0.801 0.814 1.550 18072
0.807 0.821 1.553 10875
0.810 0.823 1.550 11670
0.813 0.826 1.546 13233
0.819 0.833 1.549 17611
0.826 0.839 1.551 24822
0.832 0.846 1.554 23952
0.835 0.849 1.550 16738
0.842 0.856 1.553 13675
0.852 0.866 1.561 21447
0.858 0.873 1.563 29268
0.865 0.879 1.566 35844
0.868 0.882 1.562 38687
0.871 0.885 1.558 32286
0.874 0.888 1.555 32377
0.880 0.895 1.557 39699
0.879 0.894 1.547 43728
0.882 0.897 1.544 47033
0.885 0.900 1.540 41205
0.888 0.903 1.536 28437
0.891 0.906 1.532 21521
0.897 0.912 1.534 22387
0.904 0.919 1.536 14473
0.918 0.934 1.550 7815
0.921 0.937 1.546 8591
0.924 0.939 1.542 12919
0.931 0.946 1.544 16967
0.934 0.949 1.540 19958
0.937 0.952 1.536 20659
0.943 0.959 1.537 23715
0.946 0.962 1.533 29864
0.949 0.965 1.529 29665
0.960 0.975 1.537 22808
0.958 0.974 1.527 24465
0.965 0.981 1.528 24803
0.976 0.992 1.536 25370
0.979 0.995 1.531 21017
0.982 0.998 1.527 15095
0.988 1.005 1.529 16421
0.991 1.008 1.524 23346
1.002 1.019 1.531 31122
1.013 1.030 1.538 26015
1.016 1.033 1.534 25206
1.019 1.036 1.529 34805
1.017 1.034 1.520 45376
1.020 1.037 1.515 48958
1.027 1.044 1.516 28027
1.038 1.055 1.523 12226
1.037 1.054 1.513 12565
1.040 1.057 1.508 14737
1.042 1.060 1.504 13770
1.049 1.067 1.505 9697
1.052 1.070 1.501 5337
1.063 1.081 1.507 5152
1.070 1.088 1.507 9227
1.073 1.091 1.503 10383
1.084 1.102 1.509 9622
1.091 1.109 1.509 11929
1.094 1.112 1.505 11808
1.097 1.115 1.500 9333
1.104 1.122 1.500 11894
1.115 1.133 1.506 14424
1.126 1.145 1.511 19007
1.125 1.143 1.502 21158
1.127 1.146 1.497 17606
1.134 1.153 1.497 16465
1.146 1.165 1.502 14390
1.161 1.181 1.513 11661
1.164 1.184 1.508 13150
1.158 1.178 1.493 17328
1.161 1.180 1.488 22907
1.164 1.183 1.483 21402
1.167 1.186 1.478 21327
1.169 1.189 1.473 21583
1.181 1.200 1.478 14337
1.188 1.208 1.478 8501
1.221 1.242 1.507 7540
1.220 1.240 1.497 14130
1.218 1.238 1.487 15256
1.221 1.241 1.482 12419
1.228 1.248 1.481 14854
1.226 1.247 1.471 17533
1.233 1.254 1.471 17903
1.245 1.266 1.475 17979
1.261 1.282 1.484 16276
1.273 1.294 1.488 12953
1.289 1.310 1.496 13755
1.292 1.313 1.491 15925
1.299 1.321 1.490 18853
1.302 1.323 1.485 20385
1.305 1.326 1.479 21338
1.307 1.329 1.474 18917
1.305 1.327 1.464 14993
1.308 1.330 1.458 13865
1.315 1.337 1.457 14453
1.323 1.345 1.456 14100
1.335 1.357 1.459 12503
1.346 1.369 1.463 14606
1.349 1.371 1.457 16551
1.356 1.379 1.456 15089
1.364 1.386 1.454 12455
1.376 1.398 1.457 16977
1.383 1.406 1.456 23387
1.386 1.409 1.450 24676
1.388 1.411 1.444 21174
1.391 1.414 1.438 14152
1.394 1.417 1.433 9526
1.438 1.462 1.465 7096
1.441 1.465 1.459 8226
1.444 1.468 1.453 9404
1.442 1.466 1.443 9754
1.421 1.444 1.416 9707
1.419 1.442 1.406 10356
1.421 1.445 1.400 10058
1.457 1.481 1.422 8117
1.459 1.484 1.416 10330
1.467 1.491 1.414 11097
1.474 1.499 1.412 12372
1.486 1.511 1.414 15472
1.494 1.518 1.412 16727
1.496 1.521 1.405 15118
1.504 1.529 1.403 13680
1.501 1.526 1.393 10614
1.542 1.568 1.418 6267
1.545 1.571 1.411 9014
1.553 1.578 1.409 9626
1.555 1.581 1.402 10358
1.558 1.583 1.396 8257
1.565 1.591 1.393 6086
1.572 1.599 1.390 5973
1.575 1.601 1.384 4299
1.592 1.619 1.388 2800
1.600 1.626 1.385 2331
1.607 1.634 1.382 1943
1.619 1.646 1.383 3980
1.622 1.649 1.376 6174
1.624 1.651 1.369 7768
1.632 1.659 1.366 9200
1.634 1.661 1.359 8993
1.642 1.669 1.356 7161
1.674 1.702 1.371 5660
1.657 1.684 1.349 6695
1.659 1.686 1.342 7846
1.666 1.694 1.339 6364
1.739 1.767 1.381 5032
1.736 1.765 1.370 4248
1.734 1.762 1.359 3866
1.731 1.760 1.349 2998
1.703 1.732 1.321 3157
1.706 1.734 1.314 3389
1.784 1.813 1.357 3960
1.786 1.816 1.350 5147
1.793 1.823 1.345 5396
1.801 1.831 1.341 5695
1.803 1.833 1.334 6193
1.816 1.846 1.333 6898
1.844 1.874 1.341 6582
1.851 1.882 1.337 7102
1.854 1.884 1.329 7102
1.856 1.887 1.321 6043
1.858 1.889 1.313 4983
1.891 1.923 1.324 4246
1.899 1.930 1.320 5273
1.901 1.933 1.312 2636
1.837 1.868 1.264 2517
0.462 0.468 1.641 6076
0.467 0.473 1.646 5140
0.473 0.479 1.651 4261
0.476 0.482 1.649 4813
0.479 0.485 1.647 5365
0.484 0.491 1.652 5354
0.487 0.494 1.650 4947
0.493 0.499 1.655 4750
0.486 0.493 1.625 3985
0.484 0.491 1.608 4808
0.490 0.496 1.613 5731
0.493 0.499 1.611 6753
0.496 0.502 1.609 6786
0.496 0.503 1.600 6849
0.507 0.514 1.619 8864
0.510 0.517 1.617 11460
0.515 0.522 1.622 10806
0.521 0.528 1.626 12240
0.527 0.534 1.631 14134
0.530 0.537 1.629 12981
0.535 0.542 1.634 11925
0.538 0.545 1.631 11488
0.544 0.551 1.636 11064
0.544 0.552 1.627 11635
0.545 0.552 1.617 13131
0.548 0.555 1.615 13730
0.548 0.555 1.606 13665
0.554 0.561 1.610 13911
0.557 0.564 1.608 15425
0.562 0.570 1.613 16952
0.565 0.573 1.610 19745
0.568 0.576 1.608 22537
0.571 0.579 1.605 22221
0.574 0.582 1.603 21904
0.577 0.585 1.600 18450
0.575 0.582 1.584 14578
0.583 0.591 1.595 17382
0.589 0.597 1.600 21286
0.592 0.600 1.597 21238
0.598 0.606 1.602 17739
0.607 0.615 1.613 15574
0.610 0.618 1.610 14142
0.616 0.624 1.614 10895
0.619 0.627 1.611 8925
0.613 0.621 1.589 10262
0.616 0.624 1.586 10566
0.622 0.630 1.590 9466
0.622 0.630 1.581 10142
0.624 0.633 1.578 13805
0.624 0.633 1.569 17492
0.630 0.639 1.573 18458
0.633 0.642 1.570 18231
0.636 0.645 1.567 16199
0.645 0.654 1.578 15677
0.654 0.663 1.588 20916
0.657 0.666 1.586 24347
0.660 0.669 1.583 23354
0.657 0.666 1.567 18200
0.657 0.665 1.558 14626
0.669 0.678 1.574 11990
0.681 0.690 1.591 15003
0.687 0.697 1.595 18718
0.700 0.709 1.611 21071
0.703 0.712 1.608 25106
0.703 0.712 1.599 25764
0.706 0.715 1.596 21706
0.709 0.718 1.593 18628
0.715 0.724 1.596 15275
0.715 0.724 1.587 15918
0.718 0.727 1.584 24942
0.720 0.730 1.581 31456
0.723 0.733 1.578 29092
0.730 0.739 1.581 24731
0.733 0.742 1.578 19927
0.739 0.749 1.581 17138
0.738 0.748 1.572 18415
0.738 0.748 1.562 16551
0.731 0.741 1.540 20038
0.737 0.747 1.543 24889
0.747 0.757 1.553 21176
0.756 0.766 1.562 20686
0.759 0.769 1.559 20074
0.762 0.772 1.556 21324
0.768 0.779 1.559 25865
0.771 0.782 1.555 27765
0.778 0.788 1.558 26867
0.781 0.791 1.555 18772
0.776 0.787 1.539 12238
0.779 0.790 1.536 17277
0.793 0.803 1.551 22534
0.799 0.810 1.554 25365
0.802 0.813 1.550 20383
0.808 0.819 1.553 12239
0.811 0.822 1.550 12635
0.814 0.825 1.546 15924
0.821 0.832 1.549 19620
0.827 0.838 1.551 23595
0.834 0.845 1.554 20250
0.837 0.848 1.550 13680
0.847 0.858 1.559 10305
0.857 0.868 1.567 17071
0.860 0.871 1.563 25967
0.866 0.878 1.566 34030
0.866 0.877 1.556 37274
0.868 0.880 1.553 33301
0.875 0.887 1.555 33242
0.882 0.893 1.557 33867
0.881 0.893 1.547 33819
0.880 0.892 1.538 38842
0.887 0.898 1.540 34655
0.889 0.901 1.536 23848
0.892 0.904 1.532 18901
0.899 0.911 1.534 19618
0.906 0.918 1.536 11815
0.920 0.932 1.550 5347
0.927 0.939 1.552 5846
0.929 0.942 1.548 7571
0.928 0.941 1.538 17672
0.931 0.944 1.534 24715
0.938 0.951 1.536 22407
0.945 0.957 1.537 23460
0.944 0.956 1.528 23655
0.950 0.963 1.529 21947
0.957 0.970 1.531 22187
0.960 0.973 1.527 20418
0.975 0.988 1.540 19583
0.982 0.995 1.541 22509
0.980 0.994 1.531 18123
0.983 0.996 1.527 14507
0.986 0.999 1.523 15642
0.993 1.006 1.524 21557
1.004 1.017 1.531 28275
1.015 1.028 1.538 25002
1.022 1.035 1.539 23974
1.016 1.030 1.524 35369
1.019 1.033 1.520 47393
1.022 1.036 1.515 48542
1.029 1.043 1.516 28619
1.036 1.050 1.517 14552
1.038 1.052 1.513 15199
1.041 1.055 1.508 17046
1.044 1.058 1.504 14151
1.051 1.065 1.505 8342
1.054 1.068 1.501 4288
1.061 1.075 1.501 4704
1.068 1.082 1.502 8606
1.075 1.089 1.503 9864
1.082 1.096 1.503 9199
1.093 1.107 1.509 12031
1.091 1.106 1.499 13137
1.094 1.109 1.495 10620
1.105 1.120 1.500 13934
1.112 1.127 1.501 16406
1.128 1.143 1.511 21691
1.126 1.142 1.502 24664
1.125 1.140 1.492 18862
1.136 1.151 1.497 15125
1.148 1.163 1.502 12707
1.163 1.179 1.513 12159
1.166 1.182 1.508 15346
1.160 1.176 1.493 20698
1.163 1.179 1.488 25488
1.166 1.181 1.483 22634
1.164 1.180 1.473 20898
1.171 1.187 1.473 20687
1.178 1.194 1.473 15503
1.190 1.206 1.478 10666
1.223 1.240 1.507 7310
1.217 1.234 1.492 14024
1.216 1.232 1.482 16018
1.223 1.239 1.482 12831
1.230 1.246 1.481 15361
1.228 1.245 1.471 18190
1.235 1.252 1.471 17987
1.247 1.264 1.475 18300
1.263 1.280 1.484 16660
1.270 1.287 1.483 13144
1.287 1.304 1.492 12875
1.294 1.311 1.491 14234
1.301 1.319 1.490 15831
1.308 1.326 1.489 16569
1.307 1.324 1.479 18161
1.305 1.322 1.469 16447
1.308 1.325 1.464 13114
1.310 1.328 1.458 12686
1.318 1.335 1.457 13549
1.325 1.343 1.456 12848
1.341 1.359 1.464 11492
1.349 1.367 1.463 15385
1.351 1.369 1.457 18501
1.354 1.372 1.451 17576
1.361 1.379 1.450 15204
1.373 1.392 1.453 18632
1.380 1.399 1.452 23824
1.388 1.406 1.450 24452
1.390 1.409 1.444 20631
1.393 1.412 1.438 13374
1.400 1.419 1.437 8903
1.389 1.408 1.418 7004
1.443 1.463 1.459 7510
1.446 1.465 1.453 8618
1.444 1.463 1.443 8905
1.418 1.437 1.411 9824
1.421 1.440 1.406 10733
1.423 1.442 1.400 10473
1.426 1.445 1.394 8311
1.462 1.481 1.416 10077
1.469 1.489 1.414 11318
1.477 1.496 1.412 12612
1.493 1.513 1.418 16375
1.496 1.516 1.412 18017
1.499 1.519 1.405 16345
1.501 1.521 1.399 14673
1.504 1.524 1.393 12015
1.511 1.531 1.390 7206
1.543 1.563 1.407 9796
1.550 1.571 1.405 10512
1.558 1.578 1.402 11458
1.560 1.581 1.396 9424
1.568 1.589 1.393 6921
1.575 1.596 1.390 6249
1.582 1.604 1.387 4272
1.604 1.626 1.396 2904
1.607 1.629 1.389 2370
1.634 1.656 1.401 1888
1.627 1.649 1.387 3649
1.629 1.651 1.380 5623
1.632 1.654 1.373 7294
1.634 1.656 1.366 9084
1.642 1.664 1.363 9133
1.644 1.666 1.356 7252
1.677 1.699 1.371 5687
1.659 1.681 1.349 6602
1.667 1.689 1.346 7689
1.669 1.691 1.339 6359
1.676 1.699 1.335 5033
1.674 1.696 1.325 4138
1.736 1.760 1.359 3645
1.674 1.696 1.307 2865
1.706 1.729 1.321 2985
1.709 1.731 1.314 3339
1.786 1.810 1.357 3430
1.789 1.813 1.350 4504
1.796 1.820 1.345 4920
1.804 1.828 1.341 5446
1.806 1.830 1.334 6072
1.819 1.843 1.333 6924
1.847 1.871 1.341 6574
1.854 1.879 1.337 7255
1.857 1.881 1.329 7255
1.859 1.884 1.321 6224
1.856 1.881 1.310 5283
1.864 1.889 1.306 3630
1.907 1.933 1.323 4537
1.909 1.935 1.315 2268
1.840 1.865 1.264 2503
0.463 0.467 1.641 7004
0.466 0.470 1.639 5427
0.472 0.475 1.644 3919
0.475 0.478 1.642 4817
0.480 0.484 1.647 5821
0.486 0.489 1.652 5701
0.489 0.492 1.650 5308
0.494 0.498 1.655 5077
0.495 0.499 1.646 3988
0.486 0.489 1.608 4478
0.491 0.495 1.613 5636
0.497 0.500 1.618 7002
0.497 0.501 1.609 7123
0.500 0.504 1.607 7289
0.508 0.512 1.619 8806
0.511 0.515 1.617 10834
0.517 0.521 1.622 10037
0.523 0.526 1.626 11230
0.528 0.532 1.631 12947
0.531 0.535 1.629 11876
0.537 0.541 1.634 10962
0.540 0.544 1.631 11111
0.543 0.547 1.629 11260
0.546 0.550 1.627 12382
0.546 0.550 1.617 14475
0.549 0.553 1.615 15010
0.550 0.554 1.606 14781
0.555 0.559 1.610 14963
0.558 0.562 1.608 16288
0.564 0.568 1.613 17437
0.567 0.571 1.610 20022
0.570 0.574 1.608 22606
0.573 0.577 1.605 22323
0.576 0.580 1.603 22040
0.579 0.583 1.600 18561
0.576 0.581 1.584 14634
0.585 0.589 1.595 18204
0.591 0.595 1.600 22783
0.594 0.598 1.597 22922
0.600 0.604 1.602 18841
0.608 0.613 1.613 15971
0.611 0.616 1.610 14142
0.617 0.622 1.614 10466
0.620 0.625 1.611 8450
0.615 0.619 1.589 9681
0.618 0.622 1.586 10029
0.623 0.628 1.590 9130
0.623 0.628 1.581 9556
0.626 0.631 1.578 12733
0.626 0.631 1.569 15921
0.632 0.637 1.573 16708
0.635 0.640 1.570 16699
0.638 0.643 1.567 14953
0.647 0.652 1.578 15962
0.656 0.661 1.588 22667
0.659 0.664 1.586 26778
0.662 0.667 1.583 25009
0.662 0.667 1.573 17099
0.659 0.663 1.558 12706
0.665 0.670 1.561 9943
0.683 0.688 1.591 14081
0.690 0.695 1.595 18726
0.699 0.704 1.605 20705
0.705 0.710 1.608 23399
0.705 0.710 1.599 23568
0.705 0.710 1.589 21570
0.711 0.716 1.593 19443
0.714 0.719 1.590 15857
0.717 0.722 1.587 16180
0.720 0.725 1.584 25342
0.723 0.728 1.581 31560
0.729 0.734 1.584 27705
0.732 0.737 1.581 22537
0.735 0.740 1.578 17708
0.741 0.746 1.581 15880
0.741 0.746 1.572 17841
0.740 0.746 1.562 15724
0.733 0.738 1.540 19693
0.739 0.745 1.543 25741
0.749 0.754 1.553 21763
0.759 0.764 1.562 20207
0.765 0.771 1.565 19311
0.768 0.773 1.562 20206
0.771 0.776 1.559 25016
0.774 0.779 1.555 28128
0.777 0.782 1.552 28123
0.783 0.789 1.555 19934
0.779 0.784 1.539 13028
0.782 0.787 1.536 16900
0.792 0.797 1.545 20833
0.802 0.807 1.554 24598
0.804 0.810 1.550 20186
0.811 0.817 1.553 12614
0.814 0.820 1.550 14118
0.817 0.823 1.546 18480
0.823 0.829 1.549 21169
0.830 0.836 1.551 23103
0.836 0.842 1.554 19948
0.839 0.845 1.550 14188
0.846 0.852 1.553 9954
0.860 0.866 1.567 16100
0.862 0.869 1.563 25274
0.869 0.875 1.566 31790
0.868 0.875 1.556 35093
0.871 0.877 1.553 31533
0.874 0.880 1.549 29290
0.884 0.891 1.557 27736
0.884 0.890 1.547 28883
0.883 0.889 1.538 34312
0.889 0.896 1.540 29549
0.892 0.899 1.536 21047
0.895 0.901 1.532 17690
0.902 0.908 1.534 16695
0.908 0.915 1.536 11141
0.923 0.929 1.550 8264
0.929 0.936 1.552 6482
0.928 0.935 1.542 5801
0.931 0.938 1.538 17781
0.934 0.941 1.534 24745
0.941 0.948 1.536 21857
0.948 0.955 1.537 22568
0.947 0.953 1.528 19409
0.953 0.960 1.529 15721
0.964 0.971 1.537 18000
0.967 0.974 1.533 16775
0.978 0.985 1.540 18780
0.981 0.988 1.536 21023
0.983 0.991 1.531 15151
0.986 0.993 1.527 13157
0.989 0.996 1.523 15269
0.996 1.003 1.524 20538
1.007 1.014 1.531 25027
1.018 1.025 1.538 23664
1.021 1.028 1.534 22996
1.019 1.027 1.524 35534
1.022 1.030 1.520 47643
1.025 1.032 1.515 45962
1.032 1.039 1.516 27945
1.039 1.046 1.517 17028
1.042 1.049 1.513 17356
1.044 1.052 1.508 18272
1.051 1.059 1.509 13548
1.058 1.066 1.510 8317
1.061 1.069 1.506 6310
1.068 1.076 1.507 6552
1.071 1.079 1.502 9784
1.074 1.081 1.498 11088
1.085 1.093 1.503 9808
1.092 1.100 1.504 12500
1.095 1.103 1.499 14293
1.097 1.105 1.495 11347
1.109 1.117 1.500 14771
1.116 1.124 1.501 17535
1.127 1.135 1.506 23193
1.126 1.134 1.497 26457
1.128 1.137 1.492 19349
1.140 1.148 1.497 13936
1.155 1.164 1.507 11346
1.167 1.175 1.513 12991
1.165 1.174 1.503 17231
1.164 1.172 1.493 23013
1.167 1.175 1.488 27098
1.165 1.173 1.478 23596
1.168 1.176 1.473 20089
1.175 1.183 1.473 19143
1.182 1.190 1.473 16506
1.193 1.202 1.478 12523
1.205 1.214 1.483 8314
1.217 1.225 1.487 13842
1.219 1.228 1.482 15925
1.227 1.235 1.482 12318
1.234 1.243 1.481 15107
1.232 1.241 1.471 17847
1.239 1.248 1.471 16842
1.251 1.260 1.475 15619
1.272 1.281 1.489 14737
1.279 1.288 1.488 12412
1.295 1.305 1.496 12140
1.298 1.307 1.491 12682
1.305 1.315 1.490 12782
1.308 1.317 1.485 13556
1.306 1.316 1.475 16323
1.309 1.318 1.469 14879
1.312 1.321 1.464 12267
1.314 1.324 1.458 12794
1.322 1.331 1.457 13645
1.329 1.338 1.456 12128
1.345 1.355 1.464 10604
1.353 1.362 1.463 16016
1.355 1.365 1.457 20305
1.358 1.368 1.451 20192
1.361 1.371 1.446 18459
1.377 1.387 1.453 20455
1.385 1.395 1.452 24041
1.392 1.402 1.450 23838
1.390 1.400 1.440 19777
1.393 1.403 1.434 12517
1.405 1.415 1.437 8281
1.393 1.403 1.418 7297
1.448 1.458 1.459 6718
1.450 1.461 1.453 7626
1.420 1.430 1.417 8551
1.423 1.433 1.411 9821
1.425 1.435 1.406 10923
1.423 1.433 1.395 10766
1.430 1.441 1.394 8522
1.471 1.482 1.420 9708
1.474 1.484 1.414 11367
1.481 1.492 1.412 12689
1.498 1.509 1.418 16874
1.501 1.512 1.412 18802
1.503 1.514 1.405 17166
1.506 1.517 1.399 15531
1.508 1.519 1.393 13103
1.521 1.532 1.394 8452
1.547 1.559 1.407 10407
1.555 1.566 1.405 11128
1.562 1.574 1.402 12300
1.565 1.576 1.396 10468
1.572 1.584 1.393 7674
1.580 1.591 1.390 6506
1.587 1.599 1.387 4586
1.609 1.621 1.396 3524
1.612 1.624 1.389 3083
1.610 1.621 1.379 2654
1.627 1.639 1.383 3718
1.634 1.646 1.380 5177
1.637 1.649 1.373 6925
1.639 1.651 1.366 9006
1.647 1.659 1.363 9367
1.649 1.661 1.356 7415
1.682 1.694 1.371 5595
1.664 1.676 1.349 6518
1.672 1.684 1.346 7543
1.674 1.686 1.339 6323
1.682 1.694 1.335 5113
1.679 1.691 1.325 4095
1.742 1.754 1.359 3725
1.744 1.757 1.352 3031
1.711 1.724 1.321 2787
1.714 1.726 1.314 3225
1.792 1.805 1.357 3119
1.794 1.807 1.350 4031
1.807 1.820 1.349 4491
1.809 1.822 1.341 5076
1.817 1.830 1.337 5817
1.824 1.838 1.333 6774
1.852 1.866 1.341 6461
1.860 1.873 1.337 7291
1.862 1.876 1.329 7291
1.865 1.878 1.321 6374
1.862 1.875 1.310 5613
1.854 1.868 1.296 3827
1.918 1.932 1.326 3985
1.920 1.934 1.318 1992
1.846 1.859 1.264 2453
0.462 0.464 1.634 8012
0.467 0.469 1.639 5850
0.470 0.472 1.637 3744
0.476 0.478 1.642 4961
0.479 0.481 1.640 6256
0.484 0.486 1.645 6071
0.490 0.492 1.650 5779
0.495 0.497 1.655 5564
0.496 0.498 1.646 4249
0.487 0.489 1.608 3941
0.492 0.494 1.613 5365
0.498 0.500 1.618 7169
0.498 0.500 1.609 7425
0.501 0.503 1.607 7839
0.509 0.511 1.619 9036
0.512 0.514 1.617 10773
0.515 0.517 1.615 9770
0.523 0.525 1.626 10420
0.529 0.531 1.631 11797
0.532 0.534 1.629 10581
0.538 0.540 1.634 9643
0.541 0.543 1.631 10645
0.544 0.546 1.629 11647
0.544 0.546 1.620 13406
0.547 0.549 1.617 16154
0.550 0.552 1.615 16623
0.551 0.553 1.606 16130
0.556 0.559 1.610 16145
0.559 0.562 1.608 17098
0.565 0.567 1.613 17737
0.568 0.570 1.610 19984
0.571 0.573 1.608 22232
0.574 0.576 1.605 21920
0.577 0.579 1.603 21609
0.580 0.582 1.600 18229
0.583 0.585 1.598 14491
0.589 0.591 1.602 18940
0.592 0.594 1.600 24331
0.595 0.597 1.597 24777
0.601 0.603 1.602 20282
0.609 0.612 1.613 16800
0.612 0.615 1.610 14410
0.618 0.621 1.614 9921
0.621 0.624 1.611 7681
0.616 0.618 1.589 8799
0.622 0.624 1.593 9446
0.627 0.630 1.597 8817
0.627 0.630 1.587 8994
0.627 0.630 1.578 11679
0.627 0.630 1.569 14306
0.633 0.636 1.573 14900
0.639 0.642 1.577 15387
0.642 0.645 1.574 14025
0.648 0.651 1.578 16240
0.657 0.660 1.588 23980
0.660 0.663 1.586 28479
0.663 0.666 1.583 25922
0.663 0.666 1.573 15990
0.660 0.662 1.558 10777
0.663 0.665 1.555 8473
0.688 0.690 1.598 13393
0.691 0.693 1.595 18557
0.700 0.703 1.605 19823
0.706 0.709 1.608 21069
0.703 0.706 1.592 21246
0.706 0.709 1.589 21420
0.712 0.715 1.593 20045
0.712 0.715 1.583 16456
0.718 0.721 1.587 16721
0.721 0.724 1.584 26070
0.724 0.727 1.581 31899
0.730 0.733 1.584 26540
0.733 0.736 1.581 20320
0.736 0.739 1.578 15507
0.742 0.745 1.581 14405
0.742 0.745 1.572 16693
0.741 0.744 1.562 14745
0.738 0.741 1.546 19748
0.740 0.743 1.543 26674
0.750 0.753 1.553 21848
0.763 0.766 1.568 19246
0.766 0.769 1.565 18481
0.769 0.772 1.562 19448
0.772 0.775 1.559 24458
0.775 0.778 1.555 28468
0.778 0.781 1.552 29310
0.784 0.787 1.555 20972
0.780 0.783 1.539 13912
0.783 0.786 1.536 16541
0.793 0.796 1.545 19326
0.803 0.806 1.554 24116
0.806 0.809 1.550 20765
0.812 0.816 1.553 13216
0.815 0.818 1.550 15040
0.818 0.821 1.546 21064
0.824 0.828 1.549 22703
0.831 0.834 1.551 21467
0.838 0.841 1.554 18023
0.840 0.844 1.550 13336
0.843 0.847 1.547 8877
0.861 0.864 1.567 14307
0.864 0.867 1.563 24093
0.870 0.874 1.566 30510
0.870 0.873 1.556 34743
0.873 0.876 1.553 31073
0.875 0.879 1.549 25992
0.882 0.886 1.551 22565
0.885 0.889 1.547 25018
0.884 0.888 1.538 30398
0.887 0.890 1.534 25373
0.894 0.897 1.536 18272
0.896 0.900 1.532 15120
0.907 0.911 1.540 12808
0.910 0.913 1.536 11891
0.920 0.924 1.544 14008
0.927 0.931 1.546 9166
0.926 0.930 1.536 6106
0.929 0.933 1.532 18304
0.936 0.939 1.534 24056
0.942 0.946 1.536 21265
0.949 0.953 1.537 21232
0.948 0.952 1.528 15275
0.955 0.959 1.529 11729
0.966 0.970 1.537 14914
0.976 0.980 1.544 13981
0.979 0.983 1.540 18285
0.978 0.982 1.530 21728
0.981 0.985 1.526 13156
0.988 0.992 1.527 11466
0.991 0.995 1.523 15792
0.997 1.002 1.524 20601
1.008 1.013 1.531 21967
1.019 1.024 1.538 21884
1.018 1.022 1.528 22599
1.017 1.021 1.518 35509
1.024 1.028 1.520 45763
1.027 1.031 1.515 41052
1.034 1.038 1.516 26027
1.041 1.045 1.517 18850
1.043 1.048 1.513 18573
1.046 1.050 1.508 17953
1.053 1.057 1.509 12461
1.064 1.069 1.516 10255
1.067 1.071 1.511 10276
1.070 1.074 1.507 9337
1.073 1.077 1.502 12696
1.080 1.084 1.503 14311
1.082 1.087 1.498 11749
1.094 1.098 1.504 13696
1.096 1.101 1.499 15356
1.099 1.104 1.495 11850
1.102 1.106 1.490 15305
1.118 1.122 1.501 17709
1.125 1.129 1.501 23542
1.127 1.132 1.497 26635
1.130 1.135 1.492 18847
1.142 1.146 1.497 12673
1.162 1.166 1.512 10737
1.169 1.174 1.513 13725
1.167 1.172 1.503 18423
