0.487 1.554 1.606 6925
0.483 1.541 1.586 9101
0.484 1.545 1.581 10969
0.487 1.555 1.581 10538
0.504 1.611 1.623 11371
0.504 1.609 1.613 10873
0.498 1.590 1.587 8104
0.495 1.582 1.572 5163
0.531 1.696 1.664 4522
0.529 1.689 1.649 16435
0.530 1.693 1.644 27715
0.531 1.697 1.638 21063
0.536 1.713 1.643 22249
0.538 1.717 1.638 29226
0.539 1.721 1.632 32879
0.540 1.725 1.627 32790
0.542 1.729 1.622 22306
0.561 1.793 1.666 13808
0.566 1.809 1.670 16495
0.569 1.819 1.669 14757
0.565 1.805 1.649 15266
0.568 1.815 1.648 24819
0.572 1.825 1.648 27224
0.571 1.824 1.637 14333
0.591 1.888 1.680 8583
0.587 1.874 1.659 12249
0.581 1.854 1.635 17285
0.599 1.913 1.672 17121
0.600 1.917 1.666 18000
0.601 1.921 1.660 15017
0.603 1.925 1.654 11317
0.625 1.996 1.699 7024
0.630 2.013 1.703 14330
0.634 2.023 1.701 20862
0.635 2.028 1.695 26455
0.636 2.032 1.688 29524
0.638 2.036 1.682 26081
0.641 2.047 1.680 22488
0.640 2.045 1.670 20976
0.642 2.049 1.663 13907
0.645 2.059 1.661 6638
0.646 2.064 1.655 7205
0.647 2.068 1.649 9589
0.653 2.085 1.651 10078
0.656 2.095 1.649 7597
0.663 2.118 1.656 7044
0.664 2.122 1.649 11375
0.695 2.221 1.709 15165
0.697 2.225 1.702 17159
0.698 2.229 1.695 19135
0.699 2.234 1.688 22248
0.701 2.238 1.681 21613
0.702 2.242 1.674 19257
0.703 2.246 1.667 16491
0.705 2.251 1.660 14544
0.710 2.268 1.662 15397
0.713 2.278 1.659 16830
0.717 2.289 1.656 15403
0.720 2.299 1.653 12282
0.719 2.297 1.642 8922
0.743 2.372 1.680 4395
0.744 2.377 1.673 6422
0.741 2.368 1.657 6380
0.741 2.366 1.646 5752
0.760 2.428 1.675 6599
0.762 2.432 1.668 7441
0.763 2.437 1.660 6615
0.764 2.441 1.653 4947
0.774 2.471 1.661 6104
0.777 2.482 1.657 7636
0.776 2.480 1.646 7935
0.782 2.497 1.646 7541
0.785 2.508 1.642 7500
0.786 2.512 1.634 5510
0.817 2.608 1.680 4280
0.799 2.553 1.638 4601
0.801 2.557 1.630 6541
0.802 2.561 1.622 6938
0.805 2.572 1.618 6672
0.813 2.596 1.621 7257
0.814 2.600 1.613 6040
0.813 2.598 1.602 4843
0.823 2.628 1.608 4409
0.826 2.639 1.604 4494
0.828 2.643 1.596 4202
0.865 2.761 1.649 5161
0.864 2.759 1.637 7837
0.863 2.756 1.625 10561
0.864 2.760 1.616 8701
0.863 2.758 1.604 6919
0.867 2.768 1.599 4244
0.896 2.861 1.636 3179
0.895 2.858 1.624 4103
0.894 2.855 1.612 5056
0.899 2.873 1.610 5324
0.903 2.884 1.604 5675
0.904 2.888 1.596 6473
0.903 2.885 1.583 7325
0.902 2.882 1.571 5352
0.895 2.859 1.549 4014
0.939 3.000 1.606 4209
0.940 3.004 1.597 4697
0.940 3.001 1.584 4758
0.939 2.998 1.572 3941
0.936 2.988 1.556 3426
0.937 2.992 1.547 2917
0.951 3.038 1.557 2447
0.961 3.069 1.560 2482
0.962 3.073 1.551 2870
0.961 3.070 1.538 3165
0.962 3.074 1.529 1582
0.209 0.665 1.727 12671
0.211 0.669 1.725 16930
0.212 0.673 1.723 21188
0.214 0.678 1.721 21188
0.215 0.682 1.719 21388
0.216 0.687 1.717 21587
0.218 0.691 1.714 17448
0.219 0.695 1.712 13309
0.221 0.703 1.717 10500
0.223 0.707 1.715 7827
0.225 0.715 1.720 9431
0.227 0.719 1.718 11054
0.228 0.724 1.715 11424
0.228 0.725 1.706 11461
0.230 0.729 1.704 11365
0.231 0.733 1.701 12919
0.233 0.741 1.706 14785
0.236 0.749 1.711 16001
0.238 0.757 1.715 17725
0.240 0.761 1.713 16705
0.241 0.765 1.711 15685
0.243 0.770 1.708 14996
0.244 0.774 1.706 14308
0.245 0.778 1.703 12614
0.248 0.786 1.708 11132
0.248 0.787 1.699 9882
0.249 0.791 1.696 8843
0.251 0.796 1.694 8703
0.252 0.800 1.691 8563
0.253 0.804 1.689 8631
0.256 0.812 1.693 9127
0.257 0.817 1.690 11158
0.260 0.825 1.695 13420
0.262 0.833 1.699 14445
0.262 0.833 1.689 13263
0.263 0.834 1.680 12216
0.266 0.846 1.691 14878
0.269 0.854 1.695 18153
0.270 0.858 1.692 19818
0.273 0.866 1.697 18642
0.275 0.874 1.701 16032
0.277 0.879 1.698 11751
0.277 0.879 1.688 7498
0.277 0.880 1.679 7299
0.277 0.880 1.669 8529
0.280 0.888 1.673 9804
0.281 0.892 1.671 9224
0.284 0.901 1.674 6983
0.289 0.917 1.692 5319
0.288 0.913 1.675 6558
0.290 0.921 1.679 8262
0.292 0.926 1.676 8939
0.293 0.930 1.673 11208
0.297 0.942 1.684 17415
0.300 0.951 1.687 21939
0.301 0.955 1.684 22087
0.304 0.964 1.688 19018
0.306 0.972 1.692 16289
0.308 0.976 1.689 14486
0.309 0.981 1.686 16333
0.309 0.981 1.676 23263
0.310 0.985 1.673 26498
0.313 0.994 1.676 22799
0.314 0.998 1.673 17253
0.316 1.002 1.670 14909
0.317 1.006 1.667 14683
0.318 1.010 1.664 13072
0.322 1.024 1.673 16766
0.324 1.028 1.670 24088
0.327 1.036 1.673 24011
0.328 1.041 1.670 22149
0.331 1.049 1.673 17563
0.333 1.058 1.676 12214
0.335 1.062 1.673 13884
0.336 1.067 1.670 19722
0.339 1.075 1.673 24874
0.342 1.084 1.676 23379
0.343 1.088 1.672 19664
0.344 1.093 1.669 15277
0.346 1.097 1.666 11893
0.350 1.110 1.675 11619
0.354 1.124 1.684 13770
0.355 1.128 1.680 12991
0.357 1.132 1.677 12037
0.358 1.137 1.673 13259
0.359 1.141 1.670 10298
0.361 1.145 1.666 9497
0.362 1.149 1.662 9545
0.368 1.168 1.677 8748
0.371 1.177 1.680 14991
0.372 1.181 1.676 23928
0.373 1.185 1.672 29075
0.375 1.190 1.669 27144
0.378 1.199 1.671 23203
0.381 1.208 1.673 16565
0.385 1.222 1.682 12712
0.385 1.221 1.672 23329
0.385 1.221 1.662 30201
0.386 1.225 1.658 20742
0.390 1.239 1.666 13977
0.395 1.253 1.674 13442
0.398 1.262 1.676 13769
0.394 1.252 1.655 24522
0.396 1.256 1.651 40337
0.398 1.265 1.653 41537
0.398 1.264 1.643 30582
0.400 1.268 1.639 21005
0.399 1.267 1.629 17189
0.397 1.261 1.614 19028
0.400 1.270 1.616 17095
0.403 1.280 1.617 13531
0.408 1.294 1.625 10148
0.412 1.308 1.632 8733
0.425 1.349 1.669 13965
0.426 1.353 1.665 23462
0.428 1.357 1.660 26292
0.427 1.356 1.650 21285
0.427 1.355 1.640 13307
0.435 1.380 1.659 12459
0.436 1.385 1.655 15994
0.437 1.389 1.650 17574
0.440 1.398 1.652 13026
0.443 1.408 1.653 12325
0.446 1.417 1.654 15955
0.446 1.416 1.644 28988
0.449 1.426 1.645 38988
0.450 1.430 1.641 40799
0.452 1.434 1.636 35412
0.456 1.449 1.643 22583
0.456 1.448 1.633 26111
0.459 1.457 1.634 42878
0.464 1.472 1.640 41772
0.469 1.487 1.647 31509
0.472 1.497 1.648 24252
0.475 1.507 1.648 16320
0.476 1.511 1.644 12911
0.477 1.515 1.639 9745
0.482 1.530 1.645 10775
0.482 1.529 1.635 12282
0.481 1.527 1.625 19285
0.484 1.537 1.625 23094
0.487 1.547 1.626 19350
0.489 1.551 1.621 16049
0.490 1.555 1.616 11126
0.488 1.548 1.601 9651
0.485 1.541 1.586 12343
0.487 1.545 1.581 13567
0.488 1.549 1.576 11990
0.509 1.615 1.628 10537
0.507 1.608 1.613 10851
0.502 1.595 1.592 9726
0.513 1.628 1.613 6416
0.458 1.453 1.450 5469
0.532 1.688 1.649 16042
0.533 1.692 1.644 27290
0.534 1.696 1.638 20278
0.539 1.712 1.643 18546
0.541 1.716 1.638 23094
0.540 1.714 1.627 25401
0.543 1.724 1.627 27568
0.546 1.734 1.627 20997
0.563 1.786 1.661 13238
0.568 1.802 1.665 14899
0.569 1.806 1.660 13514
0.563 1.786 1.634 18320
0.570 1.808 1.644 26914
0.573 1.819 1.643 28490
0.572 1.817 1.632 15868
0.594 1.887 1.680 8025
0.590 1.873 1.659 10172
0.582 1.847 1.630 15257
0.602 1.912 1.672 16461
0.604 1.916 1.666 16647
0.605 1.920 1.660 13903
0.604 1.918 1.649 10976
0.598 1.898 1.624 7751
0.634 2.012 1.703 12267
0.637 2.022 1.701 18686
0.638 2.027 1.695 24639
0.640 2.031 1.688 28871
0.641 2.035 1.682 26359
0.642 2.039 1.676 22489
0.644 2.044 1.670 20368
0.643 2.042 1.659 12578
0.639 2.027 1.639 5727
0.648 2.056 1.651 6566
0.649 2.060 1.644 8309
0.650 2.065 1.638 7985
0.656 2.081 1.640 6956
0.663 2.104 1.647 7891
0.668 2.121 1.649 12503
0.669 2.125 1.643 14633
0.701 2.224 1.702 15530
0.702 2.228 1.695 17563
0.703 2.232 1.688 20946
0.705 2.237 1.681 20702
0.706 2.241 1.674 18449
0.707 2.245 1.667 16051
0.707 2.243 1.656 14209
0.714 2.266 1.662 14267
0.717 2.277 1.659 15534
0.721 2.288 1.656 14685
0.724 2.298 1.653 12339
0.725 2.302 1.646 9221
0.745 2.365 1.676 4440
0.748 2.375 1.673 6535
0.748 2.373 1.661 6722
0.747 2.371 1.650 5611
0.762 2.420 1.671 5316
0.764 2.425 1.664 6002
0.765 2.429 1.656 5349
0.768 2.439 1.653 4108
0.778 2.470 1.661 5645
0.777 2.467 1.649 7438
0.779 2.472 1.642 7985
0.788 2.502 1.650 7472
0.792 2.513 1.646 7250
0.791 2.510 1.634 5242
0.821 2.607 1.680 3595
0.802 2.545 1.634 4622
0.803 2.549 1.626 6334
0.804 2.553 1.618 6305
0.812 2.577 1.622 6063
0.817 2.595 1.621 6828
0.817 2.592 1.610 5848
0.818 2.596 1.602 4892
0.825 2.620 1.605 4175
0.831 2.638 1.604 4343
0.830 2.635 1.592 4174
0.869 2.760 1.649 4968
0.869 2.757 1.637 7762
0.868 2.755 1.625 10649
0.869 2.759 1.616 8936
0.868 2.756 1.604 7286
0.872 2.767 1.599 4573
0.901 2.859 1.636 2848
0.900 2.856 1.624 3747
0.897 2.847 1.608 4748
0.902 2.864 1.606 5275
0.908 2.882 1.604 5957
0.907 2.879 1.592 6778
0.908 2.883 1.583 7655
0.905 2.874 1.568 5646
0.900 2.857 1.549 4389
0.901 2.861 1.540 4389
0.948 3.009 1.600 3735
0.947 3.006 1.588 3767
0.944 2.996 1.572 3238
0.937 2.973 1.550 3621
0.940 2.984 1.544 3658
0.945 3.001 1.541 3839
0.947 3.005 1.532 3839
0.957 3.037 1.535 3082
0.973 3.089 1.548 3252
0.974 3.093 1.538 1626
0.211 0.664 1.727 12729
0.213 0.668 1.725 16601
0.214 0.673 1.723 20472
0.216 0.677 1.721 20100
0.217 0.682 1.719 19743
0.218 0.686 1.717 19759
0.220 0.690 1.714 15610
0.221 0.695 1.712 11460
0.223 0.702 1.717 9893
0.225 0.707 1.715 8594
0.227 0.714 1.720 10357
0.229 0.719 1.718 12314
0.230 0.723 1.715 12613
0.230 0.724 1.706 12438
0.232 0.728 1.704 12119
0.233 0.733 1.701 13081
0.236 0.740 1.706 14364
0.238 0.748 1.711 15280
0.241 0.756 1.715 16724
0.242 0.760 1.713 15626
0.243 0.765 1.711 14527
0.245 0.769 1.708 13914
0.246 0.773 1.706 13300
0.248 0.778 1.703 11596
0.250 0.786 1.708 10198
0.251 0.790 1.705 9319
0.252 0.791 1.696 8693
0.253 0.795 1.694 8684
0.254 0.799 1.691 8675
0.256 0.804 1.689 8761
0.258 0.812 1.693 9322
0.260 0.816 1.690 11421
0.262 0.824 1.695 13628
0.265 0.832 1.699 14729
0.265 0.832 1.689 13606
0.265 0.833 1.680 12586
0.269 0.845 1.691 15165
0.271 0.853 1.695 18091
0.273 0.857 1.692 19844
0.275 0.865 1.697 18805
0.278 0.874 1.701 16228
0.279 0.878 1.698 12048
0.280 0.878 1.688 7929
0.280 0.879 1.679 7666
0.280 0.879 1.669 8405
0.282 0.887 1.673 9316
0.284 0.891 1.671 8140
0.285 0.896 1.668 5416
0.288 0.904 1.672 3968
0.290 0.912 1.675 5167
0.293 0.921 1.679 6698
0.294 0.925 1.676 7048
0.297 0.933 1.680 9088
0.300 0.942 1.684 15199
0.302 0.950 1.687 19696
0.304 0.954 1.684 19756
0.306 0.963 1.688 16417
0.309 0.971 1.692 13508
0.310 0.976 1.689 12291
0.310 0.976 1.679 16405
0.312 0.980 1.676 25329
0.313 0.984 1.673 28950
0.316 0.993 1.676 24793
0.317 0.997 1.673 18388
0.319 1.001 1.670 15336
0.320 1.005 1.667 15084
0.323 1.014 1.670 12502
0.325 1.023 1.673 15506
0.327 1.027 1.670 23703
0.330 1.035 1.673 25124
0.331 1.040 1.670 23887
0.332 1.044 1.667 18892
0.335 1.053 1.670 11778
0.336 1.057 1.667 12050
0.339 1.066 1.670 17810
0.342 1.074 1.673 22409
0.345 1.083 1.676 21942
0.346 1.087 1.672 18952
0.346 1.087 1.663 14786
0.347 1.091 1.659 11614
0.355 1.114 1.681 11592
0.357 1.123 1.684 14895
0.359 1.127 1.680 13529
0.362 1.136 1.683 10354
0.361 1.136 1.673 10290
0.364 1.145 1.676 8779
0.366 1.149 1.672 10182
0.367 1.153 1.669 10979
0.371 1.167 1.677 8902
0.374 1.176 1.680 13634
0.376 1.180 1.676 23409
0.377 1.184 1.672 29435
0.378 1.189 1.669 26015
0.381 1.198 1.671 20342
0.384 1.207 1.673 13675
0.388 1.221 1.682 10599
0.388 1.220 1.672 22394
0.388 1.219 1.662 29804
0.388 1.219 1.652 20456
0.392 1.233 1.660 12889
0.398 1.252 1.674 11548
0.401 1.261 1.676 12036
0.398 1.250 1.655 25807
0.399 1.255 1.651 41961
0.402 1.264 1.653 41478
0.402 1.263 1.643 30880
0.403 1.267 1.639 21581
0.403 1.266 1.629 17321
0.401 1.260 1.614 19245
0.404 1.269 1.616 16999
0.407 1.278 1.617 13123
0.395 1.241 1.567 10042
0.418 1.312 1.638 8167
0.429 1.348 1.669 11360
0.430 1.352 1.665 18852
0.432 1.356 1.660 22019
0.430 1.350 1.645 18051
0.428 1.343 1.629 11601
0.439 1.379 1.659 10069
0.440 1.383 1.655 15094
0.442 1.387 1.650 17650
0.445 1.397 1.652 12365
0.449 1.412 1.659 11731
0.447 1.405 1.643 17550
0.450 1.415 1.644 33013
0.453 1.424 1.645 43376
0.455 1.428 1.641 45192
0.456 1.433 1.636 32411
0.462 1.453 1.649 16726
0.460 1.446 1.633 29930
0.463 1.456 1.634 47582
0.468 1.471 1.640 41291
0.473 1.486 1.647 30540
0.476 1.496 1.648 24140
0.481 1.511 1.654 16223
0.482 1.515 1.649 12169
0.483 1.519 1.644 9705
0.487 1.529 1.645 11519
0.486 1.527 1.635 12598
0.487 1.532 1.630 18408
0.489 1.536 1.625 22260
0.492 1.545 1.626 19461
0.493 1.550 1.621 17539
0.494 1.554 1.616 14147
0.494 1.552 1.606 12935
0.492 1.545 1.591 15437
0.491 1.543 1.581 15616
0.492 1.547 1.576 12764
0.514 1.614 1.628 9275
0.515 1.618 1.623 10858
0.516 1.622 1.618 11877
0.518 1.626 1.613 9564
0.521 1.636 1.613 8259
0.535 1.681 1.644 16422
0.538 1.690 1.644 25591
0.539 1.695 1.638 18650
0.544 1.710 1.643 15464
0.546 1.715 1.638 18149
0.545 1.713 1.627 19227
0.548 1.723 1.627 23305
0.553 1.739 1.632 20135
0.566 1.778 1.656 12535
0.573 1.800 1.665 13383
0.570 1.792 1.650 13630
0.568 1.785 1.634 21090
0.573 1.801 1.639 29181
0.576 1.811 1.638 29486
0.578 1.815 1.632 18064
0.575 1.807 1.617 10299
0.578 1.817 1.616 9768
0.587 1.845 1.630 14224
0.606 1.904 1.667 15683
0.607 1.908 1.661 15143
0.609 1.912 1.655 12733
0.608 1.910 1.644 10956
0.603 1.896 1.624 9167
0.640 2.010 1.703 10494
0.643 2.020 1.701 16204
0.644 2.025 1.695 22235
0.644 2.023 1.684 27705
0.645 2.027 1.678 25915
0.648 2.038 1.676 21495
0.650 2.042 1.670 18899
0.645 2.027 1.650 11268
0.645 2.025 1.639 6001
0.652 2.048 1.646 6494
0.653 2.052 1.640 8539
0.656 2.063 1.638 8823
0.660 2.073 1.636 9034
0.667 2.096 1.643 10086
0.674 2.119 1.649 13473
0.676 2.123 1.643 15323
0.675 2.121 1.632 14575
0.676 2.125 1.625 16179
0.710 2.230 1.688 18977
0.709 2.228 1.677 19252
0.712 2.239 1.674 16960
0.714 2.243 1.667 15000
0.713 2.241 1.656 13457
0.719 2.258 1.658 12887
0.724 2.275 1.659 13835
0.729 2.292 1.660 13833
0.731 2.296 1.653 12284
0.732 2.300 1.646 9664
0.752 2.362 1.676 4570
0.755 2.373 1.673 6648
0.754 2.371 1.661 7052
0.754 2.369 1.650 5534
0.743 2.334 1.618 4543
0.769 2.416 1.660 4495
0.772 2.426 1.656 4262
0.776 2.437 1.653 3583
0.779 2.448 1.649 5450
0.782 2.459 1.645 7480
0.784 2.463 1.638 8082
0.798 2.506 1.654 7459
0.801 2.517 1.650 7193
0.804 2.528 1.646 5193
0.808 2.538 1.642 3490
0.809 2.543 1.634 4838
0.810 2.547 1.626 6165
0.812 2.551 1.618 5692
0.819 2.575 1.622 5535
0.825 2.592 1.621 6380
0.824 2.590 1.610 5700
0.825 2.594 1.602 5060
0.829 2.604 1.597 4075
0.839 2.635 1.604 4041
0.838 2.633 1.592 3959
0.877 2.757 1.649 4774
0.877 2.755 1.637 7592
0.878 2.759 1.629 10555
0.877 2.756 1.616 8939
0.876 2.754 1.604 7393
0.882 2.771 1.603 4632
0.896 2.816 1.615 2699
0.900 2.827 1.610 3599
0.901 2.831 1.601 4506
0.909 2.855 1.603 5226
0.914 2.873 1.601 6237
0.915 2.877 1.592 7079
0.915 2.874 1.580 7989
0.914 2.871 1.568 5930
0.908 2.854 1.549 4632
0.910 2.858 1.540 4632
0.913 2.869 1.534 3606
0.956 3.003 1.588 3609
0.946 2.973 1.562 3439
0.945 2.970 1.550 3862
0.946 2.974 1.541 3422
1.003 3.150 1.611 3433
1.004 3.154 1.601 3466
1.005 3.159 1.592 3499
0.984 3.093 1.551 3517
0.986 3.097 1.541 1758
0.212 0.664 1.727 12420
0.214 0.668 1.725 16018
0.215 0.672 1.723 19617
0.216 0.677 1.721 18975
0.218 0.681 1.719 18215
0.219 0.686 1.717 18098
0.221 0.690 1.714 14006
0.222 0.694 1.712 9915
0.223 0.699 1.710 9398
0.226 0.706 1.715 9084
0.227 0.711 1.713 10856
0.230 0.718 1.718 12848
0.231 0.723 1.715 13090
0.231 0.724 1.706 12707
0.233 0.728 1.704 12186
0.234 0.732 1.701 12657
0.237 0.740 1.706 13450
0.239 0.748 1.711 14167
0.242 0.756 1.715 15419
0.243 0.760 1.713 14433
0.244 0.764 1.711 13447
0.246 0.769 1.708 13010
0.247 0.773 1.706 12574
0.249 0.777 1.703 10892
0.251 0.785 1.708 9587
0.253 0.790 1.705 9265
0.253 0.790 1.696 9263
0.254 0.795 1.694 9345
0.254 0.795 1.684 9439
0.257 0.803 1.689 9138
0.259 0.811 1.693 9228
0.261 0.815 1.690 11270
0.263 0.824 1.695 13369
0.266 0.832 1.699 14507
0.266 0.832 1.689 13437
0.268 0.836 1.687 12533
0.270 0.844 1.691 14855
0.273 0.853 1.695 17360
0.274 0.857 1.692 19124
0.277 0.865 1.697 18244
0.278 0.869 1.694 15813
0.279 0.874 1.691 11797
0.281 0.878 1.688 7897
0.281 0.878 1.679 7937
0.281 0.879 1.669 8498
0.284 0.887 1.673 9014
0.285 0.891 1.671 7168
0.286 0.895 1.668 4130
0.289 0.904 1.672 3063
0.293 0.916 1.682 4381
0.294 0.920 1.679 6443
0.297 0.928 1.683 7068
0.298 0.933 1.680 8153
0.301 0.941 1.684 13074
0.304 0.950 1.687 17234
0.305 0.954 1.684 17181
0.306 0.958 1.681 13740
0.309 0.967 1.685 10712
0.311 0.971 1.682 11153
0.312 0.975 1.679 17710
0.313 0.979 1.676 27440
0.315 0.984 1.673 31054
0.317 0.992 1.676 26432
0.319 0.996 1.673 19131
0.320 1.001 1.670 15328
0.321 1.005 1.667 15005
0.324 1.013 1.670 11918
0.327 1.022 1.673 14537
0.328 1.026 1.670 23314
0.331 1.035 1.673 26030
0.332 1.039 1.670 25406
0.334 1.043 1.667 20648
0.335 1.048 1.664 11613
0.338 1.056 1.667 9847
0.341 1.065 1.670 15339
0.343 1.074 1.673 19396
0.346 1.083 1.676 19822
0.348 1.087 1.672 17620
0.348 1.087 1.663 14042
0.349 1.091 1.659 11155
0.356 1.113 1.681 11776
0.359 1.122 1.684 16163
0.360 1.127 1.680 14581
0.363 1.136 1.683 9481
0.363 1.135 1.673 8167
0.366 1.144 1.676 8461
0.367 1.148 1.672 11690
0.369 1.153 1.669 12595
0.373 1.166 1.677 9063
0.376 1.175 1.680 12082
0.377 1.180 1.676 22158
0.377 1.179 1.666 28823
0.380 1.188 1.669 25120
0.383 1.197 1.671 18103
0.386 1.206 1.673 10854
0.390 1.220 1.682 8753
0.390 1.220 1.672 21608
0.388 1.214 1.656 28459
0.390 1.218 1.652 19924
0.393 1.227 1.654 12455
0.399 1.246 1.668 9967
0.402 1.256 1.670 10493
0.400 1.250 1.655 26437
0.401 1.254 1.651 42578
0.404 1.263 1.653 40627
0.404 1.262 1.643 30174
0.405 1.266 1.639 21144
0.405 1.266 1.629 16513
0.401 1.254 1.608 18386
0.404 1.263 1.610 15840
0.409 1.278 1.617 11893
0.397 1.241 1.567 11091
0.400 1.250 1.569 7839
0.431 1.347 1.669 8762
0.432 1.351 1.665 14493
0.434 1.355 1.660 18236
0.433 1.354 1.650 15404
0.429 1.343 1.629 10587
0.416 1.300 1.574 8879
0.441 1.377 1.649 14291
0.444 1.387 1.650 16769
0.448 1.402 1.657 11731
0.450 1.406 1.653 13339
0.449 1.405 1.643 22670
0.452 1.414 1.644 37745
0.454 1.418 1.640 46774
0.457 1.428 1.641 49092
0.456 1.427 1.631 36178
0.454 1.420 1.615 20504
0.462 1.446 1.633 35307
0.464 1.450 1.629 51888
0.469 1.465 1.635 40146
0.475 1.485 1.647 28065
0.478 1.495 1.648 22234
0.483 1.510 1.654 15972
0.484 1.514 1.649 12211
0.486 1.518 1.644 9992
0.489 1.528 1.645 11883
0.490 1.532 1.640 12804
0.490 1.531 1.630 17200
0.491 1.535 1.625 20541
0.494 1.545 1.626 19357
0.497 1.554 1.626 18864
0.497 1.553 1.616 17164
0.496 1.551 1.606 16405
0.494 1.544 1.591 17839
0.493 1.542 1.581 17017
0.493 1.541 1.571 13043
0.496 1.550 1.571 9142
0.519 1.623 1.628 11842
0.520 1.627 1.623 15359
0.522 1.631 1.618 12794
0.525 1.641 1.618 11628
0.535 1.674 1.639 16986
0.539 1.684 1.638 22810
0.542 1.694 1.638 16316
0.545 1.704 1.638 13584
0.548 1.714 1.638 15280
0.549 1.718 1.632 15117
0.551 1.722 1.627 20452
0.556 1.738 1.632 20109
0.567 1.771 1.651 11813
0.575 1.799 1.665 11532
0.569 1.780 1.640 14271
0.571 1.784 1.634 24092
0.574 1.794 1.634 31225
0.579 1.810 1.638 30863
0.580 1.814 1.632 20454
0.580 1.812 1.622 12705
0.581 1.816 1.616 11997
0.586 1.832 1.620 14778
0.605 1.891 1.657 15100
0.608 1.901 1.656 13796
0.609 1.905 1.650 11927
0.609 1.903 1.640 11455
0.606 1.895 1.624 10421
0.637 1.991 1.689 9755
0.644 2.013 1.696 13129
0.645 2.018 1.690 19408
0.647 2.022 1.684 26377
0.648 2.026 1.678 25191
0.651 2.037 1.676 20101
0.651 2.035 1.665 17249
0.646 2.020 1.645 10531
0.648 2.024 1.639 6356
0.653 2.041 1.642 6780
0.658 2.058 1.644 9510
0.659 2.062 1.638 10944
0.663 2.072 1.636 11978
0.668 2.089 1.638 12275
0.677 2.118 1.649 14259
0.679 2.122 1.643 16024
0.678 2.120 1.632 15207
0.679 2.124 1.625 16591
0.713 2.229 1.688 16556
0.712 2.227 1.677 17301
0.716 2.238 1.674 14998
0.715 2.236 1.663 13547
0.716 2.240 1.656 12440
0.720 2.250 1.653 11611
0.727 2.274 1.659 12009
0.733 2.291 1.660 12832
0.734 2.295 1.653 11992
0.735 2.299 1.646 9851
0.733 2.290 1.631 5121
0.757 2.365 1.669 6497
0.758 2.370 1.661 7113
0.755 2.361 1.646 5720
0.748 2.339 1.623 4839
0.766 2.395 1.648 3511
0.776 2.425 1.656 3497
0.779 2.436 1.653 3347
0.783 2.447 1.649 5453
0.784 2.451 1.641 7600
0.787 2.462 1.638 8250
0.801 2.505 1.654 7455
0.807 2.522 1.654 7230
0.810 2.533 1.650 5493
0.812 2.537 1.642 3829
0.813 2.541 1.634 5089
0.814 2.546 1.626 6063
0.813 2.543 1.615 5185
0.825 2.580 1.626 5253
0.829 2.591 1.621 6048
0.828 2.588 1.610 5630
0.829 2.592 1.602 5263
0.833 2.603 1.597 4081
0.842 2.634 1.604 3676
0.842 2.631 1.592 3621
0.884 2.763 1.653 4551
0.883 2.760 1.641 7281
0.882 2.758 1.629 10150
0.881 2.755 1.616 8618
0.882 2.759 1.608 7176
0.886 2.770 1.603 4604
0.900 2.814 1.615 2731
0.901 2.818 1.607 3571
0.896 2.802 1.588 4663
0.911 2.847 1.600 5165
0.918 2.871 1.601 6415
0.920 2.875 1.592 7254
0.919 2.873 1.580 8157
0.918 2.870 1.568 6062
0.913 2.853 1.549 4680
0.914 2.857 1.540 4680
0.917 2.868 1.534 3651
0.949 2.968 1.571 3419
0.948 2.965 1.559 3969
0.950 2.969 1.550 4609
0.951 2.973 1.541 4370
0.954 2.983 1.535 4233
0.955 2.987 1.525 4233
1.010 3.157 1.592 3836
1.011 3.161 1.582 3836
1.012 3.165 1.572 1918
0.214 0.660 1.720 12342
0.217 0.667 1.725 15492
0.218 0.672 1.723 18722
0.219 0.676 1.721 17821
0.221 0.680 1.719 16674
0.222 0.685 1.717 16427
0.224 0.689 1.714 12495
0.224 0.690 1.705 8599
0.227 0.698 1.710 8877
0.229 0.705 1.715 9314
0.230 0.710 1.713 11102
0.233 0.717 1.718 13054
0.234 0.722 1.715 13245
0.235 0.723 1.706 12672
0.235 0.724 1.697 11975
0.237 0.731 1.701 12056
0.240 0.739 1.706 12432
0.242 0.747 1.711 13026
0.245 0.755 1.715 14133
0.246 0.759 1.713 13201
0.248 0.763 1.711 12269
0.249 0.768 1.708 11969
0.251 0.772 1.706 11670
0.252 0.776 1.703 10110
0.256 0.788 1.715 9120
0.255 0.785 1.699 9413
0.256 0.789 1.696 10277
0.258 0.794 1.694 10433
0.258 0.794 1.684 10594
0.259 0.798 1.682 9685
0.262 0.806 1.686 9037
0.264 0.814 1.690 10940
0.267 0.822 1.695 12918
0.270 0.830 1.699 14084
0.271 0.835 1.696 13093
0.271 0.835 1.687 12282
0.274 0.843 1.691 14165
0.276 0.851 1.695 16060
0.278 0.856 1.692 17783
0.280 0.864 1.697 17278
0.283 0.872 1.701 15245
0.283 0.872 1.691 11580
0.285 0.877 1.688 8082
0.283 0.873 1.672 8496
0.285 0.877 1.669 9096
0.287 0.886 1.673 9439
0.288 0.886 1.664 7042
0.290 0.894 1.668 3651
0.292 0.898 1.665 2659
0.298 0.919 1.689 4169
0.300 0.923 1.686 7125
0.301 0.927 1.683 8342
0.304 0.936 1.687 8160
0.305 0.940 1.684 11042
0.308 0.948 1.687 14530
0.309 0.953 1.684 14377
0.311 0.957 1.681 11206
0.313 0.965 1.685 8249
0.313 0.965 1.675 10891
0.315 0.970 1.672 19883
0.318 0.978 1.676 29477
0.319 0.982 1.673 32870
0.322 0.991 1.676 27823
0.323 0.995 1.673 19737
0.324 0.999 1.670 15279
0.326 1.003 1.667 14911
0.329 1.012 1.670 11478
0.331 1.021 1.673 13688
0.333 1.025 1.670 22541
0.336 1.034 1.673 26307
0.337 1.038 1.670 26326
0.338 1.042 1.667 22263
0.340 1.046 1.664 12408
0.341 1.050 1.660 8198
0.345 1.064 1.670 12823
0.350 1.077 1.679 16299
0.351 1.081 1.676 16983
0.352 1.085 1.672 15514
0.351 1.080 1.656 12840
0.352 1.085 1.653 10404
0.361 1.112 1.681 11922
0.364 1.121 1.684 17363
0.365 1.125 1.680 15847
0.368 1.134 1.683 9043
0.368 1.134 1.673 6531
0.369 1.138 1.670 8691
0.372 1.147 1.672 13757
0.375 1.156 1.675 14843
0.378 1.165 1.677 9633
0.381 1.174 1.680 10502
0.381 1.173 1.670 20429
0.382 1.177 1.666 27892
0.385 1.186 1.669 24701
0.387 1.191 1.665 17308
0.388 1.195 1.661 9715
0.394 1.214 1.676 8064
0.394 1.213 1.666 21547
0.394 1.212 1.656 26769
0.395 1.216 1.652 18989
0.398 1.226 1.654 12778
0.402 1.240 1.662 8812
0.405 1.249 1.665 9389
0.405 1.248 1.655 26209
0.407 1.252 1.651 41828
0.410 1.261 1.653 38862
0.409 1.261 1.643 28131
0.409 1.260 1.633 19629
0.410 1.264 1.629 15107
0.407 1.253 1.608 16989
0.406 1.252 1.598 14999
0.401 1.235 1.571 11700
0.404 1.244 1.573 12060
0.405 1.248 1.569 10814
0.406 1.252 1.565 10292
0.409 1.261 1.567 14132
0.439 1.353 1.660 15109
0.439 1.352 1.650 13481
0.435 1.341 1.629 9419
0.420 1.293 1.568 9544
0.447 1.375 1.649 13271
0.450 1.385 1.650 14853
0.425 1.310 1.562 12047
0.456 1.404 1.653 15076
0.457 1.408 1.649 27156
0.458 1.412 1.644 41021
0.460 1.416 1.640 48985
0.461 1.420 1.635 52029
0.462 1.425 1.631 45533
0.462 1.423 1.621 34983
0.467 1.438 1.628 42385
0.470 1.448 1.629 55919
0.473 1.457 1.629 39075
0.480 1.478 1.641 24398
0.483 1.487 1.642 19832
0.488 1.503 1.648 15256
0.491 1.512 1.649 12046
0.492 1.516 1.644 9966
0.495 1.526 1.645 11838
0.497 1.530 1.640 12750
0.496 1.529 1.630 15665
0.498 1.533 1.625 18151
0.501 1.543 1.626 18913
0.504 1.552 1.626 19789
0.505 1.556 1.622 19951
0.503 1.549 1.606 19989
0.501 1.542 1.591 19409
0.500 1.540 1.581 17725
0.499 1.539 1.571 12740
0.503 1.548 1.571 8892
0.526 1.621 1.628 14585
0.527 1.625 1.623 19498
0.529 1.629 1.618 16086
0.532 1.639 1.618 15158
0.539 1.660 1.628 18194
0.546 1.682 1.638 19140
0.551 1.697 1.643 14301
0.552 1.701 1.638 14034
0.556 1.711 1.638 15640
0.557 1.716 1.632 13505
0.560 1.725 1.632 18468
0.563 1.735 1.632 20085
0.574 1.769 1.651 10816
0.581 1.791 1.660 8853
0.575 1.771 1.635 14818
0.578 1.781 1.634 26679
0.582 1.791 1.634 32608
0.587 1.808 1.638 31805
0.586 1.806 1.628 22941
0.588 1.810 1.622 15764
0.589 1.814 1.616 15425
0.592 1.824 1.615 17090
0.601 1.852 1.629 15186
0.614 1.892 1.651 13108
0.616 1.897 1.646 11940
0.615 1.895 1.635 12402
0.614 1.893 1.624 11699
0.639 1.970 1.675 10307
0.639 1.968 1.664 12734
0.652 2.009 1.685 16802
0.654 2.013 1.679 25284
0.653 2.011 1.668 24457
0.654 2.015 1.662 18707
0.658 2.026 1.660 15446
0.655 2.018 1.645 9681
0.656 2.022 1.639 6793
0.662 2.038 1.642 7677
0.667 2.055 1.644 11288
0.670 2.065 1.642 13643
0.672 2.069 1.636 14779
0.677 2.086 1.638 14292
0.687 2.115 1.649 14789
0.690 2.125 1.647 16357
0.689 2.123 1.636 15369
0.689 2.121 1.625 16676
0.692 2.132 1.623 15602
0.722 2.224 1.677 14909
0.723 2.228 1.670 12718
0.725 2.233 1.663 11791
0.726 2.237 1.656 11065
0.728 2.241 1.649 10145
0.739 2.277 1.663 10001
0.743 2.288 1.660 11694
0.744 2.292 1.653 11696
0.745 2.296 1.646 9904
0.743 2.287 1.631 5669
0.769 2.369 1.673 5866
0.768 2.366 1.661 6718
0.759 2.338 1.634 6304
0.758 2.336 1.623 5581
0.762 2.346 1.619 3940
0.776 2.389 1.636 3009
0.790 2.433 1.653 3211
0.793 2.443 1.649 5402
0.795 2.447 1.641 7615
0.796 2.452 1.634 8357
0.814 2.508 1.658 7277
0.820 2.525 1.658 7107
0.821 2.530 1.650 5650
0.823 2.534 1.642 4193
0.824 2.538 1.634 5395
0.823 2.535 1.622 6088
0.824 2.539 1.615 4888
0.837 2.577 1.626 5082
0.840 2.587 1.621 5738
0.841 2.591 1.613 5543
0.840 2.589 1.602 5379
0.844 2.600 1.597 4055
0.854 2.630 1.604 3286
0.853 2.628 1.592 3203
0.896 2.759 1.653 4316
0.895 2.756 1.641 6841
0.894 2.754 1.629 9458
0.895 2.758 1.620 8193
0.897 2.762 1.611 6928
0.898 2.766 1.603 4646
0.912 2.810 1.615 2646
0.903 2.781 1.589 3665
0.906 2.791 1.584 4894
0.921 2.836 1.596 5007
0.931 2.867 1.601 6457
0.932 2.871 1.592 7305
0.931 2.869 1.580 8185
0.930 2.866 1.568 6066
0.925 2.849 1.549 4637
0.926 2.853 1.540 4637
0.959 2.953 1.577 4005
0.960 2.957 1.568 4357
0.961 2.961 1.559 4654
0.960 2.958 1.547 4956
0.964 2.968 1.541 4421
1.019 3.138 1.608 4258
1.022 3.149 1.601 4242
1.024 3.153 1.592 4245
1.025 3.157 1.582 4245
1.026 3.161 1.572 2122
0.216 0.659 1.720 12254
0.218 0.667 1.725 14946
0.220 0.671 1.723 17823
0.221 0.675 1.721 16689
0.222 0.680 1.719 15184
0.224 0.684 1.717 14813
0.225 0.688 1.714 11112
0.226 0.690 1.705 7577
0.228 0.697 1.710 8501
0.231 0.705 1.715 9643
0.232 0.709 1.713 11381
0.234 0.717 1.718 13250
0.236 0.721 1.715 13381
0.236 0.722 1.706 12586
0.237 0.723 1.697 11722
0.239 0.731 1.701 11449
0.242 0.739 1.706 11436
0.244 0.746 1.711 11991
0.247 0.754 1.715 13024
0.248 0.758 1.713 12164
0.251 0.766 1.718 11346
0.251 0.767 1.708 11151
0.252 0.771 1.706 10997
0.254 0.776 1.703 9634
0.258 0.787 1.715 8967
0.257 0.784 1.699 9952
0.257 0.785 1.689 11669
0.258 0.789 1.687 11840
0.261 0.797 1.691 12034
0.261 0.798 1.682 10418
0.264 0.806 1.686 8882
0.266 0.814 1.690 10613
0.269 0.822 1.695 12538
0.271 0.830 1.699 13765
0.273 0.834 1.696 12877
0.273 0.835 1.687 12120
0.276 0.843 1.691 13559
0.277 0.847 1.688 14895
0.280 0.855 1.692 16438
0.282 0.863 1.697 16134
0.285 0.871 1.701 14463
0.285 0.872 1.691 11271
0.287 0.876 1.688 8327
0.285 0.872 1.672 8903
0.287 0.877 1.669 9612
0.289 0.885 1.673 10009
0.290 0.885 1.664 7330
0.291 0.889 1.661 3782
0.291 0.889 1.652 2843
0.302 0.922 1.695 4404
0.302 0.922 1.686 8115
0.303 0.927 1.683 9874
0.306 0.935 1.687 8781
0.307 0.939 1.684 9600
0.310 0.948 1.687 12021
0.311 0.952 1.684 11754
0.313 0.956 1.681 9495
0.314 0.960 1.678 7505
0.316 0.965 1.675 12064
0.317 0.969 1.672 22769
0.320 0.977 1.676 31590
0.321 0.982 1.673 34545
0.322 0.986 1.670 29155
0.325 0.994 1.673 20371
0.327 0.999 1.670 15378
0.328 1.003 1.667 14898
0.331 1.011 1.670 11443
0.334 1.020 1.673 13475
0.335 1.024 1.670 21986
0.338 1.033 1.673 26415
0.339 1.037 1.670 27003
0.341 1.041 1.667 23904
0.341 1.041 1.657 14803
0.343 1.050 1.660 8193
0.348 1.063 1.670 10906
0.352 1.076 1.679 13998
0.355 1.085 1.682 14696
0.355 1.085 1.672 13455
0.352 1.075 1.650 11584
0.355 1.084 1.653 9468
0.363 1.111 1.681 12123
0.366 1.120 1.684 18339
0.368 1.124 1.680 16866
0.371 1.133 1.683 8994
0.361 1.105 1.636 6910
0.372 1.137 1.670 9404
0.375 1.146 1.672 15666
0.378 1.155 1.675 16930
0.379 1.159 1.671 10748
0.384 1.173 1.680 9622
0.383 1.172 1.670 18791
0.385 1.176 1.666 26476
0.386 1.181 1.663 24566
0.389 1.190 1.665 17984
0.391 1.194 1.661 11187
0.394 1.203 1.664 9828
0.397 1.212 1.666 21881
0.396 1.211 1.656 24792
0.398 1.216 1.652 18208
0.401 1.225 1.654 13414
0.404 1.234 1.657 8425
0.403 1.233 1.647 9146
0.408 1.247 1.655 25450
0.409 1.251 1.651 40341
0.412 1.260 1.653 36409
0.414 1.265 1.649 25205
0.412 1.259 1.633 17623
0.411 1.258 1.623 13519
0.406 1.241 1.596 15857
0.402 1.230 1.575 16340
0.404 1.234 1.571 12852
0.407 1.243 1.573 13019
0.408 1.247 1.569 14123
0.409 1.251 1.565 14729
0.411 1.255 1.561 18578
0.414 1.264 1.563 16549
0.442 1.351 1.650 12074
0.438 1.340 1.629 8107
0.423 1.292 1.568 9897
0.450 1.374 1.649 12104
0.425 1.299 1.560 15040
0.428 1.309 1.562 13490
0.459 1.403 1.653 15657
0.460 1.407 1.649 29219
0.462 1.411 1.644 42248
0.463 1.415 1.640 50175
0.464 1.419 1.635 54048
0.466 1.424 1.631 53683
0.465 1.422 1.621 47830
0.470 1.437 1.628 48521
0.473 1.447 1.629 57016
0.476 1.456 1.629 37744
0.483 1.477 1.641 20874
0.484 1.481 1.637 17719
0.488 1.490 1.637 14958
0.493 1.506 1.644 11484
0.479 1.466 1.596 10319
0.499 1.525 1.645 11351
0.500 1.529 1.640 12314
0.500 1.528 1.630 13785
0.501 1.532 1.625 15340
0.506 1.547 1.631 18089
0.507 1.551 1.626 20073
0.509 1.555 1.622 21886
0.508 1.554 1.611 22730
0.504 1.541 1.591 19763
0.503 1.539 1.581 17433
0.503 1.537 1.571 11731
0.527 1.610 1.628 9331
0.530 1.619 1.628 18298
0.531 1.624 1.623 23232
0.532 1.628 1.618 18510
0.536 1.637 1.618 17828
0.541 1.653 1.623 19733
0.550 1.680 1.638 15394
0.555 1.696 1.643 12947
0.556 1.700 1.638 15901
0.559 1.710 1.638 17797
0.561 1.714 1.632 13845
0.564 1.724 1.632 17105
0.567 1.734 1.632 18970
0.571 1.744 1.631 9997
0.576 1.760 1.636 7199
0.579 1.770 1.635 14787
0.582 1.780 1.634 27849
0.586 1.790 1.634 32813
0.591 1.806 1.638 32097
0.590 1.804 1.628 24953
0.592 1.808 1.622 18284
0.593 1.813 1.616 18255
0.596 1.823 1.615 19415
0.605 1.851 1.629 15666
0.617 1.885 1.647 13176
0.618 1.889 1.641 12690
0.619 1.893 1.635 13290
0.617 1.885 1.620 12841
0.616 1.883 1.609 11880
0.643 1.966 1.664 13985
0.651 1.989 1.672 15710
0.656 2.005 1.675 24274
0.657 2.010 1.668 23825
0.659 2.014 1.662 18038
0.660 2.018 1.656 14125
0.660 2.016 1.645 8917
0.661 2.020 1.639 7234
0.666 2.037 1.642 8532
0.672 2.053 1.644 12532
0.675 2.064 1.642 15153
0.678 2.074 1.640 16199
0.682 2.084 1.638 14945
0.691 2.113 1.649 15049
0.695 2.124 1.647 16854
0.694 2.122 1.636 15636
0.693 2.120 1.625 16536
0.697 2.130 1.623 14901
0.725 2.216 1.672 12789
0.726 2.220 1.666 10696
0.728 2.225 1.659 10112
0.729 2.229 1.652 9553
0.733 2.239 1.649 8734
0.744 2.275 1.663 8106
0.748 2.286 1.660 10592
0.749 2.290 1.653 11400
0.751 2.294 1.646 9791
0.748 2.286 1.631 6102
0.774 2.367 1.673 5022
0.774 2.365 1.661 6022
0.764 2.337 1.634 7028
0.766 2.341 1.627 6614
0.767 2.345 1.619 4729
0.779 2.381 1.632 3168
0.795 2.431 1.653 3083
0.799 2.442 1.649 5247
0.800 2.446 1.641 7417
0.801 2.450 1.634 8275
0.820 2.506 1.658 6924
0.826 2.524 1.658 6791
0.827 2.528 1.650 5615
0.828 2.532 1.642 4440
0.830 2.536 1.634 5593
0.829 2.534 1.622 6055
0.841 2.571 1.634 4600
0.844 2.581 1.629 4989
0.846 2.585 1.621 5406
0.847 2.590 1.613 5386
0.848 2.594 1.605 5367
0.850 2.598 1.597 3988
0.879 2.688 1.637 3012
0.883 2.699 1.632 3139
0.902 2.757 1.653 4068
0.903 2.761 1.644 6379
0.902 2.758 1.632 8824
0.904 2.762 1.624 7758
0.903 2.760 1.611 6790
0.906 2.771 1.606 4682
0.908 2.775 1.598 2672
0.909 2.779 1.589 3819
0.910 2.783 1.581 4966
0.914 2.793 1.576 5062
0.937 2.865 1.601 6401
0.939 2.869 1.592 7277
0.940 2.873 1.583 8166
0.937 2.864 1.568 5964
0.931 2.847 1.549 4431
0.933 2.851 1.540 4431
0.963 2.944 1.574 4738
0.966 2.955 1.568 5223
0.968 2.958 1.559 5531
0.969 2.962 1.550 5840
0.970 2.966 1.541 5179
0.972 2.970 1.531 4519
0.973 2.974 1.522 4519
1.031 3.150 1.592 4486
1.032 3.154 1.582 4486
1.033 3.158 1.572 2243
0.217 0.659 1.720 12037
0.220 0.666 1.725 14196
0.221 0.670 1.723 16620
0.223 0.675 1.721 15313
0.224 0.679 1.719 13504
0.226 0.684 1.717 13001
0.227 0.688 1.714 9742
0.224 0.679 1.684 6891
0.230 0.697 1.710 8270
0.231 0.701 1.708 10056
0.234 0.709 1.713 11657
0.236 0.716 1.718 13390
0.238 0.721 1.715 13452
0.238 0.721 1.706 12415
0.240 0.726 1.704 11383
0.241 0.730 1.701 10706
0.244 0.738 1.706 10261
0.246 0.746 1.711 10842
0.249 0.753 1.715 11851
0.250 0.758 1.713 11181
0.253 0.766 1.718 10563
0.253 0.766 1.708 10485
0.254 0.771 1.706 10459
0.256 0.775 1.703 9410
0.260 0.787 1.715 8856
0.259 0.784 1.699 10710
0.259 0.784 1.689 13152
0.260 0.789 1.687 13391
0.263 0.797 1.691 13688
0.263 0.797 1.682 11265
0.263 0.798 1.672 8914
0.268 0.813 1.690 10197
0.271 0.821 1.695 12017
0.274 0.829 1.699 13305
0.275 0.833 1.696 12557
0.275 0.834 1.687 11898
0.278 0.842 1.691 12850
0.279 0.846 1.688 13647
0.282 0.854 1.692 14839
0.285 0.862 1.697 14621
0.287 0.871 1.701 13303
0.289 0.875 1.698 10738
0.289 0.875 1.688 8443
0.289 0.876 1.679 8943
0.290 0.880 1.676 9732
0.292 0.884 1.673 10327
0.293 0.888 1.671 7490
0.292 0.885 1.654 3794
0.293 0.889 1.652 2987
0.304 0.921 1.695 4646
0.304 0.921 1.686 9077
0.306 0.926 1.683 11493
0.308 0.934 1.687 9973
0.310 0.938 1.684 8646
0.313 0.947 1.687 9343
0.314 0.951 1.684 9012
0.315 0.955 1.681 8988
0.317 0.959 1.678 9296
0.318 0.964 1.675 14769
0.320 0.968 1.672 25977
0.321 0.972 1.669 33619
0.324 0.981 1.673 35948
0.325 0.985 1.670 30232
0.328 0.993 1.673 20840
0.329 0.998 1.670 15436
0.331 1.002 1.667 14845
0.334 1.010 1.670 11508
0.336 1.019 1.673 13462
0.338 1.023 1.670 21278
0.341 1.032 1.673 26045
0.342 1.036 1.670 27202
0.343 1.040 1.667 25446
0.345 1.044 1.664 18067
0.346 1.049 1.660 9383
0.351 1.062 1.670 10162
0.355 1.075 1.679 12651
0.358 1.084 1.682 12480
0.358 1.084 1.672 11260
0.355 1.074 1.650 10020
0.356 1.078 1.647 8339
0.366 1.110 1.681 12182
0.369 1.119 1.684 19009
0.371 1.123 1.680 17667
0.374 1.132 1.683 9264
0.364 1.104 1.636 7830
0.372 1.127 1.657 10835
0.378 1.145 1.672 17448
0.381 1.154 1.675 19005
0.382 1.158 1.671 12705
0.387 1.172 1.680 9617
0.387 1.171 1.670 17126
0.388 1.175 1.666 24605
0.389 1.180 1.663 24192
0.391 1.184 1.659 19307
0.394 1.193 1.661 13618
0.397 1.202 1.664 12623
0.400 1.211 1.666 22167
0.401 1.215 1.662 23293
0.403 1.219 1.658 18282
0.404 1.224 1.654 14205
0.404 1.223 1.645 8548
0.405 1.227 1.641 9363
0.411 1.246 1.655 24001
0.413 1.250 1.651 37908
0.416 1.259 1.653 33331
0.417 1.264 1.649 21796
0.415 1.258 1.633 15396
0.413 1.252 1.618 11955
0.404 1.225 1.579 15402
0.406 1.229 1.575 18338
0.409 1.238 1.577 14191
0.412 1.247 1.579 14173
0.411 1.246 1.569 17770
0.413 1.250 1.565 19343
0.414 1.254 1.561 22938
0.417 1.263 1.563 20069
0.418 1.267 1.559 10906
0.423 1.281 1.566 8088
0.424 1.285 1.562 9653
0.427 1.294 1.564 11493
0.430 1.304 1.566 15831
0.432 1.308 1.562 14494
0.464 1.407 1.659 15587
0.464 1.406 1.649 29290
0.465 1.410 1.644 41966
0.467 1.414 1.640 50663
0.468 1.418 1.635 55182
0.470 1.422 1.631 57518
0.469 1.421 1.621 54631
0.472 1.430 1.622 52648
0.475 1.440 1.623 56986
0.479 1.449 1.624 36033
0.487 1.475 1.641 16988
0.487 1.474 1.631 15830
0.484 1.467 1.616 15632
0.482 1.460 1.600 12136
0.483 1.464 1.596 10796
0.503 1.524 1.645 10482
0.506 1.533 1.646 11672
0.506 1.532 1.635 11896
0.507 1.536 1.631 12808
0.510 1.546 1.631 17639
0.512 1.550 1.626 20900
0.513 1.554 1.622 24079
0.512 1.552 1.611 24845
0.510 1.545 1.596 18969
0.508 1.538 1.581 15914
0.530 1.604 1.633 10999
0.531 1.608 1.628 11673
0.534 1.618 1.628 22348
0.537 1.628 1.628 26689
0.537 1.626 1.618 20389
0.540 1.636 1.618 19967
0.543 1.646 1.618 21538
0.549 1.661 1.623 12348
0.561 1.700 1.648 11905
0.563 1.704 1.643 18187
0.564 1.709 1.638 20087
0.565 1.713 1.632 14908
0.569 1.723 1.632 16208
0.572 1.733 1.632 17173
0.575 1.743 1.631 9785
0.579 1.753 1.631 6857
0.584 1.769 1.635 13911
0.587 1.779 1.634 27409
0.590 1.789 1.634 31540
0.596 1.805 1.638 31443
0.595 1.803 1.628 26196
0.597 1.807 1.622 20038
0.598 1.811 1.616 20450
0.601 1.821 1.615 21392
0.606 1.837 1.619 16082
0.620 1.877 1.642 13785
0.621 1.881 1.636 14154
0.622 1.885 1.630 14294
0.622 1.884 1.620 14014
0.621 1.882 1.609 13451
0.649 1.965 1.664 14619
0.652 1.975 1.662 15532
0.659 1.997 1.670 22778
0.663 2.008 1.668 22538
0.662 2.006 1.658 17147
0.666 2.016 1.656 13056
0.665 2.014 1.645 8333
0.666 2.018 1.639 7728
0.670 2.029 1.637 9620
0.677 2.051 1.644 13712
0.683 2.068 1.647 16189
0.684 2.072 1.640 17112
0.685 2.076 1.634 15273
0.697 2.112 1.649 14747
0.701 2.122 1.647 16808
0.700 2.120 1.636 15521
0.699 2.118 1.625 16379
0.701 2.122 1.619 14233
0.727 2.202 1.664 11145
0.716 2.168 1.631 10551
0.719 2.178 1.629 9870
0.735 2.227 1.652 8125
0.728 2.206 1.628 7420
0.727 2.203 1.617 7425
0.754 2.284 1.660 9285
0.755 2.288 1.653 10851
0.755 2.286 1.642 9550
0.752 2.277 1.627 6602
0.755 2.288 1.624 4344
0.759 2.298 1.621 5547
0.771 2.334 1.634 8001
0.772 2.339 1.627 7985
0.773 2.343 1.619 5850
0.783 2.373 1.628 3822
0.776 2.351 1.605 3125
0.805 2.439 1.649 4907
0.807 2.444 1.641 6954
0.808 2.448 1.634 7975
0.805 2.439 1.619 6604
0.832 2.521 1.658 6295
0.834 2.525 1.650 5445
0.835 2.530 1.642 4594
0.837 2.534 1.634 5704
0.838 2.538 1.626 5980
0.850 2.575 1.637 4980
0.854 2.586 1.633 5039
0.855 2.590 1.625 5165
0.854 2.587 1.613 5204
0.856 2.591 1.605 5339
0.857 2.595 1.597 3877
0.889 2.693 1.641 3197
0.890 2.697 1.632 3532
0.909 2.754 1.653 3872
0.911 2.758 1.644 5999
0.910 2.756 1.632 8172
0.911 2.760 1.624 7335
0.910 2.757 1.611 6556
0.914 2.768 1.606 4589
0.915 2.772 1.598 2682
0.917 2.776 1.589 3814
0.918 2.780 1.581 4947
0.921 2.791 1.576 5120
0.945 2.863 1.601 6281
0.949 2.873 1.596 7193
0.948 2.871 1.583 8099
0.958 2.902 1.588 5974
0.966 2.926 1.589 4934
0.967 2.930 1.580 4934
0.971 2.941 1.574 5498
0.975 2.952 1.568 6020
0.976 2.956 1.559 6139
0.977 2.960 1.550 6258
0.978 2.964 1.541 5564
0.980 2.967 1.531 4869
0.981 2.971 1.522 4869
1.039 3.148 1.592 4614
1.040 3.151 1.582 4614
1.042 3.155 1.572 2307
0.219 0.658 1.720 11662
0.222 0.666 1.725 13210
0.223 0.670 1.723 15056
0.224 0.674 1.721 13654
0.226 0.679 1.719 11632
0.227 0.683 1.717 11014
0.228 0.684 1.707 8655
0.226 0.679 1.684 6908
0.232 0.696 1.710 8401
0.233 0.700 1.708 10508
0.236 0.708 1.713 11943
0.238 0.716 1.718 13544
0.240 0.720 1.715 13550
0.240 0.721 1.706 12340
0.241 0.725 1.704 11189
0.243 0.729 1.701 10101
0.245 0.737 1.706 9213
0.248 0.745 1.711 9829
0.251 0.753 1.715 10819
0.252 0.757 1.713 10324
0.255 0.765 1.718 9869
0.255 0.766 1.708 9915
0.256 0.770 1.706 10000
0.258 0.774 1.703 9274
0.262 0.786 1.715 8806
0.261 0.783 1.699 11446
0.261 0.784 1.689 14498
0.262 0.788 1.687 14866
0.265 0.796 1.691 15316
0.265 0.796 1.682 12273
0.265 0.797 1.672 9067
0.270 0.812 1.690 9856
0.273 0.820 1.695 11364
0.276 0.828 1.699 12661
0.277 0.833 1.696 12035
0.277 0.833 1.687 11440
0.279 0.837 1.684 11935
0.282 0.845 1.688 12146
0.284 0.854 1.692 12927
0.287 0.862 1.697 12902
0.290 0.870 1.701 12068
0.291 0.874 1.698 10159
0.291 0.875 1.688 8464
0.291 0.875 1.679 8859
0.293 0.879 1.676 9727
0.294 0.883 1.673 10434
0.296 0.888 1.671 7579
0.294 0.884 1.654 3743
0.294 0.884 1.645 3043
0.306 0.920 1.695 4668
0.307 0.921 1.686 9854
0.308 0.925 1.683 12963
0.311 0.933 1.687 11240
0.312 0.938 1.684 7988
0.315 0.946 1.687 6870
0.316 0.950 1.684 6603
0.316 0.950 1.675 9145
0.318 0.954 1.672 12000
0.321 0.963 1.675 17803
0.322 0.967 1.672 28866
0.323 0.971 1.669 35250
0.326 0.980 1.673 36804
0.328 0.984 1.670 30893
0.330 0.993 1.673 21180
0.332 0.997 1.670 15510
0.333 1.001 1.667 14766
0.335 1.005 1.664 11739
0.339 1.018 1.673 13631
0.342 1.027 1.677 20558
0.343 1.031 1.673 25121
0.343 1.031 1.664 26992
0.345 1.035 1.661 26770
0.347 1.044 1.664 21462
0.350 1.052 1.667 11819
0.355 1.066 1.676 11012
0.356 1.070 1.673 12833
0.359 1.078 1.676 11052
0.360 1.083 1.672 9365
0.356 1.069 1.644 8312
0.359 1.077 1.647 6903
0.369 1.109 1.681 11973
0.371 1.113 1.677 19194
0.374 1.122 1.680 17831
0.377 1.131 1.683 9589
0.367 1.103 1.636 8790
0.375 1.126 1.657 12501
0.381 1.144 1.672 18794
0.384 1.153 1.675 20713
0.385 1.157 1.671 14948
0.388 1.166 1.674 10397
0.390 1.170 1.670 15562
0.391 1.174 1.666 22443
0.392 1.179 1.663 23438
0.394 1.183 1.659 20461
0.397 1.192 1.661 15805
0.400 1.201 1.664 15174
0.403 1.210 1.666 22078
0.406 1.219 1.668 21945
0.406 1.218 1.658 18869
0.407 1.223 1.654 14981
0.407 1.222 1.645 9048
0.408 1.226 1.641 9506
0.415 1.245 1.655 22219
0.416 1.249 1.651 34608
0.419 1.258 1.653 29588
0.420 1.262 1.649 18082
0.417 1.251 1.627 13555
0.413 1.240 1.606 10878
0.408 1.224 1.579 15859
0.409 1.228 1.575 20182
0.412 1.237 1.577 16013
0.413 1.241 1.573 15859
0.415 1.245 1.569 21496
0.416 1.249 1.565 23671
0.417 1.253 1.561 26650
0.418 1.257 1.557 23329
0.420 1.261 1.553 12756
0.428 1.285 1.572 8710
0.429 1.289 1.568 9273
0.431 1.293 1.564 10513
0.434 1.302 1.566 15490
0.437 1.312 1.567 14746
0.468 1.406 1.659 14568
0.468 1.405 1.649 27375
0.469 1.409 1.644 40105
0.470 1.413 1.640 50088
0.472 1.417 1.635 55213
0.473 1.421 1.631 58826
0.473 1.420 1.621 57494
0.476 1.429 1.622 54781
0.479 1.439 1.623 56849
0.482 1.448 1.624 34427
0.489 1.469 1.636 14074
0.485 1.456 1.615 15128
0.488 1.466 1.616 16208
0.486 1.459 1.600 12967
0.487 1.463 1.596 10991
0.505 1.517 1.640 9600
0.510 1.532 1.646 11017
0.510 1.531 1.635 10769
0.513 1.540 1.636 11697
0.514 1.544 1.631 17496
0.517 1.554 1.632 22694
0.517 1.553 1.622 27124
0.516 1.551 1.611 26628
0.514 1.544 1.596 17906
0.512 1.536 1.581 13673
0.534 1.603 1.633 11947
0.537 1.613 1.633 14030
0.538 1.617 1.628 25766
0.542 1.626 1.628 29103
0.541 1.625 1.618 21415
0.544 1.635 1.618 21219
0.548 1.644 1.618 23567
0.549 1.649 1.613 14183
0.568 1.705 1.653 11494
0.567 1.703 1.643 20053
0.568 1.707 1.638 21742
0.570 1.711 1.632 16106
0.573 1.721 1.632 16112
0.576 1.731 1.632 16115
0.580 1.741 1.631 9310
0.585 1.757 1.636 5991
0.590 1.773 1.640 12799
0.592 1.777 1.634 25583
0.595 1.787 1.634 28812
0.600 1.803 1.638 29725
0.600 1.801 1.628 26367
0.601 1.805 1.622 20950
0.602 1.809 1.616 21810
0.606 1.819 1.615 22533
0.609 1.829 1.615 16287
0.623 1.870 1.637 14454
0.624 1.874 1.631 15762
0.625 1.878 1.626 15321
0.627 1.882 1.620 14857
0.626 1.880 1.609 14652
0.654 1.963 1.664 14674
0.655 1.967 1.658 15189
0.665 1.996 1.670 21081
0.666 2.000 1.664 20932
0.667 2.004 1.658 16065
0.671 2.015 1.656 12160
0.672 2.019 1.650 8046
0.671 2.017 1.639 8225
0.675 2.027 1.637 10568
0.682 2.050 1.644 13944
0.688 2.066 1.647 15657
0.689 2.070 1.640 16274
0.691 2.074 1.634 14117
0.702 2.110 1.649 13855
0.706 2.120 1.647 16263
0.705 2.118 1.636 14922
0.705 2.116 1.625 15725
0.708 2.126 1.623 13492
0.730 2.193 1.660 10814
0.723 2.172 1.636 11067
0.725 2.176 1.629 10380
0.730 2.193 1.631 8522
0.732 2.197 1.624 8207
0.731 2.195 1.613 8742
0.734 2.205 1.610 8096
0.759 2.280 1.649 10048
0.758 2.277 1.638 9232
0.753 2.262 1.618 7027
0.761 2.286 1.624 5009
0.765 2.296 1.621 6453
0.774 2.326 1.630 9113
0.778 2.337 1.627 9429
0.782 2.347 1.623 7072
0.787 2.364 1.624 4776
0.784 2.355 1.609 3904
0.812 2.437 1.649 4600
0.813 2.441 1.641 6395
0.812 2.439 1.630 7554
0.811 2.437 1.619 6456
0.839 2.519 1.658 5527
0.840 2.523 1.650 5058
0.842 2.528 1.642 4590
0.843 2.532 1.634 5682
0.849 2.549 1.634 6054
0.859 2.579 1.641 5497
0.860 2.584 1.633 5220
0.864 2.594 1.629 4990
0.863 2.592 1.617 5043
0.862 2.589 1.605 5215
0.863 2.593 1.597 3700
0.896 2.690 1.641 3687
0.897 2.694 1.632 4116
0.899 2.699 1.624 4545
0.918 2.756 1.644 5610
0.919 2.760 1.636 7443
0.918 2.758 1.624 6749
0.920 2.762 1.615 6103
0.921 2.766 1.606 4381
0.922 2.770 1.598 2659
0.924 2.774 1.589 3770
0.923 2.771 1.577 4895
0.926 2.782 1.572 5043
0.952 2.860 1.601 5979
0.956 2.871 1.596 6964
0.960 2.882 1.590 7941
0.968 2.906 1.591 6227
0.974 2.924 1.589 5535
0.977 2.935 1.583 5553
0.978 2.939 1.574 6236
0.980 2.943 1.565 6810
0.983 2.953 1.559 6720
0.985 2.957 1.550 6632
0.986 2.961 1.541 5798
0.987 2.965 1.531 4964
0.988 2.969 1.522 4964
1.047 3.145 1.592 4570
1.048 3.149 1.582 4570
1.050 3.153 1.572 2285
0.220 0.658 1.720 11327
0.223 0.665 1.725 12165
0.224 0.669 1.723 13351
0.226 0.674 1.721 11834
0.227 0.678 1.719 9574
0.229 0.682 1.717 8830
0.229 0.684 1.707 7949
0.230 0.685 1.698 7496
0.233 0.695 1.710 9052
0.235 0.700 1.708 11108
0.237 0.707 1.713 12309
0.240 0.715 1.718 13731
0.241 0.719 1.715 13672
0.241 0.720 1.706 12233
0.243 0.725 1.704 10942
0.244 0.729 1.701 9375
0.247 0.737 1.706 7971
0.250 0.744 1.711 8738
0.252 0.752 1.715 9804
0.254 0.757 1.713 9626
0.255 0.761 1.711 9447
0.257 0.765 1.708 9587
0.258 0.770 1.706 9726
0.259 0.774 1.703 9251
0.262 0.782 1.708 8818
0.262 0.782 1.699 12225
0.263 0.783 1.689 15890
0.264 0.787 1.687 16422
0.267 0.795 1.691 17072
0.267 0.796 1.682 13472
0.269 0.804 1.686 9391
0.271 0.808 1.683 9765
0.275 0.820 1.695 10839
0.278 0.828 1.699 12121
0.279 0.832 1.696 11483
0.280 0.836 1.694 10845
0.281 0.837 1.684 10850
0.282 0.841 1.682 10648
0.286 0.853 1.692 10845
0.289 0.861 1.697 11190
0.291 0.869 1.701 10969
0.293 0.874 1.698 9705
0.293 0.874 1.688 8618
0.293 0.874 1.679 8936
0.295 0.879 1.676 9813
0.297 0.887 1.680 10545
0.299 0.891 1.677 7712
0.296 0.883 1.654 3539
0.295 0.879 1.638 2891
0.308 0.920 1.695 4672
0.307 0.916 1.679 10704
0.308 0.920 1.676 14411
0.313 0.933 1.687 12528
0.314 0.937 1.684 7663
0.318 0.949 1.694 4952
0.318 0.950 1.684 4907
0.318 0.950 1.675 9807
0.320 0.954 1.672 14742
0.323 0.962 1.675 20736
0.324 0.966 1.672 31464
0.325 0.971 1.669 36498
0.328 0.979 1.673 37228
0.330 0.983 1.670 31199
0.333 0.992 1.673 21432
0.334 0.996 1.670 15574
0.335 1.000 1.667 14585
0.337 1.005 1.664 12211
0.341 1.017 1.673 14072
0.344 1.026 1.677 19705
0.345 1.030 1.673 23741
0.345 1.030 1.664 26389
0.347 1.034 1.661 27780
0.350 1.043 1.664 24951
0.353 1.052 1.667 15580
0.357 1.065 1.676 13370
0.358 1.069 1.673 13951
0.360 1.073 1.669 11125
0.361 1.077 1.666 8384
0.356 1.063 1.638 6935
0.361 1.077 1.647 5567
0.372 1.108 1.681 11678
0.373 1.113 1.677 18949
0.374 1.117 1.674 17619
0.377 1.126 1.677 10158
0.369 1.102 1.636 10091
0.377 1.125 1.657 14459
0.383 1.143 1.672 19960
0.386 1.152 1.675 22181
0.388 1.156 1.671 17329
0.391 1.165 1.674 11841
0.392 1.169 1.670 14321
0.392 1.169 1.660 19856
0.395 1.178 1.663 21838
0.396 1.182 1.659 20746
0.399 1.191 1.661 17257
0.402 1.200 1.664 17243
0.405 1.209 1.666 21579
0.408 1.218 1.668 21004
0.410 1.222 1.664 19645
0.411 1.227 1.660 15610
0.409 1.221 1.645 9240
0.411 1.225 1.641 9294
0.417 1.244 1.655 19986
0.418 1.248 1.651 30556
0.422 1.257 1.653 25718
0.425 1.267 1.655 14532
0.418 1.246 1.621 12033
0.414 1.234 1.600 10077
0.408 1.218 1.573 15842
0.411 1.227 1.575 21626
0.414 1.236 1.577 18257
0.416 1.240 1.573 18235
0.417 1.244 1.569 25473
0.418 1.248 1.565 27636
0.420 1.252 1.561 29556
0.421 1.256 1.557 26033
0.422 1.260 1.553 14261
0.431 1.285 1.572 8118
0.432 1.288 1.568 7834
0.433 1.292 1.564 8771
0.438 1.307 1.571 14467
0.439 1.311 1.567 14828
0.471 1.405 1.659 12708
0.471 1.404 1.649 23681
0.472 1.408 1.644 36281
0.473 1.412 1.640 47970
0.475 1.416 1.635 54329
0.476 1.420 1.631 58882
0.476 1.419 1.621 58778
0.479 1.428 1.622 55918
0.482 1.438 1.623 55599
0.485 1.447 1.624 32759
0.492 1.468 1.636 13344
0.488 1.455 1.615 14991
