1.204 2.166 1.520 8957
1.213 2.182 1.520 7106
1.238 2.228 1.539 6685
1.244 2.238 1.535 8509
1.249 2.247 1.531 8966
1.251 2.251 1.524 9541
1.232 2.217 1.494 8819
1.231 2.215 1.483 10258
1.233 2.218 1.475 8782
1.238 2.228 1.472 7342
1.240 2.231 1.464 5819
1.293 2.327 1.510 5297
1.292 2.324 1.499 4395
1.308 2.352 1.505 3586
1.299 2.337 1.487 4187
1.301 2.341 1.479 4932
1.299 2.338 1.468 4566
1.298 2.335 1.456 4393
1.317 2.369 1.466 5529
1.329 2.392 1.468 7944
1.335 2.401 1.463 8404
1.336 2.404 1.455 8845
1.338 2.408 1.447 8845
1.375 2.474 1.472 7705
1.380 2.484 1.467 7731
1.382 2.487 1.459 7437
1.384 2.490 1.450 7143
1.386 2.494 1.442 6551
1.377 2.478 1.424 6113
1.400 2.519 1.435 5829
1.405 2.529 1.430 5848
1.407 2.532 1.421 5848
1.427 2.567 1.428 5791
1.429 2.570 1.420 6260
1.430 2.573 1.411 3130
0.327 0.585 1.670 8963
0.333 0.595 1.682 9997
0.336 0.602 1.687 11812
0.340 0.609 1.692 12690
0.342 0.613 1.690 13970
0.345 0.617 1.688 13970
0.345 0.618 1.679 17255
0.346 0.618 1.669 21200
0.348 0.622 1.667 23185
0.350 0.626 1.665 25169
0.354 0.633 1.670 21781
0.358 0.640 1.675 19333
0.360 0.644 1.673 14293
0.362 0.648 1.671 9229
0.366 0.655 1.675 8854
0.368 0.659 1.673 9401
0.370 0.663 1.671 10167
0.372 0.666 1.669 8066
0.378 0.677 1.680 6069
0.377 0.674 1.664 6156
0.377 0.675 1.655 6556
0.379 0.679 1.652 6354
0.383 0.686 1.657 6212
0.385 0.690 1.655 5011
0.384 0.687 1.638 3894
0.390 0.697 1.650 5706
0.392 0.701 1.647 7470
0.396 0.708 1.652 9750
0.400 0.715 1.656 11204
0.404 0.723 1.661 10870
0.404 0.723 1.652 13276
0.406 0.727 1.649 15426
0.410 0.734 1.653 21889
0.412 0.738 1.651 28621
0.416 0.745 1.655 30444
0.419 0.749 1.653 32340
0.421 0.753 1.650 27234
0.425 0.760 1.654 17776
0.427 0.764 1.652 11771
0.429 0.768 1.649 13316
0.431 0.772 1.646 15847
0.435 0.779 1.651 16836
0.438 0.783 1.648 15715
0.440 0.787 1.645 13173
0.442 0.791 1.642 9732
0.450 0.805 1.660 7513
0.450 0.806 1.650 6867
0.450 0.806 1.641 6963
0.452 0.810 1.638 7738
0.455 0.813 1.635 8340
0.457 0.817 1.633 9655
0.459 0.821 1.630 10368
0.463 0.828 1.634 9488
0.465 0.832 1.631 12444
0.467 0.836 1.628 16278
0.469 0.840 1.625 19942
0.471 0.844 1.622 21085
0.471 0.843 1.613 19385
0.482 0.863 1.636 25626
0.489 0.874 1.646 31876
0.493 0.882 1.650 24556
0.495 0.886 1.647 15461
0.495 0.886 1.637 15711
0.497 0.889 1.634 16412
0.501 0.897 1.638 14505
0.504 0.901 1.635 12204
0.508 0.909 1.638 12812
0.508 0.909 1.628 14675
0.512 0.916 1.632 15057
0.521 0.932 1.648 13833
0.525 0.940 1.651 11998
0.528 0.944 1.648 10286
0.530 0.948 1.645 7588
0.532 0.952 1.641 10890
0.534 0.955 1.638 20469
0.538 0.963 1.641 25661
0.541 0.967 1.638 23584
0.545 0.975 1.641 23147
0.542 0.971 1.625 26057
0.542 0.970 1.615 26260
0.544 0.974 1.612 22461
0.544 0.973 1.603 23508
0.546 0.977 1.599 22972
0.550 0.985 1.602 17634
0.553 0.989 1.599 18626
0.557 0.997 1.602 22520
0.559 1.000 1.598 24208
0.559 1.000 1.589 22283
0.561 1.003 1.585 17063
0.563 1.007 1.582 9698
0.535 0.958 1.505 7694
0.567 1.014 1.575 12512
0.569 1.018 1.571 14269
0.539 0.964 1.489 12425
0.538 0.963 1.480 12670
0.540 0.966 1.476 10191
0.592 1.059 1.594 7527
0.592 1.059 1.584 7060
0.594 1.062 1.580 5057
0.555 0.993 1.481 7569
0.560 1.001 1.484 6638
0.564 1.009 1.486 7006
0.566 1.013 1.483 8370
0.609 1.090 1.574 8771
0.613 1.098 1.576 7110
0.621 1.111 1.584 6168
0.623 1.114 1.580 7413
0.625 1.118 1.577 8090
0.624 1.117 1.567 8700
0.629 1.125 1.569 10728
0.633 1.134 1.571 11373
0.638 1.142 1.573 7548
0.524 0.937 1.315 6591
0.526 0.940 1.312 9335
0.527 0.943 1.309 12600
0.529 0.946 1.305 13918
0.530 0.949 1.302 14796
0.532 0.952 1.299 14515
0.531 0.950 1.290 12092
0.535 0.958 1.292 9930
0.537 0.961 1.289 8154
0.544 0.974 1.297 7768
0.548 0.981 1.299 6031
0.556 0.994 1.307 4219
0.664 1.188 1.521 6292
0.669 1.197 1.523 10103
0.668 1.195 1.513 13670
0.673 1.204 1.515 16669
0.672 1.202 1.505 17870
0.674 1.206 1.501 16246
0.676 1.209 1.497 12710
0.658 1.177 1.455 9509
0.657 1.176 1.445 9710
0.569 1.018 1.267 7974
0.740 1.324 1.589 7810
0.572 1.024 1.260 7233
0.574 1.027 1.257 5514
0.754 1.350 1.591 4043
0.756 1.353 1.587 5340
0.758 1.357 1.582 5204
0.763 1.366 1.583 5856
0.765 1.370 1.578 5887
0.773 1.383 1.584 5266
0.599 1.072 1.259 5438
0.604 1.080 1.260 6331
0.785 1.405 1.580 3948
0.784 1.403 1.570 3780
0.629 1.125 1.285 4068
0.630 1.128 1.282 3845
0.626 1.120 1.267 4135
0.625 1.118 1.259 6101
0.623 1.115 1.250 6379
0.622 1.113 1.241 6491
0.629 1.126 1.247 8558
0.634 1.134 1.248 9970
0.638 1.143 1.250 7435
0.843 1.508 1.588 4447
0.848 1.517 1.588 5482
0.853 1.526 1.588 5427
0.861 1.541 1.592 6565
0.863 1.544 1.587 7922
0.871 1.559 1.592 9273
0.873 1.562 1.586 12511
0.875 1.566 1.581 13159
0.877 1.570 1.576 12770
0.882 1.579 1.575 15587
0.887 1.588 1.575 14061
0.889 1.592 1.570 9839
0.894 1.601 1.569 9492
0.884 1.582 1.544 7755
0.880 1.575 1.529 7433
0.891 1.595 1.538 7309
0.903 1.615 1.547 8816
0.920 1.646 1.565 10560
0.928 1.661 1.569 15538
0.933 1.670 1.568 14194
0.939 1.679 1.567 13365
0.941 1.683 1.562 20543
0.943 1.687 1.556 25827
0.948 1.696 1.555 22735
0.956 1.711 1.558 19862
0.958 1.714 1.552 21824
0.960 1.718 1.547 21517
0.962 1.721 1.541 17722
0.973 1.742 1.549 14190
0.979 1.751 1.547 12645
0.977 1.749 1.537 13516
0.976 1.747 1.526 17629
0.978 1.750 1.520 22514
0.983 1.760 1.519 27036
0.985 1.763 1.513 29432
0.990 1.772 1.511 26827
0.996 1.782 1.510 19292
1.010 1.808 1.521 17010
1.016 1.817 1.519 22610
1.018 1.821 1.513 22266
1.023 1.830 1.511 21669
1.025 1.834 1.505 19391
1.020 1.825 1.490 18586
1.025 1.835 1.488 18920
1.034 1.850 1.491 25482
1.036 1.853 1.484 30659
1.038 1.857 1.478 29364
1.043 1.866 1.476 24158
1.045 1.869 1.470 20038
1.050 1.878 1.468 19608
1.052 1.882 1.461 15995
1.087 1.944 1.495 13371
1.098 1.966 1.501 13738
1.110 1.987 1.507 15934
1.116 1.996 1.504 18487
1.124 2.012 1.505 15395
1.133 2.027 1.506 11328
1.138 2.037 1.503 8979
1.140 2.040 1.496 9103
1.142 2.044 1.490 9226
1.154 2.065 1.494 10458
1.156 2.068 1.487 11301
1.154 2.066 1.476 10624
1.210 2.166 1.531 7306
1.212 2.169 1.523 8350
1.218 2.179 1.520 6779
1.243 2.225 1.539 6172
1.249 2.235 1.535 7818
1.254 2.244 1.531 8304
1.256 2.248 1.524 8900
1.238 2.215 1.494 8331
1.236 2.212 1.483 9724
1.238 2.215 1.475 8332
1.243 2.225 1.472 7018
1.245 2.228 1.464 5714
1.299 2.324 1.510 5232
1.301 2.327 1.502 4527
1.299 2.325 1.491 3910
1.301 2.328 1.483 4528
1.306 2.338 1.479 5180
1.301 2.329 1.464 5040
1.303 2.332 1.456 5095
1.326 2.373 1.469 5939
1.335 2.388 1.468 8336
1.340 2.398 1.463 8564
1.342 2.401 1.455 8797
1.344 2.405 1.447 8797
1.381 2.471 1.472 7649
1.386 2.480 1.467 7583
1.388 2.484 1.459 7431
1.390 2.487 1.450 7280
1.388 2.484 1.439 6721
1.383 2.475 1.424 6435
1.402 2.510 1.432 5309
1.432 2.563 1.449 5189
1.434 2.567 1.440 5189
1.433 2.564 1.428 5799
1.434 2.567 1.420 6468
1.436 2.570 1.411 3234
0.327 0.582 1.662 9644
0.332 0.591 1.675 10128
0.338 0.601 1.687 11583
0.341 0.608 1.692 12536
0.344 0.612 1.690 13876
0.346 0.616 1.688 13876
0.346 0.617 1.679 17454
0.347 0.618 1.669 21679
0.349 0.622 1.667 23405
0.351 0.625 1.665 25130
0.353 0.629 1.663 21333
0.357 0.636 1.668 18414
0.361 0.643 1.673 13958
0.363 0.647 1.671 9556
0.367 0.654 1.675 9176
0.370 0.658 1.673 9813
0.370 0.659 1.664 10662
0.374 0.666 1.669 8169
0.378 0.673 1.673 5728
0.378 0.673 1.664 5895
0.379 0.674 1.655 6211
0.383 0.681 1.659 5868
0.385 0.685 1.657 5642
0.387 0.689 1.655 4441
0.391 0.696 1.659 3255
0.391 0.696 1.650 5417
0.393 0.700 1.647 7457
0.397 0.707 1.652 9825
0.401 0.715 1.656 11237
0.405 0.722 1.661 10854
0.406 0.722 1.652 13299
0.408 0.726 1.649 15565
0.412 0.733 1.653 21701
0.414 0.737 1.651 28162
0.418 0.744 1.655 29697
0.420 0.748 1.653 31361
0.422 0.752 1.650 26334
0.427 0.759 1.654 17118
0.431 0.767 1.658 11481
0.433 0.771 1.656 12797
0.435 0.774 1.653 15079
0.437 0.778 1.651 15656
0.439 0.782 1.648 14087
0.441 0.786 1.645 11439
0.444 0.790 1.642 8442
0.450 0.801 1.653 6532
0.452 0.805 1.650 5917
0.452 0.805 1.641 6584
0.454 0.809 1.638 7832
0.456 0.812 1.635 9133
0.458 0.816 1.633 12021
0.463 0.824 1.637 13703
0.465 0.827 1.634 12547
0.467 0.831 1.631 12844
0.469 0.835 1.628 14297
0.471 0.839 1.625 18360
0.473 0.842 1.622 20704
0.473 0.842 1.613 19753
0.484 0.862 1.636 26438
0.490 0.873 1.646 33487
0.493 0.877 1.643 26595
0.497 0.885 1.647 17156
0.497 0.885 1.637 18083
0.499 0.888 1.634 19076
0.503 0.896 1.638 15927
0.505 0.900 1.635 12890
0.510 0.908 1.638 13574
0.512 0.911 1.635 16085
0.514 0.915 1.632 16295
0.523 0.931 1.648 13155
0.527 0.939 1.651 10868
0.530 0.943 1.648 9604
0.532 0.947 1.645 7715
0.534 0.951 1.641 11597
0.536 0.954 1.638 21080
0.541 0.962 1.641 26194
0.543 0.966 1.638 24297
0.547 0.974 1.641 22987
0.545 0.969 1.625 24661
0.544 0.969 1.615 24990
0.544 0.968 1.606 20999
0.546 0.972 1.603 21813
0.548 0.976 1.599 21678
0.553 0.984 1.602 15245
0.557 0.992 1.605 15959
0.559 0.996 1.602 22043
0.559 0.995 1.592 25801
0.561 0.999 1.589 25162
0.563 1.002 1.585 19433
0.565 1.006 1.582 10245
0.533 0.948 1.493 7580
0.569 1.013 1.575 12777
0.571 1.017 1.571 15121
0.538 0.958 1.483 12530
0.538 0.957 1.474 13177
0.542 0.965 1.476 10661
0.597 1.063 1.600 6761
0.596 1.062 1.590 5998
0.553 0.984 1.479 5161
0.557 0.992 1.481 7823
0.562 1.000 1.484 6924
0.566 1.008 1.486 7336
0.568 1.011 1.483 8729
0.611 1.088 1.574 8456
0.616 1.096 1.576 6353
0.576 1.026 1.478 6016
0.628 1.118 1.586 6895
0.630 1.121 1.582 7299
0.627 1.116 1.567 7534
0.631 1.124 1.569 9520
0.636 1.132 1.571 10254
0.638 1.136 1.567 7214
0.526 0.936 1.315 6983
0.528 0.939 1.312 9605
0.529 0.942 1.309 12522
0.531 0.945 1.305 13782
0.533 0.948 1.302 14736
0.534 0.951 1.299 14160
0.533 0.949 1.290 11467
0.537 0.957 1.292 8887
0.542 0.965 1.295 6873
0.546 0.972 1.297 7268
0.551 0.980 1.299 6177
0.558 0.993 1.307 4632
0.557 0.991 1.298 5646
0.671 1.195 1.523 7919
0.673 1.199 1.519 11058
0.675 1.202 1.515 14656
0.674 1.201 1.505 16523
0.676 1.204 1.501 14966
0.681 1.213 1.502 11646
0.661 1.176 1.455 8357
0.572 1.019 1.276 9144
0.574 1.022 1.273 8394
0.743 1.322 1.589 7675
0.574 1.023 1.260 7074
0.576 1.025 1.257 5639
0.757 1.348 1.591 4092
0.599 1.067 1.287 4728
0.761 1.355 1.582 4736
0.766 1.364 1.583 5437
0.768 1.368 1.578 5583
0.773 1.377 1.579 5052
0.604 1.076 1.264 5058
0.606 1.079 1.260 5708
0.788 1.403 1.580 4077
0.787 1.401 1.570 3824
0.631 1.124 1.285 4422
0.630 1.121 1.276 4221
0.629 1.119 1.267 5100
0.627 1.117 1.259 7392
0.623 1.109 1.244 7679
0.624 1.112 1.241 7532
0.632 1.125 1.247 8936
0.636 1.133 1.248 9517
0.641 1.141 1.250 6771
0.846 1.506 1.588 4616
0.851 1.515 1.588 5384
0.856 1.524 1.588 5093
0.864 1.539 1.592 6014
0.866 1.542 1.587 7051
0.871 1.551 1.587 7831
0.877 1.561 1.586 10503
0.879 1.564 1.581 11176
0.884 1.573 1.581 11525
0.886 1.577 1.575 15248
0.891 1.586 1.575 14450
0.896 1.595 1.574 10242
0.898 1.599 1.569 9762
0.900 1.602 1.564 8392
0.883 1.573 1.529 7417
0.895 1.593 1.538 6084
0.909 1.619 1.552 9302
0.924 1.644 1.565 11821
0.932 1.659 1.569 16598
0.937 1.668 1.568 15165
0.942 1.677 1.567 14617
0.944 1.681 1.562 22147
0.946 1.685 1.556 27296
0.951 1.694 1.555 24200
0.960 1.709 1.558 21893
0.962 1.712 1.552 23914
0.961 1.710 1.542 24045
0.966 1.719 1.541 20198
0.977 1.740 1.549 15357
0.979 1.743 1.543 12844
0.981 1.747 1.537 13064
0.980 1.745 1.526 16886
0.982 1.748 1.520 22809
0.984 1.752 1.515 26936
0.989 1.761 1.513 28515
0.991 1.764 1.507 24693
0.999 1.779 1.510 17038
1.014 1.806 1.521 16390
1.020 1.815 1.519 21911
1.022 1.819 1.513 21046
1.027 1.828 1.511 19603
1.029 1.831 1.505 17025
1.027 1.829 1.495 15522
1.033 1.838 1.493 16411
1.038 1.847 1.491 23997
1.043 1.857 1.489 30005
1.045 1.860 1.482 28791
1.047 1.864 1.476 22762
1.052 1.873 1.474 18115
1.054 1.876 1.468 18022
1.056 1.880 1.461 14794
1.088 1.936 1.491 12726
1.103 1.963 1.501 13023
1.111 1.979 1.502 14653
1.120 1.994 1.504 16826
1.129 2.009 1.505 14349
1.137 2.025 1.506 11050
1.143 2.034 1.503 8963
1.145 2.038 1.496 9128
1.146 2.041 1.490 9293
1.162 2.068 1.498 10610
1.160 2.066 1.487 11299
1.159 2.063 1.476 10638
1.161 2.067 1.469 7213
1.217 2.167 1.523 7540
1.219 2.170 1.516 6274
1.248 2.222 1.539 5537
1.254 2.232 1.535 6996
1.259 2.242 1.531 7475
1.261 2.245 1.524 8054
1.242 2.212 1.494 7638
1.237 2.203 1.479 9016
1.243 2.213 1.475 7711
1.248 2.222 1.472 6550
1.250 2.225 1.464 5472
1.304 2.321 1.510 5313
1.306 2.325 1.502 4787
1.301 2.316 1.488 4473
1.306 2.325 1.483 4911
1.308 2.329 1.475 5388
1.306 2.326 1.464 5531
1.305 2.323 1.453 5784
1.331 2.370 1.469 6274
1.340 2.386 1.468 8550
1.345 2.395 1.463 8482
1.351 2.405 1.458 8486
1.353 2.408 1.450 8486
1.386 2.468 1.472 7159
1.388 2.471 1.464 7018
1.390 2.474 1.455 7101
1.392 2.478 1.447 7185
1.390 2.475 1.436 6733
1.388 2.472 1.424 6579
1.394 2.481 1.419 5252
1.445 2.573 1.455 5214
1.447 2.576 1.446 5214
1.442 2.567 1.431 5715
1.440 2.564 1.420 6498
1.442 2.567 1.411 3249
0.327 0.578 1.655 9959
0.334 0.591 1.675 10024
0.339 0.600 1.687 11177
0.341 0.604 1.685 12244
0.345 0.611 1.690 13638
0.347 0.615 1.688 13638
0.348 0.616 1.679 17353
0.348 0.617 1.669 21697
0.351 0.621 1.667 23177
0.353 0.625 1.665 24657
0.355 0.628 1.663 20676
0.359 0.635 1.668 17386
0.361 0.639 1.666 13735
0.363 0.643 1.663 10083
0.369 0.653 1.675 9651
0.371 0.657 1.673 10305
0.372 0.658 1.664 11208
0.375 0.665 1.669 8353
0.379 0.672 1.673 5621
0.380 0.672 1.664 5719
0.382 0.676 1.662 5872
0.384 0.680 1.659 5581
0.388 0.687 1.664 5329
0.390 0.691 1.662 4241
0.393 0.695 1.659 3154
0.393 0.695 1.650 5360
0.395 0.699 1.647 7534
0.399 0.706 1.652 9876
0.403 0.714 1.656 11160
0.407 0.721 1.661 10672
0.407 0.721 1.652 13036
0.410 0.725 1.649 15344
0.414 0.732 1.653 21152
0.416 0.736 1.651 27326
0.420 0.743 1.655 28629
0.422 0.747 1.653 30127
0.424 0.751 1.650 25252
0.428 0.758 1.654 16470
0.435 0.769 1.665 11427
0.435 0.770 1.656 12217
0.437 0.773 1.653 13858
0.439 0.777 1.651 13805
0.441 0.781 1.648 11762
0.443 0.785 1.645 9180
0.445 0.789 1.642 6833
0.452 0.800 1.653 5480
0.452 0.800 1.644 5105
0.454 0.804 1.641 6617
0.456 0.807 1.638 8424
0.458 0.811 1.635 10378
0.460 0.815 1.633 14585
0.465 0.823 1.637 17011
0.467 0.826 1.634 15793
0.469 0.830 1.631 13629
0.471 0.834 1.628 12683
0.473 0.838 1.625 16933
0.475 0.841 1.622 20201
0.475 0.841 1.613 19889
0.486 0.860 1.636 26628
0.490 0.868 1.640 34097
0.495 0.876 1.643 27763
0.497 0.880 1.640 18147
0.499 0.883 1.637 19797
0.501 0.887 1.634 21345
0.505 0.895 1.638 17199
0.508 0.899 1.635 13342
0.510 0.902 1.632 14077
0.514 0.910 1.635 16970
0.516 0.914 1.632 16849
0.523 0.926 1.641 12298
0.530 0.938 1.651 9675
0.532 0.942 1.648 8955
0.532 0.941 1.638 7857
0.536 0.949 1.641 12136
0.538 0.953 1.638 21388
0.543 0.961 1.641 26400
0.545 0.965 1.638 24585
0.549 0.973 1.641 22199
0.549 0.972 1.631 22660
0.549 0.972 1.622 22814
0.549 0.971 1.612 18611
0.548 0.971 1.603 19333
0.550 0.975 1.599 19935
0.553 0.978 1.596 13293
0.559 0.990 1.605 13629
0.559 0.990 1.595 21306
0.561 0.994 1.592 26633
0.563 0.997 1.589 27267
0.565 1.001 1.585 21578
0.565 1.000 1.576 11175
0.532 0.942 1.487 7856
0.572 1.012 1.575 13513
0.574 1.015 1.571 15867
0.541 0.957 1.483 12133
0.540 0.956 1.474 13246
0.544 0.964 1.476 10729
0.549 0.972 1.479 6417
0.601 1.065 1.596 5429
0.555 0.983 1.479 5395
0.560 0.991 1.481 7660
0.564 0.999 1.484 6942
0.569 1.007 1.486 7397
0.571 1.010 1.483 8788
0.614 1.087 1.574 7802
0.577 1.021 1.482 6518
0.579 1.025 1.478 6174
0.630 1.116 1.586 6492
0.632 1.120 1.582 6438
0.632 1.119 1.573 6203
0.634 1.122 1.569 7878
0.639 1.131 1.571 8913
0.532 0.941 1.330 7378
0.531 0.940 1.321 7276
0.530 0.938 1.312 9601
0.531 0.941 1.309 11839
0.533 0.944 1.305 12836
0.535 0.947 1.302 13924
0.536 0.950 1.299 13238
0.535 0.948 1.290 10311
0.540 0.956 1.292 7499
0.544 0.963 1.295 5603
0.549 0.971 1.297 6471
0.553 0.979 1.299 6092
0.670 1.187 1.531 4839
0.562 0.994 1.304 5615
0.677 1.198 1.528 5688
0.676 1.197 1.519 7717
0.678 1.201 1.515 11715
0.677 1.199 1.505 14328
0.679 1.202 1.501 12877
0.684 1.211 1.502 10038
0.661 1.169 1.449 7241
0.575 1.018 1.276 9087
0.576 1.021 1.273 8785
0.746 1.320 1.589 7595
0.577 1.021 1.260 6546
0.581 1.029 1.262 5573
0.758 1.341 1.586 5541
0.763 1.350 1.587 4913
0.765 1.354 1.582 4685
0.770 1.362 1.583 5309
0.772 1.366 1.578 5471
0.777 1.375 1.579 4941
0.610 1.080 1.269 4688
0.609 1.077 1.260 5007
0.791 1.401 1.580 4027
0.788 1.394 1.565 3867
0.631 1.117 1.280 4801
0.630 1.115 1.271 4805
0.628 1.112 1.262 6088
0.627 1.110 1.253 8556
0.625 1.107 1.244 8876
0.627 1.110 1.241 8273
0.635 1.123 1.247 8788
0.639 1.132 1.248 8604
0.644 1.140 1.250 6010
0.850 1.504 1.588 4797
0.852 1.508 1.583 5508
0.857 1.517 1.583 4844
0.868 1.537 1.592 5323
0.670 1.186 1.260 6806
0.671 1.189 1.256 6551
0.880 1.558 1.586 8629
0.882 1.562 1.581 9507
0.887 1.571 1.581 10364
0.890 1.575 1.575 14343
0.895 1.584 1.575 14356
0.900 1.593 1.574 10374
0.905 1.602 1.574 9665
0.907 1.606 1.568 9715
0.887 1.571 1.529 8213
0.920 1.629 1.572 6807
0.916 1.622 1.557 11173
0.924 1.637 1.561 13363
0.933 1.651 1.564 17161
0.938 1.660 1.564 15613
0.946 1.675 1.567 15623
0.948 1.679 1.562 23463
0.950 1.682 1.556 28009
0.955 1.691 1.555 24736
0.964 1.706 1.558 22875
0.966 1.710 1.552 24893
0.965 1.708 1.542 25296
0.973 1.723 1.545 21816
0.978 1.732 1.544 16764
0.980 1.735 1.538 13819
0.982 1.739 1.532 12849
0.984 1.742 1.526 15633
0.986 1.746 1.520 22498
0.988 1.749 1.515 26267
0.990 1.753 1.509 26712
0.995 1.762 1.507 21888
1.004 1.777 1.510 14014
1.019 1.803 1.521 15458
1.024 1.813 1.519 20644
1.026 1.816 1.513 19338
1.031 1.825 1.511 17242
1.033 1.829 1.505 14794
1.035 1.832 1.499 13172
1.040 1.842 1.497 14484
1.045 1.851 1.495 23011
1.047 1.854 1.489 29516
1.049 1.858 1.482 28206
1.055 1.867 1.480 21659
1.056 1.870 1.474 16252
1.062 1.880 1.472 16393
1.060 1.877 1.461 13159
1.092 1.934 1.491 11656
1.108 1.961 1.501 12005
1.116 1.976 1.502 12975
1.125 1.991 1.504 14533
1.137 2.013 1.509 12968
1.142 2.022 1.506 10591
1.147 2.031 1.503 8839
1.149 2.035 1.496 9005
1.155 2.044 1.493 9204
1.167 2.066 1.498 10764
1.165 2.063 1.487 11310
1.164 2.060 1.476 10569
1.166 2.064 1.469 7150
1.226 2.170 1.527 6445
1.224 2.167 1.516 5633
1.213 2.147 1.494 5012
1.211 2.144 1.483 6349
1.206 2.135 1.468 7488
1.208 2.138 1.461 7394
1.248 2.209 1.494 6753
1.243 2.200 1.479 8180
1.248 2.210 1.475 6940
1.253 2.219 1.472 5977
1.255 2.222 1.464 5142
1.309 2.318 1.510 5472
1.308 2.315 1.499 5162
1.306 2.313 1.488 5076
1.308 2.316 1.480 5328
1.310 2.319 1.472 5579
1.312 2.323 1.464 5939
1.310 2.320 1.453 6411
1.337 2.367 1.469 6555
1.346 2.382 1.468 8680
1.351 2.392 1.463 8279
1.357 2.401 1.458 7994
1.358 2.405 1.450 7994
1.392 2.464 1.472 6323
1.394 2.468 1.464 6110
1.396 2.471 1.455 6459
1.398 2.474 1.447 6808
1.396 2.471 1.436 6616
1.394 2.468 1.424 6600
1.400 2.478 1.419 5245
1.455 2.576 1.458 5318
1.457 2.579 1.450 5318
1.448 2.563 1.431 5584
1.446 2.560 1.420 6474
1.448 2.563 1.411 3237
0.327 0.578 1.655 10348
0.334 0.590 1.675 9947
0.340 0.600 1.687 10872
0.342 0.604 1.685 12144
0.346 0.611 1.690 13640
0.348 0.614 1.688 13640
0.349 0.615 1.679 17226
0.349 0.616 1.669 21356
0.351 0.620 1.667 22480
0.352 0.621 1.658 23699
0.356 0.628 1.663 19571
0.360 0.635 1.668 16012
0.362 0.639 1.666 13432
0.364 0.642 1.663 10852
0.368 0.649 1.668 10239
0.372 0.656 1.673 10729
0.372 0.657 1.664 11646
0.376 0.664 1.669 8520
0.380 0.671 1.673 5628
0.383 0.675 1.671 5901
0.383 0.676 1.662 6246
0.387 0.683 1.666 6072
0.389 0.687 1.664 5969
0.391 0.690 1.662 4889
0.395 0.698 1.666 3822
0.396 0.698 1.657 5716
0.398 0.702 1.654 7624
0.400 0.706 1.652 9881
0.404 0.713 1.656 11010
0.408 0.720 1.661 10422
0.408 0.721 1.652 12747
0.411 0.724 1.649 15091
0.415 0.732 1.653 20642
0.417 0.735 1.651 26582
0.421 0.743 1.655 27692
0.423 0.747 1.653 29054
0.425 0.750 1.650 24370
0.429 0.758 1.654 16041
0.436 0.769 1.665 11706
0.438 0.772 1.663 11762
0.438 0.773 1.653 12582
0.440 0.777 1.651 11923
0.442 0.780 1.648 9456
0.444 0.784 1.645 6979
0.447 0.788 1.642 5187
0.453 0.799 1.653 4381
0.453 0.799 1.644 4433
0.455 0.803 1.641 6909
0.457 0.807 1.638 9265
0.459 0.811 1.635 11738
0.462 0.814 1.633 16975
0.466 0.822 1.637 19978
0.468 0.826 1.634 18869
0.470 0.829 1.631 14740
0.472 0.833 1.628 11721
0.474 0.837 1.625 15949
0.476 0.841 1.622 19890
0.479 0.844 1.619 20380
0.487 0.860 1.636 26661
0.492 0.867 1.640 34422
0.496 0.875 1.643 28329
0.498 0.879 1.640 18701
0.500 0.883 1.637 20826
0.502 0.886 1.634 22996
0.507 0.894 1.638 18261
0.509 0.898 1.635 13741
0.511 0.902 1.632 14505
0.515 0.909 1.635 17608
0.518 0.913 1.632 17059
0.524 0.925 1.641 11441
0.531 0.937 1.651 8619
0.531 0.937 1.641 8535
0.533 0.941 1.638 8075
0.538 0.948 1.641 12501
0.540 0.952 1.638 21251
0.544 0.960 1.641 26066
0.546 0.964 1.638 24353
0.551 0.972 1.641 20819
0.551 0.972 1.631 19858
0.550 0.971 1.622 19724
0.550 0.971 1.612 15696
0.550 0.970 1.603 16503
0.552 0.974 1.599 17750
0.552 0.973 1.590 11745
0.558 0.985 1.599 11654
0.561 0.989 1.595 20292
0.563 0.993 1.592 26918
0.565 0.996 1.589 28736
0.567 1.000 1.585 23383
0.566 0.999 1.576 12420
0.534 0.942 1.487 8065
0.570 1.007 1.569 15033
0.575 1.015 1.571 16431
0.542 0.956 1.483 11226
0.541 0.955 1.474 12809
0.546 0.963 1.476 10560
0.550 0.971 1.479 6214
0.603 1.064 1.596 4950
0.554 0.978 1.473 5492
0.559 0.985 1.475 7184
0.563 0.993 1.478 6620
0.570 1.006 1.486 7098
0.569 1.005 1.477 8597
0.574 1.013 1.479 7285
0.578 1.021 1.482 6608
0.578 1.019 1.472 6116
0.530 0.935 1.357 7139
0.529 0.933 1.348 6686
0.531 0.936 1.345 5249
0.636 1.121 1.569 6367
0.640 1.130 1.571 7778
0.533 0.941 1.330 7443
0.532 0.939 1.321 7158
0.531 0.937 1.312 9033
0.533 0.940 1.309 10448
0.535 0.943 1.305 11273
0.536 0.946 1.302 12576
0.538 0.949 1.299 11812
0.537 0.947 1.290 8813
0.541 0.955 1.292 5953
0.546 0.963 1.295 4367
0.550 0.970 1.297 5557
0.554 0.978 1.299 5464
0.672 1.186 1.531 5119
0.704 1.243 1.588 5548
0.568 1.001 1.306 5099
0.683 1.206 1.530 4711
0.680 1.200 1.515 8578
0.679 1.198 1.505 11730
0.681 1.201 1.501 10446
0.686 1.210 1.502 8043
0.662 1.168 1.449 6692
0.576 1.017 1.276 8653
0.578 1.020 1.273 8851
0.748 1.319 1.589 7717
0.750 1.323 1.584 6372
0.755 1.331 1.585 6401
0.760 1.340 1.586 7483
0.764 1.349 1.587 6038
0.769 1.358 1.587 5143
0.771 1.361 1.583 5437
0.774 1.365 1.578 5482
0.779 1.374 1.579 4934
0.611 1.079 1.269 4382
0.613 1.082 1.265 4328
0.793 1.400 1.580 3729
0.631 1.113 1.284 3744
0.633 1.116 1.280 5213
0.628 1.108 1.266 5442
0.627 1.106 1.257 6925
0.628 1.109 1.253 9476
0.630 1.112 1.250 9714
0.632 1.114 1.246 8736
0.633 1.117 1.242 8553
0.638 1.125 1.243 7618
0.645 1.139 1.250 4991
0.852 1.503 1.588 4877
0.854 1.507 1.583 5683
0.656 1.158 1.248 5085
0.664 1.171 1.254 5685
0.671 1.185 1.260 7517
0.673 1.188 1.256 7114
0.879 1.552 1.582 7078
0.888 1.566 1.586 8216
0.890 1.570 1.581 9151
0.892 1.573 1.575 12907
0.900 1.588 1.580 13904
0.902 1.592 1.574 10477
0.907 1.601 1.574 9780
0.909 1.604 1.568 11248
0.893 1.575 1.534 9706
0.926 1.634 1.576 10368
0.922 1.626 1.561 13915
0.927 1.635 1.561 15147
0.935 1.650 1.564 17133
0.940 1.659 1.564 15364
0.949 1.674 1.567 16263
0.951 1.677 1.562 24318
0.953 1.681 1.556 27845
0.958 1.690 1.555 24240
0.966 1.705 1.558 22588
0.968 1.708 1.552 24578
0.967 1.706 1.542 25127
0.975 1.721 1.545 22517
0.981 1.730 1.544 18228
0.983 1.734 1.538 15599
0.981 1.732 1.528 12976
0.987 1.741 1.526 14351
0.989 1.744 1.520 21786
0.991 1.748 1.515 24969
0.993 1.751 1.509 24658
0.995 1.755 1.503 19035
1.006 1.776 1.510 10655
1.021 1.802 1.521 14314
1.027 1.811 1.519 18941
1.029 1.815 1.513 17259
1.034 1.824 1.511 14752
1.039 1.833 1.509 12933
1.038 1.831 1.499 11744
1.046 1.846 1.501 13297
1.051 1.855 1.499 22249
1.053 1.859 1.493 29039
1.055 1.862 1.486 28058
1.057 1.865 1.480 20955
1.062 1.875 1.478 14909
1.064 1.878 1.472 15035
1.066 1.881 1.465 11551
1.095 1.932 1.491 10371
1.107 1.953 1.497 10687
1.116 1.968 1.498 10948
1.128 1.990 1.504 11884
1.140 2.011 1.509 11498
1.148 2.026 1.510 10086
1.150 2.030 1.503 8723
1.156 2.039 1.500 8844
1.168 2.061 1.505 9203
1.173 2.070 1.502 10927
1.168 2.061 1.487 11160
1.167 2.059 1.476 10374
1.169 2.062 1.469 7002
1.229 2.168 1.527 5373
1.227 2.166 1.516 4996
1.216 2.145 1.494 5797
1.214 2.142 1.483 6845
1.213 2.139 1.472 7997
1.211 2.137 1.461 8011
1.216 2.146 1.457 6634
1.242 2.192 1.476 7253
1.251 2.208 1.475 6048
1.257 2.217 1.472 5326
1.259 2.221 1.464 4744
1.309 2.310 1.507 5612
1.308 2.307 1.495 5522
1.306 2.304 1.484 5566
1.311 2.314 1.480 5690
1.313 2.317 1.472 5815
1.312 2.315 1.461 6386
1.310 2.312 1.449 6988
1.340 2.365 1.469 6788
1.346 2.374 1.464 8762
1.355 2.390 1.463 7978
1.360 2.400 1.458 7373
1.362 2.403 1.450 7373
1.392 2.456 1.469 5319
1.397 2.466 1.464 4984
1.399 2.469 1.455 5634
1.401 2.472 1.447 6284
1.400 2.469 1.436 6398
1.398 2.466 1.424 6566
1.403 2.476 1.419 5204
1.462 2.580 1.461 5308
1.464 2.583 1.453 5308
1.455 2.568 1.434 5389
1.450 2.558 1.420 6264
1.452 2.561 1.411 3132
0.329 0.577 1.655 10933
0.336 0.589 1.675 10116
0.342 0.599 1.687 10894
0.344 0.603 1.685 12396
0.348 0.609 1.690 13996
0.350 0.613 1.688 13996
0.351 0.614 1.679 17190
0.351 0.615 1.669 20756
0.353 0.619 1.667 21476
0.354 0.620 1.658 22460
0.358 0.627 1.663 18237
0.362 0.634 1.668 14539
0.364 0.638 1.666 13086
0.366 0.641 1.663 11633
0.370 0.648 1.668 10835
0.372 0.652 1.666 11108
0.374 0.656 1.664 11918
0.378 0.663 1.669 8588
0.382 0.670 1.673 5619
0.385 0.674 1.671 6150
0.387 0.678 1.669 6681
0.389 0.682 1.666 6831
0.391 0.685 1.664 6981
0.393 0.689 1.662 5918
0.398 0.696 1.666 4917
0.398 0.697 1.657 6280
0.400 0.701 1.654 7706
0.402 0.705 1.652 9824
0.406 0.712 1.656 10809
0.410 0.719 1.661 10185
0.411 0.719 1.652 12620
0.413 0.723 1.649 15079
0.417 0.730 1.653 20360
0.419 0.734 1.651 26048
0.421 0.738 1.648 27003
0.425 0.745 1.653 28142
0.428 0.749 1.650 23633
0.432 0.756 1.654 15709
0.438 0.767 1.665 11955
0.440 0.771 1.663 11516
0.442 0.775 1.660 11692
0.445 0.779 1.657 10209
0.447 0.783 1.655 7211
0.449 0.786 1.652 4862
0.451 0.790 1.649 3619
0.457 0.801 1.660 3402
0.455 0.798 1.644 3904
0.458 0.802 1.641 7433
0.460 0.805 1.638 10270
0.462 0.809 1.635 13177
0.464 0.813 1.633 19202
0.468 0.820 1.637 22646
0.470 0.824 1.634 21685
0.473 0.828 1.631 16008
0.475 0.832 1.628 11292
0.477 0.835 1.625 15190
0.479 0.839 1.622 19517
0.481 0.843 1.619 20879
0.490 0.858 1.636 26449
0.494 0.866 1.640 34180
0.496 0.870 1.637 28434
0.501 0.877 1.640 18912
0.503 0.881 1.637 21242
0.505 0.885 1.634 23886
0.507 0.889 1.631 19056
0.512 0.896 1.635 14176
0.514 0.900 1.632 14945
0.518 0.908 1.635 18004
0.520 0.912 1.632 16815
0.527 0.924 1.641 10538
0.532 0.931 1.645 7745
0.534 0.935 1.641 8205
0.536 0.939 1.638 8272
0.540 0.947 1.641 12558
0.543 0.951 1.638 20510
0.547 0.958 1.641 24911
0.549 0.962 1.638 23449
0.554 0.970 1.641 19097
0.556 0.974 1.638 16948
0.553 0.969 1.622 16235
0.553 0.969 1.612 12594
0.553 0.968 1.603 13495
0.552 0.968 1.593 15307
0.552 0.967 1.583 10609
0.559 0.979 1.593 10343
0.564 0.987 1.595 19119
0.566 0.991 1.592 26628
0.568 0.995 1.589 29528
0.570 0.998 1.585 24753
0.569 0.998 1.576 13921
0.567 0.992 1.560 10223
0.571 1.000 1.563 17254
0.578 1.013 1.571 17155
0.545 0.955 1.483 9978
0.544 0.953 1.474 11999
0.549 0.961 1.476 10070
0.581 1.018 1.545 7191
0.540 0.946 1.440 5514
0.534 0.935 1.419 6028
0.562 0.984 1.475 6379
0.566 0.992 1.478 5963
0.532 0.931 1.391 7320
0.572 1.003 1.477 8267
0.577 1.011 1.479 7118
0.582 1.019 1.482 6395
0.534 0.935 1.367 6909
0.533 0.933 1.357 8327
0.532 0.932 1.348 7518
0.534 0.935 1.345 5722
0.535 0.938 1.342 6615
0.537 0.941 1.339 7923
0.536 0.939 1.330 7220
0.535 0.937 1.321 6875
0.537 0.940 1.318 8063
0.536 0.939 1.309 8551
0.537 0.941 1.305 9188
0.539 0.944 1.302 10594
0.543 0.952 1.305 10037
0.542 0.950 1.296 7084
0.689 1.208 1.592 4562
0.565 0.990 1.329 3835
0.556 0.973 1.303 4714
0.557 0.976 1.299 4503
0.676 1.184 1.531 4663
0.711 1.246 1.594 6051
0.573 1.005 1.312 5604
0.575 1.008 1.308 5365
0.577 1.011 1.305 8032
0.683 1.196 1.505 8978
0.685 1.199 1.501 7953
0.667 1.168 1.459 6065
0.666 1.166 1.449 6621
0.579 1.015 1.276 8004
0.581 1.018 1.273 8601
0.749 1.312 1.583 8319
0.754 1.320 1.584 6907
0.759 1.329 1.585 7478
0.764 1.338 1.586 9273
0.769 1.346 1.587 7198
0.774 1.355 1.587 5845
0.776 1.359 1.583 5569
0.781 1.368 1.584 5388
0.783 1.371 1.579 4809
0.615 1.077 1.269 3958
0.619 1.085 1.271 3582
0.798 1.398 1.580 3222
0.634 1.111 1.284 4032
0.636 1.114 1.280 5592
0.632 1.107 1.266 5991
0.630 1.104 1.257 7540
0.632 1.107 1.253 10111
0.633 1.110 1.250 10480
0.635 1.113 1.246 9290
0.637 1.115 1.242 8518
0.641 1.123 1.243 6570
0.652 1.142 1.255 3877
0.856 1.500 1.588 4805
0.859 1.504 1.583 5781
0.660 1.156 1.248 5446
0.664 1.164 1.249 6178
0.675 1.183 1.260 8024
0.674 1.180 1.251 7602
0.884 1.549 1.582 5999
0.892 1.563 1.586 7230
0.895 1.567 1.581 7815
0.900 1.576 1.580 11090
0.905 1.585 1.580 13174
0.907 1.589 1.574 10725
0.912 1.598 1.574 10226
0.914 1.602 1.568 12573
0.901 1.578 1.539 11380
0.931 1.631 1.576 14040
0.930 1.629 1.566 17178
0.932 1.632 1.561 16925
0.937 1.641 1.560 16596
0.942 1.651 1.559 14829
0.951 1.665 1.563 16862
0.956 1.674 1.562 24629
0.958 1.678 1.556 26790
0.963 1.687 1.555 22808
0.971 1.702 1.558 21047
0.970 1.700 1.548 23195
0.972 1.703 1.542 23641
0.981 1.718 1.545 22422
0.983 1.722 1.539 19679
0.985 1.725 1.534 18000
0.987 1.729 1.528 13997
0.989 1.732 1.522 13581
0.994 1.741 1.520 20685
0.993 1.739 1.510 23153
0.995 1.743 1.504 22125
0.997 1.746 1.498 16718
1.002 1.755 1.497 7929
1.027 1.799 1.521 13110
1.029 1.802 1.515 17049
1.034 1.812 1.513 14984
1.039 1.821 1.511 12260
1.045 1.830 1.509 11481
1.047 1.833 1.503 11041
1.055 1.849 1.505 12827
1.057 1.852 1.499 21963
1.059 1.855 1.493 28893
1.061 1.859 1.486 28063
1.063 1.862 1.480 20574
1.068 1.871 1.478 14081
1.077 1.887 1.480 14088
1.092 1.913 1.490 10849
1.098 1.923 1.487 9197
1.110 1.944 1.493 9175
1.118 1.959 1.494 8804
1.144 2.004 1.516 9186
1.149 2.013 1.513 9961
1.155 2.023 1.510 9690
1.157 2.026 1.503 8689
1.162 2.036 1.500 8629
1.178 2.063 1.509 9509
1.180 2.066 1.502 11129
1.175 2.058 1.487 10910
1.173 2.055 1.476 10020
1.175 2.059 1.469 6800
1.232 2.158 1.523 4465
1.224 2.144 1.505 5090
1.222 2.141 1.494 6382
1.221 2.138 1.483 7012
1.219 2.136 1.472 8181
1.218 2.133 1.461 8346
1.223 2.142 1.457 6919
1.246 2.182 1.472 6455
1.255 2.198 1.472 5081
1.263 2.213 1.472 4570
1.269 2.223 1.468 4283
1.316 2.306 1.507 5718
1.315 2.303 1.495 5786
1.313 2.300 1.484 5958
1.315 2.304 1.476 6018
1.317 2.307 1.468 6077
1.319 2.311 1.461 6794
1.317 2.308 1.449 7582
1.347 2.361 1.469 7016
1.353 2.370 1.464 8848
1.362 2.386 1.463 7640
1.367 2.395 1.458 6667
1.369 2.399 1.450 6667
1.392 2.439 1.462 4350
1.405 2.461 1.464 3689
1.403 2.458 1.452 4680
1.405 2.462 1.444 5698
1.407 2.465 1.436 6085
1.409 2.468 1.427 6471
1.411 2.472 1.419 5114
1.470 2.575 1.461 5241
1.472 2.579 1.453 5241
1.467 2.569 1.438 5078
1.458 2.554 1.420 5779
1.460 2.557 1.411 2889
0.330 0.576 1.655 10434
0.337 0.589 1.675 9571
0.343 0.598 1.687 10220
0.345 0.602 1.685 12397
0.347 0.606 1.683 14575
0.349 0.610 1.681 14575
0.352 0.614 1.679 17398
0.352 0.615 1.669 20455
0.353 0.616 1.660 20685
0.355 0.619 1.658 21292
0.359 0.626 1.663 16965
0.363 0.633 1.668 13114
0.363 0.634 1.659 12630
0.365 0.638 1.656 12212
0.369 0.645 1.661 11217
0.373 0.652 1.666 11193
0.375 0.655 1.664 11764
0.379 0.662 1.669 8533
0.385 0.673 1.680 5794
0.386 0.673 1.671 6426
0.388 0.677 1.669 7079
0.390 0.681 1.666 7481
0.392 0.685 1.664 7884
0.395 0.689 1.662 6872
0.399 0.696 1.666 5968
0.399 0.696 1.657 6769
0.401 0.700 1.654 7677
0.403 0.704 1.652 9521
0.409 0.714 1.663 10289
0.413 0.722 1.668 9660
0.412 0.719 1.652 12375
0.414 0.723 1.649 15147
0.418 0.730 1.653 20129
0.420 0.734 1.651 25558
0.422 0.737 1.648 26382
0.427 0.745 1.653 27274
0.429 0.748 1.650 22905
0.435 0.759 1.661 15485
0.439 0.767 1.665 12067
0.441 0.770 1.663 11213
0.444 0.774 1.660 10899
0.446 0.778 1.657 8722
0.448 0.782 1.655 5217
0.452 0.789 1.659 3393
0.456 0.797 1.663 2628
0.463 0.808 1.673 2721
0.457 0.797 1.644 3345
0.459 0.801 1.641 7688
0.461 0.805 1.638 10843
0.463 0.808 1.635 14155
0.465 0.812 1.633 20869
0.470 0.820 1.637 24722
0.472 0.823 1.634 23950
0.474 0.827 1.631 17353
0.476 0.831 1.628 11529
0.478 0.835 1.625 14665
0.480 0.838 1.622 18855
0.482 0.842 1.619 20984
0.491 0.857 1.636 25819
0.496 0.865 1.640 33082
0.498 0.869 1.637 28164
0.502 0.877 1.640 18782
0.504 0.880 1.637 21388
0.506 0.884 1.634 24339
0.509 0.888 1.631 19390
0.511 0.892 1.628 14151
0.515 0.899 1.632 14910
0.520 0.907 1.635 17768
0.522 0.911 1.632 15892
0.526 0.919 1.635 9605
0.533 0.931 1.645 7108
0.535 0.934 1.641 7922
0.537 0.938 1.638 8764
0.542 0.946 1.641 12927
0.544 0.950 1.638 19596
0.549 0.958 1.641 23228
0.551 0.961 1.638 22221
0.555 0.969 1.641 17312
0.557 0.973 1.638 14145
0.560 0.977 1.634 12902
0.557 0.972 1.618 9888
0.557 0.972 1.609 11010
0.554 0.967 1.593 12994
0.551 0.962 1.577 10588
0.558 0.974 1.586 10321
0.565 0.986 1.595 18471
0.565 0.986 1.586 26558
0.567 0.989 1.582 29476
0.571 0.997 1.585 25348
0.571 0.997 1.576 15311
0.568 0.992 1.560 12922
0.573 1.000 1.563 20184
0.577 1.008 1.565 18349
0.582 1.016 1.568 9271
0.546 0.953 1.474 10670
0.583 1.018 1.555 9896
0.585 1.022 1.551 10290
0.585 1.021 1.542 6791
0.535 0.935 1.419 7744
0.535 0.933 1.409 5916
0.531 0.927 1.394 6669
0.533 0.931 1.391 8252
0.574 1.002 1.477 7991
0.537 0.937 1.385 7134
0.536 0.935 1.376 6334
0.535 0.934 1.367 7234
0.534 0.932 1.357 9030
0.533 0.931 1.348 8148
0.535 0.934 1.345 6061
0.537 0.937 1.342 6928
0.538 0.940 1.339 7819
0.537 0.938 1.330 6684
0.539 0.941 1.327 6682
0.538 0.939 1.318 7301
0.537 0.938 1.309 6581
0.539 0.941 1.305 6982
0.543 0.948 1.308 8431
0.550 0.961 1.316 8529
0.569 0.992 1.347 5729
0.691 1.207 1.592 3882
0.566 0.989 1.329 3941
0.563 0.982 1.314 4284
0.678 1.184 1.541 3987
0.711 1.241 1.598 4761
0.713 1.244 1.594 6329
0.575 1.004 1.312 6142
0.574 1.002 1.303 6553
0.578 1.010 1.305 9096
0.580 1.013 1.301 7322
0.661 1.154 1.452 6409
0.663 1.157 1.448 6819
0.668 1.165 1.449 6775
0.581 1.014 1.276 6907
0.585 1.022 1.278 7693
0.751 1.311 1.583 8980
0.756 1.319 1.584 7371
0.761 1.328 1.585 8313
0.766 1.337 1.586 10568
0.771 1.345 1.587 8031
0.776 1.354 1.587 6124
0.778 1.358 1.583 5365
0.783 1.366 1.584 5230
0.785 1.370 1.579 4764
0.784 1.369 1.569 3618
0.624 1.089 1.276 3045
0.634 1.107 1.288 2978
0.639 1.115 1.289 4185
0.638 1.113 1.280 5912
0.633 1.106 1.266 6312
0.632 1.103 1.257 7858
0.634 1.106 1.253 10475
0.635 1.109 1.250 11100
0.637 1.112 1.246 9667
0.638 1.114 1.242 8126
0.643 1.122 1.243 5226
0.660 1.152 1.265 3001
0.859 1.499 1.588 4592
0.858 1.497 1.578 5814
0.661 1.155 1.248 5734
0.666 1.163 1.249 6448
0.674 1.176 1.255 8019
0.675 1.179 1.251 7599
0.884 1.542 1.577 5418
0.895 1.562 1.586 6487
0.897 1.566 1.581 6342
0.902 1.575 1.580 8952
0.907 1.584 1.580 12111
0.909 1.587 1.574 10868
0.915 1.597 1.574 10801
0.917 1.600 1.568 13605
0.922 1.609 1.568 12895
0.933 1.629 1.576 17240
0.932 1.627 1.566 20229
0.934 1.631 1.561 18611
0.936 1.635 1.555 16034
0.942 1.644 1.554 14500
0.953 1.664 1.563 18052
0.958 1.673 1.562 24611
0.960 1.677 1.556 25245
0.966 1.686 1.555 20766
0.974 1.700 1.558 18583
0.973 1.698 1.548 20929
0.978 1.708 1.547 21116
0.983 1.717 1.545 21828
0.985 1.720 1.539 21545
0.987 1.724 1.534 20754
0.989 1.727 1.528 15750
0.991 1.731 1.522 13478
0.993 1.734 1.516 19358
0.995 1.738 1.510 20879
0.994 1.735 1.500 19367
0.996 1.739 1.494 15640
1.001 1.748 1.492 8786
1.030 1.797 1.521 12013
1.032 1.801 1.515 15140
1.034 1.804 1.509 12885
1.042 1.819 1.511 10150
1.047 1.828 1.509 10505
1.053 1.838 1.507 10988
1.061 1.853 1.510 12739
1.063 1.856 1.503 21928
1.062 1.854 1.493 28801
1.064 1.857 1.486 28294
1.069 1.866 1.484 20638
1.088 1.899 1.499 13846
1.090 1.902 1.492 14241
1.092 1.906 1.486 10901
1.097 1.915 1.483 8286
1.099 1.919 1.477 8989
1.101 1.922 1.470 9469
1.103 1.925 1.464 9247
1.152 2.012 1.513 8866
1.158 2.021 1.510 9505
1.160 2.024 1.503 8730
1.165 2.034 1.500 8369
1.181 2.061 1.509 9933
1.183 2.065 1.502 11300
1.178 2.056 1.487 10691
1.176 2.053 1.476 9675
1.178 2.057 1.469 6599
1.222 2.132 1.508 4905
1.223 2.136 1.501 6164
1.225 2.139 1.494 7422
1.224 2.137 1.483 7524
1.222 2.134 1.472 8267
1.224 2.137 1.464 8571
1.230 2.147 1.461 7042
1.242 2.168 1.465 5976
1.251 2.184 1.465 4214
1.270 2.218 1.475 3707
1.318 2.300 1.515 4072
1.316 2.298 1.503 5776
1.315 2.295 1.492 5921
1.317 2.298 1.484 6148
1.319 2.302 1.476 6194
1.321 2.305 1.468 6241
1.319 2.302 1.457 7115
1.321 2.306 1.449 8012
1.351 2.358 1.469 7257
1.356 2.368 1.464 8945
1.362 2.378 1.460 7384
1.367 2.387 1.455 6027
1.369 2.390 1.447 6027
1.371 2.394 1.439 3906
1.416 2.472 1.470 2712
1.407 2.456 1.452 3808
1.409 2.460 1.444 5014
1.411 2.463 1.436 5670
1.413 2.466 1.427 6327
1.415 2.469 1.419 4961
1.478 2.579 1.465 5122
1.480 2.583 1.456 5122
1.474 2.574 1.441 4774
1.462 2.552 1.420 5145
1.463 2.555 1.411 2572
0.332 0.575 1.655 9438
0.339 0.588 1.675 8988
0.346 0.600 1.694 9926
0.347 0.601 1.685 12558
0.349 0.605 1.683 15298
0.351 0.609 1.681 15298
0.354 0.613 1.679 17690
0.354 0.614 1.669 20309
0.355 0.614 1.660 20213
0.357 0.618 1.658 20494
0.359 0.622 1.656 16205
0.363 0.629 1.661 12372
0.365 0.633 1.659 12489
0.367 0.637 1.656 12606
0.371 0.643 1.661 11440
0.375 0.650 1.666 11047
0.378 0.654 1.664 11425
0.382 0.661 1.669 8397
0.387 0.671 1.680 6016
0.388 0.672 1.671 6772
0.390 0.676 1.669 7606
0.392 0.680 1.666 8431
0.394 0.684 1.664 9257
0.397 0.687 1.662 8195
0.401 0.695 1.666 7240
0.401 0.695 1.657 7364
0.403 0.699 1.654 7594
0.407 0.706 1.659 9206
0.412 0.713 1.663 9835
0.416 0.720 1.668 9406
0.414 0.717 1.652 12446
0.416 0.721 1.649 15576
0.420 0.728 1.653 20194
0.423 0.732 1.651 25300
0.425 0.736 1.648 25903
0.427 0.740 1.646 26507
0.431 0.747 1.650 22076
0.435 0.754 1.654 15028
0.440 0.762 1.658 11919
0.442 0.766 1.656 11008
0.444 0.769 1.653 10604
0.446 0.773 1.651 7936
0.450 0.780 1.655 4259
0.457 0.791 1.665 3105
0.461 0.799 1.669 2399
0.467 0.810 1.680 2261
0.461 0.799 1.650 2913
0.461 0.799 1.641 7850
0.463 0.803 1.638 11290
0.466 0.807 1.635 14915
0.468 0.811 1.633 22039
0.472 0.818 1.637 26101
0.474 0.822 1.634 25452
0.476 0.826 1.631 18448
0.479 0.829 1.628 12093
0.481 0.833 1.625 14352
0.483 0.837 1.622 18117
0.487 0.845 1.626 20962
0.492 0.852 1.630 24904
0.496 0.860 1.633 31296
0.500 0.867 1.637 27193
0.505 0.875 1.640 18360
0.507 0.879 1.637 21271
0.509 0.883 1.634 24316
0.511 0.886 1.631 19127
0.514 0.890 1.628 13731
0.518 0.898 1.632 14478
0.522 0.905 1.635 17274
0.525 0.909 1.632 14837
0.529 0.917 1.635 8844
0.536 0.929 1.645 6704
0.538 0.933 1.641 7718
0.540 0.936 1.638 9383
0.543 0.940 1.635 13391
0.547 0.948 1.638 18529
0.552 0.956 1.641 21039
0.554 0.960 1.638 20535
0.556 0.963 1.635 15794
0.561 0.971 1.638 11861
0.563 0.975 1.634 10356
0.565 0.979 1.631 8714
0.562 0.974 1.615 9373
0.555 0.961 1.587 11010
0.554 0.960 1.577 12249
0.559 0.968 1.580 12629
0.566 0.980 1.589 18770
0.568 0.984 1.586 26584
0.570 0.988 1.582 29233
0.575 0.996 1.585 25608
0.574 0.995 1.576 16709
0.571 0.990 1.560 15659
0.576 0.998 1.563 23522
0.580 1.006 1.565 20012
0.585 1.014 1.568 10188
0.592 1.026 1.577 9574
0.587 1.016 1.555 13260
0.589 1.020 1.551 13484
0.591 1.024 1.548 8953
0.538 0.933 1.419 9255
0.538 0.932 1.409 6901
0.534 0.926 1.394 7269
0.536 0.929 1.391 9032
0.538 0.932 1.388 8753
0.542 0.940 1.391 8114
0.544 0.943 1.387 6743
0.535 0.928 1.361 7385
0.537 0.931 1.357 9453
0.539 0.934 1.354 8596
0.538 0.932 1.345 6375
0.540 0.935 1.342 7147
0.541 0.938 1.339 7387
0.540 0.937 1.330 5860
0.545 0.944 1.332 6197
0.544 0.942 1.323 6208
0.657 1.139 1.555 4956
0.542 0.939 1.305 4893
0.546 0.947 1.308 6430
0.562 0.973 1.333 8484
0.572 0.991 1.347 6757
0.573 0.994 1.343 3778
0.570 0.987 1.329 3758
0.569 0.985 1.320 4054
0.682 1.182 1.541 3736
0.715 1.239 1.598 4979
0.717 1.242 1.594 6201
0.578 1.002 1.312 6689
0.577 1.000 1.303 7252
0.582 1.008 1.305 9199
0.583 1.011 1.301 6822
0.665 1.152 1.452 7267
0.667 1.155 1.448 7279
0.671 1.163 1.449 6599
0.584 1.012 1.276 5547
0.750 1.300 1.582 6829
0.755 1.308 1.583 9514
0.760 1.317 1.584 7660
0.765 1.326 1.585 8851
0.770 1.334 1.586 11261
0.775 1.343 1.587 8384
0.780 1.352 1.587 5943
0.782 1.355 1.583 4994
0.787 1.364 1.584 5108
0.789 1.368 1.579 4780
0.788 1.366 1.569 3666
0.630 1.092 1.281 3297
0.635 1.100 1.283 3179
0.642 1.113 1.289 4218
0.641 1.111 1.280 6195
0.640 1.109 1.271 6413
0.635 1.101 1.257 7762
0.637 1.104 1.253 10394
0.639 1.107 1.250 11186
0.640 1.110 1.246 9613
0.642 1.112 1.242 7637
0.643 1.115 1.238 4198
0.834 1.445 1.547 2597
0.860 1.491 1.583 4590
0.859 1.489 1.573 5826
0.665 1.153 1.248 5956
0.670 1.161 1.249 6507
0.678 1.174 1.255 7931
0.679 1.177 1.251 7355
0.888 1.540 1.577 5423
0.900 1.559 1.586 6093
0.905 1.568 1.586 5056
0.910 1.577 1.585 6920
0.912 1.581 1.580 10939
0.914 1.585 1.574 10716
0.920 1.594 1.574 11023
0.922 1.597 1.568 13863
0.927 1.606 1.568 13943
0.938 1.626 1.576 19728
0.941 1.630 1.571 23019
0.939 1.628 1.561 20139
0.938 1.626 1.550 15253
0.947 1.641 1.554 13820
0.958 1.661 1.563 19257
0.960 1.664 1.557 24311
0.962 1.668 1.551 23508
0.968 1.677 1.550 18665
0.976 1.692 1.554 15772
0.978 1.695 1.548 18048
0.984 1.704 1.547 18040
0.989 1.714 1.545 20926
0.991 1.717 1.539 23173
0.993 1.721 1.534 23110
0.992 1.718 1.523 17899
0.997 1.728 1.522 13692
0.999 1.731 1.516 17569
0.998 1.729 1.506 18373
0.996 1.727 1.495 16975
1.002 1.736 1.494 15589
1.010 1.750 1.497 11986
1.032 1.788 1.517 11070
1.037 1.797 1.515 13121
1.039 1.801 1.509 10873
1.045 1.810 1.507 8383
1.053 1.825 1.509 9626
1.058 1.834 1.507 10792
1.067 1.849 1.510 12341
1.069 1.853 1.503 21857
1.071 1.856 1.497 28857
1.073 1.860 1.491 28649
1.072 1.857 1.480 20886
1.094 1.896 1.499 14028
1.096 1.899 1.492 14241
1.098 1.902 1.486 10856
1.100 1.906 1.479 7872
1.102 1.909 1.473 9422
1.104 1.912 1.466 11064
1.105 1.916 1.460 11156
1.159 2.008 1.513 8128
1.161 2.011 1.506 9572
1.166 2.021 1.503 8823
1.168 2.024 1.496 8092
1.187 2.057 1.509 10268
1.189 2.061 1.502 11367
1.184 2.052 1.487 10517
1.183 2.050 1.476 9332
1.188 2.059 1.473 6415
1.218 2.110 1.497 7131
1.227 2.126 1.497 7668
1.232 2.135 1.494 8590
1.231 2.133 1.483 8234
1.229 2.130 1.472 8314
1.235 2.139 1.468 8652
1.240 2.149 1.465 7017
1.245 2.158 1.461 5618
1.254 2.174 1.461 3660
1.277 2.214 1.475 2812
1.322 2.290 1.511 3917
1.324 2.294 1.503 5656
1.322 2.291 1.492 5876
1.324 2.294 1.484 6110
1.322 2.292 1.473 6197
1.324 2.295 1.465 6316
1.326 2.298 1.457 7288
1.328 2.301 1.449 8260
1.358 2.354 1.469 7484
1.364 2.364 1.464 9027
1.369 2.373 1.460 7192
1.375 2.383 1.455 5509
1.377 2.386 1.447 5509
1.379 2.389 1.439 3795
1.427 2.473 1.474 2355
1.426 2.471 1.462 3354
1.424 2.468 1.450 4510
1.422 2.465 1.439 5330
1.420 2.462 1.427 6167
1.426 2.471 1.422 4857
1.486 2.575 1.465 5104
1.488 2.578 1.456 5104
1.486 2.575 1.444 4600
1.473 2.553 1.423 4479
1.475 2.556 1.414 2239
0.335 0.577 1.662 8984
0.341 0.587 1.675 8933
0.348 0.599 1.694 10009
0.349 0.600 1.685 12885
0.351 0.604 1.683 15785
0.353 0.608 1.681 15785
0.355 0.612 1.679 17629
0.356 0.613 1.669 19666
0.356 0.613 1.660 19341
0.358 0.617 1.658 19384
0.361 0.621 1.656 15512
0.365 0.628 1.661 11839
0.367 0.632 1.659 12520
0.367 0.632 1.649 13294
0.371 0.639 1.654 11877
0.377 0.649 1.666 10986
0.378 0.650 1.657 11165
0.383 0.660 1.669 8371
0.389 0.670 1.680 6334
0.390 0.671 1.671 7292
0.392 0.675 1.669 8354
0.394 0.679 1.666 9569
0.394 0.679 1.657 10846
0.399 0.686 1.662 9596
0.403 0.693 1.666 8462
0.403 0.694 1.657 7799
0.405 0.698 1.654 7191
0.409 0.705 1.659 8613
0.413 0.712 1.663 9248
0.418 0.719 1.668 9146
0.416 0.716 1.652 12657
0.418 0.720 1.649 16074
0.422 0.727 1.653 20361
0.425 0.731 1.651 25172
0.427 0.735 1.648 25534
0.429 0.739 1.646 25895
0.433 0.746 1.650 21264
0.437 0.753 1.654 14531
0.442 0.760 1.658 11730
0.444 0.764 1.656 11100
0.446 0.768 1.653 10927
0.448 0.772 1.651 8168
0.446 0.769 1.634 4747
0.451 0.776 1.638 4053
0.451 0.776 1.629 2762
0.472 0.812 1.687 1946
0.457 0.787 1.630 3063
0.461 0.795 1.634 8089
0.466 0.802 1.638 11745
0.468 0.806 1.635 15529
0.470 0.809 1.633 22741
0.474 0.817 1.637 26800
0.477 0.821 1.634 26249
0.479 0.824 1.631 19118
0.488 0.839 1.648 12539
0.483 0.832 1.625 13999
0.487 0.839 1.629 17435
0.490 0.843 1.626 20656
0.494 0.851 1.630 23830
0.498 0.858 1.633 29286
0.501 0.862 1.630 26133
0.505 0.870 1.634 18189
0.510 0.877 1.637 21049
0.512 0.881 1.634 24002
0.514 0.885 1.631 18600
0.516 0.889 1.628 13083
0.521 0.896 1.632 13824
0.525 0.904 1.635 16675
0.527 0.908 1.632 13798
0.532 0.916 1.635 8383
0.539 0.927 1.645 6769
0.541 0.931 1.641 7832
0.543 0.935 1.638 10070
0.545 0.939 1.635 13847
0.550 0.947 1.638 17180
0.552 0.950 1.635 18432
0.556 0.958 1.638 18348
0.559 0.962 1.635 14568
0.561 0.966 1.631 10738
0.563 0.969 1.628 9506
0.565 0.973 1.625 9147
0.565 0.973 1.615 9544
0.557 0.959 1.587 10874
0.559 0.963 1.583 14754
0.564 0.971 1.586 16317
0.568 0.979 1.589 20737
0.571 0.982 1.586 27498
0.573 0.986 1.582 29252
0.575 0.990 1.579 26106
0.577 0.993 1.576 18630
0.576 0.993 1.566 18919
0.578 0.996 1.563 27194
0.583 1.004 1.565 21844
0.593 1.021 1.580 11592
0.595 1.024 1.577 11122
0.589 1.015 1.555 16155
0.591 1.018 1.551 16229
0.593 1.022 1.548 10788
0.541 0.931 1.419 10397
0.540 0.930 1.409 7589
0.537 0.924 1.394 7476
0.539 0.927 1.391 9214
0.540 0.931 1.388 9239
0.545 0.938 1.391 8916
0.547 0.941 1.387 7103
0.538 0.926 1.361 7144
0.540 0.929 1.357 9425
0.541 0.932 1.354 8659
0.540 0.931 1.345 6305
0.542 0.934 1.342 7028
0.544 0.937 1.339 6745
0.546 0.940 1.336 5034
0.553 0.952 1.344 6091
0.555 0.955 1.341 5896
0.660 1.137 1.555 4372
0.662 1.141 1.552 4273
0.552 0.950 1.314 5144
0.570 0.981 1.344 9082
0.572 0.984 1.341 7512
0.576 0.992 1.343 4007
0.575 0.990 1.334 3509
0.571 0.984 1.320 3945
0.573 0.987 1.316 3801
0.715 1.232 1.593 4896
0.717 1.235 1.588 5848
0.581 1.000 1.312 7423
0.580 0.998 1.303 7736
0.584 1.006 1.305 8632
0.666 1.147 1.456 6506
0.668 1.150 1.452 7453
0.670 1.153 1.448 7266
0.674 1.161 1.449 5995
0.587 1.011 1.276 4423
0.754 1.298 1.582 7230
0.759 1.306 1.583 9714
0.764 1.315 1.584 7833
0.769 1.323 1.585 9219
0.774 1.332 1.586 11352
0.779 1.341 1.587 8176
0.784 1.349 1.587 5439
0.786 1.353 1.583 4553
0.791 1.362 1.584 4984
0.793 1.365 1.579 4860
0.792 1.364 1.569 3751
0.630 1.085 1.276 3906
0.635 1.093 1.277 3764
0.640 1.101 1.279 4299
0.644 1.109 1.280 6355
0.643 1.107 1.271 6240
0.641 1.105 1.262 7152
0.640 1.102 1.253 9912
0.642 1.105 1.250 10945
0.643 1.108 1.246 9340
0.645 1.111 1.242 7301
0.836 1.439 1.552 3872
0.838 1.443 1.547 3010
0.858 1.478 1.573 4806
0.864 1.487 1.573 5785
0.665 1.145 1.243 6018
0.673 1.159 1.249 6361
0.681 1.172 1.255 7522
0.682 1.175 1.251 6728
0.890 1.532 1.572 5760
0.901 1.551 1.581 5946
0.912 1.571 1.590 3957
0.915 1.575 1.585 5391
0.917 1.578 1.580 9676
0.919 1.582 1.574 9976
0.924 1.591 1.574 10584
0.926 1.595 1.568 13228
0.934 1.609 1.572 14118
0.943 1.624 1.576 21200
0.945 1.627 1.571 25216
0.944 1.625 1.561 21864
0.943 1.623 1.550 14608
0.954 1.644 1.559 13172
0.960 1.653 1.558 20401
0.965 1.662 1.557 23774
0.964 1.660 1.547 22185
0.966 1.663 1.541 17396
0.978 1.683 1.549 13284
0.983 1.693 1.548 15014
0.988 1.702 1.547 15001
0.994 1.711 1.545 19876
0.996 1.714 1.539 24135
0.998 1.718 1.534 24547
0.996 1.716 1.523 19314
0.998 1.719 1.517 13616
1.004 1.728 1.516 15492
1.002 1.726 1.506 16212
1.001 1.724 1.495 15434
1.010 1.739 1.498 16436
1.018 1.753 1.501 15801
1.027 1.768 1.504 10846
1.042 1.795 1.515 11026
1.041 1.792 1.505 9002
1.046 1.801 1.503 6805
1.058 1.822 1.509 8532
1.060 1.826 1.503 10066
1.072 1.846 1.510 11338
1.078 1.856 1.508 21260
1.076 1.853 1.497 28602
1.078 1.857 1.491 28729
1.077 1.854 1.480 21397
1.099 1.893 1.499 14247
1.101 1.896 1.492 14319
1.103 1.899 1.486 11065
1.091 1.879 1.463 8758
1.104 1.900 1.469 10249
1.109 1.909 1.466 12480
1.107 1.907 1.456 12843
1.113 1.916 1.453 9010
1.166 2.008 1.506 9828
1.168 2.012 1.499 9055
1.187 2.045 1.512 8030
1.196 2.060 1.513 10482
1.195 2.058 1.502 11325
1.190 2.049 1.487 10511
1.188 2.046 1.476 9152
1.218 2.098 1.500 8261
1.224 2.107 1.497 9435
1.229 2.116 1.493 9319
1.235 2.126 1.490 9748
