-0.458 1.836 1.952 9524
-0.459 1.841 1.946 11795
-0.459 1.841 1.935 11301
-0.462 1.851 1.935 8272
-0.464 1.862 1.935 10983
-0.467 1.873 1.934 12214
-0.471 1.889 1.939 17615
-0.472 1.894 1.933 28364
-0.475 1.905 1.933 20853
-0.481 1.927 1.943 11328
-0.482 1.932 1.937 15080
-0.483 1.937 1.931 17438
-0.483 1.936 1.920 14750
-0.486 1.947 1.919 12625
-0.487 1.952 1.913 13578
-0.488 1.957 1.908 16024
-0.489 1.962 1.902 16014
-0.491 1.967 1.896 12100
-0.495 1.984 1.900 10355
-0.496 1.989 1.894 9488
-0.538 2.159 2.030 9536
-0.540 2.164 2.024 8353
-0.497 1.992 1.865 11722
-0.498 1.997 1.859 15976
-0.499 2.001 1.853 15448
-0.499 2.000 1.842 12620
-0.555 2.226 2.020 14997
-0.557 2.231 2.014 12633
-0.555 2.225 1.997 12392
-0.555 2.224 1.985 10547
-0.571 2.289 2.028 6969
-0.571 2.289 2.016 10706
-0.572 2.294 2.009 11443
-0.570 2.287 1.992 8919
-0.587 2.353 2.033 10061
-0.585 2.346 2.017 13939
-0.588 2.358 2.014 11024
-0.592 2.375 2.017 11305
-0.595 2.387 2.014 14724
-0.598 2.398 2.012 12467
-0.601 2.409 2.009 9768
-0.610 2.446 2.025 9782
-0.622 2.494 2.051 10189
-0.623 2.500 2.043 9720
-0.622 2.493 2.026 10239
-0.623 2.498 2.019 12425
-0.624 2.503 2.011 12275
-0.627 2.515 2.008 9751
-0.652 2.614 2.069 6655
-0.644 2.582 2.034 6695
-0.653 2.619 2.049 6766
-0.661 2.649 2.059 7788
-0.664 2.661 2.055 9957
-0.667 2.673 2.052 12047
-0.668 2.678 2.043 11424
-0.685 2.747 2.080 9770
-0.691 2.772 2.085 12155
-0.694 2.783 2.081 14625
-0.697 2.795 2.077 13849
-0.703 2.820 2.081 15885
-0.703 2.819 2.068 14323
-0.704 2.824 2.060 11121
-0.706 2.830 2.051 10431
-0.707 2.835 2.043 8181
-0.721 2.892 2.068 6888
-0.711 2.852 2.030 6797
-0.735 2.949 2.080 5953
-0.733 2.941 2.063 5484
-0.743 2.979 2.075 5305
-0.736 2.952 2.045 5366
-0.738 2.957 2.036 5996
-0.737 2.956 2.023 6025
-0.737 2.955 2.010 4268
-0.756 3.032 2.046 2909
-0.769 3.084 2.065 3092
-0.770 3.089 2.056 3376
-0.772 3.095 2.046 3660
-0.434 1.742 1.215 3523
-0.435 1.745 1.210 3668
-0.794 3.184 2.062 3797
-0.789 3.163 2.036 3467
-0.787 3.155 2.019 4026
-0.855 3.427 2.166 3575
-0.861 3.453 2.167 3600
-0.864 3.465 2.160 4016
-0.867 3.478 2.154 4057
-0.870 3.490 2.147 4331
-0.872 3.496 2.136 4212
-0.872 3.494 2.122 4103
-0.886 3.554 2.142 2921
-0.866 3.472 2.082 2784
-0.869 3.484 2.075 3449
-0.870 3.489 2.065 3304
-0.873 3.502 2.058 3183
-0.893 3.582 2.088 2484
-0.896 3.594 2.080 2674
-0.973 3.900 2.229 2635
-0.974 3.906 2.217 3475
-0.974 3.905 2.202 3519
-0.974 3.904 2.186 3764
-0.996 3.992 2.217 4028
-0.999 4.005 2.209 5201
-0.997 3.997 2.189 4628
-0.993 3.982 2.167 4735
-0.995 3.988 2.155 4636
-0.998 4.000 2.146 4509
-1.011 4.054 2.158 3855
-1.013 4.060 2.146 4358
-1.014 4.066 2.133 4358
-1.054 4.224 2.195 3859
-1.057 4.237 2.185 4338
-1.058 4.243 2.173 3448
-1.060 4.249 2.160 2558
-1.103 4.422 2.225 2835
-1.106 4.435 2.215 3207
-1.137 4.560 2.257 2595
-1.137 4.559 2.240 2888
-1.139 4.565 2.226 2888
-1.140 4.571 2.212 2159
-1.175 4.711 2.258 2569
-1.176 4.717 2.244 1284
-0.406 1.629 0.866 379
-0.180 0.724 1.835 52955
-0.181 0.729 1.833 52984
-0.182 0.734 1.831 53012
-0.183 0.738 1.829 53012
-0.184 0.743 1.826 49799
-0.186 0.751 1.831 46738
-0.187 0.753 1.822 39532
-0.188 0.757 1.819 32478
-0.190 0.765 1.824 23401
-0.192 0.774 1.829 14672
-0.193 0.778 1.826 14557
-0.194 0.783 1.824 10943
-0.195 0.788 1.822 7330
-0.195 0.786 1.805 6523
-0.193 0.780 1.781 6452
-0.195 0.788 1.786 7623
-0.197 0.796 1.791 9081
-0.199 0.801 1.788 7716
-0.200 0.805 1.786 6351
-0.201 0.810 1.783 6995
-0.201 0.811 1.774 7703
-0.202 0.816 1.771 8853
-0.203 0.820 1.769 10003
-0.220 0.887 1.885 9510
-0.222 0.895 1.889 9895
-0.223 0.900 1.886 8493
-0.224 0.902 1.876 7004
-0.225 0.906 1.874 6154
-0.226 0.911 1.871 5305
-0.228 0.920 1.875 7067
-0.229 0.925 1.872 8921
-0.232 0.937 1.883 12490
-0.235 0.946 1.887 16669
-0.237 0.955 1.891 16928
-0.238 0.960 1.888 17909
-0.238 0.961 1.878 18157
-0.239 0.966 1.875 18906
-0.242 0.975 1.879 19058
-0.244 0.983 1.883 21073
-0.245 0.988 1.880 23051
-0.246 0.993 1.877 20026
-0.248 1.002 1.881 15806
-0.250 1.007 1.877 11784
-0.253 1.020 1.888 9139
-0.257 1.037 1.905 10741
-0.256 1.034 1.888 15294
-0.258 1.039 1.885 20651
-0.260 1.048 1.889 21898
-0.262 1.057 1.892 19698
-0.264 1.066 1.895 17799
-0.266 1.071 1.892 18176
-0.267 1.076 1.889 22674
-0.268 1.081 1.886 27230
-0.269 1.086 1.882 26770
-0.270 1.091 1.879 26512
-0.272 1.095 1.876 31622
-0.273 1.100 1.872 36872
-0.275 1.110 1.875 37290
-0.277 1.119 1.879 30106
-0.279 1.124 1.875 22586
-0.280 1.129 1.872 20524
-0.282 1.138 1.875 21213
-0.284 1.147 1.878 21381
-0.286 1.152 1.874 19661
-0.286 1.152 1.864 16858
-0.287 1.157 1.861 12773
-0.293 1.180 1.883 13991
-0.294 1.185 1.879 15917
-0.295 1.190 1.876 16601
-0.298 1.204 1.885 14981
-0.305 1.231 1.913 11268
-0.309 1.245 1.922 16819
-0.310 1.250 1.918 19902
-0.311 1.255 1.914 18649
-0.313 1.260 1.911 14092
-0.315 1.270 1.913 13013
-0.317 1.280 1.916 18131
-0.320 1.289 1.918 19879
-0.322 1.299 1.920 14138
-0.325 1.309 1.923 10213
-0.325 1.309 1.912 10112
-0.325 1.309 1.902 12871
-0.326 1.314 1.898 17380
-0.334 1.348 1.931 17777
-0.337 1.358 1.933 21646
-0.338 1.363 1.929 20270
-0.339 1.368 1.925 13287
-0.340 1.373 1.921 9442
-0.345 1.392 1.935 12195
-0.347 1.397 1.931 15839
-0.348 1.402 1.927 16987
-0.350 1.412 1.928 19307
-0.353 1.422 1.930 20673
-0.354 1.427 1.926 14792
-0.361 1.457 1.952 8084
-0.369 1.487 1.977 5987
-0.368 1.482 1.961 11404
-0.370 1.492 1.962 19943
-0.371 1.498 1.958 19099
-0.371 1.498 1.947 16901
-0.374 1.508 1.949 18187
-0.380 1.533 1.968 24536
-0.383 1.543 1.969 31114
-0.385 1.554 1.970 18275
-0.384 1.549 1.954 6305
-0.388 1.564 1.961 8355
-0.393 1.585 1.973 9903
-0.393 1.585 1.963 13925
-0.394 1.590 1.958 23334
-0.395 1.595 1.953 24482
-0.397 1.600 1.948 14535
-0.403 1.626 1.967 12157
-0.406 1.636 1.967 20024
-0.408 1.647 1.968 16907
-0.411 1.657 1.969 8222
-0.412 1.662 1.964 8163
-0.414 1.668 1.959 16417
-0.415 1.673 1.954 20257
-0.417 1.683 1.954 15082
-0.420 1.694 1.955 9275
-0.423 1.704 1.955 8092
-0.427 1.720 1.961 15217
-0.429 1.731 1.962 19267
-0.430 1.736 1.956 11418
-0.440 1.774 1.985 9980
-0.440 1.773 1.974 17432
-0.442 1.784 1.974 16764
-0.445 1.795 1.974 12131
-0.445 1.794 1.963 12740
-0.446 1.799 1.957 17803
-0.449 1.810 1.957 13955
-0.453 1.826 1.963 9905
-0.454 1.831 1.957 9893
-0.455 1.837 1.952 8979
-0.455 1.836 1.941 12303
-0.457 1.841 1.935 13987
-0.459 1.852 1.935 10348
-0.463 1.868 1.940 12691
-0.465 1.873 1.934 13186
-0.469 1.890 1.939 16929
-0.470 1.895 1.933 28092
-0.473 1.905 1.933 21551
-0.477 1.922 1.938 10839
-0.479 1.933 1.937 12271
-0.481 1.938 1.931 16008
-0.480 1.937 1.920 15775
-0.483 1.948 1.919 14808
-0.484 1.953 1.913 15361
-0.486 1.958 1.908 17502
-0.487 1.963 1.902 17998
-0.489 1.974 1.901 13495
-0.491 1.979 1.895 12015
-0.493 1.989 1.894 11252
-0.535 2.159 2.030 8098
-0.494 1.993 1.877 6918
-0.494 1.992 1.865 13354
-0.495 1.997 1.859 17659
-0.496 2.002 1.853 17250
-0.498 2.007 1.847 13681
-0.552 2.227 2.020 13029
-0.552 2.226 2.009 11652
-0.552 2.225 1.997 11914
-0.552 2.225 1.985 9912
-0.562 2.266 2.008 6297
-0.568 2.289 2.016 10111
-0.569 2.295 2.009 10611
-0.567 2.288 1.992 8768
-0.582 2.348 2.029 12495
-0.582 2.347 2.017 17549
-0.585 2.358 2.014 12540
-0.591 2.382 2.021 10866
-0.592 2.387 2.014 14714
-0.595 2.399 2.012 12529
-0.598 2.410 2.009 9275
-0.599 2.416 2.002 7862
-0.620 2.501 2.055 7348
-0.620 2.500 2.043 7548
-0.618 2.493 2.026 9795
-0.620 2.499 2.019 12343
-0.622 2.510 2.016 12513
-0.624 2.516 2.008 10093
-0.648 2.615 2.069 7187
-0.640 2.583 2.034 8298
-0.650 2.619 2.049 9138
-0.656 2.644 2.054 9243
-0.660 2.662 2.055 10477
-0.661 2.667 2.047 11915
-0.664 2.679 2.043 10647
-0.681 2.748 2.080 10730
-0.688 2.772 2.085 12112
-0.690 2.784 2.081 14210
-0.692 2.790 2.072 12885
-0.700 2.821 2.081 14652
-0.701 2.826 2.073 14344
-0.701 2.825 2.060 12230
-0.702 2.831 2.051 12112
-0.702 2.830 2.038 9948
-0.719 2.900 2.072 8275
-0.708 2.853 2.030 7640
-0.709 2.859 2.021 5846
-0.730 2.942 2.063 5057
-0.731 2.947 2.054 4042
-0.424 1.711 1.253 5340
-0.425 1.715 1.248 6639
-0.426 1.718 1.243 6700
-0.425 1.714 1.233 5572
-0.426 1.717 1.228 4353
-0.763 3.078 2.061 4277
-0.766 3.090 2.056 4239
-0.768 3.096 2.046 4210
-0.794 3.200 2.097 4521
-0.792 3.193 2.079 4321
-0.790 3.185 2.062 4051
-0.464 1.872 1.270 3528
-0.465 1.875 1.265 4444
-0.464 1.871 1.255 3962
-0.812 3.273 2.062 2893
-0.861 3.473 2.164 2827
-0.863 3.479 2.154 3449
-0.864 3.484 2.143 4072
-0.865 3.490 2.133 3881
-0.867 3.496 2.122 3690
-0.880 3.549 2.138 2783
-0.863 3.480 2.086 2692
-0.866 3.492 2.079 3693
-0.867 3.497 2.069 3520
-0.869 3.503 2.058 3347
-0.870 3.508 2.047 2374
-0.927 3.739 2.157 2547
-0.969 3.908 2.233 2653
-0.969 3.907 2.217 3478
-0.969 3.906 2.202 3334
-0.968 3.905 2.186 3436
-0.990 3.994 2.217 4049
-0.993 4.006 2.209 5300
-0.993 4.005 2.193 4642
-1.007 4.059 2.205 4591
-0.991 3.996 2.158 4546
-0.992 4.002 2.146 4545
-1.007 4.063 2.161 4386
-1.007 4.061 2.146 5134
-1.009 4.067 2.133 5134
-1.010 4.073 2.121 4268
-1.051 4.239 2.185 4282
-1.053 4.244 2.173 3396
-1.094 4.411 2.236 2816
-1.097 4.424 2.225 2947
-1.100 4.437 2.215 3141
-1.133 4.569 2.260 2504
-1.133 4.568 2.243 2714
-1.134 4.574 2.229 2714
-1.134 4.572 2.212 2100
-1.169 4.712 2.258 2362
-1.170 4.718 2.244 1181
-0.405 1.635 0.874 264
-0.406 1.637 0.869 407
-0.178 0.728 1.843 55733
-0.179 0.729 1.833 54818
-0.180 0.734 1.831 54052
-0.181 0.739 1.829 54052
-0.183 0.747 1.833 50663
-0.184 0.752 1.831 47601
-0.185 0.756 1.829 40148
-0.187 0.761 1.826 32695
-0.188 0.766 1.824 23642
-0.190 0.774 1.829 14930
-0.191 0.779 1.826 14803
-0.192 0.784 1.824 11040
-0.193 0.788 1.822 7277
-0.194 0.790 1.812 6047
-0.194 0.791 1.803 4967
-0.195 0.796 1.800 6657
-0.195 0.797 1.791 8368
-0.196 0.801 1.788 8676
-0.198 0.806 1.786 8985
-0.199 0.811 1.783 8021
-0.201 0.819 1.788 7114
-0.214 0.874 1.883 7294
-0.215 0.879 1.880 9662
-0.217 0.887 1.885 9731
-0.220 0.896 1.889 10081
-0.221 0.901 1.886 8316
-0.221 0.902 1.876 6389
-0.222 0.907 1.874 5674
-0.223 0.908 1.864 5039
-0.226 0.921 1.875 6778
-0.227 0.926 1.872 8828
-0.230 0.938 1.883 13163
-0.232 0.947 1.887 18027
-0.234 0.956 1.891 18888
-0.235 0.960 1.888 20353
-0.237 0.965 1.885 19674
-0.238 0.970 1.882 18250
-0.239 0.975 1.879 17592
-0.240 0.980 1.876 19506
-0.242 0.989 1.880 21466
-0.244 0.994 1.877 18174
-0.246 1.003 1.881 14075
-0.246 1.004 1.871 11095
-0.250 1.021 1.888 9173
-0.254 1.038 1.905 10823
-0.254 1.035 1.888 15212
-0.255 1.039 1.885 20739
-0.257 1.049 1.889 21960
-0.259 1.058 1.892 19404
-0.261 1.067 1.895 17543
-0.263 1.072 1.892 18359
-0.264 1.077 1.889 23110
-0.265 1.081 1.886 27554
-0.266 1.086 1.882 26452
-0.267 1.091 1.879 26198
-0.269 1.096 1.876 32133
-0.270 1.101 1.872 37785
-0.272 1.110 1.875 37715
-0.274 1.119 1.879 29672
-0.276 1.124 1.875 21632
-0.277 1.129 1.872 20567
-0.279 1.139 1.875 21838
-0.281 1.148 1.878 21545
-0.282 1.153 1.874 19598
-0.284 1.158 1.871 17074
-0.285 1.162 1.867 13914
-0.289 1.181 1.883 15708
-0.291 1.186 1.879 17235
-0.292 1.191 1.876 17034
-0.295 1.204 1.885 14673
-0.301 1.228 1.907 11263
-0.305 1.246 1.922 16903
-0.307 1.251 1.918 19699
-0.308 1.256 1.914 18478
-0.309 1.261 1.911 13979
-0.311 1.271 1.913 12842
-0.313 1.276 1.909 17724
-0.316 1.290 1.918 19154
-0.319 1.300 1.920 13977
-0.321 1.310 1.923 11283
-0.321 1.310 1.912 11752
-0.321 1.310 1.902 13775
-0.322 1.315 1.898 17944
-0.331 1.349 1.931 19699
-0.333 1.359 1.933 23703
-0.334 1.364 1.929 20588
-0.335 1.369 1.925 13086
-0.337 1.374 1.921 9497
-0.341 1.393 1.935 12061
-0.343 1.398 1.931 15980
-0.344 1.403 1.927 17488
-0.346 1.413 1.928 20696
-0.349 1.423 1.930 22961
-0.350 1.428 1.926 15479
-0.359 1.463 1.958 7595
-0.362 1.478 1.965 7571
-0.364 1.483 1.961 13559
-0.365 1.488 1.956 20957
-0.367 1.499 1.958 18922
-0.369 1.504 1.953 17032
-0.370 1.509 1.949 18933
-0.376 1.534 1.968 25234
-0.379 1.545 1.969 30980
-0.381 1.555 1.970 16736
-0.380 1.550 1.954 6520
-0.384 1.565 1.961 10780
-0.387 1.581 1.968 10852
-0.389 1.586 1.963 15237
-0.390 1.591 1.958 25016
-0.391 1.596 1.953 25159
-0.392 1.601 1.948 14505
-0.400 1.632 1.972 10502
-0.401 1.638 1.967 16794
-0.404 1.648 1.968 14462
-0.405 1.653 1.963 8554
-0.406 1.658 1.958 10866
-0.409 1.669 1.959 20449
-0.410 1.674 1.954 24504
-0.413 1.684 1.954 19485
-0.417 1.700 1.960 12533
-0.419 1.711 1.961 8767
-0.422 1.721 1.961 14264
-0.424 1.732 1.962 18855
-0.426 1.737 1.956 11516
-0.436 1.780 1.990 12886
-0.436 1.780 1.979 18912
-0.439 1.791 1.979 16737
-0.441 1.801 1.979 12376
-0.440 1.795 1.963 12389
-0.441 1.801 1.957 17625
-0.444 1.811 1.957 14358
-0.448 1.828 1.963 10006
-0.449 1.833 1.957 10066
-0.450 1.838 1.952 9051
-0.450 1.837 1.941 13178
-0.452 1.842 1.935 15866
-0.454 1.853 1.935 12160
-0.457 1.864 1.935 13815
-0.459 1.875 1.934 13852
-0.463 1.891 1.939 16641
-0.466 1.902 1.939 27500
-0.467 1.907 1.933 21907
-0.470 1.918 1.932 12538
-0.471 1.923 1.927 13639
-0.474 1.933 1.926 16019
-0.475 1.938 1.920 16033
-0.476 1.943 1.914 15815
-0.479 1.954 1.913 15509
-0.480 1.959 1.908 17091
-0.481 1.964 1.902 18057
-0.484 1.975 1.901 13707
-0.485 1.980 1.895 12421
-0.486 1.985 1.889 11475
-0.528 2.155 2.025 6962
-0.487 1.989 1.872 6948
-0.489 1.994 1.865 13169
-0.490 1.999 1.859 17906
-0.491 2.003 1.853 18082
-0.492 2.008 1.847 14762
-0.546 2.228 2.020 11634
-0.546 2.228 2.009 10999
-0.546 2.227 1.997 11492
-0.546 2.226 1.985 9213
-0.554 2.262 2.003 6144
-0.561 2.291 2.016 9049
-0.563 2.296 2.009 9444
-0.563 2.295 1.997 8113
-0.576 2.349 2.029 13214
-0.576 2.349 2.017 18881
-0.577 2.354 2.010 13330
-0.583 2.378 2.017 9865
-0.585 2.389 2.014 13836
-0.588 2.400 2.012 11966
-0.590 2.406 2.004 8573
-0.591 2.411 1.997 7296
-0.615 2.509 2.060 5196
-0.612 2.496 2.038 5523
-0.611 2.495 2.026 9074
-0.613 2.500 2.019 11575
-0.616 2.512 2.016 12048
-0.617 2.517 2.008 9880
-0.641 2.617 2.069 7281
-0.633 2.584 2.034 9137
-0.642 2.621 2.049 10217
-0.647 2.639 2.050 10216
-0.651 2.657 2.051 10807
-0.654 2.669 2.047 11512
-0.657 2.681 2.043 9651
-0.674 2.750 2.080 11101
-0.675 2.755 2.071 11831
-0.683 2.786 2.081 13549
-0.684 2.792 2.072 12347
-0.692 2.823 2.081 13997
-0.693 2.828 2.073 14189
-0.693 2.827 2.060 12412
-0.694 2.833 2.051 12987
-0.696 2.838 2.043 11137
-0.694 2.830 2.025 9130
-0.698 2.849 2.025 7883
-0.701 2.861 2.021 5584
-0.721 2.944 2.063 4156
-0.728 2.969 2.066 2999
-0.724 2.955 2.045 4050
-0.725 2.960 2.036 5442
-0.727 2.966 2.027 5781
-0.726 2.964 2.014 4464
-0.421 1.718 1.228 3600
-0.756 3.087 2.065 4313
-0.758 3.092 2.056 4183
-0.783 3.197 2.107 4997
-0.785 3.203 2.097 5777
-0.786 3.208 2.087 4917
-0.781 3.187 2.062 4002
-0.800 3.266 2.096 3856
-0.802 3.271 2.086 4385
-0.803 3.277 2.076 4855
-0.804 3.282 2.066 4951
-0.806 3.288 2.056 4577
-0.807 3.293 2.046 4414
-0.853 3.480 2.139 4522
-0.856 3.492 2.133 4019
-0.859 3.505 2.126 3577
-0.862 3.517 2.119 2748
-0.855 3.489 2.090 2757
-0.858 3.501 2.083 3865
-0.858 3.500 2.069 3583
-0.859 3.505 2.058 3334
-0.860 3.511 2.047 2402
-0.908 3.707 2.139 2366
-0.958 3.911 2.233 2549
-0.958 3.910 2.217 3332
-0.958 3.909 2.202 3069
-0.958 3.908 2.186 3046
-0.981 4.003 2.221 3977
-0.984 4.016 2.212 5287
-0.994 4.056 2.217 4624
-0.995 4.062 2.205 4844
-0.997 4.068 2.193 4537
-0.981 4.004 2.146 4403
-0.996 4.065 2.161 4860
-0.996 4.064 2.146 5795
-0.997 4.070 2.133 5795
-0.999 4.076 2.121 4810
-1.039 4.241 2.185 4232
-1.041 4.247 2.173 3353
-1.080 4.407 2.232 2875
-1.083 4.420 2.222 2896
-1.086 4.433 2.212 2975
-1.120 4.572 2.260 2398
-1.120 4.571 2.243 2561
-1.122 4.577 2.229 2561
-1.123 4.583 2.215 2057
-1.156 4.715 2.258 2143
-1.157 4.721 2.244 1071
-0.401 1.636 0.874 281
-0.401 1.638 0.869 410
-0.177 0.728 1.843 57182
-0.178 0.733 1.840 55908
-0.178 0.734 1.831 54809
-0.180 0.739 1.829 54809
-0.181 0.747 1.833 51558
-0.183 0.752 1.831 48481
-0.184 0.757 1.829 40966
-0.185 0.762 1.826 33451
-0.186 0.766 1.824 24240
-0.188 0.774 1.829 15544
-0.189 0.779 1.826 15392
-0.190 0.784 1.824 11926
-0.191 0.785 1.815 8504
-0.192 0.790 1.812 6828
-0.192 0.791 1.803 5192
-0.194 0.799 1.807 5566
-0.195 0.804 1.805 5978
-0.196 0.805 1.795 7205
-0.196 0.806 1.786 8839
-0.196 0.808 1.776 10180
-0.196 0.809 1.767 11665
-0.198 0.817 1.771 10792
-0.199 0.821 1.769 9979
-0.216 0.888 1.885 9837
-0.218 0.897 1.889 10403
-0.219 0.901 1.886 8461
-0.220 0.906 1.883 6333
-0.220 0.908 1.874 5669
-0.221 0.909 1.864 5113
-0.224 0.921 1.875 6674
-0.226 0.930 1.879 8583
-0.229 0.942 1.890 13169
-0.230 0.947 1.887 18115
-0.232 0.956 1.891 18748
-0.233 0.961 1.888 19983
-0.235 0.966 1.885 19048
-0.236 0.971 1.882 16615
-0.237 0.976 1.879 15003
-0.238 0.981 1.876 16513
-0.239 0.986 1.873 18137
-0.240 0.990 1.870 16337
-0.243 0.999 1.874 13211
-0.244 1.004 1.871 10607
-0.248 1.021 1.888 9300
-0.252 1.038 1.905 11121
-0.251 1.035 1.888 15317
-0.253 1.040 1.885 20908
-0.255 1.049 1.889 22088
-0.257 1.058 1.892 19106
-0.259 1.067 1.895 17085
-0.259 1.068 1.886 18412
-0.262 1.077 1.889 23434
-0.263 1.082 1.886 27889
-0.264 1.087 1.882 26520
-0.265 1.092 1.879 26427
-0.266 1.097 1.876 32792
-0.268 1.102 1.872 38623
-0.270 1.111 1.875 38523
-0.272 1.120 1.879 29685
-0.273 1.125 1.875 20969
-0.274 1.130 1.872 20207
-0.277 1.139 1.875 21349
-0.279 1.148 1.878 21039
-0.280 1.153 1.874 19312
-0.281 1.158 1.871 17260
-0.282 1.163 1.867 15016
-0.287 1.181 1.883 16982
-0.288 1.186 1.879 18347
-0.289 1.191 1.876 17877
-0.292 1.201 1.878 15152
-0.296 1.219 1.894 11664
-0.303 1.247 1.922 16364
-0.304 1.252 1.918 18877
-0.305 1.257 1.914 17749
-0.306 1.262 1.911 13459
-0.309 1.272 1.913 12360
-0.310 1.277 1.909 17112
-0.313 1.291 1.918 18198
-0.316 1.301 1.920 13914
-0.318 1.310 1.923 12586
-0.318 1.311 1.912 13823
-0.318 1.311 1.902 15037
-0.320 1.316 1.898 18404
-0.328 1.349 1.931 21627
-0.330 1.359 1.933 25877
-0.331 1.364 1.929 20813
-0.331 1.365 1.919 13085
-0.333 1.370 1.915 9528
-0.338 1.394 1.935 11710
-0.340 1.399 1.931 16466
-0.341 1.404 1.927 18466
-0.345 1.419 1.934 21612
-0.347 1.429 1.936 24541
-0.347 1.429 1.926 16128
-0.354 1.459 1.952 7547
-0.358 1.474 1.959 8724
-0.360 1.484 1.961 14433
-0.362 1.489 1.956 21130
-0.364 1.499 1.958 18553
-0.365 1.505 1.953 17241
-0.367 1.510 1.949 19473
-0.373 1.535 1.968 24676
-0.375 1.545 1.969 29554
-0.376 1.550 1.964 15844
-0.378 1.556 1.960 7503
-0.380 1.566 1.961 12592
-0.383 1.576 1.962 11641
-0.384 1.581 1.957 16245
-0.386 1.592 1.958 26003
-0.388 1.597 1.953 25243
-0.389 1.602 1.948 14517
-0.397 1.633 1.972 8719
-0.399 1.644 1.973 13944
-0.400 1.649 1.968 13322
-0.400 1.649 1.957 8983
-0.402 1.654 1.952 9893
-0.405 1.670 1.959 17562
-0.407 1.675 1.954 22111
-0.409 1.685 1.954 17785
-0.413 1.701 1.960 13748
-0.416 1.712 1.961 9582
-0.418 1.722 1.961 13573
-0.421 1.733 1.962 18290
-0.423 1.743 1.962 12029
-0.432 1.781 1.990 15500
-0.432 1.781 1.979 19531
-0.435 1.792 1.979 16021
-0.438 1.802 1.979 11750
-0.436 1.796 1.963 11573
-0.437 1.802 1.957 18093
-0.440 1.812 1.957 15856
-0.443 1.823 1.957 10220
-0.445 1.834 1.957 9725
-0.446 1.839 1.952 8786
-0.446 1.838 1.941 13493
-0.448 1.843 1.935 16531
-0.450 1.854 1.935 13017
-0.453 1.865 1.935 14409
-0.454 1.870 1.929 14390
-0.459 1.892 1.939 16670
-0.462 1.903 1.939 26848
-0.463 1.908 1.933 22138
-0.464 1.913 1.927 14894
-0.466 1.918 1.921 16745
-0.468 1.929 1.921 17436
-0.471 1.939 1.920 16342
-0.472 1.944 1.914 16807
-0.475 1.955 1.913 15403
-0.476 1.960 1.908 16128
-0.477 1.965 1.902 17480
-0.480 1.976 1.901 13076
-0.481 1.981 1.895 11414
-0.482 1.986 1.889 10283
-0.483 1.991 1.883 6695
-0.483 1.990 1.872 7324
-0.484 1.995 1.865 12615
-0.486 2.000 1.859 17882
-0.487 2.005 1.853 18686
-0.488 2.009 1.847 15723
-0.489 2.014 1.841 11020
-0.540 2.223 2.004 10659
-0.541 2.228 1.997 11180
-0.542 2.233 1.990 8670
-0.549 2.263 2.003 5925
-0.557 2.292 2.016 7785
-0.556 2.291 2.004 8435
-0.558 2.297 1.997 7859
-0.571 2.351 2.029 12991
-0.571 2.350 2.017 18694
-0.572 2.355 2.010 13514
-0.576 2.373 2.012 8929
-0.580 2.390 2.014 12455
-0.582 2.396 2.007 11172
-0.584 2.407 2.004 7849
-0.584 2.406 1.992 6813
-0.584 2.405 1.980 4395
-0.605 2.491 2.034 4510
-0.606 2.496 2.026 8294
-0.607 2.502 2.019 10690
-0.610 2.513 2.016 11396
-0.612 2.519 2.008 9524
-0.630 2.593 2.051 6944
-0.628 2.586 2.034 9785
-0.637 2.623 2.049 11143
-0.641 2.641 2.050 10832
-0.646 2.659 2.051 10885
-0.647 2.664 2.043 11299
-0.650 2.676 2.039 9070
-0.668 2.751 2.080 11136
-0.669 2.757 2.071 11856
-0.675 2.781 2.076 13093
-0.677 2.787 2.068 11729
-0.686 2.824 2.081 13061
-0.687 2.830 2.073 13942
-0.684 2.816 2.051 12886
-0.688 2.834 2.051 14364
-0.689 2.839 2.043 13079
-0.688 2.832 2.025 10623
-0.691 2.844 2.021 8577
-0.712 2.934 2.067 5424
-0.712 2.932 2.054 3672
-0.715 2.944 2.050 2304
-0.718 2.956 2.045 3513
-0.719 2.962 2.036 5159
-0.720 2.967 2.027 5465
-0.720 2.966 2.014 4286
-0.417 1.719 1.228 4170
-0.420 1.729 1.227 4698
-0.422 1.739 1.226 5388
-0.425 1.748 1.224 5159
-0.778 3.204 2.097 5273
-0.789 3.250 2.111 5702
-0.792 3.262 2.105 5816
-0.793 3.267 2.096 6290
-0.793 3.266 2.082 6891
-0.796 3.278 2.076 7369
-0.797 3.284 2.066 7713
-0.799 3.289 2.056 7452
-0.800 3.295 2.046 6893
-0.801 3.300 2.036 6334
-0.803 3.305 2.026 4981
-0.804 3.311 2.016 3627
-0.805 3.316 2.006 3019
-0.848 3.491 2.090 3377
-0.851 3.503 2.083 4552
-0.850 3.502 2.069 4130
-0.852 3.507 2.058 3767
-0.855 3.519 2.051 2660
-0.899 3.702 2.135 3013
-0.902 3.715 2.128 2566
-0.952 3.919 2.221 3202
-0.950 3.911 2.202 2964
-0.949 3.910 2.186 3025
-0.973 4.005 2.221 3876
-0.977 4.025 2.216 5273
-0.985 4.058 2.217 4905
-0.987 4.064 2.205 5127
-0.988 4.070 2.193 4869
-0.991 4.083 2.184 4612
-0.989 4.075 2.165 5233
-0.989 4.073 2.149 6245
-0.990 4.079 2.137 6245
-0.990 4.078 2.121 5150
-0.990 4.076 2.105 4080
-1.032 4.249 2.173 3137
-1.071 4.409 2.232 2948
-1.074 4.422 2.222 2857
-1.051 4.330 2.163 2895
-1.051 4.328 2.147 2339
-1.110 4.573 2.243 2502
-1.112 4.579 2.229 2502
-1.112 4.578 2.212 1992
-1.146 4.718 2.258 1959
-1.147 4.724 2.244 979
-0.396 1.629 0.871 272
-0.398 1.639 0.869 383
-0.175 0.725 1.835 57554
-0.176 0.730 1.833 56640
-0.177 0.735 1.831 55726
-0.178 0.740 1.829 55726
-0.180 0.748 1.833 52561
-0.181 0.752 1.831 49542
-0.183 0.757 1.829 42001
-0.184 0.762 1.826 34461
-0.185 0.767 1.824 25284
-0.187 0.775 1.829 16706
-0.188 0.780 1.826 16524
-0.189 0.784 1.824 13470
-0.190 0.786 1.815 10453
-0.191 0.790 1.812 8491
-0.191 0.792 1.803 6542
-0.192 0.796 1.800 5884
-0.192 0.797 1.791 5234
-0.194 0.806 1.795 5041
-0.195 0.810 1.793 4856
-0.196 0.811 1.783 5260
-0.196 0.812 1.774 5861
-0.211 0.875 1.883 7064
-0.212 0.880 1.880 9245
-0.214 0.888 1.885 9980
-0.216 0.897 1.889 10704
-0.218 0.902 1.886 8758
-0.219 0.907 1.883 6619
-0.219 0.908 1.874 5767
-0.220 0.913 1.871 4922
-0.223 0.925 1.882 6497
-0.224 0.930 1.879 8210
-0.227 0.943 1.890 12710
-0.229 0.948 1.887 17375
-0.231 0.956 1.891 18046
-0.233 0.965 1.895 19343
-0.233 0.966 1.885 18536
-0.234 0.971 1.882 15777
-0.235 0.976 1.879 13597
-0.237 0.981 1.876 14324
-0.238 0.986 1.873 15217
-0.239 0.991 1.870 13724
-0.241 1.000 1.874 11620
-0.242 1.005 1.871 10379
-0.246 1.022 1.888 9364
-0.251 1.039 1.905 11183
-0.250 1.035 1.888 15077
-0.251 1.040 1.885 21103
-0.252 1.045 1.882 22527
-0.254 1.054 1.885 19053
-0.257 1.063 1.889 16739
-0.258 1.068 1.886 18168
-0.260 1.077 1.889 23195
-0.261 1.082 1.886 27704
-0.262 1.087 1.882 26348
-0.263 1.092 1.879 26339
-0.265 1.097 1.876 32914
-0.266 1.102 1.872 38991
-0.268 1.111 1.875 39008
-0.270 1.120 1.879 29345
-0.270 1.121 1.869 20136
-0.273 1.130 1.872 19447
-0.275 1.140 1.875 20018
-0.277 1.149 1.878 18920
-0.278 1.154 1.874 16924
-0.278 1.154 1.864 16200
-0.281 1.164 1.867 15785
-0.285 1.182 1.883 17543
-0.286 1.187 1.879 18494
-0.287 1.192 1.876 17681
-0.290 1.201 1.878 15070
-0.293 1.215 1.888 12290
-0.301 1.247 1.922 15209
-0.302 1.252 1.918 17280
-0.303 1.257 1.914 16259
-0.305 1.262 1.911 12570
-0.307 1.272 1.913 11626
-0.308 1.277 1.909 15915
-0.310 1.287 1.912 16719
-0.314 1.301 1.920 13623
-0.315 1.306 1.916 14101
-0.316 1.311 1.912 15976
-0.316 1.311 1.902 16226
-0.318 1.316 1.898 18510
-0.326 1.350 1.931 23342
-0.328 1.360 1.933 28390
-0.329 1.365 1.929 21996
-0.328 1.360 1.913 14345
-0.331 1.370 1.915 10828
-0.335 1.390 1.929 12201
-0.338 1.400 1.931 17405
-0.338 1.400 1.920 19501
-0.342 1.419 1.934 22067
-0.345 1.429 1.936 25833
-0.346 1.435 1.932 16974
-0.352 1.459 1.952 8306
-0.355 1.470 1.953 10132
-0.357 1.480 1.955 15171
-0.359 1.490 1.956 20672
-0.362 1.500 1.958 17568
-0.364 1.510 1.959 17157
-0.364 1.510 1.949 19595
-0.370 1.536 1.968 22699
-0.372 1.541 1.963 26447
-0.374 1.551 1.964 14617
-0.375 1.556 1.960 8769
-0.378 1.566 1.961 14044
-0.380 1.577 1.962 12196
-0.382 1.582 1.957 17208
-0.383 1.587 1.952 27168
-0.385 1.597 1.953 25404
-0.387 1.602 1.948 15099
-0.390 1.618 1.955 7926
-0.397 1.644 1.973 10204
-0.398 1.649 1.968 10649
-0.398 1.649 1.957 9130
-0.399 1.654 1.952 10974
-0.403 1.670 1.959 20233
-0.404 1.675 1.954 26260
-0.407 1.686 1.954 20155
-0.411 1.702 1.960 14153
-0.413 1.712 1.961 9399
-0.416 1.723 1.961 13033
-0.418 1.733 1.962 17421
-0.422 1.749 1.968 12298
-0.430 1.782 1.990 17234
-0.431 1.787 1.985 18557
-0.432 1.792 1.979 14084
-0.435 1.803 1.979 10291
-0.434 1.797 1.963 10272
-0.435 1.802 1.957 18735
-0.437 1.813 1.957 17946
-0.440 1.824 1.957 10504
-0.441 1.829 1.952 8969
-0.442 1.834 1.946 8430
-0.442 1.833 1.935 13793
-0.445 1.844 1.935 16626
-0.447 1.855 1.935 13317
-0.450 1.865 1.935 14948
-0.451 1.870 1.929 15739
-0.455 1.887 1.934 17879
-0.459 1.903 1.939 26078
-0.460 1.908 1.933 22314
-0.460 1.908 1.922 18345
-0.461 1.913 1.916 21080
-0.464 1.924 1.915 19708
-0.467 1.934 1.915 16513
-0.468 1.939 1.909 17920
-0.470 1.950 1.908 15160
-0.473 1.961 1.908 14252
-0.476 1.972 1.907 15738
-0.477 1.977 1.901 11170
-0.478 1.982 1.895 9051
-0.479 1.987 1.889 8260
-0.480 1.992 1.883 6095
-0.480 1.991 1.872 7184
-0.481 1.996 1.865 11902
-0.483 2.000 1.859 17189
-0.484 2.005 1.853 18388
-0.485 2.010 1.847 15736
-0.486 2.015 1.841 11636
-0.535 2.218 1.999 10930
-0.536 2.223 1.992 10985
-0.540 2.240 1.995 8349
-0.545 2.257 1.998 5994
-0.550 2.281 2.006 6266
-0.553 2.292 2.004 7242
-0.556 2.304 2.002 7578
-0.566 2.345 2.024 12818
-0.567 2.351 2.017 18694
-0.568 2.356 2.010 14227
-0.571 2.367 2.007 8517
-0.575 2.385 2.009 11030
-0.577 2.390 2.002 10106
-0.581 2.408 2.004 6960
-0.600 2.487 2.054 7166
-0.598 2.480 2.037 6530
-0.598 2.479 2.024 5882
-0.601 2.491 2.022 7460
-0.605 2.509 2.023 9355
-0.608 2.520 2.020 10297
-0.609 2.526 2.013 9009
-0.624 2.588 2.046 6860
-0.624 2.587 2.034 10308
-0.633 2.623 2.049 11703
-0.637 2.642 2.050 11392
-0.640 2.653 2.046 11130
-0.643 2.665 2.043 11297
-0.646 2.677 2.039 9216
-0.664 2.752 2.080 10706
-0.665 2.758 2.071 11718
-0.671 2.782 2.076 12830
-0.673 2.788 2.068 11506
-0.683 2.832 2.086 11981
-0.683 2.831 2.073 13088
-0.680 2.817 2.051 13062
-0.684 2.835 2.051 14880
-0.685 2.841 2.043 13961
-0.683 2.833 2.025 10954
-0.686 2.845 2.021 8593
-0.706 2.928 2.063 6045
-0.708 2.934 2.054 4176
-0.709 2.939 2.045 2698
-0.415 1.721 1.257 5637
-0.416 1.724 1.252 7355
-0.415 1.720 1.243 7461
-0.414 1.717 1.233 6581
-0.415 1.720 1.228 5545
-0.417 1.730 1.227 5101
-0.420 1.739 1.226 4026
-0.780 3.233 2.127 3721
-0.784 3.252 2.125 5023
-0.786 3.257 2.115 7195
-0.787 3.263 2.105 7947
-0.788 3.269 2.096 8237
-0.788 3.267 2.082 8659
-0.791 3.280 2.076 8319
-0.792 3.285 2.066 7827
-0.794 3.290 2.056 7543
-0.795 3.296 2.046 7066
-0.798 3.308 2.040 6598
-0.798 3.307 2.026 5153
-0.460 1.906 1.228 4813
-0.461 1.909 1.222 3754
-0.842 3.492 2.090 4207
-0.845 3.504 2.083 5227
-0.845 3.503 2.069 4562
-0.845 3.501 2.054 3962
-0.894 3.705 2.150 3198
-0.895 3.710 2.139 4137
-0.898 3.723 2.131 3568
-0.899 3.728 2.120 3031
-0.944 3.912 2.202 2799
-0.944 3.911 2.186 2983
-0.968 4.014 2.224 3790
-0.973 4.033 2.219 5265
-0.979 4.060 2.217 5010
-0.982 4.073 2.209 5161
-0.982 4.071 2.193 5048
-0.985 4.084 2.184 4935
-0.983 4.076 2.165 5607
-0.983 4.075 2.149 6716
-0.984 4.080 2.137 6716
-0.984 4.079 2.121 5499
-0.985 4.085 2.109 4368
-0.987 4.090 2.096 3332
-1.062 4.404 2.229 3073
-1.065 4.417 2.219 2871
-1.045 4.331 2.163 2939
-1.046 4.337 2.150 2374
-1.104 4.575 2.243 2581
-1.105 4.581 2.229 2581
-1.106 4.587 2.215 2089
-1.096 4.543 2.180 1775
-1.097 4.549 2.166 887
-0.398 1.651 0.881 252
-0.394 1.632 0.866 375
-0.174 0.729 1.843 58393
-0.175 0.734 1.840 57559
-0.176 0.738 1.838 56725
-0.177 0.743 1.836 56725
-0.179 0.748 1.833 53411
-0.180 0.753 1.831 50097
-0.181 0.758 1.829 42511
-0.182 0.762 1.826 34924
-0.183 0.767 1.824 25875
-0.185 0.775 1.829 17621
-0.186 0.780 1.826 17422
-0.187 0.785 1.824 14908
-0.188 0.786 1.815 12585
-0.189 0.791 1.812 10539
-0.189 0.792 1.803 8552
-0.190 0.797 1.800 7753
-0.191 0.798 1.791 7130
-0.192 0.803 1.788 8331
-0.193 0.807 1.786 9531
-0.194 0.812 1.783 9436
-0.194 0.813 1.774 9520
-0.195 0.817 1.771 8024
-0.210 0.880 1.880 9030
-0.212 0.889 1.885 9857
-0.214 0.897 1.889 10653
-0.215 0.902 1.886 8788
-0.215 0.900 1.869 6867
-0.218 0.912 1.881 6079
-0.220 0.921 1.885 5439
-0.221 0.926 1.882 6724
-0.223 0.934 1.886 8115
-0.225 0.943 1.890 12383
-0.226 0.948 1.887 16747
-0.229 0.957 1.891 17155
-0.231 0.966 1.895 18494
-0.231 0.967 1.885 17847
-0.232 0.972 1.882 15952
-0.233 0.977 1.879 14291
-0.234 0.982 1.876 14090
-0.236 0.986 1.873 14022
-0.237 0.991 1.870 12804
-0.238 0.996 1.867 10799
-0.240 1.005 1.871 10206
-0.244 1.022 1.888 10128
-0.248 1.039 1.905 11673
-0.247 1.036 1.888 15527
-0.249 1.041 1.885 21789
-0.250 1.046 1.882 23370
-0.252 1.055 1.885 19452
-0.254 1.064 1.889 16654
-0.255 1.069 1.886 17860
-0.257 1.078 1.889 22755
-0.259 1.083 1.886 27327
-0.260 1.088 1.882 26079
-0.261 1.093 1.879 25605
-0.261 1.094 1.869 32079
-0.263 1.103 1.872 38157
-0.266 1.112 1.875 38237
-0.267 1.117 1.872 28155
-0.268 1.122 1.869 18725
-0.270 1.131 1.872 18258
-0.272 1.140 1.875 18199
-0.275 1.149 1.878 16073
-0.276 1.154 1.874 13817
-0.276 1.155 1.864 14942
-0.278 1.164 1.867 16791
-0.282 1.182 1.883 18062
-0.285 1.192 1.886 18337
-0.285 1.192 1.876 16780
-0.287 1.202 1.878 14256
-0.290 1.216 1.888 12527
-0.297 1.243 1.916 13913
-0.299 1.253 1.918 15460
-0.300 1.258 1.914 14517
-0.302 1.263 1.911 11728
-0.304 1.273 1.913 10597
-0.305 1.278 1.909 13887
-0.307 1.287 1.912 14600
-0.310 1.297 1.914 13015
-0.312 1.307 1.916 14938
-0.313 1.312 1.912 17283
-0.313 1.312 1.902 16592
-0.315 1.317 1.898 17669
-0.323 1.351 1.931 25034
-0.325 1.360 1.933 30332
-0.325 1.361 1.923 22098
-0.325 1.361 1.913 13940
-0.327 1.371 1.915 10643
-0.332 1.390 1.929 12800
-0.334 1.400 1.931 18600
-0.334 1.400 1.920 20034
-0.339 1.420 1.934 21369
-0.342 1.430 1.936 25950
-0.344 1.440 1.938 17802
-0.349 1.460 1.952 9889
-0.351 1.470 1.953 11496
-0.354 1.480 1.955 15448
-0.356 1.491 1.956 19258
-0.358 1.501 1.958 15866
-0.361 1.511 1.959 16346
-0.361 1.511 1.949 18105
-0.366 1.531 1.962 18988
-0.368 1.542 1.963 21070
-0.369 1.547 1.958 12378
-0.372 1.557 1.960 10017
-0.374 1.567 1.961 15131
-0.377 1.578 1.962 12683
-0.378 1.583 1.957 18405
-0.379 1.588 1.952 28316
-0.382 1.598 1.953 24701
-0.383 1.603 1.948 15244
-0.384 1.608 1.943 9163
-0.390 1.635 1.962 6842
-0.393 1.645 1.962 8280
-0.393 1.645 1.952 9856
-0.395 1.655 1.952 11527
-0.399 1.671 1.959 20644
-0.400 1.676 1.954 27344
-0.403 1.687 1.954 20268
-0.407 1.703 1.960 14180
-0.409 1.713 1.961 10831
-0.410 1.718 1.956 11503
-0.414 1.734 1.962 13401
-0.419 1.756 1.973 12880
-0.426 1.783 1.990 18756
-0.427 1.788 1.985 17402
-0.428 1.793 1.979 13857
-0.430 1.798 1.974 11842
-0.429 1.798 1.963 11265
-0.431 1.803 1.957 18758
-0.433 1.814 1.957 17808
-0.434 1.819 1.952 11416
-0.436 1.824 1.946 8933
-0.438 1.835 1.946 9044
-0.438 1.834 1.935 15977
-0.439 1.839 1.930 17227
-0.443 1.856 1.935 12939
-0.446 1.866 1.935 15485
-0.447 1.872 1.929 18229
-0.451 1.888 1.934 20982
-0.453 1.899 1.933 26240
-0.456 1.910 1.933 23140
-0.456 1.909 1.922 22991
-0.457 1.914 1.916 26211
-0.460 1.925 1.915 21990
-0.461 1.930 1.910 16490
-0.462 1.935 1.904 18391
-0.465 1.945 1.903 15175
-0.469 1.962 1.908 11638
-0.471 1.973 1.907 12598
-0.472 1.978 1.901 8338
-0.475 1.989 1.900 5955
-0.476 1.994 1.894 5735
-0.477 1.999 1.888 5007
-0.477 1.998 1.877 6378
-0.477 1.997 1.865 10460
-0.478 2.001 1.859 15006
-0.479 2.006 1.853 16348
-0.480 2.011 1.847 14298
-0.481 2.016 1.841 11066
-0.530 2.219 1.999 11582
-0.531 2.224 1.992 10834
-0.537 2.247 2.000 8612
-0.539 2.259 1.998 6804
-0.542 2.270 1.996 6396
-0.546 2.287 1.999 6661
-0.552 2.311 2.007 7445
-0.560 2.347 2.024 12384
-0.560 2.346 2.012 18586
-0.562 2.351 2.005 15805
-0.566 2.369 2.007 9264
-0.568 2.380 2.005 10659
-0.568 2.379 1.993 10137
-0.574 2.403 2.000 6055
-0.591 2.476 2.044 9013
-0.593 2.482 2.037 10708
-0.594 2.487 2.029 9066
-0.595 2.492 2.022 7302
-0.600 2.510 2.023 7446
-0.602 2.522 2.020 8576
-0.607 2.540 2.022 8205
-0.618 2.589 2.046 6397
-0.618 2.588 2.034 9626
-0.627 2.625 2.049 11453
-0.631 2.643 2.050 11342
-0.634 2.655 2.046 10952
-0.635 2.660 2.038 10988
-0.638 2.672 2.035 9381
-0.659 2.760 2.084 9955
-0.660 2.765 2.076 11132
-0.663 2.777 2.072 12184
-0.665 2.783 2.063 11000
-0.677 2.833 2.086 10730
-0.676 2.832 2.073 11894
-0.673 2.818 2.051 12863
-0.677 2.837 2.051 14951
-0.679 2.842 2.043 14569
-0.679 2.841 2.030 11313
-0.697 2.918 2.068 8305
-0.700 2.930 2.063 7157
-0.699 2.929 2.050 4633
-0.693 2.901 2.020 3275
-0.411 1.722 1.257 4193
-0.710 2.971 2.040 6151
-0.711 2.976 2.031 7066
-0.413 1.731 1.242 6512
-0.414 1.734 1.236 6300
-0.415 1.737 1.231 6057
-0.416 1.740 1.226 5535
-0.418 1.750 1.224 5246
-0.777 3.254 2.125 5632
-0.778 3.259 2.115 7078
-0.780 3.265 2.105 7356
-0.781 3.270 2.096 7108
-0.781 3.269 2.082 7005
-0.784 3.281 2.076 6560
-0.785 3.287 2.066 5563
-0.785 3.286 2.052 5057
-0.788 3.298 2.046 4457
-0.827 3.465 2.128 4569
-0.829 3.470 2.117 3713
-0.791 3.314 2.016 3051
-0.833 3.488 2.100 3243
-0.834 3.494 2.090 4575
-0.836 3.499 2.079 5434
-0.837 3.505 2.069 4605
-0.837 3.503 2.054 3878
-0.885 3.707 2.150 3393
-0.887 3.712 2.139 4296
-0.888 3.718 2.128 3699
-0.901 3.772 2.142 3220
-0.892 3.736 2.109 3204
-0.892 3.735 2.094 3242
-0.961 4.023 2.228 3762
-0.964 4.035 2.219 5323
-0.970 4.062 2.217 5101
-0.973 4.075 2.209 5200
-0.973 4.074 2.193 5173
-0.976 4.086 2.184 5174
-0.976 4.085 2.168 5921
-0.974 4.077 2.149 7057
-0.975 4.083 2.137 7057
-0.976 4.088 2.125 5798
-0.976 4.087 2.109 4573
-0.977 4.092 2.096 3518
-1.052 4.406 2.229 3256
-1.055 4.419 2.219 2937
-1.035 4.334 2.163 2967
-1.093 4.578 2.260 2405
-1.093 4.577 2.243 2642
-1.095 4.583 2.229 2642
-1.096 4.589 2.215 2193
-1.106 4.630 2.217 2103
-1.107 4.636 2.203 1051
-0.392 1.640 0.869 355
-0.173 0.729 1.843 59321
-0.174 0.734 1.840 58373
-0.175 0.739 1.838 57424
-0.176 0.743 1.836 57424
-0.177 0.748 1.833 53921
-0.178 0.753 1.831 50418
-0.180 0.758 1.829 42868
-0.181 0.763 1.826 35319
-0.183 0.771 1.831 26426
-0.184 0.775 1.829 18339
-0.185 0.780 1.826 18127
-0.186 0.785 1.824 15558
-0.186 0.786 1.815 13084
-0.187 0.791 1.812 11028
-0.189 0.796 1.810 8971
-0.189 0.797 1.800 8320
-0.188 0.795 1.784 8233
-0.190 0.803 1.788 10406
-0.191 0.808 1.786 12644
-0.192 0.809 1.776 12453
-0.193 0.813 1.774 12435
-0.194 0.818 1.771 11038
-0.195 0.822 1.769 9641
-0.211 0.889 1.885 9994
-0.213 0.898 1.889 10917
-0.214 0.903 1.886 9094
-0.212 0.896 1.863 7265
-0.216 0.912 1.881 6835
-0.218 0.921 1.885 6676
-0.220 0.930 1.889 7515
-0.222 0.939 1.893 8445
-0.224 0.944 1.890 12564
-0.225 0.948 1.887 16684
-0.227 0.957 1.891 16991
-0.229 0.966 1.895 18113
-0.230 0.971 1.892 17072
-0.231 0.976 1.889 14887
-0.232 0.981 1.886 13511
-0.233 0.982 1.876 13033
-0.234 0.987 1.873 12808
-0.235 0.992 1.870 11743
-0.235 0.993 1.860 9969
-0.238 1.005 1.871 9770
-0.242 1.023 1.888 10820
-0.246 1.040 1.905 12651
-0.246 1.036 1.888 16622
-0.247 1.041 1.885 23238
-0.248 1.046 1.882 24993
-0.250 1.055 1.885 20573
-0.252 1.064 1.889 17040
-0.253 1.069 1.886 17416
-0.256 1.079 1.889 21900
-0.257 1.083 1.886 26576
-0.258 1.088 1.882 25524
-0.258 1.089 1.872 24366
-0.259 1.094 1.869 30402
-0.261 1.103 1.872 36359
-0.264 1.112 1.875 36503
-0.265 1.117 1.872 26691
-0.266 1.122 1.869 17391
-0.268 1.131 1.872 16994
-0.270 1.141 1.875 16159
-0.271 1.146 1.871 13135
-0.273 1.150 1.868 10617
-0.274 1.155 1.864 13530
-0.276 1.165 1.867 17737
-0.280 1.183 1.883 18882
-0.283 1.192 1.886 18517
-0.283 1.193 1.876 15700
-0.286 1.207 1.885 12772
-0.288 1.216 1.888 11962
-0.295 1.244 1.916 12679
-0.296 1.249 1.912 13793
-0.298 1.259 1.914 12787
-0.299 1.264 1.911 10870
-0.302 1.273 1.913 9537
-0.303 1.278 1.909 11693
-0.304 1.283 1.905 12582
-0.306 1.293 1.908 12093
-0.310 1.307 1.916 14699
-0.311 1.312 1.912 17295
-0.312 1.317 1.908 16515
-0.313 1.322 1.904 17114
-0.320 1.351 1.931 26775
-0.323 1.361 1.933 32611
-0.323 1.361 1.923 23361
-0.323 1.361 1.913 14570
-0.325 1.371 1.915 10880
-0.330 1.391 1.929 13333
-0.332 1.401 1.931 20354
-0.332 1.401 1.920 21035
-0.337 1.421 1.934 19952
-0.339 1.431 1.936 25230
-0.341 1.441 1.938 18968
-0.346 1.461 1.952 11714
-0.349 1.471 1.953 12471
-0.350 1.476 1.949 15390
-0.352 1.486 1.950 17965
-0.355 1.496 1.952 14369
-0.358 1.512 1.959 14781
-0.358 1.512 1.949 15230
-0.363 1.532 1.962 14021
-0.366 1.542 1.963 14817
-0.367 1.547 1.958 10020
-0.369 1.558 1.960 10802
-0.372 1.568 1.961 15337
-0.373 1.573 1.956 12715
-0.375 1.583 1.957 19190
-0.376 1.589 1.952 28684
-0.379 1.599 1.953 23090
-0.380 1.604 1.948 14844
-0.381 1.609 1.943 11009
-0.383 1.614 1.938 7386
-0.388 1.635 1.951 7320
-0.389 1.640 1.946 10435
-0.392 1.656 1.952 11136
-0.396 1.672 1.959 18548
-0.397 1.677 1.954 24103
-0.400 1.687 1.954 16320
-0.404 1.703 1.960 11206
-0.405 1.708 1.955 10295
-0.407 1.719 1.956 10143
-0.410 1.730 1.956 10387
-0.419 1.767 1.984 12407
-0.421 1.778 1.985 19517
-0.424 1.789 1.985 15388
-0.425 1.794 1.979 15392
-0.426 1.799 1.974 16828
-0.428 1.804 1.968 14767
-0.429 1.809 1.963 18903
-0.430 1.815 1.957 15694
-0.431 1.820 1.952 11848
-0.434 1.830 1.952 11196
-0.435 1.836 1.946 12283
-0.435 1.835 1.935 19053
-0.436 1.840 1.930 17790
-0.440 1.856 1.935 11850
-0.443 1.867 1.935 15856
-0.445 1.878 1.934 20913
-0.448 1.889 1.934 24479
-0.450 1.900 1.933 27419
-0.451 1.905 1.928 24454
-0.453 1.910 1.922 26058
-0.454 1.915 1.916 29539
-0.455 1.920 1.910 23512
-0.458 1.930 1.910 16089
-0.459 1.935 1.904 18537
-0.460 1.940 1.898 15583
-0.465 1.963 1.908 9408
-0.468 1.974 1.907 9167
-0.470 1.985 1.906 7126
-0.472 1.990 1.900 4785
-0.499 2.106 1.991 4105
-0.502 2.118 1.989 6120
-0.505 2.129 1.988 7811
-0.473 1.997 1.865 8527
-0.473 1.996 1.854 12218
-0.476 2.007 1.853 13673
-0.517 2.179 1.987 12541
-0.522 2.203 1.995 10745
-0.525 2.214 1.994 12196
-0.527 2.225 1.992 10315
-0.533 2.248 2.000 8945
-0.536 2.260 1.998 7950
-0.535 2.259 1.986 7953
-0.539 2.276 1.989 7270
-0.551 2.324 2.016 7850
-0.556 2.348 2.024 11904
-0.556 2.347 2.012 18288
-0.557 2.352 2.005 17279
-0.559 2.357 1.998 10596
-0.563 2.375 2.000 10459
-0.563 2.374 1.988 10258
-0.587 2.478 2.056 5901
-0.587 2.477 2.044 11171
-0.588 2.483 2.037 14300
-0.590 2.488 2.029 12384
-0.589 2.487 2.017 7693
-0.595 2.511 2.023 5504
-0.607 2.560 2.048 7338
-0.605 2.553 2.031 7693
-0.609 2.571 2.032 5987
-0.614 2.589 2.034 8254
-0.622 2.626 2.049 10520
-0.627 2.644 2.050 11171
-0.629 2.656 2.046 11057
-0.631 2.661 2.038 11034
-0.632 2.667 2.030 9994
-0.654 2.761 2.084 8819
-0.656 2.767 2.076 10490
-0.659 2.779 2.072 11964
-0.660 2.784 2.063 10682
-0.672 2.834 2.086 9336
-0.673 2.840 2.077 10639
-0.668 2.820 2.051 12076
-0.673 2.838 2.051 14900
-0.674 2.843 2.043 15225
-0.674 2.842 2.030 12095
-0.693 2.925 2.072 8537
-0.695 2.931 2.063 7358
-0.696 2.936 2.054 4922
-0.688 2.903 2.020 4369
-0.700 2.954 2.041 4358
-0.704 2.972 2.040 7068
-0.707 2.984 2.035 8121
-0.707 2.983 2.022 6567
-0.705 2.975 2.005 5300
-0.415 1.751 1.239 4120
-0.767 3.237 2.141 4927
-0.769 3.243 2.131 6095
-0.771 3.255 2.125 6883
-0.773 3.261 2.115 8061
-0.774 3.266 2.105 8431
-0.775 3.272 2.096 9007
-0.777 3.277 2.086 9582
-0.778 3.283 2.076 9345
-0.779 3.288 2.066 7758
-0.779 3.287 2.052 6474
-0.782 3.299 2.046 5997
-0.785 3.311 2.040 5641
-0.784 3.310 2.026 5090
-0.784 3.308 2.012 4615
-0.827 3.490 2.100 3494
-0.830 3.502 2.093 4401
-0.830 3.501 2.079 5136
-0.831 3.506 2.069 4256
-0.831 3.505 2.054 3485
-0.879 3.708 2.150 3930
-0.882 3.721 2.142 4925
-0.883 3.726 2.131 4214
-0.894 3.773 2.142 3549
-0.884 3.731 2.105 3385
-0.886 3.736 2.094 3345
-0.959 4.045 2.238 3827
-0.958 4.044 2.223 5330
-0.963 4.064 2.217 5053
-0.966 4.076 2.209 5044
-0.966 4.075 2.193 5129
-0.969 4.088 2.184 5252
-0.969 4.087 2.168 6040
-0.968 4.086 2.153 7083
-0.970 4.091 2.140 7083
-0.969 4.090 2.125 5816
-0.971 4.096 2.112 4580
-0.970 4.094 2.096 3505
-1.043 4.401 2.226 3180
-1.046 4.414 2.216 2827
-1.027 4.335 2.163 3062
-1.029 4.341 2.150 2461
-1.085 4.579 2.243 2737
-1.087 4.585 2.229 2737
-1.088 4.591 2.215 2291
-1.098 4.632 2.217 2237
-1.099 4.638 2.203 1118
-0.389 1.641 0.869 298
-0.171 0.729 1.843 59333
-0.172 0.734 1.840 58470
-0.174 0.739 1.838 57607
-0.175 0.744 1.836 57607
-0.176 0.749 1.833 54283
-0.177 0.753 1.831 50960
-0.178 0.758 1.829 43674
-0.179 0.763 1.826 36388
-0.181 0.771 1.831 27670
-0.182 0.776 1.829 19618
-0.183 0.781 1.826 19380
-0.185 0.785 1.824 16675
-0.185 0.787 1.815 14205
-0.186 0.791 1.812 11790
-0.187 0.796 1.810 9374
-0.187 0.797 1.800 8968
-0.188 0.799 1.791 8810
-0.189 0.803 1.788 10561
-0.190 0.808 1.786 12312
-0.191 0.813 1.783 11939
-0.191 0.814 1.774 11658
-0.193 0.822 1.778 10020
-0.208 0.885 1.887 8485
-0.209 0.890 1.885 9903
-0.211 0.898 1.889 11076
-0.212 0.903 1.886 9416
-0.211 0.897 1.863 7921
-0.214 0.913 1.881 7489
-0.217 0.922 1.885 7481
-0.219 0.930 1.889 7800
-0.221 0.943 1.900 8343
-0.222 0.944 1.890 11951
-0.223 0.949 1.887 15568
-0.225 0.958 1.891 15862
-0.227 0.967 1.895 16840
-0.228 0.971 1.892 16177
-0.229 0.976 1.889 14059
-0.231 0.981 1.886 12522
-0.232 0.986 1.883 11601
-0.232 0.987 1.873 11016
-0.232 0.988 1.863 10059
-0.233 0.993 1.860 8818
-0.236 1.006 1.871 9323
-0.240 1.023 1.888 11777
-0.244 1.040 1.905 14004
-0.244 1.037 1.888 18189
-0.245 1.042 1.885 24858
-0.246 1.047 1.882 26548
-0.248 1.056 1.885 21697
-0.250 1.065 1.889 17424
-0.251 1.070 1.886 16706
-0.253 1.079 1.889 20822
-0.255 1.084 1.886 25791
-0.256 1.089 1.882 24975
-0.256 1.090 1.872 23099
-0.257 1.094 1.869 28382
-0.259 1.104 1.872 34109
-0.261 1.113 1.875 34596
-0.263 1.118 1.872 25530
-0.264 1.123 1.869 16549
-0.266 1.132 1.872 15903
-0.267 1.137 1.868 14320
-0.269 1.146 1.871 10526
-0.269 1.147 1.861 7856
-0.272 1.156 1.864 11890
-0.274 1.165 1.867 17979
-0.278 1.183 1.883 19224
-0.280 1.193 1.886 18528
-0.281 1.198 1.882 14628
-0.284 1.207 1.885 11048
-0.286 1.217 1.888 10933
-0.292 1.245 1.916 11369
-0.294 1.250 1.912 12394
-0.295 1.255 1.908 11048
-0.298 1.269 1.917 9719
-0.299 1.274 1.913 8550
-0.299 1.274 1.903 10166
-0.301 1.279 1.899 11204
-0.304 1.293 1.908 11396
-0.307 1.308 1.916 13772
-0.308 1.313 1.912 16520
-0.310 1.318 1.908 16338
-0.312 1.328 1.910 17170
-0.318 1.352 1.931 26723
-0.320 1.362 1.933 32430
-0.320 1.362 1.923 23548
-0.320 1.362 1.913 15376
-0.322 1.372 1.915 12250
-0.327 1.392 1.929 14529
-0.329 1.402 1.931 21103
-0.329 1.402 1.920 21153
-0.334 1.421 1.934 18949
-0.337 1.436 1.942 24389
-0.339 1.442 1.938 19991
-0.343 1.461 1.952 13082
-0.345 1.467 1.947 12997
-0.347 1.477 1.949 15290
-0.349 1.487 1.950 17337
-0.351 1.492 1.946 14614
-0.355 1.512 1.959 13540
-0.355 1.512 1.949 12497
-0.359 1.528 1.956 9807
-0.361 1.538 1.957 10444
-0.362 1.543 1.952 8683
-0.365 1.553 1.954 11035
-0.367 1.564 1.955 15143
-0.370 1.574 1.956 12884
-0.372 1.584 1.957 19671
-0.373 1.589 1.952 28562
-0.376 1.600 1.953 21786
-0.377 1.605 1.948 14685
-0.378 1.610 1.943 12526
-0.379 1.615 1.938 8948
-0.383 1.631 1.945 8533
-0.386 1.641 1.946 11208
-0.389 1.657 1.952 9740
-0.393 1.673 1.959 14972
-0.394 1.678 1.954 20841
-0.397 1.688 1.954 14867
-0.400 1.704 1.960 8661
-0.403 1.715 1.961 7290
-0.404 1.720 1.956 7447
-0.408 1.736 1.962 7556
-0.415 1.768 1.984 12830
-0.418 1.779 1.985 18351
-0.420 1.790 1.985 13417
-0.422 1.795 1.979 17389
-0.423 1.800 1.974 21706
-0.424 1.805 1.968 18917
-0.425 1.810 1.963 19145
-0.427 1.815 1.957 14029
-0.428 1.821 1.952 12404
-0.430 1.831 1.952 13012
-0.430 1.831 1.941 14807
-0.430 1.830 1.930 20734
-0.433 1.841 1.930 17866
-0.435 1.852 1.929 10687
-0.440 1.874 1.940 15572
-0.441 1.879 1.934 22711
-0.444 1.890 1.934 26692
-0.446 1.900 1.933 28294
-0.448 1.905 1.928 25491
-0.449 1.910 1.922 27343
-0.450 1.916 1.916 30887
-0.451 1.921 1.910 24241
-0.452 1.926 1.904 15911
-0.455 1.936 1.904 18650
-0.456 1.941 1.898 16760
-0.459 1.952 1.897 8494
-0.464 1.975 1.907 6603
-0.466 1.985 1.906 7324
-0.468 1.990 1.900 5205
-0.495 2.107 1.991 3638
-0.498 2.119 1.989 6974
-0.500 2.130 1.988 9379
-0.506 2.153 1.997 7174
-0.469 1.997 1.854 9636
-0.512 2.181 1.999 12086
-0.512 2.180 1.987 13165
-0.518 2.204 1.995 11405
-0.519 2.209 1.989 13101
-0.522 2.220 1.987 10558
-0.528 2.249 2.000 9141
-0.530 2.255 1.993 8888
-0.531 2.260 1.986 9554
-0.534 2.271 1.984 8286
-0.546 2.325 2.016 7912
-0.550 2.343 2.019 11155
-0.552 2.348 2.012 17769
-0.551 2.347 2.000 18227
-0.553 2.352 1.993 12018
-0.557 2.370 1.995 10497
-0.557 2.369 1.983 10277
-0.581 2.473 2.052 6327
-0.581 2.472 2.039 12365
-0.584 2.484 2.037 16467
-0.585 2.489 2.029 14671
-0.585 2.488 2.017 8149
-0.602 2.562 2.060 5032
-0.602 2.562 2.048 7069
-0.600 2.554 2.031 7445
-0.603 2.566 2.028 5863
-0.607 2.584 2.029 6922
-0.619 2.634 2.053 9389
-0.621 2.645 2.050 10604
-0.624 2.657 2.046 10736
-0.624 2.656 2.034 11066
-0.625 2.661 2.026 10737
-0.628 2.673 2.022 9693
-0.650 2.768 2.076 9847
-0.653 2.780 2.072 11739
-0.654 2.785 2.063 10511
-0.666 2.836 2.086 8150
-0.667 2.841 2.077 9521
-0.663 2.821 2.051 11240
-0.667 2.839 2.051 14374
-0.668 2.845 2.043 14932
-0.668 2.843 2.030 11927
-0.669 2.849 2.021 8210
-0.689 2.932 2.063 7109
-0.690 2.938 2.054 4673
-0.682 2.904 2.020 4242
-0.699 2.975 2.053 5083
-0.699 2.974 2.040 8438
-0.701 2.985 2.035 9388
-0.701 2.984 2.022 7403
-0.411 1.749 1.244 8159
-0.412 1.752 1.239 7443
-0.414 1.762 1.238 5440
-0.764 3.251 2.135 5856
-0.767 3.263 2.129 7110
-0.766 3.262 2.115 8983
-0.768 3.268 2.105 9678
-0.769 3.273 2.096 11039
-0.769 3.272 2.082 12496
-0.772 3.284 2.076 12582
-0.773 3.290 2.066 10875
-0.774 3.295 2.056 8987
-0.775 3.301 2.046 8882
-0.777 3.306 2.036 8776
-0.778 3.311 2.026 8138
-0.778 3.310 2.012 7516
-0.780 3.322 2.006 5707
-0.453 1.929 1.224 4079
-0.823 3.502 2.079 4511
-0.824 3.508 2.069 3744
-0.824 3.506 2.054 3118
-0.872 3.710 2.150 4110
-0.873 3.716 2.139 5203
-0.874 3.721 2.128 4559
-0.876 3.727 2.116 3915
-0.877 3.732 2.105 3816
-0.877 3.731 2.090 3723
-0.878 3.737 2.079 3951
-0.950 4.046 2.223 5233
-0.955 4.066 2.217 4831
-0.958 4.078 2.209 4732
-0.958 4.077 2.193 4987
-0.959 4.083 2.181 5308
-0.961 4.089 2.168 6146
-0.960 4.088 2.153 7147
-0.962 4.093 2.140 7147
-0.963 4.099 2.128 5865
-0.963 4.097 2.112 4632
-0.964 4.103 2.100 3588
-1.034 4.403 2.226 3128
-1.037 4.416 2.216 2763
-1.021 4.344 2.167 3218
-1.020 4.343 2.150 2575
-1.076 4.581 2.243 2735
-1.078 4.587 2.229 2735
-1.081 4.600 2.219 2356
-1.089 4.634 2.217 2418
-1.090 4.640 2.203 1209
-0.386 1.641 0.869 299
-0.170 0.726 1.835 59166
-0.171 0.734 1.840 58439
-0.173 0.739 1.838 57863
-0.174 0.744 1.836 57863
-0.175 0.749 1.833 54813
-0.176 0.754 1.831 51763
-0.177 0.758 1.829 44723
-0.178 0.763 1.826 37684
-0.180 0.771 1.831 29059
-0.181 0.776 1.829 21026
-0.182 0.781 1.826 20752
-0.183 0.786 1.824 18493
-0.184 0.787 1.815 16567
-0.185 0.792 1.812 14366
-0.185 0.793 1.803 12413
-0.185 0.794 1.793 12525
-0.186 0.795 1.784 12955
-0.188 0.803 1.788 13885
-0.189 0.808 1.786 15021
-0.190 0.813 1.783 13531
-0.190 0.814 1.774 12184
-0.191 0.818 1.771 10010
-0.193 0.827 1.776 7967
-0.208 0.890 1.885 9517
-0.209 0.895 1.882 10934
-0.210 0.900 1.879 9416
-0.209 0.897 1.863 8068
-0.213 0.913 1.881 7915
-0.215 0.922 1.885 8181
-0.217 0.931 1.889 8000
-0.220 0.943 1.900 8197
-0.220 0.944 1.890 11383
-0.222 0.949 1.887 14653
-0.224 0.958 1.891 14940
-0.226 0.967 1.895 15817
-0.227 0.972 1.892 15123
-0.228 0.977 1.889 13281
-0.229 0.982 1.886 12232
-0.230 0.987 1.883 11032
-0.231 0.992 1.880 9731
-0.232 0.992 1.870 9350
