0.043 0.875 1.770 8137
0.043 0.880 1.767 10173
0.044 0.885 1.764 12035
0.044 0.890 1.762 13897
0.044 0.890 1.752 15228
0.044 0.895 1.750 15396
0.044 0.900 1.747 14185
0.045 0.908 1.751 10776
0.045 0.921 1.762 8207
0.046 0.930 1.766 9727
0.046 0.934 1.763 11352
0.046 0.935 1.754 14579
0.046 0.940 1.751 19098
0.046 0.944 1.748 22074
0.047 0.953 1.752 28730
0.047 0.958 1.749 33426
0.047 0.962 1.746 37468
0.048 0.967 1.743 37205
0.048 0.980 1.754 34424
0.049 0.989 1.758 30214
0.049 0.994 1.755 23069
0.049 1.003 1.758 26466
0.050 1.012 1.762 28542
0.050 1.021 1.766 27480
0.050 1.025 1.763 27173
0.051 1.030 1.760 23259
0.051 1.030 1.750 19791
0.051 1.031 1.740 16418
0.053 1.079 1.803 11641
0.053 1.080 1.793 17728
0.054 1.089 1.797 19311
0.054 1.098 1.800 16028
0.055 1.112 1.810 11099
0.055 1.117 1.806 10825
0.055 1.117 1.797 8691
0.043 0.878 1.442 8306
0.055 1.117 1.777 9424
0.055 1.127 1.780 11309
0.044 0.889 1.434 10076
0.044 0.893 1.432 9043
0.044 0.897 1.429 7541
0.045 0.905 1.433 6900
0.045 0.913 1.436 6114
0.058 1.178 1.792 6213
0.058 1.188 1.795 6241
0.058 1.188 1.785 4469
0.046 0.943 1.444 3955
0.047 0.951 1.448 3987
0.060 1.221 1.799 4156
0.060 1.226 1.796 5772
0.054 1.092 1.609 5036
0.054 1.096 1.606 5460
0.054 1.100 1.603 5698
0.054 1.100 1.593 5569
0.054 1.094 1.578 4625
0.050 1.010 1.462 3542
0.063 1.289 1.807 3664
0.064 1.299 1.809 4125
0.065 1.313 1.818 4473
0.065 1.323 1.820 4011
0.052 1.054 1.478 6071
0.066 1.348 1.831 6590
0.067 1.363 1.839 5236
0.051 1.046 1.444 4936
0.068 1.383 1.843 5930
0.068 1.383 1.833 8184
0.068 1.387 1.829 6111
0.053 1.071 1.443 5594
0.068 1.392 1.814 9858
0.069 1.407 1.822 14813
0.069 1.412 1.818 15326
0.054 1.096 1.443 13684
0.054 1.100 1.439 11697
0.071 1.442 1.823 8204
0.071 1.452 1.825 6335
0.073 1.483 1.850 5069
0.073 1.483 1.840 9678
0.073 1.488 1.836 12784
0.074 1.498 1.837 8989
0.074 1.503 1.833 6938
0.074 1.497 1.816 8482
0.074 1.502 1.812 8183
0.075 1.518 1.819 8844
0.075 1.534 1.826 8362
0.076 1.544 1.828 8156
0.076 1.549 1.823 11834
0.076 1.554 1.818 10374
0.077 1.558 1.814 6170
0.077 1.569 1.815 6211
0.077 1.574 1.810 7996
0.063 1.282 1.498 9253
0.079 1.600 1.818 10951
0.079 1.610 1.819 13366
0.079 1.615 1.814 10451
0.079 1.614 1.804 10195
0.080 1.619 1.799 15020
0.080 1.624 1.794 12834
0.082 1.657 1.817 9572
0.082 1.673 1.823 17021
0.083 1.678 1.818 22280
0.083 1.688 1.819 22523
0.084 1.699 1.819 15550
0.084 1.704 1.814 16445
0.084 1.703 1.804 26317
0.084 1.708 1.799 24847
0.085 1.718 1.799 26623
0.085 1.735 1.805 32067
0.086 1.757 1.816 28385
0.087 1.762 1.811 24366
0.087 1.766 1.806 24593
0.087 1.771 1.800 16431
0.088 1.788 1.806 9197
0.089 1.804 1.811 10550
0.089 1.809 1.806 12497
0.089 1.814 1.801 14281
0.090 1.825 1.800 11883
0.090 1.829 1.795 11611
0.091 1.840 1.795 12903
0.091 1.845 1.789 10663
0.091 1.850 1.784 11294
0.092 1.860 1.784 15505
0.092 1.871 1.783 18995
0.092 1.876 1.778 15110
0.093 1.893 1.783 10173
0.094 1.910 1.787 13255
0.094 1.920 1.787 16489
0.095 1.931 1.786 12767
0.096 1.954 1.796 16735
0.096 1.953 1.785 21744
0.096 1.945 1.769 19334
0.096 1.956 1.768 21310
0.096 1.961 1.762 29663
0.097 1.966 1.757 24103
0.097 1.970 1.751 12729
0.097 1.975 1.745 10533
0.102 2.066 1.808 11943
0.103 2.084 1.812 14771
0.103 2.088 1.806 13725
0.103 2.099 1.804 13909
0.104 2.117 1.808 14395
0.105 2.134 1.811 10221
0.104 2.120 1.790 6420
0.106 2.156 1.808 8483
0.106 2.155 1.797 12122
0.106 2.160 1.791 13683
0.106 2.164 1.784 15158
0.107 2.169 1.778 15103
0.107 2.174 1.771 12142
0.107 2.185 1.770 6786
0.111 2.247 1.805 4654
0.111 2.252 1.799 6497
0.113 2.302 1.824 10884
0.113 2.307 1.818 16584
0.113 2.299 1.802 16815
0.113 2.303 1.795 13004
0.115 2.328 1.802 13161
0.115 2.333 1.795 14245
0.116 2.350 1.797 12389
0.118 2.394 1.817 14846
0.118 2.406 1.814 18964
0.118 2.404 1.803 18070
0.118 2.409 1.796 15339
0.119 2.420 1.793 12160
0.121 2.451 1.803 8500
0.121 2.462 1.801 8300
0.124 2.520 1.828 12279
0.124 2.525 1.821 15941
0.124 2.530 1.813 13814
0.125 2.541 1.810 9686
0.126 2.553 1.807 7416
0.125 2.538 1.787 5192
0.124 2.529 1.771 4067
0.126 2.567 1.784 7955
0.127 2.572 1.777 11303
0.127 2.577 1.769 11437
0.127 2.588 1.766 9259
0.128 2.600 1.762 7079
0.128 2.611 1.759 5018
0.133 2.710 1.808 4114
0.134 2.722 1.805 4772
0.135 2.754 1.813 5829
0.136 2.759 1.805 8688
0.136 2.757 1.793 10247
0.136 2.762 1.784 8774
0.136 2.766 1.776 7300
0.138 2.812 1.792 7829
0.139 2.817 1.784 9038
0.139 2.822 1.775 8490
0.140 2.847 1.779 9052
0.141 2.859 1.774 10318
0.141 2.856 1.762 8149
0.148 3.013 1.838 6237
0.149 3.025 1.833 7793
0.149 3.030 1.824 6706
0.148 3.014 1.804 5884
0.150 3.047 1.810 4623
0.151 3.072 1.812 4263
0.152 3.098 1.815 5483
0.153 3.103 1.805 6999
0.153 3.108 1.796 6412
0.154 3.127 1.794 5971
0.154 3.131 1.785 5375
0.159 3.234 1.827 4841
0.159 3.232 1.814 4434
0.158 3.209 1.790 4289
0.157 3.200 1.773 3000
0.164 3.332 1.828 2328
0.164 3.344 1.821 2604
0.165 3.348 1.811 2604
0.165 3.353 1.802 2030
0.169 3.436 1.830 1965
0.170 3.463 1.830 2566
0.171 3.467 1.820 3440
0.172 3.494 1.820 3355
0.172 3.506 1.813 3695
0.173 3.518 1.806 2929
0.177 3.594 1.829 2408
0.184 3.743 1.884 2698
0.184 3.741 1.870 4075
0.184 3.746 1.859 4501
0.185 3.751 1.848 4927
0.185 3.756 1.837 4927
0.185 3.768 1.829 4227
0.187 3.794 1.828 3952
0.187 3.799 1.817 4195
0.187 3.811 1.809 4462
0.188 3.816 1.797 4462
0.188 3.821 1.786 2231
0.036 0.702 1.742 14588
0.036 0.707 1.740 13546
0.037 0.715 1.745 12876
0.037 0.720 1.742 12916
0.037 0.728 1.747 14634
0.038 0.739 1.760 17414
0.038 0.744 1.757 17994
0.039 0.752 1.762 18623
0.039 0.757 1.760 15976
0.039 0.761 1.758 13330
0.040 0.769 1.762 13728
0.040 0.774 1.760 14213
0.040 0.782 1.765 14177
0.041 0.787 1.763 10938
0.041 0.795 1.767 7834
0.041 0.797 1.758 8237
0.041 0.798 1.748 8919
0.041 0.806 1.753 9352
0.042 0.811 1.751 9929
0.042 0.819 1.755 11339
0.042 0.824 1.753 12970
0.043 0.832 1.757 12888
0.043 0.840 1.762 13607
0.044 0.849 1.766 10416
0.044 0.861 1.778 7509
0.044 0.862 1.768 6562
0.045 0.867 1.765 5654
0.045 0.875 1.770 7782
0.045 0.880 1.767 9991
0.046 0.885 1.764 12143
0.046 0.889 1.762 14296
0.046 0.890 1.752 15604
0.046 0.895 1.750 15655
0.046 0.900 1.747 14164
0.047 0.908 1.751 10434
0.047 0.921 1.762 7900
0.048 0.930 1.766 9566
0.048 0.934 1.763 11274
0.048 0.935 1.754 14712
0.048 0.940 1.751 19322
0.049 0.944 1.748 22185
0.049 0.953 1.752 29054
0.049 0.958 1.749 34064
0.050 0.962 1.746 38096
0.050 0.967 1.743 37307
0.050 0.976 1.747 33577
0.051 0.989 1.758 28349
0.051 0.994 1.755 20799
0.052 1.003 1.758 23516
0.052 1.011 1.762 24558
0.053 1.020 1.766 23007
0.053 1.025 1.763 23112
0.053 1.030 1.760 20079
0.053 1.035 1.757 16940
0.053 1.026 1.734 14597
0.056 1.079 1.803 10969
0.056 1.079 1.793 17469
0.056 1.089 1.797 19042
0.057 1.098 1.800 15854
0.057 1.112 1.810 10840
0.057 1.116 1.806 10566
0.057 1.117 1.797 8446
0.045 0.878 1.442 7387
0.058 1.117 1.777 9238
0.058 1.127 1.780 11295
0.046 0.889 1.434 9572
0.046 0.893 1.432 8368
0.046 0.897 1.429 6842
0.047 0.905 1.433 6365
0.060 1.164 1.782 5710
0.061 1.178 1.792 7150
0.061 1.188 1.795 6269
0.061 1.188 1.785 3922
0.049 0.942 1.444 4032
0.049 0.951 1.448 4078
0.063 1.221 1.799 4233
0.063 1.226 1.796 5727
0.056 1.092 1.609 4848
0.056 1.096 1.606 5146
0.057 1.100 1.603 5320
0.057 1.100 1.593 5192
0.056 1.094 1.578 4211
0.052 1.005 1.456 4016
0.052 1.019 1.465 3697
0.067 1.298 1.809 4002
0.068 1.313 1.818 4523
0.068 1.323 1.820 4235
0.054 1.054 1.478 5990
0.069 1.343 1.825 6716
0.070 1.353 1.827 5008
0.054 1.046 1.444 5244
0.071 1.377 1.837 5480
0.071 1.382 1.833 7810
0.071 1.387 1.829 5811
0.055 1.071 1.443 4986
0.072 1.392 1.814 9744
0.072 1.407 1.822 14357
0.073 1.412 1.818 14721
0.056 1.096 1.443 12455
0.057 1.100 1.439 10579
0.074 1.442 1.823 8586
0.074 1.447 1.819 6340
0.077 1.489 1.856 4675
0.076 1.483 1.840 9567
0.077 1.488 1.836 13113
0.077 1.498 1.837 8985
0.077 1.503 1.833 6305
0.060 1.172 1.460 7448
0.061 1.182 1.462 8344
0.078 1.518 1.819 6082
0.079 1.539 1.832 6010
0.080 1.549 1.833 6528
0.080 1.554 1.829 9986
0.080 1.559 1.824 8566
0.080 1.558 1.814 5264
0.081 1.569 1.815 6163
0.081 1.573 1.810 8861
0.066 1.282 1.498 9751
0.066 1.286 1.494 9509
0.083 1.604 1.813 9086
0.083 1.615 1.814 8001
0.083 1.614 1.804 9321
0.083 1.619 1.799 12903
0.084 1.629 1.800 10398
0.086 1.668 1.828 9983
0.086 1.673 1.823 17470
0.086 1.678 1.818 22706
0.087 1.688 1.819 25014
0.087 1.693 1.814 18806
0.088 1.704 1.814 17317
0.088 1.708 1.809 26928
0.088 1.713 1.804 25840
0.089 1.730 1.810 29694
0.089 1.734 1.805 35684
0.090 1.751 1.811 28192
0.090 1.756 1.806 23719
0.091 1.766 1.806 25780
0.091 1.771 1.800 17744
0.092 1.787 1.806 10392
0.093 1.804 1.811 11906
0.093 1.809 1.806 13693
0.093 1.814 1.801 14531
0.094 1.818 1.795 11831
0.094 1.829 1.795 11532
0.095 1.840 1.795 13448
0.095 1.845 1.789 11141
0.095 1.849 1.784 11014
0.096 1.860 1.784 15522
0.096 1.871 1.783 18819
0.097 1.876 1.778 14781
0.097 1.892 1.783 10554
0.098 1.909 1.787 13474
0.099 1.920 1.787 16657
0.099 1.931 1.786 13474
0.100 1.948 1.790 19270
0.100 1.947 1.780 27939
0.100 1.945 1.769 26454
0.100 1.950 1.763 26249
0.101 1.961 1.762 31881
0.101 1.965 1.757 24789
0.101 1.970 1.751 14006
0.102 1.975 1.745 12605
0.102 1.979 1.739 12669
0.107 2.083 1.812 15197
0.108 2.094 1.810 14677
0.108 2.099 1.804 14792
0.109 2.123 1.813 15149
0.110 2.128 1.806 11583
0.109 2.120 1.790 7657
0.110 2.144 1.799 7818
0.111 2.155 1.797 12056
0.111 2.159 1.791 14505
0.111 2.164 1.784 16511
0.112 2.169 1.778 17317
0.112 2.174 1.771 14430
0.112 2.185 1.770 8423
0.116 2.260 1.815 3989
0.116 2.258 1.803 7081
0.118 2.302 1.824 10396
0.119 2.306 1.818 16620
0.118 2.298 1.802 17323
0.119 2.303 1.795 12959
0.120 2.327 1.802 12804
0.120 2.332 1.795 14187
0.121 2.350 1.797 12901
0.123 2.394 1.817 15196
0.124 2.405 1.814 19029
0.124 2.404 1.803 18423
0.124 2.408 1.796 16142
0.125 2.420 1.793 12767
0.126 2.451 1.803 9827
0.127 2.462 1.801 10328
0.129 2.507 1.819 11972
0.130 2.525 1.821 15733
0.130 2.523 1.809 13249
0.131 2.541 1.810 8110
0.132 2.572 1.820 6189
0.133 2.584 1.816 4707
0.130 2.529 1.771 4150
0.132 2.567 1.784 8359
0.132 2.572 1.777 11987
0.133 2.576 1.769 11773
0.133 2.588 1.766 9014
0.134 2.599 1.762 6612
0.134 2.611 1.759 4676
0.140 2.710 1.808 3672
0.140 2.728 1.809 4329
0.142 2.754 1.813 5786
0.142 2.752 1.801 8870
0.142 2.756 1.793 10578
0.142 2.761 1.784 9259
0.143 2.773 1.780 8073
0.145 2.812 1.792 9272
0.145 2.817 1.784 10099
0.145 2.821 1.775 9142
0.147 2.847 1.779 9496
0.147 2.858 1.774 10719
0.147 2.856 1.762 8661
0.146 2.840 1.742 5657
0.156 3.025 1.833 6942
0.156 3.030 1.824 5960
0.155 3.014 1.804 5411
0.156 3.025 1.799 4161
0.158 3.072 1.812 3906
0.159 3.098 1.815 5272
0.160 3.103 1.805 6802
0.160 3.107 1.796 6283
0.161 3.126 1.794 5999
0.161 3.131 1.785 5355
0.166 3.227 1.823 5092
0.166 3.225 1.810 4839
0.165 3.209 1.790 4578
0.165 3.206 1.777 3179
0.165 3.211 1.767 2198
0.172 3.343 1.821 2356
0.172 3.348 1.811 2356
0.173 3.353 1.802 1925
0.177 3.436 1.830 2056
0.178 3.455 1.826 2730
0.178 3.467 1.820 3667
0.180 3.493 1.820 3492
0.181 3.513 1.816 3882
0.181 3.510 1.802 3034
0.185 3.601 1.832 2436
0.193 3.742 1.884 2526
0.193 3.747 1.873 3779
0.193 3.745 1.859 4276
0.193 3.750 1.848 4780
0.193 3.755 1.837 4780
0.194 3.767 1.829 4309
0.195 3.787 1.825 4039
0.196 3.799 1.817 4234
0.196 3.811 1.809 4476
0.196 3.816 1.797 4476
0.197 3.821 1.786 2238
0.039 0.702 1.742 15499
0.040 0.707 1.740 14412
0.040 0.715 1.745 13675
0.040 0.720 1.742 13579
0.041 0.728 1.747 14587
0.042 0.739 1.760 16702
0.042 0.744 1.757 17372
0.042 0.752 1.762 18180
0.043 0.756 1.760 15707
0.043 0.761 1.758 13233
0.043 0.769 1.762 13575
0.044 0.774 1.760 13785
0.044 0.782 1.765 13593
0.044 0.787 1.763 10335
0.045 0.795 1.767 7251
0.045 0.796 1.758 7905
0.045 0.797 1.748 8851
0.045 0.806 1.753 9622
0.046 0.810 1.751 10511
0.046 0.819 1.755 12122
0.046 0.823 1.753 13895
0.047 0.832 1.757 13581
0.047 0.840 1.762 14024
0.048 0.849 1.766 10601
0.048 0.857 1.771 7494
0.048 0.862 1.768 6241
0.049 0.867 1.765 4989
0.049 0.875 1.770 7293
0.049 0.880 1.767 9623
0.050 0.885 1.764 12136
0.050 0.889 1.762 14649
0.050 0.890 1.752 15984
0.050 0.895 1.750 15921
0.051 0.899 1.747 14077
0.051 0.908 1.751 9948
0.052 0.925 1.769 7451
0.052 0.929 1.766 9291
0.053 0.934 1.763 11132
0.053 0.935 1.754 14711
0.053 0.939 1.751 19229
0.053 0.944 1.748 21859
0.054 0.953 1.752 28878
0.054 0.957 1.749 34187
0.054 0.962 1.746 38183
0.054 0.967 1.743 36929
0.055 0.976 1.747 32553
0.055 0.984 1.751 26378
0.056 0.993 1.755 18308
0.056 1.002 1.758 20310
0.057 1.011 1.762 20353
0.057 1.020 1.766 18363
0.058 1.025 1.763 19030
0.058 1.030 1.760 17092
0.058 1.034 1.757 14488
0.058 1.026 1.734 13114
0.060 1.070 1.790 10646
0.060 1.075 1.787 16974
0.061 1.088 1.797 18460
0.062 1.098 1.800 15347
0.063 1.111 1.810 10296
0.063 1.116 1.806 10063
0.063 1.121 1.803 8047
0.063 1.117 1.787 6454
0.063 1.122 1.783 8809
0.063 1.126 1.780 11003
0.064 1.140 1.790 9421
0.050 0.893 1.432 7542
0.050 0.896 1.429 6074
0.051 0.905 1.433 5805
0.065 1.164 1.782 6687
0.066 1.178 1.792 7966
0.067 1.187 1.795 6340
0.067 1.183 1.778 3638
0.053 0.947 1.451 3989
0.054 0.955 1.454 4131
0.069 1.221 1.799 4324
0.069 1.221 1.789 5688
0.069 1.230 1.792 5057
0.070 1.245 1.801 5099
0.062 1.100 1.603 4787
0.062 1.099 1.593 4652
0.056 0.996 1.453 3892
0.057 1.005 1.456 4414
0.057 1.019 1.465 3901
0.058 1.032 1.475 4418
0.074 1.313 1.818 4415
0.074 1.318 1.814 4389
0.059 1.054 1.478 5878
0.075 1.337 1.818 7238
0.075 1.342 1.814 5646
0.059 1.045 1.444 5560
0.077 1.372 1.831 5264
0.077 1.377 1.827 7646
0.078 1.382 1.823 5855
0.077 1.377 1.806 5001
0.078 1.387 1.808 9593
0.079 1.402 1.816 13802
0.079 1.412 1.818 13870
0.062 1.096 1.443 10816
0.062 1.095 1.433 9292
0.081 1.437 1.817 8875
0.081 1.447 1.819 6643
0.084 1.488 1.856 4179
0.083 1.477 1.834 9124
0.083 1.482 1.830 12984
0.084 1.492 1.831 8984
0.085 1.503 1.833 6077
0.066 1.172 1.460 7647
0.066 1.181 1.462 8475
0.067 1.191 1.464 4207
0.087 1.538 1.832 4535
0.087 1.549 1.833 5580
0.087 1.554 1.829 7998
0.088 1.558 1.824 6533
0.088 1.558 1.814 4130
0.088 1.568 1.815 5878
0.088 1.573 1.810 9302
0.088 1.572 1.800 10003
0.072 1.285 1.494 9271
0.090 1.593 1.802 6261
0.090 1.603 1.803 6114
0.091 1.614 1.804 8392
0.091 1.619 1.799 10870
0.092 1.635 1.805 8776
0.094 1.667 1.828 11200
0.094 1.672 1.823 17046
0.094 1.677 1.818 21266
0.095 1.682 1.813 26574
0.095 1.687 1.808 23038
0.096 1.703 1.814 19654
0.096 1.708 1.809 27700
0.097 1.718 1.810 26521
0.097 1.729 1.810 32469
0.098 1.734 1.805 37497
0.098 1.750 1.811 27855
0.099 1.755 1.806 23857
0.099 1.760 1.800 26364
0.100 1.771 1.800 18076
0.101 1.787 1.806 11192
0.101 1.798 1.806 12987
0.101 1.803 1.801 14761
0.102 1.813 1.801 15080
0.102 1.818 1.795 12118
0.103 1.829 1.795 11330
0.103 1.839 1.795 13878
0.104 1.850 1.795 11705
0.104 1.849 1.784 10600
0.105 1.860 1.784 15409
0.105 1.870 1.783 18771
0.106 1.881 1.783 14740
0.106 1.892 1.783 10927
0.107 1.909 1.787 14037
0.108 1.926 1.792 17738
0.109 1.930 1.786 15634
0.109 1.941 1.785 22659
0.109 1.940 1.775 34714
0.109 1.945 1.769 33752
0.109 1.943 1.758 31324
0.110 1.954 1.757 33114
0.110 1.959 1.752 25017
0.110 1.963 1.746 15438
0.111 1.974 1.745 14705
0.111 1.979 1.739 13862
0.117 2.083 1.812 15075
0.118 2.094 1.810 15220
0.118 2.099 1.804 15056
0.119 2.122 1.813 15412
0.120 2.127 1.806 12802
0.119 2.119 1.790 9203
0.120 2.137 1.794 7715
0.121 2.154 1.797 11802
0.121 2.159 1.791 15170
0.122 2.164 1.784 17913
0.122 2.168 1.778 19552
0.123 2.180 1.776 16660
0.123 2.184 1.770 10048
0.127 2.259 1.815 5577
0.127 2.258 1.803 7999
0.129 2.295 1.820 9709
0.129 2.299 1.813 16034
0.129 2.298 1.802 17226
0.130 2.303 1.795 12502
0.131 2.327 1.802 12040
0.132 2.338 1.799 13815
0.132 2.349 1.797 13025
0.135 2.393 1.817 14839
0.135 2.405 1.814 18262
0.135 2.403 1.803 18028
0.135 2.408 1.796 16238
0.136 2.419 1.793 12961
0.138 2.450 1.803 11286
0.138 2.462 1.801 12444
0.139 2.473 1.798 13150
0.141 2.511 1.812 15682
0.141 2.516 1.805 13022
0.140 2.481 1.771 7558
0.145 2.585 1.828 5507
0.140 2.490 1.757 4786
0.142 2.521 1.766 4735
0.144 2.566 1.784 8651
0.144 2.564 1.773 12464
0.145 2.576 1.769 11933
0.146 2.587 1.766 8825
0.146 2.599 1.762 6304
0.147 2.610 1.759 4506
0.152 2.709 1.808 3030
0.155 2.748 1.821 4074
0.155 2.753 1.813 5734
0.155 2.751 1.801 9159
0.155 2.756 1.793 10931
0.155 2.760 1.784 9750
0.157 2.786 1.788 9042
0.158 2.811 1.792 10574
0.158 2.816 1.784 11026
0.159 2.821 1.775 9736
0.160 2.839 1.775 10031
0.160 2.851 1.770 11114
0.161 2.855 1.762 9172
0.160 2.839 1.742 6078
0.170 3.024 1.833 6155
0.170 3.029 1.824 5257
0.169 3.006 1.800 4904
0.170 3.018 1.795 3723
0.173 3.078 1.816 3417
0.174 3.097 1.815 4967
0.174 3.102 1.805 6529
0.175 3.107 1.796 6080
0.176 3.125 1.794 5915
0.176 3.130 1.785 5249
0.181 3.219 1.820 5390
0.181 3.217 1.806 5275
0.180 3.208 1.790 4857
0.180 3.205 1.777 3353
0.181 3.210 1.767 2334
0.188 3.342 1.821 2125
0.188 3.347 1.811 2125
0.193 3.437 1.843 1951
0.183 3.257 1.743 2150
0.194 3.454 1.826 2941
0.195 3.466 1.820 3899
0.196 3.492 1.820 3657
0.198 3.512 1.816 4086
0.197 3.509 1.802 3159
0.203 3.607 1.835 2423
0.210 3.741 1.884 2301
0.211 3.746 1.873 3474
0.211 3.752 1.862 4026
0.211 3.756 1.851 4578
0.212 3.761 1.840 4578
0.212 3.766 1.829 4334
0.213 3.778 1.821 4152
0.213 3.791 1.813 4250
0.214 3.803 1.805 4422
0.214 3.807 1.794 4422
0.214 3.812 1.783 2211
0.042 0.702 1.742 16263
0.042 0.707 1.740 15224
0.042 0.715 1.745 14524
0.043 0.719 1.742 14301
0.043 0.727 1.747 14589
0.044 0.739 1.760 16035
0.044 0.747 1.764 16815
0.045 0.752 1.762 17741
0.045 0.756 1.760 15477
0.045 0.761 1.758 13212
0.046 0.769 1.762 13503
0.046 0.774 1.760 13457
0.046 0.782 1.765 13109
0.047 0.787 1.763 9809
0.047 0.795 1.767 6721
0.047 0.796 1.758 7549
0.047 0.797 1.748 8675
0.048 0.806 1.753 9778
0.048 0.810 1.751 10968
0.049 0.819 1.755 12772
0.049 0.823 1.753 14696
0.049 0.832 1.757 14170
0.050 0.840 1.762 14353
0.050 0.845 1.759 10828
0.051 0.857 1.771 7532
0.051 0.862 1.768 5929
0.051 0.859 1.752 4367
0.052 0.875 1.770 6758
0.052 0.880 1.767 9160
0.053 0.884 1.764 12044
0.053 0.889 1.762 14929
0.053 0.890 1.752 16304
0.053 0.895 1.750 16121
0.053 0.899 1.747 13903
0.054 0.908 1.751 9377
0.055 0.924 1.769 6975
0.055 0.929 1.766 8990
0.055 0.934 1.763 11006
0.055 0.935 1.754 14657
0.056 0.939 1.751 18923
0.056 0.944 1.748 21222
0.057 0.953 1.752 28301
0.057 0.957 1.749 33838
0.057 0.962 1.746 37769
0.057 0.967 1.743 36129
0.058 0.975 1.747 31268
0.058 0.984 1.751 24429
0.059 0.993 1.755 15890
0.059 0.998 1.752 17266
0.060 1.011 1.762 16440
0.061 1.020 1.766 14122
0.061 1.029 1.769 15343
0.061 1.034 1.766 14432
0.061 1.034 1.757 12266
0.061 1.026 1.734 11796
0.063 1.065 1.783 10794
0.064 1.075 1.787 16766
0.064 1.084 1.790 18009
0.065 1.093 1.793 14799
0.066 1.107 1.803 9647
0.066 1.116 1.806 9481
0.067 1.121 1.803 7673
0.067 1.121 1.793 6057
0.067 1.121 1.783 8321
0.067 1.126 1.780 10545
0.068 1.140 1.790 9263
0.069 1.154 1.799 8296
0.069 1.159 1.796 6806
0.069 1.154 1.779 6217
0.069 1.164 1.782 7423
0.070 1.178 1.792 8429
0.070 1.187 1.795 6212
0.070 1.187 1.785 3451
0.056 0.947 1.451 3859
0.057 0.960 1.461 4179
0.072 1.221 1.799 4333
0.072 1.221 1.789 5596
0.073 1.235 1.798 5281
0.074 1.245 1.801 5688
0.075 1.264 1.816 5034
0.076 1.274 1.818 4433
0.059 0.996 1.453 4177
0.060 1.005 1.456 4666
0.060 1.019 1.465 4027
0.061 1.032 1.475 4942
0.062 1.036 1.472 4795
0.078 1.317 1.814 4488
0.063 1.054 1.478 5754
0.079 1.337 1.818 7789
0.080 1.342 1.814 6572
0.062 1.050 1.450 5847
0.081 1.367 1.825 5321
0.082 1.377 1.827 7486
0.082 1.382 1.823 6144
0.082 1.376 1.806 5449
0.082 1.386 1.808 9529
0.083 1.401 1.816 13127
0.084 1.411 1.818 12952
0.084 1.416 1.814 9402
0.065 1.094 1.433 7998
0.085 1.436 1.817 9218
0.086 1.441 1.813 7575
0.085 1.436 1.797 4520
0.088 1.477 1.834 8410
0.088 1.482 1.830 12442
0.089 1.492 1.831 8967
0.089 1.502 1.833 6205
0.070 1.172 1.460 7526
0.070 1.181 1.462 8251
0.071 1.190 1.464 4175
0.091 1.533 1.826 3864
0.092 1.543 1.828 5124
0.092 1.553 1.829 6241
0.093 1.558 1.824 4658
0.075 1.269 1.509 3310
0.093 1.568 1.815 5549
0.093 1.567 1.805 9358
0.093 1.572 1.800 10244
0.076 1.285 1.494 8689
0.094 1.587 1.796 5759
0.077 1.293 1.487 5789
0.077 1.297 1.483 8662
0.096 1.624 1.804 9213
0.098 1.651 1.822 9289
0.099 1.667 1.828 12434
0.099 1.672 1.823 15726
0.100 1.677 1.818 18325
0.100 1.682 1.813 26254
0.100 1.687 1.808 26494
0.101 1.697 1.809 23393
0.101 1.708 1.809 28309
0.102 1.724 1.815 28122
0.103 1.729 1.810 34833
0.103 1.739 1.810 37543
0.104 1.750 1.811 27198
0.104 1.755 1.806 24118
0.104 1.760 1.800 26429
0.105 1.770 1.800 17469
0.106 1.781 1.801 11424
0.107 1.797 1.806 13520
0.107 1.802 1.801 15550
0.107 1.807 1.795 15858
0.108 1.818 1.795 12534
0.109 1.828 1.795 10862
0.109 1.839 1.795 13885
0.110 1.850 1.795 11823
0.110 1.849 1.784 9720
0.110 1.859 1.784 14625
0.111 1.870 1.783 18354
0.112 1.881 1.783 14562
0.112 1.892 1.783 11036
0.113 1.908 1.787 14890
0.114 1.925 1.792 19651
0.115 1.930 1.786 18589
0.115 1.935 1.780 26215
0.115 1.940 1.775 40382
0.115 1.944 1.769 39939
0.115 1.943 1.758 35466
0.116 1.954 1.757 33565
0.116 1.958 1.752 24330
0.117 1.963 1.746 16484
0.117 1.974 1.745 16191
0.117 1.979 1.739 14219
0.124 2.082 1.812 14582
0.124 2.093 1.810 15374
0.125 2.098 1.804 14884
0.126 2.122 1.813 15240
0.126 2.120 1.801 13780
0.126 2.119 1.790 10519
0.126 2.130 1.789 7802
0.128 2.160 1.802 11647
0.128 2.159 1.791 15581
0.128 2.163 1.784 18812
0.129 2.168 1.778 20971
0.129 2.179 1.776 18067
0.130 2.184 1.770 11200
0.133 2.246 1.805 7657
0.134 2.251 1.799 8986
0.136 2.294 1.820 8944
0.136 2.299 1.813 15138
0.136 2.297 1.802 16655
0.137 2.302 1.795 11758
0.138 2.326 1.802 11016
0.139 2.338 1.799 13072
0.140 2.355 1.801 12755
0.142 2.393 1.817 13889
0.143 2.404 1.814 16882
0.143 2.402 1.803 17003
0.143 2.407 1.796 15656
0.144 2.419 1.793 12826
0.146 2.456 1.808 12771
0.146 2.461 1.801 14423
0.146 2.466 1.793 14943
0.149 2.504 1.808 15858
0.149 2.509 1.800 13225
0.147 2.480 1.771 8379
0.147 2.478 1.760 5692
0.148 2.490 1.757 5095
0.150 2.528 1.771 5252
0.152 2.566 1.784 8848
0.152 2.564 1.773 12693
0.153 2.575 1.769 11937
0.154 2.587 1.766 8726
0.154 2.598 1.762 6217
0.155 2.603 1.755 4523
0.161 2.709 1.808 2624
0.164 2.754 1.825 3942
0.163 2.752 1.813 5726
0.163 2.750 1.801 9464
0.164 2.755 1.793 11243
0.164 2.767 1.788 10157
0.166 2.792 1.792 10081
0.167 2.811 1.792 11485
0.168 2.822 1.788 11633
0.168 2.827 1.779 10152
0.169 2.839 1.775 10487
0.169 2.850 1.770 11444
0.169 2.855 1.762 9522
0.169 2.839 1.742 6415
0.179 3.023 1.833 5505
0.180 3.028 1.824 4659
0.178 3.005 1.800 4490
0.179 3.010 1.791 3393
0.184 3.098 1.827 3066
0.184 3.096 1.815 4620
0.184 3.101 1.805 6207
0.184 3.106 1.796 5812
0.186 3.125 1.794 5696
0.186 3.130 1.785 5034
0.191 3.219 1.820 5657
0.191 3.216 1.806 5630
0.190 3.207 1.790 5087
0.190 3.205 1.777 3520
0.191 3.217 1.771 2512
0.191 3.214 1.758 2146
0.198 3.340 1.808 2030
0.193 3.252 1.753 2118
0.193 3.257 1.743 2527
0.205 3.454 1.826 3066
0.206 3.466 1.820 4041
0.207 3.492 1.820 3777
0.208 3.504 1.813 4227
0.208 3.509 1.802 3229
0.214 3.607 1.835 2411
0.214 3.612 1.825 2218
0.222 3.746 1.873 3187
0.223 3.751 1.862 3789
0.223 3.756 1.851 4392
0.223 3.761 1.840 4392
0.224 3.766 1.829 4337
0.224 3.778 1.821 4295
0.225 3.790 1.813 4255
0.226 3.802 1.805 4331
0.226 3.807 1.794 4331
0.226 3.812 1.783 2165
0.043 0.702 1.742 16845
0.043 0.707 1.740 15837
0.044 0.715 1.745 15206
0.044 0.719 1.742 14873
0.044 0.727 1.747 14505
0.045 0.739 1.760 15377
0.046 0.747 1.764 16280
0.046 0.752 1.762 17294
0.046 0.756 1.760 15254
0.047 0.764 1.765 13217
0.047 0.769 1.762 13441
0.047 0.774 1.760 13124
0.048 0.782 1.765 12615
0.048 0.787 1.763 9268
0.048 0.795 1.767 6170
0.048 0.793 1.751 7140
0.049 0.797 1.748 8397
0.049 0.805 1.753 9861
0.049 0.810 1.751 11386
0.050 0.818 1.755 13400
0.050 0.823 1.753 15499
0.051 0.832 1.757 14744
0.051 0.840 1.762 14664
0.051 0.845 1.759 11080
0.052 0.853 1.764 7681
0.052 0.858 1.761 5665
0.053 0.870 1.772 3736
0.053 0.875 1.770 6192
0.054 0.880 1.767 8648
0.054 0.884 1.764 11919
0.054 0.889 1.762 15191
0.054 0.890 1.752 16605
0.055 0.894 1.750 16263
0.055 0.899 1.747 13645
0.055 0.908 1.751 8732
0.056 0.924 1.769 6437
0.057 0.929 1.766 8667
0.057 0.930 1.756 11034
0.057 0.934 1.754 14580
0.057 0.939 1.751 18456
0.058 0.944 1.748 20315
0.058 0.953 1.752 27339
0.058 0.957 1.749 33017
0.059 0.962 1.746 36858
0.059 0.967 1.743 34910
0.059 0.975 1.747 29701
0.060 0.984 1.751 22339
0.061 0.993 1.755 13478
0.061 0.998 1.752 14388
0.061 1.007 1.755 12950
0.062 1.016 1.759 10455
0.062 1.025 1.763 11891
0.063 1.034 1.766 11961
0.063 1.038 1.763 10302
0.062 1.026 1.734 10678
0.065 1.061 1.777 11377
0.065 1.074 1.787 16692
0.066 1.084 1.790 17633
0.067 1.093 1.793 14185
0.067 1.107 1.803 8850
0.068 1.116 1.806 8680
0.068 1.121 1.803 7124
0.068 1.121 1.793 5628
0.068 1.121 1.783 7725
0.069 1.126 1.780 9922
0.070 1.144 1.796 9057
0.070 1.154 1.799 8921
0.071 1.159 1.796 7797
0.071 1.159 1.786 6939
0.071 1.164 1.782 8147
0.072 1.178 1.792 8935
0.072 1.187 1.795 6214
0.073 1.197 1.797 3511
0.058 0.947 1.451 3724
0.058 0.960 1.461 4306
0.074 1.220 1.799 4314
0.074 1.220 1.789 5350
0.075 1.235 1.798 5426
0.076 1.244 1.801 6071
0.077 1.264 1.816 5580
0.078 1.273 1.818 5090
0.077 1.269 1.802 4731
0.061 1.000 1.450 4785
0.062 1.018 1.465 4061
0.063 1.032 1.475 5401
0.063 1.036 1.472 5563
0.080 1.312 1.808 4549
0.080 1.317 1.804 6077
0.081 1.332 1.812 8412
0.082 1.342 1.814 7356
0.064 1.050 1.450 6073
0.083 1.367 1.825 5527
0.084 1.372 1.821 7428
0.084 1.382 1.823 6575
0.084 1.376 1.806 5937
0.084 1.386 1.808 9465
0.085 1.396 1.810 12360
0.086 1.411 1.818 11988
0.086 1.411 1.808 9230
0.087 1.421 1.810 7921
0.087 1.431 1.811 9679
0.087 1.436 1.807 8857
0.087 1.435 1.797 5563
0.090 1.472 1.828 7589
0.090 1.482 1.830 11519
0.091 1.492 1.831 8754
0.092 1.502 1.833 6390
0.071 1.172 1.460 7209
0.072 1.181 1.462 7898
0.072 1.185 1.458 4307
0.093 1.527 1.821 3879
0.094 1.543 1.828 5014
0.095 1.553 1.829 4981
0.095 1.558 1.824 3350
0.077 1.269 1.509 2939
0.096 1.568 1.815 5252
0.095 1.567 1.805 9094
0.096 1.572 1.800 10160
0.096 1.577 1.795 8385
0.096 1.582 1.791 6172
0.079 1.293 1.487 5971
0.079 1.297 1.483 8970
0.099 1.629 1.810 8536
0.101 1.656 1.828 11486
0.102 1.667 1.828 13607
0.102 1.677 1.829 13651
0.102 1.677 1.818 14404
0.102 1.676 1.808 24482
0.102 1.681 1.803 28277
0.103 1.697 1.809 26372
0.104 1.707 1.809 28276
0.105 1.724 1.815 30417
0.105 1.729 1.810 36979
0.106 1.739 1.810 36068
0.107 1.750 1.811 26255
0.107 1.749 1.800 24518
0.107 1.754 1.795 25730
0.108 1.764 1.795 16068
0.109 1.781 1.801 11132
0.110 1.797 1.806 13651
0.110 1.802 1.801 16071
0.110 1.807 1.795 16748
0.111 1.818 1.795 13053
0.111 1.828 1.795 10298
0.112 1.839 1.795 13557
0.112 1.844 1.789 11668
0.113 1.848 1.784 8456
0.113 1.859 1.784 13179
0.114 1.870 1.783 17499
0.115 1.881 1.783 14187
0.116 1.897 1.788 11020
0.116 1.908 1.787 16031
0.117 1.925 1.792 22133
0.117 1.924 1.781 22243
0.118 1.935 1.780 29968
0.118 1.939 1.775 44366
0.118 1.944 1.769 44740
0.118 1.943 1.758 38702
0.119 1.954 1.757 33132
0.119 1.952 1.747 23300
0.119 1.957 1.741 16949
0.120 1.974 1.745 16796
0.120 1.972 1.734 13535
0.127 2.082 1.812 13910
0.128 2.093 1.810 15354
0.128 2.098 1.804 14460
0.129 2.115 1.808 14778
0.129 2.120 1.801 14668
0.129 2.119 1.790 11605
0.130 2.130 1.789 7879
0.132 2.160 1.802 11585
0.132 2.158 1.791 15679
0.132 2.163 1.784 19100
0.132 2.168 1.778 21572
0.133 2.179 1.776 18746
0.133 2.184 1.770 12054
0.136 2.233 1.796 9927
0.137 2.251 1.799 9737
0.138 2.262 1.797 8427
0.140 2.299 1.813 13928
0.140 2.297 1.802 15778
0.140 2.302 1.795 10841
0.142 2.326 1.802 9830
0.142 2.337 1.799 12056
0.144 2.355 1.801 12170
0.146 2.393 1.817 12461
0.146 2.404 1.814 14929
0.147 2.409 1.807 15419
0.147 2.407 1.796 14406
0.148 2.425 1.797 12384
0.150 2.456 1.808 14277
0.150 2.461 1.801 16324
0.150 2.466 1.793 16730
0.153 2.504 1.808 16385
0.153 2.508 1.800 13936
0.151 2.480 1.771 9333
0.151 2.478 1.760 6268
0.151 2.483 1.752 5528
0.154 2.527 1.771 5790
0.157 2.572 1.789 8920
0.156 2.564 1.773 12673
0.157 2.575 1.769 11799
0.158 2.586 1.766 8693
0.158 2.598 1.762 6315
0.159 2.603 1.755 4720
0.167 2.742 1.829 2535
0.168 2.754 1.825 3960
0.167 2.745 1.809 5884
0.168 2.750 1.801 9784
0.168 2.755 1.793 11511
0.169 2.767 1.788 10510
0.170 2.792 1.792 10907
0.171 2.810 1.792 12069
0.172 2.822 1.788 11958
0.172 2.827 1.779 10410
0.173 2.838 1.775 10794
0.174 2.850 1.770 11632
0.174 2.848 1.758 9736
0.173 2.839 1.742 6652
0.179 2.940 1.787 5298
0.179 2.945 1.779 4205
0.183 2.998 1.796 4161
0.183 2.996 1.784 3321
0.189 3.098 1.827 2730
0.189 3.096 1.815 4254
0.189 3.101 1.805 5850
0.189 3.106 1.796 5492
0.190 3.124 1.794 5383
0.191 3.129 1.785 4746
0.196 3.218 1.820 5818
0.196 3.216 1.806 5872
0.195 3.207 1.790 5232
0.195 3.205 1.777 3652
0.196 3.216 1.771 2719
0.196 3.214 1.758 2295
0.203 3.339 1.808 2048
0.198 3.252 1.753 2395
0.199 3.264 1.747 2869
0.210 3.453 1.826 3147
0.211 3.465 1.820 4147
0.212 3.484 1.816 3874
0.213 3.504 1.813 4323
0.214 3.508 1.802 3274
0.206 3.384 1.732 2442
0.220 3.618 1.828 2223
0.229 3.753 1.877 2920
0.229 3.750 1.862 3569
0.229 3.755 1.851 4220
0.229 3.760 1.840 4220
0.229 3.765 1.829 4337
0.230 3.770 1.818 4455
0.230 3.782 1.810 4265
0.232 3.802 1.805 4221
0.232 3.806 1.794 4221
0.232 3.811 1.783 2110
0.045 0.702 1.742 17315
0.045 0.707 1.740 16368
0.046 0.715 1.745 15820
0.046 0.719 1.742 15363
0.047 0.727 1.747 14335
0.047 0.739 1.760 14656
0.048 0.747 1.764 15646
0.049 0.755 1.769 16818
0.049 0.760 1.767 15054
0.049 0.764 1.765 13290
0.049 0.769 1.762 13371
0.050 0.774 1.760 12807
0.050 0.778 1.758 12163
0.050 0.783 1.756 8774
0.051 0.795 1.767 5643
0.051 0.792 1.751 6740
0.051 0.797 1.748 8097
0.052 0.805 1.753 9922
0.052 0.810 1.751 11782
0.053 0.818 1.755 13979
0.053 0.823 1.753 16243
0.053 0.831 1.757 15239
0.054 0.840 1.762 14886
0.054 0.844 1.759 11294
0.055 0.853 1.764 7858
0.055 0.858 1.761 5429
0.056 0.874 1.779 3168
0.056 0.875 1.770 5595
0.057 0.879 1.767 8061
0.057 0.884 1.764 11742
0.057 0.889 1.762 15423
0.057 0.890 1.752 16902
0.057 0.894 1.750 16407
0.058 0.899 1.747 13367
0.058 0.904 1.744 8257
0.059 0.924 1.769 5860
0.059 0.925 1.759 8381
0.060 0.930 1.756 11085
0.060 0.934 1.754 14430
0.060 0.939 1.751 17773
0.061 0.944 1.748 19121
0.061 0.952 1.752 26057
0.062 0.957 1.749 31833
0.062 0.962 1.746 35573
0.062 0.966 1.743 33419
0.063 0.975 1.747 27985
0.063 0.984 1.751 20193
0.064 0.993 1.755 11134
0.064 0.998 1.752 11622
0.064 1.002 1.749 9927
0.065 1.007 1.746 7745
0.066 1.020 1.756 9059
0.066 1.033 1.766 9745
0.067 1.038 1.763 8675
0.067 1.038 1.753 9859
0.068 1.056 1.770 11942
0.069 1.074 1.787 16266
0.069 1.079 1.784 16899
0.070 1.093 1.793 13244
0.071 1.106 1.803 7907
0.072 1.116 1.806 7700
0.072 1.120 1.803 6440
0.072 1.121 1.793 5224
0.072 1.121 1.783 7189
0.072 1.126 1.780 9319
0.074 1.144 1.796 8918
0.074 1.154 1.799 9334
0.074 1.154 1.789 8546
0.074 1.159 1.786 7450
0.075 1.168 1.789 8505
0.076 1.177 1.792 8928
0.077 1.192 1.801 5971
0.077 1.196 1.797 3537
0.061 0.951 1.457 3704
0.062 0.960 1.461 4512
0.078 1.220 1.799 4276
0.078 1.220 1.789 5118
0.079 1.235 1.798 5439
0.080 1.249 1.807 6312
0.081 1.264 1.816 6127
0.082 1.273 1.818 5716
0.082 1.268 1.802 5429
0.082 1.273 1.798 5269
0.083 1.288 1.807 4599
0.067 1.037 1.481 5792
0.067 1.036 1.472 6264
0.066 1.030 1.456 4681
0.085 1.317 1.804 6489
0.086 1.332 1.812 8966
0.086 1.342 1.814 7938
0.067 1.050 1.450 6297
0.087 1.361 1.819 5745
0.088 1.371 1.821 7321
0.089 1.381 1.823 6904
0.088 1.376 1.806 6555
0.089 1.381 1.802 9741
0.090 1.396 1.810 11804
0.091 1.411 1.818 11083
0.091 1.416 1.814 9093
0.091 1.421 1.810 8162
0.092 1.431 1.811 10215
0.092 1.436 1.807 10304
0.093 1.440 1.803 6656
0.094 1.466 1.822 6847
0.095 1.482 1.830 10283
0.096 1.492 1.831 8333
0.097 1.502 1.833 6432
0.075 1.172 1.460 6540
0.076 1.181 1.462 7169
0.076 1.185 1.458 4278
0.098 1.527 1.821 4406
0.099 1.542 1.828 5168
0.100 1.553 1.829 4597
0.100 1.552 1.818 3128
0.099 1.546 1.802 2660
0.101 1.567 1.815 5045
0.101 1.567 1.805 8639
0.101 1.572 1.800 9782
0.101 1.576 1.795 8344
0.102 1.581 1.791 6605
0.083 1.292 1.487 5906
0.083 1.296 1.483 8947
0.105 1.640 1.821 9072
0.106 1.656 1.828 13943
0.107 1.661 1.823 14487
0.107 1.671 1.823 11081
0.108 1.676 1.818 10946
0.108 1.676 1.808 22074
0.108 1.680 1.803 27020
0.109 1.691 1.803 26280
0.110 1.707 1.809 27605
0.110 1.718 1.810 32651
0.111 1.728 1.810 37924
0.112 1.739 1.810 33360
0.112 1.749 1.811 24948
0.112 1.748 1.800 24812
0.113 1.753 1.795 24693
0.113 1.764 1.795 14000
0.114 1.780 1.801 10558
0.115 1.791 1.801 13845
0.116 1.802 1.801 16266
0.116 1.812 1.801 17351
0.117 1.817 1.795 13430
0.117 1.828 1.795 9748
0.118 1.839 1.795 13144
0.118 1.843 1.789 11573
0.119 1.848 1.784 7205
0.119 1.859 1.784 11514
0.120 1.870 1.783 16385
0.121 1.880 1.783 13807
0.122 1.897 1.788 10854
0.123 1.908 1.787 17279
0.123 1.919 1.787 24820
0.124 1.923 1.781 26129
0.124 1.928 1.775 33252
0.125 1.939 1.775 46064
0.125 1.944 1.769 47834
0.125 1.948 1.763 41432
0.126 1.953 1.757 32136
0.125 1.952 1.747 21631
0.126 1.962 1.746 16740
0.127 1.973 1.745 16420
0.127 1.978 1.739 11926
0.134 2.082 1.812 13094
0.134 2.093 1.810 15243
0.135 2.098 1.804 13892
0.136 2.115 1.808 14042
0.136 2.114 1.797 15260
0.136 2.118 1.790 12598
0.137 2.129 1.789 8070
0.139 2.159 1.802 11687
0.139 2.158 1.791 15741
0.139 2.163 1.784 18983
0.140 2.174 1.783 21558
0.140 2.172 1.771 18991
0.141 2.190 1.774 12812
0.143 2.226 1.791 11793
0.144 2.244 1.794 9924
0.146 2.268 1.801 7617
0.148 2.298 1.813 12350
0.147 2.290 1.797 14497
0.148 2.302 1.795 9754
0.149 2.326 1.802 8455
0.150 2.337 1.799 10731
0.151 2.355 1.801 11284
0.154 2.392 1.817 10561
0.154 2.403 1.814 12394
0.155 2.408 1.807 13279
0.155 2.407 1.796 12592
0.156 2.424 1.797 12002
0.158 2.456 1.808 15625
0.158 2.460 1.801 17959
0.158 2.465 1.793 18229
0.160 2.496 1.803 16952
0.161 2.501 1.796 14797
0.159 2.479 1.771 10297
0.159 2.478 1.760 6961
0.165 2.562 1.804 6398
0.163 2.534 1.775 6484
0.165 2.565 1.784 9020
0.165 2.563 1.773 12672
0.165 2.574 1.769 11713
0.167 2.593 1.770 8870
0.167 2.597 1.762 6640
0.167 2.602 1.755 5011
0.173 2.695 1.800 2618
0.177 2.747 1.821 4094
0.176 2.745 1.809 6168
0.176 2.743 1.797 10092
0.177 2.748 1.789 11715
0.178 2.766 1.788 10719
0.179 2.791 1.792 11507
0.181 2.810 1.792 12346
0.181 2.821 1.788 11966
0.182 2.826 1.779 10439
0.182 2.838 1.775 10911
0.183 2.849 1.770 11642
0.183 2.847 1.758 9850
0.182 2.838 1.742 6807
0.189 2.939 1.787 5297
0.190 2.951 1.782 4427
0.191 2.977 1.785 4189
0.192 2.988 1.780 3426
0.190 2.958 1.752 2736
0.199 3.095 1.815 3846
0.199 3.100 1.805 5411
0.200 3.105 1.796 5072
0.201 3.124 1.794 4929
0.206 3.206 1.825 4384
0.206 3.211 1.816 5937
0.207 3.215 1.806 6010
0.206 3.213 1.793 5299
0.206 3.211 1.780 3800
0.207 3.223 1.774 2994
0.207 3.228 1.765 2534
0.209 3.246 1.762 2170
0.209 3.251 1.753 2682
0.210 3.263 1.747 3235
0.222 3.460 1.830 3165
0.223 3.465 1.820 4170
0.224 3.484 1.816 3921
0.225 3.503 1.813 4359
0.225 3.508 1.802 3304
0.217 3.383 1.732 2479
0.226 3.510 1.778 2408
0.241 3.752 1.877 2627
0.241 3.750 1.862 3313
0.241 3.755 1.851 4018
0.242 3.760 1.840 4018
0.242 3.765 1.829 4291
0.242 3.769 1.818 4565
0.243 3.782 1.810 4234
0.244 3.794 1.802 4043
0.244 3.798 1.791 4043
0.244 3.803 1.780 2021
0.046 0.702 1.742 17657
0.046 0.707 1.740 16749
0.047 0.714 1.745 16260
0.047 0.719 1.742 15691
0.048 0.730 1.755 14077
0.048 0.739 1.760 13862
0.049 0.750 1.772 14937
0.049 0.755 1.769 16219
0.050 0.759 1.767 14792
0.050 0.764 1.765 13365
0.050 0.769 1.762 13298
0.051 0.774 1.760 12509
0.051 0.778 1.758 11786
0.051 0.783 1.756 8364
0.051 0.784 1.746 5190
0.052 0.792 1.751 6362
0.052 0.797 1.748 7782
0.053 0.805 1.753 9961
0.053 0.810 1.751 12148
0.054 0.818 1.755 14485
0.054 0.823 1.753 16883
0.054 0.828 1.750 15665
0.055 0.836 1.755 15073
0.055 0.844 1.759 11422
0.056 0.853 1.764 7989
0.056 0.854 1.754 5245
0.057 0.874 1.779 2632
0.057 0.875 1.770 4951
0.058 0.879 1.767 7401
0.058 0.884 1.764 11485
0.058 0.889 1.762 15568
0.058 0.889 1.752 17125
0.059 0.894 1.750 16483
0.059 0.899 1.747 13050
0.059 0.900 1.737 8158
0.061 0.924 1.769 5325
0.061 0.925 1.759 8160
0.061 0.925 1.750 11341
0.061 0.930 1.747 14307
0.062 0.939 1.751 16871
0.062 0.943 1.748 17593
0.062 0.952 1.752 24348
0.063 0.957 1.749 30159
0.063 0.962 1.746 33779
0.063 0.966 1.743 31509
0.064 0.975 1.747 25970
0.064 0.980 1.744 17945
0.066 1.005 1.775 9138
0.065 0.997 1.752 9156
0.065 0.998 1.742 8157
0.065 0.990 1.719 6939
0.066 1.011 1.743 7873
0.067 1.029 1.760 8016
0.068 1.038 1.763 7411
0.068 1.043 1.760 9582
0.069 1.056 1.770 12504
0.070 1.070 1.780 15614
0.071 1.079 1.784 15971
0.072 1.093 1.793 12072
0.073 1.111 1.810 6888
0.073 1.120 1.813 6616
0.073 1.120 1.803 5668
0.074 1.125 1.800 4906
0.074 1.125 1.790 6792
0.074 1.126 1.780 8724
0.075 1.140 1.790 8635
0.075 1.149 1.793 9496
0.076 1.154 1.789 9150
0.076 1.158 1.786 7925
0.077 1.168 1.789 8825
0.077 1.177 1.792 8918
0.078 1.191 1.801 5816
0.071 1.079 1.638 3673
0.062 0.946 1.451 3868
0.063 0.955 1.454 4824
0.063 0.959 1.451 4306
0.080 1.220 1.789 4818
0.081 1.235 1.798 5323
0.082 1.249 1.807 6445
0.083 1.263 1.816 6619
0.083 1.273 1.818 6279
0.083 1.268 1.802 6085
0.084 1.278 1.805 6061
0.084 1.288 1.807 5461
0.068 1.037 1.481 6145
0.068 1.036 1.472 6888
0.067 1.030 1.456 5155
0.086 1.317 1.804 6773
0.087 1.327 1.806 9392
0.088 1.341 1.814 8285
0.069 1.050 1.450 6420
0.089 1.361 1.819 5867
0.090 1.371 1.821 7076
0.090 1.376 1.817 7042
0.090 1.381 1.812 7247
0.090 1.381 1.802 10166
0.091 1.391 1.804 11230
0.092 1.406 1.812 10055
0.093 1.416 1.814 8921
0.093 1.421 1.810 8414
0.094 1.431 1.811 10864
0.094 1.435 1.807 11879
0.094 1.440 1.803 7886
0.096 1.461 1.816 6391
0.097 1.481 1.830 8887
0.098 1.492 1.831 7771
0.098 1.502 1.833 6280
0.077 1.172 1.460 5747
0.077 1.175 1.456 6308
0.077 1.179 1.453 4212
0.100 1.521 1.815 4907
0.101 1.537 1.822 5450
0.101 1.547 1.823 5184
0.101 1.547 1.813 3964
0.101 1.546 1.802 3014
0.103 1.567 1.815 4795
0.103 1.567 1.805 7856
0.103 1.571 1.800 9070
0.103 1.576 1.795 8063
0.104 1.581 1.791 6734
0.084 1.287 1.481 5795
0.085 1.291 1.477 8944
0.108 1.646 1.827 10111
0.109 1.656 1.828 15942
0.109 1.661 1.823 14723
0.109 1.666 1.818 9551
0.109 1.671 1.813 10542
0.110 1.675 1.808 20229
0.110 1.680 1.803 23380
0.111 1.696 1.809 22872
0.112 1.707 1.809 25651
0.113 1.718 1.810 34373
0.113 1.722 1.805 37772
0.114 1.744 1.816 29705
0.115 1.749 1.811 23116
0.115 1.748 1.800 24768
0.115 1.753 1.795 22881
0.115 1.758 1.790 11340
0.117 1.780 1.801 10120
0.117 1.791 1.801 14751
0.118 1.801 1.801 16351
0.119 1.812 1.801 17646
0.119 1.817 1.795 13665
0.119 1.822 1.790 9552
0.120 1.832 1.790 13240
0.120 1.837 1.784 11482
0.121 1.848 1.784 6181
0.122 1.865 1.789 9874
0.123 1.875 1.789 14915
0.123 1.880 1.783 13318
0.124 1.897 1.788 10494
0.125 1.908 1.787 18466
0.126 1.919 1.787 27433
0.126 1.923 1.781 29400
0.126 1.928 1.775 35443
0.127 1.939 1.775 45941
0.127 1.944 1.769 49572
0.128 1.948 1.763 43605
0.128 1.953 1.757 30865
0.128 1.952 1.747 18945
0.129 1.962 1.746 15310
0.129 1.973 1.745 14738
0.130 1.978 1.739 9729
0.136 2.082 1.812 12041
0.137 2.093 1.810 15048
0.137 2.098 1.804 13230
0.139 2.115 1.808 13047
0.139 2.113 1.797 15795
0.138 2.112 1.786 13333
0.139 2.123 1.784 8371
0.142 2.159 1.802 12063
0.141 2.158 1.791 16037
0.142 2.162 1.784 18683
0.142 2.167 1.778 20887
0.142 2.172 1.771 18635
0.143 2.189 1.774 13332
0.146 2.226 1.791 13647
0.147 2.237 1.789 10104
0.149 2.268 1.801 6806
0.150 2.292 1.808 10550
0.150 2.290 1.797 12931
0.151 2.301 1.795 8475
0.153 2.332 1.806 6938
0.154 2.343 1.804 9184
0.154 2.355 1.801 10123
0.156 2.379 1.808 8634
0.158 2.403 1.814 9264
0.158 2.408 1.807 10591
0.158 2.413 1.800 10430
0.159 2.431 1.802 11612
0.161 2.455 1.808 16855
0.161 2.460 1.801 19297
0.162 2.465 1.793 19353
0.164 2.496 1.803 17266
0.164 2.501 1.796 15520
0.162 2.479 1.771 11002
0.162 2.477 1.760 7474
0.168 2.562 1.804 7294
0.166 2.533 1.775 7063
0.167 2.545 1.772 9234
0.168 2.563 1.773 12634
0.169 2.581 1.773 11680
0.169 2.586 1.766 9114
0.170 2.590 1.758 7123
0.171 2.602 1.755 5525
0.171 2.613 1.751 3013
0.180 2.746 1.821 4368
0.180 2.745 1.809 6568
0.180 2.743 1.797 10421
0.180 2.747 1.789 11884
0.181 2.766 1.788 10795
0.183 2.791 1.792 11805
0.184 2.803 1.788 12241
0.185 2.821 1.788 11547
0.185 2.826 1.779 10123
0.186 2.837 1.775 10760
0.186 2.842 1.766 11525
0.187 2.847 1.758 9776
0.186 2.838 1.742 6861
0.193 2.939 1.787 5308
0.193 2.951 1.782 4732
0.195 2.969 1.781 4565
0.194 2.967 1.769 3776
0.194 2.958 1.752 3242
0.203 3.095 1.815 3371
0.203 3.093 1.802 4865
0.203 3.105 1.796 4514
0.205 3.124 1.794 4305
0.210 3.206 1.825 4308
0.210 3.210 1.816 5948
0.211 3.215 1.806 6031
0.211 3.213 1.793 5309
0.210 3.211 1.780 3942
0.211 3.223 1.774 3313
0.212 3.227 1.765 2824
0.213 3.246 1.762 2403
0.214 3.258 1.756 2969
0.214 3.263 1.747 3605
0.215 3.274 1.741 3217
0.227 3.464 1.820 4091
0.228 3.483 1.816 3889
0.230 3.503 1.813 4302
0.230 3.507 1.802 3303
0.222 3.383 1.732 2559
0.230 3.517 1.782 2654
0.231 3.522 1.771 3004
0.246 3.749 1.862 3033
0.246 3.754 1.851 3769
0.246 3.759 1.840 3769
0.247 3.764 1.829 4195
0.247 3.769 1.818 4621
0.248 3.781 1.810 4172
0.249 3.793 1.802 3854
0.249 3.798 1.791 3854
0.249 3.803 1.780 1927
0.048 0.702 1.742 17920
0.049 0.706 1.740 17016
0.049 0.714 1.745 16574
0.050 0.719 1.742 15891
0.050 0.730 1.755 13706
0.051 0.742 1.767 12980
0.052 0.750 1.772 14172
0.052 0.755 1.769 15459
0.052 0.759 1.767 14439
0.053 0.764 1.765 13418
0.053 0.769 1.762 13164
0.053 0.773 1.760 12103
0.054 0.778 1.758 11296
0.054 0.779 1.748 7931
0.054 0.784 1.746 4714
0.055 0.792 1.751 5832
0.055 0.800 1.755 7267
0.056 0.805 1.753 9814
0.056 0.810 1.751 12362
0.056 0.818 1.755 14832
0.057 0.823 1.753 17374
0.057 0.827 1.750 16001
0.058 0.836 1.755 15135
0.058 0.844 1.759 11430
0.059 0.853 1.764 8046
0.059 0.854 1.754 5209
0.059 0.854 1.745 2473
0.060 0.871 1.763 4401
0.060 0.875 1.760 6800
0.061 0.884 1.764 11198
0.061 0.888 1.762 15655
0.061 0.889 1.752 17254
0.062 0.894 1.750 16422
0.062 0.899 1.747 12622
0.062 0.895 1.731 8448
0.062 0.892 1.714 6084
0.063 0.917 1.746 8271
0.064 0.921 1.743 11883
0.064 0.930 1.747 14290
0.065 0.939 1.751 15756
0.065 0.947 1.755 15681
0.066 0.952 1.752 22044
0.066 0.957 1.749 27750
0.066 0.961 1.746 31149
0.067 0.966 1.743 28782
0.067 0.975 1.747 23291
0.068 0.979 1.744 15624
0.069 1.005 1.775 7599
0.069 0.993 1.745 7642
0.069 0.993 1.735 8255
0.069 0.998 1.733 8389
0.069 1.003 1.730 8544
0.071 1.029 1.760 7220
0.073 1.055 1.790 7258
0.072 1.043 1.760 9671
0.073 1.056 1.770 12937
0.074 1.069 1.780 15050
0.074 1.079 1.784 14956
0.075 1.088 1.787 10897
0.060 0.874 1.463 7569
0.061 0.878 1.461 6861
0.061 0.887 1.464 5312
0.078 1.125 1.800 4667
0.078 1.125 1.790 6626
0.078 1.125 1.780 8298
0.079 1.139 1.790 8427
0.079 1.149 1.793 9680
0.080 1.153 1.789 9658
0.080 1.158 1.786 8307
0.081 1.168 1.789 8925
0.081 1.177 1.792 8609
0.082 1.191 1.801 5470
0.074 1.079 1.638 4122
0.065 0.946 1.451 4249
0.066 0.955 1.454 5252
0.066 0.958 1.451 4618
0.084 1.220 1.789 4438
0.085 1.234 1.798 5008
0.086 1.249 1.807 6422
0.087 1.263 1.816 7083
0.088 1.268 1.812 6798
0.088 1.268 1.802 6763
0.088 1.278 1.805 7069
0.089 1.287 1.807 6671
0.072 1.037 1.481 6490
0.072 1.035 1.472 7379
0.071 1.029 1.456 5578
0.091 1.317 1.804 6855
0.092 1.326 1.806 9665
0.093 1.341 1.814 8378
0.072 1.050 1.450 6403
0.094 1.361 1.819 5922
0.095 1.371 1.821 6712
0.095 1.376 1.817 6954
0.095 1.381 1.812 7888
0.095 1.380 1.802 10616
0.096 1.390 1.804 10732
0.097 1.405 1.812 8998
0.098 1.415 1.814 8632
0.098 1.415 1.804 8739
0.099 1.430 1.811 11629
0.099 1.435 1.807 13337
0.099 1.440 1.803 9071
0.100 1.455 1.810 6507
0.102 1.476 1.824 7656
0.103 1.486 1.825 7236
0.104 1.501 1.833 5932
0.081 1.166 1.454 4732
0.081 1.175 1.456 5208
0.104 1.505 1.808 4584
0.105 1.521 1.815 5225
0.106 1.537 1.822 5652
0.106 1.541 1.817 5897
0.107 1.546 1.813 4811
0.107 1.551 1.808 3444
0.108 1.567 1.815 4457
0.108 1.566 1.805 6751
0.109 1.571 1.800 7972
0.109 1.576 1.795 7506
0.109 1.581 1.791 6621
0.088 1.281 1.475 5868
0.089 1.290 1.477 8597
0.114 1.645 1.827 11294
0.114 1.656 1.828 17293
0.115 1.660 1.823 14107
0.115 1.665 1.818 9860
0.115 1.670 1.813 13840
0.116 1.675 1.808 19402
0.116 1.674 1.797 18442
0.117 1.696 1.809 16882
0.118 1.707 1.809 22040
0.118 1.711 1.804 34241
0.119 1.716 1.799 36772
0.120 1.744 1.816 25461
0.121 1.749 1.811 20866
0.121 1.748 1.800 24051
0.121 1.747 1.790 20369
0.121 1.752 1.784 9005
0.123 1.780 1.801 10420
0.124 1.790 1.801 17041
0.124 1.801 1.801 16602
0.125 1.812 1.801 17306
0.125 1.817 1.795 13769
0.126 1.821 1.790 10206
0.126 1.826 1.784 14190
0.127 1.837 1.784 11521
0.128 1.859 1.794 5977
0.129 1.864 1.789 8903
0.129 1.875 1.789 13373
0.130 1.880 1.783 12715
0.131 1.896 1.788 10079
0.132 1.907 1.787 19461
0.132 1.918 1.787 29478
0.133 1.923 1.781 31679
0.133 1.928 1.775 36117
0.134 1.938 1.775 44111
0.134 1.943 1.769 49763
0.135 1.948 1.763 44905
0.135 1.953 1.757 29615
0.135 1.957 1.752 15366
0.135 1.962 1.746 11715
0.136 1.973 1.745 11230
0.137 1.984 1.744 8545
0.144 2.087 1.817 11041
0.144 2.092 1.810 14828
0.145 2.097 1.804 12348
0.145 2.102 1.798 11946
0.145 2.107 1.792 15810
0.146 2.111 1.786 13899
0.147 2.122 1.784 8859
0.149 2.159 1.802 12732
0.149 2.157 1.791 16356
0.149 2.162 1.784 17875
0.150 2.167 1.778 19245
0.150 2.171 1.771 17290
0.152 2.195 1.779 13243
0.154 2.226 1.791 14868
0.154 2.230 1.785 10275
0.157 2.267 1.801 5883
0.158 2.285 1.804 8706
0.158 2.290 1.797 10879
0.159 2.301 1.795 7109
0.161 2.331 1.806 5351
0.162 2.349 1.808 7246
0.163 2.354 1.801 8620
0.162 2.339 1.781 7353
0.166 2.409 1.819 5924
0.166 2.408 1.807 7720
0.167 2.412 1.800 8509
0.168 2.430 1.802 11427
0.170 2.455 1.808 18019
0.170 2.460 1.801 20389
0.170 2.464 1.793 20155
0.172 2.489 1.799 17627
0.173 2.500 1.796 16266
0.172 2.492 1.780 11583
0.171 2.477 1.760 7739
0.176 2.555 1.799 7833
0.175 2.533 1.775 7225
0.176 2.544 1.772 9091
0.177 2.569 1.777 12241
0.178 2.580 1.773 11496
0.179 2.592 1.770 9459
0.179 2.590 1.758 7824
0.180 2.601 1.755 6077
0.180 2.606 1.747 3433
0.189 2.739 1.817 4797
0.189 2.744 1.809 7031
0.189 2.742 1.797 10675
0.190 2.747 1.789 11918
0.191 2.765 1.788 10663
0.193 2.790 1.792 11752
0.194 2.802 1.788 11808
0.195 2.820 1.788 10685
0.196 2.832 1.783 9462
0.196 2.837 1.775 10257
0.196 2.841 1.766 11052
0.197 2.846 1.758 9379
0.196 2.837 1.742 6690
0.203 2.938 1.787 5225
0.204 2.950 1.782 5045
0.205 2.962 1.777 5187
0.204 2.960 1.765 4429
0.205 2.964 1.756 3799
0.208 3.011 1.770 3209
0.214 3.092 1.802 4184
0.214 3.097 1.793 3825
0.216 3.123 1.794 3565
0.221 3.205 1.825 4163
0.222 3.210 1.816 5819
0.222 3.214 1.806 5875
0.222 3.212 1.793 5148
0.222 3.210 1.780 4016
0.223 3.222 1.774 3601
0.223 3.226 1.765 3084
0.224 3.238 1.759 2603
0.225 3.257 1.756 3214
0.225 3.262 1.747 3934
0.226 3.274 1.741 3591
0.239 3.463 1.820 3904
0.241 3.483 1.816 3751
0.242 3.502 1.813 4102
0.242 3.507 1.802 3261
0.234 3.390 1.735 2589
0.243 3.516 1.782 2894
0.243 3.521 1.771 3368
0.243 3.526 1.761 3368
0.259 3.753 1.851 3514
0.260 3.758 1.840 3514
0.260 3.763 1.829 4068
0.260 3.768 1.818 4621
0.261 3.780 1.810 4050
0.262 3.792 1.802 3603
0.262 3.797 1.791 3603
0.263 3.802 1.780 1801
0.050 0.702 1.742 16279
0.051 0.710 1.747 16243
0.051 0.714 1.745 16508
0.052 0.722 1.750 15985
0.052 0.730 1.755 13476
0.054 0.748 1.781 12575
0.054 0.753 1.779 13705
0.054 0.758 1.776 14836
0.054 0.759 1.767 14078
0.055 0.764 1.765 13457
0.055 0.769 1.762 13015
0.055 0.773 1.760 11698
0.056 0.778 1.758 10823
0.056 0.779 1.748 7519
0.056 0.780 1.739 4283
0.057 0.792 1.751 5209
0.057 0.800 1.755 6566
0.058 0.805 1.753 9537
0.058 0.810 1.751 12508
0.058 0.814 1.748 15163
0.059 0.819 1.746 17817
0.059 0.827 1.750 16250
0.060 0.836 1.755 15082
0.061 0.844 1.759 11382
0.061 0.852 1.764 8113
0.061 0.853 1.754 5381
0.061 0.854 1.745 2817
0.062 0.867 1.756 4332
0.063 0.875 1.760 6379
0.063 0.880 1.758 11055
