0.625 1.199 1.586 15018
0.627 1.202 1.582 12701
0.627 1.201 1.572 13489
0.628 1.205 1.568 15319
0.630 1.209 1.564 11743
0.640 1.227 1.577 6119
0.642 1.231 1.573 6109
0.646 1.239 1.574 9113
0.648 1.243 1.570 12967
0.658 1.262 1.583 12300
0.660 1.265 1.579 9348
0.657 1.259 1.563 16956
0.656 1.258 1.553 20654
0.655 1.256 1.544 18991
0.665 1.275 1.556 14807
0.685 1.314 1.590 16560
0.690 1.323 1.591 21939
0.700 1.342 1.603 22722
0.699 1.341 1.593 17340
0.690 1.324 1.567 14295
0.703 1.348 1.584 13237
0.713 1.367 1.596 13995
0.718 1.376 1.597 12307
0.720 1.380 1.592 8054
0.722 1.384 1.587 12267
0.726 1.393 1.588 19825
0.734 1.407 1.594 17199
0.738 1.416 1.595 11821
0.738 1.414 1.585 14609
0.745 1.428 1.590 23155
0.750 1.437 1.591 27006
0.752 1.441 1.586 25076
0.754 1.445 1.581 20643
0.758 1.454 1.582 13907
0.763 1.463 1.582 14213
0.768 1.472 1.582 24669
0.772 1.481 1.582 33757
0.772 1.479 1.572 31132
0.773 1.483 1.567 23694
0.775 1.487 1.562 22899
0.774 1.485 1.552 22536
0.776 1.489 1.547 22185
0.775 1.487 1.538 23299
0.780 1.496 1.538 25857
0.785 1.505 1.538 33467
0.787 1.508 1.533 30697
0.786 1.506 1.523 18087
0.788 1.510 1.518 7782
0.827 1.585 1.576 5669
0.829 1.589 1.571 10012
0.831 1.593 1.566 11839
0.835 1.602 1.565 7697
0.837 1.605 1.560 6725
0.842 1.615 1.559 8022
0.847 1.624 1.559 8069
0.855 1.639 1.563 13729
0.859 1.648 1.562 18716
0.861 1.652 1.557 16886
0.866 1.661 1.556 14480
0.871 1.670 1.555 13631
0.873 1.674 1.549 16202
0.881 1.689 1.553 17019
0.886 1.698 1.552 19640
0.888 1.702 1.547 23181
0.889 1.705 1.541 22471
0.891 1.709 1.535 16351
0.896 1.718 1.534 10537
0.892 1.710 1.519 7457
0.924 1.771 1.559 9709
0.929 1.781 1.558 11315
0.934 1.790 1.556 11431
0.936 1.794 1.550 11135
0.937 1.798 1.544 9005
0.939 1.801 1.538 7217
0.941 1.805 1.532 8228
0.946 1.814 1.531 9323
0.832 1.596 1.358 10189
0.837 1.604 1.357 10462
0.835 1.602 1.347 9629
0.837 1.605 1.342 8198
0.986 1.891 1.543 10103
0.988 1.894 1.537 10911
0.987 1.892 1.526 9641
0.973 1.866 1.499 9067
0.990 1.899 1.514 7874
0.992 1.903 1.508 6901
0.985 1.888 1.489 6575
0.853 1.635 1.303 5373
0.857 1.644 1.302 6442
0.862 1.653 1.300 5253
1.023 1.962 1.504 5330
1.025 1.966 1.498 5580
1.030 1.975 1.495 5692
1.029 1.972 1.485 5366
1.024 1.964 1.470 4282
0.871 1.671 1.267 4860
0.879 1.686 1.270 5880
0.884 1.695 1.268 6480
0.885 1.698 1.262 5996
0.880 1.688 1.249 5715
0.879 1.685 1.239 6357
0.880 1.688 1.234 7101
0.882 1.691 1.228 7032
0.883 1.693 1.222 5635
1.138 2.182 1.519 4926
1.143 2.191 1.516 4428
0.942 1.806 1.270 3662
0.924 1.772 1.241 4529
0.923 1.769 1.232 5911
0.927 1.778 1.229 5812
0.935 1.793 1.231 5528
0.943 1.808 1.232 6197
0.945 1.811 1.226 5904
0.949 1.820 1.224 5720
0.954 1.829 1.222 4398
0.955 1.832 1.215 3183
0.954 1.828 1.206 4404
0.955 1.831 1.200 5766
0.956 1.834 1.194 6384
0.961 1.843 1.191 7157
0.966 1.852 1.188 6174
0.967 1.855 1.182 5304
0.969 1.857 1.176 3728
0.973 1.866 1.173 2217
0.998 1.913 1.191 3813
1.006 1.928 1.191 6001
1.014 1.944 1.192 7211
1.019 1.953 1.189 8646
1.020 1.956 1.182 6952
1.334 2.558 1.487 5324
1.026 1.967 1.172 5080
1.027 1.970 1.166 4798
1.025 1.966 1.156 4775
1.030 1.975 1.153 5267
1.035 1.984 1.149 5814
1.036 1.987 1.143 4761
1.038 1.989 1.136 3709
1.036 1.985 1.126 3310
1.040 1.994 1.123 2225
1.041 1.997 1.116 1569
1.046 2.006 1.113 1940
0.316 0.603 1.691 11850
0.318 0.607 1.689 10059
0.320 0.611 1.687 8268
0.322 0.615 1.685 9795
0.324 0.619 1.683 11321
0.326 0.623 1.681 11321
0.328 0.627 1.679 11318
0.330 0.631 1.677 11316
0.332 0.635 1.674 9329
0.336 0.642 1.679 7583
0.338 0.646 1.677 7033
0.342 0.653 1.682 6614
0.344 0.657 1.680 8649
0.344 0.657 1.671 10590
0.346 0.661 1.668 10187
0.348 0.665 1.666 9763
0.350 0.669 1.664 9629
0.352 0.673 1.662 8600
0.361 0.690 1.687 7983
0.357 0.681 1.657 11201
0.359 0.685 1.655 14832
0.361 0.689 1.652 15274
0.363 0.693 1.650 15716
0.365 0.696 1.648 12861
0.370 0.707 1.659 10585
0.369 0.704 1.643 9846
0.367 0.701 1.627 10504
0.371 0.709 1.631 11192
0.377 0.719 1.643 9242
0.388 0.740 1.675 6367
0.386 0.737 1.658 5650
0.388 0.741 1.656 5297
0.392 0.749 1.660 7836
0.394 0.752 1.658 10445
0.396 0.756 1.655 12514
0.398 0.760 1.653 14584
0.400 0.764 1.650 16087
0.402 0.768 1.647 17426
0.404 0.772 1.645 17209
0.408 0.779 1.649 16726
0.414 0.790 1.660 17602
0.416 0.794 1.657 15075
0.418 0.798 1.655 17404
0.420 0.802 1.652 23243
0.424 0.810 1.656 25664
0.428 0.817 1.660 27287
0.428 0.818 1.650 21330
0.432 0.825 1.654 12426
0.436 0.833 1.658 9722
0.436 0.833 1.649 9955
0.438 0.837 1.646 10328
0.440 0.841 1.643 10426
0.442 0.845 1.640 11562
0.444 0.848 1.637 13142
0.448 0.856 1.641 13821
0.452 0.864 1.645 12650
0.463 0.883 1.668 18181
0.463 0.883 1.659 22426
0.465 0.887 1.656 23178
0.469 0.895 1.659 26678
0.471 0.899 1.656 27955
0.473 0.903 1.653 26452
0.477 0.911 1.657 21215
0.479 0.915 1.654 14279
0.483 0.923 1.657 16804
0.485 0.927 1.654 20470
0.487 0.930 1.651 20891
0.489 0.934 1.648 18323
0.491 0.938 1.645 11360
0.493 0.942 1.641 8542
0.493 0.942 1.632 9306
0.500 0.954 1.641 10419
0.506 0.966 1.651 12575
0.510 0.974 1.654 12641
0.512 0.978 1.651 9109
0.512 0.978 1.641 12992
0.514 0.982 1.638 26954
0.516 0.985 1.635 38016
0.518 0.989 1.631 37935
0.520 0.993 1.628 37537
0.524 1.001 1.631 41028
0.524 1.001 1.621 34641
0.526 1.005 1.618 24480
0.528 1.008 1.615 22660
0.530 1.012 1.611 22031
0.527 1.007 1.595 16936
0.534 1.020 1.604 17096
0.541 1.032 1.613 23213
0.545 1.040 1.616 23066
0.549 1.049 1.618 17936
0.556 1.061 1.627 13057
0.560 1.070 1.630 10949
0.560 1.069 1.620 12282
0.559 1.068 1.610 11763
0.528 1.009 1.522 9902
0.530 1.012 1.519 10451
0.558 1.066 1.582 7551
0.558 1.065 1.572 12205
0.560 1.069 1.568 18508
0.564 1.077 1.571 21326
0.568 1.085 1.573 13358
0.578 1.103 1.587 7551
0.579 1.107 1.584 11334
0.581 1.110 1.580 11641
0.583 1.114 1.576 11941
0.583 1.113 1.567 19153
0.585 1.117 1.563 26070
0.584 1.116 1.553 23969
0.586 1.119 1.549 25158
0.588 1.123 1.546 24804
0.590 1.126 1.542 17780
0.592 1.130 1.538 16334
0.599 1.143 1.546 21018
0.606 1.157 1.554 15955
0.623 1.189 1.584 13801
0.630 1.203 1.592 16393
0.629 1.201 1.582 12210
0.631 1.205 1.578 12396
0.630 1.204 1.568 13712
0.632 1.208 1.564 9770
0.642 1.226 1.577 6821
0.641 1.225 1.567 11546
0.646 1.233 1.569 15413
0.653 1.247 1.576 13307
0.660 1.261 1.583 14267
0.657 1.254 1.567 15405
0.659 1.258 1.563 20439
0.661 1.262 1.559 20169
0.660 1.260 1.549 16951
0.670 1.279 1.562 14630
0.688 1.313 1.590 17126
0.695 1.327 1.597 23366
0.702 1.341 1.603 25230
0.704 1.345 1.599 18817
0.690 1.318 1.562 11720
0.705 1.347 1.584 11645
0.713 1.361 1.591 13065
0.723 1.380 1.602 8953
0.725 1.384 1.597 7309
0.727 1.388 1.593 13184
0.729 1.391 1.588 20388
0.733 1.400 1.589 17575
0.738 1.409 1.589 9638
0.743 1.418 1.590 12793
0.747 1.427 1.590 23977
0.752 1.436 1.591 26910
0.754 1.440 1.586 24124
0.756 1.444 1.581 21412
0.761 1.453 1.582 16143
0.765 1.462 1.582 14075
0.770 1.471 1.582 22652
0.775 1.480 1.582 31682
0.774 1.478 1.572 28867
0.776 1.482 1.567 23213
0.778 1.485 1.562 24359
0.780 1.489 1.558 22793
0.779 1.487 1.547 20795
0.778 1.485 1.538 21627
0.783 1.494 1.538 25486
0.787 1.503 1.538 35074
0.789 1.507 1.533 32300
0.788 1.505 1.523 18580
0.790 1.509 1.518 8041
0.829 1.584 1.576 6810
0.831 1.588 1.571 10568
0.833 1.591 1.566 13078
0.835 1.595 1.560 9243
0.840 1.604 1.560 7071
0.842 1.608 1.554 7675
0.847 1.617 1.554 7995
0.857 1.637 1.563 13072
0.862 1.647 1.562 17615
0.864 1.650 1.557 15457
0.869 1.659 1.556 12574
0.883 1.686 1.569 11883
0.882 1.684 1.559 14601
0.887 1.693 1.558 16672
0.891 1.702 1.557 19631
0.890 1.700 1.547 22474
0.892 1.704 1.541 22192
0.897 1.713 1.540 16741
0.899 1.717 1.534 10630
0.895 1.709 1.519 7030
0.927 1.770 1.559 7331
0.932 1.779 1.558 8228
0.813 1.552 1.372 8688
0.939 1.792 1.550 8771
0.940 1.796 1.544 7152
0.942 1.800 1.538 5581
0.944 1.803 1.532 6892
0.949 1.813 1.531 8335
0.835 1.594 1.358 9541
0.839 1.603 1.357 9776
0.838 1.600 1.347 9124
0.837 1.598 1.338 7834
0.992 1.895 1.548 7967
0.837 1.598 1.323 9274
0.838 1.601 1.317 8906
0.973 1.858 1.495 8326
0.997 1.903 1.518 7288
0.995 1.901 1.508 6183
0.988 1.887 1.489 5581
0.852 1.628 1.299 5360
0.860 1.643 1.302 6106
0.859 1.640 1.292 4864
1.027 1.960 1.504 5460
1.028 1.964 1.498 5607
1.030 1.967 1.491 5620
1.029 1.965 1.481 5072
1.024 1.956 1.466 4148
0.874 1.669 1.267 4633
0.882 1.684 1.270 5278
0.887 1.693 1.268 5636
0.885 1.690 1.258 5393
0.883 1.687 1.249 5368
0.882 1.683 1.239 6421
0.883 1.686 1.234 7462
0.885 1.689 1.228 7348
0.886 1.692 1.222 5904
1.141 2.180 1.519 5164
1.146 2.189 1.516 4718
0.945 1.805 1.270 3550
0.927 1.771 1.241 3698
0.925 1.767 1.232 5088
0.930 1.776 1.229 5125
0.938 1.792 1.231 4779
0.943 1.801 1.229 5052
1.192 2.276 1.501 4883
0.952 1.819 1.224 4436
0.957 1.828 1.222 3488
0.975 1.862 1.233 2694
0.960 1.833 1.209 4097
0.958 1.830 1.200 5695
0.963 1.839 1.197 6250
0.964 1.841 1.191 6935
0.969 1.850 1.188 5941
0.974 1.859 1.186 5050
0.975 1.862 1.179 3589
0.980 1.871 1.177 2130
1.001 1.911 1.191 3721
1.009 1.927 1.191 5784
1.017 1.942 1.192 6957
1.022 1.951 1.189 8346
1.027 1.960 1.185 6445
1.335 2.549 1.484 5613
1.033 1.972 1.176 4348
1.034 1.975 1.169 3852
1.035 1.977 1.163 3725
1.037 1.980 1.156 4609
1.038 1.982 1.149 5493
1.039 1.985 1.143 4689
1.041 1.988 1.136 3885
1.042 1.990 1.130 3447
1.043 1.993 1.123 2393
1.045 1.995 1.116 1776
1.049 2.004 1.113 2202
0.318 0.602 1.691 11625
0.320 0.606 1.689 9759
0.322 0.610 1.687 7894
0.324 0.614 1.685 9953
0.326 0.618 1.683 12011
0.328 0.622 1.681 12011
0.330 0.626 1.679 12351
0.332 0.629 1.677 12691
0.335 0.633 1.674 10546
0.338 0.640 1.679 8657
0.340 0.644 1.677 7603
0.344 0.651 1.682 6689
0.346 0.655 1.680 8731
0.347 0.656 1.671 10633
0.349 0.660 1.668 10175
0.351 0.664 1.666 9726
0.353 0.668 1.664 9599
0.357 0.675 1.669 8514
0.364 0.689 1.687 8041
0.359 0.680 1.657 10834
0.361 0.684 1.655 14315
0.363 0.687 1.652 14910
0.365 0.691 1.650 15505
0.369 0.698 1.655 12846
0.373 0.706 1.659 10732
0.373 0.706 1.650 9702
0.370 0.700 1.627 9898
0.374 0.707 1.631 10581
0.379 0.718 1.643 8946
0.387 0.732 1.661 6422
0.389 0.736 1.658 6488
0.391 0.740 1.656 6663
0.395 0.747 1.660 9103
0.399 0.755 1.665 11741
0.399 0.755 1.655 13733
0.401 0.759 1.653 15780
0.403 0.763 1.650 17098
0.405 0.767 1.647 17992
0.407 0.770 1.645 17396
0.411 0.778 1.649 16254
0.417 0.789 1.660 16623
0.419 0.793 1.657 14340
0.421 0.797 1.655 17255
0.423 0.801 1.652 23501
0.427 0.808 1.656 25989
0.429 0.812 1.653 27673
0.431 0.816 1.650 22013
0.435 0.824 1.654 12754
0.437 0.828 1.652 9566
0.439 0.831 1.649 9625
0.441 0.835 1.646 10315
0.443 0.839 1.643 10946
0.445 0.843 1.640 12557
0.447 0.847 1.637 14817
0.451 0.855 1.641 15558
0.455 0.862 1.645 13619
0.464 0.878 1.662 17770
0.466 0.882 1.659 21794
0.468 0.886 1.656 22138
0.472 0.893 1.659 26010
0.474 0.897 1.656 28546
0.476 0.901 1.653 27665
0.480 0.909 1.657 22806
0.484 0.917 1.660 14901
0.486 0.921 1.657 15131
0.488 0.925 1.654 17916
0.490 0.929 1.651 18827
0.493 0.933 1.648 17794
0.497 0.941 1.651 12315
0.499 0.944 1.648 9216
0.499 0.944 1.638 9499
0.503 0.952 1.641 10226
0.507 0.960 1.645 11709
0.514 0.972 1.654 11316
0.518 0.980 1.657 7527
0.515 0.976 1.641 10999
0.517 0.980 1.638 25036
0.519 0.984 1.635 36769
0.522 0.987 1.631 37170
0.524 0.991 1.628 37091
0.528 0.999 1.631 41122
0.528 0.999 1.621 35342
0.527 0.998 1.612 25875
0.532 1.006 1.615 23423
0.534 1.010 1.611 22352
0.533 1.010 1.602 16642
0.538 1.018 1.604 16982
0.544 1.030 1.613 22735
0.549 1.039 1.616 22296
0.553 1.047 1.618 17319
0.560 1.059 1.627 13547
0.564 1.068 1.630 11740
0.564 1.067 1.620 12548
0.563 1.066 1.610 12895
0.565 1.070 1.607 11791
0.534 1.010 1.519 11433
0.538 1.019 1.521 8052
0.562 1.063 1.572 11999
0.563 1.067 1.568 18847
0.568 1.075 1.571 22168
0.572 1.083 1.573 14088
0.579 1.096 1.581 8529
0.586 1.109 1.589 11259
0.588 1.113 1.586 10541
0.587 1.112 1.576 10205
0.587 1.111 1.567 17579
0.589 1.115 1.563 25671
0.591 1.118 1.559 24255
0.588 1.112 1.544 23766
0.592 1.121 1.546 22975
0.594 1.124 1.542 18426
0.598 1.133 1.544 17845
0.603 1.141 1.546 21604
0.610 1.154 1.554 14464
0.632 1.197 1.596 12813
0.636 1.205 1.597 17522
0.636 1.204 1.588 11997
0.635 1.203 1.578 10962
0.637 1.207 1.574 11754
0.639 1.210 1.570 8047
0.649 1.229 1.583 7059
0.646 1.222 1.567 14572
0.650 1.231 1.569 19116
0.663 1.255 1.587 13632
0.665 1.258 1.583 16087
0.661 1.252 1.567 21867
0.663 1.256 1.563 23833
0.665 1.259 1.559 19838
0.667 1.263 1.555 14747
0.674 1.277 1.562 14049
0.692 1.311 1.590 16857
0.699 1.324 1.597 23153
0.707 1.338 1.603 25590
0.712 1.347 1.604 19829
0.713 1.351 1.600 11315
0.707 1.339 1.579 12153
0.712 1.348 1.580 12822
0.728 1.378 1.602 8533
0.732 1.386 1.603 9001
0.732 1.385 1.593 13497
0.733 1.389 1.588 20862
0.738 1.398 1.589 18895
0.743 1.407 1.589 10363
0.750 1.421 1.595 13451
0.752 1.424 1.590 24595
0.757 1.433 1.591 27120
0.759 1.437 1.586 23225
0.764 1.446 1.586 21344
0.766 1.450 1.582 17197
0.771 1.459 1.582 13657
0.775 1.468 1.582 20428
0.780 1.477 1.582 28567
0.782 1.481 1.577 25512
0.784 1.484 1.573 21582
0.783 1.483 1.562 24300
0.785 1.486 1.558 21574
0.784 1.484 1.547 17804
0.786 1.488 1.543 18540
0.791 1.497 1.543 23795
0.795 1.506 1.543 34265
0.794 1.504 1.533 31605
0.793 1.502 1.523 17781
0.798 1.511 1.522 7766
0.832 1.575 1.571 7753
0.834 1.579 1.566 11566
0.839 1.588 1.566 13863
0.841 1.592 1.560 10132
0.843 1.596 1.555 7572
0.845 1.599 1.550 7721
0.852 1.614 1.554 8089
0.863 1.634 1.563 12078
0.871 1.649 1.567 16068
0.873 1.653 1.561 13614
0.878 1.662 1.561 10435
0.895 1.694 1.579 10934
0.891 1.686 1.564 13322
0.893 1.690 1.558 16144
0.897 1.699 1.557 18996
0.899 1.703 1.551 21235
0.901 1.706 1.546 21059
0.903 1.710 1.540 16336
0.905 1.714 1.534 10418
0.901 1.706 1.519 6774
0.933 1.767 1.559 5261
0.938 1.776 1.558 5768
0.818 1.549 1.372 9384
0.820 1.552 1.367 8510
0.947 1.793 1.544 5776
0.949 1.796 1.538 4181
0.954 1.806 1.537 5527
0.959 1.815 1.535 7094
0.840 1.591 1.358 8533
0.845 1.600 1.357 8748
0.844 1.597 1.347 8278
0.842 1.595 1.338 7266
0.844 1.598 1.332 7363
0.842 1.595 1.323 9003
0.844 1.598 1.317 8743
0.980 1.855 1.495 7825
1.003 1.900 1.518 6731
1.005 1.903 1.512 5554
0.850 1.610 1.296 5345
0.858 1.625 1.299 5139
0.863 1.634 1.298 5628
0.953 1.804 1.408 5047
1.033 1.957 1.504 5403
1.032 1.954 1.494 5519
1.031 1.952 1.483 5539
1.033 1.955 1.477 4876
1.031 1.952 1.466 4047
0.880 1.666 1.267 4172
0.885 1.675 1.266 4533
0.889 1.684 1.264 4701
0.891 1.687 1.258 4720
0.889 1.684 1.249 4885
0.887 1.680 1.239 6249
0.889 1.683 1.234 7533
0.890 1.686 1.228 7381
0.892 1.689 1.222 5946
1.152 2.182 1.523 5317
1.154 2.185 1.516 4942
1.156 2.189 1.509 3486
0.930 1.761 1.238 2872
0.932 1.764 1.232 4205
0.936 1.773 1.229 4357
0.941 1.782 1.227 4036
0.949 1.797 1.229 4040
1.196 2.265 1.498 4822
1.202 2.275 1.494 4082
1.207 2.285 1.490 3459
0.985 1.864 1.237 2785
0.966 1.830 1.209 3875
0.964 1.826 1.200 5545
0.969 1.835 1.197 6028
0.971 1.838 1.191 6598
0.975 1.847 1.188 5601
0.980 1.856 1.186 4783
0.982 1.858 1.179 3449
1.003 1.899 1.194 2465
1.008 1.908 1.191 3791
1.016 1.923 1.191 5479
1.024 1.939 1.192 6519
1.029 1.948 1.189 7819
1.033 1.957 1.185 5981
1.344 2.544 1.484 5612
1.346 2.548 1.475 4337
1.044 1.977 1.172 3511
1.046 1.980 1.166 3415
1.047 1.983 1.159 4313
1.048 1.985 1.153 5211
1.046 1.981 1.143 4546
1.048 1.984 1.136 3925
1.049 1.986 1.130 3475
1.051 1.989 1.123 2451
1.052 1.992 1.116 1878
1.057 2.000 1.113 2275
0.319 0.601 1.691 11002
0.321 0.605 1.689 9437
0.323 0.609 1.687 7872
0.325 0.613 1.685 10257
0.327 0.617 1.683 12642
0.329 0.621 1.681 12642
0.331 0.625 1.679 13278
0.334 0.629 1.677 13914
0.336 0.633 1.674 11692
0.339 0.640 1.679 9810
0.341 0.644 1.677 8262
0.345 0.651 1.682 6923
0.347 0.655 1.680 8908
0.348 0.656 1.671 10650
0.350 0.659 1.668 10146
0.352 0.663 1.666 9677
0.354 0.667 1.664 9543
0.358 0.674 1.669 8489
0.365 0.688 1.687 8151
0.362 0.682 1.664 10549
0.362 0.683 1.655 13868
0.364 0.687 1.652 14583
0.366 0.691 1.650 15298
0.370 0.698 1.655 12898
0.372 0.702 1.652 10953
0.374 0.706 1.650 9823
0.373 0.703 1.634 9703
0.377 0.710 1.638 10255
0.382 0.721 1.650 8855
0.388 0.731 1.661 6688
0.390 0.735 1.658 7566
0.392 0.739 1.656 8348
0.396 0.746 1.660 10677
0.400 0.754 1.665 13325
0.400 0.754 1.655 15113
0.402 0.758 1.653 16987
0.404 0.762 1.650 17984
0.406 0.766 1.647 18297
0.408 0.770 1.645 17351
0.412 0.777 1.649 15607
0.418 0.788 1.660 15535
0.420 0.792 1.657 13717
0.422 0.796 1.655 17299
0.424 0.800 1.652 23820
0.428 0.808 1.656 26352
0.430 0.811 1.653 28086
0.432 0.815 1.650 22602
0.434 0.819 1.648 13085
0.439 0.827 1.652 9417
0.441 0.831 1.649 9348
0.443 0.835 1.646 10486
0.445 0.838 1.643 11693
0.447 0.842 1.640 13703
0.449 0.846 1.637 16673
0.451 0.850 1.635 17633
0.455 0.858 1.638 15016
0.465 0.877 1.662 16831
0.467 0.881 1.659 20146
0.469 0.885 1.656 20179
0.473 0.893 1.659 24539
0.476 0.897 1.656 28408
0.480 0.904 1.660 28341
0.482 0.908 1.657 23828
0.486 0.916 1.660 15724
0.488 0.920 1.657 14258
0.488 0.920 1.648 16156
0.492 0.928 1.651 17384
0.496 0.936 1.654 17610
0.501 0.944 1.657 13301
0.503 0.948 1.654 9724
0.502 0.947 1.645 9146
0.505 0.951 1.641 9579
0.509 0.959 1.645 10701
0.515 0.971 1.654 9964
0.520 0.980 1.657 6317
0.517 0.975 1.641 8946
0.519 0.979 1.638 22527
0.519 0.978 1.628 34991
0.521 0.982 1.625 36084
0.525 0.990 1.628 36249
0.530 0.998 1.631 40388
0.529 0.998 1.621 35133
0.529 0.997 1.612 26825
0.533 1.006 1.615 23752
0.535 1.009 1.611 22042
0.535 1.009 1.602 15874
0.539 1.017 1.604 15746
0.546 1.029 1.613 20767
0.550 1.038 1.616 20474
0.555 1.046 1.618 16278
0.561 1.058 1.627 13342
0.566 1.067 1.630 11882
0.565 1.066 1.620 12474
0.565 1.065 1.610 13582
0.567 1.069 1.607 13230
0.535 1.010 1.519 12313
0.540 1.018 1.521 8738
0.566 1.067 1.578 11401
0.565 1.066 1.568 18161
0.570 1.074 1.571 22709
0.577 1.087 1.579 15390
0.583 1.100 1.587 9884
0.588 1.108 1.589 10848
0.590 1.112 1.586 8798
0.587 1.106 1.570 8188
0.589 1.110 1.567 15827
0.591 1.114 1.563 24612
0.593 1.117 1.559 24046
0.590 1.111 1.544 21905
0.591 1.115 1.540 21200
0.596 1.123 1.542 18891
0.600 1.132 1.544 18549
0.605 1.140 1.546 20871
0.609 1.149 1.548 12936
0.634 1.195 1.596 13526
0.639 1.204 1.597 17450
0.638 1.203 1.588 11265
0.640 1.207 1.584 10223
0.639 1.205 1.574 11037
0.641 1.209 1.570 7806
0.654 1.232 1.588 7729
0.650 1.226 1.573 16886
0.652 1.230 1.569 21748
0.662 1.248 1.581 14952
0.667 1.257 1.583 17609
0.663 1.251 1.567 24896
0.665 1.254 1.563 24670
0.673 1.268 1.570 18854
0.677 1.277 1.571 13092
0.679 1.280 1.567 14175
0.694 1.309 1.590 16405
0.702 1.323 1.597 21716
0.712 1.342 1.609 24479
0.714 1.346 1.604 20618
0.716 1.350 1.600 13577
0.710 1.338 1.579 14421
0.712 1.342 1.574 15543
0.727 1.371 1.597 11454
0.732 1.380 1.597 12211
0.737 1.389 1.598 13291
0.736 1.387 1.588 21209
0.738 1.391 1.584 20755
0.745 1.405 1.589 12659
0.753 1.419 1.595 15234
0.755 1.423 1.590 25415
0.760 1.432 1.591 27862
0.764 1.441 1.591 22353
0.766 1.445 1.586 20459
0.768 1.449 1.582 17085
0.773 1.458 1.582 13017
0.778 1.467 1.582 18131
0.780 1.470 1.577 24688
0.782 1.474 1.572 21525
0.787 1.483 1.573 19339
0.786 1.481 1.562 23538
0.788 1.485 1.558 19589
0.790 1.489 1.553 13913
0.791 1.492 1.548 14661
0.793 1.496 1.543 21012
0.798 1.505 1.543 31866
0.797 1.503 1.533 28924
0.799 1.506 1.527 15912
0.842 1.587 1.591 7414
0.838 1.579 1.576 8771
0.837 1.578 1.566 13073
0.842 1.587 1.566 14202
0.844 1.590 1.560 10353
0.843 1.588 1.550 8108
0.847 1.598 1.550 8243
0.852 1.607 1.549 8307
0.875 1.649 1.577 10882
0.874 1.648 1.567 14290
0.876 1.651 1.561 11682
0.890 1.677 1.575 8701
0.901 1.698 1.583 9991
0.897 1.690 1.568 12100
0.898 1.694 1.563 15355
0.900 1.698 1.557 17994
0.902 1.701 1.551 19739
0.904 1.705 1.546 19604
0.906 1.708 1.540 15296
0.908 1.712 1.534 9874
0.904 1.704 1.519 6511
0.821 1.547 1.387 4183
0.819 1.545 1.377 5763
0.818 1.542 1.367 9784
0.820 1.545 1.362 8777
0.947 1.785 1.540 4865
0.958 1.806 1.547 3107
0.960 1.810 1.541 4165
0.962 1.813 1.535 5793
0.843 1.590 1.358 7295
0.848 1.599 1.357 7516
0.846 1.596 1.347 7216
0.839 1.581 1.329 6457
0.840 1.584 1.324 6673
0.845 1.593 1.323 8413
0.844 1.590 1.313 8283
0.980 1.847 1.490 7466
1.007 1.898 1.518 6144
0.851 1.605 1.301 5276
0.853 1.608 1.296 5208
0.858 1.617 1.295 4736
0.866 1.632 1.298 4959
0.956 1.802 1.408 5283
1.037 1.955 1.504 5179
1.032 1.946 1.490 5315
1.031 1.944 1.479 5473
1.033 1.947 1.473 4775
1.031 1.945 1.462 4004
1.033 1.948 1.456 3927
0.884 1.667 1.262 3787
0.892 1.682 1.264 3837
0.891 1.679 1.255 4109
0.892 1.682 1.249 4385
0.890 1.679 1.239 5947
0.892 1.682 1.234 7398
0.893 1.684 1.228 7213
1.151 2.170 1.526 5963
1.156 2.180 1.523 5537
1.158 2.183 1.516 5243
1.160 2.187 1.509 3735
0.956 1.803 1.264 2752
0.935 1.762 1.232 3340
0.940 1.771 1.229 3587
0.944 1.780 1.227 3350
1.202 2.266 1.509 3857
1.200 2.263 1.498 4641
1.206 2.273 1.494 3913
1.211 2.283 1.490 3359
0.991 1.869 1.241 2992
0.970 1.828 1.209 3697
0.968 1.824 1.200 5319
0.972 1.833 1.197 5750
0.974 1.836 1.191 6219
0.982 1.851 1.192 5251
0.987 1.860 1.189 4499
0.988 1.863 1.183 3428
1.006 1.897 1.194 2917
1.011 1.906 1.191 3895
1.019 1.921 1.191 5162
1.024 1.930 1.188 6018
1.032 1.946 1.189 7181
1.037 1.955 1.185 5581
1.348 2.542 1.484 5428
1.347 2.539 1.472 4411
1.055 1.988 1.179 3928
1.056 1.991 1.172 3928
1.054 1.987 1.162 4357
1.052 1.983 1.153 4945
1.053 1.986 1.146 4395
1.051 1.982 1.136 3848
1.053 1.985 1.130 3406
1.436 2.707 1.473 2765
1.055 1.990 1.116 1979
1.060 1.999 1.113 2396
0.321 0.600 1.691 10244
0.323 0.604 1.689 9110
0.327 0.611 1.694 7994
0.327 0.612 1.685 10550
0.329 0.616 1.683 13123
0.331 0.620 1.681 13123
0.333 0.624 1.679 14022
0.336 0.628 1.677 14922
0.339 0.635 1.682 12722
0.341 0.639 1.679 10924
0.345 0.646 1.684 9056
0.352 0.659 1.703 7570
0.349 0.654 1.680 9252
0.350 0.654 1.671 10798
0.352 0.658 1.668 10260
0.354 0.662 1.666 9771
0.356 0.666 1.664 9615
0.360 0.673 1.669 8494
0.367 0.687 1.687 8156
0.364 0.681 1.664 10259
0.364 0.682 1.655 13344
0.366 0.686 1.652 14179
0.369 0.689 1.650 15014
0.372 0.697 1.655 12888
0.374 0.701 1.652 11154
0.377 0.704 1.650 9985
0.375 0.702 1.634 9646
0.379 0.709 1.638 10141
0.385 0.719 1.650 8893
0.390 0.730 1.661 7011
0.392 0.734 1.658 8746
0.394 0.738 1.656 10140
0.398 0.745 1.660 12415
0.402 0.753 1.665 15080
0.402 0.753 1.655 16616
0.405 0.757 1.653 18240
0.407 0.761 1.650 18844
0.409 0.765 1.647 18482
0.411 0.768 1.645 17163
0.415 0.776 1.649 14862
0.421 0.787 1.660 14384
0.423 0.791 1.657 13121
0.425 0.795 1.655 17357
0.427 0.799 1.652 24043
0.431 0.806 1.656 26592
0.433 0.810 1.653 28300
0.435 0.814 1.650 22929
0.437 0.818 1.648 13191
0.441 0.825 1.652 9117
0.443 0.829 1.649 9065
0.445 0.833 1.646 10776
0.447 0.837 1.643 12541
0.449 0.841 1.640 14857
0.451 0.845 1.637 18441
0.454 0.848 1.635 19709
0.458 0.856 1.638 16465
0.464 0.868 1.649 15923
0.470 0.879 1.659 18031
0.472 0.883 1.656 17780
0.476 0.891 1.659 22560
0.478 0.895 1.656 27621
0.483 0.903 1.660 28388
0.485 0.907 1.657 24216
0.489 0.915 1.660 16394
0.491 0.918 1.657 13799
0.491 0.918 1.648 14999
0.495 0.926 1.651 16336
0.499 0.934 1.654 17554
0.504 0.942 1.657 14084
0.508 0.950 1.661 9945
0.508 0.950 1.651 8442
0.510 0.954 1.648 8677
0.512 0.958 1.645 9758
0.518 0.970 1.654 8936
0.525 0.982 1.663 6232
0.523 0.978 1.648 8403
0.522 0.977 1.638 20235
0.522 0.977 1.628 33440
0.524 0.981 1.625 35374
0.528 0.989 1.628 35493
0.533 0.997 1.631 39129
0.533 0.996 1.621 34114
0.532 0.996 1.612 27258
0.534 0.999 1.608 23914
0.539 1.008 1.611 21225
0.538 1.007 1.602 14695
0.543 1.015 1.604 14013
0.549 1.028 1.613 17810
0.554 1.036 1.616 17662
0.558 1.044 1.618 14825
0.562 1.052 1.621 12811
0.567 1.060 1.624 11713
0.569 1.064 1.620 12090
0.569 1.064 1.610 13785
0.571 1.067 1.607 14069
0.539 1.008 1.519 12825
0.543 1.016 1.521 9452
0.569 1.065 1.578 10116
0.569 1.064 1.568 16683
0.571 1.068 1.565 22503
0.580 1.085 1.579 16713
0.587 1.098 1.587 11344
0.591 1.106 1.589 10506
0.593 1.110 1.586 7044
0.593 1.109 1.576 6349
0.592 1.108 1.567 14456
0.594 1.112 1.563 22944
0.596 1.115 1.559 22703
0.596 1.114 1.549 19580
0.598 1.118 1.546 19419
0.599 1.121 1.542 18683
0.604 1.130 1.544 18258
0.608 1.138 1.546 19168
0.610 1.142 1.542 11470
0.638 1.193 1.596 14282
0.642 1.202 1.597 16738
0.644 1.206 1.593 11732
0.646 1.209 1.589 10630
0.646 1.208 1.579 10525
0.645 1.207 1.570 8124
0.658 1.230 1.588 8870
0.654 1.224 1.573 18442
0.656 1.228 1.569 22843
0.666 1.246 1.581 16356
0.668 1.250 1.577 18842
0.667 1.249 1.567 26104
0.672 1.257 1.569 24809
0.679 1.271 1.576 19091
0.684 1.280 1.577 13246
0.686 1.283 1.573 15433
0.693 1.297 1.579 16933
0.703 1.316 1.591 19585
0.716 1.340 1.609 22424
0.718 1.344 1.604 20811
0.720 1.347 1.600 16130
0.714 1.336 1.579 16579
0.716 1.339 1.574 19450
0.729 1.364 1.591 17432
0.736 1.378 1.597 15412
0.741 1.387 1.598 12854
0.743 1.390 1.593 21468
0.742 1.389 1.584 23126
0.750 1.403 1.589 15324
0.757 1.417 1.595 16795
0.762 1.426 1.596 26170
0.764 1.430 1.591 28787
0.769 1.439 1.591 21328
0.771 1.442 1.586 18642
0.773 1.446 1.582 15858
0.778 1.455 1.582 12027
0.783 1.464 1.582 15789
0.785 1.468 1.577 20496
0.787 1.471 1.572 17409
0.788 1.475 1.567 17234
0.790 1.479 1.562 22589
0.792 1.482 1.558 17657
0.794 1.486 1.553 10582
0.799 1.495 1.553 11935
0.801 1.499 1.548 18571
0.803 1.502 1.543 28197
0.805 1.506 1.537 25073
0.804 1.504 1.527 13527
0.850 1.589 1.596 8043
0.849 1.588 1.586 10591
0.845 1.580 1.571 14904
0.844 1.579 1.561 14269
0.849 1.588 1.560 10015
0.848 1.586 1.550 8465
0.850 1.589 1.545 8825
0.857 1.604 1.549 8269
0.886 1.658 1.587 10239
0.882 1.650 1.572 12474
0.884 1.654 1.566 9729
0.898 1.680 1.579 7369
0.906 1.695 1.583 9054
0.905 1.693 1.573 10967
0.907 1.697 1.567 14153
0.909 1.700 1.562 16710
0.908 1.698 1.551 18052
0.910 1.702 1.546 17823
0.915 1.711 1.544 13928
0.914 1.709 1.534 9135
0.909 1.701 1.519 6260
0.899 1.682 1.495 4031
0.821 1.536 1.372 5684
0.823 1.539 1.367 9778
0.824 1.542 1.362 8715
0.826 1.546 1.357 4468
0.822 1.537 1.343 2768
0.966 1.807 1.541 3088
0.971 1.816 1.539 4675
0.848 1.587 1.358 5933
0.853 1.596 1.357 6178
0.845 1.582 1.339 6136
0.841 1.573 1.325 5833
0.842 1.576 1.319 6035
0.847 1.585 1.318 7599
0.849 1.588 1.313 7521
0.986 1.844 1.490 7055
1.013 1.895 1.518 5495
0.853 1.597 1.297 5098
0.855 1.600 1.292 4989
0.860 1.609 1.291 4310
0.960 1.796 1.414 4641
0.962 1.799 1.408 5329
0.963 1.802 1.402 5026
1.035 1.937 1.486 5099
1.034 1.935 1.475 5334
1.036 1.938 1.469 4734
1.038 1.941 1.462 4051
1.039 1.945 1.456 3969
1.038 1.942 1.445 3351
1.030 1.927 1.427 3156
0.896 1.676 1.255 3517
0.898 1.679 1.249 3898
0.896 1.676 1.239 5559
0.897 1.679 1.234 7112
0.899 1.682 1.228 6921
1.158 2.166 1.526 5945
1.163 2.176 1.523 5670
1.165 2.179 1.516 5503
1.167 2.183 1.509 3968
0.975 1.824 1.279 2979
0.973 1.821 1.269 2911
0.968 1.812 1.256 2969
1.211 2.265 1.520 3105
1.206 2.256 1.505 3677
1.208 2.259 1.498 4402
1.213 2.269 1.494 3694
1.218 2.279 1.490 3202
1.001 1.872 1.244 3399
1.012 1.893 1.249 3785
0.974 1.821 1.200 5044
0.978 1.830 1.197 5408
0.983 1.839 1.195 5781
0.988 1.848 1.192 4903
0.993 1.857 1.189 4255
1.008 1.885 1.197 3566
1.012 1.894 1.194 3294
1.017 1.903 1.191 3935
1.022 1.912 1.188 4821
1.030 1.927 1.188 5461
1.035 1.936 1.185 6406
1.351 2.528 1.489 5268
1.353 2.531 1.480 5268
1.355 2.535 1.472 4631
1.061 1.985 1.179 4561
1.062 1.988 1.172 4561
1.060 1.984 1.162 4618
1.062 1.986 1.156 4714
1.060 1.983 1.146 4183
1.061 1.985 1.139 3713
1.062 1.988 1.133 3241
1.441 2.696 1.470 3220
1.065 1.993 1.119 1973
1.066 1.995 1.113 2363
0.322 0.599 1.691 9964
0.325 0.603 1.689 8752
0.328 0.610 1.694 7606
0.329 0.611 1.685 10556
0.331 0.615 1.683 13571
0.333 0.619 1.681 13571
0.335 0.623 1.679 14832
0.337 0.627 1.677 16092
0.341 0.634 1.682 13854
0.343 0.638 1.679 12072
0.347 0.645 1.684 9853
0.354 0.658 1.703 8178
0.351 0.653 1.680 9655
0.352 0.653 1.671 11070
0.354 0.657 1.668 10491
0.356 0.661 1.666 9940
0.358 0.665 1.664 9730
0.362 0.672 1.669 8618
0.369 0.686 1.687 8320
0.366 0.680 1.664 10237
0.366 0.681 1.655 13131
0.368 0.685 1.652 13931
0.370 0.688 1.650 14731
0.374 0.696 1.655 12732
0.376 0.699 1.652 11060
0.378 0.703 1.650 9979
0.377 0.700 1.634 9543
0.381 0.708 1.638 10029
0.386 0.718 1.650 8982
0.394 0.732 1.668 7317
0.394 0.733 1.658 9741
0.396 0.737 1.656 11666
0.400 0.744 1.660 14030
0.404 0.751 1.665 16833
0.405 0.752 1.655 18271
0.407 0.756 1.653 19758
0.409 0.760 1.650 20025
0.411 0.763 1.647 18933
0.413 0.767 1.645 17070
0.417 0.775 1.649 14075
0.423 0.786 1.660 13032
0.425 0.790 1.657 12375
0.427 0.794 1.655 17201
0.429 0.797 1.652 23924
0.433 0.805 1.656 26476
0.435 0.809 1.653 28159
0.437 0.813 1.650 22884
0.439 0.817 1.648 13046
0.443 0.824 1.652 8686
0.446 0.828 1.649 8760
0.448 0.832 1.646 11129
0.450 0.836 1.643 13422
0.452 0.840 1.640 15908
0.454 0.843 1.637 20041
0.456 0.847 1.635 21689
0.458 0.851 1.632 18005
0.464 0.863 1.642 15220
0.470 0.874 1.652 14979
0.477 0.886 1.662 14420
0.479 0.890 1.659 19654
0.483 0.898 1.663 26052
0.485 0.902 1.660 27614
0.487 0.905 1.657 23888
0.491 0.913 1.660 16795
0.493 0.917 1.657 13396
0.493 0.917 1.648 13905
0.498 0.925 1.651 15327
0.502 0.933 1.654 17374
0.506 0.941 1.657 14653
0.510 0.949 1.661 9891
0.513 0.953 1.657 7529
0.512 0.952 1.648 7353
0.517 0.960 1.651 8229
0.521 0.968 1.654 7892
0.523 0.972 1.651 7025
0.525 0.976 1.648 9086
0.525 0.976 1.638 18198
0.525 0.975 1.628 31859
0.527 0.979 1.625 34811
0.531 0.987 1.628 34991
0.536 0.995 1.631 37931
0.535 0.995 1.621 33138
0.533 0.990 1.605 27762
0.537 0.998 1.608 24169
0.541 1.006 1.611 20296
0.541 1.006 1.602 13439
0.545 1.014 1.604 12269
0.550 1.022 1.607 14253
0.556 1.034 1.616 13980
0.561 1.042 1.618 12920
0.544 1.011 1.566 13221
0.570 1.059 1.624 10857
0.572 1.063 1.620 10721
0.571 1.062 1.610 12898
0.573 1.066 1.607 13922
0.544 1.011 1.525 13010
0.546 1.014 1.521 10566
0.548 1.018 1.518 9232
0.574 1.067 1.574 14987
0.576 1.071 1.571 22170
0.583 1.083 1.579 17960
0.592 1.101 1.593 12461
0.592 1.100 1.584 10124
0.596 1.108 1.586 5440
0.598 1.112 1.582 5308
0.598 1.111 1.572 13496
0.597 1.110 1.563 21160
0.599 1.114 1.559 20678
0.599 1.113 1.549 17096
0.601 1.116 1.546 17734
0.605 1.125 1.548 18058
0.610 1.133 1.550 17465
0.611 1.136 1.546 16961
0.642 1.193 1.605 11390
0.644 1.196 1.601 14794
0.646 1.200 1.597 16247
0.648 1.204 1.593 13569
0.652 1.212 1.595 11869
0.649 1.206 1.579 9894
0.648 1.205 1.570 8900
0.661 1.228 1.588 10118
0.658 1.222 1.573 19263
0.660 1.226 1.569 23407
0.670 1.244 1.581 18171
0.669 1.243 1.572 19644
0.671 1.247 1.567 25949
0.678 1.260 1.574 25317
0.683 1.269 1.576 20466
0.679 1.263 1.560 15134
0.687 1.276 1.567 17591
0.694 1.290 1.574 18285
0.707 1.314 1.591 17613
0.720 1.338 1.609 19326
0.725 1.347 1.610 20787
0.721 1.340 1.594 18494
0.720 1.339 1.584 18387
0.722 1.343 1.580 23679
0.730 1.357 1.586 24720
0.737 1.370 1.592 18855
0.745 1.384 1.598 12359
0.744 1.383 1.588 21786
0.746 1.387 1.584 26359
0.751 1.396 1.584 18732
0.761 1.415 1.595 18245
0.766 1.424 1.596 27114
0.768 1.428 1.591 30216
0.770 1.431 1.586 20297
0.775 1.440 1.586 16161
0.780 1.449 1.587 13735
0.782 1.453 1.582 10607
0.787 1.462 1.582 13368
0.789 1.466 1.577 16045
0.791 1.469 1.572 13384
0.792 1.473 1.567 15745
0.794 1.477 1.562 22266
0.796 1.480 1.558 17337
0.801 1.489 1.558 9737
0.809 1.504 1.563 12352
0.808 1.502 1.553 17410
0.810 1.505 1.547 24209
0.809 1.504 1.537 20852
0.840 1.562 1.582 12056
0.851 1.582 1.591 9506
0.853 1.585 1.586 14245
0.849 1.578 1.571 17277
0.848 1.576 1.561 14246
0.853 1.585 1.560 9501
0.855 1.589 1.555 8911
0.857 1.593 1.550 9566
0.859 1.596 1.544 8234
0.894 1.661 1.592 9927
0.893 1.659 1.581 10792
0.892 1.657 1.571 7939
0.903 1.678 1.579 5853
0.911 1.692 1.583 7857
0.910 1.691 1.573 9738
0.912 1.694 1.567 12917
0.914 1.698 1.562 15414
0.912 1.696 1.551 16252
0.914 1.699 1.546 15790
0.919 1.709 1.544 12446
0.921 1.712 1.539 8375
0.914 1.699 1.519 6032
0.904 1.679 1.495 4144
0.825 1.534 1.372 5461
0.827 1.537 1.367 9393
0.829 1.540 1.362 8297
0.827 1.538 1.352 4352
0.826 1.535 1.343 2860
0.827 1.538 1.338 2841
0.982 1.825 1.548 3896
0.984 1.829 1.542 5048
0.992 1.844 1.545 5375
0.997 1.853 1.543 5277
0.842 1.565 1.320 5211
0.847 1.574 1.319 5390
0.851 1.582 1.318 6682
0.853 1.585 1.313 6576
0.991 1.841 1.490 6512
1.015 1.886 1.514 4848
0.858 1.594 1.297 4886
0.859 1.597 1.292 4696
0.861 1.600 1.286 3962
0.965 1.793 1.414 4529
0.967 1.796 1.408 5233
0.968 1.800 1.402 4836
1.034 1.922 1.478 4972
1.033 1.920 1.467 5243
1.038 1.929 1.465 4778
1.043 1.938 1.462 4200
1.045 1.942 1.456 4103
1.043 1.939 1.445 3556
1.035 1.924 1.427 3582
1.040 1.934 1.424 3490
0.905 1.683 1.253 3452
0.904 1.680 1.243 5122
0.902 1.676 1.234 6699
0.903 1.679 1.228 6513
1.164 2.163 1.526 5821
1.169 2.173 1.523 5737
1.171 2.176 1.516 5718
1.176 2.186 1.512 4205
0.917 1.705 1.207 3377
0.978 1.818 1.269 3280
0.977 1.815 1.259 3392
1.217 2.261 1.520 3049
1.212 2.253 1.505 3485
1.211 2.250 1.494 4136
1.216 2.260 1.490 3446
1.224 2.275 1.490 2967
1.009 1.875 1.248 3949
1.017 1.891 1.249 4393
1.022 1.900 1.246 5069
0.983 1.828 1.197 5068
0.988 1.837 1.195 5358
0.993 1.845 1.192 4549
1.008 1.873 1.200 4102
1.013 1.882 1.197 3755
1.018 1.891 1.194 3581
1.026 1.906 1.194 3959
1.031 1.915 1.191 4483
1.032 1.918 1.185 4920
1.040 1.933 1.185 5589
1.351 2.511 1.482 5377
1.353 2.515 1.474 5377
1.355 2.518 1.465 5124
1.063 1.976 1.176 5189
1.064 1.978 1.169 5189
1.066 1.981 1.162 4854
1.067 1.983 1.156 4520
1.069 1.986 1.149 3905
1.067 1.982 1.139 3424
1.443 2.682 1.475 3039
1.448 2.692 1.470 3634
1.071 1.990 1.119 1868
1.072 1.992 1.113 2235
0.324 0.599 1.691 9670
0.326 0.603 1.689 8287
0.329 0.609 1.694 7001
0.330 0.611 1.685 10413
0.332 0.614 1.683 13923
0.334 0.618 1.681 13923
0.336 0.622 1.679 15507
0.338 0.626 1.677 17091
0.341 0.630 1.674 14839
0.344 0.637 1.679 13058
0.348 0.644 1.684 10500
0.355 0.657 1.703 8599
0.352 0.652 1.680 9933
0.353 0.653 1.671 11232
0.355 0.657 1.668 10628
0.357 0.661 1.666 10063
0.359 0.665 1.664 9843
0.363 0.672 1.669 8781
0.370 0.685 1.687 8551
0.367 0.679 1.664 10273
0.368 0.680 1.655 12943
0.370 0.684 1.652 13654
0.372 0.688 1.650 14366
0.376 0.695 1.655 12457
0.378 0.699 1.652 10809
0.378 0.699 1.643 9960
0.378 0.700 1.634 9454
0.384 0.710 1.645 9940
0.388 0.718 1.650 9033
0.395 0.732 1.668 7577
0.396 0.732 1.658 10485
0.398 0.736 1.656 12813
0.402 0.743 1.660 15328
0.406 0.751 1.665 18300
0.406 0.751 1.655 19693
0.408 0.755 1.653 21088
0.410 0.759 1.650 21009
0.412 0.763 1.647 19183
0.414 0.767 1.645 16784
0.418 0.774 1.649 13188
0.422 0.781 1.653 11615
0.426 0.789 1.657 11564
0.428 0.793 1.655 16873
0.431 0.797 1.652 23480
0.435 0.804 1.656 26013
0.437 0.808 1.653 27646
0.439 0.812 1.650 22497
0.441 0.816 1.648 12747
0.445 0.823 1.652 8256
0.447 0.827 1.649 8452
0.449 0.831 1.646 11307
0.451 0.835 1.643 13965
0.451 0.835 1.634 16570
0.455 0.843 1.637 21174
0.457 0.846 1.635 23210
0.459 0.850 1.632 19512
0.462 0.854 1.629 15117
0.468 0.866 1.639 12478
0.472 0.873 1.643 11359
0.480 0.889 1.659 16610
0.485 0.897 1.663 23872
0.487 0.901 1.660 26037
0.489 0.904 1.657 22720
0.495 0.916 1.667 16666
0.495 0.916 1.657 13050
0.495 0.916 1.648 13115
0.499 0.924 1.651 14490
0.504 0.932 1.654 16777
0.508 0.940 1.657 14518
0.512 0.948 1.661 9410
0.514 0.952 1.657 6693
0.516 0.956 1.654 6082
0.518 0.959 1.651 6762
0.523 0.967 1.654 7324
0.525 0.971 1.651 8231
0.527 0.975 1.648 10207
0.527 0.975 1.638 17273
0.527 0.974 1.628 30676
0.529 0.978 1.625 34414
0.533 0.986 1.628 34549
0.537 0.994 1.631 36306
0.537 0.994 1.621 31552
0.534 0.989 1.605 27873
0.539 0.997 1.608 24084
0.543 1.005 1.611 19062
0.545 1.009 1.608 11945
0.545 1.008 1.598 10521
0.552 1.021 1.607 10851
0.558 1.033 1.616 10423
0.541 1.002 1.563 12503
0.546 1.010 1.566 14755
0.569 1.053 1.618 10043
0.574 1.062 1.620 9136
0.573 1.061 1.610 11388
0.541 1.002 1.522 13764
0.546 1.010 1.525 12826
0.548 1.013 1.521 11552
0.550 1.017 1.518 10556
0.576 1.066 1.574 13207
0.578 1.070 1.571 21122
0.582 1.078 1.573 18726
0.592 1.095 1.587 12953
0.591 1.094 1.578 9831
0.593 1.098 1.574 5500
0.600 1.111 1.582 5942
0.602 1.115 1.578 13345
0.602 1.114 1.569 19520
0.601 1.113 1.559 18318
0.601 1.112 1.549 14841
0.603 1.115 1.546 15976
0.607 1.123 1.548 16687
0.612 1.132 1.550 16057
0.614 1.135 1.546 14596
0.644 1.192 1.605 12305
0.646 1.195 1.601 14850
0.645 1.194 1.592 16102
0.650 1.203 1.593 15339
0.655 1.211 1.595 12792
0.654 1.210 1.585 9369
0.653 1.209 1.575 9591
0.663 1.227 1.588 10695
0.660 1.221 1.573 18344
0.667 1.235 1.580 23181
0.675 1.248 1.587 18997
0.674 1.247 1.577 19083
0.676 1.251 1.573 24750
0.683 1.264 1.580 26280
0.685 1.268 1.576 21163
0.679 1.256 1.555 17707
0.686 1.270 1.562 19304
0.694 1.284 1.568 18916
0.709 1.313 1.591 16291
0.722 1.337 1.609 16776
0.727 1.345 1.610 20980
0.726 1.344 1.600 19660
0.723 1.338 1.584 19025
0.725 1.341 1.580 26522
0.732 1.355 1.586 30368
0.740 1.369 1.592 21902
0.745 1.378 1.593 12407
0.747 1.382 1.588 22175
0.749 1.385 1.584 29544
0.753 1.394 1.584 22345
0.764 1.414 1.595 19104
0.766 1.417 1.590 27439
0.768 1.421 1.586 31119
0.773 1.430 1.586 19346
0.778 1.439 1.586 13214
0.782 1.448 1.587 10671
0.784 1.451 1.582 8636
0.789 1.460 1.582 11075
0.791 1.464 1.577 12184
0.793 1.468 1.572 10483
0.795 1.471 1.567 15207
0.797 1.475 1.562 22280
0.799 1.479 1.558 17934
0.801 1.482 1.553 11021
0.809 1.497 1.558 13819
0.811 1.500 1.553 17518
0.813 1.504 1.547 20694
0.821 1.518 1.552 17744
0.843 1.560 1.582 13272
0.851 1.575 1.586 11299
0.856 1.584 1.586 17583
0.852 1.576 1.571 19114
0.851 1.575 1.561 13830
0.859 1.589 1.565 9061
0.858 1.587 1.555 9330
0.860 1.591 1.550 10194
0.862 1.595 1.544 8229
0.897 1.659 1.592 9310
0.896 1.657 1.581 9276
0.898 1.661 1.576 6541
0.906 1.676 1.579 4550
0.914 1.691 1.583 6531
0.913 1.689 1.573 8187
0.915 1.692 1.567 11343
0.917 1.696 1.562 13991
0.916 1.694 1.551 14538
0.918 1.698 1.546 13826
0.923 1.707 1.544 10926
0.924 1.711 1.539 7567
0.917 1.697 1.519 5680
0.907 1.678 1.495 4141
0.828 1.532 1.372 5039
0.827 1.530 1.363 8686
0.832 1.539 1.362 7572
0.830 1.536 1.352 4086
0.829 1.533 1.343 2848
0.955 1.768 1.515 3663
0.957 1.771 1.509 4476
0.990 1.833 1.546 4756
0.995 1.842 1.545 5094
1.001 1.851 1.543 4764
0.842 1.557 1.316 4683
0.846 1.566 1.315 4724
0.851 1.575 1.314 5616
0.999 1.848 1.505 5811
0.997 1.846 1.495 5827
1.006 1.861 1.497 4235
0.858 1.587 1.293 4560
0.862 1.596 1.292 4308
0.861 1.593 1.282 3668
0.968 1.791 1.414 4248
0.970 1.795 1.408 4931
0.972 1.798 1.402 4469
1.038 1.920 1.478 4757
1.033 1.912 1.463 5105
1.038 1.921 1.461 4742
1.047 1.937 1.462 4276
1.048 1.940 1.456 4150
1.047 1.937 1.445 3631
1.039 1.922 1.427 3793
1.044 1.932 1.424 3772
1.046 1.935 1.418 3271
0.907 1.678 1.243 4650
0.905 1.675 1.234 6178
0.907 1.677 1.228 6008
1.168 2.161 1.526 5555
1.173 2.171 1.523 5647
1.178 2.180 1.520 5782
0.922 1.707 1.217 4456
0.921 1.703 1.207 3804
0.982 1.816 1.269 3471
0.983 1.819 1.263 3706
0.981 1.816 1.253 3362
1.216 2.250 1.505 3279
1.215 2.248 1.494 3885
0.973 1.800 1.220 3893
0.981 1.815 1.222 2989
1.012 1.873 1.248 4327
1.021 1.889 1.249 4790
1.026 1.898 1.246 5518
1.024 1.894 1.236 4838
0.992 1.835 1.195 4934
1.000 1.850 1.195 4191
1.015 1.878 1.203 4043
1.020 1.887 1.200 3823
1.024 1.896 1.197 3758
1.029 1.904 1.194 3930
1.034 1.913 1.191 4208
1.036 1.916 1.185 4426
1.044 1.931 1.185 4763
1.353 2.503 1.479 5680
1.354 2.506 1.470 5660
1.360 2.516 1.465 5609
1.368 2.532 1.463 5720
1.068 1.976 1.169 5564
1.382 2.558 1.456 5566
1.381 2.555 1.444 4500
1.379 2.551 1.433 3649
1.381 2.555 1.424 3649
1.448 2.679 1.475 3144
1.450 2.683 1.466 3851
1.452 2.686 1.457 1925
1.076 1.990 1.113 2062
0.325 0.598 1.691 9110
0.327 0.602 1.689 7750
0.331 0.609 1.694 6496
0.332 0.610 1.685 10322
0.334 0.614 1.683 14254
0.336 0.617 1.681 14254
0.338 0.621 1.679 16038
0.340 0.625 1.677 17821
0.342 0.629 1.674 15515
0.346 0.636 1.679 13668
0.350 0.643 1.684 10927
0.355 0.653 1.696 8928
0.354 0.651 1.680 10173
0.355 0.652 1.671 11415
0.357 0.656 1.668 10786
0.359 0.660 1.666 10138
0.361 0.664 1.664 9839
0.365 0.671 1.669 8779
0.372 0.684 1.687 8545
0.369 0.678 1.664 10146
0.369 0.679 1.655 12645
0.372 0.683 1.652 13342
0.374 0.687 1.650 14038
0.378 0.694 1.655 12238
0.380 0.698 1.652 10654
0.380 0.698 1.643 9977
0.382 0.702 1.641 9412
0.386 0.709 1.645 10013
0.390 0.716 1.650 9260
0.397 0.731 1.668 8085
0.398 0.731 1.658 11336
0.400 0.735 1.656 13948
0.404 0.742 1.660 16579
0.406 0.746 1.658 19733
0.408 0.750 1.655 21078
0.410 0.754 1.653 22423
0.412 0.758 1.650 22042
0.414 0.762 1.647 19470
0.416 0.765 1.645 16500
0.420 0.773 1.649 12304
0.425 0.780 1.653 10090
0.429 0.788 1.657 10738
0.431 0.792 1.655 16556
0.433 0.795 1.652 22944
0.437 0.803 1.656 25408
0.439 0.807 1.653 26962
0.441 0.811 1.650 21942
0.443 0.814 1.648 12328
0.447 0.822 1.652 7757
0.449 0.826 1.649 8058
0.451 0.830 1.646 11284
0.454 0.834 1.643 14210
0.454 0.834 1.634 16944
0.456 0.837 1.631 21921
0.460 0.845 1.635 24220
0.462 0.849 1.632 20679
0.464 0.853 1.629 15470
0.466 0.856 1.626 11340
0.470 0.864 1.630 9487
0.485 0.891 1.666 13477
0.487 0.895 1.663 21168
0.489 0.899 1.660 23810
0.494 0.907 1.663 21076
0.498 0.915 1.667 16263
0.498 0.915 1.657 12826
0.495 0.911 1.641 12680
0.502 0.923 1.651 13982
0.506 0.930 1.654 16120
0.511 0.938 1.657 13989
0.517 0.950 1.667 8818
0.519 0.954 1.664 6153
0.519 0.954 1.654 5459
0.521 0.958 1.651 6144
0.526 0.966 1.654 7403
0.528 0.970 1.651 9463
0.527 0.969 1.641 11837
0.530 0.973 1.638 17150
0.529 0.973 1.628 29531
0.531 0.977 1.625 34024
0.536 0.985 1.628 34244
0.540 0.993 1.631 34918
0.540 0.992 1.621 30067
0.537 0.987 1.605 27713
0.539 0.991 1.602 23969
0.546 1.004 1.611 17461
0.541 0.994 1.589 10334
0.541 0.994 1.580 9419
0.552 1.015 1.601 8480
0.542 0.997 1.567 9013
0.544 1.000 1.563 13923
0.549 1.008 1.566 15667
0.553 1.016 1.569 9922
0.577 1.060 1.620 7301
0.545 1.001 1.532 10633
0.547 1.005 1.528 13055
0.549 1.008 1.525 12449
0.551 1.012 1.521 12547
0.550 1.011 1.512 11937
0.579 1.064 1.574 12384
0.581 1.068 1.571 20463
0.586 1.076 1.573 18975
0.593 1.089 1.581 13399
0.592 1.088 1.572 10178
0.594 1.092 1.568 6632
0.599 1.100 1.570 7463
0.606 1.113 1.578 14039
0.605 1.112 1.569 18069
0.607 1.116 1.565 16190
0.604 1.110 1.549 12916
0.606 1.113 1.546 14136
0.610 1.122 1.548 14598
0.617 1.135 1.555 14401
0.627 1.153 1.569 13491
0.645 1.185 1.600 12784
0.649 1.193 1.601 14409
0.649 1.192 1.592 15607
0.653 1.201 1.593 16136
0.658 1.209 1.595 13072
0.657 1.208 1.585 9194
0.659 1.212 1.581 10024
0.672 1.235 1.600 11207
0.677 1.244 1.601 19618
0.676 1.243 1.591 23868
0.678 1.246 1.587 19555
0.685 1.260 1.594 18269
0.690 1.268 1.595 24211
0.687 1.262 1.580 26737
0.689 1.266 1.576 20810
0.683 1.255 1.555 19733
0.690 1.268 1.562 20672
0.706 1.297 1.585 18979
0.713 1.311 1.591 16116
0.721 1.324 1.598 15764
0.728 1.338 1.604 21665
0.730 1.342 1.600 19927
0.724 1.330 1.579 18949
0.729 1.339 1.580 28257
0.736 1.353 1.586 34623
0.744 1.367 1.592 24619
0.749 1.376 1.593 13049
0.751 1.380 1.588 22948
0.753 1.383 1.584 32758
0.757 1.392 1.584 25840
0.765 1.406 1.590 19832
0.770 1.415 1.590 27695
0.772 1.419 1.586 32141
0.777 1.428 1.586 18575
0.785 1.442 1.592 10108
0.787 1.446 1.587 7025
0.791 1.455 1.587 6532
0.793 1.458 1.582 9146
0.795 1.462 1.577 8915
0.800 1.471 1.577 8689
0.802 1.475 1.573 15649
0.801 1.473 1.562 22555
0.803 1.476 1.558 18627
0.805 1.480 1.553 12773
0.813 1.494 1.558 15426
0.815 1.498 1.553 17744
0.820 1.507 1.552 17924
0.837 1.538 1.572 17337
0.848 1.558 1.582 14879
0.855 1.572 1.586 13256
0.860 1.581 1.586 20319
0.856 1.574 1.571 20409
0.855 1.572 1.561 13189
0.866 1.592 1.570 8938
0.865 1.590 1.560 10073
0.864 1.589 1.550 10893
0.869 1.598 1.549 8395
0.901 1.657 1.592 8548
0.903 1.660 1.586 8017
0.902 1.659 1.576 5657
0.886 1.629 1.542 3890
0.919 1.688 1.583 5177
0.917 1.686 1.573 6615
0.919 1.690 1.567 9785
0.921 1.694 1.562 12675
0.923 1.697 1.556 13086
0.925 1.701 1.550 12112
0.927 1.704 1.544 9535
0.926 1.702 1.534 6853
0.922 1.694 1.519 5298
0.911 1.675 1.495 4015
0.826 1.519 1.363 4586
0.831 1.527 1.363 7805
0.833 1.531 1.358 6660
0.969 1.781 1.544 3718
0.955 1.756 1.516 3541
0.960 1.765 1.515 5406
0.962 1.768 1.509 6306
0.967 1.778 1.507 5532
0.988 1.816 1.527 4920
1.006 1.848 1.543 4127
0.840 1.543 1.307 4340
0.838 1.540 1.298 4361
0.852 1.567 1.310 4645
1.004 1.845 1.505 5294
1.003 1.843 1.495 5017
0.845 1.552 1.277 4697
0.862 1.584 1.293 4259
0.864 1.587 1.288 3924
0.862 1.584 1.278 3464
0.973 1.789 1.414 3886
0.975 1.792 1.408 4538
0.973 1.789 1.398 4061
1.040 1.911 1.473 4450
1.039 1.909 1.463 4884
1.044 1.918 1.461 4638
1.052 1.934 1.462 4331
1.054 1.937 1.456 4177
1.052 1.934 1.445 3671
1.044 1.920 1.427 3920
1.049 1.929 1.424 3952
1.051 1.932 1.418 3451
0.908 1.669 1.239 4155
0.910 1.672 1.234 5603
0.911 1.675 1.228 5473
1.177 2.164 1.530 5275
1.179 2.167 1.523 5487
1.184 2.177 1.520 5760
0.927 1.704 1.217 4923
0.929 1.707 1.211 4225
0.990 1.820 1.273 3589
0.988 1.817 1.263 3956
0.987 1.813 1.253 3714
0.981 1.804 1.240 3614
0.980 1.800 1.230 3987
0.978 1.797 1.220 4394
0.986 1.812 1.222 3388
1.018 1.871 1.248 4590
1.026 1.886 1.249 5074
1.031 1.895 1.246 5845
1.029 1.891 1.236 5085
0.997 1.832 1.195 4454
1.025 1.884 1.216 4053
1.020 1.875 1.203 3960
1.025 1.884 1.200 3801
1.047 1.924 1.215 3910
1.052 1.933 1.212 3940
1.053 1.936 1.205 3988
1.044 1.919 1.188 3984
1.358 2.495 1.487 4656
1.360 2.499 1.479 6054
1.361 2.502 1.470 6054
1.367 2.512 1.465 6126
1.375 2.528 1.463 6528
1.384 2.544 1.462 6238
1.389 2.554 1.456 6312
1.388 2.551 1.444 5039
1.386 2.548 1.433 4102
1.388 2.551 1.424 4102
1.390 2.554 1.416 3152
1.458 2.679 1.466 3971
1.459 2.682 1.457 1985
1.081 1.987 1.113 1830
0.326 0.597 1.691 8457
0.330 0.604 1.696 7237
0.332 0.608 1.694 6141
0.333 0.609 1.685 10198
0.335 0.613 1.683 14385
0.337 0.617 1.681 14385
0.339 0.621 1.679 16295
0.341 0.625 1.677 18204
0.343 0.629 1.674 15877
0.347 0.636 1.679 14003
0.349 0.640 1.677 11229
0.356 0.653 1.696 9219
0.355 0.650 1.680 10468
0.356 0.651 1.671 11773
0.358 0.655 1.668 11122
0.360 0.659 1.666 10402
0.362 0.663 1.664 10037
0.366 0.670 1.669 8873
0.373 0.684 1.687 8566
0.370 0.678 1.664 10010
0.371 0.678 1.655 12303
0.373 0.682 1.652 12945
0.375 0.686 1.650 13588
0.377 0.690 1.648 11860
0.381 0.697 1.652 10264
0.381 0.698 1.643 9891
0.383 0.701 1.641 9472
0.389 0.712 1.652 10185
0.391 0.716 1.650 9613
0.399 0.730 1.668 8644
0.399 0.730 1.658 12096
0.401 0.734 1.656 14902
0.405 0.742 1.660 17673
0.407 0.745 1.658 21025
0.409 0.749 1.655 22368
0.411 0.753 1.653 23711
0.413 0.757 1.650 22963
0.416 0.761 1.647 19541
0.418 0.765 1.645 15971
0.422 0.772 1.649 11258
0.426 0.780 1.653 8415
0.430 0.787 1.657 9855
0.432 0.791 1.655 16122
0.434 0.795 1.652 22093
0.438 0.802 1.656 24359
0.440 0.806 1.653 25737
0.442 0.810 1.650 20850
0.444 0.814 1.648 11468
0.447 0.818 1.645 6972
0.449 0.821 1.642 7371
0.453 0.829 1.646 10846
0.455 0.833 1.643 13919
0.455 0.833 1.634 16690
0.457 0.837 1.631 22069
0.461 0.844 1.635 24552
0.461 0.844 1.625 21565
0.463 0.848 1.622 16278
0.465 0.852 1.619 11207
0.469 0.860 1.623 8851
0.486 0.891 1.666 10894
0.489 0.895 1.663 18043
0.491 0.898 1.660 20974
0.495 0.906 1.663 18889
0.499 0.914 1.667 15519
0.499 0.914 1.657 12672
0.497 0.910 1.641 12525
0.501 0.918 1.644 13720
0.508 0.930 1.654 15432
0.514 0.942 1.664 13047
0.519 0.950 1.667 8085
0.521 0.953 1.664 5753
0.521 0.953 1.654 5190
0.520 0.953 1.645 5874
0.527 0.965 1.654 7591
0.527 0.965 1.644 10892
0.529 0.969 1.641 14068
0.531 0.972 1.638 17642
0.531 0.972 1.628 28281
0.533 0.976 1.625 33363
0.537 0.984 1.628 33559
0.542 0.992 1.631 33026
0.541 0.991 1.621 28366
0.536 0.982 1.599 27527
0.541 0.990 1.602 23553
0.545 0.998 1.605 15682
0.540 0.989 1.583 9007
0.542 0.993 1.580 8848
0.544 0.996 1.576 7888
0.544 0.996 1.567 10385
0.546 0.999 1.563 15423
0.550 1.007 1.566 16291
0.555 1.015 1.569 10096
0.552 1.010 1.553 7045
0.546 1.000 1.532 10519
0.548 1.004 1.528 11985
0.550 1.007 1.525 12098
0.552 1.011 1.521 13617
0.552 1.010 1.512 13195
0.581 1.063 1.574 11958
0.583 1.067 1.571 20049
0.590 1.080 1.579 18799
0.592 1.083 1.575 13326
0.591 1.083 1.566 10778
0.593 1.086 1.562 8226
