0.456 2.826 1.708 5132
0.451 2.796 1.681 5234
0.452 2.800 1.673 4597
0.453 2.804 1.665 3960
0.469 2.906 1.708 4202
0.470 2.910 1.699 4731
0.471 2.915 1.690 5063
0.472 2.926 1.685 5409
0.473 2.930 1.677 4842
0.476 2.949 1.675 4332
0.475 2.939 1.659 3934
0.489 3.027 1.693 3744
0.490 3.032 1.684 4170
0.504 3.120 1.717 4854
0.503 3.118 1.704 5385
0.503 3.115 1.691 6184
0.503 3.113 1.679 5005
0.502 3.110 1.666 3927
0.503 3.114 1.657 3333
0.532 3.295 1.732 3297
0.533 3.300 1.722 3878
0.534 3.305 1.712 4458
0.534 3.309 1.702 3819
0.536 3.321 1.696 3184
0.537 3.325 1.686 3184
0.538 3.329 1.676 3016
0.538 3.334 1.666 2847
0.534 3.310 1.643 2978
0.534 3.307 1.630 3484
0.577 3.576 1.737 3363
0.577 3.573 1.724 4070
0.578 3.578 1.713 4070
0.578 3.582 1.702 2035
0.257 1.593 0.839 275
0.114 0.697 1.749 8000
0.115 0.702 1.747 5701
0.118 0.723 1.781 3605
0.116 0.708 1.735 4279
0.117 0.716 1.740 7720
0.118 0.720 1.738 10324
0.119 0.728 1.743 14706
0.120 0.733 1.741 19169
0.121 0.738 1.739 19202
0.121 0.739 1.729 19310
0.122 0.743 1.727 18716
0.122 0.748 1.725 18122
0.123 0.752 1.722 18391
0.123 0.753 1.713 19504
0.124 0.758 1.711 20223
0.125 0.766 1.715 19232
0.127 0.774 1.720 18491
0.128 0.786 1.732 13333
0.131 0.801 1.751 11647
0.132 0.806 1.748 11559
0.132 0.810 1.746 11470
0.133 0.815 1.743 13538
0.134 0.819 1.741 15606
0.135 0.824 1.738 13530
0.135 0.829 1.736 11454
0.136 0.833 1.733 11832
0.137 0.838 1.731 12211
0.138 0.842 1.728 12075
0.138 0.847 1.726 11939
0.139 0.851 1.723 8724
0.140 0.856 1.720 5430
0.142 0.868 1.732 6960
0.143 0.877 1.736 10905
0.144 0.881 1.733 14128
0.145 0.886 1.731 16631
0.146 0.890 1.728 18237
0.146 0.895 1.725 16112
0.147 0.899 1.722 13986
0.147 0.900 1.713 10678
0.148 0.904 1.710 5514
0.149 0.909 1.707 3327
0.151 0.921 1.718 5224
0.153 0.934 1.729 7958
0.153 0.935 1.719 11939
0.154 0.943 1.723 17039
0.155 0.948 1.720 18195
0.156 0.952 1.718 16022
0.156 0.957 1.715 12505
0.157 0.961 1.712 11405
0.158 0.966 1.709 10224
0.159 0.970 1.706 9434
0.160 0.979 1.710 12970
0.161 0.988 1.713 19587
0.163 0.997 1.717 19585
0.164 1.001 1.714 16072
0.164 1.006 1.711 13380
0.166 1.015 1.714 14083
0.167 1.019 1.711 17400
0.167 1.024 1.708 21506
0.168 1.028 1.705 31051
0.170 1.037 1.709 37122
0.170 1.041 1.705 38340
0.172 1.050 1.709 34052
0.172 1.055 1.706 22194
0.172 1.055 1.696 14961
0.174 1.064 1.699 14026
0.176 1.077 1.709 12742
0.179 1.095 1.725 8079
0.182 1.114 1.741 5482
0.184 1.123 1.744 6221
0.184 1.123 1.734 11802
0.184 1.127 1.731 21366
0.184 1.127 1.721 27552
0.186 1.137 1.724 29426
0.187 1.141 1.721 22926
0.187 1.146 1.717 13708
0.187 1.145 1.707 8692
0.189 1.155 1.710 5840
0.193 1.183 1.738 8467
0.193 1.183 1.728 7577
0.194 1.187 1.725 9104
0.195 1.192 1.721 17262
0.196 1.196 1.717 21107
0.198 1.211 1.726 18516
0.199 1.220 1.729 19549
0.200 1.224 1.725 16947
0.203 1.244 1.740 12409
0.210 1.283 1.779 11897
0.211 1.292 1.782 16954
0.212 1.297 1.778 19603
0.213 1.302 1.774 19418
0.214 1.311 1.776 20595
0.215 1.316 1.772 24652
0.217 1.326 1.774 29703
0.217 1.330 1.770 27082
0.219 1.340 1.772 16189
0.222 1.360 1.786 14151
0.221 1.355 1.770 23148
0.222 1.359 1.766 34672
0.223 1.364 1.762 27606
0.225 1.379 1.770 12542
0.225 1.378 1.760 15351
0.225 1.378 1.750 24440
0.226 1.382 1.745 24695
0.228 1.392 1.747 17434
0.229 1.402 1.749 14031
0.234 1.433 1.774 13820
0.237 1.448 1.781 13654
0.238 1.458 1.783 13026
0.240 1.468 1.784 14204
0.242 1.478 1.786 14320
0.242 1.483 1.781 13504
0.243 1.487 1.777 10881
0.243 1.487 1.767 10308
0.245 1.497 1.768 17322
0.246 1.507 1.769 22587
0.249 1.522 1.776 20409
0.251 1.533 1.777 21890
0.250 1.532 1.767 14875
0.251 1.536 1.762 10204
0.254 1.552 1.769 14794
0.255 1.562 1.770 13851
0.259 1.583 1.782 16808
0.261 1.594 1.783 15121
0.254 1.554 1.733 8091
0.257 1.570 1.740 11671
0.260 1.591 1.752 13006
0.262 1.601 1.753 13950
0.262 1.600 1.742 18259
0.262 1.605 1.737 17956
0.268 1.637 1.760 14936
0.271 1.659 1.772 14687
0.272 1.664 1.767 15265
0.273 1.668 1.762 18717
0.274 1.673 1.757 24644
0.275 1.683 1.757 31515
0.276 1.688 1.752 25586
0.279 1.704 1.758 17135
0.280 1.715 1.758 11971
0.283 1.731 1.763 8744
0.285 1.741 1.763 12660
0.286 1.752 1.764 14561
0.288 1.762 1.764 15939
0.289 1.767 1.758 21690
0.290 1.771 1.753 22587
0.291 1.782 1.753 13185
0.298 1.822 1.779 10550
0.295 1.803 1.753 9162
0.296 1.813 1.752 9441
0.303 1.854 1.778 14839
0.303 1.852 1.767 20901
0.304 1.857 1.762 25807
0.305 1.868 1.761 29384
0.306 1.872 1.756 30110
0.307 1.877 1.750 24481
0.308 1.881 1.744 17914
0.310 1.898 1.749 16722
0.314 1.921 1.758 20347
0.316 1.932 1.757 19005
0.319 1.948 1.762 12201
0.320 1.959 1.761 8969
0.319 1.951 1.745 11918
0.320 1.956 1.739 15731
0.322 1.967 1.738 13957
0.323 1.977 1.737 8625
0.332 2.031 1.770 13626
0.334 2.042 1.769 18646
0.334 2.041 1.758 19456
0.333 2.039 1.747 13688
0.333 2.037 1.736 9938
0.339 2.073 1.754 17789
0.340 2.078 1.748 26830
0.340 2.082 1.742 30972
0.341 2.087 1.735 27362
0.342 2.092 1.729 18951
0.345 2.109 1.732 13861
0.352 2.151 1.754 11080
0.353 2.162 1.752 14507
0.354 2.167 1.746 13603
0.355 2.171 1.739 10050
0.355 2.169 1.728 10725
0.355 2.174 1.722 12532
0.357 2.185 1.720 12437
0.360 2.202 1.722 10161
0.364 2.226 1.729 10546
0.365 2.231 1.722 10646
0.369 2.254 1.729 7841
0.374 2.285 1.740 9397
0.377 2.309 1.747 11298
0.378 2.313 1.740 11289
0.381 2.331 1.742 11773
0.383 2.342 1.739 12110
0.384 2.347 1.732 11368
0.388 2.371 1.738 10557
0.390 2.388 1.740 12932
0.391 2.393 1.733 11448
0.392 2.398 1.726 9139
0.394 2.409 1.723 7858
0.397 2.426 1.724 5639
0.414 2.530 1.780 6910
0.414 2.535 1.773 9289
0.415 2.539 1.765 9318
0.418 2.557 1.766 8852
0.419 2.562 1.758 8551
0.421 2.573 1.755 7122
0.421 2.578 1.747 5149
0.422 2.582 1.739 4587
0.424 2.594 1.736 6654
0.427 2.612 1.736 9330
0.429 2.623 1.732 9806
0.434 2.655 1.740 8921
0.436 2.666 1.736 8418
0.437 2.670 1.728 6830
0.435 2.661 1.713 4855
0.434 2.652 1.697 5238
0.435 2.664 1.693 4768
0.441 2.695 1.700 5027
0.456 2.788 1.743 4957
0.459 2.807 1.742 6561
0.462 2.825 1.741 7321
0.463 2.829 1.733 7023
0.463 2.834 1.724 6434
0.462 2.825 1.708 4930
0.458 2.802 1.685 5252
0.458 2.799 1.673 4733
0.458 2.804 1.665 4213
0.475 2.905 1.708 4098
0.476 2.909 1.699 5079
0.476 2.914 1.690 5320
0.478 2.925 1.685 5576
0.479 2.929 1.677 4890
0.481 2.941 1.672 4238
0.480 2.938 1.659 3939
0.495 3.026 1.693 4121
0.495 3.031 1.684 4597
0.496 3.035 1.675 5074
0.510 3.117 1.704 5039
0.508 3.107 1.688 5793
0.508 3.105 1.675 4748
0.507 3.102 1.663 3855
0.507 3.099 1.650 3218
0.539 3.294 1.732 3069
0.539 3.299 1.722 3789
0.541 3.311 1.715 4588
0.542 3.315 1.706 4157
0.542 3.312 1.692 3779
0.542 3.317 1.683 3779
0.543 3.321 1.673 3570
0.544 3.326 1.663 3361
0.542 3.316 1.646 3517
0.540 3.306 1.630 3960
0.583 3.568 1.734 3204
0.584 3.572 1.724 3817
0.585 3.577 1.713 3817
0.585 3.581 1.702 1908
0.261 1.599 0.842 269
0.116 0.697 1.749 7426
0.117 0.702 1.747 5257
0.120 0.723 1.781 3291
0.118 0.708 1.735 3882
0.119 0.716 1.740 7006
0.120 0.720 1.738 9374
0.121 0.728 1.743 13503
0.122 0.733 1.741 17734
0.123 0.737 1.739 17883
0.123 0.738 1.729 18106
0.123 0.743 1.727 17593
0.124 0.747 1.725 17080
0.124 0.749 1.715 17395
0.125 0.753 1.713 18937
0.126 0.758 1.711 19989
0.127 0.766 1.715 19216
0.129 0.774 1.720 18705
0.131 0.785 1.732 13862
0.133 0.801 1.751 12681
0.134 0.805 1.748 13242
0.135 0.810 1.746 13802
0.135 0.814 1.743 15958
0.136 0.819 1.741 18113
0.137 0.824 1.738 15849
0.138 0.832 1.743 13717
0.139 0.837 1.740 13376
0.139 0.837 1.731 13147
0.140 0.842 1.728 13275
0.141 0.846 1.726 13404
0.141 0.851 1.723 10301
0.142 0.856 1.720 7123
0.144 0.868 1.732 8271
0.146 0.876 1.736 11309
0.147 0.885 1.740 13896
0.148 0.889 1.737 16300
0.148 0.890 1.728 17768
0.149 0.894 1.725 15855
0.149 0.899 1.722 13942
0.149 0.899 1.713 10549
0.150 0.904 1.710 5339
0.151 0.908 1.707 3241
0.153 0.921 1.718 5396
0.155 0.930 1.722 8392
0.155 0.934 1.719 12027
0.157 0.943 1.723 16576
0.157 0.947 1.720 17693
0.158 0.952 1.718 15564
0.159 0.956 1.715 12125
0.160 0.961 1.712 10809
0.160 0.961 1.702 9924
0.160 0.961 1.693 9922
0.163 0.979 1.710 14009
0.164 0.987 1.713 20651
0.165 0.992 1.710 19414
0.166 1.001 1.714 15148
0.167 1.005 1.711 13604
0.168 1.010 1.708 16337
0.169 1.019 1.711 20473
0.170 1.023 1.708 24091
0.171 1.028 1.705 32882
0.172 1.036 1.709 38911
0.173 1.041 1.705 40612
0.174 1.050 1.709 36985
0.175 1.054 1.706 25799
0.175 1.054 1.696 18361
0.177 1.063 1.699 16996
0.178 1.072 1.702 15167
0.181 1.090 1.718 9006
0.185 1.113 1.741 5495
0.186 1.118 1.738 5975
0.187 1.122 1.734 11677
0.187 1.122 1.724 22025
0.187 1.127 1.721 28587
0.189 1.136 1.724 29888
0.190 1.141 1.721 23556
0.190 1.145 1.717 14600
0.191 1.150 1.714 9799
0.192 1.154 1.710 6837
0.196 1.182 1.738 8121
0.196 1.182 1.728 7413
0.197 1.187 1.725 9889
0.198 1.191 1.721 18456
0.199 1.196 1.717 22115
0.201 1.210 1.726 18976
0.203 1.219 1.729 19573
0.203 1.224 1.725 16893
0.206 1.238 1.734 12634
0.213 1.282 1.779 10601
0.215 1.292 1.782 15108
0.215 1.296 1.778 17744
0.216 1.301 1.774 18053
0.218 1.311 1.776 19811
0.219 1.315 1.772 23267
0.220 1.325 1.774 27869
0.221 1.330 1.770 26664
0.223 1.340 1.772 16065
0.225 1.354 1.780 11345
0.225 1.354 1.770 20162
0.225 1.354 1.760 33672
0.227 1.363 1.762 28031
0.228 1.373 1.764 13377
0.228 1.373 1.754 16344
0.229 1.377 1.750 26210
0.230 1.382 1.745 25943
0.230 1.386 1.741 18883
0.233 1.401 1.749 16206
0.237 1.427 1.768 13193
0.241 1.447 1.781 12949
0.242 1.457 1.783 12375
0.244 1.467 1.784 12156
0.246 1.477 1.786 10944
0.246 1.482 1.781 9474
0.246 1.481 1.771 7585
0.246 1.481 1.761 9415
0.249 1.496 1.768 16538
0.250 1.506 1.769 21117
0.253 1.522 1.776 18810
0.255 1.532 1.777 20127
0.254 1.531 1.767 15459
0.254 1.530 1.757 11618
0.257 1.546 1.763 14305
0.259 1.556 1.764 11889
0.262 1.577 1.776 13897
0.262 1.576 1.766 14046
0.258 1.553 1.733 10393
0.259 1.558 1.729 13981
0.264 1.590 1.752 12322
0.266 1.600 1.753 14506
0.266 1.599 1.742 17966
0.266 1.598 1.732 16485
0.273 1.642 1.766 16489
0.276 1.658 1.772 18495
0.276 1.663 1.767 18461
0.277 1.668 1.762 22897
0.278 1.672 1.757 29877
0.279 1.677 1.752 32938
0.280 1.687 1.752 26323
0.283 1.703 1.758 20821
0.285 1.714 1.758 13537
0.287 1.724 1.758 8429
0.290 1.746 1.769 12400
0.292 1.757 1.769 15455
0.293 1.761 1.764 17473
0.293 1.766 1.758 23274
0.294 1.771 1.753 23556
0.296 1.781 1.753 13103
0.303 1.821 1.779 9884
0.299 1.802 1.753 8594
0.301 1.813 1.752 11362
0.305 1.835 1.762 16315
0.307 1.846 1.762 22348
0.307 1.850 1.756 28308
0.310 1.867 1.761 33033
0.312 1.877 1.761 34908
0.312 1.876 1.750 25709
0.313 1.881 1.744 16717
0.316 1.903 1.754 17409
0.319 1.920 1.758 22345
0.321 1.931 1.757 20707
0.324 1.947 1.762 12559
0.325 1.958 1.761 10220
0.325 1.957 1.750 15636
0.325 1.955 1.739 19270
0.327 1.966 1.738 14884
0.328 1.977 1.737 8709
0.337 2.030 1.770 15149
0.339 2.041 1.769 20960
0.339 2.040 1.758 21418
0.339 2.038 1.747 14709
0.339 2.043 1.741 10409
0.344 2.072 1.754 19016
0.345 2.077 1.748 27267
0.346 2.082 1.742 30443
0.347 2.086 1.735 26351
0.347 2.091 1.729 17884
0.350 2.108 1.732 12640
0.358 2.156 1.759 10358
0.360 2.167 1.757 13906
0.360 2.166 1.746 13513
0.362 2.177 1.744 10468
0.360 2.169 1.728 10894
0.361 2.173 1.722 12384
0.364 2.190 1.724 12336
0.367 2.208 1.727 10546
0.372 2.238 1.738 11521
0.371 2.230 1.722 10962
0.374 2.253 1.729 8531
0.380 2.284 1.740 10916
0.384 2.308 1.747 12550
0.383 2.306 1.735 12915
0.386 2.323 1.737 13024
0.389 2.341 1.739 13000
0.390 2.346 1.732 12278
0.393 2.363 1.734 11208
0.397 2.387 1.740 13091
0.398 2.392 1.733 12110
0.399 2.403 1.730 10532
0.401 2.414 1.727 9302
0.403 2.425 1.724 6371
0.420 2.529 1.780 6913
0.421 2.534 1.773 9066
0.423 2.545 1.769 8907
0.425 2.556 1.766 8463
0.426 2.561 1.758 8078
0.427 2.572 1.755 6481
0.428 2.577 1.747 5364
0.429 2.581 1.739 5767
0.431 2.593 1.736 8322
0.433 2.604 1.732 11458
0.436 2.622 1.732 11326
0.440 2.647 1.736 9182
0.443 2.665 1.736 8493
0.444 2.669 1.728 7183
0.442 2.660 1.713 5555
0.441 2.651 1.697 5937
0.442 2.662 1.693 5240
0.448 2.694 1.700 5472
0.463 2.787 1.743 4866
0.466 2.805 1.742 6328
0.469 2.824 1.741 7160
0.470 2.828 1.733 6834
0.471 2.833 1.724 6165
0.470 2.830 1.712 4591
0.465 2.800 1.685 4975
0.465 2.798 1.673 4620
0.466 2.802 1.665 4275
0.481 2.897 1.704 3994
0.482 2.901 1.695 5299
0.484 2.912 1.690 5394
0.486 2.924 1.685 5539
0.488 2.935 1.680 4804
0.489 2.940 1.672 4106
0.488 2.937 1.659 3941
0.504 3.032 1.696 4492
0.503 3.030 1.684 4997
0.504 3.034 1.675 5512
0.505 3.038 1.666 5024
0.514 3.092 1.681 5456
0.513 3.089 1.668 4658
0.514 3.094 1.659 3875
0.515 3.098 1.650 3049
0.547 3.293 1.732 2892
0.549 3.305 1.725 3762
0.551 3.316 1.719 4809
0.551 3.314 1.706 4591
0.550 3.311 1.692 4465
0.551 3.315 1.683 4465
0.552 3.320 1.673 4268
0.552 3.324 1.663 4072
0.552 3.321 1.650 3980
0.549 3.304 1.630 4267
0.549 3.301 1.617 3294
0.592 3.564 1.721 3274
0.593 3.568 1.710 3274
0.594 3.573 1.699 1637
0.266 1.599 0.842 255
0.118 0.697 1.749 6812
0.118 0.701 1.747 4796
0.122 0.722 1.781 3001
0.119 0.707 1.735 3517
0.121 0.715 1.740 6363
0.122 0.720 1.738 8493
0.123 0.728 1.743 12399
0.124 0.732 1.741 16447
0.124 0.737 1.739 16751
0.125 0.738 1.729 17129
0.125 0.743 1.727 16597
0.126 0.747 1.725 16065
0.126 0.748 1.715 16481
0.127 0.753 1.713 18194
0.128 0.757 1.711 19442
0.129 0.765 1.715 18895
0.131 0.773 1.720 18662
0.133 0.789 1.739 14503
0.135 0.800 1.751 13882
0.136 0.805 1.748 14873
0.137 0.810 1.746 15864
0.137 0.814 1.743 17949
0.138 0.819 1.741 20033
0.139 0.823 1.738 17657
0.140 0.832 1.743 15570
0.141 0.836 1.740 14918
0.142 0.841 1.738 14266
0.142 0.842 1.728 14533
0.143 0.846 1.726 14812
0.144 0.851 1.723 11660
0.144 0.855 1.720 8441
0.146 0.867 1.732 9314
0.148 0.876 1.736 11591
0.149 0.884 1.740 13760
0.150 0.889 1.737 16054
0.150 0.889 1.728 17458
0.151 0.894 1.725 15717
0.152 0.899 1.722 13976
0.152 0.899 1.713 10479
0.152 0.900 1.703 5439
0.153 0.908 1.707 3661
0.155 0.921 1.718 5709
0.157 0.929 1.722 8651
0.158 0.934 1.719 11922
0.158 0.938 1.717 16013
0.160 0.947 1.720 16952
0.161 0.951 1.718 14959
0.161 0.952 1.708 11823
0.162 0.961 1.712 10526
0.162 0.961 1.702 10409
0.162 0.961 1.693 11286
0.165 0.978 1.710 15225
0.167 0.987 1.713 21417
0.167 0.991 1.710 19467
0.168 0.996 1.707 14522
0.169 1.000 1.704 14706
0.170 1.009 1.708 19788
0.172 1.018 1.711 24377
0.173 1.023 1.708 27155
0.173 1.027 1.705 34271
0.175 1.036 1.709 39660
0.176 1.040 1.705 41632
0.177 1.049 1.709 38480
0.178 1.054 1.706 28175
0.178 1.054 1.696 21074
0.180 1.063 1.699 19625
0.181 1.072 1.702 17565
0.183 1.085 1.712 10425
0.188 1.113 1.741 5751
0.187 1.108 1.725 6010
0.189 1.117 1.728 11695
0.189 1.122 1.724 22435
0.190 1.126 1.721 28805
0.192 1.136 1.724 29349
0.193 1.140 1.721 23317
0.193 1.145 1.717 15085
0.194 1.149 1.714 10801
0.195 1.154 1.710 7867
0.200 1.182 1.738 7615
0.200 1.182 1.728 7145
0.200 1.186 1.725 10912
0.201 1.191 1.721 19878
0.202 1.195 1.717 23048
0.203 1.205 1.720 19276
0.206 1.219 1.729 19136
0.207 1.223 1.725 16591
0.209 1.238 1.734 12769
0.210 1.242 1.730 11223
0.218 1.291 1.782 12909
0.219 1.296 1.778 15456
0.218 1.291 1.762 16250
0.221 1.310 1.776 18359
0.222 1.315 1.772 21199
0.224 1.325 1.774 25487
0.225 1.334 1.776 25847
0.226 1.339 1.772 16713
0.228 1.349 1.774 10178
0.228 1.348 1.764 17647
0.229 1.353 1.760 32278
0.230 1.363 1.762 27876
0.232 1.372 1.764 14385
0.232 1.372 1.754 17700
0.232 1.377 1.750 27592
0.233 1.381 1.745 26743
0.234 1.386 1.741 20126
0.236 1.396 1.743 18285
0.237 1.405 1.745 14254
0.244 1.447 1.781 12079
0.246 1.457 1.783 11458
0.248 1.467 1.784 10193
0.249 1.477 1.786 8309
0.250 1.481 1.781 6281
0.251 1.486 1.777 5184
0.251 1.486 1.767 8862
0.253 1.496 1.768 15612
0.254 1.506 1.769 19099
0.256 1.516 1.770 16976
0.258 1.526 1.771 18386
0.258 1.525 1.761 15928
0.258 1.530 1.757 12720
0.260 1.540 1.758 13890
0.262 1.550 1.759 10585
0.264 1.565 1.765 11701
0.264 1.565 1.755 14211
0.262 1.553 1.733 12604
0.262 1.552 1.723 16363
0.265 1.567 1.730 11618
0.270 1.600 1.753 14488
0.270 1.599 1.742 17442
0.270 1.598 1.732 14430
0.278 1.647 1.771 18673
0.279 1.652 1.766 20496
0.280 1.657 1.761 20714
0.281 1.661 1.756 27521
0.282 1.672 1.757 36019
0.283 1.676 1.752 34337
0.285 1.687 1.752 26542
0.288 1.703 1.758 24682
0.289 1.713 1.758 15187
0.291 1.723 1.758 8628
0.295 1.745 1.769 12886
0.297 1.756 1.769 16140
0.297 1.761 1.764 18586
0.298 1.765 1.758 23938
0.299 1.770 1.753 23403
0.301 1.780 1.753 12428
0.307 1.820 1.779 8743
0.305 1.807 1.758 7768
0.307 1.818 1.758 13744
0.310 1.834 1.762 20204
0.312 1.845 1.762 22682
0.312 1.849 1.756 28151
0.315 1.866 1.761 35124
0.317 1.877 1.761 38678
0.318 1.881 1.755 27448
0.319 1.886 1.749 16132
0.321 1.902 1.754 17957
0.324 1.919 1.758 23304
0.326 1.930 1.757 21741
0.328 1.941 1.757 13524
0.331 1.957 1.761 12199
0.330 1.956 1.750 19887
0.331 1.960 1.744 22663
0.332 1.965 1.738 15563
0.335 1.982 1.742 9032
0.343 2.030 1.770 16916
0.345 2.040 1.769 22963
0.344 2.039 1.758 22950
0.344 2.037 1.747 15638
0.345 2.042 1.741 11179
0.350 2.071 1.754 19374
0.351 2.076 1.748 26498
0.351 2.081 1.742 28796
0.352 2.085 1.735 25022
0.354 2.096 1.734 16982
0.356 2.107 1.732 11092
0.365 2.162 1.763 9416
0.366 2.166 1.757 13002
0.366 2.165 1.746 13362
0.367 2.176 1.744 10993
0.367 2.174 1.733 10946
0.367 2.172 1.722 11921
0.370 2.189 1.724 11657
0.374 2.213 1.731 10614
0.378 2.237 1.738 12172
0.376 2.229 1.722 11024
0.380 2.252 1.729 8892
0.386 2.283 1.740 12032
0.390 2.307 1.747 13731
0.389 2.305 1.735 14444
0.392 2.322 1.737 14347
0.395 2.340 1.739 13778
0.396 2.345 1.732 13021
0.399 2.362 1.734 11568
0.402 2.380 1.735 12742
0.404 2.391 1.733 12408
0.406 2.402 1.730 11886
0.408 2.413 1.727 10669
0.409 2.424 1.724 7119
0.427 2.528 1.780 6846
0.428 2.532 1.773 8806
0.430 2.544 1.769 8687
0.432 2.555 1.766 8426
0.432 2.560 1.758 8041
0.434 2.571 1.755 6268
0.436 2.582 1.751 5916
0.436 2.580 1.739 7086
0.438 2.591 1.736 10069
0.440 2.603 1.732 13617
0.441 2.614 1.728 12860
0.447 2.645 1.736 9248
0.451 2.670 1.740 8386
0.451 2.668 1.728 7241
0.449 2.659 1.713 6075
0.448 2.650 1.697 6364
0.451 2.668 1.697 5564
0.455 2.693 1.700 5904
0.457 2.704 1.696 4878
0.474 2.804 1.742 5917
0.477 2.822 1.741 6889
0.477 2.827 1.733 6542
0.478 2.831 1.724 5772
0.478 2.829 1.712 4275
0.473 2.799 1.685 4504
0.472 2.797 1.673 4321
0.473 2.801 1.665 4165
0.488 2.888 1.700 3910
0.490 2.900 1.695 5351
0.492 2.911 1.690 5246
0.495 2.929 1.689 5316
0.496 2.934 1.680 4651
0.496 2.938 1.672 3987
0.496 2.936 1.659 3968
0.512 3.031 1.696 4804
0.511 3.028 1.684 5275
0.512 3.033 1.675 5850
0.513 3.037 1.666 5393
0.521 3.083 1.678 5342
0.520 3.081 1.665 4621
0.522 3.092 1.659 3842
0.523 3.097 1.650 2798
0.556 3.292 1.732 2785
0.558 3.303 1.725 3786
0.560 3.315 1.719 5008
0.559 3.312 1.706 4883
0.559 3.310 1.692 4987
0.560 3.314 1.683 4987
0.560 3.318 1.673 4716
0.560 3.316 1.660 4460
0.560 3.313 1.646 4305
0.559 3.310 1.633 4485
0.557 3.300 1.617 3445
0.602 3.562 1.721 2815
0.602 3.567 1.710 2815
0.603 3.571 1.699 1407
0.120 0.700 1.756 5915
0.120 0.704 1.754 4247
0.123 0.722 1.781 2935
0.121 0.710 1.742 3311
0.122 0.715 1.740 5942
0.123 0.720 1.738 7857
0.124 0.727 1.743 11568
0.125 0.732 1.741 15424
0.126 0.737 1.739 15841
0.126 0.738 1.729 16331
0.127 0.742 1.727 15806
0.127 0.743 1.718 15302
0.128 0.748 1.715 15752
0.129 0.752 1.713 17601
0.129 0.757 1.711 18998
0.131 0.765 1.715 18640
0.132 0.773 1.720 18648
0.135 0.788 1.739 15254
0.137 0.800 1.751 15112
0.138 0.805 1.748 16394
0.138 0.809 1.746 17676
0.139 0.814 1.743 19623
0.140 0.818 1.741 21571
0.141 0.823 1.738 19131
0.142 0.831 1.743 17138
0.143 0.836 1.740 16378
0.144 0.840 1.738 15617
0.144 0.841 1.728 15902
0.145 0.846 1.726 16313
0.145 0.850 1.723 13065
0.146 0.855 1.720 9759
0.148 0.867 1.732 10432
0.150 0.876 1.736 12076
0.151 0.884 1.740 13899
0.152 0.889 1.737 16051
0.152 0.889 1.728 17386
0.153 0.894 1.725 15753
0.154 0.898 1.722 14121
0.154 0.899 1.713 10517
0.154 0.903 1.710 5751
0.155 0.908 1.707 4420
0.157 0.916 1.711 6303
0.159 0.929 1.722 9049
0.160 0.933 1.719 11924
0.160 0.938 1.717 15404
0.162 0.947 1.720 16039
0.162 0.947 1.711 14135
0.163 0.951 1.708 11196
0.164 0.960 1.712 9951
0.164 0.960 1.702 10735
0.165 0.965 1.699 12525
0.166 0.974 1.703 16684
0.168 0.982 1.707 22533
0.169 0.991 1.710 19962
0.170 0.996 1.707 14891
0.171 1.000 1.704 16716
0.173 1.009 1.708 23913
0.173 1.013 1.705 29125
0.175 1.022 1.708 30583
0.176 1.027 1.705 35268
0.177 1.036 1.709 39445
0.178 1.040 1.705 41497
0.179 1.049 1.709 38659
0.180 1.054 1.706 29339
0.180 1.054 1.696 22963
0.181 1.058 1.693 21767
0.183 1.071 1.702 19681
0.186 1.085 1.712 11753
0.188 1.099 1.722 6151
0.189 1.103 1.718 6377
0.191 1.117 1.728 11495
0.192 1.121 1.724 22142
0.193 1.126 1.721 28362
0.194 1.135 1.724 28233
0.195 1.140 1.721 22687
0.196 1.144 1.717 15452
0.196 1.149 1.714 11756
0.197 1.153 1.710 8984
0.201 1.177 1.732 7081
0.202 1.181 1.728 7077
0.203 1.186 1.725 12287
0.204 1.190 1.721 21329
0.204 1.195 1.717 23639
0.206 1.204 1.720 19231
0.208 1.218 1.729 18395
0.209 1.223 1.725 16183
0.211 1.232 1.728 12881
0.212 1.237 1.724 12605
0.211 1.237 1.714 13228
0.214 1.251 1.723 14291
0.216 1.260 1.725 16804
0.216 1.265 1.721 16447
0.225 1.314 1.772 18636
0.226 1.324 1.774 22695
0.228 1.334 1.776 24640
0.229 1.339 1.772 17429
0.230 1.343 1.768 10170
0.230 1.348 1.764 16097
0.231 1.352 1.760 30116
0.233 1.362 1.762 26940
0.234 1.367 1.758 15425
0.234 1.366 1.748 19216
0.235 1.376 1.750 28683
0.236 1.381 1.745 27289
0.238 1.391 1.747 21195
0.239 1.395 1.743 20143
0.239 1.400 1.739 15887
0.246 1.441 1.776 10929
0.248 1.451 1.777 10482
0.250 1.461 1.778 8385
0.252 1.471 1.780 6321
0.251 1.470 1.770 4099
0.230 1.347 1.627 3966
0.254 1.485 1.767 8554
0.256 1.495 1.768 14289
0.257 1.505 1.769 16727
0.259 1.515 1.770 15130
0.260 1.520 1.766 17114
0.261 1.524 1.761 16330
0.261 1.529 1.757 13411
0.262 1.534 1.752 13836
0.263 1.538 1.747 10627
0.263 1.537 1.737 11810
0.267 1.559 1.749 14788
0.265 1.552 1.733 15368
0.265 1.551 1.723 18443
0.266 1.556 1.719 12639
0.273 1.599 1.753 13876
0.273 1.598 1.742 16712
0.274 1.603 1.737 12028
0.282 1.647 1.771 19470
0.282 1.651 1.766 20644
0.283 1.656 1.761 22023
0.284 1.661 1.756 32133
0.286 1.671 1.757 42205
0.287 1.676 1.752 35442
0.289 1.692 1.757 27303
0.291 1.702 1.758 28283
0.293 1.712 1.758 16877
0.297 1.734 1.769 10093
0.298 1.745 1.769 14056
0.300 1.755 1.769 16547
0.301 1.760 1.764 19102
0.302 1.765 1.758 23489
0.303 1.769 1.753 21894
0.304 1.780 1.753 11419
0.310 1.814 1.774 7986
0.308 1.801 1.753 7326
0.312 1.823 1.763 14419
0.314 1.834 1.762 22522
0.315 1.844 1.762 22991
0.317 1.855 1.762 26775
0.320 1.871 1.766 36169
0.321 1.876 1.761 41117
0.322 1.881 1.755 30007
0.323 1.891 1.754 16730
0.325 1.902 1.754 18336
0.328 1.919 1.758 23169
0.330 1.929 1.757 21797
0.332 1.940 1.757 14168
0.335 1.957 1.761 13987
0.334 1.955 1.750 23544
0.335 1.960 1.744 25630
0.336 1.964 1.738 16182
0.339 1.981 1.742 9588
0.347 2.029 1.770 18544
0.348 2.034 1.764 24490
0.349 2.038 1.758 23839
0.348 2.037 1.747 16421
0.349 2.041 1.741 11962
0.353 2.064 1.749 19005
0.355 2.075 1.748 24926
0.356 2.080 1.742 26503
0.356 2.084 1.735 23633
0.358 2.095 1.734 16850
0.361 2.112 1.737 10132
0.368 2.155 1.759 8450
0.368 2.153 1.747 12360
0.370 2.164 1.746 13313
0.373 2.181 1.748 11503
0.372 2.173 1.733 11196
0.371 2.171 1.722 11583
0.373 2.182 1.720 10866
0.381 2.225 1.740 10804
0.381 2.230 1.734 12699
0.381 2.228 1.722 11293
0.385 2.252 1.729 9468
0.390 2.282 1.740 12953
0.394 2.306 1.747 14743
0.394 2.304 1.735 15803
0.396 2.315 1.733 15640
0.399 2.333 1.735 14344
0.401 2.344 1.732 13527
0.404 2.361 1.734 11492
0.407 2.379 1.735 11872
0.409 2.390 1.733 12483
0.412 2.408 1.734 13236
0.413 2.412 1.727 11943
0.414 2.423 1.724 7884
0.432 2.527 1.780 6699
0.433 2.532 1.773 8501
0.435 2.543 1.769 8582
0.437 2.554 1.766 8682
0.438 2.559 1.758 8324
0.441 2.577 1.759 6428
0.441 2.581 1.751 6723
0.441 2.579 1.739 8556
0.443 2.591 1.736 11904
0.445 2.602 1.732 15750
0.447 2.613 1.728 14312
0.452 2.645 1.736 9168
0.456 2.669 1.740 8146
0.456 2.667 1.728 7044
0.455 2.658 1.713 6332
0.454 2.656 1.701 6559
0.456 2.667 1.697 5719
0.461 2.699 1.704 6231
0.462 2.703 1.696 5357
0.479 2.803 1.742 5375
0.482 2.821 1.741 6502
0.483 2.826 1.733 6148
0.485 2.837 1.728 5279
0.485 2.835 1.716 4051
0.479 2.798 1.685 3939
0.478 2.796 1.673 3912
0.479 2.800 1.665 3940
0.490 2.867 1.689 3922
0.495 2.892 1.692 5260
0.499 2.917 1.694 4944
0.502 2.935 1.693 5058
0.503 2.940 1.684 4531
0.503 2.944 1.675 4005
0.503 2.942 1.663 4096
0.518 3.030 1.696 5084
0.518 3.027 1.684 5508
0.518 3.032 1.675 6138
0.519 3.036 1.666 5734
0.520 3.040 1.657 5329
0.527 3.080 1.665 4525
0.529 3.091 1.659 3704
0.540 3.159 1.680 2804
0.540 3.156 1.668 2803
0.565 3.302 1.725 3840
0.567 3.314 1.719 5141
0.566 3.311 1.706 5181
0.566 3.308 1.692 5522
0.567 3.313 1.683 5522
0.566 3.310 1.669 5200
0.567 3.314 1.660 4926
0.568 3.319 1.650 4647
0.566 3.309 1.633 4571
0.564 3.299 1.617 3532
0.591 3.453 1.673 2941
0.591 3.458 1.663 2941
0.592 3.462 1.653 1470
0.121 0.700 1.756 5235
0.122 0.707 1.761 3908
0.125 0.722 1.781 2985
0.123 0.710 1.742 3183
0.123 0.715 1.740 5548
0.124 0.719 1.738 7207
0.126 0.727 1.743 10721
0.126 0.732 1.741 14363
0.127 0.736 1.739 14878
0.127 0.738 1.729 15479
0.128 0.742 1.727 14998
0.128 0.743 1.718 14584
0.129 0.748 1.715 15009
0.130 0.752 1.713 16916
0.131 0.757 1.711 18398
0.132 0.765 1.715 18228
0.133 0.773 1.720 18471
0.136 0.788 1.739 15695
0.138 0.800 1.751 15960
0.139 0.804 1.748 17522
0.140 0.809 1.746 19085
0.141 0.814 1.743 20995
0.141 0.818 1.741 22906
0.142 0.823 1.738 20415
0.144 0.831 1.743 18478
0.144 0.836 1.740 17586
0.145 0.840 1.738 16693
0.145 0.841 1.728 16973
0.146 0.846 1.726 17468
0.147 0.850 1.723 14146
0.148 0.855 1.720 10778
0.149 0.863 1.725 11390
0.151 0.875 1.736 12626
0.153 0.884 1.740 14188
0.153 0.888 1.737 16207
0.154 0.889 1.728 17521
0.154 0.893 1.725 15987
0.155 0.898 1.722 14454
0.155 0.899 1.713 10772
0.156 0.903 1.710 6245
0.157 0.908 1.707 5289
0.158 0.916 1.711 7059
0.160 0.929 1.722 9580
0.161 0.933 1.719 12023
0.162 0.938 1.717 14794
0.163 0.942 1.714 15122
0.164 0.947 1.711 13173
0.164 0.951 1.708 10304
0.165 0.956 1.705 9171
0.166 0.960 1.702 10791
0.167 0.965 1.699 13646
0.168 0.973 1.703 18069
0.170 0.982 1.707 23581
0.170 0.987 1.704 20774
0.172 0.995 1.707 15721
0.173 1.000 1.704 19055
0.174 1.009 1.708 28245
0.175 1.013 1.705 34123
0.176 1.018 1.702 34301
0.177 1.026 1.705 36103
0.179 1.035 1.709 38703
0.180 1.040 1.705 40705
0.181 1.049 1.709 38089
0.182 1.053 1.706 29793
0.182 1.053 1.696 24187
0.183 1.058 1.693 23270
0.185 1.071 1.702 21297
0.187 1.085 1.712 12844
0.190 1.098 1.722 6939
0.190 1.103 1.718 7127
0.192 1.112 1.721 11428
0.194 1.121 1.724 21408
0.194 1.126 1.721 27415
0.196 1.135 1.724 26566
0.197 1.139 1.721 21425
0.198 1.144 1.717 15258
0.198 1.148 1.714 12164
0.199 1.153 1.710 9659
0.201 1.162 1.713 6717
0.203 1.176 1.722 7239
0.204 1.181 1.718 13930
0.206 1.190 1.721 22650
0.206 1.195 1.717 23680
0.208 1.204 1.720 18707
0.210 1.218 1.729 17385
0.211 1.223 1.725 15549
0.213 1.232 1.728 12871
0.213 1.232 1.718 14505
0.214 1.236 1.714 16352
0.215 1.246 1.716 15893
0.218 1.260 1.725 17198
0.218 1.265 1.721 17408
0.227 1.314 1.772 15873
0.229 1.324 1.774 19686
0.230 1.333 1.776 22977
0.231 1.338 1.772 17818
0.232 1.343 1.768 11218
0.232 1.342 1.758 15309
0.233 1.347 1.754 27665
0.235 1.362 1.762 25239
0.236 1.366 1.758 15999
0.236 1.366 1.748 20590
0.237 1.371 1.744 29517
0.238 1.380 1.745 27481
0.240 1.390 1.747 21797
0.241 1.395 1.743 21365
0.242 1.399 1.739 17240
0.248 1.435 1.770 9983
0.250 1.445 1.771 9928
0.250 1.450 1.767 7440
0.251 1.455 1.762 5619
0.252 1.459 1.758 3742
0.233 1.346 1.627 3990
0.256 1.485 1.767 8188
0.258 1.495 1.768 12652
0.260 1.505 1.769 14403
0.262 1.515 1.770 13641
0.262 1.519 1.766 16621
0.263 1.524 1.761 16589
0.264 1.529 1.757 13594
0.265 1.533 1.752 13618
0.266 1.538 1.747 11225
0.265 1.537 1.737 12597
0.268 1.553 1.744 15446
0.268 1.552 1.733 17484
0.268 1.551 1.723 19626
0.269 1.555 1.719 14121
0.271 1.571 1.725 13354
0.276 1.598 1.742 15872
0.283 1.636 1.770 12043
0.284 1.646 1.771 18600
0.285 1.651 1.766 19130
0.286 1.656 1.761 22273
0.287 1.660 1.756 35810
0.288 1.665 1.751 47192
0.289 1.675 1.752 35704
0.292 1.691 1.757 27992
0.294 1.702 1.758 31080
0.295 1.706 1.752 18608
0.299 1.734 1.769 12977
0.301 1.744 1.769 15801
0.303 1.755 1.769 16741
0.304 1.759 1.764 19060
0.305 1.764 1.758 22579
0.305 1.769 1.753 20126
0.307 1.779 1.753 11021
0.311 1.801 1.763 8318
0.311 1.800 1.753 7713
0.316 1.828 1.768 14983
0.318 1.839 1.768 22265
0.318 1.844 1.762 23693
0.319 1.848 1.756 26555
0.323 1.871 1.766 36449
0.324 1.875 1.761 42255
0.325 1.880 1.755 31930
0.327 1.891 1.754 18006
0.327 1.895 1.749 18560
0.331 1.918 1.758 22163
0.333 1.929 1.757 20849
0.334 1.933 1.752 14048
0.338 1.956 1.761 15074
0.338 1.955 1.750 26079
0.338 1.959 1.744 27694
0.339 1.964 1.738 16696
0.343 1.987 1.747 10453
0.349 2.022 1.765 19811
0.351 2.033 1.764 25264
0.352 2.038 1.758 23815
0.352 2.036 1.747 16766
0.352 2.041 1.741 12402
0.356 2.064 1.749 17917
0.358 2.075 1.748 22609
0.359 2.079 1.742 23854
0.361 2.090 1.740 22278
0.363 2.101 1.738 17779
0.366 2.118 1.742 10859
0.371 2.148 1.754 8664
0.372 2.152 1.747 12484
0.374 2.163 1.746 13463
0.377 2.181 1.748 12097
0.376 2.179 1.737 11695
0.375 2.171 1.722 11483
0.377 2.182 1.720 10223
0.384 2.225 1.740 10789
0.385 2.229 1.734 12857
0.385 2.227 1.722 11329
0.389 2.251 1.729 9556
0.395 2.288 1.745 13229
0.398 2.305 1.747 15406
0.399 2.310 1.740 16834
0.399 2.308 1.729 16778
0.403 2.332 1.735 14630
0.404 2.337 1.728 13721
0.407 2.354 1.730 10954
0.411 2.378 1.735 10512
0.414 2.396 1.737 12347
0.416 2.407 1.734 14375
0.417 2.412 1.727 12945
0.417 2.416 1.720 8584
0.436 2.526 1.780 6519
0.438 2.537 1.777 8230
0.440 2.549 1.773 8649
0.441 2.553 1.766 9094
0.442 2.558 1.758 8761
0.445 2.576 1.759 6767
0.446 2.581 1.751 7481
0.445 2.579 1.739 9757
0.447 2.590 1.736 13333
0.449 2.601 1.732 17329
0.450 2.606 1.724 15310
0.455 2.637 1.732 8983
0.462 2.675 1.744 7955
0.461 2.666 1.728 6743
0.458 2.651 1.709 6323
0.459 2.655 1.701 6468
0.462 2.673 1.701 5653
0.466 2.698 1.704 6426
0.467 2.702 1.696 5672
0.468 2.707 1.688 4919
0.487 2.821 1.741 6048
0.488 2.825 1.733 5718
0.490 2.837 1.728 4806
0.489 2.834 1.716 3957
0.483 2.797 1.685 3342
0.483 2.795 1.673 3430
0.482 2.792 1.661 3618
0.494 2.859 1.686 4064
0.497 2.877 1.685 5078
0.498 2.882 1.676 4581
0.509 2.948 1.700 4838
0.509 2.946 1.688 4476
0.508 2.943 1.675 4146
0.509 2.948 1.666 4312
0.523 3.029 1.696 5209
0.523 3.026 1.684 5607
0.522 3.024 1.671 6344
0.523 3.028 1.662 6027
0.524 3.032 1.653 5709
0.532 3.079 1.665 4366
0.547 3.168 1.697 3537
0.545 3.158 1.680 3319
0.546 3.162 1.671 3162
0.571 3.308 1.729 3836
0.572 3.313 1.719 5199
0.572 3.310 1.706 5370
0.571 3.307 1.692 5914
0.572 3.312 1.683 5914
0.572 3.309 1.669 5541
0.572 3.314 1.660 5187
0.572 3.311 1.646 4780
0.571 3.308 1.633 4580
0.570 3.298 1.617 3581
0.596 3.452 1.673 3194
0.597 3.457 1.663 3194
0.598 3.461 1.653 1597
0.124 0.702 1.763 5063
0.125 0.710 1.768 4008
0.126 0.718 1.773 3197
0.127 0.723 1.771 3197
0.126 0.714 1.740 5204
0.127 0.719 1.738 6563
0.128 0.727 1.743 9952
0.129 0.731 1.741 13424
0.130 0.736 1.739 14070
0.130 0.737 1.729 14807
0.131 0.742 1.727 14334
0.131 0.743 1.718 13932
0.132 0.747 1.715 14334
0.132 0.752 1.713 16193
0.134 0.760 1.718 17659
0.135 0.764 1.715 17618
0.136 0.772 1.720 18058
0.139 0.788 1.739 15988
0.141 0.799 1.751 16700
0.142 0.804 1.748 18540
0.142 0.809 1.746 20380
0.143 0.813 1.743 22223
0.144 0.818 1.741 24067
0.145 0.826 1.745 21589
0.146 0.831 1.743 19689
0.147 0.835 1.740 18648
0.148 0.840 1.738 17606
0.149 0.844 1.735 17842
0.149 0.845 1.726 18376
0.150 0.850 1.723 14965
0.150 0.854 1.720 11515
0.152 0.862 1.725 12113
0.154 0.875 1.736 13075
0.155 0.883 1.740 14452
0.156 0.888 1.737 16353
0.156 0.888 1.728 17661
0.157 0.893 1.725 16199
0.158 0.897 1.722 14737
0.158 0.898 1.713 10980
0.159 0.903 1.710 6774
0.160 0.907 1.707 6267
0.161 0.916 1.711 7933
0.163 0.924 1.715 10270
0.164 0.933 1.719 12213
0.165 0.937 1.717 14225
0.166 0.942 1.714 14254
0.167 0.946 1.711 12188
0.167 0.951 1.708 9321
0.168 0.955 1.705 8330
0.169 0.960 1.702 10729
0.170 0.964 1.699 14552
0.171 0.973 1.703 19234
0.173 0.982 1.707 24438
0.174 0.986 1.704 21699
0.175 0.995 1.707 16661
0.176 0.999 1.704 21429
0.177 1.008 1.708 32541
0.178 1.013 1.705 39096
0.179 1.017 1.702 38140
0.181 1.026 1.705 36777
0.182 1.035 1.709 37515
0.183 1.039 1.705 39329
0.184 1.044 1.702 36867
0.185 1.053 1.706 29324
0.185 1.053 1.696 24593
0.187 1.062 1.699 24062
0.188 1.071 1.702 22335
0.191 1.084 1.712 13653
0.193 1.098 1.722 7909
0.194 1.102 1.718 8312
0.196 1.111 1.721 11772
0.197 1.120 1.724 20515
0.198 1.125 1.721 26094
0.200 1.134 1.724 24413
0.200 1.139 1.721 19673
0.200 1.139 1.711 14823
0.202 1.148 1.714 12439
0.203 1.152 1.710 10293
0.204 1.157 1.707 6935
0.204 1.161 1.703 7829
0.208 1.180 1.718 15438
0.209 1.189 1.721 23546
0.210 1.194 1.717 23230
0.212 1.203 1.720 17942
0.213 1.213 1.723 16547
0.215 1.222 1.725 14936
0.216 1.226 1.721 13046
0.217 1.231 1.718 16686
0.217 1.235 1.714 19389
0.219 1.245 1.716 17173
0.221 1.254 1.719 17072
0.222 1.264 1.721 17831
0.222 1.263 1.711 13802
0.233 1.323 1.774 16696
0.235 1.333 1.776 21039
0.235 1.332 1.766 17937
0.235 1.337 1.762 12685
0.236 1.342 1.758 15240
0.237 1.346 1.754 25269
0.240 1.361 1.762 23095
0.240 1.366 1.758 16300
0.240 1.365 1.748 21828
0.241 1.370 1.744 30011
0.243 1.380 1.745 27313
0.245 1.389 1.747 21891
0.245 1.394 1.743 22017
0.246 1.399 1.739 18315
0.247 1.403 1.735 9713
0.254 1.445 1.771 9974
0.254 1.444 1.761 7842
0.255 1.449 1.757 5946
0.257 1.458 1.758 4108
0.237 1.346 1.627 4141
0.260 1.478 1.761 7756
0.263 1.494 1.768 10859
0.265 1.504 1.769 12263
0.266 1.508 1.765 12597
0.266 1.513 1.760 16821
0.267 1.518 1.755 17019
0.269 1.528 1.757 13223
0.270 1.532 1.752 12822
0.270 1.532 1.742 11327
0.270 1.536 1.737 12897
0.273 1.552 1.744 15954
0.273 1.551 1.733 18469
0.273 1.550 1.723 19751
0.274 1.554 1.719 15676
0.276 1.570 1.725 13787
0.282 1.602 1.748 15306
0.289 1.641 1.776 12653
0.291 1.651 1.776 16838
0.291 1.656 1.772 16648
0.291 1.655 1.761 21557
0.292 1.659 1.756 38157
0.293 1.664 1.751 50366
0.294 1.669 1.746 35113
0.299 1.696 1.763 28959
0.299 1.701 1.758 33149
0.300 1.705 1.752 19836
0.305 1.733 1.769 16024
0.307 1.743 1.769 18212
0.309 1.754 1.769 17366
0.310 1.758 1.764 19278
0.310 1.763 1.758 22673
0.311 1.768 1.753 20264
0.312 1.772 1.748 12340
0.315 1.789 1.753 9249
0.317 1.799 1.753 8968
0.322 1.827 1.768 16993
0.322 1.832 1.762 22445
0.323 1.837 1.757 23061
0.325 1.847 1.756 26616
0.329 1.870 1.766 35756
0.330 1.874 1.761 41923
0.331 1.879 1.755 32777
0.333 1.890 1.754 19314
0.333 1.894 1.749 18677
0.336 1.911 1.753 20813
0.339 1.928 1.757 19328
0.340 1.932 1.752 13222
0.344 1.955 1.761 15414
0.344 1.954 1.750 27395
0.345 1.958 1.744 28831
0.345 1.963 1.738 17070
0.350 1.986 1.747 11539
0.356 2.021 1.765 20993
0.358 2.032 1.764 25224
0.358 2.036 1.758 22958
0.358 2.035 1.747 16632
0.359 2.039 1.741 12388
0.363 2.063 1.749 16030
0.364 2.067 1.743 19740
0.366 2.078 1.742 21018
0.368 2.089 1.740 21202
0.371 2.106 1.743 19200
0.374 2.123 1.746 12747
0.377 2.140 1.749 10074
0.378 2.145 1.743 13464
0.381 2.162 1.746 13894
0.384 2.179 1.748 12670
0.383 2.178 1.737 12339
0.382 2.170 1.722 11447
0.383 2.174 1.715 9849
0.391 2.223 1.740 10873
0.392 2.228 1.734 13158
0.392 2.226 1.722 11604
0.396 2.250 1.729 9714
0.402 2.287 1.745 13198
0.406 2.304 1.747 15737
0.406 2.309 1.740 17573
0.406 2.307 1.729 17648
0.410 2.331 1.735 14509
0.411 2.335 1.728 13505
0.414 2.353 1.730 10090
0.418 2.377 1.735 8884
0.422 2.395 1.737 12131
0.423 2.406 1.734 15269
0.424 2.410 1.727 13741
0.425 2.415 1.720 9224
0.424 2.406 1.704 6711
0.446 2.536 1.777 8103
0.448 2.547 1.773 8823
0.449 2.552 1.766 9554
0.450 2.557 1.758 9231
0.453 2.575 1.759 7151
0.454 2.579 1.751 8167
0.454 2.577 1.739 10737
0.456 2.588 1.736 14457
0.458 2.600 1.732 18502
0.458 2.604 1.724 16023
0.464 2.636 1.732 8773
0.471 2.674 1.744 8014
0.470 2.672 1.732 6529
0.466 2.649 1.709 6144
0.467 2.654 1.701 6082
0.471 2.678 1.704 5426
0.475 2.696 1.704 6427
0.475 2.701 1.696 5794
0.476 2.705 1.688 5161
0.495 2.812 1.737 5611
0.497 2.824 1.733 5340
0.498 2.828 1.724 4394
0.500 2.839 1.720 3957
0.501 2.844 1.711 3521
0.500 2.842 1.699 3483
0.501 2.846 1.691 3466
0.503 2.857 1.686 4220
0.504 2.862 1.677 4997
0.505 2.866 1.669 4442
0.521 2.961 1.707 4775
0.521 2.958 1.695 4534
0.519 2.949 1.679 4397
0.519 2.946 1.666 4567
0.534 3.034 1.700 5285
0.532 3.025 1.684 5622
0.532 3.022 1.671 6494
0.533 3.026 1.662 6372
0.533 3.031 1.653 6250
0.538 3.056 1.655 4357
0.556 3.159 1.693 4062
0.556 3.156 1.680 3771
0.556 3.161 1.671 3491
0.582 3.306 1.729 3936
0.583 3.311 1.719 5323
0.582 3.308 1.706 5551
0.582 3.306 1.692 6199
0.583 3.310 1.683 6199
0.582 3.307 1.669 5777
0.583 3.312 1.660 5356
0.582 3.309 1.646 4879
0.582 3.306 1.633 4505
0.581 3.303 1.620 3547
0.607 3.450 1.673 3329
0.608 3.455 1.663 3329
0.609 3.459 1.653 1664
0.125 0.705 1.770 4871
0.126 0.710 1.768 4201
0.128 0.718 1.773 3539
0.127 0.713 1.750 3601
0.127 0.714 1.740 5062
0.128 0.719 1.738 6136
0.129 0.727 1.743 9384
0.130 0.731 1.741 12641
0.131 0.736 1.739 13403
0.131 0.737 1.729 14241
0.132 0.741 1.727 13707
0.132 0.743 1.718 13201
0.133 0.747 1.715 13573
0.134 0.752 1.713 15231
0.135 0.760 1.718 16521
0.136 0.764 1.715 16643
0.138 0.776 1.727 17337
0.141 0.791 1.746 16044
0.142 0.799 1.751 17205
0.143 0.804 1.748 19369
0.144 0.808 1.746 21534
0.145 0.813 1.743 23317
0.145 0.817 1.741 25101
0.147 0.826 1.745 22590
0.148 0.830 1.743 20667
0.148 0.835 1.740 19521
0.149 0.839 1.738 18375
0.150 0.844 1.735 18634
0.150 0.845 1.726 19093
0.151 0.849 1.723 15622
0.152 0.854 1.720 12135
0.153 0.862 1.725 12832
0.156 0.874 1.736 13713
0.157 0.883 1.740 14973
0.158 0.888 1.737 16727
0.158 0.888 1.728 18010
0.159 0.893 1.725 16623
0.160 0.897 1.722 15236
0.160 0.898 1.713 11410
0.160 0.902 1.710 7481
0.161 0.907 1.707 7372
0.163 0.915 1.711 8984
0.164 0.924 1.715 11223
0.166 0.932 1.719 12580
0.167 0.937 1.717 13753
0.167 0.941 1.714 13443
0.168 0.946 1.711 11285
0.169 0.950 1.708 8351
0.170 0.955 1.705 7477
0.171 0.959 1.702 10575
0.171 0.964 1.699 15251
0.173 0.973 1.703 20240
0.175 0.981 1.707 25290
0.175 0.986 1.704 22809
0.176 0.990 1.701 18012
0.178 0.999 1.704 23820
0.178 1.003 1.701 36700
0.180 1.012 1.705 43870
0.181 1.017 1.702 41850
0.182 1.026 1.705 37150
0.184 1.034 1.709 35896
0.185 1.039 1.705 37531
0.186 1.043 1.702 35321
0.186 1.048 1.699 28623
0.187 1.052 1.696 24708
0.189 1.061 1.699 24656
0.190 1.070 1.702 23244
0.193 1.084 1.712 14386
0.195 1.097 1.722 8927
0.196 1.102 1.718 9677
0.198 1.111 1.721 12100
0.198 1.116 1.718 19269
0.199 1.120 1.715 24489
0.201 1.129 1.718 21841
0.202 1.138 1.721 17566
0.202 1.138 1.711 14462
0.204 1.147 1.714 12954
0.205 1.152 1.710 11351
0.206 1.156 1.707 7587
0.206 1.156 1.697 8776
0.210 1.180 1.718 16856
0.211 1.189 1.721 24139
0.212 1.193 1.717 22573
0.214 1.203 1.720 17154
0.216 1.212 1.723 15728
0.217 1.222 1.725 14148
0.217 1.221 1.715 13246
0.219 1.231 1.718 19021
0.220 1.235 1.714 22529
0.221 1.245 1.716 18260
0.223 1.254 1.719 16412
0.225 1.263 1.721 17690
0.225 1.263 1.711 15162
0.235 1.323 1.774 13663
0.236 1.327 1.770 18756
0.237 1.332 1.766 17559
0.238 1.337 1.762 13816
0.239 1.341 1.758 14920
0.238 1.341 1.748 22755
0.241 1.356 1.756 20598
0.243 1.365 1.758 16186
0.243 1.365 1.748 22875
0.244 1.369 1.744 30232
0.244 1.374 1.740 26954
0.247 1.389 1.747 21500
0.248 1.393 1.743 21945
0.249 1.398 1.739 18954
0.249 1.403 1.735 10351
0.256 1.439 1.765 10379
0.255 1.433 1.749 9350
0.257 1.443 1.751 7147
0.258 1.453 1.752 4714
0.258 1.452 1.742 4784
0.261 1.467 1.749 7916
0.265 1.488 1.762 8986
0.267 1.503 1.769 10086
0.268 1.508 1.765 11900
0.269 1.513 1.760 17108
0.270 1.517 1.755 17474
0.271 1.522 1.751 12561
0.271 1.526 1.746 11933
0.272 1.531 1.742 11518
0.273 1.536 1.737 12880
0.275 1.546 1.738 15849
0.276 1.550 1.733 18146
0.275 1.544 1.718 18749
0.276 1.554 1.719 16892
0.278 1.564 1.719 14283
0.285 1.602 1.748 14572
0.292 1.640 1.776 12810
0.294 1.650 1.776 14444
0.294 1.655 1.772 13279
0.294 1.654 1.761 19557
0.295 1.659 1.756 38997
0.296 1.663 1.751 52271
0.297 1.668 1.746 34181
0.302 1.695 1.763 29113
0.302 1.700 1.758 34419
0.303 1.705 1.752 20594
0.308 1.732 1.769 18838
0.310 1.743 1.769 21063
0.312 1.753 1.769 18617
0.313 1.758 1.764 20339
0.313 1.763 1.758 24732
0.313 1.761 1.748 23698
0.315 1.772 1.748 16325
0.317 1.782 1.748 12485
0.319 1.793 1.747 11501
0.324 1.821 1.763 18870
0.326 1.831 1.762 23288
0.327 1.836 1.757 20147
0.328 1.847 1.756 23627
0.332 1.869 1.766 33790
0.333 1.874 1.761 39941
0.334 1.878 1.755 32455
0.335 1.883 1.749 20662
0.336 1.888 1.744 18777
0.340 1.910 1.753 19019
0.343 1.927 1.757 17170
0.344 1.932 1.752 11610
0.348 1.954 1.761 14919
0.347 1.953 1.750 27640
0.348 1.958 1.744 29223
0.349 1.962 1.738 17423
0.353 1.985 1.747 12763
0.359 2.020 1.765 21596
0.361 2.031 1.764 24228
0.362 2.036 1.758 21209
0.363 2.040 1.752 16000
0.364 2.045 1.746 12020
0.366 2.056 1.744 13595
0.368 2.067 1.743 16331
0.369 2.077 1.742 18086
0.372 2.095 1.745 20065
0.374 2.105 1.743 20572
0.377 2.123 1.746 15029
0.379 2.133 1.745 12268
0.380 2.138 1.738 15081
0.383 2.155 1.741 14665
0.387 2.179 1.748 13301
0.387 2.177 1.737 13246
0.386 2.169 1.722 11675
0.387 2.173 1.715 9637
0.395 2.223 1.740 10787
0.395 2.221 1.729 13344
0.396 2.225 1.722 12006
0.399 2.243 1.725 9854
0.407 2.286 1.745 12664
0.410 2.303 1.747 15653
0.410 2.308 1.740 17940
0.410 2.306 1.729 18276
0.414 2.330 1.735 14197
0.415 2.335 1.728 13117
0.416 2.339 1.721 9105
0.423 2.376 1.735 7129
0.426 2.394 1.737 11844
0.428 2.405 1.734 15904
0.429 2.410 1.727 14265
0.429 2.414 1.720 9683
0.428 2.405 1.704 7363
0.429 2.410 1.697 8298
0.453 2.547 1.773 8944
0.454 2.551 1.766 9846
0.455 2.556 1.758 9487
0.458 2.574 1.759 7368
0.459 2.578 1.751 8746
0.458 2.576 1.739 11622
0.460 2.588 1.736 15393
0.462 2.599 1.732 19374
0.463 2.603 1.724 16420
0.469 2.635 1.732 8485
0.475 2.673 1.744 8166
0.475 2.671 1.732 6524
0.471 2.648 1.709 5906
0.472 2.653 1.701 5542
0.476 2.678 1.704 5109
0.479 2.696 1.704 6321
0.480 2.700 1.696 5804
0.481 2.705 1.688 5286
0.500 2.811 1.737 5123
0.501 2.816 1.729 4991
0.495 2.786 1.702 4284
0.505 2.839 1.720 4025
0.506 2.843 1.711 4063
0.506 2.848 1.703 3989
0.507 2.852 1.694 3914
0.508 2.856 1.686 4432
0.508 2.854 1.674 4953
0.508 2.858 1.665 4541
0.526 2.960 1.707 4648
0.526 2.957 1.695 4679
0.525 2.955 1.682 4803
0.525 2.952 1.670 4914
0.539 3.033 1.700 5222
0.536 3.017 1.680 5623
0.537 3.021 1.671 6614
0.538 3.025 1.662 6788
0.539 3.030 1.653 6961
0.540 3.034 1.644 5065
0.560 3.151 1.690 4489
0.561 3.155 1.680 4121
0.562 3.160 1.671 3753
0.588 3.305 1.729 3919
0.589 3.310 1.719 5254
0.588 3.307 1.706 5559
0.586 3.297 1.689 6386
0.587 3.302 1.679 6386
0.588 3.306 1.669 5935
0.589 3.311 1.660 5485
0.588 3.308 1.646 4875
0.588 3.305 1.633 4302
0.587 3.302 1.620 3443
0.613 3.449 1.673 3507
0.614 3.454 1.663 3507
0.615 3.458 1.653 1753
0.127 0.705 1.770 4491
0.128 0.710 1.768 4166
0.129 0.714 1.766 3841
0.129 0.712 1.750 3972
0.129 0.717 1.747 5101
0.130 0.722 1.745 6035
0.131 0.726 1.743 9128
0.132 0.731 1.741 12221
0.133 0.735 1.739 13078
0.133 0.737 1.729 13981
0.134 0.741 1.727 13204
0.135 0.746 1.725 12428
0.135 0.747 1.715 12716
0.136 0.751 1.713 14070
0.136 0.756 1.711 15079
0.139 0.767 1.723 15469
0.140 0.775 1.727 16544
0.143 0.791 1.746 15866
0.144 0.799 1.751 17289
0.145 0.803 1.748 19784
0.146 0.808 1.746 22280
0.147 0.813 1.743 24005
0.148 0.817 1.741 25730
0.149 0.825 1.745 23163
0.150 0.830 1.743 21197
0.151 0.835 1.740 20102
0.152 0.839 1.738 19007
0.152 0.844 1.735 19342
0.152 0.844 1.726 19796
0.153 0.849 1.723 16251
0.154 0.853 1.720 12720
0.156 0.862 1.725 13506
0.158 0.874 1.736 14283
0.159 0.883 1.740 15441
0.159 0.883 1.731 17161
0.160 0.888 1.728 18360
0.161 0.892 1.725 17097
0.161 0.893 1.716 15886
0.162 0.897 1.713 11986
0.163 0.902 1.710 8201
0.164 0.906 1.707 8316
0.165 0.915 1.711 9966
0.167 0.923 1.715 12198
0.168 0.932 1.719 13046
0.169 0.936 1.717 13473
0.170 0.941 1.714 12847
0.171 0.945 1.711 10679
0.172 0.950 1.708 7610
0.173 0.959 1.712 6737
0.174 0.963 1.709 10261
0.175 0.968 1.706 15550
0.176 0.972 1.703 20780
0.177 0.981 1.707 25830
0.178 0.985 1.704 23885
0.179 0.990 1.701 19517
0.180 0.994 1.698 26283
0.181 1.003 1.701 40704
0.183 1.012 1.705 48431
0.183 1.016 1.702 45486
0.185 1.025 1.705 37421
0.187 1.034 1.709 34152
0.187 1.038 1.705 35625
0.188 1.043 1.702 33675
0.189 1.047 1.699 27736
0.190 1.052 1.696 24445
0.192 1.061 1.699 24865
0.193 1.070 1.702 23845
0.196 1.083 1.712 14988
0.198 1.097 1.722 9899
0.198 1.097 1.712 11037
0.201 1.110 1.721 12460
0.201 1.115 1.718 18143
0.202 1.120 1.715 22869
0.203 1.124 1.711 19816
0.204 1.128 1.708 15831
0.204 1.128 1.698 14613
0.207 1.147 1.714 13354
0.208 1.151 1.710 12360
0.209 1.156 1.707 8328
0.209 1.156 1.697 9646
0.213 1.179 1.718 17788
0.215 1.188 1.721 24301
0.215 1.193 1.717 21655
0.217 1.202 1.720 16191
0.219 1.212 1.723 14806
0.220 1.216 1.719 13138
0.220 1.221 1.715 13401
0.221 1.225 1.712 21425
0.223 1.235 1.714 25293
0.225 1.244 1.716 18969
0.226 1.253 1.719 15244
0.228 1.263 1.721 16988
0.227 1.257 1.705 16294
0.227 1.257 1.695 14537
0.240 1.327 1.770 16323
0.240 1.331 1.766 16588
0.241 1.336 1.762 14147
0.241 1.335 1.752 14226
0.241 1.335 1.742 20334
0.244 1.350 1.750 18603
0.245 1.360 1.752 16204
0.246 1.364 1.748 23506
0.247 1.369 1.744 30016
0.248 1.373 1.740 26372
0.251 1.388 1.747 20575
0.251 1.393 1.743 21034
0.252 1.397 1.739 18937
0.253 1.402 1.735 10781
0.259 1.433 1.760 10952
0.259 1.432 1.749 11278
0.259 1.437 1.745 8728
0.261 1.447 1.747 5407
0.261 1.446 1.736 5751
0.263 1.456 1.738 9254
0.266 1.471 1.745 8781
0.270 1.497 1.763 8297
0.271 1.502 1.759 11273
0.273 1.512 1.760 17109
0.274 1.517 1.755 17833
0.275 1.521 1.751 11976
0.275 1.526 1.746 11028
0.275 1.525 1.736 11554
0.276 1.529 1.732 12614
0.278 1.539 1.732 14962
0.279 1.544 1.728 16528
0.279 1.543 1.718 16900
0.280 1.553 1.719 17311
0.282 1.563 1.719 14435
0.290 1.607 1.753 13505
0.295 1.634 1.770 12707
0.299 1.655 1.782 12228
0.284 1.575 1.695 11619
0.299 1.653 1.761 16854
0.298 1.652 1.751 38424
0.300 1.663 1.751 52903
0.301 1.667 1.746 33512
0.306 1.695 1.763 28386
0.307 1.699 1.758 34853
0.308 1.704 1.752 20702
0.313 1.732 1.769 20860
0.313 1.736 1.763 23954
0.316 1.752 1.769 20319
0.317 1.757 1.764 22506
0.318 1.762 1.758 29140
0.319 1.766 1.753 29856
0.320 1.771 1.748 22260
0.321 1.775 1.742 17181
0.322 1.786 1.742 15304
0.329 1.820 1.763 19332
0.332 1.836 1.768 23261
0.332 1.841 1.762 18025
0.334 1.852 1.762 19873
0.337 1.868 1.766 30691
0.338 1.873 1.761 36889
0.339 1.877 1.755 31361
0.340 1.882 1.749 21679
0.341 1.887 1.744 19268
0.344 1.903 1.748 17375
0.348 1.926 1.757 15258
0.349 1.931 1.752 10035
0.353 1.953 1.761 13739
0.352 1.952 1.750 26758
0.353 1.957 1.744 28817
0.355 1.967 1.743 17806
0.358 1.984 1.747 14024
0.364 2.013 1.760 21612
0.365 2.024 1.759 22587
0.367 2.035 1.758 18684
0.368 2.039 1.752 14818
0.369 2.044 1.746 11419
0.371 2.055 1.744 11600
0.373 2.066 1.743 12959
0.375 2.076 1.742 15530
0.378 2.094 1.745 19382
0.381 2.111 1.748 21477
0.383 2.122 1.746 16813
0.384 2.126 1.740 14418
0.386 2.137 1.738 16990
0.389 2.154 1.741 15529
0.392 2.171 1.744 13877
0.393 2.176 1.737 14250
0.391 2.168 1.722 12222
0.392 2.172 1.715 9598
0.401 2.222 1.740 10637
0.401 2.220 1.729 13389
0.402 2.224 1.722 12357
0.404 2.235 1.720 10099
0.411 2.278 1.740 11755
0.417 2.309 1.751 15177
0.417 2.307 1.740 17806
0.415 2.298 1.724 18683
0.420 2.329 1.735 13673
0.422 2.340 1.732 12594
0.422 2.338 1.721 8347
0.429 2.375 1.735 5866
0.432 2.393 1.737 11596
0.434 2.404 1.734 16204
0.435 2.408 1.727 14504
0.434 2.406 1.715 10057
0.434 2.404 1.704 7945
0.435 2.409 1.697 8909
0.436 2.413 1.690 8955
0.460 2.550 1.766 9756
0.461 2.555 1.758 9323
0.465 2.573 1.759 7275
0.465 2.577 1.751 9153
