0.840 1.289 1.576 46120
0.840 1.288 1.566 31843
0.845 1.296 1.567 18644
0.847 1.299 1.562 11618
0.849 1.303 1.558 10094
0.848 1.301 1.548 9216
0.847 1.300 1.538 9906
0.856 1.313 1.544 13228
0.862 1.322 1.544 19588
0.870 1.335 1.550 22102
0.879 1.348 1.556 19423
0.888 1.362 1.561 18441
0.890 1.365 1.557 21773
0.899 1.379 1.562 21194
0.905 1.387 1.562 26548
0.907 1.391 1.557 33606
0.912 1.399 1.557 35122
0.918 1.408 1.558 34311
0.920 1.411 1.553 30391
0.919 1.410 1.543 22505
0.928 1.423 1.548 17097
0.934 1.432 1.547 14530
0.936 1.435 1.542 9639
0.952 1.460 1.557 13995
0.950 1.458 1.547 17716
0.953 1.461 1.542 15975
0.958 1.470 1.542 16953
0.964 1.478 1.541 16311
0.973 1.492 1.546 10660
0.982 1.506 1.550 9273
0.988 1.515 1.550 14291
0.990 1.518 1.544 15656
0.996 1.527 1.544 12883
1.008 1.546 1.553 19387
1.010 1.550 1.547 24339
1.013 1.553 1.542 17928
1.029 1.578 1.555 15544
1.028 1.576 1.545 15943
1.030 1.579 1.539 10042
1.036 1.588 1.538 8805
1.038 1.592 1.533 11951
1.043 1.600 1.532 16332
1.046 1.604 1.526 18465
1.044 1.602 1.516 11645
1.071 1.643 1.542 14105
1.070 1.641 1.532 27117
1.079 1.655 1.535 30401
1.085 1.664 1.534 29731
1.080 1.656 1.519 27771
1.079 1.654 1.509 22132
1.084 1.663 1.507 18946
1.094 1.677 1.510 23245
1.100 1.686 1.509 23168
1.102 1.690 1.503 18007
1.107 1.698 1.501 13416
1.113 1.707 1.499 13539
1.119 1.716 1.498 14579
1.121 1.719 1.492 15485
1.127 1.728 1.490 14021
1.129 1.732 1.484 8994
1.128 1.729 1.473 6453
1.166 1.789 1.510 8615
1.161 1.781 1.495 16556
1.160 1.778 1.484 21525
1.162 1.782 1.478 18400
1.164 1.785 1.472 11163
1.166 1.788 1.466 7050
1.205 1.848 1.500 6459
1.203 1.846 1.490 11510
1.202 1.843 1.479 15982
1.208 1.852 1.477 15740
1.210 1.855 1.470 11559
1.208 1.853 1.460 7598
1.221 1.873 1.465 7770
1.220 1.871 1.455 8446
1.218 1.868 1.444 9093
1.258 1.929 1.477 7123
1.267 1.944 1.478 7506
1.266 1.941 1.467 6126
1.313 2.014 1.507 4120
1.315 2.017 1.500 5261
1.317 2.020 1.492 6918
1.323 2.029 1.489 8595
1.322 2.027 1.478 8749
1.320 2.024 1.467 8927
1.333 2.045 1.471 7839
1.343 2.060 1.472 7401
1.345 2.063 1.464 6849
1.351 2.072 1.461 7798
1.357 2.081 1.457 8888
1.359 2.085 1.450 8050
1.361 2.088 1.443 7212
1.375 2.109 1.446 6151
1.400 2.147 1.460 7888
1.406 2.156 1.456 7503
1.416 2.171 1.456 7274
1.422 2.181 1.452 5928
1.428 2.190 1.447 4767
1.422 2.181 1.433 3522
1.412 2.166 1.415 2858
1.414 2.169 1.407 2917
1.420 2.178 1.403 2944
1.497 2.295 1.460 3985
1.499 2.298 1.452 5220
1.501 2.302 1.444 5220
1.507 2.311 1.439 5882
1.509 2.314 1.431 6572
1.515 2.323 1.426 5675
1.521 2.332 1.421 5035
1.519 2.329 1.410 5148
1.517 2.326 1.398 5441
1.523 2.335 1.393 5380
1.533 2.351 1.391 5544
1.535 2.354 1.383 5544
1.541 2.363 1.378 5726
1.542 2.366 1.370 6006
1.544 2.369 1.361 3003
0.365 0.558 1.662 12065
0.368 0.562 1.660 9618
0.367 0.560 1.644 7356
0.374 0.572 1.663 9486
0.379 0.579 1.669 12542
0.381 0.583 1.666 12542
0.384 0.586 1.664 15433
0.386 0.590 1.662 18324
0.388 0.594 1.660 16256
0.391 0.597 1.658 14188
0.395 0.604 1.663 13560
0.398 0.608 1.661 13002
0.400 0.611 1.659 13485
0.402 0.615 1.656 13968
0.407 0.622 1.661 12545
0.409 0.625 1.659 11201
0.412 0.629 1.657 11069
0.414 0.633 1.655 8599
0.418 0.640 1.659 6227
0.419 0.640 1.650 6982
0.419 0.641 1.641 7987
0.422 0.644 1.638 8597
0.342 0.523 1.357 9781
0.344 0.526 1.355 12046
0.346 0.529 1.353 13281
0.346 0.529 1.344 12912
0.348 0.532 1.342 12678
0.350 0.535 1.340 11912
0.352 0.537 1.338 11146
0.354 0.540 1.336 10796
0.353 0.540 1.328 10632
0.357 0.546 1.332 10836
0.359 0.549 1.331 10690
0.361 0.552 1.329 9352
0.454 0.695 1.614 7657
0.455 0.695 1.605 7181
0.459 0.702 1.609 7940
0.461 0.705 1.607 11327
0.464 0.709 1.604 13818
0.468 0.716 1.608 13312
0.471 0.719 1.606 12836
0.473 0.723 1.603 10004
0.389 0.595 1.344 8256
0.389 0.594 1.335 5792
0.389 0.594 1.326 5579
0.390 0.597 1.324 7660
0.395 0.603 1.329 10952
0.396 0.606 1.327 14586
0.396 0.605 1.318 14871
0.400 0.612 1.322 13602
0.402 0.615 1.320 11500
0.404 0.617 1.318 10262
0.406 0.620 1.316 8544
0.424 0.649 1.360 6274
0.429 0.655 1.364 7160
0.428 0.655 1.355 7517
0.425 0.650 1.339 8325
0.425 0.649 1.331 11420
0.429 0.656 1.335 15886
0.436 0.666 1.345 19100
0.438 0.669 1.343 15403
0.442 0.676 1.347 11117
0.442 0.675 1.338 10207
0.444 0.678 1.336 9765
0.560 0.856 1.631 10275
0.560 0.856 1.622 8030
0.565 0.864 1.625 6023
0.570 0.871 1.628 4734
0.577 0.882 1.638 4213
0.455 0.695 1.321 5673
0.579 0.886 1.625 6566
0.582 0.889 1.622 7393
0.579 0.885 1.606 7605
0.581 0.889 1.603 7605
0.591 0.904 1.619 9515
0.594 0.908 1.616 10792
0.599 0.915 1.619 8361
0.483 0.738 1.332 8092
0.487 0.745 1.336 7553
0.487 0.744 1.327 5029
0.502 0.767 1.356 4507
0.504 0.770 1.353 7720
0.506 0.773 1.350 9344
0.510 0.780 1.354 7989
0.612 0.935 1.580 7820
0.614 0.939 1.577 10416
0.614 0.938 1.567 8609
0.616 0.942 1.564 7589
0.618 0.945 1.561 10831
0.621 0.949 1.557 15834
0.623 0.952 1.554 15164
0.622 0.951 1.544 12420
0.627 0.959 1.547 11677
0.632 0.967 1.550 13002
0.635 0.970 1.546 14651
0.634 0.969 1.537 13780
0.636 0.973 1.533 11595
0.641 0.980 1.536 13438
0.649 0.992 1.544 12707
0.654 1.000 1.547 10703
0.651 0.995 1.531 15348
0.656 1.002 1.534 23314
0.664 1.015 1.542 25945
0.666 1.018 1.538 27976
0.665 1.017 1.529 29013
0.668 1.020 1.525 21350
0.673 1.028 1.528 12397
0.687 1.049 1.547 11536
0.686 1.048 1.538 12753
0.694 1.061 1.546 11812
0.702 1.073 1.554 11195
0.684 1.045 1.509 9298
0.733 1.121 1.598 13045
0.736 1.124 1.594 13828
0.738 1.128 1.590 10097
0.746 1.141 1.597 6646
0.745 1.139 1.588 13849
0.748 1.143 1.584 24255
0.753 1.151 1.585 25693
0.755 1.155 1.581 18585
0.758 1.158 1.577 19906
0.760 1.162 1.573 26409
0.762 1.165 1.569 18720
0.774 1.183 1.581 16825
0.779 1.191 1.583 21864
0.784 1.199 1.584 22330
0.784 1.198 1.574 31508
0.783 1.196 1.565 45063
0.788 1.205 1.566 50619
0.790 1.208 1.562 48154
0.796 1.216 1.563 31537
0.823 1.258 1.602 28015
0.825 1.262 1.598 31804
0.831 1.270 1.599 23026
0.836 1.278 1.600 27437
0.839 1.282 1.595 33019
0.841 1.286 1.591 41483
0.840 1.284 1.581 52775
0.842 1.288 1.576 42668
0.841 1.286 1.566 26536
0.847 1.295 1.567 16862
0.849 1.298 1.562 14263
0.848 1.297 1.552 12899
0.850 1.300 1.548 12052
0.849 1.298 1.538 12234
0.858 1.312 1.544 14601
0.864 1.320 1.544 21496
0.869 1.329 1.545 23590
0.878 1.342 1.551 16314
0.890 1.361 1.561 13105
0.896 1.369 1.562 16409
0.901 1.378 1.562 17546
0.907 1.386 1.562 24377
0.909 1.389 1.557 31189
0.915 1.398 1.557 33409
0.920 1.407 1.558 34085
0.922 1.410 1.553 29925
0.925 1.413 1.548 20926
0.930 1.422 1.548 17016
0.936 1.431 1.547 15375
0.938 1.434 1.542 9218
0.954 1.458 1.557 13597
0.953 1.456 1.547 19172
0.955 1.460 1.542 18776
0.961 1.468 1.542 19291
0.963 1.472 1.536 17141
0.972 1.486 1.541 11652
0.981 1.499 1.545 11024
0.990 1.513 1.550 14447
0.992 1.517 1.544 15707
0.995 1.520 1.539 14312
1.007 1.539 1.548 20069
1.009 1.543 1.542 25036
1.015 1.552 1.542 18260
1.028 1.571 1.550 16140
1.030 1.574 1.545 17148
1.032 1.578 1.539 10720
1.038 1.587 1.538 7506
1.040 1.590 1.533 9225
1.046 1.599 1.532 13844
1.048 1.602 1.526 16361
1.047 1.600 1.516 11174
1.067 1.630 1.533 14104
1.072 1.639 1.532 26821
1.078 1.648 1.530 28821
1.088 1.662 1.534 27682
1.083 1.655 1.519 25848
1.081 1.653 1.509 20975
1.087 1.661 1.507 19069
1.093 1.670 1.506 22446
1.098 1.679 1.504 21300
1.104 1.688 1.503 16645
1.110 1.697 1.501 12982
1.116 1.706 1.499 13946
1.122 1.714 1.498 15085
1.124 1.718 1.492 16218
1.126 1.721 1.486 14715
1.128 1.724 1.480 9128
1.123 1.716 1.465 6553
1.169 1.787 1.510 8876
1.164 1.779 1.495 17312
1.162 1.777 1.484 22299
1.164 1.780 1.478 19291
1.166 1.783 1.472 12467
1.169 1.786 1.466 8651
1.208 1.846 1.500 6797
1.206 1.844 1.490 12139
1.205 1.841 1.479 16891
1.210 1.850 1.477 16582
1.213 1.853 1.470 12590
1.215 1.857 1.464 8755
1.221 1.866 1.461 8581
1.219 1.863 1.451 8921
1.221 1.866 1.444 9502
1.223 1.869 1.437 7435
1.270 1.942 1.478 6298
1.269 1.939 1.467 4752
1.312 2.006 1.503 4067
1.318 2.015 1.500 5032
1.324 2.024 1.496 6069
1.326 2.027 1.489 7235
1.328 2.031 1.482 7467
1.327 2.028 1.471 7713
1.337 2.043 1.471 7423
1.346 2.058 1.472 6500
1.356 2.073 1.472 5662
1.358 2.076 1.465 6604
1.364 2.085 1.461 7625
1.366 2.088 1.454 7130
1.368 2.092 1.446 6635
1.397 2.136 1.464 6152
1.403 2.145 1.460 8322
1.409 2.154 1.456 7921
1.415 2.163 1.452 7642
1.425 2.178 1.452 6284
1.431 2.187 1.447 5193
1.429 2.185 1.436 4054
1.424 2.176 1.422 3133
1.422 2.173 1.411 3252
1.467 2.242 1.440 3501
1.492 2.281 1.453 4026
1.498 2.290 1.448 5391
1.500 2.293 1.440 5391
1.506 2.302 1.435 5841
1.512 2.312 1.431 6445
1.518 2.321 1.426 5628
1.528 2.336 1.424 5263
1.522 2.327 1.410 5295
1.520 2.324 1.398 5712
1.526 2.333 1.393 5425
1.536 2.348 1.391 5434
1.538 2.351 1.383 5434
1.540 2.354 1.375 5689
1.546 2.363 1.370 6062
1.548 2.366 1.361 3031
0.367 0.557 1.662 12879
0.370 0.561 1.660 10179
0.368 0.559 1.644 7586
0.376 0.571 1.663 9564
0.380 0.578 1.669 12336
0.383 0.581 1.666 12336
0.385 0.585 1.664 15428
0.388 0.589 1.662 18520
0.390 0.592 1.660 16566
0.393 0.596 1.658 14612
0.397 0.603 1.663 13684
0.399 0.606 1.661 12939
0.402 0.610 1.659 13473
0.404 0.614 1.656 14007
0.409 0.620 1.661 12550
0.411 0.624 1.659 10963
0.413 0.628 1.657 10623
0.416 0.632 1.655 8074
0.420 0.638 1.659 5649
0.421 0.639 1.650 6444
0.421 0.639 1.641 7507
0.424 0.643 1.638 8072
0.344 0.522 1.357 9233
0.346 0.525 1.355 11440
0.348 0.528 1.353 12705
0.348 0.528 1.344 12656
0.349 0.531 1.342 12661
0.351 0.534 1.340 12134
0.353 0.536 1.338 11607
0.355 0.539 1.336 11263
0.355 0.539 1.328 11093
0.359 0.545 1.332 11236
0.361 0.548 1.331 11088
0.363 0.551 1.329 9857
0.456 0.693 1.614 7942
0.457 0.693 1.605 7534
0.461 0.700 1.609 7915
0.464 0.704 1.607 10953
0.466 0.707 1.604 13500
0.470 0.714 1.608 13402
0.473 0.718 1.606 13445
0.475 0.721 1.603 10639
0.389 0.590 1.337 8259
0.391 0.593 1.335 5984
0.388 0.589 1.320 5989
0.392 0.596 1.324 8062
0.396 0.602 1.329 11205
0.398 0.605 1.327 14658
0.398 0.604 1.318 14835
0.400 0.607 1.315 13433
0.404 0.613 1.320 11290
0.406 0.616 1.318 10164
0.410 0.623 1.322 8472
0.426 0.647 1.360 6429
0.428 0.650 1.357 7323
0.430 0.653 1.355 7830
0.430 0.652 1.346 8377
0.429 0.652 1.337 11147
0.434 0.658 1.341 15454
0.438 0.665 1.345 18539
0.440 0.668 1.343 14877
0.442 0.671 1.341 10683
0.444 0.674 1.338 9823
0.446 0.677 1.336 8944
0.563 0.855 1.631 9717
0.563 0.854 1.622 8192
0.568 0.862 1.625 6471
0.572 0.869 1.628 4765
0.453 0.687 1.317 3896
0.457 0.694 1.321 5059
0.582 0.884 1.625 6221
0.582 0.884 1.616 7287
0.582 0.883 1.606 7961
0.584 0.887 1.603 8107
0.592 0.898 1.613 9561
0.597 0.906 1.616 10728
0.602 0.913 1.619 8170
0.485 0.737 1.332 6110
0.487 0.739 1.330 5452
0.489 0.742 1.327 3809
0.504 0.765 1.356 4161
0.506 0.768 1.353 7124
0.508 0.771 1.350 8508
0.513 0.778 1.354 7249
0.615 0.934 1.580 8448
0.617 0.937 1.577 10999
0.617 0.936 1.567 8973
0.619 0.940 1.564 7882
0.621 0.943 1.561 10855
0.624 0.947 1.557 15365
0.626 0.950 1.554 14437
0.625 0.949 1.544 11441
0.630 0.957 1.547 10934
0.635 0.965 1.550 12931
0.638 0.968 1.546 13950
0.640 0.971 1.543 11433
0.642 0.975 1.539 9328
0.644 0.978 1.536 11944
0.652 0.990 1.544 11979
0.657 0.998 1.547 10309
0.654 0.993 1.531 15835
0.659 1.000 1.534 23819
0.667 1.013 1.542 26282
0.669 1.016 1.538 28690
0.671 1.019 1.535 29577
0.676 1.027 1.537 22198
0.682 1.035 1.539 13897
0.687 1.043 1.541 13179
0.689 1.046 1.538 14655
0.697 1.059 1.546 13499
0.705 1.071 1.554 12694
0.687 1.043 1.509 10883
0.737 1.119 1.598 13818
0.739 1.122 1.594 14373
0.744 1.130 1.596 10391
0.753 1.143 1.603 7398
0.749 1.137 1.588 14721
0.751 1.141 1.584 26345
0.757 1.149 1.585 28298
0.759 1.152 1.581 20149
0.761 1.156 1.577 21628
0.763 1.159 1.573 30633
0.766 1.163 1.569 25488
0.774 1.176 1.576 20765
0.780 1.184 1.577 21786
0.785 1.192 1.579 17475
0.784 1.191 1.569 29499
0.786 1.194 1.565 46295
0.792 1.202 1.566 49029
0.794 1.206 1.562 44378
0.796 1.209 1.557 28008
0.827 1.256 1.602 30104
0.829 1.259 1.598 30537
0.832 1.263 1.593 18643
0.840 1.276 1.600 21103
0.843 1.279 1.595 28604
0.845 1.283 1.591 37669
0.844 1.282 1.581 49390
0.846 1.285 1.576 38075
0.849 1.289 1.571 20191
0.851 1.292 1.567 15012
0.850 1.291 1.557 16971
0.852 1.294 1.552 15781
0.851 1.292 1.543 14383
0.853 1.296 1.538 13980
0.862 1.309 1.544 15573
0.868 1.318 1.544 22343
0.873 1.326 1.545 24353
0.879 1.334 1.545 14137
0.898 1.363 1.566 8338
0.900 1.366 1.562 11398
0.909 1.380 1.567 14548
0.914 1.388 1.567 22044
0.917 1.392 1.562 28540
0.922 1.400 1.562 31321
0.924 1.404 1.558 33143
0.927 1.407 1.553 29199
0.929 1.411 1.548 20290
0.935 1.419 1.548 17199
0.940 1.428 1.547 15695
0.942 1.431 1.542 8603
0.962 1.460 1.562 12478
0.957 1.453 1.547 19520
0.959 1.457 1.542 21072
0.965 1.465 1.542 22193
0.967 1.469 1.536 18751
0.976 1.483 1.541 13196
0.986 1.496 1.545 13052
0.991 1.505 1.545 14998
0.993 1.508 1.540 15789
0.996 1.512 1.534 14993
1.008 1.531 1.543 20950
1.014 1.540 1.542 25603
1.020 1.548 1.542 18027
1.033 1.568 1.550 16048
1.035 1.571 1.545 17804
1.037 1.575 1.539 11546
1.043 1.583 1.538 6708
1.049 1.592 1.537 6734
1.047 1.590 1.527 11006
1.053 1.599 1.526 13412
1.052 1.597 1.516 10436
1.068 1.622 1.528 14484
1.074 1.631 1.527 26191
1.083 1.645 1.530 26783
1.093 1.659 1.534 25068
1.088 1.652 1.519 23626
1.086 1.649 1.509 19855
1.088 1.653 1.503 19388
1.098 1.667 1.506 21729
1.104 1.676 1.504 19459
1.106 1.679 1.498 15369
1.112 1.688 1.497 12427
1.121 1.702 1.499 13950
1.127 1.711 1.498 15145
1.129 1.714 1.492 16540
1.131 1.718 1.486 15617
1.130 1.715 1.475 9753
1.121 1.702 1.456 7121
1.174 1.783 1.510 9025
1.169 1.775 1.495 17631
1.168 1.773 1.484 22455
1.170 1.776 1.478 19669
1.172 1.779 1.472 13479
1.174 1.783 1.466 10077
1.176 1.786 1.459 7637
1.212 1.840 1.490 12146
1.210 1.838 1.479 16994
1.216 1.847 1.477 16760
1.218 1.850 1.470 13323
1.220 1.853 1.464 9857
1.226 1.862 1.461 9567
1.225 1.859 1.451 9538
1.227 1.863 1.444 9860
1.229 1.866 1.437 7727
1.231 1.869 1.431 5595
1.297 1.970 1.490 4002
1.318 2.002 1.503 4202
1.324 2.011 1.500 4973
1.330 2.020 1.496 5312
1.336 2.029 1.493 5896
1.339 2.032 1.486 6308
1.341 2.036 1.479 6720
1.343 2.039 1.471 6810
1.356 2.060 1.475 5575
1.374 2.086 1.483 5129
1.372 2.084 1.472 5816
1.374 2.087 1.465 6518
1.376 2.090 1.457 6259
1.379 2.093 1.450 5999
1.408 2.138 1.468 6525
1.410 2.141 1.460 8771
1.416 2.150 1.456 8308
1.422 2.159 1.452 7924
1.428 2.168 1.448 6558
1.438 2.183 1.447 5576
1.436 2.180 1.436 4591
1.434 2.177 1.425 3643
1.460 2.216 1.438 3944
1.474 2.237 1.440 4471
1.487 2.258 1.443 4602
1.501 2.279 1.445 5669
1.503 2.283 1.437 5669
1.513 2.298 1.435 5723
1.519 2.307 1.431 6147
1.521 2.310 1.423 5477
1.535 2.331 1.424 5400
1.525 2.316 1.406 5286
1.527 2.319 1.398 5766
1.533 2.328 1.393 5334
1.543 2.343 1.391 5349
1.545 2.346 1.383 5349
1.547 2.349 1.375 5699
1.553 2.359 1.370 6169
1.555 2.362 1.361 3084
0.368 0.557 1.662 13520
0.370 0.561 1.660 10599
0.371 0.561 1.651 7690
0.377 0.571 1.663 9586
0.381 0.577 1.669 12091
0.384 0.581 1.666 12091
0.386 0.585 1.664 15394
0.389 0.588 1.662 18697
0.391 0.592 1.660 16901
0.393 0.596 1.658 15106
0.398 0.602 1.663 13819
0.400 0.606 1.661 12829
0.403 0.610 1.659 13389
0.405 0.613 1.656 13950
0.409 0.620 1.661 12503
0.412 0.624 1.659 10664
0.414 0.627 1.657 10071
0.417 0.631 1.655 7448
0.421 0.638 1.659 4959
0.422 0.638 1.650 5756
0.422 0.639 1.641 6838
0.424 0.642 1.638 7365
0.345 0.522 1.357 8609
0.346 0.525 1.355 10729
0.346 0.524 1.346 12032
0.348 0.527 1.344 12281
0.350 0.530 1.342 12530
0.352 0.533 1.340 12250
0.354 0.536 1.338 11971
0.356 0.539 1.336 11655
0.356 0.538 1.328 11494
0.360 0.545 1.332 11572
0.362 0.547 1.331 11423
0.364 0.550 1.329 10320
0.457 0.692 1.614 7889
0.458 0.693 1.605 7875
0.462 0.700 1.609 7949
0.464 0.703 1.607 10543
0.467 0.707 1.604 12979
0.469 0.710 1.602 13269
0.474 0.717 1.606 13768
0.476 0.721 1.603 10991
0.390 0.590 1.337 8298
0.389 0.589 1.328 6225
0.389 0.589 1.320 6392
0.393 0.595 1.324 8385
0.397 0.601 1.329 11396
0.399 0.604 1.327 14637
0.399 0.604 1.318 14660
0.401 0.606 1.315 13080
0.405 0.613 1.320 10800
0.407 0.616 1.318 9751
0.411 0.622 1.322 8187
0.425 0.643 1.353 6459
0.429 0.650 1.357 7309
0.431 0.653 1.355 7948
0.431 0.652 1.346 8464
0.430 0.651 1.337 10700
0.434 0.658 1.341 14610
0.439 0.664 1.345 17476
0.438 0.664 1.337 14063
0.443 0.670 1.341 10112
0.442 0.669 1.332 9361
0.444 0.672 1.329 8001
0.561 0.850 1.625 8828
0.564 0.854 1.622 8064
0.569 0.861 1.625 6706
0.574 0.868 1.628 4974
0.581 0.880 1.638 3502
0.581 0.880 1.629 4433
0.581 0.879 1.619 5893
0.583 0.883 1.616 7111
0.583 0.882 1.606 8138
0.588 0.890 1.610 8551
0.593 0.897 1.613 9736
0.598 0.905 1.616 10477
0.603 0.913 1.619 7670
0.605 0.916 1.616 4706
0.594 0.900 1.581 4171
0.594 0.899 1.572 3443
0.505 0.765 1.356 3855
0.510 0.772 1.359 6425
0.509 0.771 1.350 7522
0.514 0.778 1.354 6372
0.616 0.933 1.580 8819
0.618 0.936 1.577 11168
0.618 0.936 1.567 8945
0.620 0.939 1.564 7962
0.625 0.947 1.567 10666
0.625 0.946 1.557 14235
0.624 0.945 1.548 13167
0.624 0.944 1.538 10292
0.632 0.956 1.547 10183
0.637 0.964 1.550 13225
0.639 0.967 1.546 14345
0.641 0.971 1.543 10492
0.643 0.974 1.539 8305
0.648 0.982 1.542 11495
0.656 0.994 1.550 11457
0.656 0.993 1.541 9757
0.655 0.992 1.531 15603
0.660 1.000 1.534 23288
0.668 1.012 1.542 25898
0.673 1.019 1.544 28815
0.673 1.018 1.535 29798
0.678 1.026 1.537 23513
0.683 1.034 1.539 15150
0.688 1.042 1.541 14252
0.690 1.045 1.538 16444
0.699 1.058 1.546 14867
0.707 1.070 1.554 13638
0.688 1.042 1.509 11307
0.738 1.118 1.598 14426
0.740 1.121 1.594 14897
0.746 1.129 1.596 11076
0.754 1.142 1.603 9187
0.750 1.136 1.588 16344
0.756 1.144 1.589 28218
0.758 1.148 1.585 30500
0.760 1.151 1.581 21626
0.763 1.155 1.577 22581
0.765 1.158 1.573 34758
0.770 1.166 1.574 33500
0.776 1.174 1.576 26720
0.781 1.183 1.577 22814
0.783 1.186 1.573 15573
0.786 1.190 1.569 28488
0.788 1.193 1.565 45707
0.793 1.201 1.566 45543
0.796 1.205 1.562 38837
0.798 1.208 1.557 23914
0.829 1.255 1.602 30649
0.828 1.253 1.592 28217
0.830 1.257 1.588 16192
0.839 1.270 1.594 17324
0.844 1.278 1.595 23922
0.843 1.277 1.585 32682
0.846 1.280 1.581 43866
0.848 1.284 1.576 31970
0.847 1.283 1.566 14479
0.849 1.286 1.562 14099
0.852 1.289 1.557 20105
0.851 1.288 1.547 18044
0.853 1.291 1.543 15674
0.855 1.295 1.538 14873
0.864 1.308 1.544 15902
0.873 1.321 1.550 22332
0.875 1.325 1.545 24366
0.881 1.333 1.545 13038
0.889 1.347 1.551 4471
0.905 1.370 1.567 6636
0.911 1.379 1.567 12675
0.916 1.387 1.567 20278
0.922 1.396 1.567 25043
0.924 1.399 1.562 29556
0.926 1.402 1.558 32459
0.929 1.406 1.553 28149
0.931 1.409 1.548 19453
0.937 1.418 1.548 17260
0.942 1.426 1.547 16121
0.944 1.430 1.542 8158
0.964 1.459 1.562 10747
0.959 1.452 1.547 19623
0.961 1.455 1.542 22903
0.967 1.464 1.542 24300
0.969 1.467 1.536 19983
0.978 1.481 1.541 13221
0.988 1.495 1.545 12804
0.993 1.504 1.545 15357
0.996 1.507 1.540 17216
0.998 1.511 1.534 16442
1.010 1.530 1.543 21646
1.016 1.538 1.542 25366
1.022 1.547 1.542 17294
1.031 1.561 1.546 15737
1.033 1.565 1.540 17915
1.039 1.573 1.539 12592
1.045 1.582 1.538 7614
1.047 1.585 1.533 6832
1.046 1.583 1.522 9337
1.055 1.597 1.526 9785
1.054 1.595 1.516 9489
1.067 1.615 1.524 15117
1.073 1.624 1.523 25109
1.082 1.638 1.526 24598
1.095 1.658 1.534 22202
1.090 1.650 1.519 21379
1.088 1.648 1.509 19082
1.091 1.651 1.503 20010
1.096 1.660 1.501 21075
1.102 1.669 1.500 17879
1.104 1.672 1.494 14200
1.114 1.686 1.497 11645
1.123 1.701 1.499 13597
1.129 1.709 1.498 14836
1.128 1.707 1.487 16619
1.130 1.710 1.481 16721
1.128 1.708 1.471 10985
1.123 1.700 1.456 7879
1.177 1.782 1.510 9133
1.172 1.774 1.495 17571
1.170 1.771 1.484 21984
1.172 1.775 1.478 19523
1.174 1.778 1.472 14237
1.176 1.781 1.466 11413
1.179 1.784 1.459 8794
1.211 1.833 1.486 11780
1.213 1.836 1.479 16543
1.219 1.845 1.477 16473
1.224 1.854 1.474 13913
1.223 1.851 1.464 10949
1.229 1.860 1.461 10639
1.227 1.858 1.451 10119
1.229 1.861 1.444 10102
1.231 1.864 1.437 7892
1.241 1.879 1.439 5753
1.251 1.893 1.440 4568
1.317 1.994 1.499 4331
1.323 2.003 1.496 4932
1.329 2.012 1.492 4871
1.335 2.022 1.489 4939
1.341 2.031 1.486 5411
1.343 2.034 1.479 5912
1.346 2.037 1.471 6139
1.363 2.064 1.479 4799
1.385 2.096 1.490 5416
1.383 2.093 1.479 5389
1.381 2.091 1.468 5449
1.383 2.094 1.461 5373
1.385 2.097 1.453 5296
1.411 2.136 1.468 6955
1.413 2.139 1.460 9218
1.419 2.148 1.456 8631
1.421 2.151 1.449 8115
1.431 2.166 1.448 6728
1.441 2.181 1.447 5903
1.443 2.184 1.440 5072
1.461 2.211 1.446 4769
1.463 2.214 1.438 5054
1.473 2.229 1.437 5407
1.486 2.250 1.439 5159
1.500 2.271 1.442 6018
1.502 2.275 1.434 6018
1.512 2.290 1.432 5626
1.518 2.299 1.427 5772
1.524 2.308 1.423 5214
1.538 2.329 1.424 5381
1.529 2.314 1.406 5125
1.527 2.311 1.395 5598
1.537 2.326 1.393 5045
1.547 2.341 1.391 5212
1.549 2.344 1.383 5212
1.551 2.347 1.375 5682
1.557 2.356 1.370 6278
1.558 2.359 1.361 3139
0.370 0.556 1.662 14131
0.372 0.559 1.660 11000
0.375 0.563 1.658 7869
0.379 0.569 1.663 9617
0.383 0.576 1.669 11857
0.386 0.580 1.666 11857
0.388 0.583 1.664 15345
0.389 0.584 1.655 18859
0.393 0.591 1.660 17182
0.395 0.594 1.658 15531
0.400 0.601 1.663 13886
0.404 0.607 1.668 12684
0.405 0.608 1.659 13208
0.407 0.612 1.656 13776
0.412 0.619 1.661 12381
0.414 0.622 1.659 10335
0.416 0.626 1.657 9499
0.419 0.630 1.655 6803
0.423 0.636 1.659 4265
0.424 0.637 1.650 5079
0.424 0.637 1.641 6186
0.427 0.641 1.638 6679
0.346 0.520 1.357 7964
0.348 0.523 1.355 9983
0.348 0.523 1.346 11337
0.350 0.526 1.344 11789
0.352 0.529 1.342 12241
0.354 0.532 1.340 12178
0.356 0.535 1.338 12115
0.358 0.538 1.336 11849
0.357 0.537 1.328 11721
0.362 0.543 1.332 11745
0.363 0.546 1.331 11614
0.365 0.549 1.329 10643
0.367 0.552 1.327 8447
0.462 0.695 1.612 8110
0.462 0.695 1.602 7928
0.467 0.702 1.607 10056
0.469 0.705 1.604 12314
0.472 0.709 1.602 12956
0.476 0.716 1.606 13835
0.479 0.719 1.603 11103
0.392 0.589 1.337 8343
0.488 0.733 1.611 6675
0.391 0.587 1.320 6682
0.395 0.594 1.324 8540
0.399 0.600 1.329 11374
0.401 0.603 1.327 14356
0.401 0.602 1.318 14253
0.403 0.605 1.315 12552
0.407 0.611 1.320 10219
0.411 0.618 1.324 9311
0.413 0.621 1.322 7896
0.427 0.642 1.353 6445
0.431 0.648 1.357 7132
0.433 0.651 1.355 7920
0.433 0.650 1.346 8505
0.432 0.650 1.337 10177
0.437 0.656 1.341 13513
0.441 0.663 1.345 16118
0.441 0.662 1.337 13092
0.445 0.669 1.341 9434
0.444 0.668 1.332 8816
0.446 0.671 1.329 6985
0.564 0.848 1.625 7810
0.567 0.852 1.622 7677
0.572 0.859 1.625 6641
0.574 0.863 1.622 5082
0.533 0.801 1.510 3563
0.584 0.878 1.629 4286
0.584 0.877 1.619 5634
0.586 0.881 1.616 6888
0.588 0.884 1.613 8112
0.591 0.888 1.610 8839
0.596 0.895 1.613 9794
0.601 0.903 1.616 9996
0.606 0.911 1.619 6841
0.544 0.818 1.465 4159
0.595 0.894 1.575 4519
0.600 0.901 1.578 4038
0.505 0.759 1.349 3727
0.512 0.770 1.359 5711
0.512 0.769 1.350 6524
0.519 0.780 1.360 5543
0.619 0.931 1.580 8883
0.622 0.934 1.577 10906
0.624 0.938 1.573 8667
0.623 0.937 1.564 7835
0.628 0.945 1.567 10362
0.628 0.944 1.557 12842
0.627 0.943 1.548 11680
0.627 0.942 1.538 9130
0.635 0.954 1.547 9218
0.640 0.962 1.550 13161
0.642 0.965 1.546 14517
0.644 0.968 1.543 9664
0.649 0.976 1.545 7457
0.655 0.984 1.548 11022
0.660 0.992 1.550 10793
0.659 0.991 1.541 9084
0.658 0.990 1.531 14620
0.661 0.993 1.528 21755
0.672 1.009 1.542 24479
0.677 1.017 1.544 27895
0.676 1.016 1.535 29237
0.681 1.024 1.537 24462
0.687 1.032 1.539 15835
0.692 1.040 1.541 14521
0.694 1.043 1.538 17478
0.699 1.051 1.540 15963
0.710 1.068 1.554 14064
0.695 1.044 1.515 10846
0.742 1.115 1.598 14730
0.744 1.119 1.594 15334
0.750 1.127 1.596 11901
0.758 1.139 1.603 10555
0.757 1.138 1.593 17175
0.760 1.142 1.589 28739
0.762 1.145 1.585 31071
0.764 1.149 1.581 22154
0.767 1.152 1.577 22628
0.769 1.156 1.573 37992
0.774 1.164 1.574 41323
0.780 1.172 1.576 32480
0.782 1.175 1.572 24272
0.784 1.179 1.567 16358
0.790 1.187 1.569 28299
0.792 1.190 1.565 42294
0.797 1.199 1.566 39047
0.800 1.202 1.562 31950
0.802 1.205 1.557 20300
0.833 1.252 1.602 29631
0.832 1.250 1.592 25891
0.831 1.249 1.582 16245
0.840 1.262 1.589 16734
0.845 1.271 1.590 19560
0.848 1.274 1.585 27696
0.850 1.278 1.581 38192
0.849 1.276 1.571 26482
0.851 1.280 1.566 13149
0.854 1.283 1.562 16509
0.853 1.282 1.552 22353
0.855 1.285 1.547 19199
0.857 1.288 1.543 15961
0.863 1.297 1.543 15262
0.865 1.300 1.539 16164
0.877 1.318 1.550 22032
0.880 1.322 1.545 24069
0.882 1.325 1.540 13039
0.887 1.334 1.541 3843
0.913 1.372 1.572 5613
0.915 1.375 1.567 14000
0.921 1.384 1.567 19264
0.927 1.392 1.567 22759
0.929 1.396 1.562 28643
0.931 1.399 1.558 31301
0.933 1.403 1.553 25072
0.936 1.406 1.548 17275
0.945 1.420 1.553 17127
0.947 1.423 1.547 16519
0.949 1.427 1.542 8583
0.962 1.445 1.552 9956
0.964 1.449 1.547 19454
0.966 1.452 1.542 23832
0.972 1.461 1.542 25622
0.974 1.464 1.536 20204
0.983 1.478 1.541 13488
0.993 1.492 1.545 12174
0.998 1.500 1.545 14150
0.997 1.499 1.535 18235
0.999 1.502 1.529 19031
1.012 1.521 1.538 22506
1.018 1.530 1.538 25210
1.024 1.538 1.537 16627
1.033 1.552 1.541 15263
1.039 1.561 1.540 17596
1.041 1.564 1.535 13818
1.047 1.573 1.534 10604
1.045 1.571 1.523 10625
1.044 1.569 1.513 9970
1.046 1.572 1.508 7106
1.063 1.597 1.520 9134
1.069 1.606 1.519 15640
1.078 1.620 1.523 23690
1.087 1.634 1.526 22306
1.100 1.654 1.534 19680
1.092 1.641 1.514 19574
1.094 1.644 1.509 18659
1.096 1.648 1.503 20572
1.102 1.656 1.501 20485
1.104 1.660 1.495 16456
1.110 1.668 1.494 13334
1.120 1.683 1.497 10682
1.129 1.697 1.499 12816
1.135 1.706 1.498 14107
1.133 1.703 1.487 16435
1.136 1.707 1.481 17876
1.134 1.704 1.471 12339
1.129 1.696 1.456 8401
1.179 1.772 1.505 9150
1.178 1.770 1.495 17117
1.176 1.767 1.484 20994
1.178 1.771 1.478 18914
1.180 1.774 1.472 14647
1.182 1.777 1.466 12459
1.185 1.780 1.459 9719
1.213 1.823 1.482 11279
1.219 1.832 1.479 15579
1.225 1.841 1.477 15738
1.231 1.850 1.474 14284
1.233 1.853 1.468 12004
1.235 1.856 1.461 11578
1.233 1.854 1.451 10538
1.235 1.857 1.444 10183
1.238 1.860 1.437 7964
1.251 1.880 1.443 6153
1.253 1.883 1.436 5298
1.286 1.932 1.460 5118
1.330 1.999 1.496 5061
1.332 2.002 1.489 5079
1.327 1.994 1.474 5227
1.340 2.014 1.478 4878
1.350 2.029 1.479 5155
1.352 2.033 1.471 5419
1.386 2.082 1.494 4610
1.392 2.091 1.490 5582
1.390 2.089 1.479 5059
1.392 2.092 1.472 4550
1.398 2.101 1.468 4670
1.412 2.122 1.472 5245
1.418 2.131 1.468 7354
1.420 2.134 1.460 9590
1.426 2.143 1.456 8848
1.428 2.146 1.449 8221
1.438 2.161 1.448 6805
1.448 2.176 1.447 6180
1.450 2.179 1.440 5509
1.468 2.206 1.446 5664
1.470 2.209 1.438 5922
1.476 2.218 1.434 6194
1.494 2.245 1.439 5556
1.508 2.266 1.442 6230
1.510 2.270 1.434 6230
1.520 2.285 1.432 5406
1.526 2.294 1.427 5246
1.532 2.303 1.423 4812
1.550 2.330 1.428 5267
1.532 2.303 1.403 4770
1.534 2.306 1.395 5250
1.540 2.315 1.390 4615
1.554 2.336 1.391 5061
1.556 2.339 1.383 5061
1.562 2.348 1.378 5635
1.564 2.351 1.370 6331
1.566 2.354 1.361 3165
0.371 0.555 1.662 14883
0.374 0.558 1.660 11534
0.376 0.562 1.658 8186
0.380 0.568 1.663 9709
0.385 0.575 1.669 11603
0.387 0.579 1.666 11603
0.390 0.582 1.664 15232
0.390 0.583 1.655 19050
0.393 0.587 1.653 17473
0.395 0.590 1.651 15896
0.399 0.597 1.656 13842
0.406 0.606 1.668 12345
0.406 0.607 1.659 12863
0.409 0.611 1.656 13457
0.413 0.617 1.661 12128
0.416 0.621 1.659 9950
0.418 0.625 1.657 8933
0.421 0.628 1.655 6174
0.425 0.635 1.659 3631
0.425 0.636 1.650 4402
0.426 0.636 1.641 5484
0.428 0.640 1.638 6033
0.348 0.519 1.357 7248
0.350 0.522 1.355 9144
0.349 0.522 1.346 10513
0.351 0.525 1.344 11156
0.353 0.528 1.342 11800
0.355 0.531 1.340 11948
0.357 0.534 1.338 12097
0.359 0.537 1.336 11892
0.359 0.536 1.328 11806
0.363 0.542 1.332 11808
0.365 0.545 1.331 11734
0.367 0.548 1.329 10909
0.369 0.551 1.327 9014
0.464 0.693 1.612 8150
0.466 0.697 1.609 7906
0.469 0.700 1.607 9627
0.471 0.704 1.604 11553
0.473 0.707 1.602 12506
0.478 0.714 1.606 13729
0.480 0.718 1.603 11066
0.393 0.587 1.337 8322
0.490 0.732 1.611 7307
0.395 0.590 1.326 6941
0.397 0.593 1.324 8718
0.401 0.599 1.329 11321
0.403 0.602 1.327 13895
0.402 0.601 1.318 13597
0.404 0.604 1.315 11760
0.409 0.610 1.320 9417
0.413 0.617 1.324 8784
0.415 0.620 1.322 7525
0.429 0.641 1.353 6348
0.433 0.647 1.357 6839
0.435 0.650 1.355 7802
0.435 0.649 1.346 8522
0.434 0.649 1.337 9575
0.438 0.655 1.341 12131
0.443 0.662 1.345 14420
0.442 0.661 1.337 11985
0.447 0.667 1.341 8701
0.446 0.667 1.332 8252
0.448 0.669 1.329 6033
0.567 0.847 1.625 6874
0.569 0.850 1.622 7120
0.574 0.858 1.625 6314
0.476 0.712 1.371 5186
0.535 0.799 1.510 3907
0.586 0.876 1.629 4490
0.589 0.880 1.625 5519
0.588 0.879 1.616 6686
0.591 0.883 1.613 7976
0.593 0.886 1.610 8898
0.598 0.894 1.613 9637
0.603 0.901 1.616 9310
0.606 0.905 1.613 5919
0.547 0.817 1.465 4667
0.597 0.892 1.575 4908
0.605 0.903 1.584 4648
0.507 0.758 1.349 3755
0.512 0.765 1.353 4945
0.516 0.772 1.356 5504
0.521 0.779 1.360 4794
0.622 0.929 1.580 8707
0.624 0.932 1.577 10199
0.626 0.936 1.573 7972
0.626 0.935 1.564 7384
0.631 0.943 1.567 9848
0.631 0.942 1.557 11219
0.630 0.941 1.548 9995
0.629 0.941 1.538 7863
0.635 0.948 1.541 8156
0.642 0.960 1.550 13003
0.648 0.968 1.552 14762
0.650 0.971 1.549 8818
0.664 0.991 1.569 6797
0.660 0.986 1.554 10662
0.662 0.990 1.550 9953
0.662 0.989 1.541 8274
0.661 0.988 1.531 12970
0.663 0.991 1.528 19246
0.674 1.008 1.542 22105
0.680 1.015 1.544 25986
0.682 1.019 1.541 28256
0.684 1.022 1.537 24867
0.689 1.030 1.539 16102
0.695 1.038 1.541 14526
0.697 1.041 1.538 17739
0.702 1.049 1.540 16145
0.716 1.070 1.559 13816
0.737 1.101 1.590 10188
0.745 1.113 1.598 14501
0.747 1.117 1.594 15442
0.753 1.125 1.596 12718
0.761 1.137 1.603 11123
0.760 1.136 1.593 16397
0.763 1.140 1.589 27152
0.765 1.143 1.585 29410
0.767 1.147 1.581 21156
0.770 1.150 1.577 21908
0.772 1.154 1.573 39678
0.777 1.162 1.574 47078
0.783 1.170 1.576 37379
0.785 1.173 1.572 25822
0.788 1.177 1.567 18502
0.790 1.180 1.563 28267
0.795 1.188 1.565 36490
0.801 1.196 1.566 30614
0.803 1.200 1.562 24839
0.831 1.241 1.601 18310
0.833 1.245 1.597 27019
0.835 1.248 1.592 23585
0.835 1.247 1.582 16978
0.843 1.260 1.589 17266
0.849 1.268 1.590 16171
0.851 1.272 1.585 23103
0.854 1.275 1.581 33389
0.853 1.274 1.571 22862
0.852 1.272 1.561 14632
0.854 1.276 1.556 20236
0.856 1.279 1.552 23473
0.859 1.283 1.547 19288
0.861 1.286 1.543 15496
0.866 1.294 1.543 15245
0.869 1.298 1.539 16360
0.881 1.316 1.550 21440
0.883 1.319 1.545 23628
0.885 1.323 1.540 13490
0.894 1.336 1.546 4626
0.917 1.370 1.572 8096
0.919 1.373 1.567 16429
0.925 1.381 1.567 18671
0.930 1.390 1.567 20459
0.933 1.393 1.562 27419
0.935 1.397 1.558 29047
0.937 1.400 1.553 21136
0.939 1.404 1.548 15408
0.949 1.417 1.553 17662
0.951 1.421 1.547 17492
0.953 1.424 1.542 10454
0.962 1.438 1.547 10805
0.968 1.446 1.547 19165
0.970 1.450 1.542 23907
0.976 1.458 1.542 26135
0.978 1.462 1.536 20281
0.991 1.481 1.546 13149
0.997 1.489 1.545 12211
1.002 1.498 1.545 13594
1.005 1.501 1.540 17876
1.007 1.504 1.534 20129
1.016 1.518 1.538 23799
1.018 1.522 1.533 24876
1.024 1.530 1.532 15639
1.037 1.550 1.541 14744
1.039 1.553 1.535 16673
1.045 1.562 1.535 14868
1.047 1.565 1.529 14346
1.050 1.568 1.523 15152
1.048 1.566 1.513 12204
1.054 1.575 1.512 7004
1.067 1.594 1.520 10248
1.073 1.603 1.519 15968
1.082 1.617 1.523 21722
1.092 1.631 1.526 19996
1.105 1.651 1.534 17720
1.100 1.643 1.519 18420
1.098 1.641 1.509 18567
1.101 1.645 1.503 20822
1.103 1.648 1.497 19671
1.109 1.657 1.495 15241
1.111 1.660 1.489 12596
1.124 1.680 1.497 9563
1.137 1.699 1.504 11771
1.140 1.703 1.498 13059
1.138 1.700 1.487 15896
1.136 1.698 1.477 18776
1.139 1.701 1.471 13549
1.137 1.699 1.461 8770
1.184 1.769 1.505 9159
1.182 1.767 1.495 16258
1.181 1.764 1.484 19489
1.183 1.767 1.478 17874
1.185 1.771 1.472 14705
1.187 1.774 1.466 13152
1.189 1.777 1.459 10355
1.218 1.820 1.482 10639
1.220 1.823 1.475 14335
1.230 1.837 1.477 14643
1.236 1.846 1.474 14399
1.238 1.850 1.468 12830
1.240 1.853 1.461 12326
1.242 1.856 1.455 10860
1.240 1.853 1.444 10149
1.246 1.862 1.441 8109
1.256 1.877 1.443 6704
1.258 1.880 1.436 6145
1.291 1.929 1.460 6377
1.293 1.932 1.453 6011
1.318 1.970 1.469 6084
1.321 1.973 1.463 6888
1.323 1.976 1.456 5982
1.321 1.974 1.445 5157
1.354 2.023 1.468 4652
1.391 2.079 1.494 4586
1.393 2.082 1.487 5636
1.395 2.085 1.479 4663
1.402 2.094 1.476 3713
1.412 2.109 1.475 4336
1.418 2.118 1.472 5554
1.424 2.127 1.468 7659
1.426 2.130 1.460 9821
1.428 2.133 1.453 8954
1.434 2.142 1.449 8159
1.440 2.152 1.445 6792
1.454 2.172 1.447 6383
1.456 2.175 1.440 5870
1.474 2.202 1.446 6394
1.476 2.205 1.438 6604
1.482 2.214 1.434 6806
1.500 2.241 1.439 5747
1.514 2.262 1.442 6245
1.516 2.265 1.434 6245
1.522 2.275 1.429 5117
1.532 2.290 1.427 4589
1.550 2.317 1.432 4301
1.561 2.332 1.431 5042
1.539 2.299 1.403 4301
1.537 2.296 1.392 4751
1.559 2.329 1.400 4243
1.561 2.332 1.391 4932
1.563 2.335 1.383 4932
1.569 2.344 1.378 5650
1.571 2.347 1.370 6437
1.573 2.350 1.361 3218
0.372 0.554 1.662 15642
0.375 0.558 1.660 12070
0.377 0.561 1.658 8499
0.382 0.568 1.663 9893
0.386 0.574 1.669 11495
0.388 0.578 1.666 11495
0.389 0.579 1.657 15369
0.391 0.582 1.655 19328
0.394 0.586 1.653 17843
0.396 0.590 1.651 16358
0.401 0.596 1.656 13803
0.407 0.606 1.668 11925
0.408 0.606 1.659 12422
0.410 0.610 1.656 13032
0.414 0.617 1.661 11798
0.417 0.620 1.659 9533
0.417 0.621 1.650 8392
0.422 0.628 1.655 5561
0.428 0.637 1.666 3022
0.429 0.638 1.657 3636
0.427 0.635 1.641 4533
0.430 0.639 1.638 5177
0.349 0.519 1.357 6494
0.351 0.522 1.355 8266
0.351 0.521 1.346 9645
0.353 0.524 1.344 10439
0.354 0.527 1.342 11233
0.356 0.530 1.340 11589
0.358 0.533 1.338 11945
0.360 0.536 1.336 11826
0.360 0.536 1.328 11793
0.364 0.542 1.332 11764
0.366 0.545 1.331 11732
0.368 0.547 1.329 11089
0.370 0.550 1.327 9535
0.372 0.553 1.325 8537
0.468 0.696 1.609 7772
0.470 0.699 1.607 9095
0.473 0.703 1.604 10659
0.477 0.710 1.608 11909
0.480 0.713 1.606 13473
0.484 0.720 1.610 10908
0.489 0.727 1.614 8337
0.491 0.731 1.611 8045
0.496 0.738 1.616 7313
0.398 0.592 1.324 8932
0.402 0.598 1.329 11316
0.404 0.601 1.327 13390
0.404 0.600 1.318 12805
0.408 0.607 1.322 10756
0.410 0.610 1.320 8291
0.414 0.616 1.324 7885
0.418 0.622 1.329 6876
0.430 0.640 1.353 6110
0.432 0.643 1.351 6372
0.436 0.649 1.355 7531
0.436 0.648 1.346 8497
0.438 0.651 1.344 8911
0.440 0.654 1.341 10525
0.444 0.661 1.345 12430
0.444 0.660 1.337 10740
0.446 0.663 1.334 7898
0.448 0.666 1.332 7553
0.449 0.669 1.329 5210
0.566 0.842 1.618 6403
0.568 0.845 1.615 6580
0.476 0.708 1.374 6278
0.478 0.711 1.371 6367
0.580 0.864 1.619 4267
0.588 0.875 1.629 5206
0.590 0.878 1.625 5809
0.475 0.707 1.335 7810
0.477 0.710 1.333 8791
0.595 0.885 1.610 8732
0.600 0.893 1.613 9231
0.486 0.722 1.331 8448
0.490 0.729 1.335 5205
0.546 0.812 1.458 5158
0.599 0.891 1.575 5291
0.609 0.906 1.590 5341
0.628 0.934 1.625 4854
0.630 0.937 1.621 5343
0.518 0.771 1.356 4474
0.616 0.916 1.571 4398
0.624 0.928 1.580 8252
0.626 0.931 1.577 9062
0.628 0.935 1.573 6953
0.628 0.934 1.564 6724
0.638 0.950 1.579 9477
0.638 0.949 1.569 10389
0.646 0.961 1.578 8579
0.657 0.977 1.593 7727
0.636 0.947 1.541 7161
0.647 0.963 1.556 13465
0.652 0.970 1.558 15834
0.660 0.982 1.567 8638
0.666 0.990 1.569 7929
0.665 0.989 1.560 10980
0.664 0.988 1.550 9078
0.664 0.987 1.541 7286
0.663 0.987 1.531 10974
0.665 0.990 1.528 16140
0.676 1.006 1.542 19143
0.682 1.014 1.544 23306
0.684 1.017 1.541 26515
0.686 1.021 1.537 24482
0.691 1.029 1.539 15847
0.697 1.036 1.541 14411
0.699 1.040 1.538 17531
0.704 1.047 1.540 15520
0.718 1.069 1.559 13195
0.700 1.041 1.515 9129
0.747 1.112 1.598 13322
0.750 1.115 1.594 14818
0.755 1.123 1.596 13390
0.763 1.136 1.603 11232
0.763 1.135 1.593 14282
0.765 1.138 1.589 23283
0.767 1.142 1.585 24930
0.770 1.145 1.581 18073
0.772 1.149 1.577 20336
0.774 1.152 1.573 39439
0.780 1.160 1.574 49512
0.785 1.168 1.576 40501
0.788 1.172 1.572 27079
0.790 1.175 1.567 20295
0.792 1.178 1.563 27148
0.798 1.187 1.565 29158
0.803 1.195 1.566 21789
0.805 1.198 1.562 18632
0.811 1.206 1.563 16353
0.836 1.243 1.597 23384
0.835 1.242 1.587 22401
0.837 1.245 1.582 17765
0.846 1.258 1.589 16935
0.848 1.262 1.584 14031
0.854 1.270 1.585 19990
0.853 1.269 1.575 29982
0.852 1.267 1.565 21736
0.854 1.271 1.561 18222
0.857 1.274 1.556 23471
0.859 1.278 1.552 23600
0.861 1.281 1.547 18847
0.863 1.284 1.543 14837
0.869 1.293 1.543 15180
0.871 1.296 1.539 16485
0.880 1.309 1.544 20615
0.886 1.318 1.545 23129
0.888 1.321 1.540 13936
0.900 1.339 1.551 5316
0.916 1.363 1.567 10409
0.918 1.366 1.562 18455
0.924 1.375 1.562 18422
0.933 1.388 1.567 18568
0.935 1.392 1.562 25971
0.938 1.395 1.558 26761
0.940 1.398 1.553 17697
0.942 1.402 1.548 14157
0.951 1.415 1.553 18798
0.954 1.419 1.547 19054
0.953 1.417 1.537 13057
0.962 1.431 1.542 12149
0.971 1.444 1.547 17822
0.977 1.453 1.547 22622
0.979 1.456 1.542 25444
0.981 1.460 1.536 19969
0.994 1.478 1.546 13022
0.996 1.482 1.541 12779
1.002 1.490 1.540 13907
1.008 1.499 1.540 18434
1.010 1.502 1.534 20774
1.016 1.511 1.534 24731
1.018 1.514 1.528 24861
1.020 1.518 1.523 15451
1.037 1.542 1.536 14187
1.039 1.546 1.531 15570
1.048 1.559 1.535 15513
1.051 1.563 1.529 18149
1.053 1.566 1.523 19594
1.055 1.569 1.518 15594
1.061 1.578 1.517 9360
1.070 1.592 1.520 12126
1.076 1.601 1.519 16148
1.082 1.610 1.518 19536
1.095 1.629 1.526 18123
1.108 1.649 1.534 16780
1.103 1.641 1.519 18275
1.105 1.644 1.513 18896
1.104 1.642 1.503 20492
1.106 1.646 1.497 18455
1.112 1.654 1.495 13650
1.111 1.652 1.485 11423
1.131 1.683 1.501 8065
1.141 1.697 1.504 10612
1.143 1.700 1.498 11906
1.141 1.698 1.487 15079
1.140 1.696 1.477 19222
1.142 1.699 1.471 14197
1.144 1.702 1.465 9119
1.146 1.705 1.459 9605
1.182 1.759 1.491 15065
1.184 1.762 1.484 17446
1.187 1.765 1.478 16370
1.189 1.768 1.472 14405
1.191 1.771 1.466 13516
1.193 1.775 1.459 10689
1.218 1.812 1.478 9794
1.224 1.820 1.475 12774
1.233 1.835 1.477 13251
1.239 1.844 1.474 14169
1.242 1.847 1.468 13287
1.244 1.850 1.461 12717
1.246 1.853 1.455 10878
1.244 1.851 1.444 9793
1.250 1.860 1.441 8225
1.256 1.869 1.439 7216
1.258 1.872 1.432 6930
1.295 1.926 1.460 7231
1.297 1.929 1.453 6875
1.322 1.967 1.469 7546
1.325 1.970 1.463 8848
1.327 1.974 1.456 7609
1.325 1.971 1.445 6463
1.331 1.980 1.441 5014
1.395 2.076 1.494 4574
1.398 2.079 1.487 5671
1.392 2.071 1.472 4498
1.382 2.056 1.454 4216
1.365 2.030 1.428 4459
1.426 2.121 1.475 5844
1.428 2.124 1.468 7890
1.430 2.127 1.460 9936
1.432 2.131 1.453 8955
1.434 2.134 1.445 7974
1.444 2.149 1.445 6716
1.458 2.169 1.447 6507
1.464 2.178 1.443 6171
1.478 2.199 1.446 6963
1.481 2.202 1.438 7148
1.487 2.211 1.434 7301
1.505 2.238 1.439 5787
1.519 2.259 1.442 6095
1.521 2.262 1.434 6095
1.523 2.266 1.425 4743
1.537 2.286 1.427 3799
1.559 2.319 1.436 3818
1.569 2.335 1.434 4925
1.567 2.332 1.423 3991
1.537 2.287 1.388 4146
1.567 2.332 1.403 3918
1.565 2.329 1.391 4700
1.567 2.332 1.383 4700
1.574 2.341 1.378 5589
1.576 2.344 1.370 6489
1.578 2.347 1.361 3244
0.374 0.553 1.662 15953
0.376 0.557 1.660 12274
0.379 0.560 1.658 8595
0.383 0.567 1.663 9973
0.385 0.570 1.661 11434
0.388 0.574 1.659 11434
0.390 0.578 1.657 15435
0.393 0.581 1.655 19437
0.395 0.585 1.653 18041
0.398 0.589 1.651 16645
0.402 0.595 1.656 13657
0.409 0.605 1.668 11473
0.411 0.608 1.666 11890
0.412 0.609 1.656 12418
0.416 0.616 1.661 11318
0.416 0.616 1.652 9001
0.419 0.620 1.650 7793
0.423 0.626 1.655 4929
0.430 0.636 1.666 2397
0.430 0.637 1.657 2777
0.429 0.634 1.641 3391
0.346 0.512 1.352 4446
0.350 0.518 1.357 5796
0.350 0.518 1.348 7445
0.352 0.521 1.346 8782
0.354 0.523 1.344 9674
0.443 0.656 1.627 10627
0.358 0.529 1.340 11077
0.360 0.532 1.338 11589
0.362 0.535 1.336 11550
0.361 0.535 1.328 11560
0.365 0.541 1.332 11502
0.367 0.544 1.331 11489
0.369 0.546 1.329 10993
0.371 0.549 1.327 9772
0.373 0.552 1.325 9042
0.375 0.555 1.323 7586
0.472 0.698 1.607 8414
0.474 0.702 1.604 9613
0.479 0.709 1.608 11150
0.481 0.712 1.606 12911
0.486 0.719 1.610 10531
0.491 0.726 1.614 8506
0.495 0.733 1.618 8666
0.500 0.740 1.622 7907
0.399 0.591 1.324 8891
0.404 0.597 1.329 11038
0.406 0.600 1.327 12611
0.407 0.603 1.324 11780
0.409 0.606 1.322 9614
0.414 0.612 1.327 7089
0.418 0.618 1.331 6882
0.422 0.625 1.335 6262
0.432 0.639 1.353 5771
0.529 0.783 1.608 6598
0.436 0.644 1.348 7082
0.437 0.647 1.346 8344
0.539 0.797 1.606 8353
0.543 0.804 1.610 11320
0.543 0.804 1.601 10948
0.443 0.655 1.330 9518
0.440 0.651 1.315 7237
0.449 0.665 1.332 6678
0.565 0.837 1.621 5588
0.568 0.840 1.618 6637
0.570 0.844 1.615 6361
0.477 0.706 1.374 7095
0.479 0.709 1.371 7296
0.583 0.862 1.619 5070
0.590 0.873 1.629 6266
0.593 0.877 1.625 6500
0.477 0.706 1.335 9031
0.482 0.712 1.339 9651
0.600 0.888 1.616 8412
0.602 0.891 1.613 8556
0.490 0.725 1.338 7905
0.495 0.732 1.341 5111
0.548 0.810 1.458 5416
0.504 0.746 1.349 5647
0.611 0.905 1.590 5950
0.630 0.932 1.625 5857
0.630 0.932 1.615 6252
0.629 0.931 1.605 5090
0.618 0.915 1.571 4929
0.623 0.922 1.574 7635
0.628 0.930 1.577 7681
0.631 0.933 1.573 5733
0.636 0.941 1.576 6044
0.644 0.952 1.585 9696
0.649 0.960 1.588 11207
0.657 0.972 1.597 10772
0.659 0.975 1.593 9517
0.662 0.979 1.590 8277
0.655 0.970 1.568 15036
0.658 0.973 1.564 17926
0.663 0.981 1.567 10448
0.671 0.993 1.575 9623
0.670 0.992 1.566 11965
0.673 0.995 1.562 8446
0.666 0.986 1.541 6238
0.666 0.985 1.531 9109
0.668 0.988 1.528 13198
0.679 1.005 1.542 16238
0.684 1.012 1.544 20306
0.686 1.016 1.541 24113
0.689 1.019 1.537 23122
0.739 1.093 1.627 17188
0.741 1.096 1.623 16202
0.701 1.038 1.538 16756
0.710 1.050 1.546 14588
0.721 1.067 1.559 12507
0.714 1.057 1.538 8078
0.750 1.110 1.598 11305
0.752 1.113 1.594 13507
0.758 1.121 1.596 13894
0.766 1.134 1.603 11401
0.766 1.133 1.593 12065
0.768 1.136 1.589 18229
0.773 1.144 1.591 19068
0.776 1.148 1.587 14316
0.778 1.151 1.583 19104
0.780 1.155 1.578 38634
0.783 1.158 1.574 49254
0.788 1.166 1.576 40640
0.791 1.170 1.572 26740
0.793 1.173 1.567 20570
0.795 1.176 1.563 24475
0.797 1.180 1.559 22489
0.809 1.197 1.571 15598
0.812 1.201 1.567 13999
0.817 1.209 1.568 15788
0.835 1.236 1.591 20060
0.835 1.235 1.581 22098
0.837 1.238 1.577 18274
0.846 1.251 1.583 15371
0.848 1.255 1.579 13073
0.854 1.263 1.580 18391
0.856 1.267 1.575 27306
0.855 1.265 1.565 22820
0.857 1.269 1.561 21987
0.860 1.272 1.556 24920
0.862 1.275 1.552 22983
0.864 1.279 1.547 18450
0.867 1.282 1.543 14379
0.872 1.290 1.543 14955
0.878 1.299 1.544 16481
0.883 1.307 1.544 19928
0.889 1.315 1.545 22747
0.891 1.319 1.540 14151
0.907 1.342 1.556 5401
0.919 1.360 1.567 11312
0.922 1.364 1.562 19100
0.927 1.372 1.562 18088
0.937 1.386 1.567 16786
0.935 1.384 1.557 23490
0.938 1.388 1.552 23143
0.944 1.396 1.553 13627
0.949 1.404 1.553 12727
0.955 1.413 1.553 19447
0.957 1.416 1.547 20024
0.956 1.415 1.537 14803
0.962 1.423 1.537 12825
0.974 1.442 1.547 15328
0.980 1.450 1.547 19852
0.983 1.454 1.542 23190
0.981 1.452 1.532 18396
0.998 1.476 1.546 12848
1.000 1.479 1.541 14450
1.002 1.483 1.535 16190
1.011 1.497 1.540 18925
1.014 1.500 1.534 20899
1.020 1.508 1.534 25055
1.022 1.512 1.528 24332
1.024 1.515 1.523 15064
1.037 1.534 1.532 13579
1.039 1.538 1.526 14673
1.049 1.552 1.530 15698
1.054 1.560 1.529 20703
1.057 1.564 1.523 22655
1.059 1.567 1.518 18227
1.068 1.581 1.521 11841
1.074 1.590 1.520 13732
1.080 1.598 1.519 15916
1.086 1.607 1.518 17324
1.099 1.626 1.526 16785
1.109 1.640 1.529 16741
1.107 1.638 1.519 18692
1.110 1.642 1.513 19334
1.112 1.645 1.507 19497
1.110 1.643 1.497 16452
1.116 1.652 1.495 11560
1.115 1.649 1.485 9646
1.139 1.685 1.505 6461
1.145 1.694 1.504 9514
1.147 1.697 1.498 11031
1.142 1.690 1.483 14301
1.144 1.693 1.477 18744
1.146 1.696 1.471 13937
1.152 1.705 1.469 9040
1.181 1.747 1.493 10102
1.187 1.756 1.491 13902
1.189 1.759 1.484 15245
1.191 1.762 1.478 14631
1.193 1.765 1.472 13649
1.195 1.769 1.466 13282
1.194 1.766 1.455 10589
1.222 1.809 1.478 8661
1.228 1.817 1.475 11046
1.238 1.832 1.477 11684
1.248 1.846 1.478 13499
1.250 1.850 1.472 13084
1.252 1.853 1.465 12548
1.251 1.850 1.455 10462
1.249 1.848 1.444 9110
1.255 1.857 1.441 8265
1.261 1.865 1.439 7728
1.259 1.863 1.428 7492
1.304 1.929 1.464 7680
1.306 1.932 1.457 7481
1.323 1.958 1.466 8744
1.329 1.967 1.463 10368
1.332 1.970 1.456 8858
1.330 1.968 1.445 7417
1.336 1.976 1.441 5876
1.401 2.072 1.494 4499
1.399 2.070 1.483 5685
1.385 2.050 1.461 5080
1.376 2.035 1.443 5717
1.374 2.033 1.432 5468
1.431 2.117 1.475 6024
1.433 2.121 1.468 7905
1.435 2.124 1.460 9786
1.438 2.127 1.453 8739
1.440 2.130 1.445 7693
1.446 2.139 1.441 6578
1.464 2.166 1.447 6501
1.470 2.175 1.443 6354
1.484 2.196 1.446 7269
1.486 2.199 1.438 7420
1.488 2.202 1.430 7531
1.502 2.223 1.433 5713
1.520 2.250 1.438 5716
1.522 2.253 1.430 5716
1.525 2.256 1.422 4315
1.515 2.241 1.404 3158
1.513 2.238 1.393 3673
1.583 2.343 1.441 4956
1.589 2.352 1.436 4238
1.527 2.259 1.376 3776
1.573 2.328 1.403 3657
1.575 2.331 1.394 4390
1.577 2.334 1.386 4390
1.579 2.337 1.378 5393
1.581 2.340 1.370 6397
1.583 2.343 1.361 3198
0.375 0.552 1.662 16179
0.377 0.556 1.660 12432
0.380 0.560 1.658 8685
0.384 0.566 1.663 10057
0.386 0.570 1.661 11470
0.389 0.573 1.659 11470
0.391 0.577 1.657 15481
0.394 0.581 1.655 19492
0.396 0.584 1.653 18180
0.399 0.588 1.651 16867
0.403 0.594 1.656 13491
0.411 0.607 1.675 11074
0.412 0.608 1.666 11372
0.412 0.608 1.656 11746
0.417 0.615 1.661 10821
0.417 0.616 1.652 8469
0.420 0.619 1.650 7087
0.422 0.623 1.647 4349
0.410 0.605 1.596 1860
0.413 0.609 1.594 2521
0.345 0.508 1.353 2707
0.347 0.511 1.352 3926
0.351 0.517 1.357 5113
0.351 0.517 1.348 6657
0.353 0.520 1.346 7919
0.440 0.648 1.622 9739
0.444 0.655 1.627 11476
0.359 0.529 1.340 10481
0.360 0.532 1.338 11103
0.362 0.534 1.336 11123
0.362 0.534 1.328 11160
0.366 0.540 1.332 11075
0.368 0.543 1.331 11083
0.370 0.546 1.329 10724
0.372 0.549 1.327 9857
0.374 0.552 1.325 9425
0.376 0.554 1.323 7882
0.475 0.701 1.613 7644
0.475 0.701 1.604 8475
0.480 0.708 1.608 10279
0.482 0.711 1.606 12173
0.487 0.718 1.610 10037
0.492 0.725 1.614 8626
0.497 0.732 1.618 9285
0.501 0.739 1.622 8560
0.400 0.590 1.324 8727
0.405 0.597 1.329 10588
0.406 0.599 1.327 11601
0.408 0.602 1.324 10571
0.410 0.605 1.322 8295
0.415 0.611 1.327 5865
0.419 0.618 1.331 5955
0.423 0.624 1.335 5741
0.430 0.634 1.346 5423
0.533 0.785 1.615 7435
0.533 0.785 1.605 7480
0.438 0.647 1.346 8191
0.540 0.796 1.606 9587
0.545 0.803 1.610 12810
0.545 0.803 1.601 11932
0.549 0.810 1.604 9233
0.441 0.650 1.315 6690
0.448 0.660 1.325 5810
0.569 0.840 1.628 6471
0.569 0.839 1.618 7461
0.572 0.843 1.615 6537
0.479 0.706 1.374 7657
0.481 0.709 1.371 7998
0.584 0.861 1.619 6353
0.592 0.872 1.629 7651
0.594 0.876 1.625 7505
0.478 0.705 1.335 10012
0.483 0.712 1.339 10302
0.485 0.715 1.337 8404
0.604 0.890 1.613 7854
0.491 0.724 1.338 7269
0.496 0.731 1.341 5087
0.549 0.809 1.458 5544
0.505 0.745 1.349 6548
0.613 0.904 1.590 6308
0.632 0.931 1.625 6523
0.631 0.931 1.615 7275
0.631 0.930 1.605 6434
0.625 0.922 1.583 5718
0.622 0.917 1.568 7019
0.627 0.925 1.571 6245
0.632 0.932 1.573 4472
0.646 0.952 1.595 5566
0.648 0.956 1.591 10146
0.653 0.963 1.594 12783
0.658 0.971 1.597 13112
0.661 0.974 1.593 11329
0.666 0.982 1.596 10189
0.660 0.973 1.574 17520
0.662 0.976 1.570 20902
0.667 0.984 1.573 12822
0.675 0.996 1.582 11949
0.675 0.995 1.572 13781
0.677 0.999 1.568 8348
0.665 0.980 1.535 5242
0.664 0.979 1.525 7501
0.666 0.983 1.522 10426
0.680 1.004 1.542 13326
0.689 1.016 1.550 17233
0.691 1.019 1.547 21351
0.693 1.022 1.543 21043
0.740 1.092 1.627 19791
0.743 1.095 1.623 18510
0.742 1.094 1.614 16478
0.745 1.098 1.610 14458
0.726 1.070 1.565 11878
0.716 1.056 1.538 7305
0.755 1.113 1.604 8430
0.754 1.112 1.594 11439
0.759 1.120 1.596 14331
0.765 1.128 1.597 12496
0.767 1.131 1.593 10890
0.773 1.140 1.595 13676
0.775 1.143 1.591 12765
0.777 1.146 1.587 12009
0.780 1.150 1.583 19889
0.782 1.153 1.578 37061
0.788 1.161 1.580 47174
0.790 1.165 1.576 38789
0.792 1.168 1.572 25852
0.795 1.172 1.567 20781
0.797 1.175 1.563 21521
0.799 1.179 1.559 16488
0.811 1.196 1.571 10643
0.810 1.195 1.562 10236
0.816 1.203 1.563 15867
0.828 1.221 1.575 17902
0.833 1.229 1.576 21541
