1.317 0.456 1.406 25745
1.326 0.460 1.407 22136
1.329 0.461 1.403 14998
1.333 0.462 1.399 10602
1.342 0.465 1.400 12138
1.357 0.470 1.406 17191
1.355 0.469 1.396 20961
1.358 0.471 1.392 27736
1.367 0.474 1.393 30249
1.376 0.477 1.394 22069
1.380 0.478 1.389 11429
1.389 0.481 1.390 12826
1.398 0.485 1.391 22157
1.401 0.486 1.386 22625
1.411 0.489 1.387 14278
1.420 0.492 1.388 9760
1.429 0.495 1.388 15973
1.438 0.499 1.389 21289
1.448 0.502 1.389 25197
1.445 0.501 1.380 30770
1.449 0.502 1.375 32877
1.458 0.505 1.375 30033
1.467 0.508 1.376 27949
1.465 0.508 1.366 22639
1.468 0.509 1.362 14564
1.483 0.514 1.367 14097
1.492 0.517 1.367 18760
1.496 0.518 1.362 17258
1.505 0.522 1.362 10857
1.526 0.529 1.372 9354
1.530 0.530 1.367 9147
1.533 0.531 1.362 12455
1.536 0.533 1.357 18378
1.540 0.534 1.353 17751
1.543 0.535 1.348 12889
1.571 0.544 1.361 15047
1.574 0.546 1.357 19813
1.577 0.547 1.352 16654
1.581 0.548 1.347 13245
1.596 0.553 1.351 11801
1.606 0.556 1.350 11187
1.609 0.558 1.345 11762
1.606 0.557 1.336 11397
1.609 0.558 1.331 9832
1.619 0.561 1.330 10808
1.628 0.564 1.330 13555
1.625 0.563 1.320 14654
1.629 0.564 1.315 15315
1.638 0.568 1.314 23647
1.641 0.569 1.309 31980
1.644 0.570 1.304 41208
1.654 0.573 1.303 51120
1.657 0.574 1.298 39637
1.654 0.573 1.289 27750
1.657 0.574 1.283 21215
1.654 0.573 1.274 16718
1.651 0.572 1.264 18827
1.654 0.573 1.259 18084
1.663 0.576 1.258 17165
1.672 0.580 1.257 16788
1.676 0.581 1.252 17106
1.679 0.582 1.247 15785
1.694 0.587 1.250 11535
1.710 0.593 1.253 10769
1.713 0.594 1.247 9600
1.716 0.595 1.242 7229
1.713 0.594 1.233 6177
1.748 0.606 1.247 5954
1.758 0.609 1.246 6678
1.761 0.610 1.240 6899
1.673 0.580 1.179 5918
1.896 0.657 1.308 5411
1.887 0.654 1.294 6319
1.883 0.653 1.284 7584
1.873 0.649 1.271 7872
1.641 0.569 1.126 8236
1.637 0.567 1.117 8488
1.640 0.568 1.112 7519
1.978 0.685 1.300 8569
1.981 0.686 1.294 9816
1.984 0.688 1.288 9862
1.980 0.686 1.278 10144
1.984 0.687 1.272 8642
1.987 0.689 1.266 7140
2.003 0.694 1.267 7187
2.046 0.709 1.282 7743
2.016 0.699 1.258 8291
2.019 0.700 1.251 8950
2.055 0.712 1.263 9797
2.065 0.716 1.260 11679
2.081 0.721 1.261 12426
2.098 0.727 1.261 15038
2.101 0.728 1.255 14032
2.111 0.732 1.252 13317
2.114 0.733 1.245 9901
2.117 0.734 1.239 6486
2.113 0.732 1.229 7136
2.116 0.733 1.222 7848
2.126 0.737 1.219 7879
2.135 0.740 1.215 8184
2.138 0.741 1.209 7066
2.250 0.780 1.255 6040
2.239 0.776 1.242 8359
2.236 0.775 1.231 11165
2.238 0.776 1.224 11165
2.241 0.777 1.217 12308
2.244 0.778 1.210 13452
2.247 0.779 1.203 14704
2.250 0.780 1.196 15955
2.253 0.781 1.189 14412
2.256 0.782 1.182 12869
2.259 0.783 1.175 12869
2.262 0.784 1.168 17398
0.597 0.205 1.583 10225
0.601 0.207 1.581 9676
0.605 0.208 1.579 9128
0.612 0.211 1.585 6825
0.619 0.213 1.590 4710
0.620 0.213 1.581 5987
0.624 0.215 1.579 7444
0.628 0.216 1.577 7444
0.628 0.216 1.567 9011
0.632 0.218 1.565 10485
0.640 0.220 1.571 8793
0.644 0.222 1.569 7228
0.651 0.224 1.574 6432
0.655 0.225 1.571 5706
0.662 0.228 1.576 7149
0.666 0.229 1.574 8873
0.673 0.232 1.579 9106
0.677 0.233 1.577 9567
0.678 0.233 1.568 10579
0.678 0.233 1.559 12020
0.682 0.235 1.557 11330
0.689 0.237 1.561 10770
0.690 0.237 1.552 10665
0.683 0.235 1.529 11908
0.694 0.239 1.541 15201
0.701 0.241 1.546 19485
0.705 0.243 1.543 21205
0.709 0.244 1.541 22924
0.713 0.245 1.539 23508
0.717 0.247 1.537 24091
0.721 0.248 1.534 25723
0.724 0.249 1.532 27355
0.728 0.251 1.530 26916
0.732 0.252 1.527 23803
0.736 0.253 1.525 19400
0.740 0.255 1.523 12969
0.743 0.256 1.520 8270
0.747 0.257 1.518 7503
0.751 0.259 1.516 6628
0.759 0.261 1.520 6780
0.770 0.265 1.531 7488
0.778 0.268 1.536 7541
0.778 0.268 1.526 10316
0.782 0.269 1.524 12668
0.789 0.272 1.528 14911
0.793 0.273 1.526 17775
0.797 0.274 1.523 17932
0.801 0.276 1.521 15113
0.809 0.278 1.525 10309
0.812 0.280 1.522 8053
0.816 0.281 1.520 11758
0.816 0.281 1.510 16988
0.820 0.282 1.508 18856
0.823 0.283 1.505 20155
0.831 0.286 1.509 23046
0.839 0.289 1.513 23312
0.843 0.290 1.510 21089
0.842 0.290 1.501 17880
0.846 0.291 1.499 14415
0.841 0.290 1.483 12770
0.858 0.295 1.500 19483
0.862 0.297 1.497 29498
0.870 0.299 1.501 32225
0.873 0.301 1.498 31332
0.877 0.302 1.495 28142
0.881 0.303 1.492 19462
0.893 0.307 1.503 10817
0.897 0.309 1.500 9048
0.901 0.310 1.497 11139
0.900 0.310 1.488 13184
0.908 0.313 1.491 18363
0.916 0.315 1.495 25425
0.924 0.318 1.498 25902
0.933 0.321 1.502 21504
0.936 0.322 1.499 19503
0.940 0.324 1.496 20215
0.939 0.323 1.486 17422
0.956 0.329 1.502 15154
0.969 0.334 1.512 20024
0.973 0.335 1.509 28050
0.977 0.336 1.506 32987
0.985 0.339 1.509 28102
0.989 0.340 1.506 21219
0.993 0.342 1.503 14217
0.996 0.343 1.500 10989
0.995 0.343 1.490 10504
0.994 0.342 1.481 9676
0.998 0.344 1.478 12228
1.002 0.345 1.475 17579
1.005 0.346 1.472 22953
1.014 0.349 1.474 28956
1.018 0.350 1.471 32990
1.021 0.352 1.468 35020
1.030 0.354 1.471 33235
1.033 0.356 1.468 22679
1.037 0.357 1.464 15660
1.041 0.358 1.461 20777
1.049 0.361 1.464 24151
1.053 0.362 1.461 20265
1.056 0.364 1.457 17469
1.065 0.367 1.460 15509
1.068 0.368 1.457 16740
1.067 0.367 1.447 18450
1.071 0.369 1.444 15874
1.084 0.373 1.452 12257
1.098 0.378 1.461 10293
1.101 0.379 1.457 16579
1.100 0.379 1.448 23882
1.104 0.380 1.444 25661
1.117 0.385 1.453 21845
1.121 0.386 1.449 16287
1.130 0.389 1.451 14172
1.143 0.394 1.459 17634
1.152 0.397 1.461 21808
1.151 0.396 1.452 29826
1.154 0.397 1.448 32002
1.163 0.400 1.451 27865
1.167 0.402 1.447 32977
1.170 0.403 1.443 36131
1.174 0.404 1.440 32816
1.183 0.407 1.441 26337
1.186 0.408 1.438 20667
1.190 0.410 1.434 18979
1.188 0.409 1.425 17714
1.191 0.410 1.421 18353
1.195 0.411 1.417 23204
1.198 0.413 1.413 33325
1.207 0.416 1.415 34309
1.211 0.417 1.411 26253
1.214 0.418 1.408 27714
1.218 0.419 1.404 31304
1.221 0.420 1.400 27146
1.230 0.423 1.402 23047
1.239 0.426 1.403 23020
1.248 0.430 1.405 26235
1.251 0.431 1.401 22681
1.271 0.438 1.413 16248
1.269 0.437 1.404 12654
1.289 0.444 1.416 10746
1.287 0.443 1.406 15201
1.291 0.444 1.402 16581
1.289 0.444 1.393 14107
1.309 0.451 1.405 17347
1.318 0.454 1.406 21602
1.327 0.457 1.407 18550
1.325 0.456 1.398 12171
1.328 0.457 1.393 7208
1.343 0.462 1.400 8977
1.358 0.467 1.406 14028
1.361 0.469 1.402 18255
1.359 0.468 1.392 25232
1.368 0.471 1.393 28465
1.372 0.472 1.389 22380
1.375 0.473 1.384 11547
1.396 0.480 1.395 10899
1.399 0.482 1.391 21261
1.402 0.483 1.386 23741
1.412 0.486 1.387 16123
1.415 0.487 1.383 9479
1.430 0.492 1.388 15020
1.439 0.495 1.389 23363
1.449 0.499 1.389 27943
1.452 0.500 1.385 32914
1.450 0.499 1.375 34761
1.459 0.502 1.375 32352
1.462 0.503 1.371 30252
1.466 0.504 1.366 24236
1.469 0.506 1.362 16454
1.484 0.511 1.367 16756
1.494 0.514 1.367 19771
1.497 0.515 1.362 18777
1.500 0.516 1.358 12496
1.522 0.524 1.367 8483
1.531 0.527 1.367 8006
1.534 0.528 1.362 9652
1.538 0.529 1.357 13486
1.541 0.530 1.353 13234
1.544 0.532 1.348 8789
1.578 0.543 1.366 11384
1.575 0.542 1.357 16754
1.579 0.543 1.352 14981
1.582 0.544 1.347 12376
1.597 0.550 1.351 11221
1.607 0.553 1.350 10291
1.610 0.554 1.345 10593
1.607 0.553 1.336 10744
1.611 0.554 1.331 9856
1.620 0.558 1.330 10770
1.623 0.559 1.325 13072
1.626 0.560 1.320 14077
1.630 0.561 1.315 15116
1.639 0.564 1.314 24078
1.642 0.565 1.309 32820
1.646 0.566 1.304 42018
1.649 0.568 1.299 51813
1.652 0.569 1.294 40450
1.649 0.568 1.284 28981
1.652 0.569 1.279 22982
1.655 0.570 1.274 18816
1.652 0.569 1.264 21056
1.655 0.570 1.259 20744
1.664 0.573 1.258 20713
1.674 0.576 1.257 21403
1.677 0.577 1.252 21860
1.680 0.578 1.247 19400
1.689 0.581 1.246 12661
1.711 0.589 1.253 10356
1.714 0.590 1.247 9179
1.718 0.591 1.242 7507
1.682 0.579 1.212 7700
1.678 0.578 1.203 7602
1.675 0.576 1.194 7261
1.678 0.577 1.189 8133
1.674 0.576 1.179 7705
1.677 0.577 1.174 6612
1.888 0.650 1.294 6276
1.885 0.649 1.284 7330
1.881 0.648 1.275 7536
1.642 0.565 1.126 8234
1.638 0.564 1.117 8580
1.641 0.565 1.112 7627
1.972 0.679 1.296 8062
1.982 0.682 1.294 8892
1.985 0.683 1.288 9028
1.982 0.682 1.278 9337
1.985 0.683 1.272 7933
1.995 0.687 1.269 6691
2.038 0.701 1.285 7335
2.047 0.705 1.282 8795
2.044 0.704 1.272 8247
2.020 0.695 1.251 8092
2.057 0.708 1.263 9314
2.060 0.709 1.257 11014
2.090 0.719 1.264 12503
2.099 0.723 1.261 15501
2.102 0.724 1.255 14148
2.112 0.727 1.252 12836
2.115 0.728 1.245 8896
2.125 0.731 1.242 4974
2.121 0.730 1.232 5342
2.117 0.729 1.222 5879
2.127 0.732 1.219 6208
2.137 0.736 1.215 6842
2.147 0.739 1.212 6229
2.238 0.770 1.249 6970
2.234 0.769 1.238 10045
2.237 0.770 1.231 13189
2.240 0.771 1.224 13189
2.243 0.772 1.217 13895
2.246 0.773 1.210 14601
2.249 0.774 1.203 15992
2.252 0.775 1.196 17383
2.255 0.776 1.189 15760
2.258 0.777 1.182 14137
2.260 0.778 1.175 14137
2.263 0.779 1.168 19128
0.597 0.204 1.583 10454
0.601 0.205 1.581 9933
0.605 0.207 1.579 9412
0.612 0.209 1.585 7031
0.620 0.212 1.590 4782
0.620 0.212 1.581 6037
0.624 0.213 1.579 7373
0.628 0.215 1.577 7373
0.629 0.215 1.567 8920
0.633 0.216 1.565 10360
0.640 0.219 1.571 8646
0.644 0.220 1.569 7037
0.651 0.222 1.574 6382
0.655 0.224 1.571 5748
0.663 0.226 1.576 7033
0.666 0.228 1.574 8531
0.674 0.230 1.579 8381
0.681 0.233 1.584 8434
0.678 0.232 1.568 9677
0.679 0.232 1.559 11355
0.683 0.233 1.557 11078
0.690 0.236 1.561 10853
0.690 0.236 1.552 10322
0.684 0.233 1.529 11054
0.695 0.237 1.541 13963
0.702 0.240 1.546 17990
0.706 0.241 1.543 19920
0.710 0.242 1.541 21850
0.714 0.244 1.539 22361
0.717 0.245 1.537 22871
0.721 0.246 1.534 24784
0.725 0.248 1.532 26697
0.729 0.249 1.530 26724
0.733 0.250 1.527 24129
0.736 0.252 1.525 19821
0.740 0.253 1.523 13442
0.744 0.254 1.520 8746
0.748 0.255 1.518 7749
0.752 0.257 1.516 6620
0.759 0.259 1.520 6879
0.771 0.263 1.531 7613
0.779 0.266 1.536 7715
0.778 0.266 1.526 9889
0.782 0.267 1.524 11772
0.790 0.270 1.528 13957
0.794 0.271 1.526 17277
0.798 0.272 1.523 18136
0.801 0.274 1.521 15772
0.809 0.276 1.525 10827
0.809 0.276 1.515 8100
0.817 0.279 1.520 11527
0.817 0.279 1.510 17000
0.820 0.280 1.508 19243
0.824 0.281 1.505 20771
0.832 0.284 1.509 23740
0.840 0.287 1.513 23781
0.844 0.288 1.510 21458
0.843 0.288 1.501 17700
0.847 0.289 1.499 13998
0.842 0.288 1.483 12558
0.859 0.293 1.500 18416
0.862 0.295 1.497 27488
0.866 0.296 1.494 29680
0.870 0.297 1.492 28664
0.878 0.300 1.495 26038
0.881 0.301 1.492 18799
0.894 0.305 1.503 11693
0.893 0.305 1.493 8677
0.897 0.306 1.491 8827
0.901 0.308 1.488 11446
0.904 0.309 1.485 18136
0.917 0.313 1.495 26419
0.925 0.316 1.498 26363
0.933 0.319 1.502 21276
0.937 0.320 1.499 19236
0.941 0.321 1.496 20764
0.940 0.321 1.486 19128
0.957 0.327 1.502 16086
0.970 0.331 1.512 19943
0.974 0.333 1.509 27855
0.978 0.334 1.506 32326
0.986 0.337 1.509 26272
0.990 0.338 1.506 19391
0.993 0.339 1.503 13325
0.997 0.341 1.500 10307
0.996 0.340 1.490 10007
0.995 0.340 1.481 10632
1.004 0.343 1.484 15455
1.003 0.342 1.475 22419
1.006 0.344 1.472 27519
1.015 0.347 1.474 31378
1.014 0.346 1.465 33878
1.022 0.349 1.468 35261
1.030 0.352 1.471 34426
1.029 0.352 1.462 25567
1.033 0.353 1.458 16749
1.041 0.356 1.461 18879
1.045 0.357 1.458 22057
1.054 0.360 1.461 19256
1.057 0.361 1.457 16886
1.066 0.364 1.460 15722
1.069 0.365 1.457 17585
1.068 0.365 1.447 21609
1.077 0.368 1.450 20421
1.085 0.371 1.452 13949
1.099 0.375 1.461 11375
1.102 0.376 1.457 17312
1.101 0.376 1.448 23371
1.110 0.379 1.450 23955
1.118 0.382 1.453 20963
1.122 0.383 1.449 18429
1.131 0.386 1.451 17359
1.144 0.391 1.459 21464
1.153 0.394 1.461 24913
1.152 0.393 1.452 32009
1.155 0.395 1.448 33432
1.164 0.398 1.451 27643
1.168 0.399 1.447 31507
1.171 0.400 1.443 31735
1.180 0.403 1.445 27463
1.184 0.404 1.441 26920
1.187 0.405 1.438 25971
1.191 0.407 1.434 23851
1.189 0.406 1.425 19851
1.192 0.407 1.421 19610
1.196 0.408 1.417 26382
1.199 0.410 1.413 36167
1.208 0.413 1.415 37178
1.212 0.414 1.411 31175
1.215 0.415 1.408 34432
1.224 0.418 1.409 37506
1.222 0.417 1.400 29484
1.231 0.420 1.402 20793
1.240 0.424 1.403 20479
1.243 0.425 1.399 23241
1.252 0.428 1.401 22413
1.267 0.433 1.408 17374
1.265 0.432 1.398 9654
1.285 0.439 1.410 7847
1.288 0.440 1.406 12799
1.292 0.441 1.402 14789
1.295 0.442 1.398 13266
1.310 0.447 1.405 15432
1.319 0.450 1.406 17814
1.322 0.452 1.402 15602
1.315 0.449 1.387 11188
1.324 0.452 1.388 5839
1.338 0.457 1.394 6263
1.359 0.464 1.406 10636
1.362 0.465 1.402 15245
1.360 0.465 1.392 22461
1.369 0.468 1.393 26766
1.373 0.469 1.389 23768
1.376 0.470 1.384 13916
1.397 0.477 1.395 10686
1.400 0.478 1.391 19800
1.404 0.479 1.386 23843
1.413 0.483 1.387 17396
1.416 0.484 1.383 10162
1.431 0.489 1.388 14968
1.441 0.492 1.389 25160
1.450 0.495 1.389 29635
1.453 0.496 1.385 33639
1.457 0.498 1.380 34834
1.460 0.499 1.375 33239
1.463 0.500 1.371 31748
1.467 0.501 1.366 25178
1.476 0.504 1.367 17740
1.485 0.507 1.367 19040
1.489 0.508 1.362 20699
1.498 0.512 1.362 20002
1.501 0.513 1.358 14584
1.517 0.518 1.362 9332
1.526 0.521 1.362 8483
1.529 0.522 1.358 8384
1.539 0.526 1.357 9485
1.542 0.527 1.353 9017
1.570 0.536 1.366 6070
1.579 0.539 1.366 8636
1.576 0.538 1.357 13789
1.580 0.540 1.352 13025
1.583 0.541 1.347 11144
1.599 0.546 1.351 10304
1.608 0.549 1.350 9446
1.611 0.550 1.345 9920
1.609 0.549 1.336 10310
1.612 0.551 1.331 9299
1.615 0.552 1.326 9820
1.625 0.555 1.325 11513
1.628 0.556 1.320 12508
1.631 0.557 1.315 14485
1.640 0.560 1.314 24389
1.644 0.561 1.309 33569
1.647 0.562 1.304 42530
1.650 0.564 1.299 52467
1.647 0.563 1.289 42146
1.644 0.561 1.280 32860
1.647 0.562 1.275 27120
1.650 0.564 1.270 21993
1.653 0.565 1.264 23189
1.656 0.566 1.259 23191
1.666 0.569 1.258 24042
1.675 0.572 1.257 25947
1.678 0.573 1.252 26696
1.681 0.574 1.247 23128
1.691 0.577 1.246 13912
1.706 0.583 1.249 10154
1.716 0.586 1.247 8910
1.706 0.583 1.234 8307
1.683 0.575 1.212 9650
1.680 0.574 1.203 9326
1.676 0.572 1.194 8668
1.679 0.573 1.189 9759
1.675 0.572 1.179 9421
1.678 0.573 1.174 8256
1.896 0.648 1.298 6182
1.893 0.646 1.288 7031
1.889 0.645 1.278 7126
1.644 0.561 1.126 7700
1.640 0.560 1.117 8158
1.642 0.561 1.112 7314
1.967 0.672 1.293 7924
1.984 0.678 1.294 8187
1.987 0.679 1.288 8350
1.983 0.677 1.278 8611
1.993 0.681 1.275 7524
2.029 0.693 1.288 7007
2.039 0.696 1.285 8282
2.042 0.698 1.279 9692
2.045 0.699 1.272 8462
2.022 0.691 1.251 7260
2.058 0.703 1.263 8719
2.061 0.704 1.257 10293
2.091 0.714 1.264 12553
2.101 0.718 1.261 15720
2.104 0.719 1.255 14086
2.107 0.720 1.248 12451
2.117 0.723 1.245 8233
2.127 0.726 1.242 4255
2.123 0.725 1.232 4270
2.119 0.724 1.222 4396
2.142 0.732 1.226 5123
2.152 0.735 1.222 6302
2.169 0.741 1.222 6299
2.226 0.760 1.242 8349
2.229 0.761 1.235 11644
2.232 0.762 1.228 14939
2.235 0.763 1.221 14939
2.245 0.767 1.217 15126
2.248 0.768 1.210 15426
2.251 0.769 1.203 16932
2.254 0.770 1.196 18438
2.257 0.771 1.189 16768
2.259 0.772 1.182 15099
2.262 0.773 1.175 15099
2.265 0.774 1.168 20358
0.598 0.203 1.583 10876
0.602 0.204 1.581 10292
0.606 0.206 1.579 9709
0.613 0.208 1.585 7274
0.617 0.209 1.583 4895
0.621 0.211 1.581 6066
0.625 0.212 1.579 7237
0.629 0.214 1.577 7237
0.629 0.214 1.567 8712
0.633 0.215 1.565 10064
0.641 0.218 1.571 8301
0.648 0.220 1.576 6689
0.652 0.221 1.574 6352
0.656 0.223 1.571 6016
0.663 0.225 1.576 7168
0.667 0.226 1.574 8458
0.671 0.228 1.572 7782
0.682 0.231 1.584 7440
0.679 0.230 1.568 8840
0.679 0.231 1.559 10724
0.683 0.232 1.557 10829
0.690 0.234 1.561 10936
0.691 0.235 1.552 9826
0.680 0.231 1.522 9846
0.699 0.237 1.548 12363
0.702 0.239 1.546 16007
0.706 0.240 1.543 18371
0.710 0.241 1.541 20735
0.714 0.242 1.539 21423
0.718 0.244 1.537 22110
0.722 0.245 1.534 24085
0.725 0.246 1.532 26059
0.729 0.248 1.530 26363
0.733 0.249 1.527 24163
0.737 0.250 1.525 20048
0.741 0.252 1.523 13813
0.745 0.253 1.520 9188
0.748 0.254 1.518 7954
0.748 0.254 1.509 6586
0.760 0.258 1.520 6976
0.771 0.262 1.531 7839
0.779 0.265 1.536 8086
0.783 0.266 1.533 9631
0.787 0.267 1.531 10987
0.790 0.268 1.528 12983
0.794 0.270 1.526 16703
0.798 0.271 1.523 18239
0.802 0.272 1.521 16286
0.810 0.275 1.525 11321
0.809 0.275 1.515 8273
0.817 0.278 1.520 11220
0.817 0.277 1.510 16654
0.821 0.279 1.508 19191
0.825 0.280 1.505 20979
0.832 0.283 1.509 24053
0.840 0.285 1.513 23885
0.844 0.287 1.510 21476
0.848 0.288 1.508 17449
0.847 0.288 1.499 13811
0.843 0.286 1.483 12704
0.855 0.290 1.493 17861
0.863 0.293 1.497 25904
0.867 0.294 1.494 27291
0.870 0.296 1.492 25899
0.878 0.298 1.495 23730
0.886 0.301 1.499 17924
0.890 0.302 1.496 12865
0.894 0.304 1.493 9239
0.897 0.305 1.491 7607
0.897 0.305 1.481 10239
0.905 0.307 1.485 17744
0.917 0.312 1.495 26682
0.926 0.314 1.498 26210
0.934 0.317 1.502 20490
0.933 0.317 1.492 18407
0.937 0.318 1.489 21024
0.940 0.319 1.486 20780
0.953 0.324 1.496 17527
0.971 0.330 1.512 19458
0.974 0.331 1.509 27070
0.978 0.332 1.506 31591
0.987 0.335 1.509 24244
0.990 0.336 1.506 16831
0.994 0.338 1.503 12001
0.998 0.339 1.500 10109
0.997 0.339 1.490 10194
0.996 0.338 1.481 11605
1.004 0.341 1.484 18048
1.008 0.342 1.481 26651
1.012 0.344 1.478 31950
1.015 0.345 1.474 34330
1.014 0.344 1.465 35262
1.023 0.347 1.468 35657
1.026 0.349 1.465 35636
1.030 0.350 1.462 28852
1.029 0.349 1.452 19449
1.037 0.352 1.455 17984
1.046 0.355 1.458 20249
1.054 0.358 1.461 18138
1.058 0.359 1.457 15878
1.066 0.362 1.460 15736
1.070 0.363 1.457 18659
1.069 0.363 1.447 23620
1.077 0.366 1.450 23023
1.086 0.369 1.452 15070
1.099 0.373 1.461 12425
1.103 0.375 1.457 17781
1.102 0.374 1.448 22530
1.105 0.375 1.444 21812
1.119 0.380 1.453 19194
1.123 0.381 1.449 19628
1.126 0.382 1.446 19446
1.145 0.389 1.459 23838
1.154 0.392 1.461 27305
1.152 0.391 1.452 33199
1.156 0.393 1.448 33411
1.159 0.394 1.445 25917
1.168 0.397 1.447 28079
1.177 0.400 1.449 26694
1.181 0.401 1.445 23702
1.179 0.400 1.436 28311
1.188 0.403 1.438 30574
1.191 0.405 1.434 27871
1.190 0.404 1.425 21795
1.193 0.405 1.421 19967
1.197 0.406 1.417 27576
1.200 0.408 1.413 37589
1.209 0.411 1.415 38871
1.213 0.412 1.411 34914
1.216 0.413 1.408 39598
1.225 0.416 1.409 42381
1.223 0.415 1.400 30572
1.237 0.420 1.407 18171
1.246 0.423 1.409 18182
1.239 0.421 1.394 21134
1.253 0.426 1.401 21961
1.268 0.430 1.408 19598
1.266 0.430 1.398 8614
1.297 0.440 1.421 7323
1.289 0.438 1.406 11392
1.293 0.439 1.402 13433
1.302 0.442 1.404 13360
1.311 0.445 1.405 14378
1.320 0.448 1.406 14518
1.318 0.447 1.396 12576
1.321 0.449 1.392 11190
1.324 0.450 1.388 6701
1.334 0.453 1.389 4553
1.360 0.462 1.406 7704
1.357 0.461 1.396 13000
1.361 0.462 1.392 20018
1.370 0.465 1.393 25108
1.373 0.466 1.389 25294
1.383 0.470 1.389 16745
1.398 0.475 1.395 11748
1.401 0.476 1.391 18656
1.404 0.477 1.386 23712
1.414 0.480 1.387 18817
1.411 0.479 1.378 12475
1.426 0.484 1.383 16633
1.436 0.488 1.384 26848
1.451 0.493 1.389 30193
1.454 0.494 1.385 32778
1.458 0.495 1.380 33646
1.461 0.496 1.375 33206
1.464 0.497 1.371 32748
1.462 0.496 1.361 25925
1.477 0.502 1.367 18997
1.486 0.505 1.367 20904
1.490 0.506 1.362 21504
1.499 0.509 1.362 20948
1.502 0.510 1.358 16629
1.512 0.513 1.358 11061
1.521 0.517 1.358 10024
1.518 0.516 1.348 8815
1.534 0.521 1.353 7447
1.549 0.526 1.357 6604
1.565 0.531 1.362 6893
1.568 0.532 1.357 8683
1.571 0.534 1.352 11774
1.575 0.535 1.347 11143
1.584 0.538 1.347 9691
1.600 0.543 1.351 9379
1.615 0.549 1.355 9024
1.612 0.548 1.345 9721
1.610 0.547 1.336 9890
1.607 0.546 1.326 8347
1.616 0.549 1.326 8149
1.632 0.554 1.330 9109
1.629 0.553 1.320 10218
1.632 0.554 1.315 13730
1.635 0.555 1.310 25074
1.645 0.559 1.309 34550
1.642 0.558 1.300 43334
1.645 0.559 1.295 52946
1.648 0.560 1.289 45385
1.645 0.559 1.280 38424
1.648 0.560 1.275 32453
1.651 0.561 1.270 25384
1.654 0.562 1.264 25188
1.657 0.563 1.259 25338
1.667 0.566 1.258 26938
1.676 0.569 1.257 30063
1.679 0.570 1.252 31194
1.682 0.571 1.247 26669
1.685 0.572 1.242 15263
1.707 0.580 1.249 10043
1.710 0.581 1.243 8874
1.701 0.578 1.230 9138
1.684 0.572 1.212 11322
1.681 0.571 1.203 10837
1.677 0.570 1.194 9949
1.680 0.571 1.189 11203
1.676 0.569 1.179 10960
1.679 0.570 1.174 9774
1.676 0.569 1.165 6786
1.900 0.645 1.292 6995
1.904 0.646 1.286 7097
1.645 0.559 1.126 6842
1.647 0.559 1.121 7473
1.946 0.661 1.287 7552
1.962 0.666 1.289 8385
1.978 0.672 1.290 7911
1.982 0.673 1.284 7968
1.985 0.674 1.278 8025
1.663 0.565 1.090 7992
2.031 0.690 1.288 7773
2.040 0.693 1.285 8958
2.044 0.694 1.279 10305
2.047 0.695 1.272 8548
2.050 0.696 1.266 6792
2.060 0.699 1.263 8126
2.063 0.700 1.257 9585
2.093 0.711 1.264 12530
2.102 0.714 1.261 15740
2.105 0.715 1.255 13888
2.102 0.714 1.245 12049
2.105 0.715 1.238 8123
2.101 0.713 1.228 4350
2.131 0.724 1.235 3956
2.148 0.729 1.236 3829
2.157 0.733 1.232 5200
2.167 0.736 1.229 6765
2.184 0.742 1.229 7397
2.221 0.754 1.239 9844
2.230 0.757 1.235 13007
2.233 0.759 1.228 16202
2.236 0.760 1.221 16202
2.246 0.763 1.217 15795
2.249 0.764 1.210 15709
2.252 0.765 1.203 17359
2.255 0.766 1.196 19009
2.258 0.767 1.189 17359
2.261 0.768 1.182 15708
2.264 0.769 1.175 15708
2.266 0.770 1.168 21114
0.598 0.201 1.583 11334
0.602 0.203 1.581 10709
0.606 0.204 1.579 10084
0.613 0.206 1.585 7578
0.617 0.208 1.583 5140
0.621 0.209 1.581 6030
0.625 0.210 1.579 6921
0.629 0.212 1.577 6921
0.630 0.212 1.567 8210
0.634 0.213 1.565 9392
0.641 0.216 1.571 7700
0.648 0.218 1.576 6178
0.652 0.219 1.574 6345
0.656 0.221 1.571 6513
0.664 0.223 1.576 7606
0.668 0.225 1.574 8722
0.671 0.226 1.572 7458
0.686 0.231 1.591 6326
0.679 0.229 1.568 8094
0.680 0.229 1.559 10155
0.684 0.230 1.557 10662
0.688 0.231 1.554 11168
0.691 0.233 1.552 9529
0.681 0.229 1.522 8666
0.699 0.235 1.548 10693
0.703 0.237 1.546 13497
0.707 0.238 1.543 16162
0.711 0.239 1.541 18828
0.715 0.240 1.539 19917
0.719 0.242 1.537 21006
0.722 0.243 1.534 23393
0.726 0.244 1.532 25780
0.730 0.246 1.530 26301
0.734 0.247 1.527 24454
0.738 0.248 1.525 20531
0.741 0.249 1.523 14416
0.745 0.251 1.520 9855
0.749 0.252 1.518 8412
0.749 0.252 1.509 6857
0.760 0.256 1.520 7259
0.772 0.260 1.531 8178
0.780 0.262 1.536 8499
0.784 0.264 1.533 9551
0.787 0.265 1.531 10412
0.795 0.267 1.535 12132
0.795 0.267 1.526 16159
0.799 0.269 1.523 18405
0.803 0.270 1.521 16847
0.806 0.271 1.518 12005
0.810 0.273 1.515 8719
0.814 0.274 1.513 11067
0.818 0.275 1.510 16103
0.822 0.276 1.508 18792
0.825 0.278 1.505 20767
0.833 0.280 1.509 23972
0.841 0.283 1.513 23700
0.845 0.284 1.510 21408
0.849 0.285 1.508 17672
0.848 0.285 1.499 14178
0.843 0.284 1.483 13221
0.856 0.288 1.493 17527
0.864 0.291 1.497 24017
0.867 0.292 1.494 24481
0.871 0.293 1.492 22623
0.879 0.296 1.495 20913
0.887 0.298 1.499 17070
0.891 0.300 1.496 14462
0.890 0.299 1.487 11213
0.885 0.298 1.471 8537
0.898 0.302 1.481 10273
0.906 0.305 1.485 17327
0.914 0.307 1.488 27025
0.922 0.310 1.492 26595
0.930 0.313 1.495 19973
0.934 0.314 1.492 17494
0.938 0.315 1.489 20985
0.941 0.317 1.486 22117
0.950 0.319 1.490 19107
0.967 0.325 1.506 18778
0.975 0.328 1.509 25728
0.975 0.328 1.500 30420
0.983 0.331 1.503 22265
0.996 0.335 1.512 13883
1.000 0.336 1.509 10268
0.999 0.336 1.500 9606
0.998 0.336 1.490 10297
0.997 0.335 1.481 12945
1.005 0.338 1.484 20506
1.009 0.339 1.481 29970
1.013 0.341 1.478 35562
1.016 0.342 1.474 37269
1.015 0.341 1.465 37269
1.024 0.344 1.468 36677
1.027 0.346 1.465 37180
1.031 0.347 1.462 32756
1.035 0.348 1.458 23509
1.038 0.349 1.455 18002
1.047 0.352 1.458 17340
1.055 0.355 1.461 15814
1.054 0.355 1.451 14531
1.062 0.357 1.454 15911
1.066 0.359 1.451 19139
1.075 0.361 1.453 24269
1.083 0.364 1.456 24006
1.092 0.367 1.458 15697
1.105 0.372 1.467 13291
1.104 0.371 1.457 17754
1.108 0.373 1.454 21652
1.111 0.374 1.450 20414
1.120 0.377 1.453 18354
1.118 0.376 1.443 20547
1.127 0.379 1.446 20567
1.146 0.386 1.459 24443
1.155 0.389 1.461 28121
1.153 0.388 1.452 33368
1.157 0.389 1.448 32510
1.166 0.392 1.451 25234
1.169 0.393 1.447 26680
1.178 0.396 1.449 22060
1.177 0.396 1.440 19588
1.180 0.397 1.436 28974
1.189 0.400 1.438 33424
1.193 0.401 1.434 31603
1.191 0.401 1.425 23428
1.194 0.402 1.421 19432
1.198 0.403 1.417 28938
1.201 0.404 1.413 39022
1.210 0.407 1.415 39171
1.214 0.408 1.411 36989
1.217 0.409 1.408 42917
1.226 0.412 1.409 45749
1.230 0.414 1.405 31099
1.244 0.418 1.413 16662
1.253 0.421 1.414 17245
1.240 0.417 1.394 19259
1.265 0.426 1.412 23430
1.274 0.429 1.413 25139
1.278 0.430 1.409 11049
1.298 0.437 1.421 10359
1.296 0.436 1.412 11841
1.299 0.437 1.408 13239
1.308 0.440 1.409 14546
1.312 0.441 1.405 14367
1.321 0.444 1.406 12628
1.319 0.444 1.396 10526
1.322 0.445 1.392 11196
1.326 0.446 1.388 8033
1.329 0.447 1.384 4151
1.367 0.460 1.411 5719
1.359 0.457 1.396 11448
1.362 0.458 1.392 17338
1.371 0.461 1.393 23140
1.375 0.462 1.389 27066
1.384 0.466 1.389 20814
1.399 0.471 1.395 13764
1.402 0.472 1.391 17454
1.412 0.475 1.392 23248
1.415 0.476 1.387 20244
1.413 0.475 1.378 16039
1.428 0.480 1.383 19822
1.437 0.483 1.384 28755
1.452 0.488 1.389 29932
1.456 0.490 1.385 30373
1.459 0.491 1.380 30921
1.462 0.492 1.375 32782
1.466 0.493 1.371 34056
1.463 0.492 1.361 27033
1.478 0.497 1.367 20239
1.488 0.500 1.367 22185
1.491 0.502 1.362 21474
1.500 0.505 1.362 21221
1.504 0.506 1.358 18379
1.507 0.507 1.353 12877
1.516 0.510 1.353 11908
1.514 0.509 1.343 10747
1.523 0.512 1.343 7516
1.551 0.522 1.357 8007
1.560 0.525 1.357 10528
1.557 0.524 1.348 11715
1.567 0.527 1.347 11463
1.576 0.530 1.347 9418
1.586 0.533 1.347 7981
1.607 0.541 1.355 8433
1.617 0.544 1.355 8813
1.614 0.543 1.345 9719
1.611 0.542 1.336 9393
1.608 0.541 1.326 6978
1.611 0.542 1.321 5906
1.633 0.549 1.330 5686
1.630 0.548 1.320 7336
1.627 0.547 1.311 13320
1.637 0.551 1.310 26715
1.640 0.552 1.305 36675
1.643 0.553 1.300 44874
1.646 0.554 1.295 54157
1.650 0.555 1.289 48952
1.646 0.554 1.280 44669
1.650 0.555 1.275 38158
1.653 0.556 1.270 28774
1.656 0.557 1.264 27046
1.659 0.558 1.259 27223
1.668 0.561 1.258 29546
1.678 0.564 1.257 33965
1.681 0.565 1.252 35572
1.684 0.566 1.247 30143
1.687 0.567 1.242 16607
1.709 0.575 1.249 10031
1.712 0.576 1.243 8894
1.696 0.570 1.226 10027
1.686 0.567 1.212 12771
1.682 0.566 1.203 12227
1.679 0.565 1.194 11219
1.682 0.566 1.189 12541
1.678 0.564 1.179 12341
1.681 0.565 1.174 11173
1.677 0.564 1.165 7951
1.909 0.642 1.296 7479
1.918 0.645 1.294 7801
1.928 0.649 1.292 7749
1.931 0.650 1.286 7728
1.948 0.655 1.287 8664
1.964 0.661 1.289 9417
1.967 0.662 1.283 8511
1.977 0.665 1.280 7898
1.993 0.671 1.282 7539
2.010 0.676 1.283 7259
2.033 0.684 1.288 8343
2.042 0.687 1.285 9400
2.046 0.688 1.279 10638
2.049 0.689 1.272 8545
2.052 0.690 1.266 6452
2.102 0.707 1.285 7654
2.098 0.706 1.274 9570
2.101 0.707 1.268 12634
2.104 0.708 1.261 15698
2.107 0.709 1.255 13671
2.104 0.708 1.245 11789
2.107 0.709 1.238 8319
2.103 0.707 1.228 4913
2.133 0.718 1.235 4091
2.156 0.725 1.239 4040
2.173 0.731 1.239 5772
2.176 0.732 1.232 7766
2.193 0.738 1.232 8923
2.223 0.748 1.239 11462
2.226 0.749 1.232 14268
2.236 0.752 1.228 17203
2.239 0.753 1.221 17203
2.248 0.756 1.217 16178
2.251 0.757 1.210 15701
2.254 0.758 1.203 17419
2.257 0.759 1.196 19138
2.260 0.760 1.189 17568
2.263 0.761 1.182 15999
2.266 0.762 1.175 15999
2.269 0.763 1.168 21365
0.599 0.200 1.583 11762
0.603 0.201 1.581 11093
0.607 0.202 1.579 10424
0.614 0.205 1.585 7880
0.618 0.206 1.583 5412
0.622 0.207 1.581 5905
0.626 0.208 1.579 6398
0.627 0.209 1.569 6408
0.631 0.210 1.567 7440
0.638 0.212 1.573 8408
0.642 0.214 1.571 6894
0.649 0.216 1.576 5563
0.653 0.217 1.574 6347
0.660 0.220 1.579 7154
0.664 0.221 1.576 8157
0.668 0.223 1.574 9116
0.672 0.224 1.572 7424
0.676 0.225 1.570 5775
0.677 0.225 1.561 7647
0.680 0.227 1.559 9690
0.684 0.228 1.557 10576
0.688 0.229 1.554 11463
0.692 0.231 1.552 9487
0.696 0.232 1.550 7511
0.700 0.233 1.548 9136
0.704 0.234 1.546 10761
0.708 0.236 1.543 13694
0.708 0.236 1.534 16632
0.715 0.238 1.539 18455
0.719 0.240 1.537 20283
0.723 0.241 1.534 23043
0.727 0.242 1.532 25802
0.731 0.243 1.530 26255
0.735 0.245 1.527 24620
0.738 0.246 1.525 21040
0.742 0.247 1.523 15159
0.746 0.248 1.520 10770
0.750 0.250 1.518 9037
0.750 0.250 1.509 7217
0.761 0.254 1.520 7432
0.773 0.257 1.531 8327
0.781 0.260 1.536 8698
0.784 0.261 1.533 9435
0.788 0.263 1.531 10008
0.796 0.265 1.535 11432
0.796 0.265 1.526 15703
0.800 0.266 1.523 18513
0.803 0.268 1.521 17256
0.807 0.269 1.518 12550
0.811 0.270 1.515 9102
0.815 0.271 1.513 10834
0.819 0.273 1.510 15305
0.822 0.274 1.508 18043
0.826 0.275 1.505 20179
0.834 0.278 1.509 23636
0.842 0.280 1.513 23413
0.846 0.282 1.510 21491
0.850 0.283 1.508 18473
0.849 0.283 1.499 15555
0.849 0.283 1.489 14793
0.852 0.284 1.487 18044
0.865 0.288 1.497 22595
0.868 0.289 1.494 21963
0.872 0.290 1.492 19472
0.880 0.293 1.495 18117
0.888 0.296 1.499 16317
0.887 0.296 1.490 16157
0.887 0.295 1.480 14548
0.890 0.297 1.478 11855
0.899 0.299 1.481 11488
0.907 0.302 1.485 17037
0.915 0.305 1.488 27539
0.923 0.307 1.492 27481
0.931 0.310 1.495 19754
0.935 0.311 1.492 16239
0.939 0.313 1.489 20450
0.942 0.314 1.486 22994
0.951 0.317 1.490 20710
0.968 0.322 1.506 18337
0.976 0.325 1.509 23879
0.976 0.325 1.500 29377
0.984 0.328 1.503 21216
0.992 0.331 1.506 11485
1.001 0.333 1.509 8487
1.000 0.333 1.500 8832
0.999 0.333 1.490 10155
0.998 0.332 1.481 14181
1.006 0.335 1.484 22350
1.005 0.335 1.475 31866
1.014 0.338 1.478 37359
1.017 0.339 1.474 38807
1.016 0.338 1.465 38538
1.020 0.340 1.462 37556
1.028 0.343 1.465 38568
1.032 0.344 1.462 36225
1.036 0.345 1.458 27450
1.039 0.346 1.455 18494
1.048 0.349 1.458 14620
1.056 0.352 1.461 13575
1.055 0.351 1.451 14419
1.063 0.354 1.454 17159
1.072 0.357 1.457 19310
1.076 0.358 1.453 22972
1.084 0.361 1.456 22630
1.093 0.364 1.458 15030
1.107 0.369 1.467 13406
1.105 0.368 1.457 17108
1.109 0.369 1.454 20824
1.112 0.371 1.450 19473
1.121 0.373 1.453 18141
1.120 0.373 1.443 21411
1.128 0.376 1.446 20801
1.147 0.382 1.459 24073
1.156 0.385 1.461 28396
1.155 0.385 1.452 32681
1.158 0.386 1.448 30614
1.167 0.389 1.451 25348
1.171 0.390 1.447 26293
1.174 0.391 1.443 18983
1.178 0.392 1.440 17269
1.181 0.393 1.436 28462
1.190 0.396 1.438 33737
1.194 0.398 1.434 33538
1.192 0.397 1.425 24399
1.195 0.398 1.421 18976
1.204 0.401 1.423 29729
1.208 0.402 1.419 39364
1.211 0.403 1.415 37563
1.215 0.405 1.411 36614
1.218 0.406 1.408 43364
1.227 0.409 1.409 46443
1.231 0.410 1.405 30427
1.251 0.417 1.418 16614
1.260 0.420 1.419 18857
1.252 0.417 1.405 17404
1.278 0.426 1.422 27356
1.281 0.427 1.418 32271
1.290 0.430 1.420 18121
1.305 0.435 1.426 14762
1.303 0.434 1.417 13690
1.306 0.435 1.413 14274
1.315 0.438 1.414 16673
1.319 0.439 1.410 15309
1.322 0.440 1.406 12632
1.326 0.442 1.402 10078
1.329 0.443 1.398 11102
1.327 0.442 1.388 9137
1.336 0.445 1.389 5339
1.357 0.452 1.401 5651
1.360 0.453 1.396 10927
1.358 0.452 1.387 15649
1.373 0.457 1.393 21590
1.376 0.458 1.389 28498
1.391 0.463 1.395 24534
1.400 0.466 1.395 16130
1.404 0.468 1.391 16941
1.413 0.471 1.392 22836
1.416 0.472 1.387 21786
1.414 0.471 1.378 19659
1.429 0.476 1.383 23254
1.438 0.479 1.384 30195
1.448 0.482 1.384 29215
1.457 0.485 1.385 26641
1.460 0.486 1.380 27507
1.464 0.488 1.375 32856
1.467 0.489 1.371 35691
1.465 0.488 1.361 28215
1.480 0.493 1.367 21188
1.489 0.496 1.367 22649
1.493 0.497 1.362 20723
1.502 0.500 1.362 20946
1.505 0.501 1.358 19478
1.509 0.502 1.353 14467
1.512 0.504 1.348 13738
1.515 0.505 1.343 13042
1.525 0.508 1.343 9076
1.552 0.517 1.357 11111
1.556 0.518 1.352 14749
1.559 0.519 1.348 15433
1.562 0.520 1.343 12530
1.572 0.523 1.342 8230
1.593 0.531 1.351 6532
1.609 0.536 1.355 7532
1.618 0.539 1.355 8471
1.616 0.538 1.345 9609
1.613 0.537 1.336 8669
1.610 0.536 1.326 5595
1.594 0.531 1.308 4315
1.610 0.536 1.312 3920
1.626 0.542 1.316 6447
1.629 0.543 1.311 14132
1.638 0.546 1.310 28972
1.642 0.547 1.305 39449
1.645 0.548 1.300 46617
1.648 0.549 1.295 54945
1.645 0.548 1.285 51952
1.648 0.549 1.280 49245
1.651 0.550 1.275 42430
1.654 0.551 1.270 31329
1.657 0.552 1.264 28294
1.660 0.553 1.259 28378
1.670 0.556 1.258 31267
1.679 0.559 1.257 36896
1.682 0.560 1.252 39016
1.685 0.561 1.247 32938
1.689 0.562 1.242 17726
1.711 0.570 1.249 10019
1.707 0.569 1.239 8853
1.691 0.563 1.222 10600
1.688 0.562 1.212 13777
1.684 0.561 1.203 13382
1.680 0.560 1.194 12468
1.683 0.561 1.189 13653
1.686 0.562 1.183 13270
1.683 0.560 1.174 12077
1.679 0.559 1.165 8772
1.917 0.639 1.300 8521
1.927 0.642 1.298 9307
1.930 0.643 1.292 9162
1.933 0.644 1.286 9016
1.950 0.649 1.287 9948
1.966 0.655 1.289 10642
1.969 0.656 1.283 9490
1.979 0.659 1.280 8143
1.989 0.662 1.278 7148
2.018 0.672 1.287 7214
2.035 0.678 1.288 8471
2.044 0.681 1.285 9340
2.048 0.682 1.279 10410
2.051 0.683 1.272 8271
2.054 0.684 1.266 6133
2.104 0.701 1.285 7682
2.100 0.700 1.274 9966
2.103 0.701 1.268 12729
2.106 0.702 1.261 15491
2.110 0.703 1.255 13353
2.106 0.701 1.245 11443
2.109 0.702 1.238 8496
2.105 0.701 1.228 5562
2.115 0.704 1.225 4538
2.159 0.719 1.239 4270
2.182 0.727 1.242 6408
2.185 0.728 1.236 8653
2.195 0.731 1.232 10185
2.218 0.739 1.235 12788
2.228 0.742 1.232 15123
2.231 0.743 1.225 17617
2.234 0.744 1.218 17617
2.244 0.747 1.214 16188
2.254 0.751 1.210 15264
2.257 0.752 1.203 16964
2.259 0.753 1.196 18664
2.262 0.754 1.189 17262
2.265 0.755 1.182 15861
2.268 0.755 1.175 15861
2.271 0.756 1.168 20942
0.599 0.198 1.583 12508
0.603 0.200 1.581 11787
0.607 0.201 1.579 11067
0.611 0.202 1.577 8442
0.599 0.198 1.540 5827
0.619 0.205 1.573 5770
0.626 0.207 1.579 5729
0.627 0.207 1.569 5757
0.631 0.209 1.567 6570
0.638 0.211 1.573 7394
0.646 0.214 1.578 6136
0.649 0.215 1.576 5071
0.653 0.216 1.574 6587
0.657 0.217 1.571 8103
0.665 0.220 1.576 8977
0.665 0.220 1.567 9789
0.669 0.221 1.565 7763
0.677 0.224 1.570 5691
0.677 0.224 1.561 7517
0.681 0.225 1.559 9365
0.685 0.227 1.557 10649
0.689 0.228 1.554 11934
0.693 0.229 1.552 9933
0.700 0.232 1.557 7970
0.704 0.233 1.555 7927
0.708 0.234 1.553 7885
0.708 0.234 1.543 11364
0.708 0.234 1.534 15060
0.716 0.237 1.539 17470
0.720 0.238 1.537 20071
0.724 0.239 1.534 22922
0.727 0.241 1.532 25773
0.731 0.242 1.530 26245
0.735 0.243 1.527 24910
0.739 0.244 1.525 21681
0.743 0.246 1.523 15782
0.746 0.247 1.520 11305
0.750 0.248 1.518 9250
0.750 0.248 1.509 7053
0.762 0.252 1.520 7555
0.773 0.256 1.531 8619
0.781 0.258 1.536 9012
0.785 0.260 1.533 9268
0.785 0.260 1.524 9460
0.793 0.262 1.528 10510
0.796 0.263 1.526 14946
0.800 0.265 1.523 18204
0.804 0.266 1.521 17344
0.808 0.267 1.518 13064
0.812 0.269 1.515 9645
0.815 0.270 1.513 10919
0.819 0.271 1.510 14856
0.819 0.271 1.501 17523
0.827 0.274 1.505 19635
0.835 0.276 1.509 23144
0.843 0.279 1.513 22975
0.846 0.280 1.510 21377
0.850 0.281 1.508 18788
0.850 0.281 1.499 16231
0.849 0.281 1.489 15768
0.853 0.282 1.487 18253
0.861 0.285 1.490 21027
0.869 0.287 1.494 19246
0.873 0.289 1.492 16169
0.881 0.291 1.495 15183
0.889 0.294 1.499 15724
0.888 0.294 1.490 18547
0.887 0.294 1.480 17956
0.895 0.296 1.484 15151
0.899 0.297 1.481 12576
0.907 0.300 1.485 16062
0.915 0.303 1.488 26864
0.924 0.306 1.492 27385
0.932 0.308 1.495 19232
0.936 0.310 1.492 15256
0.939 0.311 1.489 20501
0.943 0.312 1.486 24847
0.951 0.315 1.490 23377
0.964 0.319 1.499 18412
0.972 0.322 1.503 22081
0.976 0.323 1.500 28381
0.980 0.324 1.496 21067
0.988 0.327 1.500 10218
0.997 0.330 1.503 7154
0.996 0.329 1.493 8236
1.000 0.331 1.490 9933
0.999 0.330 1.481 14995
1.002 0.332 1.478 23386
1.006 0.333 1.475 32334
1.014 0.336 1.478 36954
1.018 0.337 1.474 37807
1.017 0.336 1.465 37612
1.021 0.338 1.462 36874
1.029 0.340 1.465 38171
1.033 0.342 1.462 37498
1.036 0.343 1.458 29764
1.040 0.344 1.455 19242
1.048 0.347 1.458 13510
1.057 0.350 1.461 12753
1.056 0.349 1.451 14560
1.064 0.352 1.454 16872
1.073 0.355 1.457 17096
1.076 0.356 1.453 19835
1.090 0.361 1.462 20299
1.099 0.363 1.464 15283
1.107 0.366 1.467 13922
1.106 0.366 1.457 15849
1.110 0.367 1.454 19396
1.113 0.368 1.450 18213
1.122 0.371 1.453 16478
1.120 0.371 1.443 19778
1.124 0.372 1.440 19906
1.148 0.380 1.459 23706
1.157 0.383 1.461 28820
1.155 0.382 1.452 30434
1.164 0.385 1.454 26906
1.168 0.386 1.451 23450
1.171 0.388 1.447 23846
1.175 0.389 1.443 17270
1.173 0.388 1.434 16973
1.182 0.391 1.436 26744
1.191 0.394 1.438 32946
1.195 0.395 1.434 35156
1.193 0.395 1.425 24947
1.196 0.396 1.421 18204
1.205 0.399 1.423 29902
1.209 0.400 1.419 38714
1.212 0.401 1.415 35014
1.216 0.402 1.411 34937
1.219 0.403 1.408 41800
1.228 0.406 1.409 44974
1.237 0.409 1.411 28867
1.251 0.414 1.418 17865
1.266 0.419 1.425 21401
1.269 0.420 1.421 19695
1.284 0.425 1.428 31983
1.287 0.426 1.424 38958
1.291 0.427 1.420 26857
1.306 0.432 1.426 20179
1.304 0.431 1.417 16300
1.313 0.434 1.418 16747
1.322 0.437 1.419 20276
1.320 0.437 1.410 17610
1.323 0.438 1.406 13534
1.327 0.439 1.402 10604
1.330 0.440 1.398 11715
1.334 0.441 1.393 10746
1.337 0.442 1.389 7710
1.352 0.447 1.395 7210
1.361 0.450 1.396 11431
1.359 0.450 1.387 15274
1.374 0.454 1.393 20743
1.383 0.458 1.394 30177
1.392 0.461 1.395 28608
1.401 0.464 1.395 19990
1.411 0.467 1.396 18305
1.414 0.468 1.392 22951
1.417 0.469 1.387 23705
1.421 0.470 1.383 23729
1.430 0.473 1.383 26924
1.439 0.476 1.384 31728
1.449 0.479 1.384 28938
1.458 0.482 1.385 22353
1.461 0.483 1.380 23997
1.465 0.485 1.375 33951
1.468 0.486 1.371 38076
1.466 0.485 1.361 30355
1.481 0.490 1.367 22649
1.490 0.493 1.367 22539
1.494 0.494 1.362 19200
1.503 0.497 1.362 20121
1.506 0.498 1.358 19871
1.510 0.499 1.353 15597
1.513 0.501 1.348 15606
1.516 0.502 1.343 15518
1.532 0.507 1.348 11526
1.553 0.514 1.357 14788
1.557 0.515 1.352 19206
1.560 0.516 1.348 19114
1.569 0.519 1.347 14326
1.585 0.524 1.352 7870
1.601 0.530 1.356 5829
1.610 0.533 1.355 6894
1.613 0.534 1.350 8197
1.617 0.535 1.345 9317
1.614 0.534 1.336 7820
1.611 0.533 1.326 5563
1.589 0.526 1.303 5654
1.611 0.533 1.312 6353
1.621 0.536 1.311 9072
1.630 0.539 1.311 16728
1.633 0.540 1.305 32901
1.643 0.543 1.305 43534
1.646 0.545 1.300 49018
1.649 0.546 1.295 55739
1.646 0.545 1.285 54251
1.649 0.546 1.280 52051
1.652 0.547 1.275 45570
1.655 0.548 1.270 33590
1.658 0.549 1.264 29376
1.662 0.550 1.259 29278
1.671 0.553 1.258 32651
1.680 0.556 1.257 39454
1.684 0.557 1.252 42121
1.687 0.558 1.247 35519
1.690 0.559 1.242 18838
1.712 0.566 1.249 10187
1.709 0.565 1.239 8874
1.692 0.560 1.222 10856
1.689 0.559 1.212 14362
1.685 0.558 1.203 14234
1.682 0.556 1.194 13564
1.684 0.557 1.189 14522
1.687 0.558 1.183 13911
1.684 0.557 1.174 12672
1.687 0.558 1.169 9455
1.925 0.637 1.304 10094
1.935 0.640 1.302 11380
1.931 0.639 1.292 10946
1.935 0.640 1.286 10625
1.951 0.645 1.287 11532
1.961 0.649 1.285 12207
1.964 0.650 1.279 10736
1.974 0.653 1.277 8785
1.983 0.656 1.274 6987
2.020 0.668 1.287 7057
2.036 0.674 1.288 8198
2.046 0.677 1.285 8801
2.049 0.678 1.279 9622
2.052 0.679 1.272 7688
2.055 0.680 1.266 5753
2.105 0.696 1.285 7763
2.108 0.698 1.278 10744
2.105 0.696 1.268 12922
2.108 0.697 1.261 15305
2.111 0.698 1.255 13119
2.107 0.697 1.245 11219
2.110 0.698 1.238 8771
2.107 0.697 1.228 6326
2.116 0.700 1.225 5209
2.187 0.724 1.253 5078
2.190 0.725 1.246 7400
2.186 0.723 1.236 9840
2.196 0.727 1.232 11651
2.213 0.732 1.232 14170
2.230 0.738 1.232 15722
2.233 0.739 1.225 17720
2.236 0.740 1.218 17720
2.245 0.743 1.214 15903
2.255 0.746 1.210 14609
2.258 0.747 1.203 16291
2.261 0.748 1.196 17973
2.264 0.749 1.189 16742
2.267 0.750 1.182 15512
2.270 0.751 1.175 15512
2.272 0.752 1.168 20235
0.600 0.197 1.583 13445
0.604 0.198 1.581 12630
0.608 0.199 1.579 11814
0.612 0.201 1.577 9114
0.616 0.202 1.575 6413
0.620 0.203 1.573 5700
0.624 0.205 1.571 4986
0.628 0.206 1.569 4973
0.635 0.208 1.575 5554
0.639 0.210 1.573 6171
0.646 0.212 1.578 5449
0.660 0.216 1.597 4892
0.654 0.214 1.574 7024
0.658 0.216 1.571 9220
0.662 0.217 1.569 9884
0.666 0.218 1.567 10580
0.670 0.220 1.565 8320
0.674 0.221 1.563 6028
0.678 0.222 1.561 7699
0.682 0.224 1.559 9369
0.685 0.225 1.557 11046
0.689 0.226 1.554 12722
0.697 0.229 1.559 11002
0.701 0.230 1.557 9418
0.705 0.231 1.555 7580
0.705 0.231 1.546 5742
0.705 0.231 1.536 9509
0.709 0.233 1.534 13638
0.713 0.234 1.532 16567
0.720 0.236 1.537 19587
0.724 0.238 1.534 22511
0.724 0.238 1.525 25486
0.732 0.240 1.530 25881
0.736 0.241 1.527 24673
0.740 0.243 1.525 21692
0.743 0.244 1.523 15736
0.747 0.245 1.520 11107
0.751 0.246 1.518 8922
0.755 0.248 1.516 6519
0.762 0.250 1.520 7619
0.774 0.254 1.531 9077
0.782 0.256 1.536 9463
0.786 0.258 1.533 9124
0.785 0.258 1.524 8894
0.793 0.260 1.528 9431
0.797 0.261 1.526 13731
0.797 0.261 1.516 17435
0.805 0.264 1.521 16948
0.808 0.265 1.518 13373
0.812 0.266 1.515 10202
0.816 0.268 1.513 11199
0.820 0.269 1.510 14691
0.824 0.270 1.508 17186
0.827 0.271 1.505 19045
0.835 0.274 1.509 22275
0.843 0.277 1.513 22071
0.847 0.278 1.510 20728
0.851 0.279 1.508 18355
0.850 0.279 1.499 16093
0.850 0.279 1.489 15930
0.854 0.280 1.487 17855
0.862 0.283 1.490 19431
0.870 0.285 1.494 16660
0.878 0.288 1.498 13207
0.886 0.290 1.502 12778
0.889 0.292 1.499 15554
0.889 0.291 1.490 20930
0.893 0.293 1.487 20825
0.896 0.294 1.484 17891
0.900 0.295 1.481 13892
0.908 0.298 1.485 15350
0.916 0.300 1.488 25631
0.924 0.303 1.492 27070
0.928 0.304 1.489 19187
0.932 0.306 1.486 14760
0.940 0.308 1.489 20607
0.944 0.310 1.486 26572
0.952 0.312 1.490 26054
0.960 0.315 1.493 19434
0.969 0.318 1.496 20651
0.972 0.319 1.493 27258
0.981 0.322 1.496 21878
0.985 0.323 1.493 11124
0.988 0.324 1.490 7324
0.997 0.327 1.493 7556
0.996 0.327 1.484 9336
0.999 0.328 1.481 15602
1.003 0.329 1.478 23878
1.007 0.330 1.475 31539
1.015 0.333 1.478 34745
1.019 0.334 1.474 35325
1.018 0.334 1.465 35732
1.026 0.337 1.468 35587
1.030 0.338 1.465 37199
1.034 0.339 1.462 37895
1.037 0.340 1.458 31608
1.041 0.341 1.455 19807
1.049 0.344 1.458 12489
1.058 0.347 1.461 12550
1.061 0.348 1.457 14694
1.065 0.349 1.454 15400
1.069 0.351 1.451 13526
1.082 0.355 1.459 15032
1.096 0.359 1.468 16901
1.100 0.361 1.464 15175
1.103 0.362 1.461 13738
1.107 0.363 1.457 14435
1.110 0.364 1.454 17670
1.114 0.365 1.450 15961
1.118 0.367 1.447 12708
1.116 0.366 1.437 16014
1.125 0.369 1.440 18051
1.149 0.377 1.459 23370
1.153 0.378 1.456 28837
1.156 0.379 1.452 26974
1.165 0.382 1.454 21135
1.169 0.383 1.451 18889
1.172 0.384 1.447 19512
1.171 0.384 1.438 16699
1.174 0.385 1.434 18484
1.183 0.388 1.436 25183
1.187 0.389 1.432 30330
1.196 0.392 1.434 33247
1.194 0.392 1.425 23966
1.197 0.393 1.421 16948
1.206 0.396 1.423 27306
1.210 0.397 1.419 33844
1.213 0.398 1.415 30182
1.217 0.399 1.411 31774
1.220 0.400 1.408 37629
1.235 0.405 1.415 41039
1.238 0.406 1.411 27002
1.253 0.411 1.418 18493
1.267 0.416 1.425 22884
1.271 0.417 1.421 22961
1.285 0.421 1.428 35343
1.289 0.423 1.424 43667
1.292 0.424 1.420 34623
1.307 0.429 1.426 25551
1.305 0.428 1.417 19103
1.314 0.431 1.418 19080
1.323 0.434 1.419 22674
1.321 0.433 1.410 19438
1.330 0.436 1.411 14445
1.333 0.437 1.407 11534
1.337 0.438 1.403 12800
1.335 0.438 1.393 12514
1.338 0.439 1.389 10368
1.347 0.442 1.390 9090
1.356 0.445 1.391 11679
1.360 0.446 1.387 15457
1.375 0.451 1.393 20542
1.384 0.454 1.394 30690
1.393 0.457 1.395 31322
1.402 0.460 1.395 23537
1.412 0.463 1.396 20463
1.415 0.464 1.392 23394
1.419 0.465 1.387 25681
1.422 0.466 1.383 27718
1.431 0.469 1.383 30016
1.435 0.471 1.379 32736
1.444 0.474 1.379 28790
1.453 0.477 1.380 19423
1.457 0.478 1.375 22561
1.460 0.479 1.371 36299
1.463 0.480 1.366 40784
1.467 0.481 1.361 32477
1.482 0.486 1.367 24142
1.491 0.489 1.367 21895
1.495 0.490 1.362 16877
1.504 0.493 1.362 18396
1.502 0.492 1.353 19243
1.511 0.496 1.353 16058
1.514 0.497 1.348 17182
1.518 0.498 1.343 17854
1.533 0.503 1.348 14069
1.555 0.510 1.357 18069
1.558 0.511 1.352 23045
1.567 0.514 1.352 22108
1.571 0.515 1.347 15981
1.586 0.520 1.352 8498
1.608 0.527 1.360 5819
1.611 0.528 1.355 6618
1.615 0.530 1.350 8144
1.612 0.529 1.341 9242
1.615 0.530 1.336 7629
1.606 0.527 1.322 6838
1.609 0.528 1.317 8090
1.619 0.531 1.316 9687
1.622 0.532 1.311 12376
1.625 0.533 1.306 20758
1.635 0.536 1.305 38005
1.638 0.537 1.300 48507
1.641 0.538 1.295 52097
1.644 0.539 1.290 56769
1.647 0.540 1.285 55881
1.651 0.541 1.280 53911
1.654 0.542 1.275 47734
1.657 0.543 1.270 35121
1.660 0.544 1.264 29903
1.663 0.545 1.259 29547
1.672 0.549 1.258 33131
1.682 0.552 1.257 40759
1.685 0.553 1.252 43924
1.688 0.554 1.247 37055
1.691 0.555 1.242 19492
1.713 0.562 1.249 10267
1.710 0.561 1.239 8726
1.694 0.555 1.222 10731
1.690 0.554 1.212 14338
1.687 0.553 1.203 14476
1.683 0.552 1.194 14091
1.686 0.553 1.189 14839
1.689 0.554 1.183 14042
1.685 0.553 1.174 12778
1.917 0.629 1.306 9758
1.927 0.632 1.304 11823
1.936 0.635 1.302 13381
1.933 0.634 1.292 12674
1.936 0.635 1.286 12190
1.953 0.640 1.287 13092
1.962 0.644 1.285 13704
1.965 0.645 1.279 11994
1.975 0.648 1.277 9457
1.978 0.649 1.270 7056
1.981 0.650 1.264 6768
2.038 0.668 1.288 7370
2.048 0.672 1.285 7625
2.057 0.675 1.282 8132
2.054 0.674 1.272 6705
2.057 0.675 1.266 5289
2.107 0.691 1.285 8006
2.110 0.692 1.278 11451
2.113 0.693 1.272 13099
2.110 0.692 1.261 14960
2.113 0.693 1.255 12828
2.102 0.689 1.241 11022
2.105 0.690 1.235 9009
2.108 0.691 1.228 6995
2.118 0.695 1.225 5810
2.189 0.718 1.253 5952
2.192 0.719 1.246 8467
2.195 0.720 1.239 10982
2.198 0.721 1.232 13069
2.215 0.726 1.232 15521
2.225 0.730 1.228 16164
2.234 0.733 1.225 17419
2.237 0.734 1.218 17419
2.247 0.737 1.214 15138
2.257 0.740 1.210 13465
2.260 0.741 1.203 15235
2.263 0.742 1.196 17004
2.266 0.743 1.189 15926
2.269 0.744 1.182 14847
2.272 0.745 1.175 14847
2.274 0.746 1.168 19104
0.600 0.196 1.583 14191
0.604 0.197 1.581 13366
0.608 0.198 1.579 12542
0.612 0.199 1.577 9684
0.616 0.201 1.575 6827
0.620 0.202 1.573 5551
0.624 0.203 1.571 4275
0.628 0.205 1.569 4207
0.635 0.207 1.575 4578
0.639 0.208 1.573 5005
0.646 0.211 1.578 5105
0.654 0.213 1.583 5273
0.654 0.213 1.574 7751
0.658 0.214 1.571 10282
0.662 0.216 1.569 10839
0.666 0.217 1.567 11389
0.670 0.218 1.565 8996
0.674 0.220 1.563 6612
0.678 0.221 1.561 8085
0.678 0.221 1.552 9580
0.686 0.223 1.557 11597
0.690 0.225 1.554 13635
0.697 0.227 1.559 12329
0.701 0.228 1.557 11264
0.705 0.230 1.555 8435
0.705 0.230 1.546 5792
0.706 0.230 1.536 8918
0.709 0.231 1.534 12206
0.713 0.232 1.532 15524
0.717 0.234 1.530 18841
0.721 0.235 1.527 21964
0.725 0.236 1.525 25088
0.732 0.239 1.530 25422
0.736 0.240 1.527 24245
0.740 0.241 1.525 21349
0.744 0.242 1.523 15188
0.748 0.244 1.520 10266
0.751 0.245 1.518 8149
0.759 0.247 1.522 5866
0.763 0.249 1.520 7437
0.774 0.252 1.531 9311
0.782 0.255 1.536 9696
0.786 0.256 1.533 8996
0.786 0.256 1.524 8497
0.790 0.257 1.521 8666
0.798 0.260 1.526 12538
0.797 0.260 1.516 16391
0.805 0.262 1.521 16131
0.809 0.264 1.518 13283
0.813 0.265 1.515 10519
0.817 0.266 1.513 11409
0.820 0.267 1.510 14482
0.824 0.268 1.508 16666
0.828 0.270 1.505 18053
0.836 0.272 1.509 20884
0.840 0.273 1.507 20905
0.848 0.276 1.510 19999
0.851 0.277 1.508 18154
0.851 0.277 1.499 16168
0.850 0.277 1.489 16037
0.854 0.278 1.487 17443
0.862 0.281 1.490 18065
0.870 0.283 1.494 14484
0.874 0.285 1.492 10937
0.886 0.289 1.502 10541
0.886 0.288 1.492 15168
0.889 0.290 1.490 22526
0.893 0.291 1.487 22803
0.897 0.292 1.484 19753
0.901 0.293 1.481 14951
0.909 0.296 1.485 14907
0.917 0.299 1.488 24568
0.921 0.300 1.485 27169
0.929 0.303 1.489 19426
0.932 0.304 1.486 14421
0.936 0.305 1.483 20495
0.949 0.309 1.493 27608
0.953 0.310 1.490 28267
0.961 0.313 1.493 21554
0.969 0.316 1.496 20615
0.973 0.317 1.493 26800
0.977 0.318 1.490 23590
0.981 0.319 1.487 13792
0.984 0.321 1.484 8676
0.993 0.323 1.487 6844
0.996 0.325 1.484 8787
1.000 0.326 1.481 16010
1.004 0.327 1.478 24070
1.007 0.328 1.475 30330
1.011 0.329 1.472 32108
1.020 0.332 1.474 32556
1.018 0.332 1.465 33612
1.027 0.334 1.468 34016
1.031 0.336 1.465 35799
1.034 0.337 1.462 37759
1.038 0.338 1.458 32975
1.041 0.339 1.455 20516
1.045 0.340 1.452 11997
1.059 0.345 1.461 12301
1.062 0.346 1.457 14313
1.066 0.347 1.454 13421
1.069 0.348 1.451 10049
1.088 0.354 1.465 9862
1.097 0.357 1.468 13648
1.095 0.357 1.458 15247
1.099 0.358 1.455 13367
1.108 0.361 1.457 13003
1.111 0.362 1.454 15730
1.115 0.363 1.450 13673
1.118 0.364 1.447 9588
1.117 0.364 1.437 12922
1.126 0.367 1.440 16702
1.150 0.375 1.459 23119
1.153 0.376 1.456 28102
1.157 0.377 1.452 23990
1.166 0.380 1.454 16521
1.175 0.383 1.456 15043
