0.562 0.849 1.625 18709
0.565 0.853 1.622 15689
0.567 0.857 1.619 13560
0.569 0.860 1.616 18348
0.574 0.868 1.619 30077
0.579 0.875 1.622 39450
0.582 0.879 1.619 39336
0.584 0.882 1.616 37039
0.589 0.890 1.619 33871
0.591 0.893 1.616 24434
0.570 0.861 1.556 16197
0.570 0.861 1.546 10970
0.606 0.916 1.625 12046
0.609 0.920 1.622 13600
0.611 0.923 1.619 13660
0.613 0.927 1.615 15466
0.616 0.930 1.612 16565
0.615 0.930 1.603 13599
0.620 0.937 1.605 11264
0.625 0.945 1.608 13841
0.628 0.949 1.605 16382
0.630 0.952 1.602 14676
0.627 0.947 1.586 10713
0.624 0.943 1.570 7677
0.623 0.942 1.561 5300
0.626 0.945 1.557 5474
0.628 0.949 1.554 6622
0.636 0.961 1.563 10137
0.635 0.960 1.553 15517
0.637 0.963 1.550 20393
0.640 0.967 1.546 25058
0.642 0.970 1.543 26222
0.647 0.978 1.545 17204
0.649 0.981 1.542 14834
0.654 0.989 1.544 20690
0.654 0.988 1.535 15726
0.659 0.996 1.537 7226
0.670 1.012 1.552 8185
0.669 1.011 1.542 14604
0.671 1.014 1.538 19290
0.679 1.027 1.547 27110
0.682 1.030 1.543 31025
0.687 1.038 1.545 19671
0.689 1.041 1.541 10588
0.683 1.031 1.520 7743
0.697 1.053 1.540 10340
0.696 1.051 1.530 14180
0.692 1.046 1.515 13459
0.697 1.054 1.517 14702
0.741 1.120 1.594 14876
0.744 1.124 1.590 11486
0.758 1.146 1.609 9308
0.754 1.140 1.593 12967
0.754 1.139 1.584 23466
0.756 1.142 1.579 29170
0.758 1.146 1.575 23331
0.761 1.149 1.571 20142
0.766 1.158 1.573 28315
0.768 1.161 1.569 30030
0.774 1.169 1.570 20190
0.782 1.182 1.577 12271
0.788 1.190 1.579 11828
0.787 1.189 1.569 20379
0.789 1.192 1.565 37983
0.791 1.196 1.560 43550
0.797 1.204 1.562 32732
0.799 1.207 1.557 19784
0.827 1.249 1.597 29764
0.829 1.253 1.592 23643
0.834 1.261 1.593 11941
0.837 1.264 1.589 15607
0.842 1.273 1.590 20703
0.845 1.276 1.585 25700
0.847 1.280 1.581 31904
0.846 1.278 1.571 22474
0.845 1.277 1.561 18500
0.851 1.285 1.562 27726
0.853 1.289 1.557 31209
0.855 1.292 1.552 22926
0.857 1.295 1.548 10791
0.863 1.304 1.549 6218
0.868 1.312 1.549 11467
0.874 1.321 1.550 17041
0.883 1.334 1.555 19542
0.895 1.352 1.566 23416
0.897 1.356 1.561 26314
0.903 1.364 1.562 26350
0.908 1.373 1.562 24577
0.914 1.381 1.562 20422
0.920 1.390 1.562 19594
0.922 1.393 1.557 30112
0.928 1.402 1.558 37771
0.933 1.410 1.558 35900
0.936 1.414 1.553 25275
0.938 1.417 1.548 14647
0.947 1.431 1.552 14552
0.949 1.434 1.547 23245
0.955 1.443 1.547 32258
0.960 1.451 1.547 34266
0.963 1.455 1.542 24025
0.965 1.458 1.537 16495
0.971 1.467 1.536 12885
0.976 1.475 1.536 10411
0.982 1.484 1.536 9061
0.998 1.508 1.550 12162
0.997 1.506 1.540 19977
0.996 1.504 1.529 22208
1.005 1.518 1.534 20929
1.014 1.532 1.538 20448
1.020 1.541 1.537 14489
1.029 1.555 1.541 15503
1.035 1.564 1.540 17511
1.037 1.567 1.535 11666
1.046 1.581 1.538 7705
1.038 1.568 1.519 9196
1.047 1.582 1.522 14897
1.057 1.597 1.526 20625
1.059 1.600 1.520 15885
1.061 1.603 1.515 13345
1.063 1.607 1.509 13789
1.091 1.648 1.535 12940
1.086 1.640 1.520 13883
1.091 1.649 1.519 12284
1.086 1.641 1.504 9921
1.099 1.661 1.512 7328
1.094 1.654 1.497 8610
1.093 1.651 1.487 12247
1.099 1.660 1.485 12707
1.108 1.674 1.488 11092
1.125 1.700 1.499 14432
1.131 1.708 1.498 19756
1.129 1.706 1.487 23209
1.124 1.698 1.473 22826
1.126 1.702 1.467 12399
1.128 1.705 1.461 6764
1.171 1.769 1.501 12666
1.173 1.773 1.495 23011
1.172 1.770 1.484 26843
1.177 1.779 1.482 22843
1.176 1.777 1.472 16515
1.178 1.780 1.466 14233
1.180 1.783 1.459 12344
1.190 1.798 1.461 10908
1.196 1.807 1.459 12363
1.209 1.827 1.465 15113
1.219 1.841 1.466 16450
1.224 1.850 1.464 14225
1.230 1.859 1.461 10993
1.244 1.879 1.466 8664
1.250 1.888 1.464 8578
1.248 1.886 1.453 8671
1.250 1.889 1.447 8876
1.248 1.886 1.436 6704
1.315 1.987 1.495 5422
1.321 1.996 1.492 6665
1.320 1.994 1.481 6738
1.310 1.980 1.463 7021
1.305 1.971 1.448 6318
1.303 1.969 1.437 5857
1.347 2.036 1.471 4723
1.376 2.080 1.490 4370
1.390 2.101 1.494 5166
1.381 2.086 1.476 5477
1.379 2.084 1.465 6282
1.381 2.087 1.457 6487
1.391 2.102 1.457 6827
1.409 2.129 1.464 8145
1.415 2.138 1.460 10043
1.417 2.141 1.453 8883
1.423 2.150 1.449 7739
1.429 2.159 1.445 5523
1.443 2.180 1.447 4192
1.457 2.201 1.450 5216
1.459 2.204 1.442 6572
1.461 2.207 1.435 6519
1.467 2.216 1.430 6439
1.485 2.243 1.436 5168
1.506 2.276 1.445 5953
1.508 2.279 1.437 5953
1.518 2.294 1.435 6626
1.521 2.298 1.427 7562
1.527 2.307 1.423 6732
1.537 2.322 1.421 6581
1.535 2.319 1.410 5931
1.533 2.316 1.398 5678
1.539 2.325 1.393 4711
1.549 2.340 1.391 4056
1.551 2.343 1.383 4056
1.553 2.346 1.375 4730
1.571 2.373 1.379 5665
1.573 2.376 1.371 2832
0.370 0.555 1.662 11230
0.369 0.554 1.646 8793
0.369 0.555 1.637 7028
0.379 0.569 1.663 13835
0.382 0.573 1.661 21324
0.384 0.577 1.659 21324
0.386 0.580 1.657 25913
0.391 0.587 1.662 30566
0.393 0.590 1.660 25573
0.398 0.597 1.665 20640
0.400 0.601 1.663 21255
0.403 0.604 1.661 21870
0.405 0.608 1.659 21586
0.407 0.612 1.656 21303
0.412 0.618 1.661 18113
0.416 0.625 1.666 13278
0.417 0.626 1.657 11189
0.421 0.632 1.662 9965
0.424 0.636 1.659 8980
0.424 0.637 1.650 9837
0.426 0.640 1.648 11052
0.429 0.644 1.645 11397
0.433 0.651 1.650 11822
0.436 0.654 1.648 9525
0.440 0.661 1.652 7381
0.441 0.662 1.643 8241
0.443 0.665 1.641 9410
0.443 0.666 1.631 9602
0.444 0.666 1.622 8870
0.446 0.670 1.619 7977
0.453 0.680 1.631 12748
0.455 0.683 1.628 18009
0.460 0.690 1.633 23875
0.462 0.694 1.630 29972
0.464 0.697 1.628 30699
0.465 0.698 1.618 32685
0.467 0.701 1.616 35602
0.469 0.705 1.613 36864
0.472 0.708 1.611 35237
0.476 0.715 1.615 27583
0.479 0.719 1.613 20334
0.481 0.722 1.610 14649
0.486 0.729 1.614 10464
0.490 0.736 1.618 11930
0.495 0.743 1.622 11370
0.502 0.754 1.633 12912
0.502 0.754 1.624 14886
0.507 0.761 1.628 15513
0.509 0.765 1.625 14943
0.512 0.768 1.622 12062
0.517 0.775 1.626 7893
0.519 0.779 1.623 6810
0.524 0.786 1.627 8205
0.531 0.797 1.637 9440
0.538 0.808 1.648 9950
0.543 0.815 1.652 8244
0.553 0.830 1.668 6762
0.545 0.819 1.639 6343
0.543 0.815 1.623 8468
0.545 0.819 1.620 11533
0.550 0.826 1.624 13586
0.555 0.833 1.627 11127
0.565 0.848 1.644 11111
0.565 0.848 1.634 14397
0.562 0.844 1.618 16161
0.565 0.848 1.615 14629
0.569 0.855 1.619 13953
0.572 0.859 1.616 19426
0.577 0.866 1.619 30950
0.582 0.873 1.622 40129
0.584 0.877 1.619 39975
0.587 0.881 1.616 37571
0.592 0.888 1.619 34234
0.594 0.892 1.616 24318
0.573 0.860 1.556 16032
0.572 0.859 1.546 10853
0.609 0.914 1.625 11036
0.611 0.918 1.622 13648
0.614 0.921 1.619 13886
0.616 0.925 1.615 15675
0.618 0.928 1.612 16777
0.618 0.928 1.603 13481
0.623 0.936 1.605 11862
0.628 0.943 1.608 14300
0.631 0.947 1.605 15766
0.633 0.950 1.602 13987
0.630 0.946 1.586 10860
0.629 0.945 1.576 8206
0.629 0.944 1.567 5926
0.631 0.948 1.563 6809
0.634 0.951 1.560 6681
0.639 0.959 1.563 8899
0.638 0.958 1.553 15871
0.640 0.961 1.550 21211
0.643 0.965 1.546 23127
0.645 0.968 1.543 22873
0.647 0.972 1.539 15401
0.652 0.979 1.542 12764
0.657 0.987 1.544 17572
0.657 0.986 1.535 13212
0.665 0.998 1.543 6265
0.673 1.010 1.552 8356
0.672 1.009 1.542 14913
0.674 1.012 1.538 20089
0.683 1.025 1.547 26949
0.685 1.028 1.543 29319
0.690 1.036 1.545 18140
0.692 1.039 1.541 10073
0.697 1.047 1.544 7651
0.703 1.055 1.546 9763
0.702 1.054 1.536 12280
0.743 1.116 1.608 11268
0.742 1.115 1.598 14898
0.745 1.118 1.594 15596
0.750 1.126 1.596 12089
0.759 1.139 1.603 10344
0.758 1.138 1.593 14571
0.757 1.137 1.584 25083
0.763 1.145 1.585 29959
0.765 1.148 1.581 23747
0.767 1.152 1.577 20096
0.769 1.155 1.573 30832
0.775 1.163 1.574 34801
0.780 1.171 1.576 23174
0.786 1.180 1.577 12691
0.788 1.183 1.573 10727
0.790 1.187 1.569 17680
0.793 1.190 1.565 33383
0.795 1.193 1.560 35376
0.800 1.202 1.562 25092
0.799 1.200 1.552 17742
0.830 1.247 1.597 27057
0.833 1.250 1.592 21893
0.835 1.254 1.588 11537
0.841 1.262 1.589 14545
0.846 1.270 1.590 16846
0.845 1.269 1.580 20633
0.847 1.272 1.575 26168
0.850 1.276 1.571 20479
0.849 1.274 1.561 21338
0.854 1.283 1.562 29417
0.857 1.286 1.557 29472
0.859 1.290 1.552 20379
0.861 1.293 1.548 10272
0.867 1.301 1.549 7915
0.872 1.310 1.549 11168
0.875 1.313 1.544 14418
0.887 1.331 1.555 18472
0.899 1.350 1.566 23655
0.901 1.353 1.561 25204
0.907 1.362 1.562 24592
0.913 1.370 1.562 22973
0.918 1.378 1.562 19367
0.924 1.387 1.562 19589
0.926 1.390 1.557 29667
0.932 1.399 1.558 35852
0.937 1.407 1.558 33400
0.940 1.411 1.553 23144
0.939 1.409 1.543 12497
0.948 1.423 1.547 12417
0.953 1.431 1.547 21466
0.959 1.440 1.547 30100
0.965 1.448 1.547 31786
0.967 1.452 1.542 23256
0.969 1.455 1.537 17348
0.971 1.459 1.532 13294
0.981 1.472 1.536 10240
0.986 1.481 1.536 8870
1.003 1.505 1.550 12578
1.001 1.503 1.540 21185
1.000 1.501 1.529 24141
1.009 1.515 1.534 22472
1.015 1.524 1.533 20281
1.021 1.533 1.532 13888
1.034 1.552 1.541 14480
1.039 1.561 1.540 15014
1.038 1.559 1.530 9874
1.040 1.562 1.524 7339
1.039 1.560 1.514 9543
1.052 1.579 1.522 15245
1.061 1.593 1.526 20427
1.064 1.597 1.520 15793
1.066 1.600 1.515 14470
1.068 1.603 1.509 15652
1.067 1.601 1.499 13633
1.072 1.610 1.498 12974
1.082 1.624 1.501 10951
1.084 1.627 1.495 9686
1.090 1.636 1.494 8182
1.096 1.645 1.492 8722
1.098 1.648 1.487 11491
1.104 1.657 1.485 12423
1.113 1.671 1.488 11704
1.130 1.696 1.499 14711
1.132 1.700 1.493 19889
1.131 1.697 1.483 23657
1.129 1.695 1.473 24071
1.131 1.698 1.467 13465
1.167 1.751 1.499 7286
1.173 1.760 1.497 12920
1.178 1.769 1.495 22553
1.177 1.767 1.484 26148
1.179 1.770 1.478 22325
1.181 1.773 1.472 16738
1.183 1.777 1.466 14974
1.185 1.780 1.459 13160
1.195 1.794 1.461 11138
1.208 1.814 1.467 12523
1.218 1.829 1.469 16299
1.224 1.838 1.466 17498
1.230 1.847 1.464 14775
1.236 1.855 1.461 11065
1.249 1.876 1.466 8074
1.255 1.885 1.464 8606
1.254 1.882 1.453 8675
1.252 1.880 1.443 9085
1.250 1.877 1.432 7380
1.245 1.869 1.418 6260
1.323 1.987 1.488 6916
1.322 1.984 1.477 7396
1.316 1.976 1.463 8399
1.314 1.973 1.452 7338
1.313 1.971 1.441 6511
1.319 1.980 1.438 4913
1.390 2.087 1.498 4344
1.393 2.091 1.490 5308
1.395 2.094 1.483 5033
1.389 2.085 1.468 5011
1.399 2.100 1.468 5613
1.409 2.115 1.468 6747
1.419 2.130 1.468 8312
1.421 2.133 1.460 10194
1.423 2.137 1.453 8981
1.425 2.140 1.445 7768
1.431 2.149 1.441 5563
1.453 2.181 1.451 4209
1.463 2.196 1.450 5560
1.465 2.200 1.442 7131
1.467 2.203 1.435 7065
1.469 2.206 1.427 6967
1.487 2.233 1.433 5258
1.509 2.266 1.442 5692
1.511 2.269 1.434 5692
1.521 2.284 1.432 5940
1.527 2.293 1.427 6644
1.537 2.308 1.426 5930
1.547 2.323 1.424 5994
1.545 2.320 1.413 5223
1.540 2.311 1.398 5038
1.546 2.320 1.393 4418
1.556 2.335 1.391 4062
1.558 2.338 1.383 4062
1.560 2.341 1.375 4793
1.574 2.363 1.376 5684
1.576 2.366 1.368 2842
0.369 0.552 1.655 11851
0.370 0.553 1.646 9177
0.370 0.554 1.637 7070
0.380 0.569 1.663 13954
0.383 0.572 1.661 21411
0.385 0.576 1.659 21411
0.388 0.580 1.657 25831
0.392 0.586 1.662 30284
0.394 0.590 1.660 25263
0.399 0.596 1.665 20271
0.401 0.600 1.663 21142
0.404 0.604 1.661 22013
0.406 0.607 1.659 21721
0.408 0.611 1.656 21429
0.411 0.615 1.654 18068
0.415 0.621 1.659 13029
0.418 0.625 1.657 10801
0.422 0.632 1.662 9434
0.425 0.635 1.659 8295
0.425 0.636 1.650 9330
0.426 0.636 1.641 10760
0.430 0.643 1.645 11303
0.432 0.647 1.643 11885
0.437 0.654 1.648 9618
0.441 0.660 1.652 7451
0.442 0.661 1.643 8630
0.444 0.664 1.641 9987
0.445 0.665 1.631 10346
0.447 0.668 1.629 9428
0.447 0.669 1.619 8257
0.454 0.679 1.631 13515
0.456 0.682 1.628 19220
0.461 0.689 1.633 24883
0.463 0.693 1.630 30895
0.466 0.697 1.628 31513
0.466 0.697 1.618 33438
0.468 0.700 1.616 36519
0.471 0.704 1.613 37920
0.473 0.707 1.611 36285
0.478 0.714 1.615 28519
0.480 0.718 1.613 21219
0.482 0.722 1.610 15464
0.487 0.728 1.614 11544
0.492 0.736 1.618 13390
0.496 0.743 1.622 12472
0.503 0.753 1.633 13431
0.504 0.753 1.624 15037
0.508 0.760 1.628 15243
0.511 0.764 1.625 14560
0.513 0.767 1.622 11326
0.518 0.775 1.626 6704
0.523 0.782 1.630 5667
0.527 0.789 1.634 7061
0.535 0.800 1.644 9367
0.540 0.807 1.648 10502
0.542 0.811 1.645 9048
0.552 0.825 1.662 6964
0.537 0.803 1.613 6725
0.539 0.807 1.610 8160
0.544 0.814 1.614 11408
0.549 0.821 1.617 14179
0.554 0.829 1.621 11268
0.566 0.847 1.644 9867
0.566 0.847 1.634 11688
0.564 0.843 1.618 13518
0.566 0.847 1.615 13665
0.571 0.854 1.619 14449
0.573 0.858 1.616 20513
0.578 0.865 1.619 31677
0.581 0.869 1.616 40409
0.586 0.876 1.619 40076
0.591 0.883 1.622 37598
0.593 0.887 1.619 34041
0.595 0.891 1.616 23771
0.574 0.859 1.556 15525
0.576 0.862 1.553 10892
0.579 0.865 1.550 10526
0.578 0.865 1.540 13507
0.580 0.868 1.537 14172
0.618 0.924 1.615 15938
0.620 0.927 1.612 17166
0.620 0.927 1.603 13560
0.625 0.935 1.605 12256
0.630 0.942 1.608 14836
0.635 0.950 1.611 15411
0.635 0.949 1.602 13262
0.631 0.944 1.586 10870
0.631 0.944 1.576 8864
0.633 0.947 1.573 6922
0.636 0.951 1.569 8107
0.638 0.954 1.566 7381
0.637 0.953 1.557 8210
0.640 0.957 1.553 15831
0.645 0.964 1.556 22099
0.647 0.968 1.552 21018
0.647 0.967 1.543 19316
0.649 0.970 1.539 13576
0.654 0.978 1.542 10295
0.659 0.986 1.544 14027
0.661 0.989 1.541 10865
0.666 0.997 1.543 5490
0.675 1.009 1.552 8214
0.674 1.008 1.542 14789
0.679 1.016 1.544 20232
0.684 1.023 1.547 25765
0.687 1.027 1.543 26667
0.692 1.035 1.545 16178
0.697 1.042 1.547 9487
0.699 1.046 1.544 7343
0.704 1.054 1.546 8336
0.704 1.053 1.536 10043
0.745 1.114 1.608 11837
0.747 1.118 1.604 15240
0.747 1.117 1.594 15865
0.752 1.125 1.596 12692
0.764 1.142 1.609 10457
0.760 1.136 1.593 14106
0.762 1.140 1.589 23826
0.765 1.143 1.585 27889
0.767 1.147 1.581 22331
0.769 1.150 1.577 20572
0.771 1.154 1.573 33318
0.777 1.162 1.574 38333
0.782 1.170 1.576 25740
0.788 1.178 1.577 13823
0.790 1.182 1.573 12103
0.789 1.180 1.563 17146
0.795 1.189 1.565 27662
0.797 1.192 1.560 25806
0.802 1.200 1.562 17508
0.798 1.194 1.546 15624
0.832 1.245 1.597 23322
0.832 1.244 1.587 20376
0.837 1.252 1.588 11537
0.843 1.260 1.589 13574
0.845 1.264 1.584 14620
0.847 1.267 1.580 17493
0.850 1.271 1.575 22313
0.849 1.269 1.565 20344
0.851 1.273 1.561 24818
0.853 1.276 1.556 30143
0.856 1.280 1.552 27033
0.861 1.288 1.552 17415
0.863 1.291 1.548 9713
0.869 1.300 1.549 9943
0.871 1.303 1.544 11268
0.877 1.311 1.544 12343
0.889 1.330 1.555 17660
0.898 1.343 1.561 23654
0.904 1.352 1.561 23773
0.909 1.360 1.562 22228
0.915 1.368 1.562 20898
0.921 1.377 1.562 18022
0.926 1.385 1.562 18753
0.929 1.389 1.557 27885
0.934 1.397 1.558 32636
0.936 1.401 1.553 29959
0.939 1.404 1.548 20157
0.941 1.407 1.543 10217
0.950 1.421 1.547 10549
0.956 1.430 1.547 19646
0.962 1.438 1.547 27683
0.967 1.447 1.547 28415
0.970 1.450 1.542 21655
0.972 1.453 1.537 18032
0.974 1.457 1.532 13869
0.983 1.471 1.536 9586
0.989 1.479 1.536 8102
1.005 1.503 1.550 12828
1.004 1.502 1.540 21866
1.006 1.505 1.534 25235
1.008 1.508 1.529 23618
1.014 1.517 1.528 20003
1.020 1.526 1.528 13202
1.033 1.545 1.536 13775
1.039 1.553 1.535 12903
1.041 1.557 1.530 8828
1.040 1.555 1.520 7976
1.042 1.558 1.514 10296
1.055 1.577 1.522 15681
1.064 1.592 1.526 20445
1.066 1.595 1.520 15695
1.069 1.598 1.515 15130
1.071 1.602 1.509 17250
1.069 1.599 1.499 14567
1.075 1.608 1.498 12957
1.081 1.617 1.496 10843
1.090 1.631 1.500 10625
1.093 1.634 1.494 10313
1.095 1.637 1.488 9507
1.101 1.646 1.487 10880
1.106 1.655 1.485 12184
1.116 1.669 1.488 12311
1.133 1.694 1.499 14851
1.135 1.698 1.493 19783
1.134 1.695 1.483 23635
1.132 1.693 1.473 24631
1.138 1.702 1.471 14330
1.136 1.699 1.461 7775
1.176 1.758 1.497 12750
1.178 1.762 1.491 21571
1.180 1.765 1.484 24836
1.182 1.768 1.478 21267
1.184 1.771 1.472 16546
1.186 1.774 1.466 15395
1.189 1.778 1.459 13615
1.198 1.792 1.461 11146
1.215 1.818 1.471 12929
1.221 1.827 1.469 17084
1.227 1.836 1.466 18056
1.233 1.844 1.464 14927
1.235 1.848 1.457 10872
1.256 1.879 1.470 7297
1.262 1.888 1.468 8517
1.257 1.880 1.453 8402
1.255 1.877 1.443 9118
1.250 1.869 1.428 8196
1.248 1.866 1.418 7455
1.327 1.985 1.488 7241
1.325 1.982 1.477 8188
1.320 1.974 1.463 9619
1.318 1.971 1.452 8290
1.320 1.974 1.445 7185
1.322 1.977 1.438 5612
1.394 2.085 1.498 4317
1.396 2.088 1.490 5362
1.398 2.092 1.483 4750
1.401 2.095 1.476 4138
1.407 2.104 1.472 5288
1.417 2.119 1.472 6823
1.423 2.128 1.468 8420
1.425 2.131 1.460 10210
1.427 2.134 1.453 8937
1.429 2.137 1.445 7665
1.431 2.140 1.437 5608
1.457 2.179 1.451 4340
1.467 2.194 1.450 5810
1.473 2.203 1.446 7516
1.471 2.200 1.435 7371
1.473 2.203 1.427 7261
1.491 2.230 1.433 5189
1.513 2.263 1.442 5347
1.515 2.266 1.434 5347
1.525 2.281 1.432 5159
1.531 2.290 1.427 5585
1.545 2.311 1.429 5072
1.551 2.320 1.424 5321
1.554 2.324 1.416 4423
1.539 2.303 1.395 4317
1.546 2.312 1.390 4133
1.556 2.327 1.388 4246
1.558 2.330 1.380 4246
1.564 2.339 1.375 4907
1.578 2.360 1.376 5697
1.580 2.363 1.368 2848
0.371 0.551 1.655 12274
0.371 0.552 1.646 9628
0.372 0.553 1.637 7498
0.382 0.567 1.663 14428
0.384 0.571 1.661 21946
0.387 0.575 1.659 21946
0.389 0.578 1.657 26132
0.392 0.582 1.655 30318
0.396 0.589 1.660 25155
0.398 0.592 1.658 19999
0.403 0.599 1.663 20846
0.405 0.602 1.661 21719
0.408 0.606 1.659 21429
0.410 0.610 1.656 21140
0.413 0.613 1.654 17797
0.417 0.620 1.659 12655
0.420 0.624 1.657 10353
0.424 0.630 1.662 8960
0.427 0.634 1.659 7772
0.427 0.635 1.650 8921
0.427 0.635 1.641 10585
0.432 0.642 1.645 11224
0.434 0.646 1.643 12032
0.439 0.652 1.648 9751
0.441 0.656 1.645 7628
0.444 0.660 1.643 9037
0.444 0.660 1.634 10555
0.446 0.664 1.631 11057
0.449 0.667 1.629 10014
0.451 0.671 1.626 8504
0.456 0.678 1.631 14339
0.458 0.681 1.628 20522
0.463 0.688 1.633 25919
0.465 0.692 1.630 31737
0.468 0.695 1.628 32238
0.468 0.695 1.618 34061
0.470 0.699 1.616 37194
0.473 0.703 1.613 38535
0.475 0.706 1.611 36800
0.477 0.710 1.608 28986
0.482 0.717 1.613 21655
0.484 0.720 1.610 16080
0.489 0.727 1.614 12775
0.494 0.734 1.618 15080
0.499 0.741 1.622 13788
0.506 0.752 1.633 14054
0.506 0.752 1.624 15096
0.510 0.759 1.628 14807
0.513 0.762 1.625 14012
0.515 0.766 1.622 10495
0.520 0.773 1.626 5565
0.527 0.784 1.637 4687
0.532 0.791 1.640 6084
0.537 0.798 1.644 9504
0.539 0.802 1.641 11301
0.544 0.809 1.645 10125
0.542 0.805 1.629 8005
0.542 0.805 1.619 9392
0.539 0.801 1.603 11514
0.544 0.809 1.607 13490
0.551 0.820 1.617 15002
0.556 0.827 1.621 11297
0.569 0.846 1.644 8744
0.569 0.845 1.634 9021
0.566 0.841 1.618 10612
0.568 0.845 1.615 13058
0.573 0.852 1.619 15573
0.576 0.856 1.616 22156
0.581 0.863 1.619 32985
0.583 0.867 1.616 40957
0.588 0.874 1.619 40016
0.593 0.882 1.622 37328
0.596 0.885 1.619 33460
0.598 0.889 1.616 22853
0.577 0.857 1.556 14626
0.579 0.860 1.553 11019
0.581 0.864 1.550 11610
0.581 0.863 1.540 14184
0.586 0.871 1.543 14714
0.620 0.922 1.615 15255
0.623 0.926 1.612 16554
0.625 0.929 1.609 12967
0.627 0.933 1.605 12023
0.633 0.940 1.608 14905
0.638 0.948 1.611 14874
0.640 0.951 1.608 12369
0.634 0.943 1.586 10382
0.634 0.942 1.576 9119
0.639 0.950 1.579 7637
0.638 0.949 1.569 8681
0.641 0.952 1.566 7842
0.640 0.952 1.557 7543
0.642 0.955 1.553 15282
0.650 0.967 1.562 22706
0.653 0.970 1.558 19689
0.646 0.961 1.537 15604
0.652 0.969 1.539 11444
0.671 0.998 1.572 7848
0.665 0.988 1.550 10493
0.664 0.987 1.541 8527
0.678 1.008 1.561 5145
0.677 1.007 1.552 7870
0.677 1.006 1.542 13989
0.682 1.014 1.544 19557
0.687 1.021 1.547 23743
0.690 1.025 1.543 23078
0.698 1.037 1.551 13503
0.700 1.040 1.547 8326
0.702 1.044 1.544 6691
0.740 1.101 1.610 9474
0.746 1.109 1.612 10587
0.748 1.112 1.608 11931
0.751 1.116 1.604 14847
0.753 1.119 1.600 15937
0.758 1.127 1.601 13467
0.764 1.135 1.603 10358
0.763 1.134 1.593 12111
0.765 1.138 1.589 20025
0.768 1.141 1.585 23087
0.770 1.145 1.581 18576
0.772 1.148 1.577 20853
0.775 1.152 1.573 35139
0.780 1.160 1.574 39594
0.786 1.168 1.576 26994
0.788 1.171 1.572 15108
0.790 1.175 1.567 14990
0.793 1.178 1.563 18654
0.795 1.182 1.559 24827
0.800 1.190 1.560 20274
0.803 1.193 1.556 12203
0.802 1.192 1.546 12123
0.836 1.243 1.597 19272
0.835 1.241 1.587 19282
0.838 1.245 1.582 11558
0.843 1.253 1.583 12310
0.842 1.252 1.573 14153
0.848 1.260 1.574 16124
0.853 1.268 1.575 19866
0.852 1.267 1.565 21942
0.855 1.270 1.561 28070
0.857 1.274 1.556 30109
0.859 1.277 1.552 24716
0.862 1.281 1.547 15052
0.867 1.289 1.548 9560
0.873 1.297 1.549 12355
0.875 1.301 1.544 12061
0.881 1.309 1.544 10826
0.893 1.327 1.555 17122
0.902 1.341 1.561 23519
0.908 1.349 1.561 22223
0.913 1.357 1.562 19540
0.919 1.366 1.562 18762
0.925 1.374 1.562 16593
0.930 1.383 1.562 16925
0.933 1.386 1.557 24496
0.938 1.395 1.558 27625
0.941 1.398 1.553 24952
0.943 1.401 1.548 16492
0.945 1.405 1.543 7921
0.951 1.413 1.543 8986
0.957 1.422 1.542 18080
0.962 1.430 1.542 25256
0.971 1.444 1.547 24390
0.977 1.452 1.547 19743
0.976 1.451 1.537 18578
0.975 1.449 1.527 14255
0.987 1.468 1.536 8878
1.000 1.487 1.545 8491
1.006 1.495 1.545 13370
1.008 1.499 1.540 22018
1.011 1.502 1.534 25423
1.016 1.511 1.534 23953
1.019 1.514 1.528 19557
1.021 1.517 1.523 12751
1.037 1.542 1.536 13478
1.040 1.545 1.531 11454
1.042 1.548 1.525 9014
1.044 1.552 1.520 9882
1.043 1.550 1.510 11596
1.056 1.569 1.518 16518
1.065 1.583 1.521 20894
1.071 1.592 1.520 15696
1.073 1.595 1.515 15360
1.079 1.604 1.514 18422
1.074 1.596 1.499 15232
1.080 1.605 1.498 13023
1.093 1.624 1.505 11376
1.099 1.633 1.504 12185
1.097 1.631 1.494 12274
1.099 1.634 1.488 10218
1.105 1.643 1.487 10037
1.111 1.652 1.485 11628
1.121 1.666 1.488 12480
1.134 1.686 1.495 14905
1.140 1.694 1.493 19521
1.138 1.692 1.483 23223
1.141 1.695 1.477 24585
1.143 1.699 1.471 15015
1.141 1.696 1.461 8318
1.181 1.755 1.497 12178
1.183 1.758 1.491 20109
1.185 1.761 1.484 23007
1.187 1.765 1.478 19791
1.189 1.768 1.472 16055
1.191 1.771 1.466 15537
1.194 1.774 1.459 13630
1.207 1.794 1.465 10858
1.224 1.820 1.475 13291
1.227 1.823 1.469 17497
1.233 1.832 1.466 18263
1.238 1.841 1.464 14846
1.241 1.844 1.457 10588
1.266 1.881 1.474 6706
1.272 1.890 1.472 8377
1.266 1.882 1.457 7925
1.257 1.868 1.439 9128
1.251 1.860 1.424 8921
1.253 1.863 1.418 8510
1.251 1.860 1.407 7517
1.327 1.972 1.473 8897
1.325 1.970 1.463 10607
1.327 1.973 1.456 9041
1.326 1.970 1.445 7764
1.332 1.979 1.441 6358
1.334 1.982 1.434 5242
1.398 2.078 1.487 5454
1.404 2.087 1.483 4527
1.360 2.021 1.432 5236
1.362 2.024 1.424 5420
1.423 2.115 1.472 6923
1.429 2.124 1.468 8484
1.431 2.127 1.460 10169
1.433 2.130 1.453 8827
1.435 2.133 1.445 7485
1.437 2.136 1.437 5752
1.467 2.181 1.454 4440
1.473 2.190 1.450 5948
1.479 2.199 1.446 7723
1.477 2.196 1.435 7448
1.479 2.199 1.427 7317
1.494 2.220 1.429 5080
1.516 2.253 1.438 4908
1.518 2.256 1.430 4908
1.532 2.277 1.432 4290
1.542 2.292 1.431 4457
1.552 2.307 1.429 4138
1.566 2.328 1.431 4696
1.516 2.253 1.380 4105
1.522 2.262 1.376 4225
1.524 2.265 1.367 4092
1.562 2.322 1.388 4501
1.564 2.325 1.380 4501
1.566 2.328 1.372 5057
1.585 2.355 1.376 5720
1.587 2.358 1.368 2860
0.372 0.550 1.655 12595
0.372 0.551 1.646 10058
0.373 0.552 1.637 7951
0.383 0.567 1.663 14879
0.385 0.571 1.661 22610
0.388 0.574 1.659 22610
0.390 0.578 1.657 26587
0.393 0.582 1.655 30563
0.397 0.588 1.660 25136
0.399 0.592 1.658 19803
0.404 0.598 1.663 20315
0.406 0.602 1.661 20910
0.409 0.606 1.659 20544
0.411 0.609 1.656 20178
0.414 0.613 1.654 16952
0.420 0.622 1.666 12008
0.421 0.623 1.657 9733
0.425 0.630 1.662 8504
0.428 0.633 1.659 7388
0.428 0.634 1.650 8554
0.428 0.635 1.641 10366
0.431 0.638 1.638 11121
0.435 0.645 1.643 12142
0.438 0.649 1.641 9884
0.442 0.655 1.645 7806
0.445 0.659 1.643 9505
0.445 0.659 1.634 11274
0.447 0.663 1.631 11830
0.450 0.666 1.629 10600
0.452 0.670 1.626 8747
0.457 0.677 1.631 15021
0.459 0.680 1.628 21471
0.464 0.687 1.633 26516
0.466 0.691 1.630 31987
0.469 0.694 1.628 32362
0.469 0.695 1.618 34038
0.471 0.698 1.616 37147
0.474 0.702 1.613 38326
0.476 0.705 1.611 36459
0.479 0.709 1.608 28726
0.483 0.716 1.613 21360
0.486 0.719 1.610 16345
0.490 0.726 1.614 14087
0.495 0.733 1.618 16864
0.500 0.740 1.622 15233
0.504 0.747 1.626 14831
0.507 0.751 1.624 15042
0.512 0.758 1.628 14116
0.514 0.762 1.625 13146
0.516 0.765 1.622 9545
0.521 0.772 1.626 4666
0.529 0.783 1.637 4040
0.533 0.790 1.640 5501
0.538 0.797 1.644 9900
0.541 0.801 1.641 12596
0.543 0.805 1.638 11559
0.543 0.805 1.629 10297
0.543 0.804 1.619 12882
0.540 0.801 1.603 15763
0.545 0.808 1.607 16603
0.550 0.815 1.611 15783
0.558 0.826 1.621 11159
0.568 0.841 1.637 7995
0.570 0.845 1.634 6909
0.567 0.841 1.618 8632
0.570 0.844 1.615 13738
0.575 0.851 1.619 17727
0.577 0.855 1.616 24478
0.582 0.862 1.619 34826
0.585 0.866 1.616 41577
0.590 0.873 1.619 39696
0.595 0.881 1.622 36716
0.597 0.884 1.619 32583
0.599 0.888 1.616 21716
0.578 0.856 1.556 13395
0.580 0.859 1.553 10982
0.585 0.867 1.556 12558
0.585 0.866 1.546 14394
0.587 0.870 1.543 14782
0.622 0.921 1.615 14250
0.624 0.925 1.612 15389
0.627 0.928 1.609 11921
0.629 0.932 1.605 10948
0.634 0.939 1.608 13998
0.639 0.947 1.611 13783
0.642 0.950 1.608 11081
0.636 0.942 1.586 9341
0.638 0.945 1.582 8823
0.643 0.953 1.585 7978
0.640 0.948 1.569 8684
0.642 0.951 1.566 7656
0.642 0.951 1.557 6707
0.644 0.954 1.553 14458
0.652 0.966 1.562 22736
0.657 0.973 1.564 18999
0.657 0.973 1.555 12661
0.653 0.968 1.539 9152
0.678 1.005 1.584 7737
0.675 1.000 1.568 7634
0.663 0.982 1.535 6733
0.683 1.011 1.567 6053
0.714 1.058 1.623 8295
0.678 1.005 1.542 12904
0.684 1.013 1.544 18292
0.689 1.020 1.547 21202
0.691 1.024 1.543 19348
0.735 1.089 1.621 13179
0.737 1.092 1.618 8300
0.740 1.096 1.614 8175
0.739 1.095 1.604 12256
0.745 1.103 1.606 12329
0.750 1.111 1.608 11510
0.752 1.115 1.604 13177
0.755 1.118 1.600 15026
0.760 1.126 1.601 14263
0.766 1.134 1.603 10703
0.762 1.129 1.588 9269
0.767 1.137 1.589 13586
0.770 1.140 1.585 15846
0.775 1.148 1.587 14085
0.777 1.152 1.583 21281
0.777 1.150 1.573 35495
0.782 1.159 1.574 38567
0.787 1.167 1.576 26682
0.793 1.175 1.577 15751
0.792 1.174 1.567 17484
0.794 1.177 1.563 21346
0.797 1.180 1.559 24966
0.799 1.184 1.555 18710
0.805 1.192 1.556 8403
0.836 1.238 1.601 7626
0.832 1.232 1.586 15951
0.834 1.235 1.581 18154
0.836 1.239 1.577 11456
0.842 1.247 1.578 11398
0.841 1.246 1.568 15692
0.846 1.254 1.569 16348
0.852 1.262 1.570 19154
0.851 1.261 1.560 24420
0.857 1.269 1.561 29717
0.859 1.273 1.556 28538
0.861 1.276 1.552 22604
0.860 1.274 1.542 14719
0.869 1.288 1.548 10600
0.871 1.291 1.543 14664
0.874 1.294 1.539 13891
0.879 1.303 1.539 10920
0.895 1.326 1.555 16873
0.904 1.339 1.561 22920
0.910 1.348 1.561 20278
0.915 1.356 1.562 16670
0.921 1.364 1.562 16803
0.927 1.373 1.562 15381
0.932 1.381 1.562 13947
0.935 1.385 1.557 18786
0.940 1.393 1.558 20781
0.943 1.397 1.553 18846
0.945 1.400 1.548 12589
0.944 1.398 1.538 6656
0.953 1.412 1.543 8711
0.959 1.420 1.542 17474
0.964 1.429 1.542 23911
0.970 1.437 1.542 20867
0.979 1.451 1.547 17619
0.978 1.449 1.537 18683
0.977 1.447 1.527 14887
0.993 1.471 1.541 9646
0.999 1.480 1.541 11056
1.005 1.489 1.540 14751
1.011 1.497 1.540 21723
1.013 1.500 1.534 24409
1.019 1.509 1.534 23229
1.017 1.507 1.523 18597
1.023 1.516 1.523 12259
1.040 1.540 1.536 13464
1.042 1.544 1.531 11584
1.048 1.552 1.530 11032
1.050 1.556 1.524 12370
1.041 1.543 1.505 13010
1.058 1.567 1.518 17274
1.067 1.581 1.521 21456
1.073 1.590 1.520 15766
1.079 1.599 1.519 15313
1.081 1.602 1.514 19288
1.080 1.600 1.503 15737
1.093 1.620 1.511 13330
1.099 1.628 1.510 12521
1.105 1.637 1.509 13793
1.103 1.635 1.498 13485
1.102 1.633 1.488 10518
1.104 1.636 1.482 9111
1.114 1.650 1.485 10724
1.123 1.664 1.488 11979
1.137 1.684 1.495 14749
1.143 1.693 1.493 18966
1.141 1.690 1.483 22256
1.143 1.694 1.477 23811
1.145 1.697 1.471 15215
1.147 1.700 1.465 8733
1.183 1.753 1.497 11299
1.186 1.756 1.491 18282
1.188 1.760 1.484 20813
1.190 1.763 1.478 18030
1.192 1.766 1.472 15286
1.194 1.769 1.466 15324
1.196 1.772 1.459 13195
1.217 1.804 1.473 10548
1.231 1.824 1.479 13468
1.233 1.827 1.473 17525
1.235 1.830 1.466 18122
1.237 1.833 1.460 14662
1.243 1.842 1.457 10368
1.272 1.885 1.478 6640
1.275 1.888 1.472 8420
1.273 1.886 1.461 7475
1.256 1.860 1.435 9099
1.254 1.858 1.424 9411
1.252 1.855 1.414 9219
1.254 1.858 1.407 8106
1.330 1.970 1.473 9181
1.328 1.968 1.463 11030
1.330 1.971 1.456 9368
1.329 1.968 1.445 7961
1.335 1.977 1.441 6906
1.337 1.980 1.434 6105
1.401 2.076 1.487 5478
1.361 2.016 1.439 4951
1.363 2.019 1.432 6295
1.369 2.028 1.428 6126
1.426 2.112 1.472 6963
1.432 2.121 1.468 8460
1.434 2.125 1.460 10015
1.436 2.128 1.453 8640
1.434 2.125 1.442 7311
1.437 2.128 1.434 5908
1.470 2.178 1.454 4530
1.480 2.193 1.454 5940
1.483 2.196 1.446 7589
1.485 2.200 1.438 7240
1.483 2.197 1.427 7079
1.493 2.212 1.426 4934
1.519 2.250 1.438 4426
1.521 2.254 1.430 4426
1.523 2.257 1.422 3541
1.545 2.290 1.431 3316
1.584 2.346 1.452 3545
1.586 2.349 1.444 4714
1.592 2.359 1.439 4225
1.525 2.260 1.376 4203
1.527 2.263 1.367 4182
1.562 2.314 1.385 4796
1.564 2.317 1.377 4796
1.570 2.326 1.372 5172
1.609 2.383 1.391 5694
1.611 2.386 1.383 2847
0.373 0.549 1.655 12337
0.374 0.550 1.646 10100
0.374 0.551 1.637 8239
0.384 0.566 1.663 15001
0.387 0.569 1.661 22669
0.389 0.573 1.659 22669
0.392 0.577 1.657 26343
0.394 0.580 1.655 30018
0.399 0.587 1.660 24492
0.401 0.590 1.658 19114
0.406 0.597 1.663 19567
0.408 0.601 1.661 20162
0.411 0.604 1.659 19851
0.413 0.608 1.656 19540
0.415 0.612 1.654 16387
0.422 0.621 1.666 11577
0.422 0.622 1.657 9310
0.427 0.628 1.662 7943
0.431 0.635 1.666 6716
0.430 0.633 1.650 7752
0.430 0.633 1.641 9582
0.433 0.637 1.638 10613
0.437 0.644 1.643 11798
0.440 0.647 1.641 9798
0.444 0.654 1.645 7843
0.445 0.654 1.636 9816
0.447 0.658 1.634 11727
0.449 0.662 1.631 12381
0.452 0.665 1.629 11091
0.454 0.669 1.626 9008
0.459 0.676 1.631 15540
0.461 0.679 1.628 22075
0.466 0.686 1.633 26746
0.468 0.689 1.630 31847
0.471 0.693 1.628 32123
0.471 0.693 1.618 33647
0.473 0.697 1.616 36662
0.476 0.700 1.613 37546
0.478 0.704 1.611 35481
0.481 0.707 1.608 27854
0.485 0.714 1.613 20475
0.488 0.718 1.610 16242
0.492 0.725 1.614 15229
0.497 0.732 1.618 18457
0.502 0.739 1.622 16580
0.507 0.746 1.626 15606
0.509 0.749 1.624 15001
0.514 0.756 1.628 13373
0.516 0.760 1.625 12152
0.519 0.764 1.622 8691
0.524 0.771 1.626 4472
0.531 0.781 1.637 4242
0.536 0.789 1.640 5257
0.541 0.796 1.644 9943
0.541 0.796 1.635 13474
0.543 0.799 1.632 12663
0.545 0.803 1.629 12285
0.545 0.803 1.619 16465
0.545 0.803 1.610 20523
0.548 0.806 1.607 20340
0.553 0.813 1.611 17509
0.558 0.821 1.614 11626
0.568 0.835 1.631 7756
0.573 0.843 1.634 5610
0.572 0.843 1.625 7728
0.575 0.846 1.622 14938
0.577 0.850 1.619 19599
0.580 0.853 1.616 26413
0.585 0.861 1.619 36283
0.587 0.864 1.616 41797
0.592 0.872 1.619 38895
0.597 0.879 1.622 35545
0.600 0.883 1.619 31084
0.602 0.886 1.616 20049
0.580 0.854 1.556 11900
0.583 0.858 1.553 10783
0.590 0.869 1.562 13385
0.587 0.865 1.546 14243
0.590 0.868 1.543 14280
0.625 0.919 1.615 12680
0.627 0.923 1.612 13833
0.618 0.910 1.584 11710
0.621 0.914 1.581 9916
0.640 0.942 1.615 12591
0.642 0.945 1.611 12524
0.647 0.953 1.614 10119
0.638 0.940 1.586 8184
0.641 0.943 1.582 8146
0.646 0.951 1.585 7972
0.643 0.946 1.569 8572
0.645 0.949 1.566 7390
0.644 0.949 1.557 6061
0.647 0.952 1.553 13780
0.658 0.968 1.568 23306
0.663 0.976 1.570 19864
0.671 0.988 1.579 12757
0.676 0.995 1.582 10765
0.681 1.003 1.584 9516
0.681 1.002 1.574 7837
0.669 0.984 1.541 6134
0.686 1.009 1.567 6597
0.717 1.056 1.623 10118
0.720 1.059 1.619 12255
0.687 1.011 1.544 16035
0.692 1.018 1.547 18078
0.697 1.026 1.549 15810
0.738 1.087 1.621 14666
0.744 1.095 1.623 9285
0.740 1.089 1.608 9594
0.742 1.093 1.604 14881
0.748 1.101 1.606 14101
0.756 1.113 1.613 10808
0.759 1.117 1.609 10745
0.758 1.116 1.600 13351
0.760 1.119 1.596 14621
0.766 1.127 1.597 11532
0.765 1.126 1.588 6699
0.771 1.134 1.589 6640
0.776 1.142 1.591 8012
0.778 1.146 1.587 11330
0.781 1.149 1.583 23051
0.783 1.153 1.578 34602
0.789 1.161 1.580 35625
0.791 1.164 1.576 25007
0.793 1.168 1.572 15847
0.796 1.171 1.567 18648
0.798 1.175 1.563 22615
0.800 1.178 1.559 25797
0.799 1.177 1.549 19365
0.802 1.180 1.545 7417
0.823 1.212 1.574 7417
0.829 1.220 1.575 14374
0.834 1.228 1.576 17541
0.824 1.213 1.550 13509
0.836 1.230 1.562 12323
0.845 1.243 1.568 16871
0.850 1.251 1.569 16680
0.853 1.255 1.565 19538
0.855 1.258 1.560 26791
0.857 1.262 1.556 29343
0.863 1.270 1.556 25729
0.865 1.273 1.552 21304
0.864 1.272 1.542 15953
0.870 1.280 1.543 12603
0.875 1.288 1.543 16462
0.878 1.292 1.539 16067
0.883 1.300 1.539 12455
0.899 1.323 1.555 16819
0.905 1.332 1.556 21655
0.914 1.345 1.561 17915
0.919 1.353 1.562 13966
0.925 1.362 1.562 15225
0.931 1.370 1.562 14841
0.936 1.378 1.562 10578
0.939 1.382 1.557 11442
0.945 1.390 1.558 12918
0.947 1.394 1.553 12552
0.946 1.392 1.543 9451
0.948 1.395 1.538 6469
0.954 1.404 1.538 8740
0.963 1.417 1.542 16425
0.969 1.426 1.542 22090
0.971 1.429 1.537 17845
0.980 1.443 1.542 15378
0.982 1.446 1.537 18222
0.985 1.450 1.532 15403
0.998 1.468 1.541 12612
1.000 1.472 1.536 15540
1.006 1.480 1.535 17452
1.015 1.494 1.540 21130
1.021 1.503 1.539 22547
1.023 1.506 1.534 21412
1.022 1.504 1.523 17027
1.028 1.513 1.523 11573
1.044 1.537 1.536 13446
1.050 1.546 1.535 12818
1.052 1.549 1.530 14256
1.055 1.552 1.524 15184
1.046 1.540 1.505 14886
1.063 1.564 1.518 17777
1.072 1.578 1.521 21589
1.078 1.587 1.520 15727
1.084 1.596 1.519 15240
1.090 1.604 1.518 19703
1.092 1.608 1.512 16190
1.102 1.622 1.516 13902
1.108 1.630 1.514 13679
1.110 1.634 1.509 14791
1.108 1.631 1.498 13846
1.107 1.629 1.488 10435
1.109 1.633 1.482 8323
1.119 1.647 1.485 9685
1.128 1.661 1.488 11059
1.142 1.680 1.495 14305
1.148 1.689 1.493 18163
1.146 1.687 1.483 20864
1.148 1.690 1.477 22352
1.150 1.693 1.471 14881
1.153 1.697 1.465 8869
1.185 1.744 1.493 10331
1.191 1.753 1.491 16086
1.189 1.750 1.480 18300
1.191 1.754 1.474 16136
1.197 1.762 1.472 14363
1.199 1.766 1.466 14819
1.202 1.769 1.459 12449
1.227 1.806 1.478 10204
1.236 1.820 1.479 13315
1.239 1.823 1.473 17069
1.241 1.826 1.466 17574
1.243 1.830 1.460 14325
1.245 1.833 1.453 10436
1.282 1.887 1.482 7028
1.284 1.890 1.476 8420
1.282 1.888 1.465 7180
1.257 1.851 1.431 8850
1.260 1.854 1.424 9531
1.258 1.851 1.414 9590
1.260 1.854 1.407 8409
1.336 1.966 1.473 9086
1.338 1.970 1.466 11015
1.336 1.967 1.456 9339
1.335 1.964 1.445 7908
1.341 1.973 1.441 7218
1.347 1.982 1.438 6792
1.408 2.072 1.487 5386
1.367 2.012 1.439 5713
1.373 2.020 1.435 7077
1.375 2.024 1.428 6590
1.432 2.108 1.472 6883
1.438 2.117 1.468 8263
1.440 2.120 1.460 9653
1.439 2.118 1.449 8374
1.441 2.121 1.442 7139
1.443 2.124 1.434 6088
1.441 2.121 1.423 5047
1.487 2.189 1.454 5757
1.489 2.192 1.446 7185
1.491 2.195 1.438 6791
1.489 2.192 1.427 6634
1.500 2.207 1.426 4703
1.526 2.246 1.438 3904
1.528 2.249 1.430 3904
1.526 2.246 1.419 3160
1.504 2.214 1.391 3347
1.510 2.222 1.386 3685
1.597 2.351 1.447 4672
1.599 2.354 1.439 4360
1.528 2.249 1.372 4199
1.534 2.258 1.367 4228
1.569 2.309 1.385 4995
1.571 2.312 1.377 4995
1.577 2.321 1.372 5181
1.620 2.384 1.395 5742
1.622 2.387 1.386 2871
0.374 0.549 1.655 11747
0.375 0.549 1.646 10069
0.377 0.553 1.644 8757
0.386 0.565 1.663 15148
0.388 0.569 1.661 22653
0.391 0.572 1.659 22653
0.393 0.576 1.657 25885
0.395 0.579 1.655 29116
0.400 0.586 1.660 23521
0.402 0.590 1.658 18110
0.407 0.596 1.663 18700
0.409 0.600 1.661 19494
0.412 0.603 1.659 19259
0.414 0.607 1.656 19024
0.417 0.611 1.654 15916
0.423 0.620 1.666 11120
0.424 0.621 1.657 8873
0.428 0.628 1.662 7369
0.433 0.634 1.666 6062
0.431 0.632 1.650 6709
0.430 0.629 1.634 8298
0.434 0.636 1.638 9634
0.439 0.643 1.643 11072
0.441 0.646 1.641 9472
0.444 0.650 1.638 7872
0.446 0.653 1.636 9870
0.448 0.657 1.634 11719
0.451 0.661 1.631 12572
0.453 0.664 1.629 11336
0.458 0.671 1.633 9152
0.460 0.675 1.631 15713
0.463 0.678 1.628 22158
0.467 0.685 1.633 26445
0.470 0.688 1.630 31127
0.472 0.692 1.628 31398
0.473 0.692 1.618 32854
0.475 0.696 1.616 35808
0.477 0.699 1.613 36461
0.480 0.703 1.611 34228
0.482 0.706 1.608 26707
0.487 0.713 1.613 19309
0.489 0.717 1.610 16004
0.494 0.724 1.614 16288
0.499 0.731 1.618 19884
0.504 0.738 1.622 17802
0.508 0.745 1.626 16341
0.513 0.752 1.630 15112
0.516 0.755 1.628 12841
0.518 0.759 1.625 11401
0.520 0.763 1.622 8460
0.525 0.770 1.626 5229
0.530 0.777 1.630 5340
0.535 0.784 1.634 5527
0.540 0.791 1.637 9723
0.542 0.795 1.635 13718
0.545 0.798 1.632 13165
0.547 0.802 1.629 13839
0.547 0.802 1.619 19945
0.547 0.802 1.610 25302
0.549 0.805 1.607 24088
0.554 0.812 1.611 18935
0.559 0.820 1.614 11589
0.569 0.834 1.631 7355
0.574 0.842 1.634 5583
0.577 0.845 1.631 8408
0.577 0.845 1.622 15937
0.579 0.849 1.619 20884
0.582 0.852 1.616 27625
0.587 0.859 1.619 37067
0.589 0.863 1.616 41638
0.594 0.870 1.619 38018
0.599 0.878 1.622 34369
0.601 0.881 1.619 29514
0.604 0.885 1.616 18266
0.582 0.853 1.556 10198
0.587 0.860 1.559 10424
0.592 0.868 1.562 14027
0.592 0.867 1.553 13901
0.594 0.871 1.550 13566
0.596 0.874 1.546 11635
0.629 0.921 1.612 12480
0.620 0.909 1.584 12794
0.623 0.912 1.581 10595
0.642 0.940 1.615 11235
0.644 0.944 1.611 11071
0.649 0.951 1.614 9233
0.638 0.934 1.580 7135
0.643 0.942 1.582 7477
0.648 0.949 1.585 7718
0.645 0.945 1.569 8083
0.650 0.952 1.572 6931
0.652 0.956 1.569 5704
0.655 0.959 1.565 13359
0.663 0.971 1.574 24444
0.665 0.974 1.570 21933
0.676 0.990 1.585 14654
0.681 0.998 1.588 12449
0.681 0.997 1.578 11725
0.683 1.001 1.574 9470
0.677 0.991 1.553 6614
0.694 1.016 1.579 7146
0.720 1.054 1.623 11610
0.722 1.058 1.619 14046
0.689 1.009 1.544 12835
0.694 1.017 1.547 14862
0.738 1.082 1.625 16900
0.741 1.085 1.621 15268
0.746 1.093 1.623 10034
0.742 1.088 1.608 10753
0.745 1.091 1.604 16969
0.750 1.099 1.606 16147
0.756 1.107 1.608 10530
0.761 1.115 1.609 7903
0.760 1.114 1.600 10785
0.763 1.118 1.596 14593
0.768 1.126 1.597 12390
0.768 1.125 1.588 6978
0.773 1.133 1.589 4890
0.775 1.136 1.585 5802
0.781 1.144 1.587 11456
0.780 1.143 1.577 24354
0.782 1.146 1.573 32811
0.791 1.159 1.580 31798
0.797 1.167 1.581 22813
0.796 1.166 1.572 15776
0.798 1.169 1.567 19183
0.800 1.173 1.563 22261
0.803 1.176 1.559 26436
0.802 1.175 1.549 21497
0.807 1.183 1.551 12721
0.813 1.191 1.552 15425
0.818 1.199 1.553 19366
0.831 1.217 1.565 18940
0.826 1.211 1.550 16222
0.832 1.219 1.551 15511
0.844 1.237 1.563 16922
0.853 1.250 1.569 16198
0.855 1.253 1.565 20699
0.854 1.252 1.555 28976
0.860 1.260 1.556 27710
0.865 1.268 1.556 22195
0.868 1.272 1.552 20422
0.870 1.275 1.547 17437
0.872 1.278 1.543 14744
0.878 1.287 1.543 17872
0.880 1.290 1.539 17921
0.883 1.293 1.534 14291
0.898 1.316 1.550 16757
0.907 1.330 1.556 20110
0.917 1.343 1.561 15449
0.922 1.351 1.562 11860
0.928 1.360 1.562 14544
0.934 1.368 1.562 16011
0.936 1.371 1.557 9355
0.938 1.375 1.552 5154
0.941 1.378 1.547 6821
0.946 1.387 1.547 8699
0.949 1.390 1.543 7513
0.951 1.393 1.538 6914
0.957 1.402 1.538 9783
0.962 1.410 1.537 16884
0.968 1.419 1.537 22206
0.974 1.427 1.537 16635
0.983 1.441 1.542 13490
0.986 1.444 1.537 17152
0.988 1.447 1.532 15978
1.001 1.466 1.541 16857
1.003 1.470 1.536 20802
1.005 1.473 1.530 21110
1.015 1.487 1.535 20853
1.024 1.500 1.539 20390
1.026 1.504 1.534 18788
1.025 1.502 1.523 14854
1.027 1.505 1.518 10809
1.048 1.535 1.536 13298
1.053 1.543 1.535 14051
1.056 1.547 1.530 17302
1.058 1.550 1.524 17957
1.049 1.538 1.505 16769
1.062 1.557 1.513 18249
1.076 1.576 1.521 21192
1.081 1.585 1.520 15438
1.087 1.593 1.519 15041
1.093 1.602 1.518 19998
1.099 1.611 1.517 16503
1.105 1.619 1.516 14284
1.111 1.628 1.514 14430
1.117 1.637 1.513 15034
1.112 1.629 1.498 13415
1.107 1.622 1.484 10135
1.109 1.625 1.478 7632
1.118 1.639 1.481 8810
1.132 1.658 1.488 10157
1.145 1.678 1.495 13736
1.151 1.687 1.493 17272
1.150 1.684 1.483 19247
1.152 1.688 1.477 20483
1.158 1.696 1.475 14282
1.156 1.694 1.465 8841
1.155 1.692 1.455 10191
1.191 1.745 1.486 13711
1.189 1.742 1.476 15761
1.191 1.746 1.470 14426
1.197 1.754 1.468 13455
1.203 1.763 1.466 14164
1.205 1.766 1.459 11562
1.238 1.814 1.486 9891
1.240 1.817 1.479 12789
1.243 1.821 1.473 16196
1.245 1.824 1.466 16759
1.247 1.827 1.460 13914
1.249 1.830 1.453 10714
1.286 1.884 1.482 7604
1.288 1.887 1.476 8456
1.286 1.885 1.465 7097
1.261 1.848 1.431 8510
1.264 1.851 1.424 9369
1.262 1.849 1.414 9633
1.264 1.852 1.407 8436
1.340 1.964 1.473 8617
1.342 1.967 1.466 10515
1.341 1.964 1.456 8868
1.339 1.962 1.445 7489
1.349 1.976 1.445 7306
1.351 1.979 1.438 7442
1.353 1.982 1.431 6189
1.371 2.009 1.439 6334
1.377 2.018 1.435 7576
1.379 2.021 1.428 6848
1.441 2.111 1.475 6733
1.439 2.108 1.464 7967
1.441 2.111 1.457 9225
1.443 2.115 1.449 8090
1.445 2.118 1.442 6955
1.447 2.121 1.434 6230
1.442 2.112 1.419 5594
1.448 2.121 1.415 5686
1.494 2.189 1.446 6684
1.496 2.192 1.438 6257
1.494 2.189 1.427 6121
1.500 2.198 1.422 4524
1.531 2.243 1.438 3364
1.533 2.246 1.430 3364
1.510 2.213 1.402 3525
1.509 2.210 1.391 3990
1.515 2.219 1.386 4056
1.602 2.347 1.447 4522
1.608 2.356 1.442 4369
1.610 2.359 1.434 4308
1.539 2.255 1.367 4280
1.570 2.300 1.382 5155
1.572 2.303 1.374 5155
1.578 2.312 1.368 5160
1.625 2.381 1.395 5729
1.627 2.384 1.386 2864
0.376 0.547 1.655 11374
0.377 0.548 1.646 10194
0.379 0.552 1.644 9303
0.386 0.561 1.656 15594
0.390 0.567 1.661 23022
0.392 0.571 1.659 23022
0.395 0.575 1.657 25926
0.397 0.578 1.655 28830
0.402 0.585 1.660 22912
0.404 0.588 1.658 17316
0.409 0.595 1.663 17885
0.411 0.598 1.661 18765
0.414 0.602 1.659 18418
0.416 0.606 1.656 18072
0.419 0.609 1.654 15039
0.425 0.619 1.666 10445
0.428 0.622 1.664 8313
0.430 0.626 1.662 6982
0.435 0.633 1.666 5663
0.431 0.627 1.643 5965
0.432 0.628 1.634 6949
0.436 0.634 1.638 8675
0.439 0.638 1.636 10560
0.443 0.645 1.641 9368
0.446 0.648 1.638 8218
0.448 0.652 1.636 10134
0.451 0.655 1.634 11803
0.455 0.662 1.638 12867
0.458 0.666 1.636 11709
0.460 0.669 1.633 9351
0.463 0.673 1.631 15803
0.465 0.677 1.628 22061
0.470 0.683 1.633 25894
0.472 0.687 1.630 30034
0.475 0.690 1.628 30237
0.475 0.691 1.618 31553
0.477 0.694 1.616 34470
0.480 0.698 1.613 34927
0.482 0.701 1.611 32545
0.485 0.705 1.608 25193
0.487 0.708 1.606 17840
0.492 0.715 1.610 15621
0.496 0.722 1.614 17390
0.501 0.729 1.618 21355
0.506 0.736 1.622 19146
0.511 0.743 1.626 17278
0.516 0.750 1.630 15384
0.518 0.754 1.628 12350
0.521 0.757 1.625 10604
0.523 0.761 1.622 8550
0.528 0.768 1.626 6380
0.533 0.775 1.630 6647
0.535 0.778 1.627 6210
0.540 0.786 1.631 10010
0.543 0.789 1.628 14265
0.545 0.793 1.625 13841
0.547 0.796 1.622 15446
0.547 0.796 1.613 22959
0.550 0.800 1.610 29080
0.552 0.803 1.607 26674
0.555 0.807 1.604 19402
0.562 0.818 1.614 11196
0.572 0.832 1.631 7083
0.575 0.836 1.628 6607
0.580 0.843 1.631 10437
0.580 0.843 1.622 17493
0.582 0.847 1.619 22487
0.584 0.850 1.616 29001
0.589 0.857 1.619 37852
0.592 0.861 1.616 41451
0.597 0.868 1.619 37251
0.602 0.876 1.622 33360
0.604 0.879 1.619 28067
0.607 0.883 1.616 16481
0.582 0.847 1.549 8481
0.596 0.866 1.572 10090
0.598 0.870 1.568 14536
0.598 0.869 1.559 13131
0.597 0.869 1.550 12527
0.599 0.872 1.546 11228
0.621 0.903 1.587 11440
0.621 0.903 1.578 13637
0.626 0.910 1.581 11623
0.645 0.938 1.615 9735
0.647 0.941 1.611 9433
0.652 0.949 1.614 8218
0.641 0.932 1.580 5968
0.643 0.936 1.576 6331
0.651 0.947 1.585 6978
0.648 0.942 1.569 7827
0.656 0.954 1.578 7014
0.658 0.958 1.575 6267
0.661 0.961 1.571 13717
0.666 0.969 1.574 25333
0.671 0.976 1.577 23577
0.679 0.988 1.585 16140
0.685 0.996 1.588 13943
0.684 0.995 1.578 13693
0.686 0.998 1.574 11084
0.695 1.010 1.583 7959
0.697 1.014 1.579 8492
0.723 1.052 1.623 12821
0.726 1.055 1.619 15462
0.731 1.063 1.621 12090
0.739 1.075 1.629 13942
0.742 1.079 1.625 17548
0.744 1.083 1.621 15215
0.753 1.095 1.629 10768
0.746 1.085 1.608 12700
0.749 1.089 1.604 19237
0.754 1.097 1.606 18439
0.756 1.100 1.602 11670
0.762 1.108 1.604 6378
0.764 1.112 1.600 8534
0.767 1.115 1.596 14148
0.769 1.119 1.592 13311
0.771 1.122 1.588 10403
0.777 1.130 1.589 11382
0.776 1.129 1.579 11481
0.782 1.137 1.581 14193
0.784 1.140 1.577 25312
0.786 1.144 1.573 30443
0.795 1.156 1.580 27377
0.801 1.164 1.581 20195
0.800 1.163 1.572 15656
0.802 1.167 1.567 19786
0.804 1.170 1.563 20628
0.807 1.174 1.559 25712
0.806 1.172 1.549 22644
0.811 1.180 1.551 18346
0.817 1.188 1.552 25988
0.819 1.192 1.548 27179
0.828 1.205 1.554 21885
0.830 1.208 1.550 17886
0.836 1.216 1.551 18846
0.845 1.229 1.557 17316
0.857 1.247 1.569 15206
0.856 1.245 1.559 22489
0.859 1.249 1.555 31322
0.861 1.252 1.550 25966
0.870 1.265 1.556 18855
0.869 1.264 1.546 20575
0.874 1.272 1.547 19495
0.877 1.275 1.543 17356
0.882 1.283 1.543 19642
0.885 1.287 1.539 19853
0.887 1.290 1.534 16426
0.903 1.313 1.550 17123
0.912 1.326 1.556 18302
0.918 1.335 1.556 13435
0.927 1.348 1.562 10975
0.933 1.356 1.562 15398
0.938 1.365 1.562 19686
0.941 1.368 1.557 15151
0.943 1.372 1.552 10876
0.945 1.375 1.547 11026
0.948 1.378 1.542 10689
0.950 1.382 1.538 8389
0.959 1.395 1.543 8666
0.962 1.399 1.538 11078
0.967 1.407 1.537 17208
0.973 1.415 1.537 22686
0.975 1.419 1.532 16301
0.988 1.437 1.542 11785
0.991 1.441 1.537 15850
0.993 1.444 1.532 16709
1.006 1.463 1.541 21392
1.008 1.466 1.536 26139
1.010 1.470 1.530 25123
1.020 1.483 1.535 21585
1.029 1.497 1.539 17984
1.031 1.500 1.534 15373
1.030 1.498 1.523 12070
1.032 1.502 1.518 9888
1.053 1.531 1.536 13061
1.059 1.540 1.535 14973
1.061 1.543 1.530 19701
1.063 1.546 1.524 20349
1.055 1.534 1.505 18246
1.068 1.553 1.513 18776
1.081 1.572 1.521 20320
1.087 1.581 1.520 14986
1.097 1.595 1.524 15037
1.099 1.598 1.518 20053
1.105 1.607 1.517 16905
1.111 1.615 1.516 14633
1.117 1.624 1.514 14887
1.119 1.627 1.509 14518
1.114 1.620 1.494 12480
1.112 1.618 1.484 9702
1.103 1.605 1.465 7100
1.124 1.635 1.481 8218
1.137 1.655 1.488 9686
1.151 1.674 1.495 13312
1.157 1.683 1.493 16542
1.155 1.681 1.483 17606
1.158 1.684 1.477 18353
1.164 1.692 1.475 13554
1.181 1.718 1.486 9123
1.160 1.688 1.455 10596
1.163 1.691 1.449 14044
1.168 1.700 1.447 15748
1.186 1.725 1.457 13293
1.203 1.750 1.468 12584
1.209 1.759 1.466 13277
1.211 1.762 1.459 10509
1.244 1.810 1.486 9552
1.247 1.813 1.479 12096
1.249 1.816 1.473 15107
1.251 1.820 1.466 15838
1.253 1.823 1.460 13559
1.255 1.826 1.453 11138
1.292 1.880 1.482 8100
1.295 1.883 1.476 8432
1.297 1.886 1.469 7152
1.268 1.844 1.431 7865
1.270 1.847 1.424 8858
1.268 1.844 1.414 9299
1.270 1.847 1.407 8144
1.351 1.965 1.477 7919
1.349 1.962 1.466 9681
1.347 1.960 1.456 8184
1.345 1.957 1.445 6873
1.355 1.972 1.445 7367
1.358 1.975 1.438 7985
1.360 1.978 1.431 6992
1.378 2.004 1.439 6803
1.384 2.013 1.435 7832
1.386 2.016 1.428 6915
1.448 2.106 1.475 6540
1.446 2.103 1.464 7604
1.448 2.106 1.457 8716
1.450 2.110 1.449 7726
1.453 2.113 1.442 6735
1.451 2.110 1.430 6326
1.449 2.107 1.419 6028
1.455 2.116 1.415 6026
1.457 2.119 1.408 6065
1.499 2.181 1.435 5649
1.498 2.178 1.423 5601
1.508 2.193 1.422 4405
1.490 2.167 1.398 3320
1.516 2.205 1.410 3301
1.514 2.202 1.399 3905
1.516 2.205 1.391 4522
1.522 2.214 1.386 4317
1.610 2.342 1.447 4310
1.616 2.351 1.442 4278
1.618 2.354 1.434 4332
1.547 2.250 1.367 4291
1.577 2.294 1.382 5300
1.579 2.297 1.374 5300
1.586 2.306 1.368 5103
1.637 2.381 1.398 5728
1.639 2.384 1.389 2864
0.378 0.546 1.655 10994
0.378 0.547 1.646 10259
0.381 0.551 1.644 9756
0.387 0.560 1.656 16005
0.390 0.563 1.654 23472
0.392 0.567 1.652 23472
0.397 0.573 1.657 26113
0.399 0.577 1.655 28896
0.402 0.581 1.653 22786
0.406 0.587 1.658 16869
0.409 0.591 1.656 17218
0.413 0.597 1.661 17748
0.416 0.601 1.659 17385
0.418 0.604 1.656 17022
0.421 0.608 1.654 14174
0.427 0.618 1.666 9741
0.430 0.621 1.664 7777
0.432 0.625 1.662 6645
0.433 0.626 1.652 5567
0.431 0.623 1.636 5473
0.433 0.627 1.634 5669
0.436 0.630 1.631 7743
0.440 0.637 1.636 9995
0.443 0.640 1.634 9213
0.445 0.644 1.631 8460
0.450 0.651 1.636 10199
0.452 0.654 1.634 11600
0.457 0.661 1.638 12885
0.460 0.665 1.636 12006
0.462 0.668 1.633 9715
0.464 0.672 1.631 15958
0.467 0.675 1.628 21916
0.472 0.682 1.633 25201
0.476 0.689 1.637 28749
0.477 0.689 1.628 28700
0.477 0.689 1.618 29741
0.479 0.693 1.616 32521
0.482 0.696 1.613 32686
0.484 0.700 1.611 30157
0.486 0.703 1.608 23098
0.489 0.707 1.606 16039
0.494 0.714 1.610 14837
0.498 0.721 1.614 17990
0.503 0.728 1.618 22165
0.508 0.735 1.622 19951
0.513 0.742 1.626 17874
0.518 0.749 1.630 15466
0.520 0.752 1.628 11820
0.523 0.756 1.625 9801
0.525 0.759 1.622 8590
