0.237 1.385 1.741 26274
0.238 1.395 1.743 23364
0.244 1.431 1.774 18590
0.247 1.446 1.781 17807
0.248 1.451 1.777 11422
0.248 1.450 1.767 10354
0.248 1.455 1.762 13669
0.249 1.460 1.758 12405
0.252 1.475 1.765 9764
0.254 1.485 1.767 10448
0.255 1.495 1.768 17759
0.257 1.505 1.769 24440
0.259 1.515 1.770 17061
0.261 1.531 1.777 11251
0.261 1.530 1.767 13778
0.262 1.535 1.762 16430
0.265 1.550 1.769 16577
0.266 1.560 1.770 11463
0.267 1.565 1.765 10347
0.268 1.570 1.760 12770
0.271 1.585 1.767 11826
0.271 1.584 1.757 9573
0.267 1.561 1.724 8981
0.273 1.599 1.753 8637
0.277 1.621 1.764 8651
0.281 1.648 1.781 7705
0.280 1.641 1.766 15606
0.279 1.635 1.750 16854
0.279 1.633 1.739 13483
0.282 1.649 1.745 15003
0.284 1.665 1.751 15824
0.287 1.681 1.757 10434
0.291 1.703 1.768 8580
0.263 1.541 1.607 8287
0.265 1.551 1.608 6220
0.265 1.550 1.598 3259
0.296 1.733 1.758 5931
0.296 1.732 1.748 8341
0.300 1.754 1.758 8473
0.301 1.765 1.758 10940
0.302 1.769 1.753 8389
0.299 1.750 1.727 5910
0.301 1.761 1.727 5606
0.304 1.783 1.737 5089
0.308 1.805 1.747 5555
0.314 1.840 1.768 5220
0.316 1.850 1.767 5196
0.319 1.867 1.772 4320
0.321 1.877 1.771 5831
0.320 1.876 1.761 8192
0.320 1.875 1.750 8051
0.320 1.873 1.739 6766
0.274 1.607 1.507 8797
0.329 1.925 1.763 10662
0.329 1.929 1.757 13539
0.329 1.928 1.747 11169
0.276 1.616 1.483 7736
0.278 1.626 1.483 6491
0.334 1.954 1.739 5826
0.336 1.971 1.743 4900
0.337 1.975 1.737 5292
0.338 1.980 1.731 5502
0.345 2.021 1.754 5702
0.346 2.026 1.748 5482
0.318 1.863 1.612 6693
0.319 1.867 1.607 6499
0.320 1.872 1.601 4502
0.358 2.094 1.762 5765
0.357 2.092 1.751 6118
0.357 2.091 1.740 6002
0.358 2.095 1.734 5894
0.360 2.106 1.732 5133
0.364 2.130 1.740 3703
0.366 2.141 1.738 4184
0.365 2.139 1.727 3140
0.314 1.839 1.499 4506
0.316 1.849 1.499 4485
0.313 1.834 1.479 3929
0.313 1.831 1.469 3420
0.313 1.835 1.464 4247
0.314 1.839 1.458 5866
0.314 1.836 1.448 6028
0.313 1.833 1.438 5222
0.313 1.831 1.428 4099
0.317 1.854 1.436 3425
0.349 2.045 1.559 3746
0.349 2.043 1.548 3409
0.405 2.372 1.761 4721
0.406 2.376 1.754 5441
0.407 2.381 1.747 4455
0.415 2.431 1.770 4258
0.411 2.410 1.746 4995
0.412 2.414 1.738 6033
0.414 2.426 1.735 5797
0.426 2.496 1.771 4587
0.431 2.527 1.780 6547
0.433 2.538 1.777 9119
0.434 2.543 1.769 10441
0.436 2.554 1.766 11776
0.438 2.566 1.762 11708
0.439 2.570 1.755 9909
0.441 2.581 1.751 8310
0.440 2.579 1.739 8342
0.442 2.591 1.736 10822
0.444 2.602 1.732 13709
0.446 2.613 1.728 12596
0.453 2.651 1.740 9676
0.456 2.669 1.740 9622
0.455 2.667 1.728 8913
0.455 2.665 1.717 7696
0.455 2.663 1.705 7081
0.457 2.674 1.701 5555
0.460 2.692 1.700 4497
0.462 2.703 1.696 4070
0.479 2.803 1.742 5029
0.481 2.815 1.737 5848
0.483 2.826 1.733 5090
0.484 2.837 1.728 4146
0.485 2.842 1.720 3753
0.478 2.798 1.685 3466
0.487 2.851 1.703 3855
0.489 2.862 1.698 4458
0.490 2.867 1.689 5212
0.490 2.871 1.681 5966
0.493 2.889 1.680 4951
0.501 2.935 1.693 5046
0.519 3.037 1.734 3991
0.519 3.042 1.725 4587
0.519 3.039 1.713 5038
0.519 3.037 1.700 5891
0.518 3.034 1.687 6240
0.518 3.032 1.675 6749
0.518 3.036 1.666 5687
0.518 3.033 1.653 4762
0.526 3.080 1.665 3720
0.543 3.183 1.704 3818
0.539 3.159 1.680 3410
0.539 3.156 1.668 3603
0.564 3.302 1.725 4385
0.567 3.321 1.722 5670
0.567 3.318 1.709 5272
0.566 3.316 1.696 5045
0.567 3.320 1.686 5045
0.566 3.317 1.673 4914
0.567 3.322 1.663 4839
0.567 3.319 1.650 4671
0.566 3.316 1.637 4567
0.565 3.306 1.620 3133
0.588 3.446 1.670 2563
0.589 3.451 1.660 2563
0.590 3.455 1.650 1281
0.119 0.693 1.742 8643
0.121 0.701 1.747 7636
0.122 0.706 1.745 6675
0.122 0.710 1.742 6400
0.124 0.718 1.747 6497
0.125 0.723 1.745 6822
0.125 0.727 1.743 7355
0.126 0.732 1.741 7889
0.127 0.736 1.739 6832
0.128 0.744 1.743 5808
0.129 0.746 1.734 7398
0.129 0.750 1.732 9022
0.129 0.751 1.722 9058
0.130 0.752 1.713 10636
0.130 0.757 1.711 11950
0.131 0.761 1.708 10976
0.132 0.766 1.706 10002
0.134 0.777 1.718 11030
0.136 0.789 1.730 13223
0.138 0.801 1.741 14166
0.139 0.805 1.739 15508
0.140 0.810 1.736 16802
0.140 0.815 1.734 18097
0.142 0.823 1.738 19020
0.143 0.827 1.736 19969
0.143 0.832 1.733 15948
0.145 0.840 1.738 11955
0.145 0.841 1.728 11511
0.146 0.846 1.726 11094
0.147 0.854 1.730 11685
0.149 0.862 1.734 12632
0.149 0.867 1.732 13718
0.151 0.875 1.736 15007
0.152 0.884 1.740 16058
0.153 0.888 1.737 17985
0.153 0.889 1.728 19082
0.154 0.894 1.725 17546
0.155 0.898 1.722 16010
0.156 0.903 1.720 12148
0.156 0.907 1.717 8362
0.158 0.916 1.721 8447
0.158 0.916 1.711 8869
0.159 0.921 1.709 9300
0.161 0.933 1.719 10643
0.162 0.938 1.717 12249
0.163 0.946 1.720 11937
0.164 0.951 1.718 8966
0.165 0.955 1.715 5321
0.167 0.968 1.725 5719
0.168 0.973 1.722 9839
0.168 0.973 1.713 14107
0.169 0.978 1.710 16754
0.169 0.982 1.707 18148
0.170 0.987 1.704 14863
0.171 0.991 1.701 11153
0.172 1.000 1.704 14904
0.174 1.009 1.708 23752
0.175 1.013 1.705 28775
0.175 1.018 1.702 30024
0.177 1.027 1.705 34840
0.178 1.035 1.709 40870
0.179 1.040 1.705 43704
0.181 1.049 1.709 42052
0.182 1.053 1.706 33072
0.182 1.053 1.696 26538
0.183 1.062 1.699 26764
0.185 1.076 1.709 25317
0.188 1.089 1.718 15359
0.192 1.112 1.741 5268
0.193 1.121 1.744 3080
0.194 1.126 1.741 6544
0.193 1.121 1.724 14925
0.194 1.126 1.721 21092
0.196 1.135 1.724 25930
0.196 1.139 1.721 27869
0.197 1.144 1.717 22371
0.199 1.153 1.720 15183
0.200 1.162 1.723 11710
0.204 1.181 1.738 14141
0.204 1.181 1.728 11697
0.204 1.186 1.725 8077
0.206 1.195 1.727 12199
0.208 1.204 1.730 19872
0.208 1.209 1.726 22239
0.210 1.218 1.729 20151
0.211 1.223 1.725 14347
0.212 1.232 1.728 12977
0.214 1.242 1.730 14199
0.213 1.236 1.714 14604
0.215 1.246 1.716 15631
0.216 1.255 1.719 16956
0.218 1.265 1.721 15086
0.227 1.314 1.772 15985
0.228 1.324 1.774 20314
0.229 1.329 1.770 26151
0.231 1.338 1.772 23756
0.232 1.348 1.774 16259
0.232 1.348 1.764 15514
0.233 1.352 1.760 27211
0.235 1.362 1.762 29540
0.236 1.367 1.758 22530
0.236 1.371 1.754 24220
0.237 1.376 1.750 31812
0.237 1.375 1.740 31997
0.239 1.385 1.741 26991
0.240 1.395 1.743 25135
0.243 1.410 1.751 17609
0.249 1.446 1.781 15804
0.249 1.445 1.771 11296
0.249 1.445 1.761 10597
0.251 1.455 1.762 13329
0.252 1.459 1.758 11747
0.253 1.469 1.759 8364
0.257 1.490 1.772 9037
0.258 1.495 1.768 15444
0.259 1.505 1.769 21891
0.260 1.509 1.765 15351
0.262 1.519 1.766 8980
0.263 1.524 1.761 12847
0.263 1.529 1.757 16559
0.266 1.544 1.763 16363
0.267 1.549 1.759 10907
0.267 1.548 1.748 10705
0.269 1.558 1.749 15068
0.273 1.585 1.767 14439
0.273 1.584 1.757 11466
0.269 1.561 1.724 9302
0.275 1.593 1.747 9499
0.267 1.547 1.693 9688
0.284 1.647 1.781 6966
0.283 1.641 1.766 13373
0.282 1.634 1.750 15978
0.281 1.633 1.739 15542
0.284 1.649 1.745 19101
0.287 1.665 1.751 19920
0.288 1.670 1.746 12054
0.293 1.703 1.768 6485
0.267 1.547 1.613 8609
0.267 1.551 1.608 6559
0.300 1.740 1.774 4058
0.299 1.733 1.758 7323
0.298 1.732 1.748 9362
0.301 1.748 1.753 8619
0.304 1.764 1.758 10662
0.305 1.769 1.753 7825
0.302 1.750 1.727 5286
0.303 1.760 1.727 5105
0.308 1.788 1.742 5566
0.310 1.799 1.742 5830
0.317 1.839 1.768 5439
0.318 1.844 1.762 5596
0.314 1.825 1.736 4415
0.323 1.877 1.771 5502
0.323 1.875 1.761 7769
0.323 1.874 1.750 7992
0.324 1.879 1.744 6471
0.277 1.606 1.507 8366
0.332 1.924 1.763 10998
0.332 1.929 1.757 13535
0.333 1.933 1.752 10710
0.278 1.616 1.483 6613
0.339 1.967 1.760 6995
0.338 1.959 1.744 7540
0.340 1.970 1.743 6000
0.340 1.975 1.737 5997
0.340 1.973 1.726 5869
0.348 2.021 1.754 5392
0.349 2.025 1.748 5227
0.321 1.863 1.612 7033
0.322 1.867 1.607 6965
0.323 1.871 1.601 4923
0.360 2.087 1.757 5381
0.361 2.092 1.751 5567
0.360 2.090 1.740 6008
0.361 2.095 1.734 6755
0.363 2.106 1.732 5798
0.366 2.123 1.735 3633
0.369 2.140 1.738 3697
0.316 1.834 1.505 3160
0.317 1.838 1.499 4712
0.318 1.842 1.494 4614
0.316 1.833 1.479 4575
0.317 1.837 1.474 4070
0.316 1.835 1.464 4676
0.317 1.838 1.458 6172
0.316 1.836 1.448 6474
0.316 1.833 1.438 5660
0.315 1.830 1.428 4356
0.394 2.286 1.733 3514
0.352 2.045 1.559 3868
0.327 1.900 1.451 3502
0.408 2.365 1.757 5015
0.408 2.369 1.750 5890
0.408 2.367 1.738 5050
0.408 2.365 1.727 4848
0.410 2.376 1.724 5384
0.414 2.401 1.730 6016
0.418 2.425 1.735 5549
0.418 2.423 1.724 4610
0.435 2.526 1.780 6254
0.437 2.538 1.777 8799
0.439 2.549 1.773 10476
0.440 2.554 1.766 12510
0.442 2.565 1.762 12660
0.443 2.570 1.755 10672
0.445 2.581 1.751 8931
0.444 2.579 1.739 8976
0.446 2.590 1.736 11799
0.448 2.601 1.732 15020
0.450 2.613 1.728 13474
0.457 2.651 1.740 9443
0.460 2.669 1.740 9478
0.460 2.667 1.728 8554
0.458 2.658 1.713 7562
0.459 2.662 1.705 6930
0.461 2.673 1.701 5619
0.464 2.691 1.700 4979
0.465 2.696 1.692 4727
0.483 2.802 1.742 4583
0.485 2.814 1.737 5532
0.487 2.825 1.733 4856
0.489 2.837 1.728 3831
0.490 2.841 1.720 3844
0.490 2.846 1.711 3857
0.491 2.850 1.703 4210
0.493 2.862 1.698 4630
0.494 2.866 1.689 5309
0.495 2.870 1.681 5989
0.496 2.875 1.672 4867
0.507 2.942 1.696 5026
0.523 3.036 1.734 4295
0.524 3.041 1.725 5082
0.524 3.038 1.713 5389
0.523 3.036 1.700 6065
0.523 3.033 1.687 6461
0.522 3.031 1.675 7138
0.523 3.035 1.666 6131
0.523 3.033 1.653 5250
0.530 3.072 1.661 3728
0.548 3.182 1.704 4107
0.546 3.165 1.684 3689
0.545 3.163 1.671 3777
0.570 3.308 1.729 4336
0.572 3.320 1.722 5671
0.572 3.317 1.709 5388
0.570 3.308 1.692 5407
0.571 3.312 1.683 5407
0.572 3.316 1.673 5256
0.571 3.314 1.660 5167
0.572 3.318 1.650 4847
0.571 3.315 1.637 4565
0.570 3.305 1.620 3111
0.594 3.445 1.670 2855
0.595 3.450 1.660 2855
0.595 3.454 1.650 1427
0.122 0.693 1.742 8977
0.123 0.701 1.747 7759
0.124 0.705 1.745 6652
0.125 0.710 1.742 6216
0.126 0.718 1.747 6012
0.127 0.722 1.745 6155
0.128 0.727 1.743 6760
0.129 0.735 1.748 7384
0.130 0.739 1.746 6540
0.131 0.744 1.743 5697
0.131 0.745 1.734 7279
0.132 0.750 1.732 8889
0.132 0.751 1.722 8987
0.132 0.752 1.713 10585
0.133 0.756 1.711 11867
0.134 0.761 1.708 10902
0.134 0.765 1.706 9938
0.136 0.777 1.718 11119
0.138 0.789 1.730 13581
0.141 0.800 1.741 14567
0.141 0.805 1.739 15852
0.143 0.813 1.743 16935
0.144 0.818 1.741 18035
0.144 0.822 1.738 19014
0.145 0.827 1.736 19994
0.146 0.831 1.733 16327
0.147 0.840 1.738 12874
0.148 0.844 1.735 12456
0.148 0.845 1.726 12090
0.150 0.853 1.730 12443
0.151 0.862 1.734 13011
0.152 0.866 1.732 14108
0.154 0.875 1.736 15230
0.155 0.883 1.740 16150
0.156 0.888 1.737 18102
0.156 0.888 1.728 19406
0.157 0.893 1.725 17878
0.158 0.898 1.722 16351
0.158 0.902 1.720 12343
0.159 0.907 1.717 9021
0.160 0.911 1.714 9706
0.161 0.916 1.711 9851
0.162 0.920 1.709 9996
0.163 0.929 1.713 10815
0.165 0.937 1.717 11785
0.165 0.942 1.714 11355
0.166 0.946 1.711 8502
0.168 0.955 1.715 5286
0.170 0.968 1.725 6255
0.171 0.972 1.722 10547
0.171 0.973 1.713 14855
0.172 0.977 1.710 17776
0.172 0.982 1.707 19734
0.173 0.986 1.704 16641
0.174 0.991 1.701 12701
0.175 0.999 1.704 17363
0.177 1.008 1.708 27310
0.178 1.013 1.705 32720
0.179 1.017 1.702 33398
0.180 1.026 1.705 35867
0.182 1.035 1.709 40092
0.182 1.039 1.705 42772
0.184 1.048 1.709 41455
0.185 1.053 1.706 33780
0.185 1.053 1.696 28165
0.186 1.062 1.699 28590
0.189 1.075 1.709 27099
0.191 1.089 1.718 16514
0.195 1.112 1.741 5774
0.197 1.121 1.744 3589
0.197 1.121 1.734 6629
0.197 1.121 1.724 14623
0.198 1.125 1.721 20479
0.199 1.134 1.724 23856
0.200 1.139 1.721 25062
0.201 1.143 1.717 20685
0.202 1.148 1.714 15260
0.204 1.162 1.723 12710
0.207 1.181 1.738 14533
0.207 1.180 1.728 12335
0.208 1.185 1.725 9145
0.210 1.194 1.727 12806
0.211 1.204 1.730 19529
0.212 1.208 1.726 21365
0.214 1.217 1.729 19533
0.215 1.222 1.725 13903
0.216 1.231 1.728 12272
0.217 1.236 1.724 14291
0.217 1.236 1.714 15751
0.219 1.245 1.716 16657
0.220 1.254 1.719 17398
0.222 1.264 1.721 15586
0.230 1.308 1.766 13664
0.232 1.323 1.774 17643
0.233 1.328 1.770 23733
0.235 1.337 1.772 22070
0.237 1.347 1.774 14877
0.236 1.347 1.764 14252
0.237 1.351 1.760 25312
0.239 1.361 1.762 27778
0.240 1.366 1.758 22046
0.241 1.370 1.754 24158
0.241 1.370 1.744 31295
0.241 1.374 1.740 31357
0.243 1.384 1.741 26885
0.245 1.394 1.743 26072
0.246 1.404 1.745 18371
0.253 1.440 1.776 13944
0.253 1.439 1.765 11707
0.253 1.439 1.755 11671
0.255 1.454 1.762 13182
0.256 1.459 1.758 11190
0.257 1.463 1.754 7465
0.261 1.489 1.772 7580
0.262 1.494 1.768 13213
0.264 1.504 1.769 19720
0.265 1.509 1.765 15677
0.266 1.513 1.760 10135
0.267 1.518 1.755 13132
0.268 1.528 1.757 16701
0.270 1.538 1.758 17094
0.271 1.543 1.753 12711
0.270 1.536 1.737 13746
0.272 1.546 1.738 18649
0.275 1.567 1.750 16333
0.277 1.578 1.751 12370
0.274 1.560 1.724 9275
0.280 1.592 1.747 10439
0.272 1.547 1.693 11125
0.271 1.545 1.682 7757
0.288 1.640 1.766 10798
0.287 1.633 1.750 14809
0.287 1.632 1.739 17428
0.289 1.648 1.745 22825
0.292 1.664 1.751 24896
0.293 1.669 1.746 15495
0.297 1.690 1.757 6300
0.271 1.546 1.613 8793
0.272 1.550 1.608 6686
0.305 1.739 1.774 4898
0.304 1.732 1.758 8438
0.304 1.731 1.748 10124
0.307 1.747 1.753 8597
0.310 1.763 1.758 10065
0.310 1.768 1.753 7067
0.306 1.743 1.722 4835
0.310 1.765 1.732 4554
0.314 1.787 1.742 5791
0.316 1.798 1.742 5757
0.323 1.838 1.768 5489
0.324 1.843 1.762 5960
0.320 1.824 1.736 5015
0.329 1.876 1.771 5530
0.329 1.874 1.761 7883
0.329 1.873 1.750 8425
0.331 1.884 1.749 7250
0.282 1.605 1.507 7730
0.338 1.923 1.763 10653
0.338 1.928 1.757 12827
0.339 1.932 1.752 9989
0.347 1.973 1.776 6501
0.345 1.966 1.760 8197
0.344 1.958 1.744 8797
0.346 1.969 1.743 6827
0.347 1.974 1.737 6738
0.346 1.972 1.726 6396
0.354 2.013 1.750 5191
0.326 1.857 1.618 5019
0.327 1.862 1.612 7117
0.328 1.866 1.607 7219
0.328 1.870 1.601 5236
0.302 1.718 1.477 4857
0.367 2.091 1.751 4928
0.367 2.089 1.740 6045
0.368 2.094 1.734 7512
0.370 2.104 1.732 6425
0.373 2.122 1.735 3676
0.377 2.145 1.743 3311
0.322 1.833 1.505 3487
0.323 1.837 1.499 4796
0.323 1.841 1.494 4711
0.322 1.832 1.479 5074
0.322 1.836 1.474 4781
0.322 1.834 1.464 5036
0.323 1.837 1.458 6271
0.322 1.835 1.448 6674
0.322 1.832 1.438 5891
0.321 1.829 1.428 4464
0.401 2.285 1.733 3795
0.359 2.044 1.559 3900
0.334 1.905 1.456 3545
0.415 2.363 1.757 5361
0.415 2.361 1.745 6367
0.414 2.360 1.734 5936
0.415 2.364 1.727 5920
0.416 2.369 1.720 6032
0.419 2.386 1.721 6353
0.422 2.404 1.723 5497
0.423 2.408 1.715 4878
0.443 2.525 1.780 5945
0.445 2.536 1.777 8437
0.447 2.548 1.773 10434
0.448 2.552 1.766 13018
0.450 2.563 1.762 13377
0.451 2.568 1.755 11264
0.453 2.579 1.751 9460
0.454 2.584 1.743 9558
0.455 2.589 1.736 12626
0.456 2.600 1.732 16058
0.457 2.604 1.724 14064
0.465 2.649 1.740 9215
0.468 2.667 1.740 9386
0.468 2.665 1.728 8199
0.466 2.656 1.713 7294
0.467 2.661 1.705 6546
0.470 2.679 1.704 5527
0.472 2.690 1.700 5296
0.473 2.694 1.692 5265
0.474 2.699 1.684 5234
0.494 2.812 1.737 5207
0.496 2.824 1.733 4667
0.489 2.787 1.702 3840
0.499 2.840 1.720 3997
0.499 2.844 1.711 4377
0.500 2.849 1.703 4591
0.502 2.860 1.698 4828
0.502 2.858 1.686 5394
0.503 2.862 1.677 5983
0.502 2.859 1.665 4921
0.516 2.940 1.696 4972
0.533 3.035 1.734 4412
0.534 3.039 1.725 5338
0.533 3.037 1.713 5578
0.533 3.034 1.700 6127
0.532 3.032 1.687 6591
0.532 3.029 1.675 7426
0.533 3.034 1.666 6543
0.532 3.031 1.653 5767
0.535 3.049 1.651 4042
0.557 3.173 1.700 4074
0.555 3.164 1.684 3756
0.555 3.161 1.671 3769
0.581 3.307 1.729 4299
0.583 3.318 1.722 5659
0.582 3.316 1.709 5472
0.580 3.306 1.692 5726
0.581 3.310 1.683 5726
0.581 3.308 1.669 5504
0.582 3.312 1.660 5332
0.582 3.316 1.650 4868
0.582 3.313 1.637 4430
0.581 3.311 1.624 3017
0.603 3.436 1.667 3088
0.604 3.441 1.657 3088
0.605 3.445 1.647 1544
0.123 0.693 1.742 9439
0.124 0.700 1.747 8064
0.125 0.705 1.745 6858
0.126 0.710 1.742 6231
0.127 0.717 1.747 5710
0.128 0.722 1.745 5705
0.130 0.730 1.750 6345
0.130 0.735 1.748 7002
0.131 0.739 1.746 6338
0.131 0.740 1.736 5676
0.132 0.745 1.734 7226
0.133 0.749 1.732 8776
0.133 0.751 1.722 8932
0.133 0.752 1.713 10464
0.134 0.756 1.711 11640
0.135 0.761 1.708 10677
0.136 0.765 1.706 9714
0.138 0.777 1.718 11072
0.140 0.792 1.737 13854
0.142 0.800 1.741 14867
0.143 0.805 1.739 16102
0.144 0.813 1.743 16978
0.145 0.818 1.741 17864
0.146 0.822 1.738 18860
0.147 0.827 1.736 19857
0.147 0.831 1.733 16555
0.149 0.840 1.738 13610
0.150 0.844 1.735 13198
0.151 0.849 1.733 12786
0.151 0.853 1.730 12914
0.153 0.862 1.734 13152
0.154 0.866 1.732 14318
0.155 0.875 1.736 15472
0.157 0.883 1.740 16351
0.157 0.884 1.731 18326
0.158 0.888 1.728 19726
0.158 0.893 1.725 18210
0.159 0.897 1.722 16694
0.160 0.902 1.720 12581
0.161 0.906 1.717 9711
0.162 0.911 1.714 10953
0.162 0.915 1.711 10832
0.163 0.920 1.709 10712
0.165 0.928 1.713 11163
0.166 0.937 1.717 11615
0.167 0.941 1.714 11185
0.168 0.946 1.711 8417
0.169 0.955 1.715 5434
0.172 0.968 1.725 6707
0.172 0.972 1.722 11183
0.172 0.972 1.713 15625
0.173 0.977 1.710 18880
0.174 0.981 1.707 21340
0.175 0.986 1.704 18222
0.176 0.995 1.707 14052
0.177 0.999 1.704 19629
0.179 1.008 1.708 30784
0.180 1.012 1.705 36620
0.180 1.017 1.702 36792
0.182 1.026 1.705 36732
0.184 1.035 1.709 38948
0.184 1.039 1.705 41373
0.185 1.043 1.702 40396
0.187 1.052 1.706 33853
0.187 1.052 1.696 28989
0.188 1.061 1.699 29576
0.191 1.075 1.709 28184
0.192 1.084 1.712 17329
0.195 1.097 1.722 6785
0.198 1.116 1.738 4585
0.198 1.116 1.728 6986
0.199 1.120 1.724 14139
0.200 1.125 1.721 19523
0.201 1.134 1.724 21367
0.202 1.138 1.721 22275
0.202 1.138 1.711 19612
0.204 1.147 1.714 15774
0.205 1.157 1.716 13914
0.209 1.175 1.732 14638
0.209 1.180 1.728 12606
0.209 1.180 1.718 10111
0.211 1.189 1.721 13557
0.213 1.198 1.724 19026
0.214 1.208 1.726 20086
0.215 1.212 1.723 18558
0.216 1.217 1.719 13322
0.218 1.231 1.728 11585
0.219 1.236 1.724 14411
0.219 1.235 1.714 16833
0.221 1.245 1.716 17309
0.222 1.254 1.719 17098
0.224 1.264 1.721 15670
0.232 1.308 1.766 11388
0.234 1.318 1.768 14861
0.235 1.327 1.770 20880
0.237 1.337 1.772 20012
0.238 1.342 1.768 13786
0.239 1.346 1.764 13016
0.240 1.351 1.760 22847
0.241 1.361 1.762 25034
0.242 1.365 1.758 21056
0.243 1.370 1.754 24197
0.243 1.369 1.744 30711
0.244 1.374 1.740 30046
0.245 1.384 1.741 25778
0.247 1.394 1.743 25996
0.248 1.398 1.739 18984
0.254 1.434 1.770 12480
0.255 1.439 1.765 12789
0.255 1.438 1.755 13221
0.257 1.448 1.757 13296
0.259 1.458 1.758 10792
0.259 1.457 1.748 7157
0.261 1.473 1.755 6760
0.265 1.493 1.768 11223
0.267 1.503 1.769 18010
0.268 1.508 1.765 17077
0.267 1.507 1.754 13171
0.269 1.517 1.755 14114
0.270 1.522 1.751 16769
0.272 1.532 1.752 18097
0.273 1.537 1.747 15324
0.272 1.536 1.737 17476
0.274 1.546 1.738 22498
0.277 1.561 1.745 17959
0.280 1.577 1.751 12644
0.277 1.559 1.724 9563
0.275 1.553 1.708 11740
0.284 1.602 1.748 12883
0.274 1.545 1.682 8770
0.291 1.639 1.766 9502
0.290 1.633 1.750 13621
0.290 1.637 1.745 19102
0.292 1.648 1.745 25778
0.295 1.664 1.751 29949
0.296 1.668 1.746 19603
0.297 1.673 1.741 9043
0.274 1.545 1.613 8672
0.275 1.550 1.608 6569
0.308 1.738 1.774 5277
0.307 1.731 1.758 8978
0.307 1.730 1.748 10306
0.310 1.746 1.753 7976
0.312 1.757 1.753 8962
0.309 1.744 1.732 6133
0.309 1.743 1.722 4253
0.315 1.776 1.742 4019
0.317 1.787 1.742 5721
0.319 1.797 1.742 5410
0.326 1.837 1.768 5354
0.326 1.836 1.757 6070
0.323 1.823 1.736 5443
0.333 1.875 1.771 5651
0.332 1.874 1.761 7884
0.333 1.879 1.755 8612
0.334 1.883 1.749 7729
0.338 1.906 1.759 7323
0.341 1.922 1.763 9771
0.342 1.927 1.757 11623
0.343 1.932 1.752 8950
0.350 1.973 1.776 6974
0.349 1.965 1.760 9220
0.348 1.964 1.749 9974
0.349 1.968 1.743 7629
0.350 1.973 1.737 7508
0.351 1.978 1.731 7107
0.355 2.001 1.740 5115
0.329 1.857 1.618 5005
0.330 1.861 1.612 6979
0.331 1.865 1.607 7252
0.332 1.870 1.601 5374
0.305 1.718 1.477 5102
0.305 1.722 1.471 4480
0.370 2.088 1.740 6079
0.371 2.093 1.734 8059
0.373 2.104 1.732 6935
0.376 2.121 1.735 3764
0.380 2.144 1.743 3020
0.325 1.833 1.505 3698
0.326 1.837 1.499 4716
0.327 1.841 1.494 4671
0.326 1.838 1.484 5431
0.326 1.836 1.474 5349
0.325 1.833 1.464 5316
0.325 1.830 1.454 6260
0.325 1.834 1.448 6705
0.324 1.825 1.434 5951
0.324 1.829 1.428 4403
0.404 2.278 1.729 4103
0.364 2.049 1.563 3820
0.417 2.352 1.759 3500
0.418 2.356 1.752 5771
0.419 2.361 1.745 6894
0.418 2.359 1.734 6874
0.419 2.363 1.727 6859
0.420 2.368 1.720 6520
0.423 2.385 1.721 6649
0.425 2.397 1.718 5636
0.427 2.408 1.715 5167
0.448 2.524 1.780 5635
0.450 2.535 1.777 8066
0.452 2.547 1.773 10308
0.453 2.551 1.766 13349
0.453 2.556 1.758 13934
0.455 2.567 1.755 11703
0.457 2.579 1.751 9876
0.458 2.583 1.743 10031
0.459 2.588 1.736 13297
0.461 2.599 1.732 16872
0.462 2.604 1.724 14547
0.470 2.648 1.740 9043
0.474 2.673 1.744 9408
0.473 2.664 1.728 7954
0.471 2.655 1.713 6998
0.472 2.660 1.705 6139
0.475 2.678 1.704 5485
0.477 2.689 1.700 5644
0.478 2.693 1.692 5789
0.479 2.698 1.684 5934
0.499 2.811 1.737 4856
0.500 2.816 1.729 4605
0.494 2.786 1.702 4467
0.504 2.839 1.720 4204
0.504 2.843 1.711 4899
0.505 2.848 1.703 5017
0.506 2.852 1.694 5135
0.507 2.857 1.686 5539
0.508 2.861 1.677 5943
0.507 2.859 1.665 5136
0.523 2.946 1.700 4881
0.523 2.950 1.691 4432
0.539 3.038 1.725 5444
0.539 3.036 1.713 5684
0.538 3.033 1.700 6174
0.536 3.024 1.684 6756
0.537 3.028 1.675 7711
0.537 3.026 1.662 7068
0.538 3.030 1.653 6479
0.540 3.041 1.648 4805
0.563 3.172 1.700 3926
0.561 3.163 1.684 3791
0.561 3.160 1.671 3791
0.586 3.305 1.729 4247
0.588 3.317 1.722 5593
0.588 3.315 1.709 5480
0.586 3.305 1.692 5919
0.587 3.309 1.683 5919
0.587 3.307 1.669 5665
0.587 3.311 1.660 5428
0.588 3.315 1.650 4859
0.588 3.312 1.637 4303
0.609 3.431 1.677 3126
0.609 3.435 1.667 3388
0.610 3.440 1.657 3388
0.611 3.444 1.647 1694
0.125 0.692 1.742 10105
0.126 0.697 1.740 8663
0.127 0.705 1.745 7316
0.128 0.709 1.742 6516
0.130 0.720 1.755 5758
0.131 0.725 1.752 5737
0.132 0.730 1.750 6353
0.133 0.734 1.748 6969
0.133 0.739 1.746 6490
0.133 0.737 1.729 6110
0.134 0.745 1.734 7566
0.135 0.749 1.732 9047
0.135 0.750 1.722 9233
0.136 0.751 1.713 10506
0.136 0.756 1.711 11432
0.137 0.760 1.708 10392
0.138 0.765 1.706 9353
0.140 0.776 1.718 10920
0.143 0.792 1.737 14092
0.144 0.800 1.741 15071
0.145 0.804 1.739 16248
0.147 0.813 1.743 16826
0.148 0.817 1.741 17426
0.148 0.822 1.738 18446
0.149 0.826 1.736 19467
0.151 0.835 1.740 16686
0.151 0.839 1.738 14233
0.152 0.844 1.735 13842
0.153 0.848 1.733 13451
0.154 0.853 1.730 13271
0.155 0.861 1.734 13138
0.156 0.866 1.732 14367
0.158 0.874 1.736 15608
0.159 0.883 1.740 16496
0.159 0.883 1.731 18541
0.160 0.888 1.728 20028
0.161 0.892 1.725 18649
0.162 0.897 1.722 17270
0.163 0.901 1.720 13032
0.164 0.906 1.717 10424
0.164 0.910 1.714 12054
0.165 0.915 1.711 11779
0.166 0.919 1.709 11504
0.168 0.928 1.713 11696
0.169 0.936 1.717 11635
0.170 0.941 1.714 11144
0.171 0.945 1.711 8474
0.172 0.954 1.715 5681
0.174 0.963 1.718 7189
0.175 0.972 1.722 11768
0.175 0.972 1.713 16347
0.176 0.976 1.710 19990
0.177 0.981 1.707 22898
0.178 0.985 1.704 19702
0.179 0.994 1.707 15323
0.180 0.998 1.704 21722
0.182 1.007 1.708 34198
0.183 1.012 1.705 40622
0.183 1.016 1.702 40320
0.185 1.025 1.705 37586
0.187 1.034 1.709 37630
0.187 1.038 1.705 39700
0.188 1.043 1.702 39170
0.189 1.047 1.699 33583
0.190 1.052 1.696 29119
0.192 1.061 1.699 29789
0.193 1.070 1.702 28552
0.196 1.083 1.712 17595
0.198 1.097 1.722 7826
0.199 1.101 1.718 6039
0.200 1.110 1.721 7508
0.202 1.120 1.724 13194
0.203 1.124 1.721 18036
0.204 1.129 1.718 18863
0.204 1.128 1.708 20048
0.205 1.133 1.704 19170
0.207 1.147 1.714 16515
0.209 1.156 1.716 15554
0.212 1.175 1.732 14608
0.213 1.179 1.728 12317
0.213 1.179 1.718 10647
0.215 1.188 1.721 14239
0.216 1.198 1.724 18584
0.218 1.207 1.726 18559
0.219 1.212 1.723 17258
0.220 1.216 1.719 12994
0.221 1.226 1.721 11474
0.222 1.230 1.718 15021
0.223 1.235 1.714 17888
0.225 1.244 1.716 17712
0.226 1.253 1.719 16277
0.228 1.263 1.721 15103
0.230 1.272 1.723 11305
0.238 1.317 1.768 12168
0.240 1.327 1.770 17932
0.240 1.331 1.766 17771
0.242 1.341 1.768 12776
0.242 1.341 1.758 11812
0.243 1.345 1.754 20087
0.246 1.360 1.762 21376
0.246 1.365 1.758 19478
0.246 1.364 1.748 24182
0.247 1.369 1.744 30095
0.248 1.373 1.740 28536
0.250 1.383 1.741 23728
0.251 1.393 1.743 24513
0.252 1.397 1.739 18940
0.258 1.428 1.764 11462
0.259 1.433 1.760 13404
0.260 1.437 1.755 14478
0.261 1.447 1.757 13530
0.263 1.457 1.758 10502
0.262 1.451 1.742 7440
0.264 1.461 1.744 7214
0.268 1.482 1.756 9816
0.271 1.503 1.769 16472
0.272 1.507 1.765 18595
0.272 1.506 1.754 16370
0.274 1.517 1.755 15400
0.275 1.521 1.751 16640
0.276 1.531 1.752 18920
0.277 1.536 1.747 17909
0.277 1.535 1.737 21173
0.278 1.539 1.732 26721
0.281 1.555 1.739 19924
0.284 1.571 1.745 12405
0.280 1.553 1.719 10352
0.280 1.552 1.708 13450
0.289 1.601 1.748 14264
0.295 1.634 1.770 11409
0.282 1.560 1.689 10410
0.283 1.570 1.690 13505
0.295 1.636 1.745 19801
0.297 1.647 1.745 27286
0.300 1.663 1.751 34482
0.301 1.667 1.746 23965
0.302 1.672 1.741 12827
0.304 1.682 1.741 10311
0.280 1.549 1.608 6156
0.314 1.737 1.774 5290
0.312 1.730 1.758 8899
0.312 1.729 1.748 9489
0.315 1.745 1.753 6921
0.317 1.756 1.753 7586
0.315 1.743 1.732 5723
0.313 1.736 1.716 3844
0.283 1.570 1.560 3646
0.323 1.792 1.747 5393
0.324 1.796 1.742 4796
0.332 1.836 1.768 4918
0.331 1.835 1.757 5731
0.329 1.822 1.736 5171
0.338 1.874 1.771 5483
0.338 1.873 1.761 7887
0.339 1.877 1.755 9286
0.341 1.888 1.754 8397
0.343 1.899 1.754 6862
0.347 1.921 1.763 8327
0.348 1.926 1.757 10052
0.349 1.931 1.752 7565
0.356 1.972 1.776 7025
0.355 1.964 1.760 9881
0.354 1.963 1.749 10878
0.355 1.967 1.743 8292
0.356 1.972 1.737 8262
0.357 1.976 1.731 8086
0.360 1.993 1.735 5533
0.335 1.856 1.618 4835
0.336 1.860 1.612 6673
0.337 1.864 1.607 7118
0.337 1.868 1.601 5358
0.310 1.717 1.477 5088
0.311 1.721 1.471 4802
0.377 2.087 1.740 6010
0.379 2.098 1.738 8369
0.381 2.109 1.737 7315
0.383 2.120 1.735 3819
0.330 1.828 1.510 2968
0.330 1.826 1.500 3688
0.331 1.836 1.499 4402
0.332 1.840 1.494 4454
0.332 1.837 1.484 5611
0.331 1.835 1.474 5768
0.331 1.832 1.464 5509
0.330 1.829 1.454 6169
0.331 1.833 1.448 6606
0.329 1.824 1.434 5819
0.410 2.272 1.736 4580
0.409 2.264 1.720 4511
0.411 2.274 1.718 4486
0.423 2.344 1.755 3918
0.425 2.355 1.752 6185
0.426 2.359 1.745 7404
0.426 2.358 1.734 7753
0.426 2.362 1.727 7744
0.427 2.367 1.720 6997
0.430 2.384 1.721 7011
0.432 2.395 1.718 5845
0.434 2.406 1.715 5339
0.435 2.411 1.708 5829
0.457 2.534 1.777 7609
0.460 2.545 1.773 9952
0.460 2.550 1.766 13318
0.461 2.555 1.758 14122
0.463 2.566 1.755 11862
0.465 2.577 1.751 10164
0.466 2.582 1.743 10445
0.467 2.586 1.736 13832
0.469 2.598 1.732 17404
0.470 2.602 1.724 14748
0.479 2.654 1.744 8690
0.482 2.672 1.744 9333
0.481 2.663 1.728 7654
0.479 2.654 1.713 6360
0.479 2.652 1.701 5353
0.482 2.670 1.701 5092
0.485 2.688 1.700 5631
0.486 2.692 1.692 5998
0.487 2.696 1.684 6366
0.488 2.701 1.676 4699
0.503 2.787 1.714 5008
0.503 2.785 1.702 5267
0.512 2.837 1.720 4467
0.513 2.842 1.711 5431
0.514 2.846 1.703 5475
0.515 2.851 1.694 5520
0.515 2.855 1.686 5723
0.515 2.853 1.674 5989
0.516 2.857 1.665 5465
0.517 2.861 1.656 4942
0.532 2.949 1.691 4686
0.548 3.037 1.725 5403
0.548 3.034 1.713 5662
0.547 3.032 1.700 6104
0.546 3.022 1.684 6937
0.545 3.020 1.671 8051
0.546 3.024 1.662 7741
0.548 3.035 1.657 7448
0.549 3.040 1.648 6012
0.551 3.051 1.642 4440
0.553 3.062 1.636 3947
0.552 3.060 1.624 3638
0.596 3.304 1.729 4184
0.599 3.315 1.722 5473
0.597 3.306 1.706 5512
0.595 3.296 1.689 6170
0.596 3.300 1.679 6170
0.597 3.305 1.669 5855
0.597 3.309 1.660 5541
0.598 3.313 1.650 4820
0.598 3.311 1.637 4107
0.619 3.429 1.677 3441
0.620 3.433 1.667 3720
0.621 3.438 1.657 3720
0.621 3.442 1.647 1860
0.126 0.692 1.742 9795
0.127 0.697 1.740 8594
0.128 0.704 1.745 7564
0.129 0.709 1.742 6816
0.130 0.717 1.747 6381
0.132 0.725 1.752 6533
0.133 0.729 1.750 7076
0.134 0.734 1.748 7619
0.134 0.735 1.739 7172
0.134 0.736 1.729 6831
0.135 0.744 1.734 7989
0.136 0.749 1.732 9174
0.136 0.750 1.722 9372
0.137 0.751 1.713 10272
0.137 0.755 1.711 10846
0.138 0.760 1.708 9890
0.139 0.764 1.706 8933
0.143 0.783 1.732 10311
0.144 0.791 1.737 13478
0.145 0.800 1.741 14567
0.147 0.808 1.746 15790
0.148 0.812 1.743 16334
0.149 0.817 1.741 16879
0.149 0.821 1.738 17781
0.150 0.826 1.736 18684
0.152 0.834 1.740 16356
0.153 0.839 1.738 14226
0.153 0.843 1.735 13902
0.154 0.848 1.733 13578
0.155 0.853 1.730 13159
0.156 0.857 1.727 12740
0.157 0.865 1.732 14177
0.159 0.874 1.736 15665
0.161 0.882 1.740 16576
0.161 0.883 1.731 18612
0.161 0.888 1.728 20085
0.162 0.892 1.725 18865
0.163 0.897 1.722 17644
0.164 0.901 1.720 13355
0.165 0.906 1.717 10995
0.166 0.910 1.714 12925
0.166 0.915 1.711 12498
0.167 0.919 1.709 12072
0.169 0.928 1.713 12047
0.170 0.936 1.717 11520
0.171 0.941 1.714 10970
0.172 0.945 1.711 8535
0.171 0.941 1.695 6083
0.175 0.963 1.718 7500
0.176 0.967 1.715 12111
0.177 0.972 1.713 16798
0.178 0.976 1.710 20844
0.178 0.981 1.707 24014
0.179 0.985 1.704 20636
0.181 0.994 1.707 16127
0.182 0.998 1.704 23213
0.183 1.007 1.708 37013
0.184 1.012 1.705 44162
0.185 1.016 1.702 43453
0.186 1.025 1.705 38092
0.188 1.034 1.709 35992
0.189 1.038 1.705 37745
0.190 1.043 1.702 37568
0.191 1.047 1.699 32725
0.191 1.052 1.696 28452
0.193 1.060 1.699 29209
0.195 1.069 1.702 28112
0.198 1.088 1.718 17308
0.200 1.097 1.722 8653
0.199 1.092 1.705 7734
0.199 1.096 1.702 8380
0.203 1.115 1.718 12421
0.204 1.119 1.715 16971
0.204 1.124 1.711 17144
0.204 1.124 1.701 18489
0.205 1.128 1.698 18608
0.208 1.142 1.707 16448
0.210 1.156 1.716 16596
0.213 1.170 1.725 14722
0.213 1.170 1.716 12414
0.213 1.169 1.706 11221
0.216 1.188 1.721 14650
0.218 1.197 1.724 18062
0.220 1.207 1.726 17078
0.220 1.211 1.723 15606
0.220 1.211 1.713 12413
0.222 1.220 1.715 11805
0.224 1.230 1.718 15633
0.225 1.234 1.714 18785
0.225 1.239 1.710 18113
0.228 1.253 1.719 15294
0.230 1.263 1.721 14190
0.231 1.272 1.723 11252
0.240 1.317 1.768 9866
0.241 1.326 1.770 14808
0.242 1.331 1.766 15253
0.243 1.336 1.762 11437
0.244 1.340 1.758 10644
0.245 1.345 1.754 17116
0.246 1.355 1.756 18089
0.247 1.359 1.752 18158
0.248 1.364 1.748 24490
0.249 1.368 1.744 29728
0.250 1.373 1.740 26977
0.253 1.388 1.747 21346
0.253 1.392 1.743 22337
0.254 1.397 1.739 18367
0.259 1.423 1.758 10724
0.261 1.432 1.760 13657
0.261 1.437 1.755 15490
0.263 1.447 1.757 13934
0.264 1.452 1.752 10392
0.262 1.440 1.731 8488
0.265 1.455 1.738 8541
0.269 1.476 1.751 9615
0.272 1.497 1.763 15102
0.273 1.501 1.759 19780
0.274 1.506 1.754 18936
0.276 1.516 1.755 16035
0.277 1.521 1.751 16174
0.278 1.525 1.746 19741
0.278 1.530 1.742 20027
0.278 1.529 1.732 24199
0.280 1.539 1.732 29991
0.282 1.549 1.733 22300
0.284 1.559 1.734 12657
0.281 1.547 1.713 12116
0.282 1.552 1.708 15379
0.292 1.606 1.753 15528
0.296 1.628 1.765 14625
0.284 1.559 1.689 12226
0.286 1.569 1.690 14293
0.298 1.636 1.745 19631
0.300 1.646 1.745 27319
0.302 1.662 1.751 37551
0.303 1.667 1.746 27532
0.304 1.671 1.741 16842
0.305 1.676 1.736 14416
0.305 1.675 1.726 7978
0.316 1.737 1.774 4928
0.315 1.730 1.758 8324
0.315 1.729 1.748 8617
0.285 1.565 1.589 7065
0.318 1.750 1.748 6176
0.317 1.743 1.732 5316
0.317 1.741 1.722 3367
0.287 1.576 1.565 3843
0.287 1.580 1.561 5145
0.289 1.590 1.561 5059
0.335 1.842 1.773 4301
0.334 1.835 1.757 5075
0.331 1.822 1.736 4487
0.341 1.874 1.771 5268
0.341 1.872 1.761 8441
0.342 1.877 1.755 10360
0.343 1.888 1.754 8920
0.345 1.898 1.754 6118
0.350 1.921 1.763 6573
0.350 1.926 1.757 8306
0.351 1.930 1.752 6144
0.360 1.977 1.780 6856
0.357 1.964 1.760 10103
0.357 1.962 1.749 11323
0.358 1.967 1.743 8638
0.359 1.971 1.737 8803
0.361 1.982 1.736 9064
0.360 1.980 1.725 6196
0.338 1.855 1.618 4473
0.338 1.860 1.612 6077
0.339 1.864 1.607 6709
0.340 1.868 1.601 5159
0.312 1.717 1.477 4807
0.313 1.720 1.471 4789
0.380 2.087 1.740 5719
0.382 2.098 1.738 8321
0.384 2.108 1.737 7425
0.386 2.119 1.735 3843
0.331 1.821 1.506 2884
0.332 1.825 1.500 3452
0.334 1.835 1.499 3897
0.335 1.839 1.494 4061
0.334 1.837 1.484 5515
0.335 1.840 1.478 5897
0.333 1.832 1.464 5499
0.333 1.829 1.454 5892
0.332 1.826 1.444 6342
0.332 1.824 1.434 5482
0.412 2.265 1.731 4696
0.412 2.263 1.720 4835
0.413 2.267 1.713 5177
0.416 2.285 1.715 4402
0.428 2.354 1.752 6617
0.429 2.359 1.745 7988
0.430 2.363 1.738 8649
0.430 2.361 1.727 8579
0.430 2.366 1.720 7276
0.434 2.384 1.721 7047
0.435 2.388 1.714 5868
0.438 2.406 1.715 5415
0.439 2.410 1.708 6076
0.461 2.533 1.777 7171
0.463 2.545 1.773 9454
0.464 2.549 1.766 12945
0.465 2.554 1.758 13915
0.467 2.565 1.755 11727
0.469 2.577 1.751 10267
0.470 2.581 1.743 10691
0.470 2.586 1.736 14093
0.473 2.597 1.732 17510
0.472 2.595 1.720 14607
0.483 2.653 1.744 8478
0.486 2.671 1.744 9478
0.484 2.662 1.728 7756
0.482 2.646 1.709 5935
0.482 2.651 1.701 4614
0.486 2.669 1.701 4802
0.489 2.687 1.700 5648
0.490 2.691 1.692 6242
0.490 2.696 1.684 6836
0.491 2.700 1.676 5197
0.507 2.786 1.714 5486
0.507 2.784 1.702 6056
0.509 2.795 1.697 4885
0.518 2.848 1.715 5823
0.518 2.846 1.703 5877
0.519 2.850 1.694 5935
0.519 2.854 1.686 5955
0.519 2.852 1.674 6110
0.520 2.856 1.665 5821
0.520 2.861 1.656 5533
0.536 2.948 1.691 4797
0.552 3.036 1.725 5232
0.552 3.033 1.713 5508
0.551 3.031 1.700 5907
0.548 3.015 1.680 7082
0.549 3.019 1.671 8463
0.551 3.030 1.666 8576
0.552 3.035 1.657 8823
0.553 3.039 1.648 7633
0.555 3.050 1.642 6189
0.556 3.055 1.633 5709
0.558 3.066 1.627 5570
0.559 3.070 1.618 4624
0.602 3.307 1.719 5258
0.601 3.305 1.706 5365
0.600 3.295 1.689 6059
0.600 3.300 1.679 6059
0.601 3.304 1.669 5705
0.602 3.308 1.660 5351
0.603 3.313 1.650 4582
0.603 3.317 1.640 3813
0.622 3.421 1.674 3790
0.623 3.425 1.664 4033
0.624 3.430 1.654 4033
0.625 3.434 1.643 2016
0.128 0.692 1.742 9488
0.129 0.696 1.740 8592
0.130 0.704 1.745 7981
0.132 0.712 1.750 7361
0.133 0.717 1.747 7201
0.133 0.721 1.745 7514
0.135 0.729 1.750 7953
0.136 0.734 1.748 8397
0.136 0.735 1.739 7937
0.137 0.739 1.736 7515
0.138 0.744 1.734 8410
0.139 0.748 1.732 9305
0.139 0.750 1.722 9425
0.139 0.751 1.713 9856
0.140 0.755 1.711 10056
0.141 0.760 1.708 9234
0.141 0.764 1.706 8412
0.146 0.786 1.739 9756
0.147 0.794 1.744 12780
0.148 0.799 1.741 13977
0.149 0.807 1.746 15309
0.150 0.812 1.743 15770
0.151 0.816 1.741 16232
0.152 0.821 1.738 16875
0.153 0.826 1.736 17518
0.154 0.834 1.740 15663
0.155 0.838 1.738 13843
0.156 0.843 1.735 13667
0.157 0.848 1.733 13492
0.158 0.852 1.730 12921
0.159 0.857 1.727 12351
0.160 0.865 1.732 14070
0.162 0.873 1.736 15883
0.163 0.882 1.740 16805
0.163 0.882 1.731 18766
0.164 0.887 1.728 20105
0.165 0.892 1.725 19023
0.166 0.896 1.722 17942
0.167 0.901 1.720 13637
0.168 0.905 1.717 11514
0.168 0.910 1.714 13696
0.169 0.914 1.711 13186
0.170 0.919 1.709 12676
0.172 0.927 1.713 12402
0.172 0.932 1.710 11423
0.174 0.940 1.714 10785
0.174 0.941 1.704 8638
0.174 0.941 1.695 6449
0.178 0.962 1.718 7436
0.179 0.967 1.715 12020
0.180 0.971 1.713 16835
0.181 0.976 1.710 21251
0.181 0.980 1.707 24538
0.182 0.984 1.704 21010
0.184 0.993 1.707 16531
0.185 0.998 1.704 24318
0.186 1.006 1.708 39461
0.187 1.011 1.705 47393
0.188 1.015 1.702 46309
0.190 1.024 1.705 38327
0.191 1.033 1.709 33903
0.192 1.038 1.705 35446
0.193 1.042 1.702 35554
0.194 1.047 1.699 31223
0.195 1.051 1.696 27034
0.196 1.060 1.699 27832
0.198 1.069 1.702 26905
0.201 1.087 1.718 16954
0.203 1.096 1.722 9561
0.201 1.087 1.699 9899
0.202 1.091 1.696 10313
0.204 1.105 1.705 12218
0.206 1.114 1.708 15845
0.206 1.114 1.699 16412
0.207 1.118 1.695 17829
0.208 1.123 1.692 18376
0.211 1.141 1.707 16592
0.213 1.150 1.710 17863
0.215 1.160 1.713 15225
0.215 1.159 1.703 13286
0.216 1.169 1.706 12752
0.219 1.183 1.715 15755
0.221 1.192 1.717 18001
0.223 1.206 1.726 15692
0.223 1.206 1.716 14164
0.223 1.205 1.707 12472
0.226 1.220 1.715 12235
0.227 1.229 1.718 15934
0.228 1.234 1.714 19245
0.229 1.238 1.710 18023
0.232 1.252 1.719 13448
0.234 1.267 1.727 12592
0.234 1.266 1.717 11209
0.232 1.251 1.689 11189
0.244 1.321 1.764 11641
0.246 1.330 1.766 12790
0.247 1.335 1.762 10516
0.248 1.339 1.758 9548
0.248 1.339 1.748 14112
0.250 1.349 1.750 15518
0.251 1.358 1.752 17892
0.252 1.363 1.748 25074
0.253 1.368 1.744 29507
0.254 1.372 1.740 25210
0.257 1.387 1.747 18344
0.258 1.392 1.743 19404
0.258 1.396 1.739 17432
0.261 1.411 1.746 10675
0.265 1.432 1.760 13413
0.266 1.436 1.755 15981
0.267 1.441 1.751 14584
0.268 1.446 1.747 10793
0.266 1.439 1.731 9901
0.268 1.449 1.732 10602
0.272 1.470 1.745 10513
0.277 1.496 1.763 13940
0.278 1.501 1.759 20567
0.279 1.505 1.754 20814
0.279 1.510 1.750 15859
0.280 1.514 1.745 15081
0.282 1.525 1.746 19689
0.283 1.529 1.742 21237
0.283 1.528 1.732 26249
0.285 1.538 1.732 32228
0.286 1.543 1.728 24436
0.288 1.558 1.734 13201
0.285 1.541 1.707 14623
0.286 1.545 1.703 17390
0.297 1.605 1.753 16410
0.301 1.627 1.765 17229
0.303 1.637 1.766 14244
0.303 1.636 1.755 15049
0.303 1.635 1.745 18257
0.306 1.651 1.751 26126
0.307 1.661 1.751 38963
0.308 1.666 1.746 29882
0.309 1.670 1.741 20278
0.310 1.675 1.736 18890
0.311 1.680 1.731 10994
0.311 1.678 1.721 4467
0.320 1.729 1.758 7565
0.319 1.722 1.742 8073
0.289 1.564 1.589 6989
0.289 1.562 1.579 5461
0.322 1.742 1.732 4784
0.328 1.769 1.748 3043
0.291 1.575 1.565 4057
0.292 1.579 1.561 5582
0.294 1.589 1.561 5947
0.296 1.599 1.561 4875
0.338 1.828 1.752 4565
0.337 1.821 1.736 4220
0.347 1.873 1.771 5165
0.346 1.871 1.761 9037
0.347 1.876 1.755 10908
0.349 1.887 1.754 8971
0.351 1.897 1.754 6269
0.353 1.908 1.753 5513
0.355 1.918 1.752 6609
0.357 1.929 1.752 5045
0.367 1.982 1.785 6479
0.363 1.963 1.760 9899
0.363 1.961 1.749 11339
0.364 1.966 1.743 8795
0.366 1.976 1.742 9237
0.367 1.981 1.736 9991
0.366 1.979 1.725 6964
0.343 1.854 1.618 3890
0.344 1.859 1.612 5220
0.345 1.863 1.607 5992
0.346 1.867 1.601 4659
0.318 1.716 1.477 4366
0.318 1.719 1.471 4521
0.386 2.086 1.740 5246
0.389 2.103 1.743 7837
0.391 2.114 1.742 7102
0.392 2.118 1.735 3813
0.324 1.751 1.455 2997
0.374 2.020 1.644 3638
0.339 1.834 1.499 3216
0.340 1.838 1.494 3526
0.340 1.836 1.484 5175
0.339 1.833 1.474 5701
0.338 1.824 1.459 5263
0.337 1.821 1.449 5482
0.338 1.825 1.444 5900
0.337 1.822 1.434 4995
0.418 2.257 1.727 4780
0.417 2.255 1.716 5217
0.419 2.266 1.713 5939
0.423 2.284 1.715 5222
0.434 2.346 1.748 6970
0.436 2.358 1.745 8450
0.437 2.362 1.738 9340
0.436 2.354 1.723 9158
0.438 2.365 1.720 7512
0.441 2.382 1.721 7251
0.442 2.387 1.714 6003
0.444 2.398 1.711 5225
0.446 2.409 1.708 5691
0.469 2.532 1.777 6718
0.471 2.543 1.773 8763
0.472 2.548 1.766 12152
0.472 2.553 1.758 13225
0.475 2.564 1.755 11230
0.477 2.575 1.751 10168
0.476 2.573 1.739 10808
0.478 2.584 1.736 14083
0.479 2.589 1.728 17396
0.480 2.593 1.720 14346
0.492 2.658 1.748 8208
0.494 2.670 1.744 9552
0.492 2.661 1.728 7868
0.490 2.645 1.709 5452
0.490 2.649 1.701 3766
0.494 2.667 1.701 4333
0.496 2.679 1.696 5447
0.498 2.690 1.692 6205
0.499 2.694 1.684 6969
0.499 2.699 1.676 5419
0.515 2.785 1.714 5971
0.515 2.783 1.702 6855
0.517 2.794 1.697 5584
0.527 2.846 1.715 6182
0.526 2.844 1.703 6255
0.527 2.848 1.694 6381
0.527 2.846 1.682 6321
0.528 2.850 1.674 6316
0.530 2.862 1.669 6211
0.530 2.866 1.660 6241
0.531 2.870 1.651 4993
0.546 2.951 1.682 5531
0.547 2.955 1.673 5304
0.558 3.015 1.693 5676
0.558 3.013 1.680 7296
0.558 3.017 1.671 8933
0.561 3.029 1.666 9694
0.561 3.033 1.657 10587
0.563 3.044 1.651 9763
0.564 3.049 1.642 8561
0.565 3.053 1.633 7998
0.567 3.064 1.627 7935
0.568 3.068 1.618 6651
0.567 3.065 1.605 5390
0.611 3.303 1.706 5214
0.610 3.293 1.689 6015
0.610 3.298 1.679 6015
0.611 3.302 1.669 5641
0.611 3.299 1.656 5284
0.611 3.304 1.646 4429
0.631 3.408 1.681 4076
0.633 3.419 1.674 4219
0.634 3.424 1.664 4429
0.634 3.428 1.654 4429
0.635 3.432 1.643 2214
0.130 0.691 1.742 9766
0.131 0.696 1.740 8759
0.133 0.704 1.745 8122
0.134 0.711 1.750 7722
0.135 0.716 1.747 7837
0.136 0.721 1.745 8320
0.137 0.725 1.743 8876
0.138 0.730 1.741 9431
0.138 0.734 1.739 8773
0.139 0.739 1.736 8115
0.140 0.743 1.734 8506
0.141 0.748 1.732 8898
0.142 0.753 1.729 8898
0.141 0.750 1.713 8753
0.142 0.751 1.704 8679
0.142 0.756 1.701 8046
0.144 0.764 1.706 7486
0.148 0.786 1.739 9376
0.150 0.794 1.744 12494
0.151 0.799 1.741 13803
0.152 0.807 1.746 15215
0.153 0.811 1.743 15355
0.154 0.816 1.741 15496
0.155 0.820 1.738 15890
0.156 0.829 1.743 16401
0.157 0.833 1.740 14840
0.158 0.838 1.738 13278
0.159 0.842 1.735 13194
0.160 0.847 1.733 13111
0.161 0.852 1.730 12593
0.161 0.856 1.727 12075
0.163 0.864 1.732 14147
0.165 0.873 1.736 16128
0.166 0.881 1.740 16910
0.166 0.882 1.731 18760
0.167 0.886 1.728 19944
0.168 0.891 1.725 19153
0.169 0.896 1.722 18361
0.170 0.900 1.720 13987
0.171 0.905 1.717 11888
0.171 0.909 1.714 14162
0.172 0.914 1.711 13699
0.173 0.918 1.709 13235
0.175 0.927 1.713 12817
0.176 0.931 1.710 11716
0.177 0.940 1.714 11049
0.177 0.940 1.704 9085
0.177 0.940 1.695 6935
0.181 0.961 1.718 7403
0.182 0.966 1.715 11734
0.183 0.970 1.713 16414
0.184 0.975 1.710 20926
0.185 0.979 1.707 24160
0.186 0.988 1.710 20708
0.187 0.993 1.707 16464
0.188 0.997 1.704 24940
0.190 1.006 1.708 41168
0.190 1.010 1.705 49660
0.191 1.015 1.702 48370
0.193 1.024 1.705 38199
0.195 1.032 1.709 31842
0.195 1.037 1.705 33511
0.196 1.041 1.702 33769
0.197 1.046 1.699 29315
0.199 1.055 1.702 24855
0.200 1.059 1.699 25588
0.201 1.068 1.702 24950
0.205 1.086 1.718 16396
0.206 1.091 1.715 10407
0.205 1.086 1.699 12178
0.206 1.091 1.696 12617
0.207 1.100 1.699 12930
0.208 1.104 1.696 15807
0.208 1.104 1.686 17191
0.210 1.113 1.689 18124
0.212 1.122 1.692 18734
0.215 1.141 1.707 17549
0.217 1.150 1.710 19684
0.218 1.159 1.713 16112
0.218 1.159 1.703 13679
0.219 1.163 1.700 13319
0.223 1.182 1.715 16649
0.225 1.191 1.717 18144
0.226 1.201 1.720 14470
0.226 1.200 1.710 12671
0.225 1.195 1.694 13172
0.229 1.214 1.709 13580
0.231 1.223 1.712 16500
0.232 1.233 1.714 19313
0.233 1.237 1.710 17455
0.236 1.252 1.719 11392
0.239 1.266 1.727 10719
0.236 1.251 1.699 11728
0.237 1.255 1.695 12364
0.238 1.265 1.698 9912
0.250 1.324 1.760 10381
0.251 1.334 1.762 9282
0.252 1.339 1.758 8395
0.252 1.338 1.748 11262
0.253 1.343 1.744 13786
0.255 1.352 1.746 18371
0.257 1.362 1.748 25598
0.257 1.362 1.738 29540
0.258 1.366 1.734 24389
0.260 1.381 1.741 15333
0.262 1.391 1.743 15829
0.263 1.395 1.739 15763
0.265 1.405 1.740 10792
0.270 1.431 1.760 12710
0.271 1.435 1.755 15926
0.271 1.440 1.751 15210
0.271 1.439 1.741 12054
0.271 1.439 1.731 11817
0.273 1.448 1.732 12825
0.275 1.458 1.733 12215
0.280 1.484 1.752 13060
0.283 1.500 1.759 20695
0.284 1.504 1.754 22177
0.284 1.509 1.750 15600
0.285 1.514 1.745 13610
0.287 1.524 1.746 18919
0.288 1.528 1.742 21149
0.288 1.527 1.732 26480
0.290 1.537 1.732 32813
0.291 1.542 1.728 25831
0.293 1.552 1.729 14191
0.290 1.540 1.707 17414
0.291 1.544 1.703 18698
0.304 1.610 1.759 16271
0.307 1.626 1.765 18241
0.308 1.636 1.766 15785
0.309 1.641 1.761 16037
0.309 1.640 1.750 16084
0.311 1.650 1.751 23860
0.313 1.660 1.751 38308
0.314 1.665 1.746 30760
0.314 1.664 1.736 22506
0.316 1.674 1.736 21684
0.316 1.679 1.731 13683
0.317 1.683 1.726 6488
0.322 1.711 1.742 7393
0.296 1.571 1.605 7435
0.295 1.563 1.589 6583
0.294 1.561 1.579 4908
0.329 1.746 1.737 4379
0.333 1.768 1.748 2959
0.297 1.574 1.565 4179
0.299 1.584 1.566 5864
0.299 1.588 1.561 6641
0.301 1.598 1.561 5765
0.343 1.821 1.747 4590
0.303 1.606 1.552 4680
0.303 1.610 1.547 5054
0.353 1.870 1.761 8567
0.353 1.875 1.755 10336
0.355 1.885 1.754 8836
0.357 1.896 1.754 6585
0.358 1.901 1.748 4946
0.361 1.917 1.752 5644
0.361 1.916 1.742 5493
0.373 1.981 1.785 5794
0.370 1.961 1.760 9288
0.369 1.960 1.749 10879
0.370 1.964 1.743 8627
0.372 1.975 1.742 9398
0.373 1.980 1.736 10547
0.374 1.984 1.730 7750
0.374 1.983 1.719 4117
0.350 1.857 1.612 4216
0.351 1.862 1.607 5064
0.352 1.866 1.601 3934
0.388 2.057 1.738 3910
0.325 1.725 1.476 4196
0.394 2.091 1.745 4738
0.396 2.101 1.743 7004
0.398 2.112 1.742 6418
0.399 2.117 1.735 3629
0.331 1.756 1.459 3662
0.382 2.025 1.648 3915
0.384 2.036 1.647 3441
0.346 1.837 1.494 2910
0.346 1.834 1.484 4631
0.345 1.832 1.474 5218
0.342 1.817 1.455 4870
0.343 1.820 1.449 4915
0.344 1.824 1.444 5295
0.424 2.251 1.734 4848
0.424 2.249 1.722 4879
0.425 2.254 1.716 5598
0.427 2.265 1.713 6665
0.430 2.282 1.715 5980
0.442 2.345 1.748 7212
0.444 2.356 1.745 8783
0.445 2.361 1.738 9896
0.445 2.359 1.727 9826
0.446 2.363 1.720 8041
0.449 2.381 1.721 7719
0.450 2.385 1.714 6389
0.452 2.396 1.711 5172
0.454 2.407 1.708 5265
0.476 2.524 1.773 6217
0.479 2.542 1.773 7838
0.480 2.546 1.766 10933
0.481 2.551 1.758 12063
0.483 2.562 1.755 10417
0.484 2.567 1.747 9908
0.485 2.571 1.739 10799
0.487 2.583 1.736 13822
0.488 2.587 1.728 16959
0.487 2.585 1.716 14058
0.488 2.590 1.708 8221
0.502 2.661 1.740 9730
0.500 2.652 1.724 8126
0.498 2.643 1.709 4991
0.498 2.641 1.697 2995
0.504 2.673 1.704 3759
0.505 2.677 1.696 5162
0.506 2.681 1.688 6037
0.506 2.686 1.680 6911
0.508 2.697 1.676 5489
0.525 2.783 1.714 6389
0.524 2.781 1.702 7534
0.525 2.785 1.693 6184
0.536 2.845 1.715 6415
0.536 2.842 1.703 6567
0.535 2.840 1.691 6896
0.536 2.844 1.682 6792
0.537 2.849 1.674 6688
0.539 2.860 1.669 6792
0.541 2.871 1.664 7070
0.542 2.875 1.655 5547
0.556 2.949 1.682 5615
0.557 2.953 1.673 5220
0.567 3.007 1.689 5526
0.568 3.011 1.680 7602
0.568 3.015 1.671 9678
0.571 3.027 1.666 11286
0.573 3.038 1.660 13011
0.574 3.042 1.651 12513
0.574 3.047 1.642 11504
0.575 3.051 1.633 10761
0.577 3.062 1.627 10714
0.578 3.066 1.618 9112
0.578 3.064 1.605 7550
0.578 3.068 1.596 6408
0.620 3.291 1.689 5758
0.621 3.296 1.679 5758
0.622 3.300 1.669 5400
0.622 3.297 1.656 5054
0.624 3.309 1.650 4217
0.641 3.398 1.678 4665
0.643 3.410 1.671 4716
0.645 3.421 1.664 4847
0.646 3.426 1.654 4847
0.647 3.430 1.643 2423
0.132 0.691 1.742 9843
0.133 0.699 1.747 9075
0.134 0.703 1.745 8726
0.135 0.711 1.750 8274
0.136 0.716 1.747 8289
0.138 0.724 1.752 8758
0.138 0.725 1.743 9164
0.139 0.730 1.741 9601
0.140 0.734 1.739 9096
0.141 0.739 1.736 8592
0.141 0.743 1.734 8880
0.142 0.748 1.732 9167
0.144 0.756 1.737 9188
0.143 0.750 1.713 8315
0.143 0.751 1.704 7863
0.144 0.755 1.701 7291
0.145 0.763 1.706 6785
0.150 0.789 1.746 8967
0.151 0.794 1.744 11903
0.153 0.802 1.748 13290
0.154 0.807 1.746 14727
0.154 0.811 1.743 14776
0.155 0.816 1.741 14825
0.156 0.820 1.738 14686
0.158 0.828 1.743 14848
0.159 0.833 1.740 13589
0.160 0.841 1.745 12386
0.160 0.842 1.735 12574
0.161 0.847 1.733 12818
0.162 0.851 1.730 12249
0.163 0.856 1.727 11679
0.164 0.864 1.732 14109
0.166 0.873 1.736 16543
0.167 0.877 1.733 17481
0.168 0.882 1.731 18982
0.169 0.886 1.728 19766
0.170 0.891 1.725 19003
0.170 0.895 1.722 18239
0.171 0.896 1.713 13964
0.172 0.904 1.717 11895
0.173 0.909 1.714 14110
0.174 0.913 1.711 13701
0.175 0.918 1.709 13291
0.176 0.926 1.713 12820
0.177 0.931 1.710 11589
0.179 0.939 1.714 10852
0.179 0.940 1.704 8963
0.179 0.940 1.695 6904
0.183 0.961 1.718 7207
0.184 0.966 1.715 11393
0.185 0.970 1.713 16035
0.186 0.975 1.710 20563
0.186 0.979 1.707 23644
0.188 0.988 1.710 20183
0.189 0.992 1.707 16111
0.190 0.997 1.704 25008
0.191 1.006 1.708 42024
0.192 1.010 1.705 50986
0.193 1.014 1.702 49711
0.195 1.023 1.705 37792
0.196 1.032 1.709 29375
0.197 1.037 1.705 30793
0.198 1.041 1.702 31245
0.199 1.046 1.699 26886
0.201 1.054 1.702 22391
0.202 1.059 1.699 22904
0.203 1.068 1.702 22423
0.207 1.086 1.718 15585
0.205 1.077 1.696 11552
0.206 1.081 1.693 14898
0.207 1.086 1.689 15594
0.208 1.095 1.692 14802
0.209 1.099 1.689 16902
0.210 1.103 1.686 19114
0.211 1.108 1.682 19502
0.213 1.122 1.692 19106
0.217 1.140 1.707 18261
0.219 1.149 1.710 20761
0.220 1.154 1.707 17248
0.219 1.149 1.691 14727
0.221 1.163 1.700 13548
0.225 1.182 1.715 16218
0.227 1.191 1.717 17120
0.228 1.200 1.720 13099
0.227 1.195 1.704 11909
0.227 1.195 1.694 13743
0.230 1.209 1.703 14430
0.233 1.223 1.712 16161
0.235 1.232 1.714 18482
0.235 1.237 1.710 16092
0.237 1.246 1.713 9514
0.239 1.256 1.715 8931
0.238 1.250 1.699 12544
0.239 1.255 1.695 13251
0.242 1.269 1.704 10164
0.252 1.324 1.760 8170
0.238 1.248 1.660 8785
0.237 1.247 1.650 7313
0.254 1.333 1.742 8968
0.256 1.342 1.744 12619
0.257 1.352 1.746 18768
0.259 1.362 1.748 25266
0.259 1.361 1.738 28879
0.260 1.366 1.734 23552
0.263 1.381 1.741 12973
0.265 1.390 1.743 12222
0.266 1.395 1.739 13384
0.266 1.400 1.735 10198
