0.963 1.921 1.518 13932
0.977 1.948 1.529 13077
1.003 2.000 1.556 18370
1.004 2.004 1.549 23344
1.006 2.007 1.542 25591
1.008 2.011 1.536 28545
1.010 2.015 1.529 29253
1.012 2.018 1.522 27628
1.013 2.022 1.516 25884
1.018 2.031 1.513 24947
1.020 2.035 1.507 21367
1.022 2.038 1.500 18764
1.024 2.042 1.493 16739
1.025 2.045 1.486 12082
1.024 2.043 1.476 9499
1.029 2.052 1.473 7506
1.111 2.216 1.568 6413
1.113 2.220 1.560 8072
1.111 2.217 1.549 7161
1.104 2.202 1.530 7686
1.109 2.212 1.527 6889
1.114 2.222 1.523 6536
1.159 2.312 1.569 5749
1.164 2.322 1.565 10868
1.166 2.326 1.558 13110
1.168 2.330 1.550 13103
1.170 2.333 1.542 13095
1.168 2.331 1.531 10021
1.157 2.309 1.509 8692
1.162 2.319 1.505 6908
1.167 2.329 1.501 5191
1.172 2.339 1.497 4815
1.174 2.342 1.489 4494
1.223 2.440 1.535 6639
1.222 2.438 1.523 9483
1.227 2.448 1.518 10261
1.229 2.451 1.510 11083
1.230 2.455 1.502 8949
1.235 2.465 1.498 6918
1.244 2.481 1.496 4910
1.265 2.523 1.509 4087
1.266 2.526 1.500 3811
1.265 2.523 1.489 3553
1.263 2.520 1.477 2757
1.297 2.588 1.502 2496
1.299 2.592 1.494 2496
1.340 2.672 1.525 3329
1.335 2.663 1.509 4563
1.333 2.660 1.497 7175
1.335 2.664 1.488 9852
1.334 2.661 1.477 8975
1.332 2.658 1.465 8323
1.334 2.661 1.456 8323
1.336 2.664 1.447 5554
1.367 2.726 1.466 5484
1.368 2.730 1.457 2742
0.309 0.614 1.706 9243
0.309 0.615 1.696 8556
0.308 0.613 1.680 8115
0.312 0.620 1.685 9043
0.314 0.624 1.683 10011
0.316 0.628 1.681 10011
0.319 0.635 1.686 9621
0.321 0.639 1.684 9425
0.323 0.643 1.682 7057
0.327 0.650 1.686 4692
0.329 0.654 1.684 5445
0.333 0.661 1.689 6370
0.338 0.672 1.701 5951
0.340 0.676 1.699 5567
0.342 0.680 1.697 5381
0.334 0.664 1.652 5661
0.335 0.665 1.643 6619
0.338 0.672 1.647 9704
0.342 0.679 1.652 13541
0.345 0.687 1.657 13365
0.349 0.694 1.662 13210
0.349 0.695 1.652 12771
0.351 0.698 1.650 12351
0.352 0.699 1.641 12820
0.354 0.703 1.638 13365
0.354 0.703 1.629 9931
0.352 0.700 1.613 6178
0.354 0.704 1.610 4649
0.356 0.708 1.608 5747
0.360 0.715 1.613 7534
0.362 0.719 1.610 9250
0.364 0.723 1.608 10966
0.369 0.734 1.619 10628
0.371 0.738 1.617 10688
0.380 0.756 1.642 12511
0.384 0.763 1.646 15444
0.386 0.767 1.643 14636
0.390 0.774 1.647 15547
0.393 0.782 1.652 17679
0.397 0.790 1.656 20616
0.401 0.797 1.660 23523
0.405 0.805 1.664 21285
0.407 0.809 1.661 20798
0.409 0.813 1.659 22581
0.413 0.820 1.663 24269
0.415 0.824 1.660 25278
0.417 0.828 1.657 20527
0.419 0.832 1.654 16392
0.421 0.836 1.652 17007
0.422 0.840 1.649 17313
0.424 0.844 1.646 15544
0.428 0.852 1.650 13492
0.430 0.856 1.647 10271
0.434 0.863 1.651 5686
0.444 0.883 1.674 6171
0.446 0.887 1.671 9387
0.448 0.891 1.668 14269
0.450 0.895 1.665 15915
0.452 0.899 1.662 15799
0.454 0.903 1.659 14969
0.458 0.911 1.663 12825
0.460 0.915 1.660 10920
0.462 0.918 1.657 9525
0.464 0.922 1.654 12798
0.468 0.930 1.657 22595
0.470 0.934 1.654 27153
0.474 0.942 1.657 25547
0.476 0.946 1.654 18023
0.478 0.950 1.651 11886
0.484 0.962 1.661 13425
0.486 0.966 1.657 14362
0.488 0.970 1.654 17011
0.492 0.978 1.657 20979
0.494 0.982 1.654 19448
0.494 0.982 1.644 17384
0.494 0.982 1.635 22885
0.498 0.990 1.638 27559
0.500 0.994 1.635 26955
0.504 1.002 1.638 23623
0.506 1.006 1.634 21118
0.508 1.010 1.631 18219
0.512 1.018 1.634 13359
0.514 1.022 1.630 11024
0.516 1.026 1.627 11758
0.516 1.025 1.617 9376
0.518 1.029 1.614 10726
0.519 1.033 1.610 15955
0.521 1.037 1.607 17550
0.525 1.045 1.610 18586
0.530 1.053 1.612 18022
0.536 1.066 1.621 11217
0.545 1.083 1.636 7734
0.547 1.087 1.632 7241
0.540 1.073 1.604 6933
0.542 1.077 1.601 13450
0.546 1.085 1.603 20193
0.550 1.093 1.606 21807
0.550 1.093 1.596 22477
0.551 1.096 1.592 22435
0.556 1.105 1.595 21787
0.558 1.108 1.591 17788
0.562 1.117 1.593 15574
0.566 1.125 1.595 14437
0.566 1.124 1.586 10044
0.565 1.123 1.576 11258
0.569 1.132 1.578 18384
0.571 1.136 1.575 17820
0.580 1.154 1.588 13087
0.573 1.138 1.561 17412
0.574 1.142 1.557 21532
0.576 1.146 1.554 15558
0.578 1.149 1.550 11594
0.590 1.172 1.569 13596
0.591 1.176 1.565 15525
0.584 1.160 1.538 12863
0.590 1.174 1.546 12323
0.597 1.187 1.553 15248
0.604 1.201 1.561 16784
0.608 1.209 1.562 19197
0.610 1.213 1.558 17415
0.614 1.221 1.560 16322
0.616 1.225 1.556 15617
0.621 1.234 1.558 12893
0.625 1.242 1.559 11947
0.629 1.251 1.560 14246
0.631 1.255 1.556 16892
0.633 1.258 1.552 12516
0.632 1.257 1.542 13480
0.637 1.266 1.544 25775
0.641 1.274 1.545 26149
0.651 1.293 1.557 20741
0.658 1.307 1.564 24414
0.662 1.316 1.565 17127
0.651 1.294 1.534 11007
0.658 1.308 1.540 20437
0.657 1.307 1.530 16208
0.656 1.305 1.521 8520
0.697 1.387 1.597 10699
0.697 1.385 1.587 13210
0.696 1.384 1.577 14024
0.698 1.387 1.572 15771
0.700 1.391 1.568 17594
0.704 1.400 1.568 19277
0.706 1.404 1.564 17447
0.708 1.407 1.559 14376
0.710 1.411 1.554 9692
0.615 1.223 1.362 11462
0.617 1.226 1.358 12134
0.621 1.235 1.359 8834
0.625 1.243 1.360 8419
0.624 1.241 1.351 11742
0.626 1.244 1.347 9847
0.625 1.242 1.338 8885
0.623 1.239 1.328 14303
0.625 1.242 1.324 17681
0.626 1.246 1.320 15362
0.628 1.249 1.316 10949
0.630 1.252 1.312 11880
0.631 1.255 1.308 14152
0.633 1.258 1.304 11330
0.764 1.520 1.533 7316
0.752 1.496 1.503 5891
0.749 1.488 1.488 8335
0.748 1.486 1.478 10315
0.640 1.273 1.283 10338
0.642 1.276 1.278 10284
0.643 1.279 1.274 6902
0.642 1.276 1.265 4734
0.646 1.284 1.266 7637
0.647 1.287 1.261 13391
0.649 1.290 1.257 16429
0.648 1.287 1.248 14947
0.652 1.296 1.249 13470
0.653 1.299 1.244 12922
0.655 1.302 1.240 8969
0.656 1.304 1.236 5069
0.678 1.347 1.264 5409
0.679 1.350 1.259 8077
0.681 1.353 1.255 9666
0.679 1.350 1.246 9948
0.681 1.353 1.241 7221
0.699 1.391 1.264 6345
0.698 1.388 1.255 6817
0.694 1.379 1.242 6613
0.730 1.452 1.291 7013
0.711 1.414 1.255 6970
0.713 1.417 1.250 6801
0.714 1.420 1.245 7791
0.730 1.452 1.263 8750
0.735 1.460 1.263 10219
0.940 1.869 1.561 9435
0.951 1.890 1.568 9142
0.947 1.882 1.553 10259
0.946 1.880 1.543 11450
0.950 1.890 1.541 12719
0.955 1.899 1.539 14911
0.957 1.903 1.533 16354
0.959 1.906 1.526 16952
0.961 1.910 1.520 16127
0.965 1.919 1.518 13137
0.982 1.953 1.533 13482
1.002 1.993 1.551 15659
1.007 2.002 1.549 20264
1.009 2.006 1.542 22313
1.011 2.010 1.536 25028
1.013 2.013 1.529 25695
1.014 2.017 1.522 24126
1.019 2.026 1.520 22766
1.021 2.030 1.513 22350
1.023 2.033 1.507 19168
1.025 2.037 1.500 16674
1.026 2.041 1.493 14723
1.028 2.044 1.486 10288
1.064 2.115 1.523 8288
1.069 2.125 1.520 6440
1.114 2.214 1.568 5916
1.119 2.224 1.564 7281
1.114 2.216 1.549 6395
1.107 2.201 1.530 6973
1.112 2.210 1.527 6295
1.117 2.220 1.523 5971
1.162 2.311 1.569 5389
1.167 2.321 1.565 10263
1.169 2.324 1.558 12399
1.171 2.328 1.550 12509
1.173 2.332 1.542 12619
1.168 2.323 1.527 9874
1.157 2.301 1.505 9323
1.162 2.311 1.501 7450
1.167 2.321 1.497 5663
1.175 2.337 1.497 5131
1.180 2.347 1.492 4734
1.227 2.439 1.535 5957
1.225 2.436 1.523 8436
1.227 2.440 1.515 9281
1.232 2.449 1.510 10196
1.234 2.453 1.502 8343
1.239 2.463 1.498 6641
1.247 2.479 1.496 4778
1.268 2.521 1.509 4059
1.270 2.524 1.500 4034
1.272 2.528 1.492 4022
1.267 2.519 1.477 2981
1.301 2.586 1.502 2488
1.303 2.590 1.494 2488
1.346 2.677 1.528 3131
1.338 2.661 1.509 4138
1.337 2.658 1.497 6532
1.339 2.662 1.488 9061
1.337 2.659 1.477 8183
1.336 2.656 1.465 7536
1.337 2.659 1.456 7536
1.339 2.663 1.447 5061
1.367 2.718 1.463 4840
1.369 2.721 1.454 2420
0.309 0.610 1.698 9849
0.311 0.614 1.696 9152
0.310 0.612 1.680 8686
0.314 0.619 1.685 9924
0.316 0.623 1.683 11182
0.318 0.627 1.681 11182
0.322 0.634 1.686 10699
0.324 0.638 1.684 10403
0.326 0.642 1.682 7640
0.329 0.649 1.686 4972
0.333 0.656 1.691 5344
0.336 0.663 1.696 6017
0.340 0.670 1.701 6016
0.342 0.674 1.699 5976
0.344 0.678 1.697 5841
0.336 0.663 1.652 6052
0.337 0.664 1.643 7136
0.340 0.671 1.647 9918
0.344 0.678 1.652 13270
0.348 0.685 1.657 13037
0.351 0.693 1.662 12868
0.352 0.693 1.652 12400
0.354 0.697 1.650 11939
0.354 0.698 1.641 12430
0.356 0.702 1.638 12964
0.356 0.702 1.629 9892
0.356 0.703 1.620 5976
0.357 0.703 1.610 4022
0.360 0.710 1.615 5443
0.362 0.714 1.613 7656
0.366 0.721 1.617 9855
0.368 0.725 1.615 12265
0.372 0.732 1.619 11570
0.374 0.736 1.617 11047
0.383 0.754 1.642 12382
0.386 0.762 1.646 15129
0.388 0.766 1.643 14317
0.392 0.773 1.647 15243
0.396 0.781 1.652 17273
0.400 0.788 1.656 19976
0.404 0.796 1.660 22748
0.408 0.803 1.664 20443
0.410 0.807 1.661 20450
0.412 0.811 1.659 22864
0.415 0.819 1.663 24878
0.417 0.823 1.660 26355
0.417 0.823 1.650 21778
0.419 0.827 1.648 17213
0.423 0.835 1.652 17100
0.425 0.839 1.649 17098
0.427 0.842 1.646 15085
0.431 0.850 1.650 13088
0.433 0.854 1.647 10138
0.441 0.870 1.664 6421
0.447 0.881 1.674 7374
0.449 0.885 1.671 11174
0.451 0.889 1.668 17012
0.453 0.893 1.665 19012
0.455 0.897 1.662 18582
0.457 0.901 1.659 17234
0.461 0.909 1.663 13897
0.461 0.909 1.653 11453
0.463 0.913 1.650 8702
0.467 0.921 1.654 10637
0.471 0.929 1.657 21457
0.473 0.933 1.654 26835
0.477 0.941 1.657 25822
0.477 0.941 1.648 18898
0.481 0.949 1.651 10736
0.487 0.961 1.661 10031
0.489 0.965 1.657 11260
0.491 0.969 1.654 14718
0.495 0.977 1.657 19577
0.497 0.981 1.654 18743
0.497 0.980 1.644 16361
0.497 0.980 1.635 21484
0.501 0.988 1.638 26605
0.503 0.992 1.635 26902
0.507 1.000 1.638 23694
0.509 1.004 1.634 21376
0.511 1.008 1.631 18927
0.513 1.012 1.627 13628
0.517 1.020 1.630 11159
0.519 1.024 1.627 12610
0.519 1.023 1.617 10280
0.521 1.027 1.614 11589
0.521 1.026 1.604 17637
0.525 1.035 1.607 19819
0.529 1.043 1.610 19878
0.533 1.051 1.612 18392
0.540 1.064 1.621 12509
0.549 1.081 1.636 9838
0.548 1.081 1.626 9152
0.543 1.071 1.604 6875
0.545 1.075 1.601 11235
0.549 1.083 1.603 17541
0.551 1.087 1.600 18561
0.553 1.091 1.596 18784
0.555 1.094 1.592 20758
0.559 1.103 1.595 21458
0.561 1.107 1.591 17532
0.566 1.115 1.593 14250
0.568 1.119 1.589 11825
0.567 1.118 1.580 7822
0.569 1.122 1.576 9505
0.571 1.125 1.572 18572
0.575 1.134 1.575 20562
0.575 1.133 1.565 13568
0.574 1.132 1.555 18624
0.576 1.135 1.551 24556
0.580 1.144 1.554 17943
0.582 1.147 1.550 13655
0.594 1.170 1.569 15475
0.596 1.174 1.565 17766
0.588 1.158 1.538 14779
0.589 1.162 1.534 12654
0.601 1.185 1.553 14302
0.608 1.198 1.561 15500
0.612 1.207 1.562 16893
0.614 1.211 1.558 15116
0.619 1.219 1.560 14871
0.623 1.228 1.562 14509
0.625 1.232 1.558 12000
0.629 1.240 1.559 11744
0.634 1.249 1.560 14365
0.635 1.253 1.556 17213
0.637 1.256 1.552 11964
0.637 1.255 1.542 14271
0.641 1.264 1.544 25795
0.645 1.272 1.545 24183
0.658 1.296 1.563 21473
0.662 1.305 1.564 26767
0.667 1.314 1.565 19362
0.668 1.318 1.561 11614
0.662 1.306 1.540 20358
0.664 1.309 1.536 15128
0.658 1.297 1.515 6912
0.702 1.384 1.597 9748
0.701 1.383 1.587 12977
0.701 1.381 1.577 14362
0.703 1.385 1.572 15840
0.704 1.389 1.568 16927
0.709 1.398 1.568 17981
0.711 1.401 1.564 16344
0.713 1.405 1.559 13669
0.618 1.218 1.366 9874
0.619 1.221 1.362 11829
0.621 1.224 1.358 11946
0.622 1.227 1.354 8232
0.627 1.236 1.355 7480
0.628 1.239 1.351 10914
0.630 1.242 1.347 8937
0.626 1.234 1.333 8711
0.628 1.237 1.328 14002
0.629 1.240 1.324 16932
0.631 1.243 1.320 14490
0.632 1.246 1.316 10717
0.634 1.249 1.312 11986
0.635 1.253 1.308 13940
0.637 1.256 1.304 10993
0.770 1.517 1.533 7480
0.752 1.482 1.493 6841
0.751 1.480 1.483 9859
0.753 1.484 1.478 11852
0.754 1.487 1.473 10600
0.646 1.273 1.278 9890
0.647 1.276 1.274 6421
0.649 1.279 1.270 4318
0.650 1.282 1.266 7091
0.652 1.285 1.261 12579
0.653 1.288 1.257 15546
0.652 1.285 1.248 15528
0.656 1.294 1.249 15444
0.658 1.297 1.244 13967
0.659 1.299 1.240 9001
0.747 1.473 1.376 5725
0.746 1.470 1.367 5533
0.684 1.348 1.259 6933
0.685 1.351 1.255 8633
0.684 1.348 1.246 9537
0.685 1.351 1.241 7460
0.701 1.382 1.260 7115
0.700 1.380 1.251 8001
0.698 1.377 1.242 7826
0.703 1.385 1.241 7476
0.713 1.406 1.250 7113
0.714 1.408 1.246 6372
0.722 1.423 1.250 6910
0.738 1.455 1.267 8627
0.740 1.458 1.263 10265
0.946 1.866 1.561 9503
0.957 1.887 1.568 8693
0.953 1.879 1.553 9486
0.955 1.883 1.547 10130
0.960 1.892 1.545 11544
0.965 1.902 1.543 13855
0.964 1.899 1.533 14567
0.965 1.903 1.526 14780
0.967 1.907 1.520 14118
0.975 1.922 1.522 12107
0.989 1.950 1.533 13674
1.006 1.983 1.547 13079
1.014 1.999 1.549 16707
1.016 2.002 1.542 18495
1.018 2.006 1.536 20880
1.019 2.010 1.529 21477
1.021 2.013 1.522 19959
1.026 2.023 1.520 18958
1.028 2.026 1.513 19058
1.030 2.030 1.507 16378
1.032 2.033 1.500 14099
1.033 2.037 1.493 12317
1.035 2.040 1.486 8258
1.071 2.111 1.523 8840
1.076 2.121 1.520 6822
1.121 2.210 1.568 5246
1.126 2.220 1.564 6335
1.122 2.212 1.549 5468
1.114 2.197 1.530 6200
1.119 2.207 1.527 5637
1.124 2.216 1.523 5365
1.170 2.307 1.569 4958
1.172 2.310 1.562 9483
1.177 2.320 1.558 11457
1.179 2.324 1.550 11710
1.181 2.328 1.542 11963
1.173 2.312 1.524 9800
1.165 2.297 1.505 10017
1.170 2.307 1.501 7968
1.175 2.317 1.497 6079
1.183 2.333 1.497 5324
1.188 2.343 1.492 4926
1.235 2.434 1.535 5155
1.234 2.432 1.523 7060
1.235 2.435 1.515 7989
1.240 2.445 1.510 9006
1.242 2.449 1.502 7524
1.250 2.465 1.501 6229
1.259 2.481 1.500 4579
1.277 2.517 1.509 4055
1.282 2.526 1.504 4285
1.283 2.530 1.496 4502
1.282 2.527 1.484 3331
1.306 2.575 1.499 2864
1.308 2.579 1.490 2864
1.356 2.672 1.528 2864
1.351 2.663 1.513 3641
1.349 2.660 1.500 5710
1.345 2.651 1.485 8001
1.343 2.648 1.473 7199
1.342 2.645 1.461 6600
1.343 2.648 1.453 6600
1.348 2.658 1.447 4645
1.376 2.713 1.463 4111
1.378 2.717 1.454 2055
0.310 0.609 1.698 10405
0.312 0.613 1.696 9703
0.313 0.614 1.687 9233
0.315 0.618 1.685 10753
0.317 0.622 1.683 12273
0.319 0.626 1.681 12273
0.322 0.633 1.686 11820
0.324 0.637 1.684 11505
0.328 0.645 1.689 8484
0.330 0.649 1.686 5570
0.335 0.659 1.699 5603
0.339 0.666 1.703 5845
0.339 0.667 1.694 6232
0.341 0.671 1.692 6506
0.343 0.675 1.690 6367
0.339 0.666 1.659 6738
0.338 0.664 1.643 7580
0.343 0.674 1.655 10090
0.345 0.678 1.652 12989
0.349 0.685 1.657 12687
0.351 0.689 1.655 12481
0.353 0.693 1.652 11949
0.355 0.697 1.650 11416
0.355 0.697 1.641 11996
0.355 0.698 1.631 12618
0.357 0.702 1.629 9800
0.357 0.702 1.620 5881
0.359 0.706 1.617 3852
0.361 0.710 1.615 5479
0.365 0.717 1.619 7869
0.367 0.721 1.617 10496
0.371 0.728 1.622 13181
0.373 0.732 1.619 12120
0.374 0.736 1.617 11059
0.384 0.754 1.642 12287
0.387 0.761 1.646 14831
0.389 0.765 1.643 13981
0.393 0.773 1.647 14852
0.395 0.777 1.645 16781
0.401 0.788 1.656 19236
0.405 0.795 1.660 21792
0.409 0.803 1.664 19405
0.411 0.807 1.661 19857
0.413 0.811 1.659 22885
0.416 0.818 1.663 25186
0.418 0.822 1.660 27080
0.419 0.822 1.650 22950
0.421 0.826 1.648 18111
0.424 0.834 1.652 17353
0.426 0.838 1.649 16954
0.428 0.842 1.646 14561
0.432 0.850 1.650 12611
0.434 0.854 1.647 10051
0.442 0.869 1.664 7356
0.448 0.881 1.674 8559
0.450 0.885 1.671 12772
0.452 0.889 1.668 19283
0.454 0.893 1.665 21510
0.456 0.897 1.662 20786
0.458 0.901 1.659 19323
0.460 0.904 1.656 16077
0.462 0.908 1.653 13638
0.464 0.912 1.650 9860
0.466 0.916 1.647 9883
0.472 0.928 1.657 20256
0.474 0.932 1.654 26197
0.476 0.936 1.651 26015
0.478 0.940 1.648 20087
0.480 0.944 1.645 9994
0.486 0.956 1.654 6718
0.488 0.960 1.651 8248
0.493 0.968 1.654 12472
0.497 0.976 1.657 18000
0.499 0.980 1.654 17673
0.499 0.980 1.644 14936
0.498 0.979 1.635 19753
0.503 0.988 1.638 25530
0.504 0.991 1.635 26836
0.506 0.995 1.631 23816
0.511 1.003 1.634 21448
0.513 1.007 1.631 19443
0.515 1.011 1.627 14135
0.516 1.015 1.624 11216
0.518 1.019 1.621 12767
0.520 1.023 1.617 10724
0.520 1.022 1.608 12148
0.522 1.026 1.604 18629
0.526 1.034 1.607 21420
0.530 1.042 1.610 21298
0.535 1.051 1.612 18824
0.543 1.068 1.627 13825
0.548 1.076 1.630 12239
0.550 1.080 1.626 11591
0.549 1.079 1.616 7185
0.549 1.079 1.607 8775
0.551 1.082 1.603 14434
0.553 1.086 1.600 15157
0.555 1.090 1.596 14724
0.557 1.094 1.592 18414
0.558 1.097 1.589 20616
0.563 1.106 1.591 16414
0.567 1.114 1.593 12571
0.567 1.113 1.584 9793
0.566 1.112 1.574 6844
0.568 1.116 1.570 8185
0.572 1.124 1.572 18460
0.577 1.133 1.575 22650
0.576 1.132 1.565 14503
0.575 1.131 1.555 19736
0.577 1.134 1.551 26985
0.582 1.143 1.554 20044
0.583 1.147 1.550 15962
0.595 1.170 1.569 17602
0.597 1.173 1.565 19466
0.591 1.162 1.544 15457
0.591 1.161 1.534 12831
0.605 1.189 1.559 13511
0.609 1.198 1.561 14862
0.614 1.206 1.562 14709
0.613 1.205 1.553 12327
0.623 1.223 1.566 12530
0.624 1.227 1.562 12979
0.629 1.236 1.563 11134
0.631 1.239 1.559 11525
0.633 1.243 1.555 14238
0.637 1.252 1.556 16527
0.639 1.255 1.552 10938
0.638 1.254 1.542 15270
0.643 1.263 1.544 25341
0.650 1.277 1.551 21175
0.662 1.301 1.568 21366
0.664 1.304 1.564 27821
0.668 1.313 1.565 20478
0.673 1.322 1.566 11881
0.667 1.310 1.545 19240
0.669 1.314 1.541 14098
0.689 1.354 1.574 6811
0.701 1.378 1.591 8357
0.703 1.382 1.587 11836
0.702 1.380 1.577 13645
0.704 1.384 1.572 14743
0.706 1.388 1.568 15175
0.711 1.397 1.568 15755
0.713 1.400 1.564 14352
0.714 1.404 1.559 12376
0.617 1.212 1.361 9784
0.618 1.215 1.357 11515
0.620 1.218 1.353 11583
0.624 1.226 1.354 8419
0.626 1.229 1.350 7681
0.627 1.233 1.346 10471
0.629 1.236 1.342 8797
0.757 1.487 1.572 9431
0.629 1.236 1.328 13096
0.631 1.240 1.324 15346
0.632 1.243 1.320 12982
0.631 1.240 1.311 10271
0.635 1.249 1.312 11992
0.637 1.252 1.308 13622
0.636 1.249 1.299 11045
0.772 1.516 1.533 7413
0.754 1.481 1.493 7961
0.753 1.479 1.483 11139
0.754 1.483 1.478 12999
0.756 1.486 1.473 11558
0.648 1.273 1.278 9774
0.649 1.275 1.274 6416
0.653 1.284 1.275 4495
0.652 1.281 1.266 6958
0.654 1.284 1.261 11890
0.655 1.287 1.257 14795
0.656 1.290 1.253 15985
0.658 1.293 1.249 16924
0.662 1.301 1.249 14738
0.661 1.299 1.240 8908
0.749 1.472 1.376 7545
0.748 1.470 1.367 7062
0.752 1.478 1.366 6756
0.684 1.344 1.250 7667
0.685 1.347 1.246 9063
0.687 1.350 1.241 7614
0.703 1.382 1.260 8167
0.702 1.379 1.251 9661
0.700 1.376 1.242 9168
0.704 1.384 1.241 8161
0.712 1.399 1.246 7275
0.716 1.407 1.246 6165
0.730 1.434 1.259 6105
0.740 1.454 1.267 8450
0.741 1.457 1.263 10173
0.737 1.448 1.249 9281
0.732 1.439 1.235 8595
0.956 1.878 1.553 8611
0.957 1.881 1.547 8981
0.965 1.897 1.550 10383
0.970 1.906 1.548 12936
0.969 1.904 1.537 12763
0.971 1.908 1.531 12447
0.973 1.911 1.524 12193
0.984 1.933 1.531 11349
0.991 1.948 1.533 13543
0.996 1.958 1.530 12581
1.016 1.997 1.549 13261
1.018 2.001 1.542 14745
1.020 2.005 1.536 16758
1.019 2.002 1.525 17301
1.024 2.012 1.522 15794
1.029 2.022 1.520 15046
1.031 2.025 1.513 15560
1.032 2.029 1.507 13418
1.034 2.032 1.500 11431
1.036 2.036 1.493 9863
1.075 2.112 1.534 8403
1.074 2.110 1.523 9248
1.075 2.113 1.516 7224
1.080 2.123 1.513 5226
1.129 2.219 1.564 5409
1.128 2.216 1.553 4664
1.117 2.195 1.530 5456
1.122 2.205 1.527 5021
1.127 2.215 1.523 4840
1.173 2.305 1.569 4530
1.175 2.309 1.562 8620
1.180 2.319 1.558 10355
1.182 2.322 1.550 10730
1.184 2.326 1.542 11105
1.170 2.298 1.516 9814
1.168 2.296 1.505 10466
1.170 2.299 1.497 8336
1.175 2.309 1.493 6293
1.190 2.338 1.500 5323
1.195 2.347 1.496 4982
1.238 2.433 1.535 4275
1.237 2.430 1.523 5535
1.242 2.440 1.518 6544
1.243 2.444 1.510 7681
1.245 2.447 1.502 6621
1.254 2.463 1.501 5822
1.262 2.480 1.500 4436
1.280 2.515 1.509 4110
1.285 2.525 1.504 4516
1.290 2.535 1.499 4952
1.301 2.557 1.501 3945
1.310 2.574 1.499 3394
1.311 2.577 1.490 3394
1.313 2.581 1.482 2669
1.358 2.668 1.516 3107
1.353 2.658 1.500 4854
1.348 2.649 1.485 6843
1.346 2.646 1.473 6147
1.345 2.643 1.461 5631
1.347 2.646 1.453 5631
1.352 2.656 1.447 4226
1.380 2.711 1.463 3392
1.382 2.715 1.454 1696
0.312 0.608 1.698 11042
0.313 0.609 1.689 10270
0.315 0.613 1.687 9707
0.317 0.617 1.685 11393
0.319 0.621 1.683 13079
0.321 0.625 1.681 13079
0.325 0.632 1.686 12679
0.328 0.639 1.691 12333
0.330 0.643 1.689 9266
0.334 0.650 1.694 6348
0.338 0.657 1.699 6184
0.341 0.665 1.703 6148
0.342 0.666 1.694 6786
0.344 0.670 1.692 7353
0.346 0.674 1.690 7173
0.343 0.668 1.666 7490
0.342 0.665 1.650 8089
0.346 0.673 1.655 10294
0.348 0.677 1.652 12702
0.351 0.684 1.657 12321
0.353 0.688 1.655 12064
0.355 0.692 1.652 11451
0.356 0.692 1.643 10880
0.358 0.696 1.641 11553
0.358 0.696 1.631 12300
0.360 0.700 1.629 9701
0.362 0.704 1.627 5858
0.371 0.722 1.652 4200
0.366 0.712 1.622 5696
0.368 0.716 1.619 8343
0.371 0.723 1.624 11101
0.373 0.727 1.622 13960
0.375 0.731 1.619 12376
0.377 0.734 1.617 10792
0.386 0.752 1.642 12159
0.390 0.760 1.646 14569
0.392 0.764 1.643 13671
0.396 0.771 1.647 14490
0.398 0.775 1.645 16360
0.404 0.786 1.656 18513
0.408 0.794 1.660 20787
0.412 0.801 1.664 18316
0.414 0.805 1.661 19223
0.416 0.809 1.659 22902
0.418 0.813 1.656 25629
0.422 0.821 1.660 27867
0.422 0.821 1.650 24203
0.424 0.825 1.648 19080
0.428 0.832 1.652 17653
0.430 0.836 1.649 16795
0.432 0.840 1.646 13968
0.436 0.848 1.650 12114
0.438 0.852 1.647 10170
0.446 0.867 1.664 8480
0.450 0.875 1.668 9831
0.452 0.879 1.665 14275
0.454 0.883 1.662 21219
0.458 0.891 1.665 23617
0.460 0.895 1.662 22691
0.462 0.899 1.659 21573
0.464 0.903 1.656 19227
0.464 0.903 1.647 17181
0.468 0.911 1.650 13031
0.470 0.914 1.647 10596
0.474 0.922 1.651 18959
0.478 0.930 1.654 25085
0.480 0.934 1.651 25736
0.482 0.938 1.648 21142
0.482 0.938 1.638 9926
0.486 0.946 1.641 4692
0.492 0.958 1.651 6031
0.496 0.966 1.654 10476
0.500 0.974 1.657 16527
0.502 0.978 1.654 16466
0.504 0.982 1.651 13241
0.502 0.977 1.635 17517
0.504 0.981 1.632 24157
0.508 0.989 1.635 26507
0.510 0.993 1.631 23763
0.514 1.001 1.634 21308
0.516 1.005 1.631 20039
0.518 1.009 1.627 15165
0.518 1.009 1.618 11804
0.522 1.017 1.621 13009
0.522 1.016 1.611 11130
0.524 1.020 1.608 12721
0.526 1.024 1.604 19361
0.530 1.032 1.607 22541
0.534 1.040 1.610 22503
0.539 1.049 1.612 18972
0.547 1.066 1.627 14560
0.552 1.074 1.630 14273
0.551 1.073 1.620 14015
0.553 1.077 1.616 8232
0.553 1.077 1.607 6478
0.553 1.076 1.597 11006
0.555 1.079 1.594 11713
0.556 1.083 1.590 11243
0.558 1.087 1.586 16111
0.563 1.095 1.589 19284
0.565 1.099 1.585 15301
0.569 1.107 1.587 11101
0.568 1.107 1.578 9235
0.570 1.110 1.574 6654
0.572 1.114 1.570 6970
0.577 1.122 1.572 18169
0.581 1.131 1.575 24245
0.580 1.130 1.565 15639
0.580 1.129 1.555 20794
0.582 1.132 1.551 28987
0.586 1.141 1.554 21909
0.588 1.144 1.550 18182
0.590 1.148 1.546 20292
0.601 1.171 1.565 20504
0.596 1.160 1.544 15159
0.595 1.159 1.534 12369
0.610 1.187 1.559 13370
0.614 1.195 1.561 14227
0.618 1.204 1.562 12462
0.620 1.208 1.558 9759
0.627 1.221 1.566 10134
0.632 1.230 1.567 11214
0.639 1.243 1.574 10792
0.638 1.242 1.565 11876
0.640 1.246 1.560 14123
0.642 1.249 1.556 15383
0.644 1.253 1.552 10509
0.646 1.257 1.548 17325
0.647 1.260 1.544 24743
0.657 1.279 1.556 17367
0.667 1.298 1.568 20851
0.671 1.307 1.569 27939
0.673 1.310 1.565 21027
0.680 1.324 1.572 12406
0.672 1.308 1.545 17233
0.674 1.311 1.541 13525
0.617 1.201 1.418 7786
0.616 1.199 1.409 8199
0.618 1.203 1.405 9978
0.619 1.206 1.401 13419
0.621 1.209 1.397 14348
0.620 1.207 1.388 14008
0.616 1.200 1.373 16863
0.618 1.203 1.369 15455
0.620 1.206 1.365 10725
0.621 1.209 1.361 9098
0.623 1.212 1.357 10554
0.624 1.215 1.353 11146
0.626 1.219 1.349 9427
0.628 1.222 1.345 8958
0.632 1.230 1.346 10514
0.631 1.228 1.337 8788
0.762 1.484 1.572 10514
0.634 1.234 1.328 11506
0.635 1.237 1.324 13099
0.637 1.240 1.320 11112
0.636 1.238 1.311 9777
0.640 1.246 1.312 11914
0.639 1.244 1.303 13435
0.640 1.247 1.299 11507
0.642 1.250 1.294 8881
0.757 1.473 1.488 9046
0.758 1.476 1.483 12146
0.760 1.480 1.478 13789
0.762 1.483 1.473 12255
0.652 1.270 1.278 10013
0.654 1.273 1.274 6869
0.658 1.281 1.275 5221
0.660 1.284 1.270 7250
0.658 1.282 1.261 11420
0.660 1.285 1.257 14300
0.661 1.287 1.253 16486
0.666 1.296 1.253 18151
0.667 1.299 1.249 15380
0.753 1.466 1.381 9041
0.755 1.469 1.376 9124
0.753 1.467 1.367 8339
0.758 1.476 1.366 7001
0.689 1.342 1.250 6984
0.691 1.344 1.246 8721
0.692 1.347 1.241 7825
0.708 1.379 1.260 9334
0.707 1.376 1.251 11575
0.705 1.373 1.242 10575
0.710 1.382 1.241 8705
0.714 1.390 1.241 7531
0.719 1.399 1.241 6253
0.738 1.437 1.263 5432
0.745 1.451 1.267 8118
0.750 1.460 1.267 9931
0.745 1.451 1.253 9224
0.738 1.436 1.235 8891
0.742 1.445 1.235 7737
0.965 1.878 1.547 7640
0.976 1.899 1.554 9544
0.977 1.903 1.548 12137
0.979 1.906 1.541 11220
0.981 1.910 1.535 10649
0.983 1.914 1.529 10994
0.994 1.935 1.535 10894
1.002 1.950 1.537 13179
1.004 1.954 1.530 12252
1.009 1.964 1.528 10362
1.026 1.997 1.542 11182
1.025 1.995 1.532 12853
1.027 1.998 1.525 13518
1.028 2.002 1.518 11852
1.036 2.018 1.520 11082
1.038 2.021 1.513 11909
1.040 2.025 1.507 10345
1.042 2.028 1.500 8712
1.044 2.032 1.493 7379
1.083 2.108 1.534 8629
1.082 2.106 1.523 9518
1.084 2.109 1.516 7686
1.085 2.113 1.509 5853
1.141 2.221 1.568 4593
1.127 2.194 1.541 4010
1.126 2.191 1.530 4967
1.127 2.195 1.523 4705
1.136 2.211 1.523 4592
1.182 2.301 1.569 4041
1.184 2.304 1.562 7537
1.186 2.308 1.554 8979
1.191 2.318 1.550 9400
1.193 2.322 1.542 9853
1.175 2.288 1.512 9757
1.174 2.285 1.501 10731
1.179 2.295 1.497 8560
1.184 2.305 1.493 6493
1.202 2.339 1.504 5429
1.207 2.349 1.500 5124
1.247 2.428 1.535 3346
1.246 2.425 1.523 3918
1.251 2.435 1.518 5069
1.253 2.439 1.510 6289
1.258 2.449 1.506 5757
1.263 2.459 1.501 5428
1.274 2.481 1.503 4455
1.289 2.510 1.509 4277
1.294 2.520 1.504 4770
1.303 2.536 1.502 5516
1.311 2.552 1.501 4643
1.316 2.562 1.495 4058
1.318 2.566 1.487 4058
1.323 2.576 1.482 3136
1.368 2.662 1.516 2570
1.363 2.653 1.500 3960
1.358 2.644 1.485 5634
1.353 2.634 1.470 5086
1.348 2.625 1.455 4800
1.350 2.628 1.446 4800
1.358 2.645 1.444 3813
1.367 2.661 1.441 3143
1.369 2.664 1.433 1571
0.314 0.607 1.698 11248
0.316 0.611 1.696 10589
0.316 0.613 1.687 10106
0.319 0.617 1.685 11840
0.322 0.624 1.690 13641
0.324 0.628 1.688 13641
0.326 0.631 1.686 13343
0.330 0.639 1.691 13197
0.332 0.643 1.689 10169
0.337 0.653 1.701 7560
0.339 0.657 1.699 6831
0.343 0.664 1.703 6334
0.343 0.665 1.694 7091
0.344 0.666 1.685 7846
0.344 0.666 1.675 7704
0.345 0.667 1.666 7852
0.343 0.665 1.650 8230
0.347 0.672 1.655 10123
0.349 0.676 1.652 12143
0.353 0.683 1.657 11755
0.355 0.687 1.655 11479
0.357 0.691 1.652 10824
0.357 0.691 1.643 10265
0.359 0.695 1.641 11039
0.359 0.696 1.631 11904
0.361 0.699 1.629 9521
0.365 0.707 1.634 5998
0.372 0.721 1.652 4731
0.371 0.718 1.636 5983
0.371 0.718 1.626 8656
0.373 0.722 1.624 11558
0.375 0.726 1.622 14301
0.377 0.730 1.619 12230
0.379 0.734 1.617 10159
0.388 0.751 1.642 12027
0.392 0.759 1.646 14427
0.396 0.766 1.650 13476
0.398 0.770 1.647 14138
0.400 0.774 1.645 15934
0.406 0.785 1.656 17792
0.410 0.793 1.660 19773
0.413 0.800 1.664 17246
0.416 0.804 1.661 18568
0.418 0.808 1.659 22820
0.420 0.812 1.656 25996
0.424 0.820 1.660 28450
0.424 0.820 1.650 25280
0.426 0.824 1.648 19996
0.430 0.831 1.652 18036
0.432 0.835 1.649 16675
0.434 0.839 1.646 13358
0.438 0.847 1.650 11606
0.440 0.851 1.647 10408
0.444 0.859 1.651 9704
0.452 0.874 1.668 11029
0.454 0.878 1.665 15369
0.456 0.882 1.662 22474
0.460 0.890 1.665 24937
0.462 0.894 1.662 23888
0.464 0.898 1.659 23367
0.466 0.902 1.656 22279
0.468 0.906 1.653 20794
0.470 0.909 1.650 16413
0.472 0.913 1.647 11591
0.476 0.921 1.651 17623
0.480 0.929 1.654 23497
0.482 0.933 1.651 24836
0.484 0.937 1.648 21658
0.486 0.941 1.645 11061
0.486 0.941 1.635 5185
0.484 0.936 1.619 5528
0.496 0.961 1.648 9291
0.501 0.969 1.651 14969
0.505 0.977 1.654 14851
0.507 0.981 1.651 11263
0.504 0.976 1.635 14902
0.506 0.980 1.632 22467
0.511 0.988 1.635 25937
0.513 0.992 1.631 23594
0.517 1.000 1.634 21235
0.519 1.004 1.631 20906
0.519 1.004 1.621 16699
0.520 1.007 1.618 13016
0.522 1.011 1.615 13458
0.524 1.015 1.611 11612
0.526 1.019 1.608 12990
0.528 1.023 1.604 19809
0.533 1.031 1.607 23202
0.537 1.039 1.610 23057
0.541 1.047 1.612 18877
0.550 1.064 1.627 14542
0.554 1.073 1.630 15272
0.554 1.072 1.620 15735
0.556 1.076 1.616 9217
0.551 1.066 1.595 5602
0.553 1.070 1.591 8886
0.555 1.074 1.588 9084
0.557 1.077 1.584 8383
0.561 1.086 1.586 13450
0.563 1.089 1.583 18246
0.565 1.093 1.579 13863
0.571 1.106 1.587 9627
0.573 1.110 1.584 9434
0.570 1.104 1.568 7664
0.565 1.094 1.547 8439
0.579 1.121 1.572 17831
0.583 1.129 1.575 24758
0.583 1.128 1.565 16543
0.582 1.127 1.555 21297
0.584 1.131 1.551 29862
0.586 1.135 1.548 23269
0.590 1.143 1.550 19985
0.592 1.147 1.546 23341
0.602 1.165 1.559 20830
0.599 1.159 1.544 13923
0.626 1.211 1.597 12060
0.615 1.190 1.565 13263
0.617 1.194 1.561 13085
0.621 1.202 1.562 10542
0.623 1.206 1.558 8204
0.633 1.225 1.571 8406
0.635 1.228 1.567 10391
0.644 1.247 1.580 11573
0.644 1.246 1.570 12256
0.645 1.249 1.566 13281
0.650 1.258 1.567 13603
0.649 1.257 1.558 10180
0.648 1.255 1.548 19729
0.650 1.259 1.544 24688
0.663 1.283 1.562 14478
0.672 1.302 1.574 19546
0.674 1.305 1.569 27111
0.676 1.309 1.565 21031
0.686 1.328 1.577 12676
0.677 1.311 1.551 14725
0.679 1.315 1.546 12879
0.620 1.200 1.418 10099
0.619 1.198 1.409 10425
0.621 1.201 1.405 12105
0.622 1.204 1.401 14550
0.627 1.213 1.402 14584
0.620 1.200 1.382 15708
0.619 1.198 1.373 19467
0.621 1.201 1.369 16654
0.622 1.205 1.365 10569
0.624 1.208 1.361 7914
0.626 1.211 1.357 9064
0.627 1.214 1.353 10541
0.626 1.212 1.344 10758
0.630 1.220 1.345 10517
0.632 1.223 1.341 10646
0.634 1.226 1.337 8673
0.769 1.488 1.577 11187
0.771 1.491 1.573 10732
0.770 1.490 1.562 10634
0.772 1.493 1.558 10059
0.639 1.236 1.311 9217
0.640 1.239 1.307 11732
0.642 1.242 1.303 13069
0.643 1.245 1.299 11800
0.645 1.248 1.294 9986
0.760 1.471 1.488 9689
0.762 1.474 1.483 12472
0.764 1.478 1.478 13852
0.654 1.266 1.283 12384
0.655 1.269 1.278 10414
0.657 1.271 1.274 7480
0.661 1.280 1.275 5954
0.663 1.283 1.270 7593
0.661 1.280 1.261 11069
0.663 1.283 1.257 13866
0.664 1.286 1.253 16526
0.669 1.294 1.253 18537
0.670 1.297 1.249 15572
0.756 1.464 1.381 9673
0.758 1.467 1.376 10050
0.757 1.465 1.367 9080
0.761 1.474 1.366 7047
0.692 1.340 1.250 6577
0.694 1.343 1.246 8458
0.695 1.346 1.241 7970
0.712 1.377 1.260 10223
0.710 1.374 1.251 13135
0.709 1.371 1.242 11761
0.710 1.374 1.237 9076
0.714 1.383 1.237 7788
0.719 1.391 1.237 6447
0.747 1.447 1.272 4924
0.752 1.455 1.272 7684
0.753 1.458 1.267 9623
0.752 1.455 1.258 9031
0.744 1.441 1.240 8926
0.746 1.443 1.235 7582
0.753 1.458 1.239 6809
0.983 1.903 1.558 8810
0.982 1.900 1.548 11105
0.984 1.904 1.541 9805
0.989 1.914 1.539 9623
0.990 1.917 1.533 10805
0.998 1.933 1.535 10571
1.007 1.948 1.537 12687
1.008 1.952 1.530 11902
1.010 1.955 1.524 9996
1.021 1.977 1.530 8743
1.026 1.986 1.528 9946
1.025 1.984 1.517 10713
1.027 1.988 1.510 9143
1.044 2.021 1.524 7678
1.046 2.025 1.517 8633
1.045 2.022 1.507 7631
1.059 2.050 1.516 6640
1.083 2.096 1.537 6703
1.088 2.106 1.534 8509
1.087 2.103 1.523 9425
1.088 2.107 1.516 7947
1.090 2.110 1.509 6468
1.095 2.120 1.506 4643
1.129 2.185 1.538 3759
1.127 2.182 1.526 4849
1.133 2.192 1.523 4643
1.138 2.202 1.520 4506
1.184 2.292 1.565 3523
1.186 2.295 1.558 6341
1.191 2.305 1.554 7479
1.190 2.303 1.543 7980
1.185 2.294 1.527 8819
1.181 2.285 1.512 9499
1.179 2.282 1.501 10641
1.184 2.292 1.497 8435
1.189 2.302 1.493 6476
1.214 2.349 1.511 5577
1.212 2.346 1.500 5227
1.214 2.350 1.492 3301
1.255 2.429 1.527 2553
1.257 2.432 1.518 3787
1.262 2.442 1.514 5034
1.264 2.446 1.506 4943
1.272 2.462 1.505 5108
1.280 2.478 1.503 4580
1.292 2.501 1.505 4550
1.304 2.523 1.507 4997
1.312 2.539 1.506 5983
1.320 2.556 1.504 5159
1.322 2.559 1.495 4549
1.324 2.563 1.487 4549
1.329 2.573 1.482 3479
1.334 2.582 1.477 2510
1.346 2.605 1.478 3334
1.358 2.628 1.479 4626
1.353 2.618 1.464 4320
1.355 2.622 1.455 4160
1.356 2.625 1.446 4160
1.368 2.648 1.447 3405
1.373 2.658 1.441 3214
1.375 2.661 1.433 1607
0.315 0.607 1.698 11190
0.317 0.611 1.696 10589
0.318 0.612 1.687 10091
0.321 0.619 1.692 11937
0.324 0.623 1.690 13886
0.326 0.627 1.688 13886
0.328 0.631 1.686 13883
0.331 0.638 1.691 14163
0.335 0.645 1.696 11347
0.337 0.649 1.694 8912
0.341 0.656 1.699 7596
0.344 0.663 1.703 6558
0.345 0.664 1.694 7481
0.345 0.665 1.685 8464
0.346 0.666 1.675 8296
0.346 0.666 1.666 8208
0.345 0.664 1.650 8361
0.349 0.671 1.655 9969
0.351 0.675 1.652 11653
0.354 0.682 1.657 11268
0.356 0.686 1.655 10967
0.358 0.690 1.652 10194
0.359 0.690 1.643 9558
0.361 0.694 1.641 10433
0.361 0.695 1.631 11391
0.363 0.699 1.629 9217
0.368 0.709 1.641 6201
0.372 0.717 1.645 5263
0.374 0.720 1.643 6696
0.374 0.721 1.633 9092
0.376 0.725 1.631 11811
0.378 0.729 1.628 14327
0.380 0.732 1.626 11728
0.388 0.747 1.644 9820
0.392 0.754 1.648 12019
0.394 0.758 1.646 14438
0.398 0.765 1.650 13413
0.400 0.769 1.647 13806
0.402 0.773 1.645 15510
0.407 0.784 1.656 17038
0.411 0.792 1.660 18707
0.415 0.799 1.664 16210
0.417 0.803 1.661 17997
0.419 0.807 1.659 22801
0.421 0.811 1.656 26379
0.423 0.815 1.653 29035
0.425 0.819 1.650 26253
0.427 0.823 1.648 20730
0.431 0.830 1.652 18242
0.433 0.834 1.649 16358
0.435 0.838 1.646 12574
0.439 0.846 1.650 10958
0.441 0.850 1.647 10675
0.446 0.858 1.651 11134
0.452 0.869 1.661 12190
0.456 0.877 1.665 16144
0.458 0.881 1.662 23288
0.460 0.885 1.659 25816
0.464 0.893 1.662 24647
0.466 0.897 1.659 24808
0.468 0.901 1.656 25104
0.470 0.904 1.653 24250
0.472 0.908 1.650 19643
0.474 0.912 1.647 12673
0.478 0.920 1.651 16304
0.480 0.924 1.648 21736
0.484 0.932 1.651 23491
0.486 0.936 1.648 21739
0.488 0.940 1.645 12268
0.490 0.944 1.641 6588
0.490 0.943 1.632 6714
0.499 0.960 1.648 9172
0.503 0.968 1.651 13491
0.507 0.976 1.654 13168
0.511 0.984 1.657 9359
0.507 0.975 1.635 12295
0.509 0.979 1.632 20794
0.511 0.983 1.628 25555
0.515 0.991 1.631 23511
0.519 0.999 1.634 21216
0.521 1.003 1.631 21764
0.521 1.002 1.621 18381
0.523 1.006 1.618 14486
0.525 1.010 1.615 14313
0.527 1.014 1.611 12233
0.526 1.013 1.602 13265
0.531 1.021 1.604 19997
0.535 1.030 1.607 23534
0.539 1.038 1.610 23166
0.543 1.046 1.612 18543
0.552 1.063 1.627 14144
0.557 1.072 1.630 15526
0.556 1.071 1.620 16580
0.556 1.070 1.610 10377
0.553 1.065 1.595 6243
0.553 1.064 1.585 7250
0.555 1.068 1.582 7762
0.554 1.067 1.572 8203
0.559 1.075 1.574 12130
0.563 1.084 1.577 16658
0.565 1.087 1.573 13046
0.569 1.096 1.575 8788
0.571 1.099 1.572 10203
0.571 1.098 1.562 9188
0.570 1.097 1.553 8086
0.582 1.120 1.572 17600
0.586 1.128 1.575 24784
0.585 1.127 1.565 17453
0.582 1.121 1.549 21412
0.587 1.130 1.551 29697
0.589 1.133 1.548 24298
0.591 1.137 1.544 21382
0.595 1.145 1.546 25651
0.602 1.158 1.554 20801
0.601 1.157 1.544 12267
0.631 1.214 1.603 13010
0.618 1.189 1.565 12553
0.620 1.192 1.561 11711
0.626 1.206 1.568 9186
0.628 1.210 1.564 7300
0.635 1.223 1.571 7528
0.640 1.232 1.573 11032
0.644 1.240 1.574 13155
0.649 1.249 1.576 12843
0.653 1.258 1.577 12259
0.658 1.266 1.579 11737
0.655 1.260 1.563 9199
0.651 1.254 1.548 21314
0.653 1.257 1.544 26058
0.666 1.281 1.562 12939
0.675 1.300 1.574 18315
0.677 1.304 1.569 25585
0.679 1.307 1.565 20552
0.692 1.331 1.582 12620
0.688 1.325 1.567 12469
0.682 1.313 1.546 11737
0.623 1.198 1.418 12767
0.622 1.196 1.409 12500
0.623 1.200 1.405 13909
0.625 1.203 1.401 15118
0.627 1.206 1.397 14221
0.623 1.199 1.382 17140
0.622 1.197 1.373 21095
0.623 1.200 1.369 17192
0.625 1.203 1.365 10288
0.745 1.433 1.586 7317
0.628 1.209 1.357 7320
0.630 1.213 1.353 9837
0.629 1.210 1.344 12138
0.630 1.214 1.340 11984
0.635 1.222 1.341 10694
0.731 1.407 1.511 8301
0.772 1.486 1.577 11520
0.774 1.490 1.573 11336
0.773 1.488 1.562 10840
0.775 1.492 1.558 9625
0.642 1.235 1.311 8829
0.643 1.238 1.307 11464
0.645 1.241 1.303 12564
0.646 1.244 1.299 11786
0.648 1.247 1.294 10489
0.763 1.469 1.488 9811
0.765 1.473 1.483 12203
0.767 1.476 1.478 13357
0.657 1.264 1.283 13044
0.658 1.267 1.278 10908
0.660 1.270 1.274 8163
0.664 1.278 1.275 6653
0.666 1.281 1.270 7836
0.667 1.284 1.266 10609
0.666 1.282 1.257 13170
0.667 1.284 1.253 15945
0.672 1.293 1.253 18132
0.673 1.296 1.249 15424
0.675 1.299 1.245 9923
0.761 1.466 1.376 10347
0.760 1.463 1.367 9303
0.762 1.466 1.362 6974
0.695 1.338 1.250 6367
0.697 1.341 1.246 8143
0.701 1.350 1.246 8106
0.715 1.376 1.260 10974
0.713 1.373 1.251 14436
0.712 1.370 1.242 12731
0.713 1.373 1.237 9297
0.715 1.375 1.232 7871
0.719 1.384 1.232 6695
0.793 1.526 1.335 4795
0.755 1.454 1.272 7014
0.757 1.457 1.267 9024
0.758 1.459 1.262 8687
0.747 1.439 1.240 8723
0.749 1.442 1.235 7275
0.757 1.456 1.239 5961
0.987 1.900 1.558 7862
0.986 1.898 1.548 9882
0.988 1.902 1.541 8620
0.993 1.911 1.539 9281
0.995 1.915 1.533 11215
1.003 1.930 1.535 10288
1.011 1.946 1.537 11968
1.010 1.944 1.526 11648
1.008 1.941 1.516 10256
1.010 1.945 1.509 8121
1.028 1.978 1.523 8260
1.026 1.976 1.513 9385
1.019 1.961 1.494 8363
1.017 1.959 1.483 7850
1.085 2.089 1.562 8171
1.084 2.086 1.551 7097
1.073 2.066 1.528 6672
1.088 2.094 1.537 6696
1.093 2.103 1.534 8275
1.095 2.107 1.527 9226
1.096 2.110 1.520 8175
1.095 2.108 1.509 7151
1.100 2.118 1.506 5413
1.118 2.152 1.518 3690
1.132 2.180 1.526 4794
1.134 2.183 1.519 4654
1.139 2.193 1.516 4556
1.141 2.197 1.509 3378
1.191 2.293 1.558 5094
1.193 2.296 1.550 5893
1.188 2.288 1.535 6960
1.187 2.285 1.524 8360
1.182 2.276 1.509 9233
1.184 2.280 1.501 10350
1.186 2.283 1.494 8199
1.227 2.362 1.530 6765
1.222 2.353 1.515 5864
1.221 2.350 1.503 5398
1.223 2.353 1.495 3561
1.237 2.382 1.502 2005
1.265 2.436 1.522 2823
1.267 2.439 1.514 3904
1.272 2.449 1.509 4220
1.281 2.465 1.508 4908
1.289 2.482 1.507 4797
1.294 2.491 1.502 4922
1.309 2.520 1.507 5194
1.318 2.537 1.506 6350
1.326 2.553 1.504 5545
1.328 2.556 1.495 4894
1.330 2.560 1.487 4894
1.335 2.570 1.482 3675
1.340 2.579 1.477 2604
1.352 2.602 1.478 3278
1.354 2.605 1.469 4010
1.355 2.609 1.460 3820
1.357 2.612 1.452 3630
1.359 2.616 1.443 3630
1.377 2.651 1.450 3003
1.379 2.655 1.441 3133
1.381 2.658 1.433 1566
0.317 0.606 1.698 11030
0.319 0.610 1.696 10481
0.319 0.611 1.687 9957
0.323 0.618 1.692 11977
0.325 0.622 1.690 14021
0.327 0.626 1.688 14021
0.331 0.633 1.693 14478
0.333 0.637 1.691 15276
0.337 0.644 1.696 12755
0.339 0.648 1.694 10600
0.342 0.655 1.699 8484
0.348 0.665 1.710 6746
0.347 0.663 1.694 7882
0.347 0.664 1.685 9024
0.347 0.665 1.675 8844
0.348 0.666 1.666 8593
0.347 0.663 1.650 8649
0.350 0.670 1.655 9961
0.352 0.674 1.652 11346
0.356 0.681 1.657 10892
0.358 0.685 1.655 10490
0.360 0.689 1.652 9685
0.360 0.690 1.643 9021
0.362 0.693 1.641 10010
0.363 0.694 1.631 11011
0.366 0.701 1.636 9054
0.370 0.708 1.641 6517
0.376 0.719 1.652 5899
0.376 0.719 1.643 7405
0.376 0.720 1.633 9580
0.378 0.724 1.631 11951
0.380 0.728 1.628 14088
0.384 0.735 1.633 11345
0.390 0.746 1.644 9648
0.394 0.753 1.648 12086
0.396 0.757 1.646 14542
0.400 0.764 1.650 13420
0.402 0.768 1.647 13510
0.404 0.772 1.645 15122
0.409 0.783 1.656 16313
0.413 0.791 1.660 17651
0.417 0.798 1.664 15333
0.419 0.802 1.661 17644
0.421 0.806 1.659 22918
0.423 0.810 1.656 26830
0.425 0.814 1.653 29720
0.427 0.818 1.650 27118
0.429 0.822 1.648 21295
0.433 0.829 1.652 18319
0.435 0.833 1.649 15952
0.438 0.837 1.646 11766
0.442 0.845 1.650 10296
0.444 0.849 1.647 11022
0.446 0.853 1.644 12920
0.450 0.860 1.648 14148
0.458 0.876 1.665 16653
0.460 0.880 1.662 23460
0.462 0.884 1.659 26108
0.466 0.892 1.662 24833
0.466 0.892 1.653 26015
0.470 0.899 1.656 27680
0.472 0.903 1.653 27367
0.474 0.907 1.650 22520
0.476 0.911 1.647 13785
0.480 0.919 1.651 15138
0.482 0.923 1.648 19905
0.486 0.931 1.651 21877
0.488 0.935 1.648 21495
0.491 0.939 1.645 13288
0.497 0.951 1.654 8145
0.497 0.950 1.645 7973
0.501 0.958 1.648 9247
0.505 0.967 1.651 11987
0.509 0.975 1.654 11403
0.514 0.983 1.657 7574
0.507 0.970 1.629 9898
0.511 0.978 1.632 19163
0.513 0.982 1.628 25441
0.515 0.985 1.625 23884
0.521 0.998 1.634 21593
0.523 1.002 1.631 22753
0.523 1.001 1.621 19980
0.523 1.001 1.612 16361
0.525 1.004 1.608 15694
0.529 1.013 1.611 13172
0.529 1.012 1.602 13422
0.533 1.020 1.604 19917
0.537 1.028 1.607 23773
0.542 1.036 1.610 23023
0.546 1.045 1.612 17995
0.555 1.062 1.627 13467
0.559 1.070 1.630 14975
0.559 1.070 1.620 16437
0.559 1.069 1.610 11030
0.558 1.068 1.601 7580
0.558 1.067 1.591 7082
0.557 1.066 1.582 8029
0.559 1.070 1.578 9618
0.561 1.074 1.574 10809
0.566 1.082 1.577 15371
0.565 1.081 1.567 13175
0.574 1.099 1.581 8332
0.579 1.107 1.584 10360
0.581 1.111 1.580 8538
0.570 1.091 1.547 8114
0.582 1.114 1.567 17121
0.589 1.127 1.575 24030
0.588 1.126 1.565 17748
0.585 1.120 1.549 21006
0.587 1.123 1.546 28999
0.591 1.132 1.548 25028
0.596 1.140 1.550 22364
0.598 1.144 1.546 27305
0.605 1.157 1.554 20195
0.607 1.161 1.550 10128
0.634 1.213 1.603 13713
0.623 1.192 1.570 11602
0.622 1.191 1.561 9880
0.632 1.209 1.574 8109
0.639 1.223 1.581 7460
0.641 1.226 1.577 8179
0.640 1.225 1.567 12938
0.645 1.234 1.569 15347
0.652 1.247 1.576 13643
0.662 1.266 1.588 11996
0.666 1.275 1.590 11541
0.666 1.274 1.580 9388
0.657 1.257 1.553 22346
0.656 1.256 1.544 27786
0.663 1.269 1.551 12724
0.679 1.298 1.574 17053
0.680 1.302 1.569 23427
0.682 1.306 1.565 19345
0.700 1.340 1.593 12089
0.702 1.344 1.589 10630
0.626 1.199 1.428 10546
0.623 1.192 1.413 15199
0.624 1.195 1.409 13972
0.626 1.198 1.405 15078
0.625 1.196 1.396 15186
0.627 1.199 1.392 13609
0.626 1.197 1.382 18014
0.625 1.195 1.373 21468
0.626 1.199 1.369 16919
0.625 1.196 1.360 9877
0.751 1.437 1.591 7284
0.631 1.208 1.357 5783
0.630 1.206 1.348 9640
0.632 1.209 1.344 13329
0.633 1.212 1.340 12936
0.638 1.220 1.341 10226
0.734 1.405 1.511 8508
0.776 1.484 1.577 11308
0.777 1.488 1.573 11292
0.777 1.486 1.562 10452
0.779 1.490 1.558 8668
0.645 1.233 1.311 8635
0.646 1.236 1.307 11210
0.645 1.234 1.298 12180
0.649 1.242 1.299 11567
0.651 1.245 1.294 10329
0.655 1.254 1.295 9713
0.769 1.471 1.483 11244
0.658 1.260 1.287 13240
0.660 1.263 1.283 13590
0.661 1.265 1.278 11374
0.663 1.268 1.274 8760
0.667 1.277 1.275 7091
0.669 1.280 1.270 7692
0.670 1.283 1.266 9791
0.669 1.280 1.257 11928
0.670 1.283 1.253 14554
0.675 1.291 1.253 16914
0.676 1.294 1.249 14947
0.681 1.303 1.249 10755
0.765 1.464 1.376 9991
0.764 1.461 1.367 8981
0.765 1.464 1.362 6806
0.696 1.331 1.246 6275
0.700 1.340 1.246 7707
0.705 1.348 1.246 8163
0.718 1.374 1.260 11516
0.716 1.371 1.251 15295
0.715 1.368 1.242 13387
0.716 1.371 1.237 9259
0.718 1.374 1.232 7733
0.722 1.382 1.232 6881
0.797 1.524 1.335 5022
0.762 1.458 1.276 6157
0.763 1.460 1.271 8186
0.762 1.458 1.262 8166
0.751 1.437 1.240 8334
0.752 1.440 1.235 6864
0.978 1.871 1.547 5407
0.986 1.886 1.550 7135
0.988 1.890 1.543 8793
0.993 1.899 1.541 7960
0.998 1.909 1.539 9485
0.999 1.912 1.533 11749
1.004 1.922 1.531 10079
1.013 1.937 1.533 11112
1.014 1.941 1.526 11723
1.013 1.939 1.516 11081
1.012 1.936 1.505 8898
1.029 1.970 1.519 7765
1.028 1.967 1.509 8973
1.024 1.959 1.494 8781
1.025 1.962 1.487 8209
1.090 2.086 1.562 8032
1.089 2.084 1.551 7042
1.078 2.063 1.528 7051
1.090 2.085 1.533 6725
1.098 2.101 1.534 8072
1.100 2.104 1.527 9077
1.102 2.108 1.520 8500
1.100 2.105 1.509 7941
1.105 2.115 1.506 6282
1.120 2.143 1.514 4133
1.138 2.177 1.526 4706
1.140 2.181 1.519 4739
1.141 2.184 1.512 4772
1.146 2.194 1.509 3583
1.193 2.284 1.554 3977
1.192 2.281 1.543 4539
1.188 2.272 1.528 6158
1.189 2.276 1.520 7926
1.188 2.273 1.509 8857
1.187 2.271 1.498 10015
1.192 2.280 1.494 7853
1.233 2.359 1.530 7002
1.231 2.356 1.518 6250
1.230 2.353 1.507 5737
1.232 2.357 1.499 4140
1.233 2.360 1.491 2544
1.271 2.433 1.522 2401
1.273 2.436 1.514 2796
1.285 2.459 1.516 3608
1.290 2.469 1.512 4789
1.295 2.478 1.507 5030
1.300 2.488 1.502 5324
1.319 2.523 1.511 5324
1.327 2.540 1.509 6590
1.332 2.549 1.504 5770
1.334 2.553 1.495 5083
1.336 2.556 1.487 5083
1.338 2.560 1.479 3747
1.356 2.595 1.486 2661
1.355 2.592 1.475 3269
1.357 2.596 1.466 3927
1.358 2.599 1.457 3559
1.360 2.603 1.449 3191
1.362 2.606 1.440 3191
1.401 2.680 1.466 2700
1.389 2.658 1.445 2955
1.391 2.661 1.436 1477
0.318 0.605 1.698 10753
0.320 0.609 1.696 10113
0.322 0.613 1.694 9474
0.324 0.617 1.692 11708
0.326 0.621 1.690 13943
0.328 0.625 1.688 13943
0.332 0.632 1.693 15079
0.334 0.636 1.691 16466
0.336 0.640 1.689 14432
0.340 0.647 1.694 12601
0.342 0.651 1.691 9745
0.349 0.665 1.710 6986
0.346 0.659 1.687 8343
0.347 0.660 1.678 9369
0.349 0.664 1.675 9127
0.349 0.665 1.666 8788
0.348 0.662 1.650 8848
0.352 0.669 1.655 9818
0.354 0.673 1.652 10887
0.357 0.680 1.657 10337
0.359 0.684 1.655 9812
0.361 0.688 1.652 9272
0.362 0.689 1.643 8842
0.364 0.693 1.641 9933
0.366 0.697 1.638 11023
0.368 0.700 1.636 9152
0.373 0.711 1.647 7033
0.377 0.718 1.652 6565
0.377 0.719 1.643 7956
0.379 0.723 1.640 9962
0.381 0.726 1.638 11910
0.383 0.730 1.635 13673
0.387 0.738 1.640 11200
0.393 0.748 1.651 9846
0.395 0.752 1.648 12248
0.397 0.756 1.646 14651
0.401 0.764 1.650 13444
0.403 0.768 1.647 13266
0.405 0.771 1.645 14797
0.411 0.782 1.656 15641
0.415 0.790 1.660 16650
0.419 0.798 1.664 14541
0.421 0.801 1.661 17249
0.423 0.805 1.659 22781
0.425 0.809 1.656 26898
0.427 0.813 1.653 29928
0.429 0.817 1.650 27478
0.431 0.821 1.648 21492
0.435 0.829 1.652 18158
0.437 0.832 1.649 15391
0.439 0.836 1.646 11053
0.443 0.844 1.650 9840
0.445 0.848 1.647 11745
0.447 0.852 1.644 15359
0.449 0.856 1.641 17068
0.459 0.875 1.665 17342
0.462 0.879 1.662 23294
0.464 0.883 1.659 25749
0.468 0.891 1.662 24337
0.468 0.891 1.653 26477
0.472 0.898 1.656 29422
0.474 0.902 1.653 29532
0.476 0.906 1.650 24467
0.480 0.914 1.654 14707
0.480 0.914 1.644 14111
0.484 0.922 1.648 17813
0.488 0.930 1.651 19875
0.490 0.934 1.648 20684
0.494 0.942 1.651 14067
0.501 0.954 1.661 9505
0.499 0.949 1.645 9041
0.501 0.953 1.641 9397
0.505 0.961 1.645 10748
0.511 0.974 1.654 9869
0.520 0.990 1.670 6339
0.509 0.969 1.629 7758
0.513 0.977 1.632 17351
0.515 0.981 1.628 25134
0.517 0.984 1.625 24385
0.521 0.993 1.628 22230
0.525 1.001 1.631 23695
0.525 1.000 1.621 21342
0.525 1.000 1.612 18618
0.527 1.003 1.608 17845
0.531 1.012 1.611 14279
0.531 1.011 1.602 13439
0.533 1.015 1.598 19631
0.537 1.023 1.601 23339
0.544 1.035 1.610 21901
0.548 1.044 1.612 16790
0.557 1.061 1.627 12685
0.561 1.069 1.630 14302
0.559 1.064 1.614 16029
0.561 1.068 1.610 11581
0.560 1.067 1.601 9159
0.562 1.071 1.597 7710
0.564 1.074 1.594 7804
0.564 1.074 1.584 10520
0.563 1.073 1.574 11775
0.565 1.076 1.571 15977
0.570 1.085 1.573 14240
0.576 1.098 1.581 8626
0.581 1.106 1.584 9181
0.580 1.105 1.574 7859
0.575 1.095 1.553 7600
0.584 1.112 1.567 15692
0.591 1.125 1.575 22304
0.590 1.124 1.565 17266
0.587 1.119 1.549 20332
0.589 1.122 1.546 28247
0.594 1.131 1.548 25598
0.598 1.139 1.550 22866
0.600 1.143 1.546 27598
0.604 1.151 1.548 18455
0.634 1.208 1.607 10217
0.636 1.211 1.603 14037
0.630 1.201 1.582 10786
0.625 1.190 1.561 7394
0.637 1.213 1.579 6879
0.644 1.226 1.587 8089
0.646 1.230 1.583 9432
0.643 1.224 1.567 15382
0.647 1.233 1.569 17962
0.654 1.246 1.576 14506
0.667 1.270 1.594 13517
0.669 1.273 1.590 11787
0.665 1.267 1.574 10419
0.659 1.256 1.553 22338
0.659 1.254 1.544 28599
0.661 1.258 1.540 14111
0.681 1.297 1.574 15792
0.683 1.301 1.569 20782
0.682 1.299 1.560 17466
0.623 1.186 1.430 14461
0.624 1.189 1.426 11515
0.626 1.192 1.422 13149
0.625 1.190 1.413 17227
0.627 1.194 1.409 14784
0.628 1.197 1.405 15415
0.627 1.195 1.396 14669
0.629 1.198 1.392 13025
0.628 1.196 1.382 18115
0.627 1.194 1.373 20328
0.629 1.197 1.369 15834
0.628 1.195 1.360 9406
0.754 1.435 1.591 7534
0.761 1.450 1.597 6498
0.630 1.199 1.343 10055
0.631 1.202 1.339 14395
0.636 1.211 1.340 13282
0.640 1.219 1.341 9328
0.737 1.404 1.511 8339
0.778 1.483 1.577 10669
0.780 1.486 1.573 10666
0.780 1.484 1.562 9692
0.781 1.488 1.558 7573
0.647 1.232 1.311 8670
0.646 1.230 1.302 11220
0.647 1.233 1.298 12028
0.652 1.241 1.299 11310
0.653 1.244 1.294 9581
0.658 1.252 1.295 8931
0.659 1.255 1.291 10827
0.661 1.258 1.287 13407
0.662 1.261 1.283 13795
0.664 1.264 1.278 11573
0.665 1.267 1.274 9095
0.670 1.276 1.275 7172
0.671 1.278 1.270 7081
0.673 1.281 1.266 8486
0.671 1.279 1.257 10102
0.673 1.281 1.253 12464
0.677 1.290 1.253 15062
0.679 1.293 1.249 14157
0.683 1.301 1.249 11589
0.691 1.315 1.254 11398
0.695 1.324 1.255 9597
0.697 1.327 1.250 7208
0.698 1.330 1.246 6264
0.703 1.338 1.246 7017
0.710 1.352 1.251 7983
0.721 1.372 1.260 11732
0.719 1.370 1.251 15495
0.721 1.372 1.246 13547
0.719 1.369 1.237 8868
0.721 1.372 1.232 7266
0.725 1.381 1.232 6797
0.800 1.523 1.335 5017
0.801 1.526 1.330 5752
0.766 1.459 1.271 7106
0.765 1.456 1.262 7363
0.757 1.441 1.244 7543
0.961 1.830 1.527 7464
