0.658 0.286 1.559 12180
0.665 0.289 1.564 9260
0.669 0.291 1.561 6304
0.673 0.292 1.559 6089
0.676 0.294 1.557 6030
0.684 0.297 1.562 6272
0.698 0.303 1.580 6446
0.691 0.300 1.557 8630
0.695 0.302 1.555 10881
0.702 0.305 1.560 9462
0.706 0.307 1.557 8238
0.710 0.308 1.555 6280
0.717 0.312 1.560 4333
0.721 0.313 1.557 6171
0.725 0.315 1.555 8506
0.728 0.316 1.553 10604
0.732 0.318 1.550 12337
0.740 0.321 1.555 12790
0.743 0.323 1.552 13799
0.747 0.325 1.550 14807
0.747 0.325 1.540 16187
0.751 0.326 1.538 16867
0.755 0.328 1.536 16078
0.758 0.329 1.533 14631
0.762 0.331 1.531 12978
0.766 0.333 1.528 12396
0.769 0.334 1.526 11513
0.773 0.336 1.523 11006
0.777 0.337 1.521 10892
0.784 0.341 1.525 11054
0.788 0.342 1.522 11443
0.792 0.344 1.520 10106
0.795 0.346 1.517 16147
0.799 0.347 1.514 23523
0.803 0.349 1.512 32047
0.810 0.352 1.516 45991
0.818 0.355 1.520 48861
0.826 0.359 1.524 44152
0.833 0.362 1.527 32605
0.841 0.365 1.531 22602
0.845 0.367 1.529 20467
0.849 0.369 1.526 18667
0.844 0.367 1.510 22964
0.852 0.370 1.514 25152
0.855 0.372 1.511 22046
0.863 0.375 1.515 17845
0.880 0.382 1.531 17377
0.883 0.384 1.528 25159
0.887 0.385 1.526 27813
0.891 0.387 1.523 27534
0.894 0.389 1.520 25597
0.894 0.388 1.510 21334
0.893 0.388 1.501 19027
0.901 0.391 1.505 22177
0.909 0.395 1.508 26859
0.913 0.396 1.505 28848
0.916 0.398 1.502 27332
0.924 0.401 1.505 19693
0.928 0.403 1.502 14730
0.927 0.403 1.493 13700
0.931 0.404 1.490 14168
0.943 0.410 1.500 14422
0.951 0.413 1.503 11669
0.959 0.417 1.506 8289
0.963 0.418 1.503 4650
0.957 0.416 1.487 2504
0.961 0.418 1.484 2433
0.965 0.419 1.481 4218
0.968 0.421 1.478 8134
0.976 0.424 1.481 10219
0.989 0.430 1.490 10233
0.997 0.433 1.493 11392
1.001 0.435 1.490 12000
1.004 0.436 1.486 16621
1.013 0.440 1.489 21142
1.016 0.442 1.486 14816
1.015 0.441 1.476 10889
1.023 0.445 1.479 18244
1.032 0.448 1.482 26942
1.035 0.450 1.479 26843
1.039 0.451 1.475 20005
1.042 0.453 1.472 12099
1.056 0.459 1.480 11384
1.059 0.460 1.477 13083
1.068 0.464 1.479 17123
1.071 0.465 1.476 25611
1.075 0.467 1.472 25428
1.083 0.471 1.475 15006
1.091 0.474 1.477 7181
1.080 0.469 1.456 9841
1.084 0.471 1.453 15908
1.092 0.475 1.455 18664
1.101 0.478 1.457 13817
1.114 0.484 1.465 9478
1.113 0.483 1.456 7660
1.116 0.485 1.452 10081
1.125 0.489 1.454 12902
1.128 0.490 1.451 11605
1.137 0.494 1.453 12121
1.140 0.495 1.449 8731
1.164 0.506 1.468 4581
1.152 0.501 1.447 10059
1.161 0.504 1.449 14681
1.169 0.508 1.451 11706
1.173 0.510 1.447 14251
1.176 0.511 1.443 17410
1.175 0.510 1.434 19312
1.178 0.512 1.430 24350
1.181 0.513 1.426 20103
1.195 0.519 1.434 13058
1.199 0.521 1.430 21234
1.202 0.522 1.426 32689
1.211 0.526 1.427 36113
1.214 0.528 1.423 36396
1.223 0.531 1.425 30807
1.232 0.535 1.426 34373
1.240 0.539 1.428 40553
1.244 0.540 1.424 29699
1.247 0.542 1.420 17292
1.267 0.550 1.432 19179
1.275 0.554 1.433 21833
1.279 0.556 1.429 30334
1.282 0.557 1.425 34549
1.286 0.559 1.421 27783
1.295 0.562 1.422 20594
1.298 0.564 1.417 14318
1.301 0.565 1.413 11412
1.310 0.569 1.414 15398
1.319 0.573 1.415 13525
1.333 0.579 1.421 11689
1.342 0.583 1.422 22769
1.346 0.585 1.418 40295
1.349 0.586 1.413 49856
1.353 0.588 1.409 49585
1.362 0.592 1.410 46598
1.370 0.595 1.410 31665
1.374 0.597 1.406 17527
1.377 0.598 1.402 15640
1.386 0.602 1.402 18861
1.395 0.606 1.403 28743
1.399 0.608 1.398 37355
1.402 0.609 1.394 32639
1.405 0.610 1.389 23996
1.414 0.614 1.390 20007
1.423 0.618 1.390 20466
1.432 0.622 1.390 20833
1.447 0.629 1.395 22252
1.450 0.630 1.391 30318
1.454 0.632 1.386 36232
1.457 0.633 1.381 29608
1.460 0.634 1.376 16671
1.469 0.638 1.377 12849
1.478 0.642 1.377 17271
1.488 0.646 1.377 19955
1.497 0.650 1.376 19820
1.506 0.654 1.376 17394
1.515 0.658 1.376 12561
1.518 0.660 1.371 10129
1.527 0.664 1.371 16556
1.531 0.665 1.366 24122
1.534 0.666 1.361 23794
1.543 0.670 1.361 18792
1.552 0.674 1.360 15548
1.555 0.676 1.355 13620
1.565 0.680 1.355 9710
1.568 0.681 1.350 6003
1.571 0.683 1.345 6553
1.586 0.689 1.349 10898
1.601 0.696 1.352 20091
1.611 0.700 1.352 27258
1.614 0.701 1.347 29674
1.617 0.703 1.341 27657
1.614 0.701 1.332 17941
1.623 0.705 1.331 13007
1.645 0.715 1.339 11940
1.672 0.727 1.351 11288
1.675 0.728 1.345 9239
1.673 0.727 1.336 9025
1.682 0.731 1.335 10400
1.691 0.735 1.333 11101
1.713 0.744 1.341 12359
1.722 0.748 1.339 14234
1.731 0.752 1.338 12974
1.753 0.762 1.345 11853
1.763 0.766 1.343 13816
1.766 0.767 1.338 14288
1.769 0.768 1.332 11507
1.784 0.775 1.334 8300
1.794 0.779 1.333 6839
1.803 0.783 1.331 8142
1.806 0.785 1.325 10685
1.816 0.789 1.323 11243
1.832 0.796 1.326 13814
1.841 0.800 1.324 16149
1.838 0.798 1.314 17646
1.841 0.800 1.308 18583
1.844 0.801 1.302 17379
1.847 0.802 1.296 12917
1.837 0.798 1.282 8959
1.866 0.811 1.292 8800
1.869 0.812 1.286 8830
1.872 0.813 1.280 6335
1.932 0.840 1.308 6767
1.935 0.841 1.302 7500
1.932 0.839 1.292 6508
1.935 0.841 1.285 5559
1.945 0.845 1.283 7895
1.954 0.849 1.280 10527
1.970 0.856 1.281 11567
1.973 0.857 1.275 12875
1.983 0.861 1.272 10344
1.992 0.865 1.270 8198
1.995 0.867 1.263 6425
1.985 0.862 1.250 4735
2.001 0.869 1.250 5443
2.010 0.873 1.247 6292
2.020 0.877 1.244 6156
2.029 0.882 1.241 6199
2.032 0.883 1.235 4714
2.087 0.907 1.256 3599
2.103 0.914 1.256 3487
2.113 0.918 1.253 3464
2.129 0.925 1.253 3831
2.139 0.929 1.249 4544
2.155 0.936 1.249 5026
2.210 0.960 1.268 6197
2.220 0.964 1.265 8438
2.223 0.966 1.257 10691
2.219 0.964 1.247 10705
2.222 0.965 1.240 10756
2.225 0.967 1.233 10776
2.228 0.968 1.226 9089
2.224 0.966 1.215 7481
2.247 0.976 1.218 7394
2.257 0.980 1.214 8206
2.259 0.982 1.206 8206
2.256 0.980 1.196 10127
0.583 0.251 1.590 6095
0.577 0.249 1.567 8700
0.584 0.252 1.572 11084
0.588 0.254 1.570 11525
0.592 0.255 1.568 11966
0.599 0.258 1.573 12259
0.603 0.260 1.571 12617
0.606 0.262 1.569 12639
0.613 0.265 1.575 13795
0.617 0.266 1.573 15119
0.624 0.269 1.578 14537
0.631 0.272 1.583 14617
0.632 0.273 1.574 14368
0.636 0.274 1.571 14231
0.636 0.275 1.562 12808
0.637 0.275 1.553 11557
0.641 0.276 1.551 11888
0.648 0.279 1.556 12349
0.655 0.283 1.561 12045
0.659 0.284 1.559 11983
0.666 0.287 1.564 9079
0.669 0.289 1.561 6168
0.673 0.291 1.559 6542
0.677 0.292 1.557 7050
0.684 0.295 1.562 6931
0.699 0.301 1.580 6989
0.692 0.299 1.557 8733
0.696 0.300 1.555 10669
0.703 0.303 1.560 9086
0.707 0.305 1.557 7714
0.710 0.307 1.555 5749
0.721 0.311 1.566 3847
0.722 0.311 1.557 5804
0.725 0.313 1.555 8340
0.729 0.315 1.553 10536
0.733 0.316 1.550 12532
0.740 0.319 1.555 13055
0.744 0.321 1.552 13837
0.748 0.323 1.550 14618
0.752 0.324 1.547 15683
0.752 0.324 1.538 16052
0.755 0.326 1.536 15267
0.759 0.328 1.533 13985
0.763 0.329 1.531 12504
0.766 0.331 1.528 12461
0.770 0.332 1.526 12436
0.774 0.334 1.523 12254
0.778 0.336 1.521 11931
0.781 0.337 1.518 11632
0.785 0.339 1.515 11654
0.792 0.342 1.520 10352
0.796 0.344 1.517 16968
0.800 0.345 1.514 24884
0.803 0.347 1.512 34214
0.811 0.350 1.516 48220
0.815 0.352 1.513 50419
0.823 0.355 1.517 44760
0.830 0.358 1.521 31426
0.842 0.363 1.531 20056
0.850 0.367 1.535 17465
0.849 0.367 1.526 16569
0.845 0.365 1.510 22451
0.853 0.368 1.514 24925
0.856 0.370 1.511 21617
0.864 0.373 1.515 18480
0.876 0.378 1.525 19201
0.884 0.382 1.528 26893
0.888 0.383 1.526 28979
0.892 0.385 1.523 28198
0.895 0.386 1.520 25770
0.895 0.386 1.510 21259
0.894 0.386 1.501 20090
0.902 0.389 1.505 23284
0.910 0.393 1.508 26543
0.913 0.394 1.505 27445
0.917 0.396 1.502 25206
0.925 0.399 1.505 17977
0.929 0.401 1.502 14063
0.928 0.400 1.493 13749
0.932 0.402 1.490 14367
0.944 0.407 1.500 14284
0.952 0.411 1.503 11441
0.960 0.414 1.506 10196
0.964 0.416 1.503 9546
0.963 0.416 1.493 8297
0.962 0.415 1.484 6100
0.966 0.417 1.481 4833
0.969 0.418 1.478 7804
0.977 0.422 1.481 11234
0.986 0.425 1.484 11320
0.994 0.429 1.487 12406
0.997 0.430 1.483 12859
1.006 0.434 1.486 16668
1.014 0.437 1.489 21217
1.017 0.439 1.486 15666
1.021 0.441 1.482 12548
1.025 0.442 1.479 19426
1.033 0.446 1.482 26931
1.036 0.447 1.479 27695
1.040 0.449 1.475 21951
1.044 0.450 1.472 15538
1.052 0.454 1.474 15114
1.060 0.458 1.477 15380
1.069 0.461 1.479 16648
1.072 0.463 1.476 23357
1.076 0.464 1.472 23912
1.084 0.468 1.475 14211
1.093 0.471 1.477 6800
1.077 0.465 1.450 9908
1.085 0.468 1.453 17968
1.093 0.472 1.455 23205
1.102 0.475 1.457 17575
1.110 0.479 1.459 13433
1.114 0.481 1.456 12537
1.117 0.482 1.452 9861
1.126 0.486 1.454 8727
1.129 0.487 1.451 8344
1.133 0.489 1.447 8529
1.141 0.492 1.449 8515
1.150 0.496 1.451 8816
1.153 0.498 1.447 16841
1.162 0.501 1.449 20713
1.171 0.505 1.451 14387
1.174 0.507 1.447 16114
1.172 0.506 1.438 20239
1.176 0.507 1.434 22120
1.174 0.507 1.425 24923
1.183 0.510 1.426 18098
1.202 0.519 1.439 13130
1.200 0.518 1.430 22779
1.203 0.519 1.426 30491
1.212 0.523 1.427 31468
1.216 0.525 1.423 33168
1.219 0.526 1.419 30480
1.233 0.532 1.426 34366
1.242 0.536 1.428 42056
1.245 0.537 1.424 34153
1.249 0.539 1.420 22247
1.263 0.545 1.426 19913
1.277 0.551 1.433 20941
1.280 0.552 1.429 30470
1.284 0.554 1.425 34518
1.282 0.553 1.415 25828
1.296 0.559 1.422 17074
1.299 0.561 1.417 11675
1.303 0.562 1.413 10100
1.312 0.566 1.414 14221
1.321 0.570 1.415 12112
1.340 0.578 1.426 10923
1.344 0.580 1.422 22680
1.347 0.581 1.418 41146
1.351 0.583 1.413 50933
1.354 0.584 1.409 49686
1.363 0.588 1.410 44916
1.372 0.592 1.410 29497
1.375 0.593 1.406 16989
1.384 0.597 1.407 16898
1.388 0.599 1.402 20434
1.397 0.603 1.403 28441
1.400 0.604 1.398 34002
1.403 0.606 1.394 27315
1.407 0.607 1.389 20317
1.416 0.611 1.390 19159
1.425 0.615 1.390 21398
1.434 0.619 1.390 23034
1.449 0.625 1.395 25361
1.452 0.626 1.391 32825
1.455 0.628 1.386 37584
1.459 0.629 1.381 30627
1.462 0.631 1.376 17860
1.477 0.637 1.381 12703
1.480 0.639 1.377 15204
1.489 0.643 1.377 18662
1.498 0.646 1.376 20179
1.507 0.650 1.376 18600
1.511 0.652 1.371 13821
1.520 0.656 1.371 10645
1.529 0.660 1.371 16952
1.532 0.661 1.366 24562
1.535 0.663 1.361 23931
1.545 0.667 1.361 19008
1.554 0.670 1.360 15817
1.557 0.672 1.355 13585
1.566 0.676 1.355 9415
1.575 0.680 1.354 5293
1.579 0.681 1.349 6466
1.588 0.685 1.349 11635
1.597 0.689 1.348 20354
1.612 0.696 1.352 27200
1.616 0.697 1.347 29806
1.619 0.698 1.341 28354
1.622 0.700 1.336 20064
1.625 0.701 1.331 16032
1.634 0.705 1.330 14492
1.674 0.722 1.351 10250
1.683 0.726 1.350 7899
1.674 0.722 1.336 8313
1.678 0.724 1.330 10418
1.687 0.728 1.329 11491
1.708 0.737 1.336 12455
1.724 0.744 1.339 13535
1.733 0.748 1.338 12051
1.755 0.757 1.345 10744
1.764 0.761 1.343 12078
1.768 0.763 1.338 12578
1.771 0.764 1.332 10397
1.768 0.763 1.322 7725
1.771 0.764 1.316 5789
1.799 0.776 1.327 6607
1.808 0.780 1.325 8741
1.812 0.782 1.319 9538
1.833 0.791 1.326 11266
1.843 0.795 1.324 12859
1.846 0.797 1.318 14497
1.843 0.795 1.308 15928
1.852 0.799 1.306 15197
1.862 0.803 1.304 11498
1.897 0.818 1.317 8683
1.874 0.809 1.296 9454
1.877 0.810 1.290 10265
1.887 0.814 1.287 7525
1.934 0.835 1.308 7371
1.938 0.836 1.302 8077
1.941 0.837 1.295 7221
1.944 0.839 1.289 6364
1.953 0.843 1.287 8184
1.963 0.847 1.284 10252
1.966 0.848 1.278 10802
1.975 0.852 1.275 11551
1.985 0.856 1.272 9414
1.988 0.858 1.266 7518
1.997 0.862 1.263 6726
2.000 0.863 1.257 5987
2.003 0.864 1.250 6524
2.006 0.866 1.244 7062
2.022 0.872 1.244 6233
2.031 0.877 1.241 6108
2.041 0.881 1.238 4626
2.083 0.899 1.252 4015
2.086 0.900 1.246 4131
2.102 0.907 1.246 4370
2.125 0.917 1.249 4035
2.167 0.935 1.262 4615
2.177 0.939 1.259 5164
2.219 0.958 1.272 6419
2.222 0.959 1.265 8687
2.225 0.960 1.257 10954
2.228 0.961 1.250 10935
2.231 0.963 1.243 10833
2.234 0.964 1.236 10750
2.230 0.962 1.226 8859
2.227 0.961 1.215 7158
2.249 0.971 1.218 6759
2.259 0.975 1.214 7451
2.262 0.976 1.206 7451
2.258 0.974 1.196 9271
0.574 0.246 1.569 6934
0.581 0.249 1.574 9657
0.585 0.251 1.572 12216
0.589 0.253 1.570 13284
0.596 0.256 1.575 14473
0.599 0.257 1.573 14858
0.603 0.259 1.571 15244
0.607 0.260 1.569 15134
0.614 0.263 1.575 15898
0.618 0.265 1.573 16782
0.625 0.268 1.578 16406
0.629 0.270 1.576 16596
0.632 0.271 1.574 15650
0.636 0.273 1.571 14704
0.640 0.275 1.569 12947
0.637 0.273 1.553 11322
0.641 0.275 1.551 11581
0.648 0.278 1.556 11958
0.655 0.281 1.561 11942
0.659 0.283 1.559 12130
0.663 0.284 1.557 9185
0.667 0.286 1.554 6240
0.670 0.288 1.552 7288
0.678 0.291 1.557 8390
0.681 0.292 1.555 7838
0.696 0.299 1.573 7538
0.692 0.297 1.557 8757
0.696 0.299 1.555 10162
0.704 0.302 1.560 8603
0.707 0.304 1.557 7180
0.711 0.305 1.555 5304
0.715 0.307 1.553 3428
0.719 0.308 1.550 5671
0.722 0.310 1.548 8413
0.726 0.312 1.546 10644
0.734 0.315 1.550 12860
0.741 0.318 1.555 13451
0.745 0.320 1.552 14085
0.749 0.321 1.550 14719
0.752 0.323 1.547 15138
0.756 0.324 1.545 14742
0.756 0.324 1.536 13872
0.760 0.326 1.533 13054
0.760 0.326 1.524 12135
0.767 0.329 1.528 12681
0.771 0.331 1.526 13516
0.775 0.332 1.523 13543
0.778 0.334 1.521 12986
0.782 0.336 1.518 12281
0.786 0.337 1.515 12132
0.793 0.340 1.520 10867
0.797 0.342 1.517 17605
0.801 0.344 1.514 25509
0.804 0.345 1.512 35531
0.812 0.348 1.516 49621
0.816 0.350 1.513 51363
0.823 0.353 1.517 45064
0.831 0.357 1.521 30671
0.843 0.362 1.531 18067
0.851 0.365 1.535 14972
0.850 0.365 1.526 14825
0.846 0.363 1.510 22083
0.853 0.366 1.514 24704
0.857 0.368 1.511 21182
0.865 0.371 1.515 19137
0.877 0.376 1.525 21018
0.885 0.380 1.528 28306
0.889 0.381 1.526 29670
0.892 0.383 1.523 28329
0.896 0.384 1.520 25264
0.895 0.384 1.510 20832
0.895 0.384 1.501 21038
0.903 0.387 1.505 24074
0.911 0.391 1.508 25693
0.914 0.392 1.505 25446
0.918 0.394 1.502 22522
0.926 0.397 1.505 15919
0.925 0.397 1.496 13508
0.929 0.399 1.493 14120
0.932 0.400 1.490 14499
0.940 0.404 1.493 13647
0.953 0.409 1.503 11231
0.961 0.412 1.506 12598
0.960 0.412 1.497 15102
0.964 0.414 1.493 14573
0.967 0.415 1.490 10755
0.967 0.415 1.481 6813
0.975 0.418 1.484 8805
0.978 0.420 1.481 13344
0.982 0.421 1.478 12835
0.990 0.425 1.481 12060
0.994 0.426 1.477 13291
1.002 0.430 1.480 17207
1.010 0.433 1.483 21128
1.018 0.437 1.486 15502
1.022 0.439 1.482 12743
1.025 0.440 1.479 19317
1.034 0.444 1.482 26013
1.037 0.445 1.479 26770
1.041 0.447 1.475 21447
1.044 0.448 1.472 16530
1.053 0.452 1.474 17578
1.061 0.455 1.477 17530
1.065 0.457 1.473 17895
1.068 0.458 1.470 23706
1.077 0.462 1.472 23661
1.085 0.466 1.475 13357
1.079 0.463 1.460 5818
1.077 0.462 1.450 9312
1.086 0.466 1.453 19252
1.094 0.470 1.455 27327
1.103 0.473 1.457 20905
1.111 0.477 1.459 15921
1.115 0.478 1.456 15319
1.123 0.482 1.458 9848
1.132 0.486 1.460 6223
1.130 0.485 1.451 8367
1.134 0.487 1.447 10854
1.142 0.490 1.449 10439
1.151 0.494 1.451 11039
1.154 0.495 1.447 18853
1.163 0.499 1.449 20920
1.172 0.503 1.451 14373
1.175 0.504 1.447 15958
1.179 0.506 1.443 19310
1.177 0.505 1.434 21003
1.175 0.504 1.425 24611
1.184 0.508 1.426 18325
1.198 0.514 1.434 17543
1.201 0.515 1.430 28706
1.205 0.517 1.426 29371
1.213 0.521 1.427 25519
1.211 0.520 1.418 29255
1.220 0.524 1.419 31470
1.229 0.527 1.421 36253
1.243 0.533 1.428 44415
1.246 0.535 1.424 39196
1.244 0.534 1.414 27270
1.264 0.542 1.426 20824
1.273 0.546 1.428 20518
1.281 0.550 1.429 30338
1.285 0.551 1.425 33337
1.283 0.550 1.415 23012
1.292 0.554 1.416 13258
1.295 0.556 1.412 9251
1.304 0.560 1.413 9181
1.313 0.563 1.414 12977
1.322 0.567 1.415 10593
1.342 0.576 1.426 10662
1.345 0.577 1.422 22030
1.348 0.579 1.418 40113
1.352 0.580 1.413 49813
1.355 0.582 1.409 47608
1.364 0.585 1.410 41573
1.373 0.589 1.410 26792
1.377 0.591 1.406 16389
1.385 0.595 1.407 18103
1.389 0.596 1.402 21789
1.392 0.597 1.398 27558
1.401 0.601 1.398 29513
1.405 0.603 1.394 21245
1.408 0.604 1.389 16554
1.423 0.610 1.394 18241
1.426 0.612 1.390 21301
1.441 0.618 1.395 23622
1.450 0.622 1.395 26832
1.453 0.624 1.391 34028
1.456 0.625 1.386 37696
1.460 0.626 1.381 30452
1.463 0.628 1.376 18153
1.478 0.634 1.381 11862
1.481 0.636 1.377 12578
1.490 0.640 1.377 16339
1.500 0.643 1.376 18750
1.509 0.647 1.376 18473
1.512 0.649 1.371 14947
1.515 0.650 1.367 12189
1.530 0.657 1.371 18046
1.534 0.658 1.366 25274
1.537 0.659 1.361 23904
1.546 0.663 1.361 18999
1.555 0.667 1.360 16106
1.558 0.669 1.355 13717
1.568 0.673 1.355 9373
1.577 0.677 1.354 5204
1.586 0.681 1.354 6695
1.589 0.682 1.349 12219
1.598 0.686 1.348 20442
1.614 0.692 1.352 26687
1.617 0.694 1.347 29381
1.620 0.695 1.341 28381
1.623 0.697 1.336 21452
1.627 0.698 1.331 18181
1.636 0.702 1.330 16330
1.645 0.706 1.329 10102
1.691 0.726 1.354 6974
1.676 0.719 1.336 7568
1.679 0.720 1.330 9872
1.688 0.724 1.329 11501
1.710 0.734 1.336 12458
1.719 0.738 1.335 13044
1.735 0.744 1.338 10994
1.757 0.754 1.345 9361
1.772 0.760 1.347 10147
1.769 0.759 1.338 10676
1.766 0.758 1.328 9334
1.769 0.759 1.322 7230
1.766 0.758 1.312 5500
1.801 0.773 1.327 5214
1.810 0.777 1.325 6854
1.813 0.778 1.319 8048
1.835 0.787 1.326 9129
1.851 0.794 1.328 9971
1.848 0.793 1.318 11710
1.851 0.794 1.312 13482
1.860 0.798 1.310 13225
1.870 0.802 1.308 11151
1.898 0.815 1.317 10348
1.882 0.808 1.299 11045
1.879 0.806 1.290 12214
1.888 0.810 1.287 9289
1.936 0.831 1.308 7869
1.939 0.832 1.302 8485
1.942 0.833 1.295 7927
1.945 0.835 1.289 7368
1.955 0.839 1.287 8444
1.964 0.843 1.284 9852
1.974 0.847 1.281 9801
1.977 0.848 1.275 9894
1.980 0.850 1.269 8457
1.989 0.854 1.266 7111
1.999 0.858 1.263 7235
2.008 0.862 1.260 7983
2.011 0.863 1.254 8077
2.008 0.862 1.244 8351
2.024 0.868 1.244 7017
2.040 0.875 1.245 6836
2.049 0.879 1.242 5826
2.072 0.889 1.245 5741
2.081 0.893 1.242 5633
2.091 0.897 1.239 5778
2.100 0.901 1.236 4556
2.176 0.934 1.266 4945
2.185 0.938 1.262 5451
2.221 0.953 1.272 6604
2.224 0.954 1.265 8888
2.227 0.956 1.257 11172
2.224 0.954 1.247 11148
2.233 0.958 1.243 10900
2.236 0.960 1.236 10691
2.232 0.958 1.226 8566
2.229 0.956 1.215 6790
2.251 0.966 1.218 6141
2.261 0.970 1.214 6723
2.264 0.971 1.206 6723
2.260 0.970 1.196 8434
0.575 0.245 1.569 7784
0.582 0.248 1.574 10677
0.585 0.249 1.572 13468
0.592 0.252 1.577 15078
0.596 0.254 1.575 16916
0.600 0.256 1.573 17363
0.604 0.257 1.571 17809
0.608 0.259 1.569 17575
0.615 0.262 1.575 17926
0.618 0.264 1.573 18426
0.626 0.267 1.578 18113
0.629 0.268 1.576 18436
0.633 0.270 1.574 16893
0.637 0.271 1.571 15350
0.641 0.273 1.569 13304
0.641 0.273 1.560 11275
0.645 0.275 1.558 11419
0.649 0.276 1.556 11581
0.653 0.278 1.554 11717
0.660 0.281 1.559 12024
0.664 0.283 1.557 9207
0.667 0.284 1.554 6391
0.671 0.286 1.552 7878
0.675 0.288 1.550 9366
0.682 0.291 1.555 8571
0.696 0.297 1.573 8139
0.697 0.297 1.564 8783
0.697 0.297 1.555 9666
0.704 0.300 1.560 8020
0.708 0.302 1.557 6465
0.712 0.303 1.555 4698
0.716 0.305 1.553 2930
0.719 0.307 1.550 5533
0.723 0.308 1.548 8556
0.727 0.310 1.546 10769
0.734 0.313 1.550 13110
0.738 0.314 1.548 13770
0.742 0.316 1.545 14519
0.746 0.318 1.543 15267
0.753 0.321 1.547 15112
0.757 0.322 1.545 14112
0.757 0.322 1.536 13066
0.761 0.324 1.533 12786
0.760 0.324 1.524 12427
0.768 0.327 1.528 13553
0.772 0.329 1.526 15032
0.775 0.330 1.523 15132
0.779 0.332 1.521 14191
0.783 0.334 1.518 12837
0.786 0.335 1.515 12424
0.790 0.337 1.513 11434
0.794 0.338 1.510 18407
0.797 0.340 1.508 26370
0.805 0.343 1.512 36887
0.813 0.346 1.516 51094
0.816 0.348 1.513 52414
0.824 0.351 1.517 45546
0.832 0.354 1.521 30174
0.844 0.359 1.531 16198
0.852 0.363 1.535 12447
0.851 0.363 1.526 13090
0.851 0.362 1.517 21633
0.854 0.364 1.514 24435
0.858 0.366 1.511 20866
0.866 0.369 1.515 19304
0.878 0.374 1.525 21911
0.886 0.377 1.528 29068
0.890 0.379 1.526 29893
0.893 0.381 1.523 27962
0.897 0.382 1.520 24025
0.896 0.382 1.510 19508
0.896 0.382 1.501 21143
0.904 0.385 1.505 24157
0.912 0.388 1.508 24467
0.915 0.390 1.505 23309
0.923 0.393 1.508 20274
0.927 0.395 1.505 14470
0.926 0.395 1.496 13011
0.930 0.396 1.493 14483
0.933 0.398 1.490 15186
0.941 0.401 1.493 13659
0.954 0.406 1.503 11071
0.962 0.410 1.506 13942
0.961 0.410 1.497 18700
0.965 0.411 1.493 18961
0.969 0.413 1.490 14713
0.972 0.414 1.487 9442
0.976 0.416 1.484 10338
0.979 0.417 1.481 15218
0.983 0.419 1.478 14965
0.986 0.420 1.474 12499
0.995 0.424 1.477 13134
1.003 0.427 1.480 17181
1.011 0.431 1.483 20244
1.019 0.434 1.486 15055
1.023 0.436 1.482 13436
1.027 0.437 1.479 19103
1.035 0.441 1.482 24379
1.038 0.442 1.479 26513
1.042 0.444 1.475 23510
1.046 0.446 1.472 19320
1.054 0.449 1.474 19755
1.062 0.453 1.477 18603
1.066 0.454 1.473 18842
1.069 0.456 1.470 25415
1.078 0.459 1.472 25492
1.081 0.461 1.469 14775
1.075 0.458 1.454 7384
1.074 0.457 1.444 9958
1.087 0.463 1.453 19954
1.096 0.467 1.455 30057
1.104 0.470 1.457 23168
1.113 0.474 1.459 17540
1.116 0.476 1.456 17219
1.125 0.479 1.458 12337
1.138 0.485 1.466 6669
1.132 0.482 1.451 9519
1.135 0.484 1.447 14783
1.144 0.487 1.449 12325
1.147 0.489 1.445 12152
1.156 0.492 1.447 19745
1.164 0.496 1.449 20011
1.173 0.500 1.451 12789
1.176 0.501 1.447 14510
1.175 0.501 1.438 19594
1.173 0.500 1.428 21438
1.176 0.501 1.425 24430
1.185 0.505 1.426 21271
1.194 0.509 1.428 24610
1.202 0.512 1.430 35860
1.206 0.514 1.426 30846
1.209 0.515 1.422 20927
1.213 0.517 1.418 26858
1.221 0.520 1.419 34469
1.230 0.524 1.421 39187
1.244 0.530 1.428 46598
1.242 0.529 1.418 43766
1.246 0.531 1.414 31911
1.260 0.537 1.421 21484
1.274 0.543 1.428 19837
1.283 0.547 1.429 29191
1.286 0.548 1.425 30669
1.284 0.547 1.415 19282
1.293 0.551 1.416 9287
1.302 0.555 1.417 7391
1.305 0.556 1.413 9020
1.314 0.560 1.414 11536
1.329 0.566 1.420 9320
1.349 0.575 1.432 11475
1.352 0.576 1.427 21484
1.355 0.578 1.423 37141
1.353 0.577 1.413 45018
1.357 0.578 1.409 41964
1.366 0.582 1.410 36327
1.375 0.586 1.410 23683
1.378 0.587 1.406 15675
1.387 0.591 1.407 19233
1.390 0.592 1.402 23179
1.394 0.594 1.398 26739
1.403 0.598 1.398 24369
1.400 0.597 1.389 15841
1.415 0.603 1.394 14635
1.424 0.607 1.394 17889
1.428 0.608 1.390 20115
1.442 0.615 1.395 21953
1.451 0.618 1.395 25810
1.455 0.620 1.391 33479
1.458 0.621 1.386 36869
1.461 0.623 1.381 29718
1.465 0.624 1.376 18075
1.480 0.630 1.381 10489
1.489 0.634 1.381 9714
1.492 0.636 1.377 13529
1.501 0.640 1.376 16254
1.510 0.644 1.376 17404
1.508 0.642 1.367 16136
1.511 0.644 1.362 14340
1.526 0.650 1.366 20000
1.535 0.654 1.366 26315
1.538 0.656 1.361 23939
1.548 0.659 1.361 18867
1.557 0.663 1.360 16401
1.560 0.665 1.355 13998
1.569 0.669 1.355 9561
1.585 0.675 1.359 5807
1.594 0.679 1.358 7653
1.591 0.678 1.349 12930
1.600 0.682 1.348 20381
1.609 0.686 1.347 25967
1.619 0.690 1.347 28449
1.622 0.691 1.341 27758
1.625 0.692 1.336 22097
1.628 0.694 1.331 19524
1.631 0.695 1.326 17603
1.635 0.696 1.320 11636
1.693 0.721 1.354 7361
1.678 0.715 1.336 7348
1.675 0.714 1.326 9269
1.690 0.720 1.329 11229
1.706 0.727 1.332 12582
1.721 0.733 1.335 12726
1.731 0.737 1.334 9933
1.752 0.747 1.341 7806
1.774 0.756 1.347 7904
1.765 0.752 1.334 8759
1.762 0.751 1.324 8572
1.759 0.749 1.314 7061
1.762 0.751 1.308 5503
1.803 0.768 1.327 3916
1.812 0.772 1.325 5073
1.815 0.773 1.319 6663
1.831 0.780 1.322 7456
1.853 0.789 1.328 7486
1.843 0.785 1.314 9153
1.853 0.789 1.312 11168
1.869 0.796 1.314 11524
1.884 0.803 1.315 11596
1.894 0.807 1.313 12283
1.884 0.803 1.299 13145
1.887 0.804 1.293 14533
1.890 0.805 1.287 11489
1.925 0.820 1.300 8314
1.941 0.827 1.302 8642
1.944 0.828 1.295 8527
1.948 0.830 1.289 8411
1.957 0.834 1.287 8637
1.967 0.838 1.284 9358
1.976 0.842 1.281 8645
1.979 0.843 1.275 7955
1.982 0.844 1.269 7446
1.992 0.849 1.266 7003
2.014 0.858 1.270 8452
2.017 0.859 1.264 10459
2.014 0.858 1.254 9835
2.010 0.856 1.244 9647
2.026 0.863 1.244 8020
2.042 0.870 1.245 7634
2.058 0.877 1.245 7465
2.067 0.881 1.242 8175
2.077 0.885 1.239 7713
2.093 0.892 1.239 7636
2.103 0.896 1.236 5536
2.178 0.928 1.266 5276
2.188 0.932 1.262 5758
2.224 0.947 1.272 6555
2.220 0.946 1.261 8910
2.223 0.947 1.254 11276
2.226 0.948 1.247 11276
2.236 0.953 1.243 10941
2.239 0.954 1.236 10626
2.235 0.952 1.226 8299
2.231 0.951 1.215 6484
2.254 0.960 1.218 5572
2.263 0.964 1.214 6020
2.266 0.966 1.206 6020
2.262 0.964 1.196 7575
0.575 0.244 1.569 8469
0.582 0.247 1.574 11598
0.586 0.249 1.572 14702
0.593 0.251 1.577 16613
0.597 0.253 1.575 18744
0.600 0.255 1.573 19434
0.604 0.256 1.571 20124
0.608 0.258 1.569 19788
0.615 0.261 1.575 19719
0.619 0.263 1.573 19891
0.623 0.264 1.571 19443
0.630 0.267 1.576 19658
0.634 0.269 1.574 17912
0.637 0.270 1.571 16165
0.641 0.272 1.569 13677
0.642 0.272 1.560 11103
0.646 0.274 1.558 11100
0.649 0.275 1.556 11010
0.653 0.277 1.554 11211
0.660 0.280 1.559 11598
0.664 0.282 1.557 8990
0.668 0.283 1.554 6381
0.672 0.285 1.552 8040
0.679 0.288 1.557 9748
0.683 0.290 1.555 8980
0.697 0.296 1.573 8660
0.697 0.296 1.564 8853
0.697 0.296 1.555 9095
0.705 0.299 1.560 7311
0.712 0.302 1.564 5577
0.712 0.302 1.555 4110
0.716 0.304 1.553 2649
0.720 0.305 1.550 5550
0.724 0.307 1.548 8721
0.727 0.309 1.546 10785
0.735 0.312 1.550 13221
0.739 0.313 1.548 14041
0.742 0.315 1.545 15048
0.746 0.316 1.543 16055
0.750 0.318 1.540 15595
0.757 0.321 1.545 14280
0.757 0.321 1.536 13236
0.761 0.323 1.533 13435
0.761 0.323 1.524 13486
0.769 0.326 1.528 15101
0.772 0.328 1.526 17031
0.776 0.329 1.523 17170
0.784 0.332 1.527 15796
0.783 0.332 1.518 13453
0.787 0.334 1.515 12576
0.791 0.335 1.513 11974
0.794 0.337 1.510 19480
0.798 0.338 1.508 27588
0.806 0.342 1.512 38431
0.809 0.343 1.509 52653
0.817 0.347 1.513 53113
0.825 0.350 1.517 45882
0.832 0.353 1.521 29993
0.844 0.358 1.531 15232
0.852 0.361 1.535 10630
0.839 0.356 1.506 12344
0.851 0.361 1.517 20364
0.855 0.363 1.514 23165
0.859 0.364 1.511 19766
0.866 0.368 1.515 18830
0.879 0.373 1.525 22334
0.887 0.376 1.528 29403
0.890 0.378 1.526 29732
0.894 0.379 1.523 27289
0.898 0.381 1.520 22722
0.897 0.380 1.510 18392
0.896 0.380 1.501 21053
0.904 0.384 1.505 23728
0.912 0.387 1.508 23076
0.920 0.390 1.511 21526
0.924 0.392 1.508 19500
0.928 0.393 1.505 14793
0.927 0.393 1.496 13219
0.926 0.393 1.487 14743
0.934 0.396 1.490 15660
0.942 0.400 1.493 13556
0.950 0.403 1.496 10921
0.958 0.406 1.500 14862
0.962 0.408 1.497 20787
0.966 0.410 1.493 21566
0.969 0.411 1.490 17394
0.973 0.413 1.487 12010
0.981 0.416 1.490 12260
0.980 0.416 1.481 16761
0.984 0.417 1.478 16701
0.992 0.421 1.481 13169
0.995 0.422 1.477 12342
1.004 0.426 1.480 15496
1.012 0.429 1.483 17711
1.020 0.433 1.486 14498
1.024 0.434 1.482 15793
1.027 0.436 1.479 21124
1.036 0.439 1.482 23793
1.039 0.441 1.479 25405
1.043 0.442 1.475 24672
1.046 0.444 1.472 21829
1.055 0.447 1.474 21642
1.063 0.451 1.477 18526
1.067 0.452 1.473 18529
1.070 0.454 1.470 26625
1.079 0.458 1.472 28179
1.082 0.459 1.469 17516
1.076 0.456 1.454 9560
1.079 0.458 1.450 11887
1.088 0.461 1.453 21172
1.091 0.463 1.449 31237
1.100 0.466 1.451 25018
1.113 0.472 1.459 19231
1.117 0.474 1.456 19005
1.125 0.477 1.458 16755
1.129 0.479 1.454 11314
1.132 0.480 1.451 14811
1.136 0.482 1.447 20996
1.139 0.483 1.443 14726
1.148 0.487 1.445 12432
1.156 0.491 1.447 20044
1.165 0.494 1.449 19289
1.174 0.498 1.451 11993
1.177 0.499 1.447 15902
1.176 0.499 1.438 23054
1.179 0.500 1.434 22395
1.177 0.499 1.425 22198
1.191 0.505 1.432 23713
1.195 0.507 1.428 30926
1.203 0.510 1.430 41694
1.207 0.512 1.426 36040
1.205 0.511 1.416 21014
1.214 0.515 1.418 26515
1.222 0.518 1.419 37779
1.231 0.522 1.421 41442
1.245 0.528 1.428 48198
1.243 0.527 1.418 47292
1.247 0.529 1.414 35743
1.261 0.535 1.421 22035
1.275 0.541 1.428 18437
1.284 0.544 1.429 26547
1.287 0.546 1.425 26577
1.285 0.545 1.415 15194
1.289 0.547 1.411 5971
1.303 0.553 1.417 6463
1.312 0.556 1.418 9448
1.315 0.558 1.414 10129
1.335 0.566 1.426 9524
1.344 0.570 1.426 13688
1.353 0.574 1.427 21576
1.356 0.575 1.423 31451
1.360 0.577 1.419 35529
1.363 0.578 1.414 33443
1.367 0.580 1.410 30623
1.370 0.581 1.405 21078
1.385 0.587 1.411 15035
1.388 0.589 1.407 20029
1.391 0.590 1.402 24418
1.395 0.592 1.398 25857
1.398 0.593 1.393 20267
1.407 0.597 1.394 12880
1.422 0.603 1.399 15299
1.425 0.604 1.394 17850
1.429 0.606 1.390 18366
1.438 0.610 1.390 18894
1.452 0.616 1.395 23136
1.456 0.617 1.391 31975
1.459 0.619 1.386 35942
1.462 0.620 1.381 29156
1.466 0.622 1.376 18046
1.475 0.626 1.377 9591
1.484 0.629 1.377 7467
1.493 0.633 1.377 10994
1.502 0.637 1.376 13265
1.506 0.639 1.372 15589
1.509 0.640 1.367 16878
1.512 0.641 1.362 16611
1.527 0.648 1.366 21884
1.536 0.652 1.366 27282
1.540 0.653 1.361 23973
1.543 0.654 1.356 18722
1.558 0.661 1.360 16475
1.561 0.662 1.355 14169
1.576 0.669 1.359 9829
1.592 0.675 1.363 6917
1.595 0.676 1.358 9233
1.592 0.675 1.349 13620
1.601 0.679 1.348 19947
1.611 0.683 1.347 24713
1.620 0.687 1.347 26967
1.623 0.688 1.341 26464
1.626 0.690 1.336 21855
1.629 0.691 1.331 19865
1.633 0.692 1.326 18092
1.636 0.694 1.320 13081
1.688 0.716 1.350 9184
1.697 0.720 1.348 8451
1.676 0.711 1.326 8988
1.691 0.717 1.329 10897
1.707 0.724 1.332 12975
1.716 0.728 1.331 12999
1.726 0.732 1.330 9446
1.753 0.744 1.341 6483
1.782 0.756 1.352 5877
1.760 0.746 1.329 7851
1.757 0.745 1.320 8696
1.754 0.744 1.310 7384
1.757 0.745 1.304 5885
1.760 0.746 1.299 4091
1.782 0.756 1.305 3986
1.816 0.770 1.319 5691
1.819 0.772 1.314 6686
1.829 0.776 1.312 5902
1.838 0.780 1.310 7197
1.867 0.792 1.320 9123
1.883 0.799 1.321 10641
1.886 0.800 1.315 12317
1.889 0.801 1.309 13992
1.886 0.800 1.299 15215
1.889 0.801 1.293 16931
1.892 0.802 1.287 13783
1.914 0.812 1.293 9273
1.943 0.824 1.302 8652
1.946 0.825 1.295 9003
1.949 0.827 1.289 9353
1.958 0.831 1.287 8792
1.974 0.837 1.288 9001
1.977 0.839 1.281 7650
1.987 0.843 1.279 6338
1.990 0.844 1.272 6877
2.006 0.851 1.273 7637
2.015 0.855 1.270 10103
2.025 0.859 1.267 12854
2.021 0.857 1.257 11527
2.018 0.856 1.247 10741
2.027 0.860 1.244 8862
2.043 0.867 1.245 8012
2.059 0.874 1.245 8866
2.069 0.878 1.242 10482
2.078 0.882 1.239 9799
2.095 0.888 1.239 9535
2.104 0.892 1.236 6664
2.180 0.924 1.266 5454
2.189 0.929 1.262 5856
2.159 0.916 1.239 6498
2.222 0.942 1.261 8690
2.225 0.944 1.254 11128
2.228 0.945 1.247 11167
2.237 0.949 1.243 10853
2.240 0.950 1.236 10503
2.236 0.949 1.226 8031
2.233 0.947 1.215 6236
2.255 0.957 1.218 5058
2.272 0.964 1.217 5408
2.275 0.965 1.209 5408
2.264 0.960 1.196 6748
0.576 0.242 1.569 9057
0.583 0.245 1.574 12349
0.587 0.247 1.572 15648
0.593 0.250 1.577 18002
0.597 0.251 1.575 20525
0.601 0.253 1.573 21227
0.605 0.255 1.571 21928
0.609 0.256 1.569 21540
0.616 0.259 1.575 21194
0.620 0.261 1.573 21143
0.623 0.262 1.571 20667
0.631 0.265 1.576 20804
0.634 0.267 1.574 18704
0.638 0.269 1.571 16604
0.642 0.270 1.569 13958
0.646 0.272 1.567 11199
0.646 0.272 1.558 10850
0.650 0.274 1.556 10388
0.654 0.275 1.554 10657
0.661 0.278 1.559 11094
0.665 0.280 1.557 8835
0.669 0.281 1.554 6575
0.672 0.283 1.552 8344
0.680 0.286 1.557 10218
0.687 0.289 1.562 9411
0.694 0.292 1.566 9177
0.698 0.294 1.564 9154
0.698 0.294 1.555 9241
0.702 0.295 1.553 7208
0.709 0.299 1.557 5205
0.713 0.300 1.555 3937
0.717 0.302 1.553 2668
0.721 0.303 1.550 5678
0.725 0.305 1.548 8949
0.728 0.306 1.546 10959
0.736 0.310 1.550 13387
0.740 0.311 1.548 14303
0.743 0.313 1.545 15260
0.747 0.314 1.543 16217
0.751 0.316 1.540 15944
0.755 0.317 1.538 14946
0.758 0.319 1.536 14222
0.762 0.321 1.533 14553
0.766 0.322 1.531 14663
0.769 0.324 1.528 16081
0.777 0.327 1.532 17804
0.781 0.329 1.530 17614
0.784 0.330 1.527 16062
0.788 0.332 1.525 13128
0.788 0.332 1.515 12056
0.788 0.331 1.506 12097
0.795 0.335 1.510 19923
0.799 0.336 1.508 27938
0.807 0.339 1.512 38833
0.810 0.341 1.509 53244
0.818 0.344 1.513 53267
0.826 0.347 1.517 45353
0.833 0.351 1.521 29033
0.841 0.354 1.525 14410
0.837 0.352 1.509 9708
0.836 0.352 1.500 12027
0.852 0.359 1.517 18899
0.856 0.360 1.514 21591
0.860 0.362 1.511 18384
0.868 0.365 1.515 17919
0.880 0.370 1.525 22021
0.888 0.373 1.528 29190
0.891 0.375 1.526 29558
0.895 0.377 1.523 27064
0.899 0.378 1.520 22038
0.898 0.378 1.510 17502
0.897 0.378 1.501 20427
0.905 0.381 1.505 22577
0.913 0.384 1.508 21375
0.921 0.388 1.511 20172
0.925 0.389 1.508 19306
0.929 0.391 1.505 15843
0.924 0.389 1.490 13643
0.927 0.390 1.487 14783
0.935 0.394 1.490 16021
0.939 0.395 1.487 13877
0.951 0.400 1.496 10945
0.960 0.404 1.500 15247
0.963 0.405 1.497 21985
0.967 0.407 1.493 23162
0.970 0.408 1.490 19018
0.974 0.410 1.487 13718
0.978 0.411 1.484 13768
0.981 0.413 1.481 18129
0.989 0.416 1.484 18012
0.993 0.418 1.481 13753
0.997 0.419 1.477 11729
1.005 0.423 1.480 13465
1.013 0.426 1.483 14453
1.021 0.430 1.486 12659
1.025 0.431 1.482 15961
1.029 0.433 1.479 21193
1.037 0.436 1.482 22779
1.040 0.438 1.479 23925
1.044 0.439 1.475 23828
1.048 0.441 1.472 21099
1.056 0.444 1.474 20717
1.064 0.448 1.477 17682
1.068 0.449 1.473 18381
1.072 0.451 1.470 27319
1.075 0.452 1.467 29218
1.083 0.456 1.469 18689
1.077 0.453 1.454 12730
1.081 0.455 1.450 15733
1.089 0.458 1.453 22923
1.093 0.460 1.449 31744
1.101 0.463 1.451 25738
1.110 0.467 1.454 18343
1.118 0.470 1.456 17042
1.127 0.474 1.458 17415
1.130 0.476 1.454 14018
1.134 0.477 1.451 16507
1.137 0.479 1.447 21884
1.141 0.480 1.443 14151
1.149 0.484 1.445 11377
1.158 0.487 1.447 17504
1.167 0.491 1.449 15388
1.175 0.494 1.451 9509
1.179 0.496 1.447 14937
1.177 0.495 1.438 21755
1.175 0.495 1.428 18330
1.179 0.496 1.425 17883
1.193 0.502 1.432 25413
1.196 0.503 1.428 34701
1.205 0.507 1.430 44803
1.208 0.508 1.426 42709
1.212 0.510 1.422 25532
1.215 0.511 1.418 28300
1.224 0.515 1.419 40384
1.232 0.519 1.421 43129
1.241 0.522 1.422 49160
1.245 0.524 1.418 49116
1.248 0.525 1.414 37775
1.262 0.531 1.421 22251
1.276 0.537 1.428 16820
1.285 0.541 1.429 22869
1.289 0.542 1.425 21751
1.287 0.541 1.415 11405
1.290 0.543 1.411 4079
1.304 0.549 1.417 6631
1.313 0.553 1.418 10215
1.317 0.554 1.414 9090
1.331 0.560 1.420 10711
1.346 0.566 1.426 17319
1.349 0.568 1.422 22672
1.358 0.571 1.423 24605
1.361 0.573 1.419 24546
1.365 0.574 1.414 25573
1.368 0.576 1.410 26304
1.372 0.577 1.405 19464
1.386 0.583 1.411 14769
1.390 0.585 1.407 20478
1.393 0.586 1.402 25213
1.391 0.585 1.393 24655
1.394 0.587 1.388 17903
1.409 0.593 1.394 12899
1.424 0.599 1.399 17362
1.427 0.600 1.394 17977
1.430 0.602 1.390 16147
1.439 0.606 1.390 14915
1.454 0.612 1.395 19455
1.458 0.613 1.391 29821
1.461 0.615 1.386 34651
1.464 0.616 1.381 28467
1.467 0.617 1.376 18145
1.477 0.621 1.377 9726
1.480 0.623 1.372 6369
1.489 0.627 1.372 8602
1.498 0.630 1.372 10029
1.507 0.634 1.372 13300
1.505 0.633 1.362 17136
1.514 0.637 1.362 18254
1.529 0.643 1.366 23312
1.538 0.647 1.366 28011
1.541 0.649 1.361 23980
1.545 0.650 1.356 18390
1.560 0.656 1.360 16220
1.563 0.658 1.355 14104
1.578 0.664 1.359 10095
1.594 0.671 1.363 8309
1.597 0.672 1.358 10936
1.600 0.673 1.353 14207
1.603 0.675 1.348 19121
1.613 0.679 1.347 23059
1.622 0.682 1.347 25165
1.625 0.684 1.341 24713
1.628 0.685 1.336 20820
1.631 0.686 1.331 19217
1.635 0.688 1.326 17641
1.644 0.692 1.325 13975
1.684 0.708 1.345 12094
1.693 0.712 1.344 10241
1.678 0.706 1.326 9162
1.700 0.715 1.333 11012
1.709 0.719 1.332 13548
1.718 0.723 1.331 13594
1.721 0.724 1.325 9631
1.749 0.736 1.336 6125
1.728 0.727 1.314 6137
1.750 0.736 1.321 8588
1.753 0.737 1.316 9622
1.756 0.739 1.310 8078
1.753 0.737 1.300 6421
1.749 0.736 1.291 4727
1.753 0.737 1.285 4634
1.787 0.752 1.299 6122
1.796 0.756 1.298 7394
1.793 0.755 1.288 6610
1.828 0.769 1.302 5982
1.882 0.792 1.327 8144
1.891 0.796 1.325 10412
1.888 0.794 1.315 12994
1.891 0.796 1.309 15607
1.888 0.794 1.299 17175
1.891 0.796 1.293 19223
1.894 0.797 1.287 15984
1.916 0.806 1.293 10478
1.932 0.813 1.294 8792
1.942 0.817 1.292 9416
1.951 0.821 1.289 10194
1.961 0.825 1.287 8942
1.977 0.832 1.288 8691
1.986 0.836 1.285 7210
1.996 0.840 1.282 5876
1.999 0.841 1.276 7139
2.015 0.848 1.277 8780
2.024 0.852 1.274 11855
2.027 0.853 1.267 14990
2.030 0.854 1.261 12970
2.020 0.850 1.247 11500
2.030 0.854 1.244 9372
2.052 0.864 1.248 7992
2.062 0.868 1.245 9817
2.071 0.872 1.242 12251
2.081 0.876 1.239 11470
2.097 0.882 1.239 11167
2.107 0.886 1.236 7705
2.182 0.918 1.266 5633
2.185 0.919 1.259 5970
2.162 0.910 1.239 6748
2.224 0.936 1.261 8437
2.227 0.937 1.254 10985
2.230 0.938 1.247 11051
2.240 0.942 1.243 10737
2.243 0.944 1.236 10354
2.246 0.945 1.229 7750
2.235 0.941 1.215 5920
2.238 0.942 1.208 4714
2.274 0.957 1.217 4982
2.277 0.958 1.209 4982
2.267 0.954 1.196 6136
0.576 0.241 1.569 9565
0.583 0.244 1.574 12907
0.587 0.246 1.572 16347
0.594 0.249 1.577 19337
0.598 0.250 1.575 22339
0.602 0.252 1.573 22844
0.605 0.254 1.571 23349
0.609 0.255 1.569 23037
0.616 0.258 1.575 22504
0.620 0.260 1.573 22357
0.624 0.261 1.571 21614
0.631 0.264 1.576 21566
0.635 0.266 1.574 19294
0.639 0.268 1.571 17023
0.642 0.269 1.569 14086
0.646 0.271 1.567 11121
0.647 0.271 1.558 10479
0.647 0.271 1.549 9922
0.654 0.274 1.554 9931
0.662 0.277 1.559 10267
0.665 0.279 1.557 8558
0.669 0.280 1.554 6849
0.676 0.283 1.559 8696
0.680 0.285 1.557 10611
0.687 0.288 1.562 9903
0.695 0.291 1.566 9762
0.698 0.293 1.564 9564
0.699 0.293 1.555 9544
0.703 0.294 1.553 7357
0.706 0.296 1.550 5170
0.710 0.298 1.548 4208
0.703 0.295 1.525 3314
0.718 0.301 1.543 6383
0.725 0.304 1.548 9488
0.729 0.305 1.546 11201
0.736 0.308 1.550 13494
0.740 0.310 1.548 14446
0.744 0.312 1.545 15485
0.748 0.313 1.543 16524
0.751 0.315 1.540 16218
0.755 0.316 1.538 15447
0.759 0.318 1.536 14982
0.763 0.319 1.533 15484
0.766 0.321 1.531 15705
0.774 0.324 1.535 16919
0.778 0.326 1.532 18373
0.781 0.327 1.530 18021
0.785 0.329 1.527 16314
0.789 0.330 1.525 13002
0.788 0.330 1.515 11778
0.788 0.330 1.506 12679
0.792 0.332 1.504 20918
0.799 0.335 1.508 28550
0.807 0.338 1.512 39235
0.811 0.340 1.509 53647
0.818 0.343 1.513 53243
0.822 0.344 1.510 44854
0.830 0.348 1.514 28629
0.842 0.353 1.525 14607
0.829 0.347 1.496 11998
0.837 0.351 1.500 12317
0.853 0.357 1.517 17130
0.857 0.359 1.514 19608
0.860 0.360 1.511 16654
0.868 0.364 1.515 16629
0.880 0.369 1.525 21501
0.884 0.370 1.522 29049
0.888 0.372 1.519 29503
0.896 0.375 1.523 26746
0.899 0.377 1.520 21173
0.899 0.377 1.510 16273
0.898 0.376 1.501 19054
0.906 0.380 1.505 20411
0.914 0.383 1.508 18959
0.922 0.386 1.511 18553
0.926 0.388 1.508 19354
0.929 0.389 1.505 17343
0.924 0.387 1.490 14035
0.928 0.389 1.487 14334
0.936 0.392 1.490 15681
0.939 0.394 1.487 13677
0.952 0.399 1.496 10391
0.960 0.402 1.500 14537
0.964 0.404 1.497 21627
0.967 0.405 1.493 23240
0.971 0.407 1.490 19348
0.975 0.408 1.487 14231
0.978 0.410 1.484 14276
0.982 0.411 1.481 18590
0.990 0.415 1.484 18612
0.994 0.416 1.481 13860
0.993 0.416 1.471 10713
1.001 0.419 1.474 10791
1.009 0.423 1.477 10347
1.017 0.426 1.480 10473
1.026 0.430 1.482 16097
1.029 0.431 1.479 21170
1.038 0.435 1.482 20811
1.041 0.436 1.479 20055
1.045 0.438 1.475 19915
1.048 0.439 1.472 17381
1.057 0.443 1.474 16501
1.060 0.444 1.471 14506
1.069 0.448 1.473 17226
1.072 0.449 1.470 26565
1.076 0.451 1.467 28450
1.079 0.452 1.463 19445
1.078 0.452 1.454 16137
1.081 0.453 1.450 20129
1.090 0.457 1.453 25100
1.093 0.458 1.449 31811
1.102 0.462 1.451 25745
1.110 0.465 1.454 16437
1.114 0.467 1.450 15403
1.122 0.470 1.452 19731
1.131 0.474 1.454 18297
1.134 0.475 1.451 17141
1.138 0.477 1.447 19056
1.141 0.478 1.443 12836
1.150 0.482 1.445 12618
1.159 0.485 1.447 16230
1.162 0.487 1.443 13295
1.171 0.491 1.445 9918
1.174 0.492 1.442 16181
1.178 0.493 1.438 19859
1.181 0.495 1.434 11960
1.179 0.494 1.425 13038
1.193 0.500 1.432 26108
1.197 0.501 1.428 35497
1.205 0.505 1.430 45438
1.209 0.507 1.426 49380
1.212 0.508 1.422 33540
1.216 0.509 1.418 32041
1.224 0.513 1.419 41737
1.233 0.517 1.421 43862
1.242 0.520 1.422 49547
1.245 0.522 1.418 49554
1.249 0.523 1.414 38376
1.263 0.529 1.421 22359
1.277 0.535 1.428 14531
1.286 0.539 1.429 17584
1.290 0.540 1.425 15984
1.293 0.542 1.421 8955
1.296 0.543 1.416 4344
1.305 0.547 1.417 7602
1.314 0.551 1.418 10848
1.318 0.552 1.414 8436
1.332 0.558 1.420 12788
1.341 0.562 1.421 22414
1.350 0.566 1.422 25365
1.353 0.567 1.418 18456
1.362 0.571 1.419 15596
1.360 0.570 1.409 22523
1.364 0.571 1.405 25475
1.367 0.573 1.400 19069
1.387 0.581 1.411 14859
1.391 0.583 1.407 20686
1.394 0.584 1.402 25697
1.392 0.583 1.393 23636
1.395 0.584 1.388 17738
1.410 0.591 1.394 16181
1.424 0.597 1.399 20025
1.428 0.598 1.394 18390
1.431 0.600 1.390 13894
1.440 0.603 1.390 10510
1.449 0.607 1.390 15430
1.458 0.611 1.391 27479
1.462 0.612 1.386 33167
1.465 0.614 1.381 27759
1.468 0.615 1.376 18531
1.472 0.617 1.372 10704
1.475 0.618 1.367 6212
1.484 0.622 1.367 6558
1.493 0.626 1.367 7420
1.502 0.630 1.367 11358
1.506 0.631 1.362 16970
1.509 0.632 1.357 19360
1.530 0.641 1.366 24237
1.539 0.645 1.366 28466
1.542 0.646 1.361 24094
1.546 0.648 1.356 18046
1.561 0.654 1.360 15628
1.564 0.655 1.355 13717
1.579 0.662 1.359 10207
1.595 0.668 1.363 9690
1.598 0.669 1.358 12643
1.601 0.671 1.353 14759
1.604 0.672 1.348 17840
1.614 0.676 1.347 20892
1.623 0.680 1.347 22943
1.626 0.681 1.341 22504
1.629 0.683 1.336 19112
1.632 0.684 1.331 17750
1.630 0.683 1.321 16526
1.657 0.694 1.333 14575
1.685 0.706 1.345 15192
1.688 0.707 1.340 12436
1.679 0.703 1.326 9975
1.707 0.715 1.338 11484
1.710 0.716 1.332 14316
1.719 0.720 1.331 14445
1.723 0.722 1.325 10276
1.732 0.726 1.324 7048
1.735 0.727 1.318 8082
1.744 0.731 1.317 10453
1.754 0.735 1.316 10911
1.757 0.736 1.310 8920
1.754 0.735 1.300 7054
1.751 0.733 1.291 5414
1.760 0.737 1.289 5576
1.782 0.747 1.295 7034
1.791 0.751 1.294 8401
1.801 0.754 1.292 7651
1.810 0.758 1.290 6088
1.889 0.792 1.331 7693
1.892 0.793 1.325 10334
1.889 0.792 1.315 13569
1.892 0.793 1.309 16955
1.889 0.792 1.299 18913
1.892 0.793 1.293 21277
1.895 0.794 1.287 18014
1.911 0.801 1.289 11786
1.927 0.807 1.290 9289
1.943 0.814 1.292 9875
1.952 0.818 1.289 10937
1.962 0.822 1.287 9115
1.984 0.831 1.291 8506
1.994 0.835 1.289 7340
1.997 0.837 1.282 6268
2.007 0.841 1.280 7944
2.029 0.850 1.284 10231
2.032 0.851 1.277 13564
2.035 0.853 1.271 16897
2.032 0.851 1.261 14473
2.028 0.850 1.251 12249
2.038 0.854 1.248 9721
2.054 0.860 1.248 7822
2.070 0.867 1.249 10522
2.073 0.868 1.242 13697
2.082 0.872 1.239 12911
2.098 0.879 1.239 12681
2.108 0.883 1.236 8746
2.184 0.915 1.266 5690
2.160 0.905 1.245 6280
2.163 0.906 1.239 7025
2.226 0.933 1.261 8094
2.229 0.934 1.254 10718
2.232 0.935 1.247 10805
2.241 0.939 1.243 10494
2.251 0.943 1.239 10152
2.247 0.942 1.229 7438
2.230 0.934 1.212 5613
2.240 0.938 1.208 4419
2.276 0.954 1.217 4680
2.279 0.955 1.209 4680
2.275 0.953 1.199 5701
0.577 0.240 1.569 9965
0.584 0.242 1.574 13386
0.591 0.245 1.579 16973
0.595 0.247 1.577 20263
0.598 0.249 1.575 23553
0.602 0.250 1.573 24013
0.606 0.252 1.571 24473
0.610 0.253 1.569 24199
0.614 0.255 1.567 23488
0.621 0.258 1.573 23201
0.625 0.259 1.571 22193
0.632 0.262 1.576 21959
0.636 0.264 1.574 19635
0.639 0.266 1.571 17311
0.643 0.267 1.569 14112
0.647 0.269 1.567 10970
0.648 0.269 1.558 9978
0.648 0.269 1.549 9274
0.655 0.272 1.554 9139
0.662 0.275 1.559 9472
0.666 0.277 1.557 8308
0.670 0.278 1.554 7144
0.677 0.281 1.559 9015
0.681 0.283 1.557 10923
0.688 0.286 1.562 10388
0.696 0.289 1.566 10265
0.696 0.289 1.557 10061
0.700 0.291 1.555 10049
0.703 0.292 1.553 7756
0.707 0.294 1.550 5464
0.704 0.292 1.534 4762
0.704 0.292 1.525 4212
0.719 0.298 1.543 7188
0.722 0.300 1.541 10162
0.730 0.303 1.546 11629
0.737 0.306 1.550 13634
0.741 0.308 1.548 14495
0.745 0.309 1.545 15500
0.749 0.311 1.543 16504
0.752 0.312 1.540 16340
0.756 0.314 1.538 16127
0.760 0.316 1.536 16078
0.764 0.317 1.533 16877
0.767 0.319 1.531 17345
0.775 0.322 1.535 18398
0.779 0.323 1.532 19333
0.782 0.325 1.530 18575
0.786 0.326 1.527 16492
0.790 0.328 1.525 12513
0.789 0.328 1.515 10941
0.789 0.328 1.506 12527
0.793 0.329 1.504 21322
0.800 0.332 1.508 28665
0.808 0.336 1.512 39306
0.812 0.337 1.509 53948
0.820 0.340 1.513 53374
0.823 0.342 1.510 44879
0.831 0.345 1.514 28738
0.831 0.345 1.505 15528
0.830 0.345 1.496 14064
0.838 0.348 1.500 12909
0.854 0.355 1.517 15881
0.862 0.358 1.520 18013
0.861 0.358 1.511 15092
0.869 0.361 1.515 15320
0.881 0.366 1.525 20661
0.885 0.368 1.522 28487
0.889 0.369 1.519 29040
0.897 0.372 1.523 26200
0.900 0.374 1.520 20556
0.900 0.374 1.510 15894
0.899 0.373 1.501 18617
0.907 0.377 1.505 19259
0.920 0.382 1.514 17927
0.923 0.383 1.511 18310
0.927 0.385 1.508 20301
0.931 0.386 1.505 19029
0.930 0.386 1.496 14581
0.929 0.386 1.487 14339
0.937 0.389 1.490 15921
0.941 0.391 1.487 13748
0.953 0.396 1.496 9962
0.961 0.399 1.500 13801
0.965 0.401 1.497 21275
0.969 0.402 1.493 23808
0.972 0.404 1.490 20527
0.976 0.405 1.487 15307
0.979 0.407 1.484 14903
0.983 0.408 1.481 18741
0.991 0.412 1.484 18355
0.995 0.413 1.481 13045
0.994 0.413 1.471 9406
1.002 0.416 1.474 8381
1.006 0.418 1.471 6996
1.019 0.423 1.480 8865
1.027 0.427 1.482 16399
1.035 0.430 1.485 21488
1.039 0.431 1.482 19620
1.042 0.433 1.479 16941
1.046 0.434 1.475 16701
1.054 0.438 1.478 15198
1.058 0.439 1.474 14467
1.062 0.441 1.471 12734
1.070 0.444 1.473 16121
1.074 0.446 1.470 25836
1.077 0.447 1.467 28359
1.081 0.449 1.463 20276
1.079 0.448 1.454 17916
1.083 0.450 1.450 22746
1.091 0.453 1.453 26328
1.095 0.455 1.449 31487
1.103 0.458 1.451 25619
1.112 0.462 1.454 15011
1.115 0.463 1.450 15446
1.124 0.467 1.452 23457
1.127 0.468 1.448 22378
1.131 0.470 1.445 18446
1.139 0.473 1.447 18044
1.143 0.475 1.443 11716
1.152 0.478 1.445 12418
1.160 0.482 1.447 15294
1.164 0.483 1.443 11660
1.172 0.487 1.445 8628
1.176 0.488 1.442 16203
1.179 0.490 1.438 19471
1.183 0.491 1.434 10074
1.181 0.490 1.425 10244
1.195 0.496 1.432 24348
1.198 0.498 1.428 34025
1.207 0.501 1.430 44190
1.210 0.503 1.426 54124
1.214 0.504 1.422 41424
1.217 0.506 1.418 36104
1.226 0.509 1.419 41723
1.235 0.513 1.421 43267
1.244 0.516 1.422 49014
1.247 0.518 1.418 49041
1.250 0.519 1.414 38432
1.259 0.523 1.416 22496
1.279 0.531 1.428 11589
1.293 0.537 1.434 11600
1.297 0.539 1.430 11271
1.295 0.538 1.421 8891
1.298 0.539 1.416 6491
1.301 0.541 1.412 8997
1.310 0.544 1.413 11140
1.319 0.548 1.414 9017
1.328 0.552 1.415 16302
1.343 0.558 1.421 27428
1.346 0.559 1.417 29456
1.350 0.560 1.413 20986
1.353 0.562 1.408 19002
1.356 0.563 1.404 27135
1.365 0.567 1.405 28036
1.369 0.568 1.400 20400
1.389 0.577 1.411 15266
1.392 0.578 1.407 20489
1.396 0.580 1.402 25666
1.393 0.579 1.393 22539
1.402 0.582 1.393 18264
1.417 0.589 1.399 19850
1.426 0.592 1.399 22369
1.430 0.594 1.394 18694
1.433 0.595 1.390 11939
1.436 0.597 1.385 7881
1.445 0.600 1.386 13538
1.455 0.604 1.386 26059
1.464 0.608 1.386 31737
1.467 0.609 1.381 27099
1.470 0.611 1.376 19249
1.474 0.612 1.372 12515
1.471 0.611 1.362 7355
1.480 0.615 1.362 5959
1.489 0.619 1.362 6400
1.498 0.622 1.362 10503
1.508 0.626 1.362 16492
1.511 0.628 1.357 19812
1.532 0.636 1.366 24529
1.541 0.640 1.366 28474
1.544 0.641 1.361 24269
1.548 0.643 1.356 17801
1.557 0.647 1.356 14786
1.566 0.650 1.355 12861
1.587 0.659 1.364 10033
1.597 0.663 1.363 10868
1.600 0.664 1.358 14219
1.603 0.666 1.353 15190
1.606 0.667 1.348 16342
1.616 0.671 1.347 18471
1.625 0.675 1.347 20563
1.628 0.676 1.341 20094
1.637 0.680 1.341 17024
1.635 0.679 1.331 15827
1.632 0.678 1.321 15205
1.665 0.692 1.338 15430
1.681 0.698 1.341 17709
1.690 0.702 1.340 14349
1.681 0.698 1.326 11347
1.709 0.710 1.338 12103
1.712 0.711 1.332 15117
1.722 0.715 1.331 15360
1.725 0.716 1.325 11090
1.734 0.720 1.324 8296
1.744 0.724 1.323 10070
1.747 0.725 1.317 12357
1.750 0.727 1.311 12092
1.759 0.731 1.310 9589
1.756 0.729 1.300 7554
1.759 0.731 1.295 6049
1.762 0.732 1.289 6529
1.784 0.741 1.295 7939
1.794 0.745 1.294 9240
1.803 0.749 1.292 8476
1.806 0.750 1.286 6668
1.892 0.786 1.331 7381
1.895 0.787 1.325 10035
1.892 0.786 1.315 13809
1.895 0.787 1.309 17716
1.892 0.786 1.299 20088
1.895 0.787 1.293 22778
1.898 0.788 1.287 19585
1.907 0.792 1.285 12875
1.923 0.799 1.287 9856
1.939 0.805 1.288 10387
1.949 0.809 1.285 11628
1.965 0.816 1.287 9268
1.993 0.828 1.295 8394
1.997 0.829 1.289 7658
2.000 0.830 1.282 6922
2.016 0.837 1.283 8826
2.038 0.847 1.288 11836
2.035 0.845 1.277 15245
2.038 0.846 1.271 18694
2.034 0.845 1.261 15718
2.037 0.846 1.254 13025
2.047 0.850 1.251 9906
2.063 0.857 1.252 7592
2.072 0.861 1.249 10989
2.082 0.865 1.245 14696
2.092 0.869 1.242 14002
2.101 0.873 1.239 13958
2.111 0.877 1.236 9711
2.147 0.892 1.246 6055
2.163 0.898 1.245 6510
2.166 0.900 1.239 7188
2.222 0.923 1.258 7523
2.232 0.927 1.254 10080
2.241 0.931 1.250 10211
