-0.059 2.292 1.706 7753
-0.059 2.297 1.700 7753
-0.059 2.301 1.693 9267
-0.059 2.306 1.687 10781
-0.059 2.317 1.685 10953
-0.060 2.328 1.683 11869
-0.060 2.339 1.680 9038
-0.061 2.376 1.696 7955
-0.061 2.387 1.693 6587
-0.062 2.412 1.700 6310
-0.062 2.416 1.693 6294
-0.062 2.407 1.677 6776
-0.061 2.399 1.662 8015
-0.062 2.403 1.655 6915
-0.063 2.447 1.674 5822
-0.063 2.452 1.667 5173
-0.062 2.423 1.638 4542
-0.063 2.467 1.657 4824
-0.063 2.479 1.654 5274
-0.064 2.503 1.659 4665
-0.065 2.521 1.660 4911
-0.064 2.498 1.637 4352
-0.064 2.496 1.625 4782
-0.064 2.507 1.622 4010
-0.067 2.620 1.680 4457
-0.068 2.645 1.685 5339
-0.068 2.656 1.682 6842
-0.068 2.661 1.674 6475
-0.069 2.693 1.682 6671
-0.069 2.711 1.683 7039
-0.069 2.688 1.659 8022
-0.069 2.678 1.643 10695
-0.069 2.690 1.640 8705
-0.069 2.708 1.640 7256
-0.070 2.719 1.636 6323
-0.070 2.730 1.632 6041
-0.070 2.749 1.632 7283
-0.072 2.829 1.666 13110
-0.073 2.834 1.658 17304
-0.073 2.838 1.650 15493
-0.073 2.849 1.645 12291
-0.073 2.854 1.637 9312
-0.074 2.872 1.636 9259
-0.074 2.877 1.628 11326
-0.074 2.895 1.627 11488
-0.074 2.906 1.623 10210
-0.076 2.988 1.654 11427
-0.077 3.006 1.653 13847
-0.077 3.018 1.648 15014
-0.078 3.029 1.643 12882
-0.078 3.034 1.634 9290
-0.079 3.081 1.647 7691
-0.079 3.085 1.638 8544
-0.080 3.111 1.639 7431
-0.080 3.136 1.641 10905
-0.080 3.141 1.632 13063
-0.081 3.145 1.623 10791
-0.080 3.114 1.597 10170
-0.082 3.204 1.628 10170
-0.082 3.208 1.619 12921
-0.082 3.220 1.613 10774
-0.083 3.231 1.607 8317
-0.083 3.242 1.601 10270
-0.083 3.247 1.592 12925
-0.083 3.251 1.583 14006
-0.085 3.306 1.596 13358
-0.085 3.324 1.593 11234
-0.086 3.358 1.596 8105
-0.087 3.405 1.606 6668
-0.088 3.424 1.602 4772
-0.088 3.436 1.595 4161
-0.088 3.454 1.592 7163
-0.089 3.481 1.591 8866
-0.090 3.529 1.599 10650
-0.091 3.540 1.592 11257
-0.091 3.566 1.591 8843
-0.092 3.578 1.584 10091
-0.092 3.597 1.580 10913
-0.092 3.601 1.569 10298
-0.092 3.605 1.559 9049
-0.094 3.683 1.578 7479
-0.095 3.716 1.579 7190
-0.096 3.743 1.577 7568
-0.098 3.843 1.603 6689
-0.098 3.847 1.592 6152
-0.097 3.777 1.553 5682
-0.097 3.774 1.539 5522
-0.101 3.963 1.597 8535
-0.102 3.975 1.589 10740
-0.102 3.972 1.574 9004
-0.104 4.058 1.593 6904
-0.102 3.980 1.552 6477
-0.102 3.992 1.543 5823
-0.106 4.138 1.581 5035
-0.105 4.112 1.559 7971
-0.106 4.124 1.550 7577
-0.106 4.143 1.543 5566
-0.106 4.147 1.531 6129
-0.107 4.166 1.524 5506
-0.110 4.305 1.557 4480
-0.110 4.302 1.542 6270
-0.110 4.306 1.530 7106
-0.114 4.460 1.566 5807
-0.114 4.472 1.556 5821
-0.115 4.484 1.545 7673
-0.115 4.488 1.532 8666
-0.115 4.499 1.522 7421
-0.120 4.677 1.562 5981
-0.120 4.681 1.549 6823
-0.120 4.693 1.537 5062
-0.123 4.796 1.553 3810
-0.123 4.807 1.542 7827
-0.123 4.819 1.530 7663
-0.124 4.831 1.518 6638
-0.124 4.842 1.507 5924
-0.126 4.922 1.514 4351
-0.126 4.926 1.500 6431
-0.126 4.930 1.486 4208
-0.129 5.026 1.496 4089
-0.132 5.152 1.515 4512
-0.132 5.171 1.504 5821
-0.133 5.206 1.497 8005
-0.133 5.195 1.478 9425
-0.133 5.191 1.461 7460
-0.135 5.279 1.468 6501
-0.139 5.413 1.485 4872
-0.139 5.425 1.471 4537
-0.139 5.437 1.457 4210
-0.143 5.571 1.473 3045
-0.142 5.560 1.454 4250
-0.142 5.556 1.436 3718
-0.146 5.691 1.450 3357
-0.146 5.694 1.434 3019
-0.148 5.783 1.436 3396
-0.148 5.779 1.418 4161
-0.148 5.775 1.399 3697
-0.148 5.794 1.386 2503
-0.158 6.161 1.447 2573
-0.158 6.173 1.431 1914
-0.165 6.440 1.468 2404
-0.165 6.452 1.451 4165
-0.165 6.448 1.431 4078
-0.165 6.436 1.409 3319
-0.169 6.603 1.422 2638
-0.169 6.599 1.402 3028
-0.166 6.470 1.357 3821
-0.179 6.995 1.436 3777
-0.179 6.999 1.416 3733
-0.174 6.808 1.360 3326
-0.181 7.061 1.385 2671
-0.181 7.064 1.364 2920
-0.184 7.185 1.364 2524
-0.189 7.383 1.376 2659
-0.192 7.496 1.373 2818
-0.193 7.523 1.355 2830
-0.193 7.527 1.333 2129
-0.204 7.960 1.379 2171
-0.204 7.964 1.355 2683
-0.204 7.960 1.331 2323
-0.210 8.214 1.345 2123
-0.211 8.233 1.323 2191
-0.214 8.369 1.318 2681
-0.233 9.102 1.395 2805
-0.233 9.105 1.369 3633
-0.233 9.093 1.340 2716
-0.233 9.089 1.313 3311
-0.233 9.116 1.290 5086
-0.233 9.119 1.263 3880
-0.252 9.853 1.325 2896
-0.253 9.880 1.299 3001
-0.253 9.891 1.271 2685
-0.253 9.887 1.242 1851
-0.269 10.519 1.282 1454
-0.270 10.530 1.252 1512
-0.270 10.541 1.222 1443
-0.271 10.568 1.194 1166
-0.315 12.296 1.331 1277
-0.324 12.646 1.328 1589
-0.301 11.767 1.211 2165
-0.301 11.770 1.176 2334
-0.316 12.341 1.191 2865
-0.316 12.352 1.156 2706
-0.325 12.678 1.145 2555
-0.337 13.147 1.144 2977
-0.337 13.157 1.107 3315
-0.337 13.176 1.069 2717
-0.337 13.171 1.031 2565
-0.337 13.173 0.992 2366
-0.337 13.184 0.954 1749
-0.338 13.186 0.916 1046
-0.337 13.180 0.877 773
-0.338 13.190 0.839 511
-0.129 5.030 0.332 324
-0.129 5.030 0.317 444
-0.129 5.031 0.303 704
-0.129 5.031 0.288 844
-0.129 5.032 0.274 999
-0.129 5.032 0.259 1288
-0.129 5.032 0.245 1423
-0.129 5.033 0.230 1482
-0.129 5.041 0.216 1559
-0.129 5.041 0.201 1568
-0.129 5.033 0.186 1498
-0.129 5.033 0.172 1418
-0.129 5.034 0.157 1264
-0.129 5.034 0.143 1111
-0.129 5.034 0.128 958
-0.129 5.034 0.114 805
-0.129 5.041 0.099 649
-0.041 1.583 0.123 491
-0.040 1.575 0.118 504
-0.174 6.797 0.026 529
-0.174 6.797 0.006 634
-0.174 6.797 -0.014 757
-0.174 6.796 -0.033 993
-0.174 6.796 -0.053 1106
-0.174 6.795 -0.073 1165
-0.174 6.794 -0.092 1224
-0.174 6.794 -0.112 1207
-0.174 6.793 -0.132 1191
-0.174 6.792 -0.152 1092
-0.174 6.791 -0.171 993
-0.174 6.790 -0.191 841
-0.074 2.893 -0.008 879
-0.074 2.900 -0.017 1080
-0.074 2.900 -0.025 1285
-0.074 2.899 -0.033 1428
-0.074 2.899 -0.042 1572
-0.074 2.898 -0.050 1608
-0.074 2.898 -0.058 1642
-0.074 2.905 -0.067 1644
-0.074 2.905 -0.075 1657
-0.075 2.912 -0.084 1673
-0.074 2.903 -0.092 1539
-0.074 2.903 -0.100 1408
-0.074 2.902 -0.109 1260
-0.074 2.901 -0.117 1113
-0.074 2.900 -0.125 911
-0.074 2.907 -0.134 715
-0.074 2.907 -0.143 715
-0.074 2.898 -0.150 521
-0.074 2.897 -0.159 334
-0.047 2.156 1.666 2987
-0.047 2.160 1.660 5974
-0.047 2.164 1.654 5974
-0.049 2.246 1.703 4776
-0.049 2.251 1.697 3985
-0.050 2.281 1.708 5703
-0.050 2.292 1.706 7848
-0.050 2.297 1.700 7848
-0.050 2.301 1.693 9360
-0.050 2.306 1.687 10872
-0.051 2.317 1.685 11029
-0.051 2.328 1.683 11939
-0.051 2.339 1.680 9075
-0.052 2.376 1.696 8002
-0.052 2.387 1.693 6614
-0.053 2.412 1.700 6281
-0.053 2.416 1.693 6255
-0.053 2.408 1.677 6748
-0.052 2.399 1.662 7911
-0.052 2.403 1.655 6823
-0.053 2.448 1.674 5826
-0.054 2.452 1.667 5169
-0.054 2.457 1.660 4512
-0.054 2.468 1.657 4812
-0.054 2.479 1.654 5242
-0.055 2.503 1.659 4659
-0.055 2.521 1.660 4906
-0.055 2.499 1.637 4359
-0.054 2.496 1.625 4793
-0.055 2.507 1.622 4015
-0.057 2.620 1.680 4401
-0.058 2.645 1.685 5284
-0.058 2.656 1.682 6783
-0.058 2.661 1.674 6443
-0.059 2.693 1.682 6657
-0.059 2.711 1.683 7027
-0.059 2.688 1.659 7994
-0.058 2.679 1.643 10645
-0.059 2.690 1.640 8663
-0.059 2.708 1.640 7183
-0.059 2.719 1.636 6288
-0.060 2.731 1.632 6077
-0.060 2.749 1.632 7321
-0.062 2.829 1.666 13170
-0.062 2.834 1.658 17380
-0.062 2.838 1.650 15583
-0.062 2.850 1.645 12436
-0.062 2.854 1.637 9483
-0.063 2.872 1.636 9421
-0.063 2.877 1.628 11436
-0.063 2.895 1.627 11532
-0.063 2.906 1.623 10205
-0.065 2.988 1.654 11350
-0.066 3.007 1.653 13776
-0.066 3.018 1.648 15024
-0.066 3.030 1.643 12929
-0.066 3.034 1.634 9345
-0.067 3.081 1.647 7730
-0.067 3.085 1.638 8602
-0.068 3.111 1.639 7427
-0.068 3.137 1.641 10841
-0.069 3.141 1.632 13006
-0.069 3.145 1.623 10823
-0.068 3.114 1.597 10241
-0.068 3.132 1.595 9981
-0.070 3.208 1.619 12699
-0.070 3.220 1.613 10668
-0.071 3.231 1.607 8259
-0.071 3.243 1.601 10354
-0.071 3.247 1.592 13039
-0.071 3.251 1.583 14045
-0.072 3.306 1.596 13376
-0.073 3.325 1.593 11265
-0.073 3.358 1.596 8105
-0.074 3.406 1.606 6594
-0.075 3.424 1.602 4715
-0.075 3.436 1.595 4128
-0.075 3.455 1.592 7193
-0.076 3.481 1.591 8933
-0.077 3.529 1.599 10782
-0.077 3.540 1.592 11464
-0.078 3.567 1.591 8794
-0.078 3.578 1.584 9966
-0.079 3.597 1.580 10953
-0.079 3.601 1.569 10385
-0.079 3.605 1.559 9303
-0.080 3.683 1.578 7612
-0.081 3.717 1.579 7226
-0.082 3.743 1.577 7723
-0.084 3.843 1.603 6663
-0.084 3.847 1.592 6094
-0.082 3.778 1.553 5620
-0.082 3.774 1.539 5549
-0.087 3.964 1.597 8567
-0.087 3.975 1.589 10711
-0.087 3.972 1.574 9049
-0.089 4.058 1.593 6897
-0.087 3.981 1.552 6402
-0.087 3.992 1.543 5853
-0.090 4.138 1.581 4892
-0.090 4.112 1.559 7933
-0.090 4.131 1.552 7618
-0.090 4.143 1.543 5566
-0.091 4.147 1.531 6069
-0.091 4.166 1.524 5507
-0.094 4.305 1.557 4398
-0.094 4.302 1.542 6183
-0.094 4.306 1.530 7113
-0.097 4.461 1.566 6076
-0.098 4.472 1.556 6231
-0.098 4.484 1.545 7753
-0.098 4.496 1.535 8225
-0.098 4.500 1.522 7057
-0.102 4.678 1.562 5955
-0.102 4.682 1.549 6748
-0.102 4.693 1.537 5010
-0.105 4.796 1.553 3905
-0.105 4.808 1.542 7908
-0.105 4.820 1.530 7607
-0.106 4.839 1.520 6501
-0.106 4.843 1.507 5843
-0.107 4.923 1.514 4475
-0.108 4.927 1.500 6627
-0.108 4.931 1.486 4394
-0.110 5.019 1.494 4125
-0.110 5.046 1.486 4539
-0.113 5.164 1.502 5712
-0.114 5.206 1.497 7955
-0.114 5.203 1.480 9189
-0.113 5.199 1.463 7264
-0.115 5.280 1.468 6672
-0.118 5.414 1.485 5049
-0.118 5.425 1.471 4577
-0.119 5.437 1.457 4229
-0.122 5.572 1.473 3140
-0.121 5.560 1.454 4321
-0.121 5.556 1.436 3770
-0.124 5.691 1.450 3336
-0.124 5.703 1.435 3015
-0.126 5.783 1.436 3367
-0.126 5.780 1.418 4052
-0.126 5.776 1.399 3615
-0.127 5.802 1.388 2562
-0.134 6.162 1.447 2629
-0.135 6.174 1.431 2010
-0.141 6.441 1.468 2458
-0.141 6.452 1.451 4158
-0.141 6.448 1.431 3983
-0.140 6.437 1.409 3241
-0.144 6.603 1.422 2647
-0.144 6.599 1.402 3005
-0.141 6.471 1.357 3806
-0.153 6.996 1.436 3823
-0.153 7.007 1.417 3847
-0.153 7.026 1.400 2976
-0.154 7.061 1.385 2665
-0.154 7.065 1.364 2912
-0.154 7.045 1.340 2498
-0.161 7.384 1.376 2669
-0.164 7.497 1.373 2790
-0.164 7.532 1.356 2862
-0.164 7.527 1.333 2158
-0.174 7.961 1.379 2154
-0.174 7.965 1.355 2656
-0.174 7.960 1.331 2302
-0.179 8.214 1.345 2138
-0.180 8.233 1.323 2170
-0.183 8.370 1.318 2630
-0.199 9.103 1.395 2799
-0.199 9.106 1.369 3602
-0.198 9.086 1.339 2687
-0.198 9.090 1.313 3310
-0.199 9.117 1.290 5110
-0.199 9.120 1.263 3903
-0.215 9.862 1.326 2929
-0.216 9.881 1.299 3041
-0.216 9.892 1.271 2703
-0.216 9.888 1.242 1850
-0.230 10.520 1.282 1451
-0.230 10.531 1.252 1507
-0.230 10.542 1.222 1433
-0.231 10.569 1.194 1155
-0.268 12.297 1.331 1303
-0.276 12.647 1.328 1561
-0.257 11.768 1.211 2161
-0.257 11.771 1.176 2313
-0.269 12.342 1.191 2901
-0.270 12.353 1.156 2716
-0.277 12.679 1.145 2533
-0.287 13.148 1.144 2966
-0.287 13.159 1.107 3260
-0.288 13.177 1.069 2691
-0.287 13.172 1.031 2568
-0.288 13.174 0.992 2349
-0.288 13.185 0.954 1733
-0.288 13.187 0.916 1055
-0.288 13.181 0.877 781
-0.288 13.191 0.839 520
-0.315 14.450 0.864 250
-0.110 5.030 0.346 298
-0.110 5.030 0.332 413
-0.110 5.031 0.317 578
-0.110 5.031 0.303 958
-0.110 5.032 0.288 1172
-0.110 5.040 0.274 1387
-0.110 5.033 0.259 1772
-0.110 5.033 0.245 1941
-0.110 5.041 0.230 2003
-0.110 5.041 0.216 2094
-0.110 5.042 0.201 2076
-0.110 5.034 0.186 1896
-0.110 5.034 0.172 1738
-0.110 5.034 0.157 1515
-0.110 5.034 0.143 1292
-0.110 5.034 0.128 1093
-0.110 5.034 0.114 895
-0.110 5.042 0.099 693
-0.035 1.583 0.123 628
-0.035 1.583 0.118 612
-0.034 1.575 0.114 609
-0.034 1.575 0.109 540
-0.160 7.343 -0.026 485
-0.160 7.343 -0.047 560
-0.160 7.342 -0.069 635
-0.160 7.342 -0.090 664
-0.160 7.341 -0.111 693
-0.160 7.340 -0.133 695
-0.160 7.339 -0.154 697
-0.163 7.473 -0.181 683
-0.163 7.464 -0.202 732
-0.063 2.902 -0.000 801
-0.063 2.893 -0.008 1058
-0.063 2.901 -0.017 1320
-0.063 2.900 -0.025 1586
-0.063 2.900 -0.033 1802
-0.063 2.899 -0.042 2019
-0.063 2.899 -0.050 2034
-0.063 2.898 -0.058 2054
-0.063 2.897 -0.067 2059
-0.063 2.905 -0.075 2024
-0.063 2.904 -0.084 1999
-0.063 2.903 -0.092 1784
-0.063 2.903 -0.100 1569
-0.063 2.902 -0.109 1364
-0.063 2.901 -0.117 1160
-0.063 2.901 -0.125 936
-0.063 2.900 -0.134 713
-0.063 2.899 -0.142 713
-0.063 2.898 -0.150 520
-0.063 2.897 -0.159 327
-0.042 2.156 1.666 2886
-0.042 2.160 1.660 5772
-0.042 2.165 1.654 5772
-0.044 2.246 1.703 4827
-0.044 2.251 1.697 4088
-0.044 2.281 1.708 5700
-0.044 2.292 1.706 7793
-0.045 2.297 1.700 7793
-0.045 2.301 1.693 9243
-0.045 2.306 1.687 10694
-0.045 2.317 1.685 10806
-0.045 2.328 1.683 11700
-0.045 2.339 1.680 8893
-0.046 2.376 1.696 7955
-0.046 2.388 1.693 6591
-0.047 2.412 1.700 6281
-0.047 2.416 1.693 6256
-0.047 2.408 1.677 6680
-0.047 2.399 1.662 7759
-0.047 2.403 1.655 6740
-0.047 2.448 1.674 5771
-0.048 2.452 1.667 5168
-0.048 2.457 1.660 4565
-0.048 2.468 1.657 4848
-0.048 2.479 1.654 5256
-0.049 2.503 1.659 4570
-0.049 2.521 1.660 4793
-0.048 2.499 1.637 4198
-0.048 2.496 1.625 4597
-0.049 2.508 1.622 3860
-0.051 2.620 1.680 4325
-0.051 2.645 1.685 5236
-0.052 2.657 1.682 6714
-0.052 2.661 1.674 6401
-0.052 2.693 1.682 6566
-0.053 2.711 1.683 6891
-0.052 2.688 1.659 7844
-0.052 2.679 1.643 10518
-0.052 2.690 1.640 8572
-0.053 2.708 1.640 7099
-0.053 2.720 1.636 6216
-0.053 2.731 1.632 6029
-0.053 2.749 1.632 7253
-0.055 2.830 1.666 13181
-0.055 2.834 1.658 17375
-0.055 2.845 1.653 15609
-0.055 2.850 1.645 12416
-0.055 2.854 1.637 9353
-0.056 2.873 1.636 9269
-0.056 2.877 1.628 11241
-0.056 2.895 1.627 11400
-0.056 2.907 1.623 10098
-0.058 2.988 1.654 11224
-0.058 3.007 1.653 13620
-0.059 3.018 1.648 14858
-0.059 3.030 1.643 12781
-0.059 3.034 1.634 9326
-0.060 3.081 1.647 7802
-0.060 3.085 1.638 8750
-0.060 3.111 1.639 7513
-0.061 3.137 1.641 10851
-0.061 3.141 1.632 12959
-0.061 3.145 1.623 10757
-0.060 3.114 1.597 10004
-0.062 3.204 1.628 10166
-0.062 3.208 1.619 12809
-0.062 3.220 1.613 10766
-0.063 3.231 1.607 8274
-0.063 3.243 1.601 10328
-0.063 3.247 1.592 13001
-0.063 3.251 1.583 13987
-0.064 3.313 1.599 13257
-0.064 3.325 1.593 11158
-0.065 3.358 1.596 8038
-0.066 3.406 1.606 6476
-0.066 3.425 1.602 4636
-0.067 3.436 1.595 4108
-0.067 3.455 1.592 7177
-0.067 3.481 1.591 8892
-0.068 3.529 1.599 10730
-0.069 3.541 1.592 11521
-0.069 3.567 1.591 8780
-0.069 3.578 1.584 9927
-0.070 3.597 1.580 11050
-0.070 3.601 1.569 10454
-0.070 3.606 1.559 9249
-0.071 3.683 1.578 7717
-0.072 3.710 1.576 7398
-0.073 3.751 1.579 7710
-0.075 3.843 1.603 6598
-0.075 3.848 1.592 6011
-0.073 3.778 1.553 5474
-0.073 3.775 1.539 5387
-0.077 3.957 1.595 8504
-0.077 3.976 1.589 10623
-0.077 3.972 1.574 9148
-0.079 4.058 1.593 6961
-0.077 3.988 1.554 6523
-0.077 3.992 1.543 5963
-0.080 4.138 1.581 4903
-0.080 4.113 1.559 7656
-0.080 4.124 1.550 7114
-0.080 4.143 1.543 5185
-0.080 4.147 1.531 5967
-0.081 4.166 1.524 5542
-0.083 4.306 1.557 4358
-0.083 4.302 1.542 6039
-0.083 4.306 1.530 6812
-0.086 4.461 1.566 5942
-0.087 4.473 1.556 6061
-0.087 4.484 1.545 7588
-0.087 4.496 1.535 8235
-0.087 4.500 1.522 7113
-0.091 4.678 1.562 5948
-0.091 4.682 1.549 6675
-0.091 4.694 1.537 4989
-0.093 4.796 1.553 3862
-0.093 4.808 1.542 7913
-0.093 4.820 1.530 7585
-0.094 4.839 1.520 6456
-0.094 4.843 1.507 5805
-0.095 4.923 1.514 4614
-0.096 4.927 1.500 6706
-0.096 4.931 1.486 4513
-0.097 5.019 1.494 4198
-0.100 5.153 1.515 4463
-0.100 5.164 1.502 5832
-0.101 5.207 1.497 8176
-0.101 5.203 1.480 9429
-0.101 5.199 1.463 7417
-0.102 5.280 1.468 6779
-0.105 5.414 1.485 4919
-0.105 5.426 1.471 4550
-0.105 5.437 1.457 4181
-0.108 5.572 1.473 3194
-0.108 5.568 1.455 4421
-0.108 5.564 1.437 3776
-0.110 5.691 1.450 3304
-0.110 5.695 1.434 3023
-0.112 5.784 1.436 3289
-0.112 5.788 1.420 4010
-0.112 5.784 1.401 3581
-0.113 5.803 1.388 2572
-0.120 6.170 1.449 2622
-0.120 6.174 1.431 2000
-0.125 6.441 1.468 2490
-0.125 6.453 1.451 4141
-0.125 6.449 1.431 3939
-0.125 6.437 1.409 3191
-0.128 6.604 1.422 2617
-0.128 6.600 1.402 3002
-0.125 6.471 1.357 3785
-0.136 6.996 1.436 3903
-0.136 7.008 1.417 3992
-0.136 7.027 1.400 3041
-0.137 7.062 1.385 2681
-0.137 7.065 1.364 2862
-0.139 7.186 1.364 2482
-0.143 7.384 1.376 2613
-0.145 7.497 1.373 2782
-0.146 7.524 1.355 2793
-0.146 7.528 1.333 2065
-0.154 7.961 1.379 2212
-0.154 7.965 1.355 2751
-0.154 7.961 1.331 2393
-0.154 7.956 1.307 2204
-0.160 8.234 1.323 2181
-0.162 8.370 1.318 2605
-0.176 9.103 1.395 2770
-0.177 9.107 1.369 3593
-0.176 9.095 1.340 2684
-0.176 9.090 1.313 3290
-0.177 9.117 1.290 5076
-0.177 9.120 1.263 3899
-0.191 9.862 1.326 2906
-0.192 9.881 1.299 3025
-0.192 9.893 1.271 2693
-0.192 9.888 1.242 1846
-0.204 10.521 1.282 1456
-0.204 10.532 1.252 1523
-0.204 10.543 1.222 1435
-0.205 10.570 1.194 1126
-0.238 12.298 1.331 1305
-0.245 12.648 1.328 1547
-0.228 11.777 1.211 2070
-0.228 11.772 1.176 2203
-0.239 12.343 1.191 2885
-0.240 12.354 1.156 2697
-0.246 12.680 1.145 2504
-0.255 13.148 1.144 2917
-0.255 13.159 1.107 3179
-0.255 13.178 1.069 2639
-0.255 13.173 1.031 2534
-0.255 13.175 0.992 2312
-0.256 13.185 0.954 1706
-0.256 13.188 0.916 1023
-0.256 13.182 0.877 738
-0.256 13.192 0.839 490
-0.280 14.451 0.864 262
-0.098 5.039 0.317 292
-0.098 5.040 0.303 577
-0.098 5.032 0.288 742
-0.098 5.040 0.274 975
-0.098 5.041 0.259 1418
-0.098 5.041 0.245 1626
-0.098 5.041 0.230 1793
-0.098 5.042 0.216 1960
-0.098 5.042 0.201 2016
-0.098 5.042 0.186 1943
-0.098 5.034 0.172 1845
-0.098 5.034 0.157 1635
-0.098 5.042 0.143 1442
-0.098 5.042 0.128 1209
-0.098 5.034 0.114 987
-0.098 5.042 0.099 779
-0.031 1.583 0.123 528
-0.031 1.583 0.118 541
-0.031 1.575 0.114 561
-0.031 1.575 0.109 513
-0.031 1.583 0.105 458
-0.150 7.723 -0.057 405
-0.150 7.722 -0.080 466
-0.150 7.722 -0.102 502
-0.150 7.729 -0.125 544
-0.145 7.467 -0.137 759
-0.145 7.466 -0.159 1011
-0.145 7.465 -0.181 1096
-0.145 7.464 -0.202 1181
-0.145 7.455 -0.223 1072
-0.056 2.901 -0.008 1125
-0.056 2.901 -0.017 1445
-0.056 2.900 -0.025 1765
-0.056 2.900 -0.033 2043
-0.056 2.899 -0.042 2320
-0.056 2.899 -0.050 2381
-0.056 2.898 -0.058 2444
-0.056 2.898 -0.067 2446
-0.056 2.905 -0.075 2431
-0.056 2.904 -0.084 2420
-0.056 2.904 -0.092 2165
-0.056 2.903 -0.100 1910
-0.056 2.902 -0.109 1654
-0.056 2.901 -0.117 1398
-0.056 2.901 -0.125 1106
-0.056 2.900 -0.134 815
-0.056 2.899 -0.142 815
-0.056 2.898 -0.150 571
-0.056 2.897 -0.159 327
-0.031 2.162 1.671 3257
-0.031 2.167 1.665 6515
-0.031 2.171 1.659 6515
-0.032 2.246 1.703 5168
-0.032 2.251 1.697 4554
-0.033 2.281 1.708 5793
-0.033 2.292 1.706 7819
-0.033 2.297 1.700 7819
-0.033 2.302 1.693 9213
-0.033 2.306 1.687 10607
-0.033 2.317 1.685 10749
-0.033 2.328 1.683 11710
-0.034 2.339 1.680 8925
-0.034 2.377 1.696 8037
-0.034 2.388 1.693 6644
-0.035 2.412 1.700 6311
-0.035 2.417 1.693 6281
-0.035 2.408 1.677 6692
-0.034 2.399 1.662 7722
-0.035 2.404 1.655 6728
-0.035 2.448 1.674 5761
-0.035 2.452 1.667 5162
-0.035 2.457 1.660 4563
-0.035 2.468 1.657 4858
-0.036 2.479 1.654 5300
-0.036 2.504 1.659 4675
-0.036 2.522 1.660 4878
-0.036 2.499 1.637 4299
-0.036 2.497 1.625 4705
-0.036 2.501 1.618 3962
-0.038 2.621 1.680 4355
-0.038 2.646 1.685 5213
-0.038 2.657 1.682 6683
-0.038 2.661 1.674 6384
-0.039 2.693 1.682 6574
-0.039 2.711 1.683 6881
-0.039 2.688 1.659 7900
-0.038 2.679 1.643 10639
-0.039 2.683 1.636 8662
-0.039 2.708 1.640 7065
-0.039 2.720 1.636 6221
-0.039 2.731 1.632 6112
-0.039 2.749 1.632 7355
-0.041 2.830 1.666 13233
-0.041 2.834 1.658 17426
-0.041 2.846 1.653 15632
-0.041 2.850 1.645 12542
-0.041 2.854 1.637 9681
-0.041 2.873 1.636 9730
-0.041 2.877 1.628 11827
-0.041 2.889 1.624 11795
-0.042 2.907 1.623 10241
-0.043 2.989 1.654 11254
-0.043 3.007 1.653 13631
-0.043 3.019 1.648 14859
-0.044 3.030 1.643 12758
-0.044 3.034 1.634 9301
-0.044 3.081 1.647 7696
-0.044 3.086 1.638 8641
-0.045 3.111 1.639 7498
-0.045 3.137 1.641 10838
-0.045 3.141 1.632 12909
-0.045 3.146 1.623 10677
-0.045 3.114 1.597 9954
-0.046 3.183 1.618 10112
-0.046 3.209 1.619 12798
-0.046 3.220 1.613 10709
-0.046 3.232 1.607 8257
-0.047 3.243 1.601 10234
-0.047 3.247 1.592 12945
-0.047 3.252 1.583 14050
-0.048 3.314 1.599 13442
-0.048 3.325 1.593 11295
-0.048 3.358 1.596 8155
-0.049 3.406 1.606 6514
-0.049 3.425 1.602 4605
-0.049 3.436 1.595 4101
-0.050 3.455 1.592 7148
-0.050 3.481 1.591 8839
-0.051 3.529 1.599 10707
-0.051 3.541 1.592 11500
-0.051 3.560 1.588 8775
-0.051 3.579 1.584 10016
-0.052 3.597 1.580 11088
-0.052 3.602 1.569 10528
-0.052 3.606 1.559 9540
-0.052 3.603 1.546 7983
-0.053 3.710 1.576 7449
-0.054 3.751 1.579 7600
-0.055 3.844 1.603 6528
-0.055 3.848 1.592 6017
-0.054 3.778 1.553 5408
-0.054 3.775 1.539 5305
-0.057 3.957 1.595 8440
-0.057 3.976 1.589 10509
-0.057 3.973 1.574 9227
-0.058 4.059 1.593 6984
-0.057 3.989 1.554 6601
-0.057 3.993 1.543 5990
-0.059 4.139 1.581 4994
-0.059 4.113 1.559 7797
-0.059 4.124 1.550 7305
-0.060 4.144 1.543 5324
-0.060 4.148 1.531 5932
-0.060 4.167 1.524 5449
-0.062 4.306 1.557 4521
-0.062 4.302 1.542 6155
-0.062 4.307 1.530 6938
-0.064 4.461 1.566 5932
-0.064 4.473 1.556 5911
-0.064 4.485 1.545 7493
-0.065 4.496 1.535 8307
-0.065 4.500 1.522 7160
-0.067 4.678 1.562 5956
-0.067 4.682 1.549 6747
-0.067 4.694 1.537 5057
-0.069 4.797 1.553 3871
-0.069 4.801 1.539 7950
-0.069 4.820 1.530 7717
-0.069 4.839 1.520 6651
-0.070 4.843 1.507 5887
-0.071 4.924 1.514 4487
-0.071 4.928 1.500 6744
-0.071 4.932 1.486 4452
-0.072 5.019 1.494 4230
-0.074 5.146 1.513 4495
-0.074 5.165 1.502 5915
-0.075 5.207 1.497 8067
-0.075 5.203 1.480 9231
-0.075 5.200 1.463 6993
-0.076 5.280 1.468 6833
-0.078 5.415 1.485 5123
-0.078 5.426 1.471 4551
-0.078 5.430 1.456 3980
-0.080 5.572 1.473 3144
-0.080 5.569 1.455 4352
-0.080 5.565 1.437 3733
-0.082 5.692 1.450 3309
-0.082 5.696 1.434 2967
-0.083 5.784 1.436 3340
-0.083 5.788 1.420 4024
-0.083 5.776 1.399 3595
-0.083 5.803 1.388 2549
-0.089 6.171 1.449 2677
-0.089 6.174 1.431 2006
-0.093 6.442 1.468 2446
-0.093 6.453 1.451 4111
-0.090 6.248 1.390 3948
-0.092 6.437 1.409 3259
-0.095 6.597 1.421 2585
-0.095 6.600 1.402 2975
-0.093 6.472 1.357 3827
-0.100 6.997 1.436 4291
-0.101 7.008 1.417 4278
-0.101 7.027 1.400 3234
-0.101 7.062 1.385 2828
-0.101 7.066 1.364 2782
-0.103 7.186 1.364 2538
-0.106 7.385 1.376 2662
-0.108 7.498 1.373 2857
-0.108 7.525 1.355 2849
-0.108 7.529 1.333 2098
-0.114 7.962 1.379 2125
-0.114 7.966 1.355 2704
-0.114 7.961 1.331 2475
-0.114 7.957 1.307 2363
-0.118 8.235 1.323 2209
-0.120 8.371 1.318 2631
-0.131 9.104 1.395 2793
-0.131 9.107 1.369 3642
-0.130 9.087 1.339 2743
-0.131 9.091 1.313 3287
-0.131 9.118 1.290 5074
-0.131 9.121 1.263 3935
-0.142 9.855 1.325 2924
-0.142 9.882 1.299 3019
-0.142 9.893 1.271 2692
-0.142 9.889 1.242 1853
-0.151 10.522 1.282 1467
-0.151 10.533 1.252 1534
-0.151 10.544 1.222 1454
-0.152 10.571 1.194 1143
-0.177 12.299 1.331 1302
-0.182 12.649 1.328 1569
-0.169 11.778 1.211 2117
-0.169 11.773 1.176 2219
-0.177 12.344 1.191 2878
-0.177 12.355 1.156 2719
-0.182 12.681 1.145 2529
-0.189 13.150 1.144 2931
-0.189 13.160 1.107 3153
-0.189 13.179 1.069 2639
-0.189 13.174 1.031 2553
-0.189 13.176 0.992 2333
-0.189 13.187 0.954 1736
-0.189 13.189 0.916 1039
-0.189 13.183 0.877 738
-0.189 13.193 0.839 492
-0.208 14.452 0.864 272
-0.072 5.032 0.303 434
-0.072 5.032 0.288 568
-0.072 5.041 0.274 758
-0.072 5.041 0.259 1149
-0.072 5.034 0.245 1350
-0.072 5.042 0.230 1522
-0.072 5.042 0.216 1710
-0.072 5.042 0.201 1797
-0.072 5.034 0.186 1799
-0.072 5.035 0.172 1734
-0.072 5.035 0.157 1568
-0.072 5.043 0.143 1419
-0.072 5.043 0.128 1211
-0.072 5.035 0.114 1010
-0.072 5.035 0.099 802
-0.023 1.583 0.123 628
-0.023 1.583 0.118 608
-0.023 1.575 0.114 595
-0.105 7.345 -0.005 637
-0.105 7.344 -0.026 718
-0.105 7.344 -0.047 748
-0.105 7.343 -0.069 779
-0.105 7.343 -0.090 762
-0.105 7.342 -0.111 745
-0.105 7.341 -0.133 690
-0.105 7.340 -0.154 635
-0.105 7.339 -0.175 538
-0.107 7.457 -0.202 497
-0.107 7.456 -0.223 596
-0.107 7.455 -0.245 694
-0.042 2.901 -0.017 774
-0.042 2.908 -0.025 902
-0.042 2.908 -0.034 989
-0.042 2.907 -0.042 1075
-0.042 2.899 -0.050 1073
-0.042 2.906 -0.059 1069
-0.042 2.906 -0.067 1073
-0.042 2.913 -0.076 1068
-0.042 2.912 -0.084 1071
-0.042 2.912 -0.093 1021
-0.042 2.911 -0.101 972
-0.042 2.910 -0.109 922
-0.042 2.910 -0.118 872
-0.042 2.909 -0.126 736
-0.042 2.908 -0.134 600
-0.042 2.907 -0.143 600
-0.042 2.906 -0.151 433
-0.042 2.898 -0.159 272
-0.027 2.233 1.722 2971
-0.027 2.237 1.716 5943
-0.027 2.242 1.709 5943
-0.027 2.247 1.703 5112
-0.027 2.251 1.697 4282
-0.027 2.281 1.708 5711
-0.027 2.293 1.706 7754
-0.027 2.297 1.700 7754
-0.027 2.302 1.693 9110
-0.028 2.306 1.687 10465
-0.028 2.317 1.685 10550
-0.028 2.328 1.683 11459
-0.028 2.339 1.680 8711
-0.028 2.377 1.696 7823
-0.028 2.388 1.693 6539
-0.029 2.412 1.700 6283
-0.029 2.417 1.693 6248
-0.029 2.408 1.677 6604
-0.029 2.399 1.662 7549
-0.029 2.404 1.655 6550
-0.029 2.408 1.648 5552
-0.029 2.452 1.667 5074
-0.029 2.457 1.660 4656
-0.029 2.468 1.657 4951
-0.030 2.479 1.654 5355
-0.030 2.497 1.655 4593
-0.030 2.522 1.660 4784
-0.030 2.499 1.637 4161
-0.030 2.497 1.625 4557
-0.030 2.501 1.618 3831
-0.031 2.621 1.680 4359
-0.032 2.646 1.685 5165
-0.032 2.657 1.682 6596
-0.032 2.661 1.674 6275
-0.032 2.693 1.682 6436
-0.032 2.711 1.683 6734
-0.032 2.688 1.659 7767
-0.032 2.679 1.643 10467
-0.032 2.684 1.636 8510
-0.032 2.709 1.640 6943
-0.032 2.720 1.636 6162
-0.033 2.731 1.632 6100
-0.033 2.749 1.632 7332
-0.034 2.830 1.666 12973
-0.034 2.834 1.658 17172
-0.034 2.839 1.650 15389
-0.034 2.850 1.645 12369
-0.034 2.855 1.637 9602
-0.034 2.866 1.633 9708
-0.034 2.877 1.628 11943
-0.034 2.889 1.624 11870
-0.035 2.907 1.623 10210
-0.036 2.989 1.654 11174
-0.036 3.007 1.653 13558
-0.036 3.019 1.648 14804
-0.036 3.030 1.643 12757
-0.036 3.034 1.634 9234
-0.037 3.081 1.647 7471
-0.037 3.086 1.638 8311
-0.037 3.111 1.639 7313
-0.037 3.137 1.641 10746
-0.037 3.141 1.632 12832
-0.038 3.146 1.623 10617
-0.037 3.114 1.597 9922
-0.038 3.205 1.628 9879
-0.038 3.209 1.619 12578
-0.038 3.220 1.613 10567
-0.039 3.232 1.607 8163
-0.039 3.243 1.601 10156
-0.039 3.248 1.592 12886
-0.039 3.252 1.583 13989
-0.039 3.307 1.596 13328
-0.040 3.325 1.593 11211
-0.040 3.358 1.596 8118
-0.041 3.406 1.606 6530
-0.041 3.425 1.602 4646
-0.041 3.437 1.595 4147
-0.041 3.455 1.592 7081
-0.042 3.489 1.594 8657
-0.042 3.529 1.599 10704
-0.042 3.541 1.592 11578
-0.043 3.567 1.591 8776
-0.043 3.579 1.584 9980
-0.043 3.598 1.580 11217
-0.043 3.602 1.569 10623
-0.043 3.599 1.556 9498
-0.043 3.603 1.546 8048
-0.044 3.710 1.576 7228
-0.045 3.751 1.579 7246
-0.046 3.844 1.603 6423
-0.046 3.848 1.592 5950
-0.045 3.778 1.553 5394
-0.045 3.775 1.539 5256
-0.047 3.957 1.595 8410
-0.047 3.976 1.589 10503
-0.047 3.973 1.574 9209
-0.048 4.059 1.593 7006
-0.048 3.989 1.554 6557
-0.048 3.993 1.543 6039
-0.049 4.139 1.581 4954
-0.049 4.113 1.559 7817
-0.049 4.132 1.552 7456
-0.049 4.144 1.543 5407
-0.049 4.148 1.531 5801
-0.050 4.167 1.524 5213
-0.051 4.306 1.557 4485
-0.051 4.303 1.542 6182
-0.051 4.307 1.530 6980
-0.053 4.461 1.566 5666
-0.053 4.473 1.556 5769
-0.053 4.485 1.545 7459
-0.054 4.489 1.532 8344
-0.054 4.500 1.522 7161
-0.056 4.678 1.562 5945
-0.056 4.683 1.549 6773
-0.056 4.694 1.537 5038
-0.057 4.797 1.553 3885
-0.057 4.809 1.542 7909
-0.057 4.820 1.530 7691
-0.058 4.840 1.520 6624
-0.058 4.844 1.507 5858
-0.059 4.924 1.514 4604
-0.059 4.928 1.500 6921
-0.059 4.932 1.486 4674
-0.060 5.020 1.494 4314
-0.061 5.153 1.515 4462
-0.062 5.165 1.502 5940
-0.062 5.207 1.497 8342
-0.062 5.204 1.480 9607
-0.062 5.200 1.463 7158
-0.063 5.280 1.468 6904
-0.065 5.415 1.485 5252
-0.065 5.419 1.469 4483
-0.065 5.430 1.456 3840
-0.066 5.573 1.473 3083
-0.066 5.561 1.454 4161
-0.065 5.488 1.419 3582
-0.068 5.684 1.448 3208
-0.068 5.696 1.434 2871
-0.069 5.784 1.436 3307
-0.069 5.788 1.420 4046
-0.069 5.776 1.399 3648
-0.069 5.803 1.388 2563
-0.074 6.171 1.449 2643
-0.074 6.175 1.431 2023
-0.077 6.442 1.468 2398
-0.077 6.453 1.451 4027
-0.077 6.449 1.431 3908
-0.077 6.438 1.409 3307
-0.079 6.597 1.421 2563
-0.079 6.600 1.402 2952
-0.077 6.472 1.357 3822
-0.083 6.997 1.436 4236
-0.084 7.008 1.417 4475
-0.084 7.028 1.400 3064
-0.084 7.070 1.386 2122
-0.084 7.066 1.364 2288
-0.086 7.187 1.364 2510
-0.088 7.385 1.376 2636
-0.089 7.498 1.373 2823
-0.090 7.525 1.355 2872
-0.090 7.529 1.333 2136
-0.095 7.962 1.379 2120
-0.095 7.966 1.355 2662
-0.095 7.962 1.331 2438
-0.095 7.957 1.307 2335
-0.098 8.235 1.323 2188
-0.100 8.371 1.318 2623
-0.109 9.104 1.395 2765
-0.109 9.108 1.369 3611
-0.108 9.088 1.339 2750
-0.108 9.091 1.313 3279
-0.109 9.118 1.290 4995
-0.109 9.121 1.263 3872
-0.118 9.856 1.325 2907
-0.118 9.883 1.299 2975
-0.118 9.894 1.271 2647
-0.118 9.889 1.242 1813
-0.123 10.349 1.263 1472
-0.126 10.533 1.252 1520
-0.126 10.544 1.222 1434
-0.126 10.571 1.194 1136
-0.147 12.299 1.331 1279
-0.140 11.751 1.243 1584
-0.140 11.770 1.211 2102
-0.140 11.773 1.176 2185
-0.147 12.344 1.191 2854
-0.147 12.355 1.156 2710
-0.151 12.681 1.145 2499
-0.157 13.150 1.144 2932
-0.157 13.161 1.107 3112
-0.157 13.179 1.069 2599
-0.157 13.174 1.031 2517
-0.157 13.185 0.993 2287
-0.157 13.187 0.954 1706
-0.157 13.189 0.916 1034
-0.157 13.184 0.877 735
-0.157 13.194 0.839 491
-0.172 14.453 0.864 270
-0.060 5.032 0.317 323
-0.060 5.032 0.303 468
-0.060 5.033 0.288 534
-0.060 5.033 0.274 585
-0.060 5.033 0.259 669
-0.060 5.034 0.245 703
-0.060 5.034 0.230 751
-0.060 5.034 0.215 800
-0.060 5.034 0.201 859
-0.060 5.035 0.186 930
-0.060 5.035 0.172 943
-0.060 5.035 0.157 897
-0.060 5.043 0.143 855
-0.060 5.035 0.128 771
-0.060 5.035 0.114 692
-0.060 5.043 0.099 588
-0.019 1.591 0.123 526
-0.019 1.583 0.118 545
-0.019 1.583 0.114 570
-0.088 7.345 -0.005 795
-0.088 7.344 -0.026 924
-0.088 7.344 -0.047 1011
-0.088 7.343 -0.069 1099
-0.088 7.343 -0.090 1121
-0.088 7.342 -0.111 1143
-0.088 7.341 -0.133 1097
-0.088 7.340 -0.154 1052
-0.088 7.340 -0.175 934
-0.088 7.339 -0.196 816
-0.088 7.338 -0.218 683
-0.035 2.902 -0.008 811
-0.035 2.901 -0.017 1185
-0.035 2.901 -0.025 1560
-0.035 2.900 -0.033 1958
-0.035 2.900 -0.042 2356
-0.035 2.899 -0.050 2681
-0.035 2.899 -0.058 2974
-0.035 2.906 -0.067 3006
-0.035 2.905 -0.075 3169
-0.035 2.913 -0.084 3358
-0.035 2.904 -0.092 3189
-0.035 2.903 -0.100 3046
-0.035 2.903 -0.109 2783
-0.035 2.902 -0.117 2520
-0.035 2.901 -0.125 2050
-0.035 2.908 -0.134 1582
-0.035 2.907 -0.143 1582
-0.035 2.899 -0.150 1139
-0.035 2.898 -0.159 699
-0.035 2.897 -0.167 475
-0.035 2.896 -0.175 251
-0.035 2.902 -0.193 299
-0.018 2.233 1.722 3200
-0.018 2.237 1.716 6401
-0.018 2.242 1.709 6401
-0.018 2.247 1.703 5607
-0.018 2.251 1.697 4813
-0.019 2.282 1.708 7570
-0.019 2.286 1.702 10413
-0.019 2.291 1.695 10413
-0.019 2.295 1.689 11348
-0.019 2.300 1.682 12283
-0.019 2.311 1.680 11127
-0.019 2.328 1.683 11138
-0.019 2.346 1.685 8601
-0.019 2.377 1.696 8146
-0.019 2.381 1.689 6860
-0.020 2.412 1.700 5753
-0.020 2.410 1.688 5710
-0.019 2.388 1.664 6405
-0.020 2.399 1.662 7216
-0.020 2.404 1.655 6480
-0.020 2.448 1.674 5969
-0.020 2.453 1.667 5709
-0.020 2.457 1.660 5450
-0.020 2.468 1.657 6063
-0.020 2.479 1.654 6685
-0.020 2.490 1.651 5229
-0.021 2.529 1.665 5394
-0.021 2.526 1.653 4061
-0.020 2.497 1.625 4050
-0.021 2.610 1.684 4002
-0.021 2.621 1.680 4638
-0.022 2.646 1.685 4942
-0.022 2.657 1.682 6018
-0.022 2.662 1.674 5775
-0.022 2.693 1.682 5881
-0.022 2.711 1.683 6100
-0.022 2.689 1.659 6959
-0.022 2.679 1.643 9049
-0.022 2.691 1.640 7538
-0.022 2.709 1.640 6295
-0.022 2.713 1.632 5383
-0.022 2.731 1.632 5284
-0.023 2.763 1.639 6971
-0.023 2.830 1.666 14088
-0.023 2.834 1.658 18708
-0.023 2.839 1.650 16976
-0.023 2.850 1.645 13276
-0.023 2.876 1.648 9439
-0.023 2.880 1.640 8698
-0.023 2.877 1.628 10279
-0.024 2.896 1.627 10592
-0.024 2.914 1.626 9671
-0.024 2.996 1.658 10944
-0.025 3.007 1.653 13077
-0.025 3.019 1.648 14052
-0.025 3.030 1.643 12106
-0.025 3.035 1.634 8842
-0.025 3.089 1.650 7516
-0.025 3.093 1.641 9181
-0.025 3.112 1.639 8284
-0.026 3.137 1.641 10830
-0.026 3.142 1.632 12346
-0.026 3.146 1.623 10259
-0.025 3.115 1.597 9681
-0.026 3.212 1.632 9435
-0.026 3.216 1.623 11644
-0.026 3.220 1.613 10107
-0.026 3.232 1.607 8932
-0.026 3.243 1.601 11831
-0.026 3.248 1.592 14073
-0.027 3.252 1.583 14422
-0.027 3.307 1.596 12235
-0.027 3.325 1.593 10532
-0.027 3.359 1.596 7861
-0.028 3.406 1.606 5941
-0.028 3.425 1.602 4478
-0.028 3.437 1.595 4256
-0.028 3.463 1.595 7359
-0.028 3.482 1.591 9490
-0.029 3.515 1.593 10975
-0.029 3.534 1.589 11479
-0.029 3.553 1.585 8306
-0.029 3.579 1.584 9223
-0.029 3.590 1.577 10242
-0.029 3.602 1.569 10033
-0.029 3.606 1.559 9291
-0.030 3.684 1.578 7846
-0.030 3.717 1.579 8072
-0.031 3.751 1.579 7301
-0.031 3.844 1.603 5878
-0.031 3.856 1.595 5631
-0.032 3.926 1.609 4859
-0.031 3.775 1.539 5896
-0.032 3.957 1.595 8462
-0.032 3.969 1.586 10124
-0.032 3.973 1.574 8721
-0.032 3.977 1.563 6325
-0.033 3.989 1.554 6281
-0.033 3.993 1.543 6465
-0.034 4.131 1.579 4825
-0.034 4.121 1.562 7766
-0.034 4.132 1.552 7741
-0.034 4.144 1.543 6604
-0.034 4.148 1.531 6590
-0.034 4.159 1.522 5268
-0.035 4.299 1.555 4580
-0.035 4.303 1.542 5428
-0.035 4.307 1.530 5928
-0.035 4.349 1.530 5964
-0.037 4.481 1.558 5989
-0.037 4.485 1.545 7484
-0.037 4.489 1.532 7905
-0.037 4.501 1.522 6734
-0.038 4.679 1.562 6298
-0.038 4.683 1.549 7326
-0.038 4.694 1.537 5531
-0.039 4.805 1.556 4012
-0.039 4.809 1.542 8827
-0.039 4.828 1.532 8661
-0.039 4.832 1.518 6794
-0.040 4.844 1.507 5423
-0.040 4.924 1.514 4287
-0.040 4.936 1.502 5535
-0.041 5.031 1.513 4069
-0.041 5.027 1.496 4124
-0.042 5.146 1.513 6429
-0.042 5.158 1.500 8130
-0.042 5.208 1.497 8359
-0.042 5.204 1.480 9654
-0.042 5.185 1.459 9117
-0.043 5.288 1.469 6813
-0.044 5.423 1.487 5028
-0.043 5.296 1.439 4570
-0.043 5.300 1.424 4632
-0.045 5.573 1.473 3369
-0.045 5.561 1.454 4458
-0.046 5.696 1.468 3696
-0.046 5.700 1.452 3410
-0.047 5.719 1.439 3226
-0.047 5.754 1.429 3345
-0.047 5.781 1.418 3665
-0.047 5.800 1.405 3095
-0.047 5.804 1.388 2500
-0.050 6.179 1.451 2470
-0.050 6.175 1.431 2389
-0.052 6.434 1.466 2746
-0.053 6.446 1.449 3849
-0.051 6.232 1.387 3861
-0.053 6.438 1.409 3441
-0.051 6.294 1.361 2613
-0.053 6.476 1.378 3561
-0.053 6.472 1.357 4870
-0.053 6.476 1.339 3945
-0.057 7.009 1.417 3956
-0.058 7.059 1.405 2862
-0.055 6.805 1.339 2257
-0.059 7.183 1.385 2293
-0.060 7.374 1.396 2847
-0.060 7.378 1.375 2836
-0.061 7.499 1.373 2825
-0.061 7.526 1.355 2692
-0.061 7.521 1.332 1974
-0.065 7.955 1.377 2010
-0.065 7.966 1.355 2426
-0.065 7.962 1.331 2158
-0.067 8.216 1.345 2367
-0.067 8.227 1.322 2228
-0.068 8.372 1.318 2718
-0.074 9.104 1.395 2848
-0.074 9.108 1.369 3658
-0.074 9.088 1.339 2820
-0.074 9.092 1.313 3517
-0.074 9.118 1.290 5310
-0.074 9.122 1.263 4029
-0.081 9.872 1.327 3102
-0.081 9.891 1.300 3284
-0.081 9.894 1.271 2850
-0.081 9.890 1.242 1959
-0.086 10.522 1.282 1583
-0.086 10.526 1.251 1582
-0.086 10.537 1.221 1323
-0.101 12.375 1.375 1149
-0.101 12.371 1.338 1778
-0.101 12.374 1.302 1627
-0.096 11.755 1.209 1605
-0.101 12.357 1.228 1903
-0.101 12.352 1.191 3019
-0.101 12.355 1.156 2901
-0.101 12.358 1.120 2315
-0.107 13.150 1.144 2675
-0.107 13.169 1.107 3070
-0.107 13.180 1.069 2777
-0.107 13.175 1.031 2747
-0.108 13.185 0.993 2514
-0.108 13.187 0.954 1901
-0.108 13.190 0.916 1172
-0.108 13.192 0.878 832
-0.108 13.194 0.839 590
-0.118 14.453 0.864 278
-0.041 5.032 0.317 298
-0.041 5.032 0.303 476
-0.041 5.033 0.288 566
-0.041 5.033 0.274 643
-0.041 5.034 0.259 757
-0.041 5.034 0.245 794
-0.041 5.034 0.230 808
-0.041 5.034 0.215 822
-0.041 5.035 0.201 830
-0.041 5.035 0.186 824
-0.041 5.035 0.172 809
-0.041 5.035 0.157 762
-0.041 5.035 0.143 715
-0.041 5.035 0.128 635
-0.041 5.035 0.114 554
-0.013 1.599 0.127 508
-0.013 1.591 0.123 595
-0.013 1.583 0.118 610
-0.013 1.583 0.114 644
-0.013 1.583 0.109 612
-0.013 1.583 0.105 542
-0.060 7.344 -0.047 553
-0.060 7.336 -0.068 618
-0.060 7.343 -0.090 638
-0.060 7.342 -0.111 662
-0.060 7.342 -0.133 660
-0.060 7.341 -0.154 657
-0.060 7.340 -0.175 605
-0.060 7.339 -0.196 554
-0.061 7.449 -0.223 594
-0.061 7.447 -0.245 639
-0.024 2.901 -0.017 636
-0.024 2.909 -0.025 783
-0.024 2.908 -0.034 840
-0.024 2.908 -0.042 897
-0.024 2.907 -0.050 951
-0.024 2.914 -0.059 998
-0.024 2.914 -0.068 1005
-0.024 2.913 -0.076 1122
-0.024 2.913 -0.084 1239
-0.024 2.912 -0.093 1216
-0.024 2.903 -0.100 1210
-0.024 2.903 -0.109 1071
-0.024 2.902 -0.117 932
-0.024 2.901 -0.125 697
-0.024 2.908 -0.134 473
-0.024 2.907 -0.143 473
-0.024 2.907 -0.151 315
-0.013 2.233 1.722 3317
-0.013 2.237 1.716 6634
-0.013 2.242 1.709 6634
-0.013 2.247 1.703 5997
-0.013 2.277 1.715 6036
-0.013 2.282 1.708 9785
-0.013 2.286 1.702 13533
-0.013 2.291 1.695 13533
-0.013 2.295 1.689 13848
-0.013 2.300 1.682 14163
-0.013 2.311 1.680 11458
-0.013 2.328 1.683 10275
-0.013 2.346 1.685 8846
-0.013 2.377 1.696 8700
-0.013 2.375 1.684 7721
-0.013 2.366 1.669 7149
-0.013 2.377 1.667 6812
-0.013 2.388 1.664 6724
-0.013 2.393 1.657 7074
-0.014 2.404 1.655 6592
-0.014 2.448 1.674 6370
-0.014 2.453 1.667 6232
-0.014 2.464 1.664 6165
-0.014 2.468 1.657 7276
-0.014 2.473 1.650 8387
-0.014 2.484 1.647 6461
-0.014 2.542 1.673 6875
-0.015 2.574 1.682 5182
-0.015 2.592 1.683 4832
-0.015 2.610 1.684 4542
-0.015 2.621 1.680 4571
-0.015 2.639 1.681 4611
-0.015 2.657 1.682 5344
-0.015 2.662 1.674 5141
-0.015 2.693 1.682 5097
-0.015 2.712 1.683 5075
-0.015 2.689 1.659 5744
-0.015 2.686 1.647 7273
-0.015 2.691 1.640 6353
-0.015 2.702 1.636 5533
-0.015 2.713 1.632 4526
-0.015 2.731 1.632 4217
-0.016 2.826 1.674 6476
-0.016 2.830 1.666 14144
-0.016 2.835 1.658 18834
-0.016 2.846 1.653 17466
-0.016 2.857 1.649 14009
-0.016 2.883 1.652 9968
-0.016 2.887 1.644 7105
-0.016 2.884 1.632 7252
-0.016 2.896 1.627 7918
-0.016 2.914 1.626 8025
-0.017 2.996 1.658 9830
-0.017 3.007 1.653 11486
-0.017 3.026 1.651 12502
-0.017 3.030 1.643 10810
-0.017 3.035 1.634 7903
-0.017 3.089 1.650 7682
-0.017 3.100 1.645 10022
-0.018 3.112 1.639 9527
-0.018 3.137 1.641 10848
-0.018 3.142 1.632 11073
-0.018 3.146 1.623 9140
-0.018 3.115 1.597 8063
-0.018 3.212 1.632 8515
-0.018 3.216 1.623 9580
-0.018 3.221 1.613 8835
-0.018 3.239 1.611 9683
-0.018 3.243 1.601 12660
-0.018 3.255 1.595 14329
-0.018 3.252 1.583 13571
-0.018 3.263 1.577 10183
-0.019 3.318 1.590 8686
-0.019 3.359 1.596 6737
-0.019 3.406 1.606 5764
-0.019 3.418 1.599 4737
-0.019 3.422 1.589 5104
-0.020 3.470 1.598 7707
-0.020 3.482 1.591 10492
-0.020 3.508 1.590 11738
-0.020 3.534 1.589 11716
-0.020 3.531 1.576 8025
-0.020 3.579 1.584 7946
-0.020 3.583 1.574 9081
-0.020 3.595 1.566 9144
-0.020 3.606 1.559 8135
-0.021 3.706 1.586 8509
-0.021 3.718 1.579 9677
-0.021 3.759 1.582 7354
-0.022 3.851 1.606 5022
-0.022 3.856 1.595 5034
-0.022 3.941 1.614 5381
-0.021 3.783 1.542 7049
-0.022 3.950 1.592 7865
-0.022 3.962 1.583 9218
-0.022 3.973 1.574 8010
-0.022 3.977 1.563 5606
-0.023 3.989 1.554 5584
-0.023 3.993 1.543 6032
-0.023 4.094 1.565 4661
-0.023 4.121 1.562 6768
-0.023 4.132 1.552 7458
-0.023 4.144 1.543 7285
-0.023 4.148 1.531 6444
-0.024 4.295 1.567 5384
-0.024 4.291 1.552 4644
-0.025 4.386 1.570 4536
-0.025 4.367 1.549 7172
-0.025 4.364 1.534 6549
-0.025 4.511 1.568 6043
-0.025 4.485 1.545 6510
-0.025 4.489 1.532 6378
-0.025 4.501 1.522 5570
-0.026 4.679 1.562 5532
-0.026 4.683 1.549 6735
-0.026 4.695 1.537 5167
-0.027 4.797 1.553 4346
-0.027 4.809 1.542 9111
-0.027 4.828 1.532 8724
-0.027 4.832 1.518 6155
-0.027 4.859 1.511 5033
-0.028 4.962 1.525 3948
-0.028 5.035 1.530 5789
-0.028 5.046 1.517 4310
-0.029 5.058 1.505 3804
-0.029 5.138 1.511 8404
-0.029 5.142 1.496 10443
-0.029 5.215 1.499 7254
-0.029 5.173 1.472 9050
-0.029 5.177 1.457 11337
-0.029 5.196 1.446 7409
-0.031 5.430 1.489 4426
-0.030 5.288 1.437 5556
-0.030 5.300 1.424 7177
-0.030 5.311 1.410 4730
-0.031 5.554 1.452 4603
-0.032 5.704 1.470 3272
-0.032 5.708 1.454 3840
-0.032 5.719 1.439 4096
-0.032 5.731 1.424 3664
-0.033 5.789 1.420 3134
-0.033 5.800 1.405 3319
-0.033 5.804 1.388 2966
-0.035 6.187 1.452 2288
-0.035 6.167 1.429 2820
-0.034 6.078 1.392 2953
-0.035 6.244 1.408 3407
-0.035 6.233 1.387 3791
-0.035 6.228 1.367 3407
-0.037 6.473 1.396 3142
-0.037 6.476 1.378 4528
-0.037 6.472 1.357 6215
-0.037 6.476 1.339 5209
-0.037 6.471 1.318 3333
-0.040 7.106 1.414 2675
-0.040 7.133 1.397 2571
-0.040 7.176 1.383 2510
-0.042 7.374 1.396 2985
-0.042 7.378 1.375 2785
-0.042 7.499 1.373 2631
-0.042 7.518 1.354 2433
-0.042 7.521 1.332 1858
-0.045 8.049 1.392 1882
-0.045 8.045 1.367 2173
-0.044 7.766 1.302 1964
-0.046 8.216 1.345 2227
-0.046 8.212 1.320 2052
-0.047 8.372 1.318 2683
-0.047 8.375 1.294 2914
-0.051 9.108 1.369 3209
-0.051 9.088 1.339 2544
-0.051 9.092 1.313 3480
-0.051 9.119 1.290 5186
-0.052 9.130 1.264 3853
-0.056 9.872 1.327 2966
-0.056 9.891 1.300 3205
-0.056 9.894 1.271 2674
-0.056 9.890 1.242 1820
-0.059 10.515 1.281 1591
-0.059 10.518 1.250 1561
-0.064 11.419 1.312 1217
-0.070 12.375 1.375 1505
-0.070 12.379 1.339 2274
-0.070 12.374 1.302 2073
-0.070 12.370 1.265 1851
-0.070 12.357 1.228 2063
-0.070 12.353 1.191 2909
-0.070 12.364 1.156 2843
-0.070 12.430 1.125 2545
-0.074 13.166 1.145 2285
-0.074 13.177 1.108 2946
-0.074 13.180 1.069 2819
-0.074 13.175 1.031 2801
-0.074 13.185 0.993 2561
-0.074 13.188 0.954 1934
-0.074 13.190 0.916 1214
-0.074 13.192 0.878 882
-0.074 13.194 0.839 629
-0.082 14.453 0.864 269
-0.028 5.032 0.317 328
-0.028 5.032 0.303 521
-0.028 5.033 0.288 619
-0.028 5.033 0.274 684
-0.028 5.034 0.259 759
-0.028 5.034 0.245 767
-0.028 5.034 0.230 697
-0.028 5.035 0.215 627
-0.028 5.035 0.201 540
-0.028 5.027 0.186 388
-0.009 1.615 0.150 399
-0.009 1.615 0.145 492
-0.009 1.599 0.141 641
-0.009 1.591 0.136 833
-0.009 1.584 0.132 894
-0.009 1.583 0.127 808
-0.009 1.583 0.123 652
-0.009 1.575 0.118 536
-0.009 1.575 0.114 425
-0.009 1.575 0.109 442
-0.009 1.583 0.105 446
-0.044 7.724 -0.057 418
-0.044 7.724 -0.080 471
-0.044 7.723 -0.102 503
-0.044 7.722 -0.124 535
-0.044 7.721 -0.147 550
-0.044 7.721 -0.169 564
-0.044 7.720 -0.191 541
-0.044 7.719 -0.214 519
-0.044 7.718 -0.236 470
-0.044 7.716 -0.259 422
-0.059 10.506 -0.434 375
-0.059 10.504 -0.465 416
-0.016 2.908 -0.034 442
-0.016 2.908 -0.042 474
-0.016 2.907 -0.050 459
-0.016 2.915 -0.059 443
-0.016 2.914 -0.068 445
-0.016 2.921 -0.077 477
-0.016 2.921 -0.085 514
-0.016 2.912 -0.093 505
-0.016 2.911 -0.101 511
-0.016 2.911 -0.109 424
-0.016 2.918 -0.118 339
-0.016 2.917 -0.127 289
-0.004 2.233 1.722 3295
-0.004 2.237 1.716 6590
-0.004 2.242 1.709 6590
-0.004 2.266 1.717 6521
-0.004 2.277 1.715 7588
-0.004 2.282 1.708 12101
-0.004 2.286 1.702 16614
-0.004 2.291 1.695 16614
-0.004 2.295 1.689 16305
-0.004 2.293 1.678 16027
-0.004 2.311 1.680 11636
-0.004 2.328 1.683 9255
-0.004 2.346 1.685 9339
-0.004 2.357 1.682 9942
-0.004 2.362 1.676 9687
-0.004 2.360 1.665 9458
-0.004 2.371 1.662 8507
-0.004 2.382 1.660 7445
-0.004 2.393 1.657 7204
-0.004 2.404 1.655 6849
-0.005 2.448 1.674 6927
-0.005 2.459 1.671 6765
-0.005 2.491 1.681 6677
-0.005 2.468 1.657 8294
-0.005 2.473 1.650 9970
-0.005 2.531 1.676 8264
-0.005 2.549 1.677 10035
-0.005 2.567 1.678 8102
-0.005 2.585 1.679 7144
-0.005 2.596 1.676 5362
-0.005 2.621 1.680 4101
-0.005 2.639 1.681 4536
-0.005 2.650 1.678 5271
-0.005 2.662 1.674 4835
-0.005 2.693 1.682 4227
-0.005 2.609 1.623 3802
-0.005 2.743 1.691 4217
-0.005 2.686 1.647 5318
-0.005 2.773 1.687 4972
-0.005 2.785 1.683 5078
-0.005 2.706 1.628 3996
-0.005 2.752 1.644 4240
-0.005 2.770 1.643 6131
-0.005 2.830 1.666 12797
-0.005 2.835 1.658 17194
-0.005 2.846 1.653 16784
-0.005 2.864 1.653 14918
-0.005 2.883 1.652 10724
-0.005 2.894 1.648 5536
-0.006 2.975 1.680 4112
-0.005 2.931 1.646 4629
-0.006 2.984 1.663 5706
-0.006 2.996 1.658 7831
-0.006 3.014 1.656 9109
-0.006 3.026 1.651 10310
-0.006 3.037 1.646 9173
-0.006 3.042 1.638 6689
-0.006 3.096 1.654 8222
-0.006 3.107 1.648 10829
-0.006 3.126 1.646 10831
-0.006 3.144 1.644 11558
-0.006 3.142 1.632 10284
-0.006 3.153 1.626 8564
-0.006 3.179 1.627 7657
-0.006 3.205 1.628 8114
-0.006 3.209 1.619 7596
-0.006 3.235 1.620 7923
-0.006 3.239 1.611 9880
-0.006 3.251 1.605 11920
-0.006 3.262 1.599 13224
-0.006 3.259 1.586 11673
-0.006 3.263 1.577 8430
-0.006 3.289 1.577 6679
-0.006 3.373 1.603 5216
-0.006 3.399 1.602 6543
-0.006 3.396 1.589 6400
-0.006 3.393 1.577 7789
-0.007 3.477 1.601 8349
-0.007 3.482 1.591 11582
-0.007 3.508 1.590 13024
-0.007 3.534 1.589 12149
-0.007 3.567 1.591 8036
-0.007 3.608 1.596 7925
-0.007 3.583 1.574 8870
-0.007 3.587 1.563 9101
-0.007 3.680 1.588 7169
-0.007 3.706 1.586 10226
-0.007 3.718 1.579 12417
-0.007 3.737 1.574 7820
-0.007 3.778 1.577 4416
-0.007 3.863 1.598 3980
-0.007 3.949 1.617 5195
-0.007 3.783 1.542 7932
-0.007 3.942 1.589 7313
-0.007 3.954 1.580 8895
-0.007 3.973 1.574 7837
-0.007 3.985 1.566 5214
-0.007 3.989 1.554 4622
-0.007 3.993 1.543 4697
-0.008 4.087 1.563 3771
-0.008 4.128 1.564 5347
-0.008 4.155 1.560 7417
-0.008 4.144 1.543 7182
-0.008 4.148 1.531 5269
-0.008 4.310 1.572 5035
-0.008 4.299 1.555 3719
-0.008 4.386 1.570 5161
-0.008 4.375 1.552 7659
-0.008 4.364 1.534 6636
-0.008 4.519 1.570 7000
-0.008 4.500 1.550 4388
-0.009 4.618 1.573 3661
-0.009 4.728 1.592 4279
-0.009 4.724 1.576 4379
-0.009 4.683 1.549 5095
-0.009 4.695 1.537 4156
-0.009 4.782 1.549 5017
-0.009 4.801 1.539 8137
-0.009 4.821 1.530 7074
-0.009 4.840 1.520 5537
-0.009 4.867 1.513 6143
-0.009 5.046 1.548 5101
-0.009 5.042 1.532 6826
-0.009 5.062 1.521 4448
-0.010 5.089 1.513 4230
-0.010 5.139 1.511 8652
-0.010 5.143 1.496 10167
-0.010 5.139 1.479 5818
-0.010 5.158 1.468 8098
-0.010 5.177 1.457 11665
-0.010 5.189 1.444 8372
-0.010 5.216 1.435 4602
-0.010 5.296 1.439 5959
-0.010 5.300 1.424 8217
-0.010 5.311 1.410 5562
-0.010 5.585 1.459 4408
-0.011 5.696 1.468 2763
-0.011 5.708 1.454 4300
-0.011 5.712 1.437 4641
-0.011 5.708 1.419 3362
-0.011 5.804 1.423 3124
-0.011 5.800 1.405 3565
-0.011 5.796 1.386 3160
-0.011 6.132 1.441 2422
-0.012 6.160 1.428 3266
-0.011 6.078 1.392 3133
-0.012 6.244 1.408 3679
-0.012 6.240 1.388 3553
-0.012 6.228 1.367 2984
-0.012 6.481 1.398 4039
-0.012 6.477 1.378 5760
-0.012 6.472 1.357 7634
-0.012 6.476 1.339 6754
-0.012 6.472 1.318 4288
-0.013 7.137 1.419 3460
-0.013 7.156 1.401 3504
-0.013 7.176 1.383 2701
-0.014 7.374 1.396 2701
-0.014 7.378 1.375 2274
-0.014 7.499 1.373 2489
-0.014 7.510 1.352 2160
-0.014 7.514 1.330 1761
-0.015 8.057 1.393 2675
-0.015 8.053 1.369 2901
-0.014 7.743 1.298 1977
-0.015 8.216 1.345 1792
-0.015 8.134 1.309 2314
-0.016 8.521 1.340 2422
-0.016 8.383 1.295 2600
-0.016 8.379 1.270 2603
-0.016 8.374 1.245 2314
-0.017 9.210 1.328 3611
-0.017 9.221 1.303 4523
-0.017 9.271 1.282 3585
-0.017 9.259 1.253 3418
-0.017 9.262 1.226 2917
-0.019 9.894 1.271 2057
-0.017 9.316 1.177 1987
-0.017 9.311 1.150 1628
-0.020 10.510 1.250 1436
-0.021 11.427 1.313 1203
-0.023 12.376 1.375 1557
-0.023 12.379 1.339 2308
-0.023 12.375 1.302 2062
-0.023 12.023 1.234 1879
-0.023 12.358 1.228 1909
-0.023 12.361 1.192 2469
-0.023 12.419 1.161 2780
-0.023 12.430 1.125 3085
-0.023 12.433 1.089 2697
-0.025 13.185 1.108 2478
-0.025 13.180 1.069 2484
-0.025 13.183 1.031 2478
-0.025 13.185 0.993 2240
-0.025 13.188 0.954 1651
-0.025 13.190 0.916 1014
-0.025 13.192 0.878 730
-0.025 13.194 0.839 520
-0.009 5.040 0.317 274
-0.009 5.040 0.303 468
-0.009 5.033 0.288 571
-0.009 5.041 0.274 647
-0.009 5.042 0.259 731
-0.009 5.034 0.245 740
-0.009 5.042 0.230 681
-0.003 1.607 0.163 940
-0.003 1.607 0.159 1326
-0.003 1.607 0.154 1476
-0.003 1.607 0.150 1600
-0.003 1.607 0.145 1573
-0.003 1.599 0.141 1922
-0.003 1.591 0.136 2333
-0.003 1.591 0.132 2623
-0.003 1.584 0.127 2815
-0.003 1.591 0.123 2683
-0.003 1.583 0.118 2210
-0.003 1.583 0.114 1755
-0.003 1.583 0.109 1324
-0.003 1.591 0.105 839
-0.003 1.591 0.100 645
-0.014 7.724 -0.080 487
-0.014 7.723 -0.102 546
-0.014 7.722 -0.124 605
-0.014 7.722 -0.147 636
-0.014 7.721 -0.169 667
-0.014 7.720 -0.191 653
-0.014 7.719 -0.214 638
-0.014 7.718 -0.236 574
-0.014 7.717 -0.259 510
-0.014 7.715 -0.281 428
-0.014 7.714 -0.303 346
-0.014 7.713 -0.326 299
-0.005 2.876 -0.040 287
-0.005 2.876 -0.048 284
-0.005 2.875 -0.057 282
-0.005 2.874 -0.065 283
-0.005 2.890 -0.074 268
-0.005 2.897 -0.083 271
0.001 2.239 1.727 3230
0.001 2.244 1.720 6460
0.001 2.249 1.714 6460
0.001 2.266 1.717 7097
0.001 2.277 1.715 8286
0.001 2.275 1.704 13079
0.001 2.280 1.697 17942
0.001 2.284 1.691 17942
0.001 2.289 1.684 17465
0.001 2.293 1.678 16988
0.001 2.304 1.676 11786
0.001 2.328 1.683 8623
0.001 2.340 1.680 9617
0.001 2.357 1.682 11218
0.001 2.362 1.676 11018
0.001 2.360 1.665 10863
0.001 2.371 1.662 9633
0.001 2.382 1.660 7844
