3.159 3.607 1.720 7293
3.162 3.610 1.706 5411
3.234 3.693 1.727 4300
3.242 3.702 1.715 5866
3.235 3.694 1.696 7101
3.238 3.697 1.682 9228
3.291 3.758 1.691 9977
3.289 3.755 1.674 10074
3.247 3.707 1.639 8650
3.300 3.768 1.648 7520
3.303 3.771 1.633 7977
3.311 3.780 1.621 7392
3.309 3.778 1.604 7204
3.311 3.781 1.590 7041
3.314 3.784 1.575 5848
3.568 4.073 1.669 6228
3.566 4.071 1.652 7204
3.785 4.321 1.728 4990
3.798 4.336 1.715 6666
3.811 4.351 1.703 5069
3.814 4.354 1.686 6639
3.827 4.369 1.673 10045
3.835 4.378 1.658 9624
3.833 4.376 1.640 7896
3.835 4.379 1.623 6930
3.975 4.538 1.659 8207
3.978 4.541 1.641 9418
3.970 4.533 1.620 10549
3.988 4.554 1.608 6576
4.214 4.812 1.672 5134
4.476 5.110 1.748 5132
4.484 5.120 1.730 5514
4.350 4.967 1.662 5120
4.485 5.121 1.689 4387
4.488 5.124 1.669 3963
4.491 5.128 1.649 3357
4.494 5.131 1.629 2370
4.961 5.664 1.762 2169
4.969 5.673 1.742 2768
4.982 5.688 1.724 2860
5.006 5.715 1.708 3651
5.014 5.724 1.688 4068
5.088 5.809 1.688 3557
5.286 6.035 1.724 2435
5.289 6.038 1.701 2636
5.286 6.036 1.676 2301
5.289 6.039 1.653 2276
5.646 6.446 1.730 2888
5.649 6.450 1.705 3117
5.673 6.477 1.685 3107
5.681 6.486 1.662 3050
5.684 6.489 1.637 2380
5.681 6.487 1.610 1913
5.756 6.572 1.604 1355
6.402 7.310 1.740 1474
6.410 7.319 1.713 1598
6.758 7.716 1.769 1476
6.344 7.243 1.640 1562
6.899 7.876 1.740 1627
6.912 7.892 1.712 1719
6.915 7.895 1.682 1207
7.300 8.335 1.735 1062
7.293 8.326 1.701 1206
7.533 8.601 1.719 1555
7.536 8.604 1.685 1702
7.534 8.602 1.651 1406
7.537 8.605 1.618 1141
7.540 8.608 1.585 833
7.739 8.836 1.588 896
8.027 9.164 1.606 971
9.180 10.481 1.777 902
8.545 9.756 1.625 1047
8.548 9.760 1.587 1002
9.194 10.497 1.656 989
9.197 10.500 1.616 1053
9.194 10.498 1.574 767
9.062 10.347 1.513 400
9.091 10.379 1.477 266
2.110 2.409 0.289 390
2.116 2.416 0.280 531
2.116 2.416 0.271 615
2.111 2.410 0.261 635
1.799 2.053 0.235 762
1.799 2.054 0.227 893
1.804 2.060 0.220 877
2.122 2.423 0.225 851
2.122 2.423 0.216 698
2.123 2.423 0.206 486
2.123 2.424 0.197 358
2.451 2.799 0.195 357
2.452 2.799 0.185 503
2.446 2.793 0.174 570
2.446 2.793 0.163 594
2.446 2.793 0.153 618
2.446 2.793 0.142 598
2.452 2.799 0.131 531
2.446 2.793 0.121 477
2.452 2.799 0.110 378
2.452 2.799 0.099 284
2.681 3.060 0.048 300
2.686 3.066 0.036 428
2.680 3.060 0.025 616
2.675 3.054 0.013 816
2.674 3.053 0.002 976
2.679 3.059 -0.010 1137
2.674 3.053 -0.022 1351
2.674 3.052 -0.033 1565
2.673 3.052 -0.045 1627
2.673 3.052 -0.057 1688
2.672 3.051 -0.068 1642
2.672 3.051 -0.080 1595
2.672 3.050 -0.092 1438
2.671 3.050 -0.103 1281
2.671 3.049 -0.115 1281
2.670 3.049 -0.127 1086
2.670 3.048 -0.138 891
2.674 3.053 -0.151 728
2.674 3.053 -0.162 571
2.673 3.052 -0.174 433
2.672 3.051 -0.186 294
6.558 7.488 -0.723 286
6.556 7.486 -0.752 325
6.555 7.484 -0.781 325
6.553 7.482 -0.810 386
6.551 7.480 -0.839 446
6.549 7.477 -0.868 479
6.547 7.475 -0.897 511
6.545 7.473 -0.926 511
6.543 7.470 -0.954 255
1.544 1.752 1.797 4016
1.547 1.756 1.790 8032
1.550 1.759 1.783 8032
1.558 1.768 1.781 9690
1.561 1.771 1.774 11391
1.564 1.775 1.768 8319
1.580 1.793 1.775 5763
1.583 1.797 1.768 5763
1.608 1.825 1.783 5551
1.611 1.828 1.776 6707
1.614 1.832 1.770 8577
1.613 1.831 1.758 10526
1.616 1.834 1.751 12281
1.619 1.838 1.744 14037
1.622 1.841 1.737 12306
1.630 1.850 1.735 10646
1.633 1.853 1.727 10869
1.636 1.857 1.720 7793
1.674 1.900 1.748 5047
1.673 1.898 1.736 5679
1.663 1.887 1.716 6604
1.679 1.905 1.722 6567
1.682 1.909 1.715 6716
1.725 1.957 1.745 5170
1.732 1.966 1.742 6926
1.740 1.975 1.739 7353
1.743 1.978 1.731 7784
1.742 1.976 1.719 7227
1.740 1.975 1.708 6958
1.757 1.994 1.713 6736
1.773 2.012 1.717 8277
1.790 2.031 1.722 7924
1.797 2.040 1.718 8611
1.805 2.048 1.714 9183
1.808 2.052 1.706 9764
1.811 2.055 1.699 9134
1.841 2.089 1.714 6879
1.853 2.103 1.714 8126
1.861 2.112 1.710 6756
1.873 2.125 1.710 5596
1.890 2.144 1.713 5334
1.897 2.153 1.709 5592
1.905 2.162 1.705 5655
1.903 2.160 1.693 5333
1.892 2.148 1.673 5323
1.905 2.161 1.672 6240
1.912 2.170 1.668 7371
1.920 2.179 1.663 7617
1.932 2.192 1.662 7596
1.935 2.196 1.654 6574
1.952 2.215 1.657 6664
1.964 2.229 1.655 7284
1.967 2.232 1.647 7501
1.984 2.251 1.649 6244
2.000 2.270 1.651 5974
2.017 2.289 1.653 6082
2.034 2.309 1.655 5984
2.051 2.328 1.657 6203
2.059 2.337 1.652 6835
2.175 2.468 1.726 7245
2.173 2.466 1.714 8678
2.171 2.464 1.701 8086
2.240 2.542 1.739 7106
2.239 2.541 1.726 12768
2.246 2.549 1.720 15711
2.254 2.558 1.713 16413
2.253 2.556 1.700 17326
2.256 2.560 1.690 16178
2.297 2.606 1.707 13892
2.304 2.615 1.700 13136
2.303 2.613 1.687 9562
2.282 2.589 1.661 9311
2.294 2.604 1.657 10354
2.297 2.607 1.647 9093
2.295 2.605 1.634 7771
2.413 2.739 1.700 8606
2.416 2.742 1.689 11902
2.424 2.751 1.682 13782
2.446 2.776 1.684 18760
2.459 2.791 1.679 20712
2.472 2.805 1.675 16072
2.475 2.808 1.664 12884
2.473 2.806 1.650 11713
2.476 2.809 1.639 11090
2.503 2.840 1.643 9815
2.506 2.844 1.632 7812
2.494 2.830 1.613 7691
2.497 2.833 1.602 11209
2.504 2.842 1.594 11805
2.527 2.868 1.594 7171
2.549 2.893 1.595 6103
2.537 2.879 1.575 6716
2.540 2.883 1.564 7533
2.803 3.181 1.700 11475
2.806 3.184 1.687 10473
2.818 3.199 1.681 8474
2.826 3.207 1.671 8420
2.839 3.222 1.664 8196
2.837 3.220 1.649 7285
2.894 3.285 1.666 5052
2.882 3.271 1.645 8396
2.890 3.280 1.635 8137
2.987 3.390 1.671 6448
2.990 3.393 1.658 6079
3.172 3.599 1.736 5407
3.170 3.597 1.720 6483
3.173 3.601 1.706 5239
3.176 3.604 1.692 3774
3.253 3.692 1.715 4120
3.247 3.684 1.696 5750
3.299 3.744 1.706 7559
3.302 3.748 1.691 9825
3.300 3.745 1.674 9464
3.258 3.698 1.639 6504
3.311 3.758 1.648 4733
3.314 3.761 1.633 5040
3.462 3.929 1.684 5085
3.320 3.768 1.604 4000
3.534 4.010 1.683 3948
3.532 4.008 1.665 3795
3.590 4.074 1.674 5453
3.578 4.060 1.652 6321
3.797 4.310 1.728 4877
3.811 4.324 1.715 6294
3.824 4.339 1.703 5513
3.827 4.343 1.686 7109
3.840 4.358 1.673 10496
3.848 4.367 1.658 11460
3.846 4.364 1.640 9242
3.843 4.362 1.621 7224
3.993 4.532 1.661 7848
4.012 4.553 1.649 7700
3.984 4.521 1.620 7445
4.022 4.565 1.616 5630
4.229 4.799 1.672 4689
4.496 5.103 1.749 3769
4.494 5.101 1.728 4078
4.360 4.948 1.660 3931
4.500 5.107 1.689 3407
4.503 5.111 1.669 2967
4.644 5.271 1.696 2775
4.882 5.541 1.754 2161
4.885 5.544 1.732 2300
4.986 5.658 1.742 2654
4.999 5.673 1.724 2766
5.023 5.700 1.708 3834
5.031 5.709 1.688 4472
5.034 5.713 1.666 3277
5.370 6.095 1.744 2297
5.379 6.104 1.722 2062
5.361 6.084 1.692 1761
5.688 6.455 1.762 2062
5.676 6.441 1.732 2196
5.689 6.456 1.710 2163
5.702 6.471 1.688 2882
5.710 6.480 1.665 3376
5.713 6.484 1.640 2786
5.706 6.475 1.612 2044
6.421 7.287 1.768 1345
6.424 7.290 1.740 1557
6.427 7.294 1.712 1638
6.363 7.221 1.668 1892
6.366 7.224 1.640 2056
6.927 7.862 1.741 1743
6.936 7.871 1.712 1959
6.944 7.880 1.683 1282
7.216 8.189 1.711 1071
7.219 8.193 1.680 1271
7.564 8.584 1.720 1164
7.557 8.576 1.684 1385
7.555 8.573 1.650 1254
7.563 8.583 1.618 968
8.443 9.582 1.753 769
8.057 9.143 1.643 829
8.059 9.146 1.607 1002
9.211 10.453 1.777 932
8.580 9.737 1.626 1002
8.583 9.740 1.588 933
9.225 10.469 1.656 1043
9.228 10.473 1.616 1108
9.226 10.470 1.574 804
9.093 10.319 1.513 375
9.408 10.677 1.519 292
2.118 2.403 0.289 278
2.113 2.397 0.279 361
2.118 2.404 0.270 483
2.124 2.410 0.261 639
2.124 2.410 0.252 656
2.124 2.410 0.243 512
2.129 2.417 0.234 478
2.135 2.423 0.225 582
2.135 2.423 0.216 634
2.135 2.423 0.206 606
2.297 2.607 0.202 522
2.298 2.607 0.192 416
2.460 2.792 0.185 481
2.460 2.792 0.174 552
2.455 2.786 0.163 618
2.455 2.786 0.153 683
2.460 2.792 0.142 701
2.460 2.792 0.131 667
2.460 2.792 0.120 607
2.460 2.792 0.110 496
2.460 2.792 0.099 385
2.460 2.792 0.088 287
2.700 3.064 0.036 288
2.695 3.058 0.025 481
2.689 3.052 0.013 682
2.684 3.045 0.002 763
2.683 3.045 -0.010 867
2.683 3.045 -0.022 1038
2.683 3.044 -0.033 1208
2.682 3.044 -0.045 1245
2.682 3.044 -0.057 1283
2.682 3.043 -0.068 1235
2.681 3.043 -0.080 1187
2.681 3.042 -0.092 1060
2.680 3.042 -0.103 932
2.680 3.041 -0.115 932
2.679 3.041 -0.127 781
2.679 3.040 -0.138 630
2.683 3.045 -0.151 514
2.683 3.045 -0.162 407
2.682 3.044 -0.174 318
6.584 7.472 -0.753 275
6.582 7.470 -0.782 275
6.575 7.462 -0.810 327
6.573 7.460 -0.839 386
6.571 7.458 -0.868 396
6.569 7.455 -0.897 406
6.567 7.453 -0.926 406
1.553 1.752 1.801 3980
1.556 1.756 1.795 7961
1.560 1.760 1.788 7961
1.563 1.763 1.781 9456
1.566 1.767 1.774 10950
1.569 1.770 1.768 8233
1.581 1.784 1.770 5645
1.584 1.787 1.763 5645
1.613 1.820 1.783 5858
1.616 1.824 1.776 7559
1.620 1.827 1.770 9404
1.618 1.826 1.758 11290
1.621 1.829 1.751 12668
1.625 1.833 1.744 14046
1.628 1.836 1.737 11945
1.635 1.845 1.735 9994
1.638 1.848 1.727 10237
1.641 1.852 1.720 7364
1.680 1.895 1.748 4896
1.678 1.893 1.736 5991
1.673 1.887 1.721 7308
1.684 1.900 1.722 7166
1.687 1.904 1.715 7198
1.691 1.907 1.707 4762
1.743 1.966 1.746 6472
1.746 1.969 1.739 7344
1.744 1.968 1.727 8230
1.743 1.966 1.715 7976
1.746 1.970 1.708 8055
1.753 1.978 1.704 7469
1.770 1.997 1.709 7950
1.791 2.021 1.718 6518
1.808 2.039 1.722 7484
1.811 2.043 1.714 8001
1.814 2.046 1.706 8517
1.821 2.055 1.702 8265
1.847 2.084 1.714 6958
1.859 2.098 1.714 7935
1.862 2.101 1.706 6627
1.870 2.110 1.702 5531
1.900 2.144 1.717 5104
1.908 2.153 1.713 5865
1.906 2.151 1.701 6322
1.900 2.144 1.685 6229
1.899 2.142 1.673 6144
1.906 2.151 1.669 6107
1.914 2.159 1.664 6398
1.926 2.173 1.663 6264
1.934 2.181 1.659 6445
1.936 2.185 1.650 5774
1.967 2.220 1.664 5839
2.031 2.291 1.703 6249
1.973 2.226 1.647 6267
2.042 2.303 1.689 6336
2.040 2.301 1.677 6630
2.038 2.299 1.664 6715
2.050 2.313 1.662 6985
2.058 2.322 1.657 7193
2.061 2.325 1.648 7009
2.182 2.462 1.726 8096
2.180 2.460 1.714 9370
2.178 2.458 1.701 8398
2.248 2.536 1.739 6785
2.246 2.534 1.726 11987
2.254 2.543 1.720 16292
2.262 2.552 1.713 17912
2.260 2.550 1.700 18441
2.263 2.553 1.690 16913
2.304 2.600 1.707 16910
2.312 2.608 1.700 15510
2.315 2.612 1.690 10748
2.304 2.599 1.670 9074
2.307 2.602 1.660 11351
2.309 2.606 1.650 8870
2.389 2.696 1.691 7163
2.416 2.726 1.697 8822
2.419 2.730 1.686 13566
2.422 2.733 1.676 15168
2.454 2.769 1.684 15531
2.467 2.783 1.679 18969
2.480 2.798 1.675 15901
2.483 2.801 1.664 12670
2.486 2.804 1.653 10340
2.498 2.819 1.648 12140
2.506 2.827 1.640 13344
2.509 2.831 1.629 10939
2.507 2.828 1.616 10216
2.505 2.826 1.602 12851
2.513 2.835 1.594 12981
2.535 2.860 1.594 7839
2.553 2.880 1.592 5885
2.546 2.872 1.575 6122
2.814 3.175 1.715 6974
2.817 3.178 1.702 12234
2.820 3.181 1.690 10818
2.828 3.190 1.681 9262
2.841 3.205 1.674 10035
2.848 3.214 1.664 10791
2.846 3.211 1.649 10150
2.894 3.265 1.660 7616
2.897 3.268 1.648 12125
2.900 3.272 1.635 11392
3.002 3.387 1.674 7688
3.005 3.390 1.661 7384
3.008 3.394 1.648 6923
3.011 3.397 1.635 7200
3.014 3.400 1.622 4828
3.186 3.595 1.692 3861
3.139 3.542 1.654 3596
3.307 3.731 1.720 4541
3.310 3.735 1.706 6085
3.313 3.738 1.691 7860
3.311 3.736 1.674 7535
3.304 3.728 1.655 4194
3.377 3.811 1.673 3587
3.471 3.916 1.700 4464
3.479 3.925 1.687 5456
3.487 3.934 1.674 3524
3.545 4.000 1.683 3263
3.548 4.003 1.668 3442
3.607 4.069 1.676 4560
3.595 4.056 1.654 4927
3.739 4.219 1.698 4296
3.818 4.308 1.713 4851
3.735 4.214 1.661 5693
3.733 4.212 1.643 6736
3.858 4.352 1.675 9904
3.860 4.356 1.658 11899
3.858 4.353 1.640 9377
3.866 4.362 1.625 6301
4.017 4.532 1.664 6952
4.040 4.558 1.655 8360
4.043 4.561 1.637 8668
4.041 4.559 1.617 6646
4.033 4.551 1.596 4070
4.036 4.554 1.579 2798
4.335 4.891 1.666 3265
4.343 4.900 1.649 3423
4.346 4.904 1.630 2468
4.646 5.242 1.712 2230
4.665 5.263 1.697 2945
4.663 5.260 1.675 2473
4.902 5.530 1.732 1918
5.002 5.644 1.742 2187
5.021 5.665 1.725 2323
5.039 5.685 1.708 3527
5.047 5.695 1.688 4221
5.050 5.698 1.666 3163
5.393 6.085 1.745 2237
5.396 6.088 1.722 2529
5.379 6.068 1.692 2010
5.717 6.450 1.765 2161
5.710 6.442 1.737 1921
5.718 6.451 1.713 1942
5.726 6.461 1.690 2968
5.734 6.470 1.666 3562
5.732 6.467 1.640 3079
5.725 6.459 1.612 2297
5.722 6.456 1.585 1661
6.445 7.272 1.740 1410
6.376 7.193 1.694 1642
6.379 7.197 1.666 2245
6.387 7.206 1.640 2405
6.955 7.847 1.743 1787
6.964 7.857 1.713 2050
6.972 7.866 1.684 1308
7.349 8.291 1.735 1110
7.243 8.172 1.680 1233
7.204 8.128 1.639 865
7.571 8.542 1.682 1122
7.574 8.546 1.649 1119
7.754 8.749 1.650 882
8.471 9.557 1.753 839
8.088 9.125 1.644 855
8.086 9.123 1.607 1032
9.231 10.415 1.775 889
8.613 9.718 1.627 833
9.263 10.451 1.699 813
9.256 10.443 1.656 1007
9.259 10.446 1.616 1052
9.261 10.449 1.575 772
9.437 10.647 1.561 363
9.434 10.644 1.518 343
9.437 10.647 1.477 251
2.125 2.398 0.270 273
2.131 2.404 0.261 421
2.131 2.404 0.252 507
2.136 2.410 0.243 476
2.304 2.600 0.242 538
2.305 2.600 0.232 563
2.305 2.600 0.222 517
2.147 2.423 0.207 480
2.142 2.417 0.197 515
2.142 2.417 0.188 422
2.468 2.784 0.185 439
2.468 2.785 0.174 495
2.463 2.779 0.163 536
2.463 2.779 0.153 577
2.463 2.779 0.142 610
2.468 2.785 0.131 652
2.468 2.785 0.120 647
2.468 2.785 0.110 570
2.468 2.785 0.099 494
2.468 2.784 0.088 384
2.468 2.784 0.078 273
2.704 3.050 0.048 446
2.698 3.044 0.037 658
2.698 3.044 0.025 826
2.693 3.038 0.013 1020
2.698 3.044 0.001 1383
2.697 3.043 -0.010 1773
2.697 3.043 -0.022 1958
2.691 3.037 -0.033 2183
2.691 3.036 -0.045 2340
2.691 3.036 -0.057 2496
2.690 3.035 -0.068 2425
2.695 3.041 -0.081 2360
2.690 3.034 -0.092 2164
2.689 3.034 -0.103 1974
2.689 3.033 -0.115 1974
2.693 3.039 -0.127 1691
2.693 3.038 -0.139 1427
2.692 3.037 -0.151 1188
2.697 3.043 -0.163 951
2.691 3.036 -0.174 729
2.690 3.035 -0.186 508
2.690 3.035 -0.197 364
6.595 7.441 -0.839 261
6.593 7.439 -0.868 284
6.591 7.436 -0.897 307
6.589 7.434 -0.926 307
1.560 1.746 1.801 3817
1.564 1.750 1.795 7635
1.567 1.753 1.788 7635
1.570 1.757 1.781 8786
1.573 1.760 1.774 9936
1.576 1.764 1.768 7782
1.575 1.763 1.756 5756
1.578 1.766 1.750 5756
1.621 1.813 1.783 5968
1.624 1.817 1.776 8349
1.627 1.820 1.770 10030
1.630 1.824 1.763 11711
1.629 1.823 1.751 12681
1.632 1.826 1.744 13693
1.635 1.830 1.737 11326
1.643 1.838 1.735 9175
1.646 1.842 1.727 9431
1.653 1.850 1.725 6900
1.687 1.888 1.748 4740
1.686 1.887 1.736 6164
1.680 1.880 1.721 7747
1.692 1.893 1.722 7476
1.695 1.897 1.715 7358
1.698 1.900 1.707 4922
1.751 1.959 1.746 6364
1.754 1.962 1.739 7509
1.752 1.961 1.727 8666
1.751 1.959 1.715 8907
1.754 1.963 1.708 9473
1.762 1.971 1.704 8798
1.769 1.979 1.701 8778
1.772 1.983 1.693 6539
1.816 2.032 1.722 6286
1.819 2.035 1.714 6664
1.818 2.034 1.702 7135
1.821 2.037 1.695 7209
1.856 2.076 1.714 7175
1.863 2.085 1.710 8021
1.871 2.093 1.706 6806
1.874 2.097 1.698 5754
1.914 2.141 1.721 4698
1.917 2.145 1.713 5880
1.915 2.143 1.701 6798
1.909 2.136 1.685 7683
1.907 2.134 1.673 7497
1.915 2.143 1.669 6567
1.923 2.151 1.664 5843
1.930 2.160 1.660 5507
1.938 2.168 1.655 5519
1.927 2.156 1.636 6019
1.934 2.164 1.631 5692
2.036 2.278 1.699 6695
2.043 2.286 1.694 7178
2.051 2.295 1.689 8124
2.059 2.303 1.684 8437
2.052 2.296 1.668 7617
2.065 2.310 1.666 8190
2.068 2.314 1.657 7968
2.071 2.317 1.648 7074
2.192 2.453 1.726 7931
2.190 2.451 1.714 9100
2.189 2.449 1.701 8070
2.258 2.527 1.739 6309
2.257 2.525 1.726 10312
2.264 2.534 1.720 15247
2.272 2.542 1.713 17605
2.270 2.540 1.700 18040
2.302 2.576 1.710 18306
2.315 2.590 1.707 19052
2.328 2.604 1.704 17171
2.331 2.608 1.693 11782
2.319 2.595 1.674 9368
2.317 2.593 1.660 11730
2.402 2.688 1.705 10052
2.400 2.686 1.691 10374
2.408 2.695 1.684 10293
2.426 2.714 1.683 15239
2.429 2.718 1.673 16943
2.437 2.726 1.665 13249
2.479 2.773 1.679 16075
2.486 2.782 1.672 15294
2.489 2.785 1.661 12616
2.492 2.789 1.650 9838
2.510 2.808 1.648 13840
2.513 2.812 1.637 16505
2.521 2.820 1.629 13389
2.519 2.818 1.616 11933
2.517 2.816 1.602 13705
2.524 2.825 1.594 13291
2.547 2.850 1.594 7719
2.560 2.864 1.589 5162
2.557 2.861 1.575 5044
2.832 3.168 1.717 7211
2.835 3.172 1.705 12243
2.838 3.175 1.693 10581
2.841 3.179 1.681 9218
2.849 3.188 1.671 10552
2.862 3.202 1.664 12047
2.865 3.205 1.652 11567
2.907 3.253 1.660 10291
2.910 3.256 1.648 14934
2.913 3.260 1.635 13819
3.016 3.375 1.674 8529
3.019 3.378 1.661 8167
3.027 3.387 1.650 8750
3.030 3.390 1.637 10390
3.033 3.393 1.624 6925
3.156 3.531 1.670 4733
3.154 3.529 1.654 4258
3.307 3.701 1.713 3565
3.321 3.715 1.703 4051
3.329 3.724 1.691 5177
3.327 3.722 1.674 5156
3.330 3.726 1.660 3254
3.393 3.797 1.673 3869
3.406 3.811 1.663 4464
3.495 3.911 1.687 5345
3.503 3.920 1.674 3434
3.557 3.980 1.681 2992
3.570 3.994 1.670 3321
3.735 4.179 1.724 4108
3.743 4.188 1.710 6073
3.746 4.192 1.694 7179
3.749 4.195 1.677 6433
3.752 4.199 1.661 6605
3.750 4.196 1.643 7466
3.881 4.342 1.677 9432
3.878 4.340 1.658 11153
3.881 4.343 1.642 8916
3.900 4.363 1.631 6540
4.056 4.538 1.672 6697
4.059 4.541 1.655 8561
4.062 4.545 1.637 9804
4.060 4.542 1.617 7620
4.057 4.540 1.598 5414
4.055 4.537 1.579 3798
4.458 4.988 1.702 3656
4.364 4.883 1.649 2834
4.367 4.886 1.630 2102
4.673 5.229 1.714 2102
4.686 5.244 1.697 3100
4.689 5.247 1.677 2795
4.682 5.239 1.653 1500
4.845 5.421 1.684 1684
5.044 5.644 1.725 1751
5.068 5.670 1.710 2777
5.076 5.680 1.689 3351
5.074 5.677 1.666 2595
5.216 5.837 1.685 2504
5.437 6.083 1.726 3122
5.637 6.307 1.760 2345
5.640 6.310 1.735 3050
5.643 6.314 1.711 2442
5.687 6.364 1.698 2167
5.758 6.443 1.691 3075
5.761 6.446 1.666 3579
5.759 6.443 1.640 3133
5.746 6.429 1.610 2286
5.749 6.432 1.585 1808
6.392 7.152 1.719 1365
6.400 7.161 1.693 1672
6.408 7.170 1.666 2232
6.416 7.179 1.640 2393
6.414 7.177 1.610 1760
6.996 7.828 1.713 1958
7.004 7.837 1.684 1324
7.383 8.261 1.735 1112
7.010 7.844 1.623 987
7.368 8.244 1.666 867
8.119 9.084 1.787 1015
7.604 8.508 1.648 1059
7.832 8.763 1.659 909
8.510 9.522 1.753 868
8.131 9.098 1.645 855
8.129 9.095 1.608 999
8.587 9.608 1.654 899
9.277 10.380 1.735 784
9.296 10.401 1.697 784
9.299 10.404 1.656 929
9.302 10.408 1.616 915
9.304 10.411 1.575 675
9.480 10.608 1.561 341
9.478 10.605 1.518 332
9.480 10.608 1.477 258
2.315 2.590 0.252 297
2.315 2.590 0.242 363
2.315 2.591 0.232 369
2.321 2.597 0.222 335
2.479 2.774 0.185 387
2.480 2.774 0.174 470
2.474 2.769 0.163 492
2.474 2.769 0.153 524
2.474 2.769 0.142 484
2.474 2.769 0.131 425
2.474 2.769 0.121 406
2.480 2.774 0.110 393
2.485 2.780 0.099 385
2.485 2.780 0.088 328
2.479 2.774 0.078 273
2.743 3.069 0.059 255
2.732 3.057 0.048 369
2.700 3.021 0.037 442
2.711 3.033 0.025 827
2.710 3.033 0.013 1217
2.710 3.032 0.001 1515
2.705 3.026 -0.010 1814
2.710 3.032 -0.022 2213
2.709 3.031 -0.034 2614
2.704 3.025 -0.045 2896
2.703 3.025 -0.057 3189
2.703 3.024 -0.068 3163
2.708 3.030 -0.081 3164
2.707 3.029 -0.092 2928
2.702 3.023 -0.103 2700
2.701 3.022 -0.115 2700
2.706 3.028 -0.127 2341
2.705 3.027 -0.139 1989
2.705 3.026 -0.151 1650
2.709 3.032 -0.163 1330
2.709 3.031 -0.175 1010
2.703 3.024 -0.186 704
2.702 3.024 -0.197 492
2.702 3.023 -0.209 281
1.566 1.741 1.801 3514
1.569 1.745 1.795 7029
1.573 1.748 1.788 7029
1.576 1.752 1.781 7831
1.579 1.755 1.774 8633
1.582 1.759 1.768 7219
1.581 1.757 1.756 5876
1.584 1.761 1.750 5876
1.618 1.798 1.774 6078
1.625 1.807 1.772 8997
1.633 1.815 1.770 10371
1.636 1.819 1.763 11772
1.635 1.817 1.751 12256
1.638 1.821 1.744 12909
1.641 1.824 1.737 10460
1.649 1.833 1.735 8258
1.656 1.841 1.732 8540
1.659 1.844 1.725 6414
1.694 1.882 1.748 4650
1.692 1.881 1.736 6139
1.686 1.875 1.721 7799
1.698 1.888 1.722 7417
1.702 1.891 1.715 7191
1.705 1.895 1.707 4886
1.762 1.958 1.750 6496
1.760 1.957 1.739 7796
1.759 1.955 1.727 9161
1.757 1.953 1.715 9749
1.760 1.957 1.708 10615
1.763 1.960 1.700 9896
1.776 1.974 1.701 9654
1.779 1.977 1.693 7426
1.827 2.031 1.726 5389
1.785 1.984 1.678 5977
1.788 1.987 1.670 7198
1.795 1.996 1.667 7784
1.862 2.070 1.714 7554
1.870 2.079 1.710 8416
1.873 2.082 1.702 7520
1.876 2.085 1.694 6624
1.879 2.089 1.686 5077
1.928 2.144 1.717 5579
1.922 2.137 1.701 6956
1.916 2.130 1.685 9212
1.919 2.133 1.677 9286
1.927 2.142 1.672 7511
1.934 2.150 1.668 6331
1.937 2.153 1.660 5865
1.931 2.146 1.644 6125
1.934 2.150 1.636 7324
1.937 2.153 1.627 7087
2.043 2.271 1.699 6872
2.051 2.280 1.694 8143
2.059 2.288 1.689 9647
2.066 2.297 1.684 10048
2.065 2.295 1.671 8642
2.077 2.309 1.670 9254
2.080 2.312 1.661 8578
2.088 2.321 1.655 7299
2.086 2.319 1.643 7542
2.198 2.443 1.714 8289
2.197 2.442 1.701 7300
2.266 2.519 1.739 5633
2.265 2.517 1.726 8194
2.273 2.526 1.720 12986
2.281 2.535 1.713 15746
2.279 2.533 1.700 16160
2.315 2.574 1.714 19131
2.328 2.588 1.710 20033
2.336 2.597 1.704 17788
2.339 2.600 1.693 12456
2.332 2.593 1.677 9576
2.331 2.591 1.664 11467
2.411 2.680 1.705 12041
2.414 2.683 1.694 13243
2.417 2.687 1.684 12203
2.435 2.706 1.683 15811
2.438 2.710 1.673 17741
2.441 2.713 1.662 15008
2.439 2.711 1.649 14538
2.491 2.768 1.668 15265
2.494 2.772 1.658 13242
2.492 2.770 1.644 11342
2.524 2.806 1.651 15024
2.517 2.798 1.634 18530
2.525 2.807 1.626 14386
2.533 2.815 1.619 12185
2.526 2.808 1.602 13386
2.529 2.811 1.591 12779
2.527 2.808 1.577 7243
2.569 2.855 1.589 4144
2.745 3.051 1.676 4503
2.842 3.159 1.717 6760
2.845 3.163 1.705 11126
2.848 3.166 1.693 9605
2.856 3.175 1.683 8648
2.864 3.184 1.674 10305
2.877 3.198 1.667 12069
2.890 3.212 1.660 12284
2.918 3.244 1.660 11993
2.921 3.247 1.648 15781
2.924 3.250 1.635 14307
3.032 3.370 1.677 8585
3.035 3.374 1.663 8287
3.038 3.377 1.650 9854
3.046 3.386 1.640 12074
3.049 3.389 1.627 8350
3.167 3.521 1.670 5633
3.170 3.524 1.656 4538
3.315 3.684 1.710 3847
3.323 3.693 1.698 3058
3.407 3.787 1.722 3738
3.339 3.711 1.674 3148
3.347 3.720 1.662 2813
3.406 3.785 1.673 4189
3.419 3.800 1.663 5098
3.513 3.905 1.689 4794
3.516 3.908 1.674 3278
3.575 3.974 1.683 3131
3.583 3.983 1.670 3788
3.749 4.167 1.724 5338
3.757 4.176 1.710 7818
3.760 4.180 1.694 9760
3.763 4.183 1.677 7913
3.766 4.186 1.661 6833
3.764 4.184 1.643 7575
3.905 4.341 1.681 10286
3.898 4.333 1.660 10317
3.906 4.342 1.646 8967
3.914 4.350 1.631 8230
4.066 4.519 1.670 5833
4.074 4.528 1.655 7701
4.077 4.531 1.637 9956
4.074 4.529 1.617 8076
4.072 4.526 1.598 6062
4.080 4.535 1.582 4388
4.469 4.968 1.701 4007
4.096 4.553 1.550 3272
4.104 4.562 1.534 1967
4.690 5.213 1.714 2055
4.704 5.228 1.697 3224
4.712 5.237 1.679 2749
4.885 5.430 1.714 1737
4.889 5.434 1.693 1961
5.218 5.800 1.774 2367
5.221 5.803 1.752 3135
5.229 5.813 1.731 3348
5.243 5.828 1.711 3588
5.236 5.820 1.685 3997
5.239 5.823 1.663 4202
5.663 6.294 1.761 2837
5.661 6.292 1.735 3580
5.669 6.301 1.712 3090
5.703 6.339 1.696 2953
5.784 6.430 1.692 3068
5.782 6.427 1.666 3571
5.780 6.425 1.640 3072
5.783 6.428 1.614 2101
5.765 6.408 1.584 1690
5.788 6.434 1.564 1337
6.424 7.140 1.693 1418
6.432 7.149 1.666 1955
6.435 7.153 1.638 2069
6.438 7.156 1.610 1519
7.027 7.811 1.715 1771
7.035 7.820 1.685 1213
7.043 7.829 1.656 1031
7.041 7.826 1.624 980
7.395 8.220 1.666 938
8.154 9.063 1.788 955
7.632 8.483 1.648 1026
7.861 8.738 1.659 888
8.536 9.488 1.752 845
8.628 9.591 1.731 827
8.632 9.594 1.694 1027
8.624 9.586 1.655 917
9.553 10.618 1.776 766
9.551 10.616 1.734 763
9.333 10.374 1.656 778
9.336 10.377 1.616 733
9.338 10.380 1.575 561
9.515 10.576 1.561 284
9.513 10.574 1.518 276
2.489 2.766 0.185 261
2.489 2.766 0.174 327
2.489 2.766 0.163 421
2.489 2.766 0.153 515
2.489 2.766 0.142 522
2.489 2.766 0.131 445
2.489 2.766 0.120 361
2.483 2.760 0.110 274
2.753 3.060 0.047 402
2.747 3.054 0.036 524
2.721 3.024 0.025 694
2.715 3.018 0.013 950
2.720 3.024 0.001 1233
2.720 3.023 -0.010 1533
2.720 3.023 -0.022 1953
2.719 3.023 -0.034 2372
2.714 3.016 -0.045 2589
2.713 3.016 -0.057 2819
2.713 3.015 -0.068 2838
2.718 3.021 -0.081 2901
2.717 3.020 -0.092 2721
2.717 3.020 -0.104 2541
2.716 3.019 -0.116 2541
2.716 3.019 -0.127 2251
2.715 3.018 -0.139 1961
2.715 3.017 -0.151 1635
2.719 3.023 -0.163 1341
2.719 3.022 -0.175 1022
2.713 3.015 -0.186 707
2.712 3.015 -0.197 492
2.712 3.014 -0.209 276
1.571 1.736 1.801 3073
1.575 1.740 1.795 6147
1.578 1.743 1.788 6147
1.581 1.747 1.781 6780
1.584 1.750 1.774 7414
1.588 1.754 1.768 6817
1.591 1.758 1.761 6220
1.594 1.761 1.754 6220
1.615 1.784 1.765 6513
1.631 1.802 1.772 9421
1.638 1.810 1.770 10306
1.642 1.814 1.763 11353
1.640 1.812 1.751 11379
1.644 1.816 1.744 11703
1.647 1.819 1.737 9348
1.654 1.828 1.735 7261
1.662 1.836 1.732 7688
1.665 1.839 1.725 5908
1.699 1.877 1.748 4640
1.698 1.876 1.736 5952
1.688 1.865 1.716 7529
1.700 1.878 1.718 6972
1.707 1.886 1.715 6634
1.764 1.949 1.758 5054
1.767 1.953 1.750 6671
1.766 1.951 1.739 7906
1.765 1.950 1.727 9355
1.763 1.948 1.715 10098
1.766 1.952 1.708 11072
1.769 1.955 1.700 10519
1.777 1.963 1.697 10283
1.780 1.967 1.689 8012
1.788 1.975 1.686 5861
1.791 1.978 1.678 6876
1.794 1.982 1.670 8292
1.801 1.990 1.667 8826
1.869 2.065 1.714 7959
1.872 2.068 1.706 9115
1.875 2.071 1.698 8713
1.873 2.070 1.687 8347
1.881 2.078 1.682 6783
1.884 2.081 1.674 5256
1.919 2.121 1.693 7244
1.922 2.124 1.685 10551
1.921 2.122 1.673 11138
1.933 2.136 1.672 8759
1.945 2.149 1.672 7571
1.948 2.153 1.663 6941
1.937 2.141 1.644 7642
1.936 2.139 1.632 9293
1.943 2.147 1.627 8982
2.055 2.270 1.703 6774
2.062 2.279 1.698 8445
2.070 2.287 1.693 10413
2.078 2.296 1.687 11031
2.076 2.294 1.675 9373
2.084 2.302 1.670 9967
2.092 2.311 1.664 8875
2.095 2.314 1.655 7345
2.093 2.312 1.643 7303
2.096 2.316 1.634 7193
2.099 2.319 1.625 6886
2.102 2.322 1.616 5221
2.301 2.542 1.746 6415
2.280 2.519 1.720 10023
2.288 2.528 1.713 12777
2.315 2.558 1.720 13443
2.323 2.567 1.714 19043
2.336 2.581 1.710 19584
2.344 2.590 1.704 17105
2.352 2.598 1.697 12255
2.340 2.586 1.677 9376
2.343 2.589 1.667 10482
2.419 2.673 1.705 12744
2.422 2.676 1.694 14672
2.425 2.680 1.684 12974
2.443 2.699 1.683 15444
2.446 2.702 1.673 17444
2.449 2.706 1.662 16009
2.462 2.720 1.658 16306
2.484 2.745 1.659 16202
2.487 2.748 1.649 14833
2.495 2.757 1.641 13185
2.508 2.771 1.636 16190
2.521 2.785 1.631 19284
2.533 2.799 1.626 13933
2.541 2.808 1.619 11305
2.539 2.805 1.605 12203
2.537 2.803 1.591 11469
2.535 2.801 1.577 6312
2.751 3.040 1.688 4016
2.759 3.048 1.679 4872
2.852 3.151 1.717 5423
2.855 3.154 1.705 8707
2.863 3.163 1.696 7862
2.866 3.166 1.683 7835
2.869 3.170 1.671 9738
2.892 3.195 1.669 11307
2.910 3.215 1.665 12658
2.928 3.235 1.660 12267
2.931 3.238 1.648 14760
2.934 3.241 1.635 13322
3.042 3.361 1.677 8085
3.045 3.364 1.663 7794
3.053 3.373 1.653 9623
3.056 3.377 1.640 12068
3.059 3.380 1.627 8726
3.178 3.511 1.670 6112
3.181 3.515 1.656 4489
3.229 3.568 1.664 4347
3.248 3.588 1.658 3168
3.418 3.776 1.722 3667
3.279 3.623 1.641 3097
3.414 3.772 1.688 2730
3.417 3.775 1.673 4240
3.430 3.790 1.663 4909
3.443 3.804 1.653 4052
3.528 3.898 1.674 2899
3.592 3.969 1.685 3211
3.595 3.972 1.670 3886
3.761 4.156 1.724 6046
3.770 4.165 1.710 8492
3.773 4.168 1.694 10646
3.776 4.172 1.677 8255
3.784 4.181 1.663 6726
3.782 4.178 1.645 7295
3.923 4.335 1.683 10418
3.921 4.332 1.665 9615
3.924 4.335 1.648 9507
3.927 4.339 1.631 9405
3.930 4.342 1.614 5464
4.082 4.510 1.653 6449
4.085 4.513 1.635 9497
4.088 4.517 1.617 8083
4.096 4.526 1.602 6213
4.099 4.529 1.584 4594
4.453 4.920 1.690 4288
4.451 4.918 1.669 3765
4.454 4.921 1.650 2893
4.452 4.919 1.629 2121
4.724 5.220 1.699 3158
4.733 5.229 1.680 2496
4.917 5.433 1.719 2031
4.905 5.419 1.693 2224
5.235 5.784 1.774 3026
5.238 5.788 1.752 4219
5.247 5.797 1.731 4082
5.260 5.812 1.711 4263
5.253 5.804 1.685 5026
5.256 5.807 1.663 5391
5.259 5.810 1.640 3484
5.679 6.275 1.735 3571
5.688 6.284 1.712 3328
5.706 6.305 1.692 3536
5.699 6.297 1.664 2963
5.801 6.410 1.666 3466
5.799 6.407 1.640 2991
5.807 6.416 1.616 2042
5.810 6.419 1.591 1647
5.808 6.417 1.564 1375
6.906 7.631 1.805 1514
6.453 7.130 1.666 1533
6.456 7.133 1.638 1568
7.052 7.792 1.746 1341
7.050 7.790 1.715 1458
7.553 8.345 1.794 1118
7.556 8.348 1.761 1041
7.585 8.381 1.734 1067
7.215 7.971 1.624 1109
7.654 8.457 1.681 1009
7.657 8.461 1.648 1098
7.866 8.691 1.655 937
7.853 8.677 1.618 1041
8.657 9.565 1.731 968
8.660 9.569 1.694 1092
8.653 9.560 1.655 879
9.585 10.590 1.776 743
9.582 10.587 1.734 715
9.364 10.346 1.656 639
9.367 10.349 1.616 575
9.370 10.352 1.575 434
9.618 10.627 1.529 263
2.492 2.753 0.163 256
2.492 2.753 0.153 301
2.497 2.759 0.142 382
2.502 2.765 0.131 470
2.497 2.759 0.120 469
2.502 2.765 0.110 384
2.502 2.765 0.099 299
2.757 3.046 0.047 387
2.746 3.034 0.036 520
2.730 3.016 0.025 644
2.724 3.010 0.013 783
2.729 3.015 0.001 1180
2.734 3.021 -0.011 1581
2.729 3.015 -0.022 1784
2.723 3.008 -0.033 2008
2.723 3.008 -0.045 2236
2.728 3.014 -0.057 2466
2.727 3.013 -0.069 2479
2.727 3.013 -0.081 2491
2.726 3.012 -0.092 2365
2.726 3.012 -0.104 2239
2.725 3.011 -0.116 2239
2.725 3.011 -0.127 2018
2.724 3.010 -0.139 1797
2.729 3.015 -0.151 1509
2.728 3.015 -0.163 1248
2.728 3.014 -0.175 951
2.727 3.013 -0.186 655
2.727 3.012 -0.198 453
2.721 3.006 -0.209 254
6.879 7.601 -0.930 277
1.579 1.729 1.801 2577
1.583 1.732 1.795 5155
1.586 1.736 1.788 5155
1.589 1.740 1.781 5618
1.588 1.738 1.770 6157
1.596 1.747 1.768 6349
1.603 1.755 1.765 6623
1.606 1.758 1.759 6623
1.618 1.772 1.761 7231
1.635 1.789 1.768 9720
1.647 1.803 1.770 10010
1.650 1.806 1.763 10675
1.649 1.805 1.751 10281
1.652 1.808 1.744 10279
1.655 1.812 1.737 8194
1.667 1.825 1.739 6451
1.670 1.828 1.732 7070
1.678 1.837 1.729 5644
1.708 1.869 1.748 4873
1.707 1.868 1.736 5742
1.696 1.857 1.716 7118
1.704 1.865 1.713 6350
1.711 1.873 1.710 5833
1.773 1.941 1.758 5256
1.776 1.945 1.750 6653
1.775 1.943 1.739 7827
1.774 1.941 1.727 9370
1.772 1.940 1.715 10026
1.771 1.938 1.704 10900
1.778 1.947 1.700 10494
1.786 1.955 1.697 10296
1.789 1.958 1.689 8161
1.797 1.967 1.686 6182
1.800 1.970 1.678 7307
1.803 1.973 1.670 8748
1.810 1.982 1.667 9203
1.878 2.056 1.714 8508
1.877 2.054 1.702 10130
1.880 2.058 1.695 10450
1.883 2.061 1.687 10771
1.886 2.064 1.679 8827
1.894 2.073 1.674 7094
1.925 2.107 1.689 7610
1.928 2.110 1.681 11641
1.931 2.113 1.673 12815
1.938 2.122 1.669 10009
1.955 2.140 1.672 8662
1.958 2.144 1.663 8281
1.947 2.132 1.644 9470
1.946 2.130 1.632 11561
1.953 2.138 1.627 10985
1.956 2.141 1.619 8055
2.073 2.269 1.698 8352
2.085 2.283 1.696 10509
2.089 2.286 1.687 11262
2.087 2.284 1.675 9624
2.095 2.293 1.670 10045
2.102 2.301 1.664 8657
2.105 2.305 1.655 6942
2.104 2.303 1.643 6604
2.106 2.306 1.634 6602
2.109 2.309 1.625 6699
2.112 2.312 1.616 5069
2.313 2.532 1.746 4681
2.306 2.525 1.730 6964
2.300 2.517 1.713 9438
2.342 2.563 1.730 12257
2.340 2.561 1.717 17774
2.348 2.570 1.710 17962
2.361 2.584 1.707 15536
2.364 2.587 1.697 11352
2.352 2.575 1.677 8626
2.355 2.578 1.667 9157
2.431 2.662 1.705 12596
2.435 2.665 1.694 14990
2.438 2.668 1.684 12863
2.450 2.682 1.680 14165
2.458 2.691 1.673 16018
2.466 2.700 1.665 15872
2.479 2.714 1.661 17261
2.492 2.728 1.656 16911
2.500 2.736 1.649 15890
2.503 2.740 1.638 14538
2.521 2.759 1.636 17161
2.529 2.768 1.628 19272
2.541 2.782 1.624 12584
2.559 2.801 1.621 9568
2.552 2.794 1.605 10474
2.550 2.791 1.591 9688
2.543 2.784 1.574 5078
2.765 3.027 1.688 4513
2.778 3.041 1.682 5021
2.786 3.050 1.673 5214
2.874 3.146 1.708 6053
2.877 3.150 1.696 5822
2.875 3.147 1.681 6833
2.883 3.156 1.671 8984
2.907 3.182 1.669 10256
2.930 3.207 1.668 12287
2.943 3.221 1.660 11351
2.946 3.224 1.648 12421
2.949 3.228 1.635 11312
3.058 3.347 1.677 7043
3.061 3.350 1.663 6670
3.069 3.359 1.653 8217
3.072 3.362 1.640 10164
3.080 3.371 1.629 7625
3.194 3.496 1.670 5699
3.268 3.578 1.691 4922
3.256 3.564 1.669 5101
3.274 3.584 1.663 4390
3.283 3.593 1.651 4837
3.291 3.602 1.639 4417
3.294 3.605 1.625 3627
3.439 3.765 1.676 3724
3.453 3.779 1.665 4150
3.486 3.816 1.664 3479
3.546 3.881 1.674 2466
3.610 3.952 1.685 3207
3.788 4.146 1.744 3787
3.781 4.138 1.724 6301
3.789 4.147 1.710 8389
3.792 4.151 1.694 9887
3.795 4.154 1.677 7424
3.803 4.163 1.663 6139
3.801 4.161 1.645 6599
3.943 4.316 1.683 9580
3.941 4.314 1.665 8607
3.944 4.317 1.648 9343
3.947 4.320 1.631 9437
3.950 4.324 1.614 4793
4.098 4.485 1.651 5678
4.101 4.489 1.633 8800
4.109 4.498 1.617 7436
4.122 4.512 1.604 5974
4.463 4.885 1.705 5672
4.471 4.894 1.688 5288
4.469 4.891 1.667 4790
4.477 4.900 1.650 3714
4.475 4.898 1.629 2659
4.749 5.198 1.699 2796
4.757 5.207 1.680 2185
4.942 5.410 1.719 2318
4.951 5.419 1.699 2376
5.262 5.760 1.774 3361
5.265 5.763 1.752 4855
5.274 5.773 1.731 4374
5.287 5.787 1.711 4465
5.285 5.785 1.687 5437
5.283 5.783 1.663 5787
5.291 5.792 1.641 3795
5.708 6.249 1.735 3235
5.717 6.258 1.712 3196
5.736 6.278 1.692 3820
5.728 6.270 1.664 3079
5.836 6.388 1.667 3104
5.834 6.386 1.641 2849
5.853 6.406 1.620 2183
5.856 6.410 1.595 1945
6.533 7.151 1.735 1399
6.942 7.598 1.805 1545
6.950 7.608 1.776 1538
6.953 7.611 1.746 1160
6.888 7.540 1.701 1194
7.282 7.971 1.758 1097
7.591 8.309 1.794 1316
7.600 8.319 1.762 1232
7.624 8.345 1.734 1416
7.257 7.943 1.625 1219
7.868 8.613 1.716 1084
7.702 8.431 1.649 1111
7.901 8.648 1.654 1049
7.899 8.646 1.619 1036
8.702 9.525 1.731 1057
8.705 9.528 1.694 1108
8.702 9.526 1.656 764
9.607 10.516 1.772 698
9.632 10.543 1.734 608
9.406 10.296 1.655 477
9.415 10.305 1.616 425
9.598 10.506 1.603 350
2.510 2.747 0.120 283
2.515 2.753 0.110 278
2.515 2.753 0.099 276
2.776 3.039 0.059 268
2.771 3.033 0.047 409
2.765 3.027 0.036 449
2.754 3.015 0.024 601
2.754 3.015 0.013 766
2.748 3.008 0.001 869
2.748 3.008 -0.011 976
2.743 3.002 -0.022 1082
2.742 3.002 -0.034 1206
2.742 3.001 -0.045 1479
2.741 3.001 -0.057 1752
2.741 3.000 -0.069 1836
2.741 3.000 -0.081 1920
2.740 2.999 -0.092 1845
2.740 2.999 -0.104 1769
2.739 2.998 -0.116 1769
2.739 2.998 -0.127 1566
2.738 2.997 -0.139 1363
2.738 2.997 -0.151 1116
2.742 3.002 -0.163 892
2.742 3.001 -0.175 670
2.741 3.000 -0.186 449
2.735 2.994 -0.197 315
6.924 7.580 -0.781 282
6.923 7.578 -0.811 282
6.921 7.575 -0.840 329
6.919 7.573 -0.870 376
6.917 7.571 -0.900 405
6.915 7.569 -0.930 433
1.585 1.724 1.801 2114
1.588 1.728 1.795 4229
1.591 1.731 1.788 4229
1.590 1.730 1.777 4538
1.593 1.733 1.770 4918
1.601 1.742 1.768 5743
1.609 1.750 1.765 6890
1.612 1.753 1.759 6890
1.619 1.762 1.756 7836
1.636 1.780 1.763 9924
1.648 1.793 1.765 9536
1.656 1.801 1.763 9788
1.659 1.805 1.756 9052
1.657 1.803 1.744 8589
1.661 1.807 1.737 6886
1.682 1.829 1.748 5949
1.685 1.833 1.741 6765
1.688 1.836 1.733 5626
1.714 1.864 1.748 5254
1.699 1.848 1.723 5632
1.697 1.847 1.712 6708
1.705 1.855 1.709 5897
1.713 1.863 1.706 5212
1.779 1.936 1.758 5132
1.787 1.944 1.755 6241
1.786 1.943 1.743 7384
1.780 1.936 1.727 9043
1.778 1.934 1.715 9420
1.777 1.933 1.704 10015
1.784 1.941 1.700 9823
1.792 1.950 1.697 9769
1.795 1.953 1.689 7904
1.803 1.961 1.686 6202
1.806 1.965 1.678 7231
1.809 1.968 1.670 8500
1.817 1.976 1.667 8887
1.880 2.045 1.710 9077
1.878 2.043 1.699 11300
1.886 2.052 1.695 12321
1.889 2.055 1.687 13362
1.892 2.058 1.679 11091
1.900 2.067 1.674 9031
1.908 2.075 1.670 8915
1.929 2.099 1.677 12225
1.932 2.102 1.669 14155
1.940 2.111 1.665 11185
1.962 2.134 1.672 9442
1.965 2.138 1.663 9489
1.954 2.126 1.644 11377
1.952 2.124 1.632 13843
1.960 2.132 1.627 12904
1.963 2.135 1.619 9678
2.085 2.268 1.701 7964
2.092 2.276 1.696 10115
2.095 2.280 1.687 10887
2.094 2.278 1.675 9593
2.102 2.286 1.670 9719
2.109 2.295 1.664 7879
2.112 2.298 1.655 5923
2.111 2.296 1.643 5688
2.109 2.294 1.630 5878
2.116 2.302 1.625 6096
2.124 2.311 1.619 4712
2.316 2.519 1.743 2970
2.319 2.523 1.733 4234
2.356 2.563 1.747 6776
2.354 2.561 1.734 11249
2.348 2.554 1.717 15809
2.356 2.563 1.710 15463
2.369 2.577 1.707 13374
2.372 2.580 1.697 10035
2.370 2.578 1.683 7583
2.368 2.576 1.670 7461
2.440 2.654 1.705 11153
2.443 2.657 1.694 13682
2.446 2.661 1.684 11784
2.454 2.669 1.677 12454
2.467 2.683 1.673 13701
2.475 2.692 1.665 14419
2.492 2.711 1.664 16573
2.500 2.720 1.656 16244
2.508 2.729 1.649 15657
2.511 2.732 1.638 14596
2.529 2.751 1.636 17031
2.537 2.760 1.628 18514
2.540 2.763 1.618 11443
2.563 2.788 1.619 7974
2.566 2.791 1.608 8810
2.559 2.783 1.591 7818
2.551 2.776 1.574 3904
2.774 3.018 1.688 4833
2.788 3.032 1.682 4879
2.796 3.041 1.673 5956
2.799 3.045 1.661 4888
2.817 3.064 1.657 4421
2.860 3.111 1.667 6144
2.888 3.142 1.668 8353
2.921 3.178 1.672 9021
2.934 3.192 1.665 10906
2.948 3.207 1.658 9372
2.956 3.215 1.648 9109
2.959 3.219 1.635 8513
2.961 3.222 1.623 5755
3.030 3.297 1.643 6024
3.079 3.350 1.653 5872
3.087 3.358 1.642 7366
3.090 3.362 1.629 5772
3.210 3.492 1.673 4525
3.295 3.584 1.698 6032
3.277 3.565 1.674 5953
3.285 3.574 1.663 5570
3.294 3.583 1.651 5954
3.302 3.592 1.639 5543
3.305 3.595 1.625 4823
3.307 3.598 1.611 3252
3.469 3.774 1.668 3279
3.508 3.817 1.669 3461
3.517 3.826 1.656 2492
3.643 3.963 1.694 3588
3.636 3.955 1.674 3778
3.798 4.132 1.726 5917
3.802 4.136 1.710 7532
3.805 4.139 1.694 8028
3.808 4.142 1.677 6058
3.821 4.157 1.665 5302
3.814 4.149 1.645 5408
3.962 4.310 1.685 7514
3.965 4.313 1.669 6960
3.957 4.305 1.648 8335
3.965 4.314 1.633 8698
3.963 4.311 1.614 4648
4.039 4.394 1.624 5302
4.115 4.476 1.633 7874
4.123 4.485 1.617 6213
4.469 4.862 1.723 6156
4.478 4.871 1.705 6071
4.486 4.880 1.688 5629
4.484 4.878 1.667 5154
4.487 4.881 1.648 4080
4.490 4.884 1.629 2913
4.764 5.183 1.699 2078
4.778 5.198 1.682 1713
4.964 5.401 1.720 2399
4.967 5.404 1.699 2385
5.280 5.744 1.774 3206
5.283 5.747 1.752 4802
5.291 5.756 1.731 4077
5.305 5.771 1.711 4025
5.303 5.769 1.687 5117
5.301 5.766 1.663 5489
5.309 5.775 1.641 3711
5.554 6.042 1.686 2818
5.741 6.246 1.714 2788
5.755 6.261 1.692 3699
5.747 6.253 1.664 2811
5.856 6.371 1.667 2357
5.854 6.368 1.641 2451
5.872 6.388 1.620 2259
5.875 6.392 1.595 2122
6.555 7.131 1.735 1693
6.954 7.566 1.802 1477
6.974 7.586 1.776 1493
6.971 7.584 1.745 1126
6.911 7.518 1.701 1404
7.619 8.288 1.828 1317
7.622 8.292 1.795 1511
7.625 8.295 1.762 1371
7.650 8.322 1.734 1600
7.292 7.933 1.627 1358
8.080 8.791 1.754 1410
8.073 8.783 1.717 1216
8.464 9.208 1.757 1123
7.925 8.622 1.619 926
8.731 9.498 1.731 1061
8.734 9.501 1.694 1028
9.636 10.483 1.813 711
9.639 10.487 1.772 658
9.046 9.841 1.632 559
9.044 9.839 1.592 463
9.617 10.462 1.642 409
9.630 10.477 1.603 352
9.654 10.503 1.564 274
2.780 3.025 0.059 292
2.785 3.030 0.047 379
2.785 3.030 0.035 397
2.780 3.024 0.024 435
2.763 3.006 0.013 512
2.752 2.994 0.001 665
2.747 2.988 -0.010 846
2.746 2.988 -0.022 1001
2.746 2.987 -0.033 1156
2.746 2.987 -0.045 1343
2.745 2.987 -0.057 1530
2.745 2.986 -0.068 1517
2.750 2.992 -0.081 1521
2.749 2.991 -0.092 1392
2.749 2.991 -0.104 1263
2.748 2.990 -0.116 1263
2.748 2.989 -0.127 1113
2.747 2.989 -0.139 963
2.752 2.994 -0.151 826
2.752 2.993 -0.163 693
2.751 2.993 -0.175 530
2.750 2.992 -0.186 368
5.600 6.093 -0.553 267
6.949 7.560 -0.751 296
6.948 7.558 -0.781 355
6.946 7.556 -0.811 355
6.944 7.554 -0.840 421
6.942 7.552 -0.870 487
6.940 7.550 -0.900 531
6.938 7.548 -0.930 576
6.936 7.545 -0.960 288
1.527 1.646 1.731 1750
1.531 1.650 1.725 3501
1.534 1.653 1.719 3501
1.603 1.727 1.781 3545
1.602 1.726 1.770 3817
1.614 1.739 1.772 5326
1.617 1.742 1.765 6925
1.620 1.746 1.759 6925
1.628 1.754 1.756 8239
1.640 1.767 1.759 10081
1.652 1.780 1.761 8972
1.664 1.793 1.763 8727
1.667 1.797 1.756 7779
1.670 1.800 1.749 6831
1.687 1.818 1.755 5909
1.695 1.826 1.752 6224
1.698 1.830 1.745 7057
1.701 1.833 1.738 6200
1.718 1.851 1.744 6088
1.707 1.840 1.723 5936
1.706 1.839 1.712 6578
1.714 1.847 1.709 5780
1.717 1.850 1.702 5086
1.784 1.922 1.754 4759
1.796 1.936 1.755 5482
1.790 1.929 1.739 6722
1.789 1.928 1.727 8493
1.787 1.926 1.715 8299
1.786 1.925 1.704 8211
1.793 1.933 1.700 8438
1.797 1.936 1.693 8728
1.804 1.944 1.689 7281
1.812 1.953 1.686 6023
1.815 1.956 1.678 6646
1.818 1.959 1.670 7430
1.826 1.968 1.667 7743
1.889 2.036 1.710 9833
1.888 2.035 1.699 12774
1.891 2.038 1.691 14587
1.899 2.046 1.687 16549
1.902 2.050 1.679 13969
1.910 2.058 1.674 11540
1.917 2.066 1.670 10822
1.925 2.075 1.666 13366
1.928 2.078 1.658 15877
1.926 2.076 1.646 13948
1.925 2.074 1.634 10797
1.970 2.123 1.660 10462
1.964 2.116 1.644 13226
1.962 2.114 1.632 16062
1.970 2.123 1.627 14660
1.973 2.126 1.619 11110
1.971 2.124 1.607 9068
1.974 2.127 1.599 10041
2.106 2.270 1.687 9878
2.104 2.268 1.675 8775
2.112 2.276 1.670 8613
2.115 2.280 1.661 6603
2.128 2.293 1.659 4694
2.116 2.281 1.639 4436
2.124 2.289 1.634 4395
2.142 2.308 1.635 4734
2.154 2.322 1.633 4347
2.172 2.341 1.634 3705
2.375 2.559 1.764 4927
2.378 2.563 1.754 7713
2.376 2.561 1.740 10838
2.360 2.543 1.717 12851
2.363 2.546 1.707 11937
2.381 2.566 1.707 10214
2.389 2.574 1.700 7870
2.387 2.572 1.687 5782
2.375 2.560 1.667 5557
2.452 2.643 1.705 8385
2.455 2.646 1.694 10583
2.453 2.644 1.681 9507
2.456 2.647 1.671 10139
2.464 2.656 1.663 10842
2.492 2.686 1.668 11754
2.510 2.705 1.667 14454
2.518 2.714 1.659 14167
2.521 2.717 1.649 13833
2.524 2.720 1.638 12930
2.542 2.739 1.636 15425
2.550 2.748 1.628 16549
2.548 2.746 1.615 10368
2.571 2.771 1.616 6934
2.574 2.774 1.605 7495
2.572 2.771 1.591 6065
2.791 3.007 1.703 4000
2.784 3.000 1.685 5113
2.802 3.019 1.682 4941
2.810 3.028 1.673 6608
2.818 3.037 1.664 5657
2.836 3.056 1.660 4633
2.874 3.098 1.667 6403
2.898 3.123 1.666 7389
2.936 3.164 1.672 7677
2.949 3.179 1.665 8878
2.963 3.193 1.658 6528
2.981 3.212 1.653 5756
2.979 3.210 1.638 5386
3.038 3.274 1.653 5507
3.036 3.271 1.638 7450
3.039 3.275 1.625 6377
3.297 3.553 1.737 5100
3.300 3.556 1.723 4395
3.319 3.576 1.717 4664
3.317 3.574 1.700 6641
3.304 3.561 1.679 6565
3.307 3.564 1.665 6321
3.310 3.568 1.651 6510
3.318 3.576 1.639 6153
3.321 3.579 1.625 5478
3.324 3.583 1.611 3582
3.492 3.764 1.670 2726
3.537 3.811 1.673 3355
3.653 3.937 1.707 2709
3.656 3.940 1.692 4867
3.659 3.944 1.676 4918
3.745 4.036 1.696 4891
3.821 4.118 1.710 6066
3.808 4.104 1.687 6513
3.848 4.147 1.686 6101
3.851 4.150 1.669 4697
3.984 4.293 1.704 3843
3.987 4.297 1.688 5476
3.990 4.300 1.671 5222
3.983 4.292 1.650 6438
3.986 4.295 1.633 7236
3.989 4.298 1.616 5530
4.059 4.375 1.624 4977
4.135 4.457 1.633 6190
4.144 4.466 1.617 4437
4.492 4.841 1.723 5476
4.500 4.850 1.705 5333
4.509 4.859 1.688 4874
4.507 4.857 1.667 4552
4.510 4.860 1.648 3693
4.513 4.863 1.629 2575
4.689 5.053 1.666 1470
4.986 5.374 1.742 1700
4.990 5.377 1.720 1993
4.998 5.386 1.701 1933
5.307 5.719 1.774 2519
5.310 5.722 1.752 3911
5.318 5.732 1.731 3144
5.564 5.997 1.780 3116
5.330 5.744 1.687 3866
5.328 5.742 1.663 4241
5.331 5.745 1.640 3039
5.582 6.016 1.686 2353
5.792 6.242 1.719 2258
5.784 6.234 1.692 3122
5.782 6.231 1.666 2105
5.886 6.343 1.667 1547
6.255 6.741 1.736 2175
6.258 6.744 1.710 2536
6.277 6.765 1.687 2084
6.588 7.100 1.735 1697
6.979 7.521 1.800 1393
7.014 7.559 1.777 1302
6.815 7.345 1.701 1309
6.952 7.492 1.702 1490
7.663 8.258 1.829 1489
7.661 8.256 1.795 1657
7.669 8.265 1.764 1468
7.689 8.286 1.734 1649
7.334 7.904 1.628 1461
8.116 8.747 1.753 1726
8.119 8.750 1.718 1446
7.962 8.581 1.653 1199
8.505 9.166 1.719 929
8.775 9.457 1.731 891
8.768 9.449 1.692 860
9.680 10.432 1.812 732
8.929 9.623 1.643 635
9.092 9.799 1.632 611
9.090 9.796 1.592 467
9.757 10.515 1.657 423
9.754 10.512 1.614 413
9.709 10.463 1.565 317
2.227 2.400 0.292 252
2.227 2.400 0.283 330
2.228 2.401 0.273 402
2.228 2.401 0.264 505
2.228 2.401 0.254 537
2.228 2.401 0.245 508
2.228 2.402 0.236 417
2.223 2.396 0.226 360
2.229 2.402 0.217 285
2.794 3.011 0.059 253
2.800 3.017 0.047 334
2.794 3.011 0.036 351
2.772 2.988 0.025 447
2.767 2.982 0.013 578
2.766 2.981 0.001 601
2.761 2.975 -0.010 637
2.766 2.981 -0.022 701
2.771 2.986 -0.034 784
2.765 2.980 -0.045 857
2.765 2.979 -0.057 935
2.764 2.979 -0.069 957
2.764 2.979 -0.081 979
2.763 2.978 -0.092 1005
2.763 2.978 -0.104 1031
2.762 2.977 -0.116 1031
2.762 2.977 -0.127 917
2.761 2.976 -0.139 803
2.766 2.981 -0.151 631
2.766 2.980 -0.163 467
2.765 2.980 -0.175 336
6.981 7.524 -0.720 257
6.979 7.522 -0.750 304
6.978 7.520 -0.780 350
6.976 7.518 -0.810 350
6.979 7.522 -0.840 408
6.977 7.519 -0.870 468
6.975 7.517 -0.900 518
6.973 7.515 -0.930 567
6.971 7.513 -0.960 283
1.533 1.641 1.731 2111
1.536 1.644 1.725 4222
1.540 1.648 1.719 4222
1.613 1.726 1.786 3159
1.603 1.716 1.765 3123
1.624 1.738 1.777 4826
1.627 1.741 1.770 6620
1.631 1.745 1.763 6620
1.634 1.748 1.756 8106
1.642 1.757 1.754 9829
1.649 1.765 1.752 8476
1.670 1.787 1.763 7582
1.683 1.800 1.764 6843
1.690 1.809 1.762 6608
1.698 1.817 1.759 6279
1.706 1.825 1.756 6860
1.704 1.824 1.745 7634
1.712 1.832 1.742 7128
1.720 1.840 1.739 7134
1.718 1.839 1.728 6604
1.713 1.833 1.712 6734
1.720 1.841 1.709 5984
1.723 1.844 1.702 5306
1.781 1.906 1.745 4479
1.762 1.885 1.717 4826
1.788 1.913 1.730 6175
1.791 1.916 1.723 7771
1.794 1.920 1.715 6966
1.802 1.928 1.712 6176
1.800 1.926 1.700 6776
1.803 1.930 1.693 7390
1.806 1.933 1.685 6472
1.819 1.946 1.686 5614
1.822 1.950 1.678 5686
1.830 1.958 1.674 5832
1.898 2.031 1.722 6509
1.897 2.030 1.710 10388
1.895 2.028 1.699 13694
1.898 2.031 1.691 16320
1.906 2.039 1.687 19185
1.909 2.043 1.679 16487
1.917 2.051 1.674 13869
1.920 2.054 1.666 12400
1.928 2.063 1.662 14657
1.931 2.066 1.654 17900
1.929 2.064 1.642 16543
1.932 2.067 1.634 13203
1.968 2.106 1.652 10670
1.971 2.109 1.644 14167
1.969 2.107 1.632 17224
1.977 2.116 1.627 15363
1.980 2.119 1.619 11648
1.978 2.117 1.607 9891
1.981 2.120 1.599 10831
1.989 2.128 1.594 8809
2.112 2.260 1.675 7678
2.116 2.264 1.666 7028
2.123 2.272 1.661 4738
2.170 2.322 1.683 3810
2.173 2.325 1.674 3702
2.234 2.391 1.707 4147
2.238 2.394 1.697 4599
2.172 2.325 1.640 4155
2.371 2.537 1.767 5041
2.379 2.545 1.760 7024
2.382 2.549 1.750 9178
2.390 2.558 1.744 10902
2.369 2.535 1.717 9589
2.372 2.538 1.707 8232
2.395 2.562 1.710 7081
2.408 2.576 1.707 5903
2.426 2.595 1.706 4586
2.394 2.562 1.673 4486
2.461 2.634 1.705 5334
2.460 2.632 1.691 7089
2.453 2.625 1.675 7413
2.456 2.628 1.664 8511
2.469 2.642 1.660 8191
2.472 2.645 1.650 9045
2.525 2.702 1.670 11964
2.528 2.705 1.659 11519
2.531 2.708 1.649 11109
2.539 2.717 1.641 10300
2.557 2.736 1.639 12663
2.560 2.739 1.628 13498
2.558 2.737 1.615 8917
2.576 2.756 1.613 6532
2.579 2.759 1.602 6603
2.576 2.757 1.588 5012
2.761 2.954 1.680 4327
2.794 2.990 1.685 5172
2.802 2.999 1.676 5211
2.821 3.018 1.673 7027
2.829 3.027 1.664 6104
2.852 3.052 1.663 4835
2.880 3.082 1.664 6316
2.909 3.113 1.666 6382
2.942 3.148 1.669 6434
2.956 3.163 1.662 6777
2.964 3.171 1.652 4695
2.997 3.207 1.656 4317
3.046 3.260 1.666 4539
3.044 3.257 1.651 6147
3.042 3.255 1.635 9347
3.214 3.439 1.706 8622
3.217 3.443 1.692 6244
3.210 3.435 1.674 5131
3.218 3.444 1.663 5715
3.329 3.562 1.700 6078
3.322 3.555 1.681 6247
3.320 3.553 1.665 6008
3.323 3.556 1.651 5814
3.331 3.565 1.639 5366
3.334 3.568 1.625 4758
3.337 3.571 1.611 3035
3.578 3.829 1.702 2752
3.560 3.810 1.678 3127
3.657 3.913 1.703 4430
3.660 3.916 1.687 6945
3.668 3.925 1.674 6851
3.754 4.017 1.693 5471
3.773 4.037 1.684 5169
3.797 4.063 1.676 7614
3.805 4.072 1.663 7056
3.871 4.142 1.671 5510
3.874 4.145 1.655 4219
4.002 4.283 1.688 5071
4.005 4.286 1.671 4795
3.998 4.278 1.650 4575
4.001 4.281 1.633 5442
4.004 4.284 1.616 5806
4.007 4.287 1.599 4432
4.162 4.453 1.637 4112
4.359 4.664 1.689 4171
4.362 4.668 1.671 4181
4.365 4.671 1.652 4579
4.373 4.680 1.635 4144
4.524 4.841 1.667 3218
4.527 4.844 1.648 2706
4.530 4.847 1.629 1878
5.007 5.358 1.765 1321
4.968 5.317 1.730 1965
4.961 5.309 1.705 2092
5.022 5.374 1.702 1562
5.010 5.361 1.676 1860
5.330 5.704 1.752 2549
5.233 5.599 1.699 2013
5.591 5.982 1.782 2624
5.589 5.980 1.756 3371
5.592 5.984 1.733 2630
5.797 6.203 1.766 1983
5.598 5.990 1.685 1512
5.824 6.232 1.722 1973
5.812 6.219 1.693 2397
5.926 6.342 1.698 1919
5.924 6.339 1.671 1533
6.279 6.718 1.736 2217
6.287 6.728 1.711 2744
6.301 6.742 1.687 2519
6.592 7.054 1.730 1505
7.000 7.491 1.798 1435
6.993 7.483 1.766 1315
6.841 7.321 1.701 1441
6.978 7.467 1.702 1377
7.692 8.231 1.829 1546
7.690 8.229 1.795 1635
7.699 8.238 1.764 1384
7.365 7.881 1.661 1628
7.368 7.884 1.629 1468
8.147 8.718 1.753 1887
8.145 8.716 1.717 1587
8.132 8.702 1.679 1134
8.537 9.136 1.719 960
8.540 9.139 1.683 884
9.729 10.411 1.857 855
9.727 10.409 1.814 723
8.963 9.591 1.643 772
9.127 9.766 1.632 599
9.694 10.373 1.683 425
9.788 10.474 1.656 444
9.786 10.472 1.613 449
9.778 10.463 1.570 363
2.237 2.394 0.236 284
2.232 2.388 0.226 320
2.237 2.394 0.217 340
2.243 2.400 0.208 383
2.243 2.400 0.198 386
2.249 2.406 0.189 350
