5.472 5.071 1.702 3380
5.470 5.069 1.679 4342
5.473 5.072 1.658 4045
5.903 5.471 1.753 4393
5.907 5.474 1.730 4776
5.910 5.477 1.707 4035
5.925 5.491 1.686 4431
6.008 5.568 1.684 4396
6.017 5.576 1.661 2908
6.032 5.590 1.640 2322
6.029 5.587 1.615 2564
6.026 5.585 1.590 1652
6.939 6.431 1.783 1224
6.943 6.434 1.755 1498
6.969 6.458 1.733 1218
7.694 7.130 1.868 1592
7.703 7.139 1.839 1428
7.713 7.148 1.810 1384
8.009 7.422 1.842 1884
8.013 7.426 1.810 1888
8.016 7.429 1.778 1387
7.198 6.671 1.581 1252
7.201 6.674 1.553 1481
8.952 8.296 1.862 1280
8.933 8.278 1.822 1365
9.523 8.825 1.895 1623
9.521 8.824 1.856 2038
9.525 8.827 1.819 2223
9.534 8.836 1.782 2642
9.537 8.839 1.744 3442
9.535 8.837 1.705 4024
9.533 8.834 1.667 3594
9.542 8.843 1.630 2559
9.550 8.851 1.593 2026
9.548 8.848 1.554 1126
9.539 8.840 1.515 575
9.375 8.688 1.453 456
10.088 9.349 1.513 431
10.062 9.325 1.469 601
10.059 9.322 1.429 755
10.068 9.330 1.389 880
10.070 9.333 1.350 855
10.079 9.340 1.310 662
9.433 8.742 1.197 1125
9.435 8.744 1.160 1382
9.437 8.746 1.122 1459
9.439 8.748 1.085 1624
9.441 8.750 1.048 1698
9.437 8.746 1.010 1706
9.439 8.748 0.972 1387
9.441 8.749 0.935 841
9.547 8.848 0.906 995
9.554 8.854 0.868 1082
9.556 8.856 0.830 1309
9.552 8.852 0.792 1340
9.553 8.853 0.754 1247
9.554 8.854 0.716 1059
9.555 8.855 0.679 694
9.556 8.856 0.641 518
9.558 8.857 0.603 375
9.297 8.616 0.553 347
9.298 8.617 0.516 330
9.293 8.612 0.479 264
2.252 2.087 0.212 342
2.253 2.088 0.203 385
2.723 2.524 0.206 499
2.723 2.524 0.195 653
2.723 2.524 0.185 967
2.723 2.524 0.174 1127
2.723 2.524 0.163 1240
2.718 2.519 0.153 1366
2.723 2.524 0.142 1452
2.723 2.524 0.131 1635
2.723 2.524 0.121 1718
2.723 2.524 0.110 1682
2.729 2.529 0.099 1669
2.729 2.529 0.088 1492
2.723 2.524 0.078 1322
2.729 2.529 0.067 1079
2.729 2.529 0.056 844
2.728 2.529 0.046 640
2.728 2.528 0.035 437
3.250 3.012 0.002 390
3.250 3.012 -0.011 401
3.250 3.012 -0.024 411
3.249 3.011 -0.037 410
3.249 3.011 -0.049 409
3.243 3.005 -0.062 370
2.622 2.430 -0.033 423
2.621 2.429 -0.043 536
2.621 2.429 -0.054 565
2.626 2.434 -0.064 601
2.626 2.433 -0.075 534
2.625 2.433 -0.085 468
2.631 2.438 -0.096 433
2.636 2.443 -0.107 416
1.211 1.122 0.024 521
1.216 1.127 0.019 819
1.216 1.127 0.014 1111
1.216 1.127 0.009 1398
1.215 1.126 0.005 1686
1.215 1.126 -0.000 1851
1.209 1.120 -0.004 2033
1.209 1.120 -0.009 2044
1.208 1.120 -0.013 2055
2.780 2.576 -0.230 2691
2.779 2.575 -0.241 3408
2.778 2.575 -0.252 4059
2.777 2.574 -0.263 4709
2.776 2.573 -0.274 4709
2.775 2.572 -0.285 2354
1.217 1.128 -0.048 473
1.644 1.511 1.722 6269
1.648 1.514 1.716 12538
1.651 1.517 1.709 12538
1.654 1.520 1.703 9531
1.734 1.593 1.770 7360
1.737 1.596 1.763 7146
1.745 1.604 1.761 6949
1.749 1.607 1.754 6949
1.743 1.602 1.738 6204
1.737 1.596 1.723 5912
1.745 1.603 1.720 4757
1.753 1.611 1.718 3719
1.810 1.663 1.760 2875
1.799 1.653 1.740 2456
1.802 1.656 1.733 2123
1.820 1.672 1.739 1960
1.823 1.676 1.732 2227
1.856 1.706 1.751 4909
1.860 1.709 1.744 8052
1.868 1.716 1.741 11675
1.871 1.720 1.733 15425
1.875 1.723 1.726 14914
1.878 1.726 1.719 14404
1.882 1.729 1.712 10610
1.875 1.723 1.696 7075
1.883 1.731 1.693 7974
1.887 1.734 1.685 8893
1.900 1.746 1.686 9992
1.908 1.754 1.683 11533
1.912 1.757 1.676 8838
1.935 1.778 1.685 6822
1.923 1.767 1.665 5704
1.926 1.770 1.657 5168
1.955 1.796 1.670 4626
2.018 1.855 1.710 5817
2.027 1.863 1.706 6385
2.030 1.866 1.699 7458
2.028 1.864 1.687 8066
2.042 1.876 1.687 9802
2.071 1.903 1.698 12948
2.079 1.911 1.694 13760
2.082 1.914 1.686 14815
2.086 1.917 1.678 11826
2.084 1.915 1.666 7860
2.097 1.927 1.665 7010
2.096 1.926 1.653 8910
2.094 1.924 1.642 12700
2.092 1.922 1.630 14370
2.095 1.925 1.622 14472
2.098 1.928 1.613 14596
2.106 1.936 1.609 13812
2.110 1.939 1.601 11558
2.108 1.937 1.589 10053
2.111 1.940 1.581 8043
2.342 2.152 1.730 5577
2.356 2.165 1.728 8067
2.365 2.173 1.723 10584
2.373 2.181 1.717 8549
2.382 2.189 1.711 6260
2.385 2.192 1.702 5511
2.478 2.277 1.752 5841
2.481 2.280 1.742 8621
2.485 2.283 1.732 9229
2.493 2.291 1.726 7639
2.497 2.294 1.716 6704
2.505 2.302 1.710 8511
2.514 2.310 1.704 11932
2.523 2.318 1.697 18469
2.526 2.321 1.687 19623
2.535 2.329 1.681 18650
2.538 2.332 1.671 15251
2.541 2.335 1.661 9833
2.545 2.338 1.651 8431
2.553 2.346 1.644 11690
2.556 2.349 1.634 14325
2.565 2.357 1.627 12819
2.568 2.360 1.617 9593
2.577 2.368 1.610 6132
2.585 2.376 1.603 4467
2.588 2.378 1.593 6519
2.591 2.381 1.583 7934
2.594 2.384 1.573 6922
2.592 2.382 1.560 6595
2.595 2.385 1.550 9620
2.604 2.393 1.543 11345
2.607 2.395 1.532 8812
2.610 2.398 1.522 9586
2.596 2.386 1.503 14386
2.594 2.384 1.490 15127
2.597 2.386 1.480 12805
2.605 2.394 1.473 13033
2.613 2.401 1.466 11068
2.627 2.414 1.461 13704
2.635 2.422 1.453 18878
2.649 2.434 1.449 17680
2.652 2.437 1.438 11373
2.616 2.404 1.409 7009
2.619 2.407 1.399 6241
2.611 2.399 1.383 6376
2.597 2.386 1.365 6908
2.600 2.389 1.355 5789
2.613 2.401 1.350 5928
2.610 2.399 1.337 6716
2.613 2.401 1.327 4802
3.240 2.977 1.602 4020
3.248 2.985 1.592 4223
3.246 2.983 1.577 3874
2.628 2.415 1.289 3840
3.374 3.100 1.605 2939
3.366 3.093 1.587 4152
3.369 3.096 1.574 4401
3.367 3.094 1.558 3934
3.370 3.096 1.545 3370
3.662 3.365 1.653 2725
3.666 3.368 1.639 2340
3.892 3.577 1.716 1923
4.091 3.759 1.779 1974
3.876 3.562 1.676 2300
4.092 3.761 1.745 3133
4.113 3.779 1.736 3175
4.127 3.793 1.724 2226
4.209 3.868 1.738 3239
4.218 3.876 1.723 4720
4.233 3.890 1.711 4802
4.242 3.898 1.696 4887
4.245 3.901 1.680 5780
4.288 3.940 1.677 8446
4.263 3.917 1.650 9138
4.402 4.045 1.682 9470
4.405 4.048 1.664 13257
4.414 4.056 1.649 12915
4.417 4.059 1.632 9666
4.415 4.057 1.612 9442
4.423 4.065 1.597 8802
4.579 4.208 1.630 7579
4.583 4.211 1.612 4731
4.938 4.537 1.706 3579
4.947 4.546 1.688 5541
4.956 4.554 1.671 5638
4.976 4.573 1.657 3664
4.962 4.560 1.632 2841
4.960 4.558 1.611 2996
5.487 5.042 1.746 3610
5.507 5.061 1.729 4907
5.511 5.064 1.707 4408
5.497 5.051 1.681 4319
5.500 5.054 1.659 3780
5.515 5.068 1.641 2539
6.021 5.533 1.755 3656
6.030 5.542 1.733 3240
6.034 5.545 1.709 3370
6.037 5.548 1.685 3905
6.040 5.551 1.661 2963
6.049 5.559 1.639 2573
6.053 5.562 1.615 2583
6.050 5.560 1.590 1729
6.960 6.396 1.781 1587
6.970 6.405 1.755 1918
6.996 6.429 1.733 1391
7.264 6.675 1.765 1588
7.256 6.668 1.734 1299
7.743 7.115 1.810 1244
8.046 7.394 1.843 1789
8.044 7.392 1.810 1809
8.047 7.395 1.778 1511
8.051 7.398 1.747 1319
9.531 8.758 2.005 1069
9.541 8.767 1.969 1676
9.545 8.771 1.931 1952
9.560 8.785 1.895 1975
9.564 8.789 1.858 2111
9.562 8.787 1.819 2213
9.571 8.795 1.782 2799
9.575 8.798 1.744 3973
9.572 8.796 1.705 4879
9.576 8.799 1.668 4493
9.579 8.802 1.630 3360
9.582 8.805 1.592 2544
9.579 8.803 1.553 1422
9.576 8.800 1.515 895
9.579 8.803 1.477 663
10.133 9.312 1.514 522
10.142 9.320 1.475 564
9.605 8.826 1.365 629
9.619 8.839 1.329 807
10.109 9.290 1.350 893
10.124 9.303 1.311 899
9.470 8.702 1.197 1682
9.472 8.704 1.160 2198
9.474 8.706 1.122 2740
9.476 8.708 1.085 3524
9.478 8.710 1.048 3638
9.474 8.706 1.010 3576
9.476 8.708 0.972 3281
9.484 8.715 0.935 2665
9.485 8.716 0.898 2319
9.586 8.809 0.868 2416
9.587 8.810 0.830 2403
9.595 8.817 0.793 2079
9.596 8.818 0.755 1870
9.597 8.819 0.717 1569
9.598 8.820 0.679 1071
9.343 8.586 0.628 942
9.344 8.587 0.591 824
9.357 8.598 0.554 723
9.352 8.594 0.517 852
9.347 8.589 0.480 889
9.342 8.584 0.443 799
2.739 2.517 0.217 588
2.734 2.512 0.206 824
2.740 2.517 0.195 1143
2.740 2.518 0.185 1787
2.734 2.512 0.174 2125
2.734 2.512 0.163 2358
2.734 2.512 0.153 2592
2.734 2.512 0.142 2696
2.734 2.512 0.131 2788
2.734 2.512 0.121 2777
2.740 2.518 0.110 2527
2.740 2.518 0.099 2311
2.740 2.518 0.088 1956
2.734 2.512 0.078 1620
2.739 2.517 0.067 1296
2.739 2.517 0.056 992
2.739 2.517 0.046 756
2.733 2.511 0.035 527
2.733 2.511 0.024 372
3.263 2.998 -0.011 333
3.268 3.003 -0.024 330
3.262 2.997 -0.037 358
3.262 2.997 -0.049 390
3.255 2.991 -0.062 368
3.255 2.991 -0.075 356
3.260 2.996 -0.088 284
2.643 2.428 -0.054 253
2.642 2.428 -0.065 388
2.642 2.428 -0.075 448
2.641 2.427 -0.085 508
2.641 2.427 -0.096 418
3.658 3.361 -0.202 369
3.657 3.361 -0.217 538
1.215 1.117 0.019 632
1.209 1.111 0.015 893
1.209 1.111 0.011 1197
1.214 1.116 0.005 1505
3.653 3.357 -0.288 1747
3.652 3.356 -0.303 1945
3.651 3.355 -0.317 2144
3.650 3.354 -0.331 2170
3.649 3.353 -0.345 2197
2.790 2.564 -0.241 2756
2.789 2.563 -0.252 3384
2.788 2.562 -0.263 4012
2.787 2.561 -0.274 4012
2.786 2.560 -0.285 2006
1.205 1.107 -0.045 370
1.650 1.504 1.722 5670
1.654 1.507 1.716 11340
1.657 1.510 1.709 11340
1.660 1.513 1.703 8542
1.740 1.586 1.770 7466
1.744 1.589 1.763 7413
1.752 1.597 1.761 7422
1.755 1.600 1.754 7422
1.749 1.595 1.738 6674
1.743 1.589 1.723 6515
1.746 1.592 1.716 5073
1.755 1.599 1.714 3664
1.816 1.656 1.760 3267
1.825 1.663 1.757 3060
1.818 1.658 1.742 2921
1.822 1.661 1.735 3009
1.830 1.668 1.732 3230
1.858 1.694 1.746 4859
1.866 1.701 1.744 7284
1.875 1.709 1.741 10238
1.878 1.712 1.733 13365
1.882 1.715 1.726 13016
1.885 1.718 1.719 12667
1.889 1.721 1.712 9458
1.887 1.720 1.700 6439
1.885 1.719 1.689 8462
1.889 1.722 1.681 10511
1.897 1.729 1.678 11606
1.905 1.737 1.675 13013
1.909 1.740 1.667 9698
1.942 1.770 1.685 7244
1.920 1.750 1.657 5941
1.923 1.753 1.649 5381
1.962 1.788 1.670 4145
2.031 1.851 1.714 5421
2.034 1.854 1.706 6736
2.038 1.857 1.699 9199
2.036 1.856 1.687 10553
2.044 1.864 1.683 11347
2.078 1.894 1.698 13393
2.087 1.902 1.694 14522
2.090 1.905 1.686 15735
2.093 1.908 1.678 12825
2.097 1.911 1.670 8755
2.105 1.919 1.665 7760
2.103 1.917 1.653 9598
2.101 1.915 1.642 12947
2.099 1.914 1.630 13828
2.103 1.917 1.622 14028
2.106 1.920 1.613 14644
2.114 1.927 1.609 14354
2.117 1.930 1.601 12548
2.115 1.928 1.589 10928
2.118 1.931 1.581 8596
2.367 2.157 1.741 5268
2.370 2.160 1.732 7914
2.379 2.168 1.726 10996
2.382 2.171 1.717 9501
2.391 2.179 1.711 7555
2.394 2.182 1.702 6087
2.413 2.200 1.703 4662
2.490 2.270 1.742 6843
2.494 2.273 1.732 8383
2.481 2.262 1.712 8381
2.501 2.279 1.713 6388
2.515 2.292 1.710 7252
2.523 2.300 1.704 9193
2.532 2.308 1.697 13371
2.535 2.311 1.687 15121
2.544 2.319 1.681 15056
2.547 2.322 1.671 12781
2.545 2.320 1.658 9512
2.543 2.318 1.644 7459
2.552 2.326 1.638 7862
2.560 2.334 1.631 10064
2.569 2.342 1.624 9516
2.578 2.350 1.617 7004
2.548 2.323 1.589 4354
2.546 2.321 1.576 4939
2.555 2.329 1.569 5009
2.558 2.331 1.559 5048
2.561 2.334 1.549 5834
2.564 2.337 1.539 8831
2.567 2.340 1.529 10860
2.570 2.342 1.519 10021
2.573 2.345 1.509 9481
2.587 2.358 1.505 9579
2.595 2.365 1.498 14262
2.598 2.368 1.488 16552
2.606 2.376 1.480 13842
2.615 2.383 1.473 15019
2.612 2.381 1.460 13376
2.631 2.398 1.458 13060
2.640 2.406 1.451 16251
2.648 2.414 1.443 13847
2.651 2.416 1.433 9327
2.637 2.404 1.414 6823
2.640 2.406 1.404 6227
2.609 2.379 1.378 7005
2.601 2.371 1.363 7026
2.598 2.368 1.350 5122
2.628 2.396 1.353 5053
2.625 2.393 1.340 6144
2.628 2.396 1.330 5008
2.664 2.428 1.335 3812
2.666 2.430 1.324 3411
2.636 2.402 1.299 4709
2.638 2.405 1.289 4339
2.646 2.412 1.281 2648
3.601 3.283 1.684 2798
3.605 3.286 1.670 3196
3.636 3.314 1.667 2899
3.656 3.332 1.660 2333
3.681 3.356 1.655 1889
3.920 3.573 1.738 1971
3.884 3.540 1.706 2257
3.887 3.544 1.691 2627
3.891 3.547 1.676 2419
4.107 3.744 1.745 3498
4.128 3.763 1.736 2938
4.159 3.791 1.730 2420
4.163 3.794 1.714 3210
4.251 3.875 1.730 3948
4.254 3.878 1.713 4545
4.297 3.917 1.711 4550
4.306 3.925 1.696 6062
4.309 3.928 1.679 9104
4.307 3.926 1.660 9988
4.423 4.032 1.684 11040
4.421 4.030 1.664 14972
4.430 4.038 1.649 15861
4.433 4.041 1.632 12637
4.431 4.039 1.612 12358
4.440 4.047 1.597 11743
4.596 4.190 1.630 8829
4.600 4.193 1.612 5216
4.956 4.517 1.706 4006
4.965 4.526 1.688 6060
4.974 4.534 1.671 6598
5.000 4.558 1.658 4268
4.998 4.555 1.637 3119
4.984 4.543 1.612 3305
5.524 5.035 1.751 3569
5.528 5.039 1.729 5752
5.525 5.037 1.706 5087
5.683 5.181 1.728 5148
5.692 5.189 1.707 4509
5.707 5.202 1.688 3901
5.699 5.195 1.662 3419
5.915 5.392 1.696 2524
6.056 5.520 1.709 2540
6.059 5.523 1.685 2773
6.063 5.526 1.661 2504
6.072 5.535 1.639 2363
6.075 5.538 1.615 2111
6.648 6.060 1.728 1555
6.646 6.058 1.701 1822
6.995 6.377 1.755 1935
7.016 6.395 1.732 1356
7.285 6.641 1.763 1311
7.283 6.638 1.734 1177
7.771 7.084 1.810 946
8.076 7.361 1.843 1610
8.073 7.359 1.810 1645
8.071 7.357 1.777 1492
8.075 7.360 1.745 1258
9.566 8.720 2.005 1269
9.576 8.729 1.969 1893
9.580 8.733 1.931 2146
9.590 8.741 1.894 1769
9.605 8.755 1.859 1702
9.603 8.753 1.820 1823
9.612 8.762 1.783 2577
9.610 8.760 1.744 4000
9.608 8.758 1.705 4958
9.611 8.761 1.668 4609
9.614 8.764 1.630 3637
9.617 8.767 1.592 2771
9.620 8.769 1.554 1659
9.612 8.761 1.515 1153
9.621 8.769 1.478 1043
9.623 8.772 1.440 710
10.174 9.274 1.474 528
9.640 8.788 1.365 758
9.649 8.795 1.328 947
10.153 9.254 1.350 986
10.161 9.262 1.311 891
9.516 8.674 1.199 847
9.519 8.676 1.161 1144
9.515 8.673 1.123 1123
9.517 8.675 1.086 1074
9.525 8.682 1.049 853
9.620 8.769 1.020 812
9.622 8.771 0.982 988
9.624 8.772 0.944 1245
9.625 8.774 0.906 1326
9.627 8.775 0.868 1477
9.629 8.777 0.830 1656
9.630 8.778 0.793 1690
9.626 8.774 0.754 1723
9.627 8.775 0.716 1600
9.628 8.776 0.679 1363
9.629 8.777 0.641 1248
9.630 8.778 0.603 1110
9.631 8.779 0.565 971
9.632 8.780 0.527 787
9.633 8.781 0.489 448
9.370 8.541 0.443 398
2.978 2.714 0.223 454
2.978 2.714 0.212 559
2.744 2.501 0.195 647
2.744 2.501 0.185 1055
2.744 2.501 0.174 1289
2.744 2.501 0.163 1557
2.744 2.501 0.153 1826
2.744 2.501 0.142 2081
2.744 2.501 0.131 2490
2.744 2.501 0.121 2644
2.750 2.507 0.110 2566
2.750 2.507 0.099 2522
2.750 2.506 0.088 2242
2.744 2.501 0.078 1991
2.744 2.501 0.067 1649
2.749 2.506 0.056 1326
2.749 2.506 0.046 1046
2.743 2.500 0.035 774
2.743 2.500 0.024 582
2.743 2.500 0.014 389
2.871 2.617 -0.003 316
2.636 2.403 -0.033 269
2.635 2.402 -0.043 329
2.635 2.402 -0.053 348
2.635 2.401 -0.063 367
2.634 2.401 -0.074 318
2.639 2.406 -0.084 270
3.065 2.794 -0.133 266
3.070 2.799 -0.146 267
2.644 2.410 -0.116 296
2.649 2.415 -0.127 366
1.208 1.101 0.016 485
1.207 1.101 0.011 718
1.207 1.100 0.007 951
1.207 1.100 0.002 1124
1.207 1.100 -0.003 1296
1.206 1.100 -0.007 1291
1.200 1.094 -0.011 1300
1.200 1.094 -0.016 1310
2.806 2.558 -0.242 1641
2.805 2.557 -0.253 2046
2.798 2.551 -0.263 2452
2.798 2.550 -0.274 2452
2.797 2.549 -0.285 1226
1.656 1.498 1.722 4702
1.659 1.501 1.716 9405
1.662 1.504 1.709 9405
1.666 1.507 1.703 7034
1.741 1.575 1.765 7599
1.749 1.583 1.763 7388
1.758 1.591 1.761 7451
1.761 1.594 1.754 7451
1.755 1.588 1.738 6540
1.749 1.582 1.723 6380
1.752 1.586 1.716 4900
1.819 1.646 1.767 3602
1.822 1.649 1.760 3640
1.831 1.657 1.757 3718
1.824 1.651 1.742 3794
1.823 1.650 1.730 4175
1.831 1.657 1.727 4308
1.854 1.678 1.738 4855
1.873 1.695 1.744 6579
1.881 1.702 1.741 8941
1.884 1.705 1.733 11442
1.888 1.708 1.726 11405
1.891 1.711 1.719 11368
1.895 1.715 1.712 8776
1.888 1.709 1.696 6458
1.892 1.712 1.689 8983
1.895 1.715 1.681 11508
1.898 1.718 1.674 12745
1.907 1.725 1.671 14233
1.910 1.728 1.663 10816
1.898 1.718 1.644 7557
1.916 1.734 1.649 6626
1.920 1.737 1.641 5852
1.918 1.735 1.630 4341
2.043 1.848 1.718 4877
2.041 1.847 1.706 6772
2.044 1.850 1.699 10310
2.043 1.848 1.687 12104
2.051 1.856 1.683 12460
2.085 1.887 1.698 13710
2.094 1.895 1.694 14827
2.097 1.898 1.686 15966
2.100 1.901 1.678 13169
2.104 1.904 1.670 9213
2.112 1.911 1.665 8151
2.110 1.910 1.653 9786
2.114 1.913 1.645 12337
2.106 1.906 1.630 12286
2.110 1.909 1.622 12516
2.113 1.912 1.613 13510
2.121 1.919 1.609 13437
2.124 1.922 1.601 11716
2.122 1.920 1.589 10044
2.125 1.923 1.581 7787
2.380 2.153 1.745 5481
2.383 2.156 1.736 7582
2.387 2.160 1.726 10294
2.390 2.163 1.717 9398
2.399 2.171 1.711 7915
2.402 2.174 1.702 6186
2.421 2.191 1.703 5382
2.425 2.194 1.694 6034
2.492 2.255 1.726 7258
2.484 2.248 1.709 9729
2.488 2.251 1.699 7916
2.523 2.283 1.710 6133
2.532 2.291 1.704 6910
2.535 2.294 1.694 8792
2.544 2.302 1.687 9969
2.547 2.305 1.677 10171
2.550 2.308 1.667 8795
2.548 2.306 1.654 7896
2.546 2.304 1.641 6991
2.560 2.317 1.638 5415
2.569 2.325 1.631 5992
2.572 2.327 1.621 6840
2.575 2.330 1.611 5788
2.551 2.309 1.585 3582
2.555 2.312 1.576 4078
2.563 2.319 1.569 6698
2.566 2.322 1.559 9359
2.569 2.325 1.549 11467
2.572 2.328 1.539 14909
2.575 2.330 1.529 16820
2.578 2.333 1.519 15743
2.576 2.331 1.506 14077
2.584 2.338 1.499 12027
2.598 2.351 1.495 15086
2.601 2.354 1.485 16742
2.609 2.361 1.477 13462
2.618 2.369 1.470 14742
2.621 2.371 1.460 13788
2.623 2.374 1.450 12003
2.632 2.382 1.442 14124
2.635 2.384 1.432 11440
2.643 2.392 1.425 7041
2.657 2.404 1.420 5900
2.654 2.402 1.407 5743
2.612 2.364 1.375 7520
2.610 2.361 1.363 6800
2.607 2.359 1.350 5252
2.643 2.391 1.355 6569
2.645 2.394 1.345 7348
2.642 2.391 1.332 5730
2.673 2.418 1.335 5131
2.675 2.421 1.324 4186
2.644 2.393 1.299 5016
2.647 2.395 1.289 4234
3.699 3.347 1.737 2956
3.714 3.361 1.727 3586
3.617 3.273 1.670 3145
3.642 3.296 1.665 2544
3.662 3.314 1.658 1891
3.941 3.566 1.758 1869
3.995 3.615 1.763 2027
3.992 3.613 1.745 3193
3.996 3.616 1.730 2794
4.118 3.726 1.761 2466
4.121 3.729 1.745 3738
4.125 3.732 1.729 3110
4.173 3.776 1.730 2615
4.154 3.759 1.705 4431
4.152 3.757 1.687 5679
4.149 3.755 1.669 4805
4.311 3.901 1.711 5566
4.320 3.909 1.696 6543
4.324 3.912 1.679 7868
4.327 3.915 1.663 10127
4.438 4.016 1.684 10441
4.441 4.019 1.666 14356
4.439 4.017 1.647 15250
4.448 4.025 1.632 12728
4.451 4.028 1.614 12587
4.454 4.031 1.597 11609
4.606 4.168 1.628 8120
4.609 4.171 1.610 4617
4.966 4.494 1.704 3711
4.981 4.508 1.688 5592
4.985 4.511 1.669 6678
5.017 4.539 1.658 4143
5.020 4.542 1.639 3140
5.012 4.535 1.616 3034
5.542 5.015 1.751 3296
5.546 5.018 1.729 5756
5.544 5.016 1.706 5144
5.702 5.160 1.728 6331
5.717 5.173 1.708 5732
5.726 5.182 1.688 4783
5.718 5.174 1.662 3783
5.727 5.182 1.641 2588
6.076 5.498 1.709 1768
6.408 5.799 1.769 1935
6.412 5.802 1.744 2054
6.092 5.512 1.639 1812
6.534 5.913 1.722 1904
6.537 5.916 1.696 2531
6.535 5.913 1.669 2777
6.538 5.916 1.644 2060
6.547 5.925 1.620 1842
6.551 5.928 1.594 1591
6.948 6.287 1.655 1367
6.951 6.290 1.628 886
8.102 7.332 1.843 1372
7.938 7.183 1.776 1513
8.086 7.317 1.775 1325
8.282 7.494 1.781 1125
9.598 8.685 2.005 1248
9.608 8.694 1.969 1864
9.612 8.698 1.931 2000
9.610 8.696 1.892 1384
9.637 8.720 1.859 1112
9.646 8.729 1.822 1408
9.644 8.727 1.783 2264
9.642 8.725 1.744 3700
9.639 8.723 1.705 4297
9.643 8.726 1.668 3791
9.646 8.729 1.630 3157
9.655 8.737 1.593 2516
9.652 8.734 1.554 1597
9.655 8.737 1.516 1264
9.658 8.740 1.478 1252
9.655 8.737 1.440 935
10.061 9.104 1.455 592
9.672 8.752 1.365 710
9.681 8.760 1.328 858
9.683 8.762 1.290 796
10.189 9.220 1.310 609
10.478 9.481 1.302 688
9.550 8.642 1.161 830
9.546 8.638 1.123 992
9.548 8.640 1.086 1033
9.545 8.637 1.048 1162
9.547 8.639 1.010 1399
9.548 8.640 0.973 1512
9.550 8.642 0.935 1317
2.725 2.466 0.354 1435
2.726 2.466 0.343 1849
2.726 2.467 0.332 2141
2.726 2.467 0.322 2216
2.727 2.467 0.311 2147
2.727 2.468 0.301 1975
2.733 2.473 0.290 1849
2.728 2.468 0.279 1608
2.728 2.469 0.269 1135
2.734 2.474 0.259 891
2.729 2.469 0.248 694
9.412 8.517 0.480 665
9.413 8.518 0.443 561
9.414 8.518 0.406 360
2.747 2.486 0.206 352
2.753 2.491 0.195 492
2.753 2.491 0.185 870
2.753 2.491 0.174 1102
2.753 2.491 0.163 1310
2.753 2.491 0.153 1519
2.753 2.491 0.142 1535
2.753 2.491 0.131 1352
2.753 2.491 0.121 1153
2.753 2.491 0.110 875
2.753 2.491 0.099 598
2.753 2.491 0.088 464
2.747 2.486 0.078 341
2.747 2.486 0.067 320
2.753 2.491 0.056 308
2.876 2.602 0.041 294
3.280 2.968 0.015 356
3.286 2.973 0.002 441
3.280 2.968 -0.011 396
2.880 2.606 -0.003 363
2.874 2.601 -0.014 361
2.874 2.601 -0.025 363
3.272 2.961 -0.061 288
3.272 2.961 -0.074 316
3.078 2.785 -0.073 332
3.077 2.785 -0.085 436
3.077 2.784 -0.097 513
3.076 2.784 -0.109 590
3.076 2.783 -0.121 593
3.075 2.783 -0.133 597
3.075 2.782 -0.145 599
3.080 2.787 -0.158 571
3.079 2.786 -0.170 545
3.079 2.786 -0.181 470
3.265 2.955 -0.214 412
3.264 2.954 -0.227 488
3.263 2.953 -0.239 564
3.263 2.952 -0.252 598
3.262 2.952 -0.265 631
3.261 2.951 -0.277 631
3.260 2.950 -0.290 632
2.815 2.547 -0.242 728
2.814 2.547 -0.253 915
2.813 2.546 -0.264 1101
2.813 2.545 -0.275 1101
2.812 2.544 -0.285 550
1.662 1.492 1.722 3736
1.665 1.495 1.716 7473
1.668 1.498 1.709 7473
1.739 1.561 1.767 5838
1.747 1.569 1.765 7490
1.756 1.576 1.763 7049
1.764 1.584 1.761 7088
1.767 1.587 1.754 7088
1.766 1.586 1.743 6015
1.750 1.571 1.718 5829
1.754 1.574 1.711 4580
1.825 1.639 1.767 3740
1.829 1.642 1.760 4003
1.827 1.641 1.749 4277
1.826 1.639 1.737 4915
1.829 1.642 1.730 5591
1.833 1.646 1.723 5601
1.846 1.657 1.725 5226
1.879 1.687 1.744 6028
1.888 1.695 1.741 7952
1.891 1.698 1.733 9987
1.895 1.701 1.726 10184
1.898 1.704 1.719 10380
1.897 1.703 1.707 8309
1.895 1.701 1.696 6565
1.898 1.704 1.689 9186
1.902 1.707 1.681 11806
1.905 1.710 1.674 13288
1.913 1.718 1.671 14825
1.912 1.716 1.659 11723
1.910 1.715 1.648 8885
1.918 1.722 1.645 7508
1.927 1.730 1.641 6393
1.925 1.728 1.630 4731
2.055 1.845 1.722 4513
2.048 1.839 1.706 6551
2.047 1.837 1.695 10784
2.050 1.840 1.687 12811
2.058 1.848 1.683 12921
2.093 1.879 1.698 13774
2.101 1.886 1.694 14582
2.110 1.894 1.690 15521
2.108 1.892 1.678 12739
2.111 1.895 1.670 8828
2.120 1.903 1.665 7655
2.118 1.901 1.653 9012
2.121 1.904 1.645 10849
2.119 1.902 1.633 10006
2.117 1.901 1.622 10259
2.120 1.904 1.613 11578
2.129 1.911 1.609 11568
2.132 1.914 1.601 9744
2.130 1.912 1.589 8101
2.133 1.915 1.581 6230
2.393 2.149 1.748 5738
2.397 2.152 1.739 6787
2.395 2.150 1.726 8634
2.399 2.153 1.717 8566
2.407 2.161 1.711 7806
2.448 2.197 1.726 6785
2.435 2.186 1.707 6479
2.433 2.185 1.694 7468
2.479 2.226 1.712 6439
2.488 2.234 1.706 10141
2.491 2.237 1.696 9788
2.489 2.235 1.683 7887
2.493 2.238 1.673 6202
2.533 2.274 1.687 4593
2.537 2.277 1.677 5081
2.540 2.280 1.667 5263
2.543 2.283 1.658 5671
2.547 2.286 1.648 7050
2.550 2.289 1.638 6686
2.553 2.292 1.628 5321
2.562 2.300 1.621 5318
2.565 2.303 1.612 7489
2.568 2.306 1.602 8502
2.566 2.304 1.589 5330
2.569 2.306 1.579 4638
2.572 2.309 1.569 8575
2.575 2.312 1.559 12213
2.578 2.315 1.549 16558
2.581 2.318 1.539 21551
2.584 2.320 1.529 23263
2.582 2.318 1.516 21707
2.585 2.321 1.506 18442
2.593 2.328 1.499 14605
2.602 2.336 1.492 16018
2.610 2.343 1.485 16486
2.613 2.346 1.475 12784
2.622 2.354 1.467 13568
2.630 2.361 1.460 12696
2.627 2.359 1.447 10591
2.630 2.361 1.437 13042
2.627 2.359 1.424 11556
2.636 2.366 1.417 6483
2.644 2.374 1.409 5786
2.614 2.346 1.383 7191
2.616 2.349 1.373 7946
2.624 2.356 1.365 7303
2.627 2.358 1.355 7534
2.646 2.376 1.353 9331
2.655 2.383 1.345 9386
2.668 2.396 1.340 7139
2.677 2.403 1.332 6549
2.685 2.410 1.324 4927
2.654 2.382 1.299 5352
2.662 2.390 1.291 4178
3.712 3.333 1.737 3436
3.727 3.346 1.727 4318
3.624 3.253 1.667 2714
3.661 3.287 1.667 2118
3.912 3.512 1.757 1992
3.943 3.540 1.753 2162
4.009 3.599 1.763 2489
4.007 3.597 1.745 3909
4.010 3.600 1.730 3539
4.132 3.710 1.761 2704
4.130 3.708 1.743 3731
4.139 3.716 1.729 4001
4.143 3.719 1.713 4246
4.157 3.732 1.701 6269
4.161 3.735 1.685 7803
4.164 3.738 1.669 7068
4.321 3.879 1.709 5571
4.330 3.887 1.694 5866
4.339 3.895 1.679 5282
4.348 3.903 1.665 8579
4.351 3.906 1.648 8410
4.457 4.002 1.666 10205
4.455 3.999 1.647 11040
4.458 4.002 1.630 9819
4.467 4.010 1.614 9725
4.470 4.013 1.597 8670
4.473 4.016 1.579 5764
4.625 4.153 1.610 3289
4.978 4.469 1.702 2719
4.987 4.478 1.685 4687
4.997 4.486 1.667 6170
5.000 4.489 1.648 3450
5.038 4.523 1.639 2756
5.041 4.525 1.619 2441
5.453 4.895 1.719 3054
5.560 4.991 1.727 5314
5.563 4.995 1.706 4695
5.722 5.137 1.728 6192
5.737 5.151 1.708 5525
5.747 5.159 1.688 4351
5.917 5.312 1.710 3758
5.909 5.305 1.684 3698
6.427 5.770 1.794 1909
6.431 5.773 1.769 2511
6.545 5.875 1.772 2498
6.548 5.879 1.746 3186
6.563 5.892 1.723 3330
6.561 5.890 1.696 3877
6.558 5.888 1.669 4071
6.562 5.891 1.644 3059
6.571 5.899 1.620 2879
6.574 5.902 1.594 2437
6.978 6.265 1.656 1657
6.981 6.268 1.629 1100
7.968 7.154 1.809 1229
7.966 7.152 1.776 1496
8.301 7.453 1.813 1382
8.311 7.461 1.781 1395
8.478 7.611 1.781 1502
9.642 8.656 1.969 1529
9.646 8.660 1.931 1543
9.644 8.658 1.892 964
9.677 8.688 1.860 1044
9.686 8.696 1.823 1479
9.684 8.694 1.784 2220
9.682 8.692 1.745 3355
9.679 8.690 1.706 3200
9.677 8.688 1.668 2428
9.692 8.701 1.632 2385
9.695 8.704 1.594 2192
9.698 8.707 1.556 1573
9.701 8.709 1.518 1460
9.704 8.712 1.480 1417
9.695 8.704 1.440 1021
10.097 9.065 1.455 773
9.707 8.714 1.365 597
9.709 8.717 1.327 679
9.712 8.719 1.289 617
10.284 9.232 1.317 584
10.521 9.445 1.303 703
9.590 8.609 1.162 783
9.580 8.601 1.123 1009
9.582 8.603 1.086 1369
9.590 8.610 1.049 1115
2.733 2.454 0.385 1258
2.734 2.454 0.375 1980
2.734 2.455 0.364 2355
2.735 2.455 0.354 2652
2.735 2.456 0.343 3092
2.736 2.456 0.332 3322
2.736 2.456 0.322 3310
2.736 2.457 0.311 3076
2.737 2.457 0.301 2645
2.743 2.463 0.290 2352
2.737 2.458 0.279 2035
2.738 2.458 0.269 1408
2.744 2.463 0.259 1098
2.738 2.458 0.248 866
2.738 2.459 0.237 637
2.739 2.459 0.227 470
10.666 9.576 0.441 350
2.998 2.692 0.212 271
2.998 2.692 0.200 334
2.998 2.692 0.189 421
2.993 2.687 0.177 473
2.592 2.327 0.162 623
2.586 2.322 0.152 683
2.592 2.327 0.142 693
2.592 2.327 0.132 704
2.592 2.327 0.122 682
2.592 2.327 0.112 574
2.775 2.491 0.099 580
2.775 2.491 0.088 504
2.774 2.491 0.078 428
2.774 2.491 0.067 321
2.886 2.591 0.053 301
2.886 2.591 0.041 305
2.886 2.591 0.030 257
3.309 2.970 -0.024 314
3.296 2.959 -0.037 351
3.290 2.954 -0.049 408
3.296 2.959 -0.062 328
3.295 2.958 -0.075 253
3.083 2.768 -0.073 273
3.088 2.773 -0.085 312
3.088 2.772 -0.097 316
3.087 2.772 -0.109 321
3.087 2.771 -0.121 320
3.086 2.771 -0.133 315
2.662 2.390 -0.105 327
3.279 2.944 -0.176 356
3.278 2.943 -0.189 516
3.277 2.942 -0.201 700
3.277 2.942 -0.214 883
3.276 2.941 -0.227 1103
3.275 2.940 -0.239 1322
3.274 2.939 -0.252 1409
3.273 2.939 -0.265 1496
3.272 2.938 -0.277 1496
3.272 2.937 -0.290 1478
3.271 2.936 -0.303 1460
3.270 2.935 -0.315 1390
3.269 2.934 -0.328 1319
3.268 2.934 -0.341 1319
3.267 2.933 -0.353 659
1.667 1.485 1.722 2824
1.671 1.489 1.716 5648
1.674 1.492 1.709 5648
1.745 1.555 1.767 5647
1.748 1.558 1.761 7011
1.761 1.570 1.763 6296
1.775 1.581 1.765 6345
1.778 1.584 1.759 6345
1.777 1.583 1.747 5136
1.756 1.565 1.718 4776
1.759 1.568 1.711 3914
1.826 1.627 1.763 3643
1.825 1.626 1.751 4331
1.824 1.625 1.740 5033
1.832 1.632 1.737 5912
1.836 1.636 1.730 6822
1.839 1.639 1.723 6818
1.838 1.637 1.712 5845
1.886 1.680 1.744 5699
1.894 1.688 1.741 7161
1.898 1.691 1.733 8700
1.901 1.694 1.726 9001
1.904 1.697 1.719 9302
1.903 1.696 1.707 7825
1.901 1.694 1.696 6607
1.905 1.697 1.689 8971
1.908 1.700 1.681 11334
1.911 1.703 1.674 13011
1.915 1.706 1.667 14687
1.918 1.709 1.659 12055
1.916 1.707 1.648 9588
1.925 1.715 1.645 7946
1.928 1.718 1.637 6469
1.931 1.721 1.630 4750
2.062 1.837 1.722 4523
2.055 1.831 1.706 6355
2.053 1.830 1.695 10331
2.052 1.828 1.683 12385
2.060 1.836 1.679 12410
2.074 1.848 1.679 13312
2.108 1.878 1.694 13432
2.117 1.886 1.690 14147
2.115 1.884 1.678 11352
2.118 1.887 1.670 7382
2.122 1.890 1.662 6096
2.130 1.898 1.657 7184
2.128 1.896 1.645 8441
2.131 1.899 1.637 7422
2.129 1.897 1.625 7692
2.133 1.900 1.617 9219
2.136 1.903 1.609 8906
2.139 1.906 1.601 6864
2.137 1.904 1.589 5290
2.140 1.907 1.581 4018
2.407 2.144 1.752 5560
2.405 2.143 1.739 5508
2.403 2.141 1.726 6113
2.465 2.196 1.756 7970
2.468 2.199 1.746 9551
2.472 2.202 1.737 9185
2.454 2.187 1.714 8485
2.447 2.180 1.697 9393
2.455 2.188 1.691 7968
2.491 2.219 1.702 10378
2.500 2.227 1.696 11878
2.503 2.230 1.686 10709
2.501 2.228 1.673 8107
2.510 2.236 1.667 4843
2.524 2.249 1.664 4828
2.527 2.252 1.654 5121
2.541 2.264 1.651 5292
2.555 2.277 1.648 6709
2.558 2.280 1.638 6360
2.556 2.278 1.625 7287
2.565 2.285 1.618 9193
2.568 2.288 1.608 11972
2.571 2.291 1.599 13047
2.575 2.294 1.589 7883
2.578 2.297 1.579 4968
2.586 2.304 1.572 7705
2.584 2.302 1.559 11677
2.587 2.305 1.549 17702
2.590 2.308 1.539 23669
2.593 2.311 1.529 25436
2.591 2.308 1.516 24146
2.594 2.311 1.506 20043
2.602 2.319 1.499 14990
2.611 2.326 1.492 15666
2.613 2.329 1.482 15655
2.622 2.336 1.475 11318
2.630 2.344 1.467 10784
2.639 2.351 1.460 9919
2.636 2.349 1.447 8492
2.633 2.346 1.434 11805
2.631 2.344 1.421 11978
2.628 2.342 1.408 9009
2.631 2.344 1.398 9027
2.628 2.341 1.385 8947
2.631 2.344 1.375 7107
2.633 2.346 1.365 7464
2.636 2.349 1.355 9918
2.655 2.366 1.353 11449
2.663 2.373 1.345 11002
2.677 2.386 1.340 8343
2.686 2.393 1.332 7421
2.688 2.395 1.322 5605
2.663 2.372 1.299 5970
2.671 2.380 1.291 4396
3.725 3.319 1.737 3342
3.734 3.327 1.725 3993
3.743 3.335 1.713 2517
3.904 3.479 1.765 2157
3.919 3.492 1.754 2260
3.945 3.515 1.748 2776
3.937 3.508 1.729 2627
4.020 3.582 1.745 3811
4.052 3.610 1.741 3903
4.061 3.618 1.728 3915
4.144 3.692 1.743 3797
4.153 3.700 1.729 4681
4.162 3.709 1.715 5315
4.171 3.717 1.701 7089
4.175 3.720 1.685 8313
4.178 3.723 1.669 7662
4.181 3.726 1.653 5783
4.344 3.871 1.694 4272
4.274 3.808 1.651 3801
4.363 3.887 1.665 6122
4.372 3.895 1.650 5980
4.472 3.985 1.666 4638
4.470 3.983 1.647 5274
4.473 3.986 1.630 5091
4.493 4.004 1.618 5267
4.497 4.007 1.601 4462
4.994 4.450 1.743 3712
4.997 4.453 1.724 2990
5.018 4.471 1.710 1846
4.998 4.454 1.683 3780
5.008 4.462 1.665 5435
5.011 4.465 1.646 3199
5.054 4.504 1.639 2037
5.468 4.872 1.740 1860
5.569 4.962 1.747 2706
5.573 4.965 1.726 4974
5.576 4.969 1.704 4155
5.742 5.116 1.728 4758
5.757 5.129 1.708 3912
5.777 5.148 1.691 3081
5.937 5.290 1.710 4395
5.929 5.283 1.684 4615
5.944 5.296 1.664 2300
6.447 5.744 1.768 2476
6.572 5.856 1.773 3164
6.576 5.859 1.748 4593
6.585 5.868 1.723 4670
6.588 5.871 1.698 4814
6.586 5.868 1.671 4756
6.589 5.871 1.645 3598
6.593 5.874 1.620 3492
6.596 5.877 1.594 2879
6.996 6.233 1.655 1775
8.120 7.235 1.867 1218
7.995 7.124 1.809 1099
8.431 7.512 1.867 1195
8.335 7.427 1.814 1431
8.432 7.513 1.800 1483
8.687 7.741 1.816 1543
8.691 7.744 1.782 1500
9.690 8.634 1.933 1253
9.705 8.648 1.897 1234
9.709 8.651 1.860 1679
9.713 8.655 1.822 1995
9.717 8.658 1.784 2520
9.720 8.661 1.746 3187
9.724 8.664 1.708 2568
9.727 8.667 1.670 1801
9.736 8.675 1.633 2096
9.733 8.673 1.595 1951
9.737 8.676 1.557 1629
9.751 8.689 1.520 1784
9.743 8.681 1.481 1593
9.734 8.673 1.441 1054
10.131 9.027 1.455 783
8.898 7.928 1.259 689
8.906 7.936 1.225 656
10.304 9.181 1.356 520
10.318 9.194 1.317 584
10.556 9.406 1.303 729
10.217 9.104 1.225 939
10.213 9.101 1.185 1064
10.210 9.097 1.144 1125
9.605 8.558 1.047 962
2.742 2.444 0.385 1637
2.743 2.444 0.375 2738
2.743 2.444 0.364 3346
2.744 2.445 0.354 3780
2.744 2.445 0.343 4512
2.745 2.446 0.332 4989
2.751 2.451 0.322 5076
2.746 2.446 0.311 4785
2.746 2.447 0.301 4252
2.752 2.452 0.290 3923
2.747 2.447 0.279 3457
2.747 2.448 0.269 2553
2.753 2.453 0.259 2084
2.747 2.448 0.248 1663
2.748 2.448 0.237 1260
2.748 2.448 0.227 953
2.754 2.454 0.216 461
9.686 8.631 0.374 370
2.601 2.317 0.192 352
2.601 2.317 0.182 406
2.778 2.475 0.174 501
2.595 2.312 0.162 583
2.595 2.312 0.152 634
2.601 2.317 0.142 676
2.607 2.323 0.132 725
2.601 2.317 0.122 695
2.607 2.323 0.112 557
2.784 2.481 0.099 576
2.778 2.475 0.088 493
2.778 2.475 0.078 413
2.778 2.475 0.067 286
2.890 2.575 0.042 293
2.889 2.574 0.031 294
3.326 2.964 -0.012 277
3.326 2.963 -0.025 318
3.325 2.963 -0.038 260
3.290 2.931 -0.176 339
3.289 2.931 -0.189 452
3.288 2.930 -0.201 586
3.288 2.929 -0.214 720
3.287 2.929 -0.227 867
3.286 2.928 -0.239 1013
3.285 2.927 -0.252 1062
3.284 2.926 -0.265 1111
3.283 2.926 -0.277 1111
3.282 2.925 -0.290 1084
3.282 2.924 -0.303 1058
3.281 2.923 -0.315 1022
3.280 2.922 -0.328 986
3.279 2.921 -0.341 986
3.277 2.920 -0.353 493
1.678 1.483 1.727 2140
1.682 1.486 1.720 4280
1.685 1.489 1.714 4280
1.746 1.543 1.763 5120
1.755 1.550 1.761 6185
1.768 1.562 1.763 5228
1.781 1.574 1.765 5220
1.785 1.577 1.759 5220
1.788 1.580 1.752 4324
1.782 1.575 1.736 3625
1.815 1.604 1.756 3203
1.819 1.607 1.749 3353
1.827 1.614 1.747 4516
1.831 1.617 1.740 5690
1.834 1.620 1.733 6687
1.838 1.623 1.726 7684
1.841 1.626 1.719 7703
1.844 1.630 1.712 6180
1.883 1.663 1.735 5596
1.896 1.675 1.736 6668
1.905 1.683 1.733 7806
1.903 1.681 1.722 8061
1.907 1.684 1.715 8330
1.905 1.683 1.703 7281
1.903 1.682 1.692 6526
1.912 1.689 1.689 8471
1.915 1.692 1.681 10487
1.919 1.695 1.674 12077
1.922 1.698 1.667 13668
1.925 1.701 1.659 11343
1.923 1.699 1.648 9021
1.932 1.707 1.645 7394
1.935 1.710 1.637 5770
2.056 1.816 1.722 5179
2.065 1.824 1.718 4882
2.063 1.823 1.706 6115
2.061 1.821 1.695 9235
2.059 1.819 1.683 11142
2.068 1.827 1.679 11091
2.087 1.844 1.683 12216
2.116 1.869 1.694 11569
2.125 1.877 1.690 12070
2.123 1.875 1.678 9254
2.126 1.878 1.670 5244
2.135 1.886 1.665 3944
2.138 1.889 1.657 4802
2.141 1.892 1.649 5747
2.145 1.895 1.641 4933
2.143 1.893 1.629 5151
2.141 1.891 1.617 6456
2.144 1.894 1.609 5926
2.147 1.897 1.601 4022
2.282 2.016 1.683 2861
2.423 2.140 1.768 3834
2.421 2.139 1.756 5039
2.425 2.142 1.746 4123
2.476 2.187 1.769 5689
2.474 2.186 1.756 9428
2.472 2.184 1.743 11595
2.476 2.187 1.733 11328
2.469 2.181 1.717 11154
2.472 2.184 1.708 12222
2.470 2.182 1.695 9800
2.500 2.209 1.702 10937
2.509 2.217 1.696 13799
2.512 2.220 1.686 13188
2.516 2.223 1.677 9879
2.519 2.226 1.667 5942
2.528 2.233 1.661 5365
2.531 2.236 1.651 5251
2.551 2.253 1.651 5078
2.565 2.266 1.648 5461
2.552 2.255 1.628 5385
2.560 2.262 1.622 9392
2.569 2.270 1.615 13182
2.572 2.273 1.605 15656
2.581 2.280 1.599 15539
2.579 2.278 1.585 8979
2.582 2.281 1.576 6247
2.596 2.294 1.572 8277
2.599 2.296 1.562 10443
2.602 2.299 1.552 15294
2.600 2.297 1.539 20767
2.597 2.295 1.526 22592
2.600 2.297 1.516 21306
2.603 2.300 1.506 17009
2.612 2.308 1.499 13559
2.615 2.310 1.489 15566
2.618 2.313 1.479 14516
2.632 2.325 1.475 9038
2.646 2.338 1.470 6965
2.649 2.340 1.460 6589
2.635 2.328 1.441 6753
2.632 2.325 1.429 10678
2.635 2.328 1.418 11835
2.632 2.326 1.406 11308
2.635 2.328 1.396 11940
2.638 2.330 1.385 9710
2.640 2.333 1.375 6137
2.643 2.335 1.365 7498
2.646 2.338 1.355 10641
2.665 2.355 1.353 11276
2.673 2.362 1.345 11519
2.682 2.369 1.337 8746
2.696 2.382 1.332 7158
2.693 2.379 1.319 6165
2.678 2.366 1.301 7236
2.686 2.373 1.294 5882
2.706 2.391 1.291 3042
3.748 3.311 1.725 2951
3.717 3.284 1.696 2579
3.704 3.272 1.675 2501
3.939 3.480 1.757 2533
3.960 3.499 1.748 3666
3.952 3.492 1.729 3636
4.029 3.560 1.743 3003
4.084 3.608 1.748 5562
4.082 3.606 1.730 5337
4.165 3.680 1.745 4256
4.169 3.683 1.729 4985
4.178 3.691 1.715 5556
4.187 3.699 1.701 6747
4.190 3.702 1.685 6997
4.199 3.710 1.671 6162
4.197 3.708 1.653 4637
4.280 3.782 1.665 4669
4.290 3.790 1.651 4269
4.385 3.874 1.667 3969
4.411 3.897 1.658 3992
4.431 3.915 1.646 4199
4.452 3.933 1.635 3856
4.639 4.099 1.680 2845
4.643 4.102 1.662 3809
5.003 4.420 1.761 4620
5.007 4.424 1.741 5386
5.016 4.432 1.724 4854
5.025 4.440 1.706 3699
5.017 4.433 1.683 4270
5.015 4.431 1.662 5188
5.018 4.433 1.643 3244
5.421 4.789 1.742 2606
5.424 4.792 1.721 1937
5.584 4.934 1.746 2822
5.588 4.937 1.724 4826
5.597 4.945 1.704 3736
5.763 5.092 1.728 2835
5.953 5.259 1.756 2166
5.968 5.272 1.736 2777
5.965 5.270 1.712 4234
5.945 5.253 1.682 4567
5.931 5.240 1.655 2569
6.471 5.717 1.768 2071
6.603 5.833 1.775 3554
6.606 5.837 1.749 5724
6.616 5.845 1.725 5784
6.619 5.848 1.699 5270
6.617 5.846 1.672 4786
6.620 5.849 1.647 3599
6.617 5.846 1.620 3482
6.621 5.849 1.594 2760
7.526 6.649 1.764 1582
8.150 7.201 1.867 1344
8.318 7.349 1.870 1196
8.462 7.476 1.867 1155
8.460 7.475 1.833 1472
8.464 7.478 1.800 1528
8.720 7.704 1.816 1578
8.724 7.707 1.782 1475
9.738 8.603 1.935 1358
9.742 8.607 1.897 1736
9.746 8.610 1.860 2120
9.749 8.614 1.822 2348
9.753 8.617 1.784 2724
9.762 8.625 1.747 3091
9.766 8.628 1.709 2741
9.769 8.631 1.671 2425
9.773 8.634 1.633 2487
9.782 8.642 1.596 2026
9.785 8.645 1.558 1693
9.788 8.648 1.520 1868
9.785 8.645 1.482 1625
10.160 8.976 1.493 1070
8.929 7.888 1.294 1102
10.325 9.122 1.435 835
10.328 9.125 1.394 933
10.325 9.122 1.354 790
10.339 9.135 1.315 572
10.259 9.064 1.266 868
10.255 9.061 1.225 1170
10.252 9.057 1.185 1105
9.656 8.531 1.086 1086
9.658 8.533 1.049 1054
2.753 2.432 0.385 1695
2.753 2.432 0.375 2551
2.754 2.433 0.364 3021
2.754 2.433 0.354 3347
2.755 2.434 0.343 3848
2.755 2.434 0.332 4197
2.756 2.434 0.322 4265
2.756 2.435 0.311 4142
2.756 2.435 0.301 3901
2.763 2.441 0.290 3694
2.757 2.436 0.279 3326
2.757 2.436 0.269 2538
2.763 2.441 0.259 2134
2.764 2.442 0.248 1670
2.758 2.437 0.237 1225
2.758 2.437 0.227 887
2.764 2.442 0.216 366
9.711 8.579 0.374 478
9.711 8.580 0.336 537
2.444 2.160 0.179 554
2.438 2.154 0.170 596
2.439 2.154 0.160 609
2.433 2.149 0.151 578
2.439 2.154 0.142 468
2.439 2.154 0.132 359
2.611 2.306 0.122 287
2.794 2.469 0.110 289
2.794 2.469 0.099 343
2.794 2.469 0.088 309
2.794 2.469 0.078 274
3.339 2.950 0.027 295
3.339 2.950 0.014 317
3.339 2.950 0.001 339
3.344 2.955 -0.012 371
3.344 2.954 -0.025 407
3.344 2.954 -0.038 409
3.343 2.954 -0.051 410
3.337 2.948 -0.063 391
3.336 2.948 -0.076 376
3.549 3.136 -0.104 369
3.549 3.135 -0.117 397
3.548 3.135 -0.131 398
3.547 3.134 -0.145 400
3.547 3.134 -0.158 399
3.546 3.133 -0.172 395
3.113 2.751 -0.146 371
3.113 2.750 -0.158 376
3.118 2.755 -0.170 382
3.111 2.749 -0.181 346
3.300 2.915 -0.214 414
3.299 2.915 -0.227 511
3.298 2.914 -0.239 608
3.298 2.913 -0.252 680
3.297 2.913 -0.265 751
3.296 2.912 -0.277 751
3.295 2.911 -0.290 809
3.294 2.910 -0.303 867
3.293 2.909 -0.315 898
3.292 2.908 -0.328 930
3.291 2.907 -0.341 930
3.290 2.906 -0.353 465
1.285 1.135 -0.054 717
1.741 1.527 1.783 1851
1.745 1.530 1.776 3703
1.749 1.533 1.769 3703
1.752 1.537 1.763 4408
1.760 1.544 1.761 5116
1.769 1.551 1.759 4207
1.792 1.572 1.770 4029
1.796 1.575 1.763 4029
1.799 1.578 1.756 3888
1.798 1.577 1.745 3915
1.806 1.584 1.743 3450
1.815 1.591 1.740 3289
1.828 1.603 1.742 4558
1.836 1.611 1.740 5999
1.840 1.614 1.733 7009
1.843 1.617 1.726 8019
1.847 1.620 1.719 8019
1.850 1.623 1.712 6144
1.889 1.656 1.735 5468
1.902 1.668 1.736 6244
1.906 1.671 1.729 7109
1.909 1.674 1.722 7116
1.913 1.677 1.715 7123
1.906 1.672 1.699 6547
1.889 1.657 1.675 6938
1.918 1.682 1.689 7800
1.921 1.685 1.681 9630
1.925 1.688 1.674 10802
1.933 1.695 1.671 11994
1.936 1.698 1.663 9784
1.940 1.701 1.656 7574
1.943 1.704 1.649 6029
2.054 1.801 1.726 6046
2.063 1.809 1.722 5497
2.081 1.826 1.726 5370
2.070 1.815 1.706 5967
2.063 1.809 1.691 8168
2.066 1.812 1.683 9649
2.080 1.824 1.683 9589
2.093 1.836 1.683 10804
2.123 1.862 1.694 9492
2.131 1.869 1.690 9827
2.135 1.872 1.682 7089
2.138 1.875 1.674 3292
2.272 1.993 1.760 4467
2.281 2.000 1.755 3946
2.164 1.898 1.660 3776
2.277 1.997 1.731 3692
2.286 2.005 1.726 5319
2.290 2.008 1.717 6578
2.298 2.016 1.712 6296
2.302 2.019 1.703 5048
2.295 2.013 1.687 4665
2.436 2.136 1.772 3699
2.439 2.139 1.763 4527
2.448 2.147 1.757 3932
2.478 2.174 1.765 5573
2.477 2.172 1.752 9547
2.480 2.175 1.743 12124
2.484 2.178 1.733 12149
2.482 2.177 1.721 13165
2.480 2.175 1.708 15104
2.483 2.178 1.698 11812
2.508 2.200 1.702 12227
2.517 2.208 1.696 15225
2.526 2.215 1.690 15043
2.524 2.213 1.677 11400
2.527 2.216 1.667 7376
2.536 2.224 1.661 6398
2.539 2.227 1.651 5873
2.559 2.244 1.651 4766
2.562 2.247 1.641 3572
2.555 2.240 1.625 5527
2.569 2.253 1.622 10746
2.572 2.256 1.612 14662
2.575 2.258 1.602 16914
2.584 2.266 1.595 16495
2.582 2.264 1.582 10851
2.585 2.267 1.573 9658
2.599 2.279 1.569 11329
2.607 2.287 1.562 11057
2.611 2.290 1.552 11963
2.608 2.287 1.539 14795
2.611 2.290 1.529 15958
2.609 2.288 1.516 14593
2.612 2.291 1.506 11081
2.620 2.298 1.499 12071
2.618 2.296 1.486 17030
2.626 2.303 1.479 14581
2.635 2.311 1.472 8064
2.638 2.313 1.462 5388
2.624 2.301 1.443 7131
2.627 2.304 1.433 8986
2.635 2.311 1.426 10291
2.643 2.318 1.418 9612
2.641 2.316 1.406 10607
2.643 2.318 1.396 13046
2.646 2.321 1.385 9696
2.649 2.323 1.375 6410
2.657 2.330 1.368 8148
2.660 2.333 1.358 9990
2.674 2.345 1.353 9802
2.682 2.352 1.345 11072
2.685 2.355 1.335 8113
2.704 2.372 1.332 5964
2.696 2.364 1.317 6803
2.692 2.361 1.304 8679
2.695 2.364 1.294 7794
2.709 2.376 1.288 4684
3.919 3.437 1.793 2555
3.911 3.430 1.773 2722
3.920 3.438 1.760 2498
3.952 3.466 1.757 2458
3.973 3.484 1.748 4018
3.965 3.477 1.729 4311
3.968 3.480 1.713 3529
4.097 3.593 1.748 6515
4.095 3.591 1.730 5514
4.173 3.660 1.743 4363
4.182 3.668 1.729 4453
4.197 3.681 1.717 4800
4.200 3.684 1.701 5332
4.221 3.702 1.691 5035
4.305 3.775 1.705 5091
4.302 3.773 1.686 5263
4.300 3.771 1.667 5241
4.309 3.779 1.653 3977
4.324 3.792 1.640 3747
4.431 3.886 1.660 3613
4.463 3.914 1.652 4550
4.466 3.917 1.635 3924
5.012 4.396 1.799 2667
5.016 4.399 1.780 4086
5.019 4.402 1.761 5510
5.023 4.405 1.741 6382
5.032 4.413 1.724 6381
5.036 4.416 1.704 5852
5.033 4.414 1.683 5410
5.037 4.417 1.664 5098
5.040 4.420 1.644 3176
5.438 4.770 1.742 2879
5.442 4.773 1.721 1971
5.596 4.908 1.744 2724
5.606 4.916 1.724 4413
5.615 4.925 1.704 3246
5.770 5.060 1.724 1895
5.972 5.237 1.756 1902
5.987 5.251 1.736 2427
5.979 5.243 1.710 3552
5.959 5.226 1.681 3902
6.061 5.316 1.683 2558
6.065 5.319 1.660 2128
6.630 5.815 1.776 3637
6.633 5.818 1.750 6069
6.643 5.826 1.726 6170
6.646 5.829 1.701 5267
6.644 5.827 1.674 4525
6.647 5.830 1.648 3354
6.639 5.822 1.620 2881
6.642 5.825 1.594 2230
7.544 6.616 1.763 1603
7.547 6.619 1.734 1380
8.345 7.318 1.870 1432
8.472 7.430 1.863 1197
8.487 7.444 1.833 1468
8.491 7.447 1.800 1471
8.742 7.667 1.815 1434
8.752 7.675 1.782 1203
9.763 8.563 1.934 1378
9.767 8.566 1.896 1886
9.777 8.575 1.860 2168
9.781 8.578 1.822 2317
9.784 8.581 1.784 2656
9.788 8.584 1.746 2982
9.797 8.593 1.709 2875
9.801 8.596 1.671 2733
9.804 8.598 1.633 2644
9.813 8.606 1.596 2010
9.816 8.609 1.558 1561
9.819 8.612 1.520 1670
9.816 8.609 1.482 1472
9.577 8.399 1.411 1560
9.585 8.407 1.375 1159
10.358 9.084 1.435 1106
10.361 9.087 1.394 1245
10.364 9.089 1.354 1151
10.366 9.092 1.314 869
10.286 9.021 1.265 709
10.288 9.023 1.225 947
10.291 9.025 1.185 787
9.687 8.496 1.086 752
9.695 8.503 1.049 790
2.762 2.422 0.385 1345
2.762 2.422 0.375 2111
2.763 2.423 0.364 2536
2.763 2.423 0.354 2777
2.764 2.424 0.343 3137
2.764 2.424 0.332 3333
2.764 2.424 0.322 3305
2.765 2.425 0.311 3077
2.765 2.425 0.301 2721
2.771 2.431 0.290 2516
2.772 2.431 0.280 2236
2.766 2.426 0.269 1600
2.772 2.431 0.259 1230
2.767 2.426 0.248 959
2.767 2.427 0.237 690
9.735 8.538 0.449 633
9.741 8.543 0.412 489
9.754 8.554 0.374 443
2.446 2.145 0.188 507
2.446 2.145 0.179 617
2.446 2.145 0.170 708
2.446 2.146 0.160 798
2.446 2.146 0.151 797
2.446 2.146 0.142 693
2.446 2.146 0.132 589
2.446 2.146 0.123 444
2.625 2.302 0.112 411
2.625 2.302 0.102 355
2.315 2.031 0.097 316
3.357 2.944 0.065 326
3.356 2.944 0.052 411
3.356 2.943 0.039 480
3.356 2.943 0.026 550
3.350 2.938 0.014 579
3.349 2.938 0.001 613
3.355 2.943 -0.012 628
3.355 2.942 -0.025 655
3.354 2.942 -0.038 663
3.354 2.942 -0.051 671
3.354 2.941 -0.064 634
3.353 2.941 -0.076 598
3.353 2.940 -0.089 558
3.358 2.945 -0.103 529
3.357 2.945 -0.116 490
3.559 3.121 -0.145 498
3.558 3.121 -0.158 519
3.564 3.125 -0.173 534
3.569 3.130 -0.187 532
3.568 3.129 -0.200 536
3.567 3.129 -0.214 536
3.311 2.904 -0.201 593
3.311 2.903 -0.214 718
3.310 2.903 -0.227 925
3.309 2.902 -0.239 1131
3.308 2.901 -0.252 1174
3.307 2.901 -0.265 1216
3.306 2.900 -0.277 1216
3.305 2.899 -0.290 1199
3.304 2.898 -0.303 1182
3.303 2.897 -0.315 1143
3.302 2.896 -0.328 1105
3.301 2.895 -0.341 1105
1.301 1.141 -0.051 667
1.295 1.136 -0.055 1197
1.748 1.520 1.783 1634
1.752 1.523 1.776 3268
1.755 1.526 1.769 3268
1.759 1.529 1.763 3745
1.757 1.528 1.752 4232
1.771 1.539 1.754 3692
1.784 1.551 1.756 3369
1.788 1.554 1.750 3369
1.796 1.562 1.747 4189
1.805 1.569 1.745 5116
1.808 1.572 1.738 4289
1.821 1.584 1.740 3644
1.830 1.591 1.738 4731
1.838 1.598 1.735 6187
1.847 1.606 1.733 7114
1.850 1.609 1.726 8044
1.854 1.612 1.719 8020
1.852 1.610 1.707 6067
1.896 1.648 1.735 5356
1.904 1.656 1.732 5908
1.913 1.663 1.729 6570
1.911 1.662 1.718 6108
1.895 1.647 1.693 5915
1.888 1.641 1.678 6651
1.891 1.644 1.671 7653
1.925 1.674 1.689 6954
1.929 1.677 1.681 8629
1.937 1.684 1.678 9248
1.940 1.687 1.671 9910
1.949 1.694 1.667 7929
1.983 1.724 1.685 7072
2.058 1.789 1.734 6099
2.062 1.793 1.726 6262
2.070 1.800 1.722 5745
2.094 1.821 1.730 6249
2.098 1.824 1.722 6505
2.076 1.805 1.695 7374
2.074 1.803 1.683 8209
2.093 1.820 1.687 8209
2.101 1.827 1.683 9318
2.126 1.848 1.690 7535
2.139 1.860 1.690 7616
2.148 1.868 1.686 5197
2.282 1.984 1.773 4248
2.286 1.987 1.764 5984
2.290 1.991 1.755 5691
2.293 1.994 1.747 5399
2.286 1.988 1.731 6050
2.290 1.991 1.722 7759
2.298 1.998 1.717 8679
2.307 2.006 1.712 8233
2.305 2.004 1.699 7145
2.303 2.003 1.687 6875
2.312 2.010 1.682 5344
2.454 2.133 1.766 4095
2.452 2.132 1.753 4213
2.466 2.144 1.751 5519
2.481 2.157 1.749 9161
2.489 2.164 1.743 11886
2.493 2.167 1.733 12348
2.491 2.166 1.721 14825
2.495 2.169 1.711 17803
2.498 2.172 1.702 14573
2.518 2.189 1.702 13411
2.532 2.201 1.699 15753
2.535 2.204 1.690 15858
2.533 2.203 1.677 12147
2.531 2.201 1.664 8941
2.540 2.208 1.657 8528
2.549 2.216 1.651 7970
2.552 2.219 1.641 5942
2.550 2.217 1.628 4438
2.553 2.220 1.619 6984
2.578 2.242 1.622 10664
2.582 2.245 1.612 14697
2.585 2.247 1.602 17553
2.588 2.250 1.592 17856
2.591 2.253 1.582 13673
2.594 2.256 1.573 13242
2.603 2.263 1.566 14899
2.612 2.271 1.559 13127
2.615 2.273 1.549 8571
2.612 2.271 1.536 6639
2.616 2.274 1.526 7124
2.619 2.277 1.516 5894
2.622 2.279 1.506 6990
2.625 2.282 1.496 14200
2.628 2.284 1.486 19643
2.631 2.287 1.476 15171
2.639 2.294 1.469 8905
2.631 2.287 1.453 8557
2.628 2.285 1.440 11244
2.631 2.287 1.430 13232
2.634 2.290 1.420 13467
2.637 2.292 1.410 10687
2.645 2.300 1.403 10808
2.648 2.302 1.393 12531
2.651 2.304 1.383 8411
2.664 2.317 1.378 5881
2.673 2.324 1.370 7501
2.670 2.321 1.358 7834
2.684 2.333 1.353 7729
2.687 2.336 1.342 9550
2.678 2.328 1.327 6832
2.703 2.350 1.327 4598
2.700 2.347 1.314 7521
2.703 2.350 1.304 9633
2.705 2.352 1.294 9047
2.713 2.359 1.286 6139
2.705 2.351 1.271 3689
3.920 3.408 1.770 3510
2.550 2.217 1.183 3256
2.552 2.219 1.174 2650
3.982 3.462 1.746 3895
3.980 3.460 1.729 4564
4.115 3.578 1.766 3909
4.118 3.581 1.750 6700
4.116 3.579 1.732 5010
4.160 3.617 1.732 4249
4.158 3.615 1.714 4731
4.207 3.658 1.715 3724
4.262 3.706 1.718 4975
4.260 3.704 1.700 5430
4.321 3.757 1.705 5432
4.307 3.745 1.682 6196
4.316 3.753 1.667 5171
4.268 3.710 1.632 3730
4.340 3.773 1.640 3632
4.453 3.872 1.662 3651
4.474 3.890 1.650 3971
4.483 3.898 1.635 3095
4.342 3.775 1.570 3979
4.722 4.105 1.677 4658
5.038 4.380 1.761 5760
5.048 4.389 1.743 6623
5.051 4.392 1.724 6872
5.049 4.390 1.702 7073
5.052 4.393 1.683 5943
5.056 4.396 1.664 4600
5.455 4.743 1.763 2849
5.459 4.746 1.742 2633
5.468 4.754 1.723 1691
5.618 4.884 1.744 2307
5.627 4.892 1.724 3425
5.630 4.895 1.702 2566
5.792 5.035 1.724 2592
5.807 5.049 1.705 2579
5.845 5.082 1.692 2553
6.042 5.253 1.721 2652
6.063 5.272 1.702 2873
6.084 5.290 1.683 3125
6.088 5.293 1.660 2639
6.667 5.796 1.779 3544
6.664 5.794 1.752 5805
6.668 5.797 1.726 5988
6.677 5.805 1.702 4851
6.681 5.808 1.676 4263
6.690 5.816 1.652 3340
7.241 6.295 1.749 2365
7.569 6.580 1.792 2402
7.584 6.594 1.765 2111
7.588 6.597 1.736 1694
8.376 7.282 1.870 1583
8.474 7.368 1.857 1245
8.502 7.392 1.829 1268
8.760 7.616 1.846 1311
8.763 7.619 1.812 1174
8.962 7.792 1.815 928
9.043 7.862 1.795 1524
9.023 7.845 1.756 2230
9.008 7.832 1.718 2537
9.012 7.835 1.683 2243
9.821 8.539 1.784 2190
9.831 8.547 1.747 2589
9.840 8.555 1.710 2649
9.838 8.553 1.671 2527
9.841 8.556 1.633 2424
9.850 8.564 1.596 1783
9.616 8.360 1.524 1718
9.619 8.363 1.487 2258
9.616 8.360 1.449 2406
9.613 8.358 1.411 2751
9.621 8.365 1.375 2052
9.630 8.373 1.339 1338
10.406 9.047 1.395 1510
10.403 9.045 1.354 1478
10.406 9.047 1.314 1215
10.414 9.054 1.275 750
9.654 8.394 1.154 841
9.722 8.452 1.124 949
9.718 8.449 1.086 1280
9.714 8.446 1.048 1359
2.778 2.415 0.386 1528
2.772 2.410 0.375 2301
2.773 2.411 0.364 2712
2.773 2.411 0.354 2900
2.774 2.412 0.343 3089
2.774 2.412 0.332 3039
