1.962 4.751 1.623 4207
1.960 4.748 1.606 3641
2.000 4.843 1.620 3648
2.002 4.847 1.604 4097
2.044 4.950 1.619 4035
2.048 4.961 1.606 3956
2.050 4.965 1.590 3633
2.101 5.089 1.610 5706
2.109 5.107 1.598 9437
2.113 5.118 1.584 10433
2.115 5.122 1.568 9758
2.116 5.125 1.552 7196
2.112 5.115 1.532 4105
2.175 5.268 1.556 3752
2.244 5.435 1.584 3464
2.246 5.439 1.567 2750
2.333 5.649 1.604 2839
2.337 5.660 1.588 3722
2.345 5.678 1.574 3248
2.349 5.689 1.558 4097
2.351 5.693 1.540 4697
2.352 5.697 1.522 2916
2.416 5.850 1.540 2924
2.414 5.847 1.520 3914
2.437 5.901 1.514 3209
2.444 5.919 1.499 1961
2.519 6.101 1.521 2393
2.710 6.564 1.605 1510
2.641 6.395 1.546 2119
2.690 6.514 1.551 2526
2.828 6.848 1.602 2949
2.826 6.845 1.579 2890
2.831 6.856 1.559 2185
2.948 7.140 1.595 2127
2.950 7.144 1.573 3422
2.946 7.133 1.547 2586
2.989 7.238 1.545 2762
2.993 7.249 1.523 3959
2.998 7.260 1.502 3621
3.109 7.530 1.529 3172
3.105 7.519 1.502 3662
3.107 7.523 1.479 2890
3.499 8.473 1.622 3402
3.500 8.477 1.595 4102
3.499 8.473 1.567 4319
3.501 8.477 1.541 4129
3.502 8.481 1.514 3712
3.686 8.926 1.558 2900
3.664 8.872 1.521 2794
3.665 8.876 1.493 3221
3.667 8.879 1.465 2495
3.662 8.868 1.435 1696
3.661 8.865 1.406 1435
4.126 9.993 1.536 1279
4.263 10.323 1.550 1046
4.267 10.334 1.518 1304
4.212 10.200 1.468 1046
4.714 11.417 1.591 1047
4.857 11.762 1.597 955
4.853 11.752 1.558 997
4.959 12.010 1.551 942
4.961 12.014 1.514 995
4.704 11.392 1.406 1226
4.711 11.410 1.372 1302
4.719 11.427 1.337 837
4.955 11.999 1.359 760
4.953 11.995 1.321 762
4.954 11.998 1.283 504
5.046 12.220 1.266 369
3.895 9.432 -0.269 306
3.894 9.431 -0.299 272
3.849 9.320 -0.470 365
3.848 9.318 -0.499 533
3.853 9.331 -0.529 661
3.855 9.337 -0.559 844
3.855 9.335 -0.589 844
3.854 9.333 -0.618 1015
3.853 9.331 -0.647 1185
3.849 9.321 -0.676 1151
3.848 9.319 -0.705 1123
3.844 9.309 -0.734 888
3.837 9.292 -0.762 710
3.836 9.290 -0.791 710
3.835 9.287 -0.820 1080
3.834 9.285 -0.849 1450
3.833 9.282 -0.878 1653
3.832 9.279 -0.907 1856
3.831 9.276 -0.937 928
1.081 2.617 -0.184 250
0.875 2.103 1.755 3957
0.877 2.107 1.748 7915
0.879 2.111 1.742 7915
0.883 2.122 1.740 7607
0.887 2.132 1.738 7432
0.892 2.142 1.736 8330
0.896 2.153 1.734 9271
0.898 2.157 1.727 9271
0.900 2.161 1.720 9009
0.901 2.165 1.714 8746
0.906 2.176 1.711 6304
0.920 2.210 1.727 5487
0.924 2.220 1.725 4029
0.929 2.231 1.722 2766
0.966 2.320 1.777 2716
0.963 2.312 1.761 4146
0.964 2.317 1.754 5521
0.964 2.315 1.742 5827
0.963 2.313 1.731 6158
0.977 2.348 1.745 6454
0.982 2.359 1.742 8334
0.986 2.369 1.739 8696
0.990 2.380 1.736 9373
0.990 2.378 1.724 8305
0.991 2.382 1.717 7285
1.022 2.455 1.755 7335
1.023 2.459 1.748 9939
1.025 2.463 1.740 10007
1.030 2.474 1.737 10202
1.034 2.484 1.733 8701
1.038 2.495 1.729 7947
1.043 2.505 1.726 5994
1.076 2.585 1.766 6669
1.075 2.583 1.754 7773
1.077 2.588 1.746 8947
1.076 2.586 1.734 7397
1.073 2.577 1.718 4975
1.090 2.619 1.734 4568
1.097 2.636 1.734 6409
1.099 2.641 1.726 8354
1.104 2.651 1.721 7021
1.121 2.694 1.736 7538
1.123 2.698 1.728 7706
1.125 2.702 1.719 10930
1.124 2.700 1.707 14129
1.128 2.711 1.703 13164
1.130 2.715 1.694 12341
1.137 2.732 1.693 10030
1.144 2.749 1.692 9151
1.143 2.747 1.680 8539
1.151 2.764 1.679 9401
1.160 2.788 1.681 12527
1.162 2.792 1.672 13504
1.164 2.796 1.664 12226
1.166 2.800 1.655 10085
1.167 2.804 1.646 9224
1.240 2.978 1.730 8412
1.244 2.989 1.724 11094
1.249 3.000 1.718 12365
1.253 3.010 1.713 14209
1.255 3.015 1.703 15846
1.257 3.019 1.694 15582
1.261 3.030 1.688 14269
1.263 3.034 1.678 10771
1.273 3.058 1.679 7807
1.283 3.082 1.680 9775
1.290 3.099 1.677 10307
1.294 3.110 1.670 8390
1.349 3.240 1.723 8399
1.353 3.251 1.717 8783
1.355 3.255 1.707 8430
1.365 3.280 1.706 7541
1.370 3.291 1.699 6909
1.374 3.301 1.692 5318
1.359 3.265 1.663 4614
1.364 3.276 1.656 7216
1.371 3.294 1.652 8950
1.434 3.446 1.710 6194
1.439 3.457 1.702 5454
1.443 3.468 1.695 4698
1.448 3.478 1.687 5166
1.452 3.489 1.679 5825
1.457 3.500 1.671 8720
1.461 3.511 1.663 9440
1.500 3.603 1.691 7663
1.502 3.608 1.679 7542
1.503 3.612 1.668 6344
1.502 3.609 1.654 5146
1.493 3.586 1.631 6392
1.506 3.617 1.631 10594
1.510 3.628 1.623 11380
1.509 3.625 1.609 6726
1.573 3.780 1.659 5155
1.578 3.790 1.650 4381
1.597 3.836 1.654 5738
1.601 3.847 1.645 6223
1.609 3.864 1.639 6230
1.622 3.896 1.637 8203
1.629 3.914 1.630 11659
1.634 3.925 1.621 13753
1.632 3.922 1.606 12188
1.631 3.919 1.591 13585
1.636 3.929 1.581 16806
1.640 3.940 1.572 14400
1.642 3.944 1.559 10271
1.773 4.260 1.660 8824
1.781 4.278 1.651 10209
1.782 4.282 1.638 6907
1.822 4.376 1.656 5051
1.820 4.373 1.640 6974
1.822 4.378 1.627 6269
1.827 4.388 1.615 4013
1.860 4.469 1.627 6008
1.862 4.473 1.613 6316
1.866 4.484 1.602 4204
1.897 4.558 1.611 3058
1.940 4.660 1.628 3299
1.903 4.573 1.584 3043
1.978 4.752 1.625 3075
2.003 4.812 1.628 3427
2.008 4.823 1.615 6324
2.012 4.834 1.602 7017
2.020 4.852 1.591 4515
2.027 4.870 1.580 3814
2.032 4.881 1.567 4240
2.119 5.090 1.612 5770
2.123 5.101 1.598 9217
2.128 5.112 1.584 10153
2.129 5.116 1.568 9741
2.131 5.119 1.552 7447
2.133 5.123 1.536 4155
2.261 5.432 1.603 3372
2.263 5.436 1.586 4471
2.270 5.454 1.572 4026
2.281 5.479 1.561 3605
2.356 5.660 1.590 4005
2.361 5.671 1.574 3576
2.362 5.675 1.556 4426
2.364 5.679 1.538 6019
2.368 5.690 1.522 5611
2.438 5.858 1.544 3272
2.434 5.847 1.522 4004
2.453 5.894 1.514 3379
2.541 6.105 1.543 3302
2.543 6.108 1.524 3995
2.544 6.112 1.505 2812
2.716 6.524 1.576 2199
2.711 6.513 1.553 2837
2.844 6.833 1.600 3173
2.846 6.837 1.579 3410
2.835 6.812 1.551 2325
2.840 6.823 1.531 2218
2.961 7.114 1.568 3430
2.960 7.110 1.544 2797
3.015 7.244 1.547 3024
3.014 7.240 1.523 3676
3.018 7.251 1.502 3533
3.131 7.521 1.529 3753
3.129 7.518 1.504 4203
3.131 7.521 1.480 3462
3.523 8.463 1.622 3937
3.521 8.460 1.594 4707
3.523 8.463 1.567 5180
3.521 8.460 1.539 4988
3.523 8.464 1.513 4582
3.522 8.460 1.485 3519
3.680 8.840 1.517 3079
3.681 8.844 1.490 3958
3.686 8.854 1.463 3334
3.687 8.858 1.435 2016
3.682 8.847 1.405 1064
4.200 10.090 1.552 821
4.298 10.326 1.552 824
4.239 10.184 1.500 1009
4.745 11.400 1.626 1418
4.747 11.404 1.591 1334
4.887 11.741 1.596 1041
4.886 11.738 1.558 1034
4.969 11.938 1.545 853
4.965 11.927 1.505 906
4.963 11.924 1.467 815
4.968 11.934 1.430 661
4.993 11.996 1.399 688
4.992 11.992 1.360 738
4.990 11.988 1.322 633
4.991 11.991 1.284 433
5.074 12.191 1.264 349
3.894 9.356 -0.414 252
3.894 9.355 -0.443 298
3.881 9.324 -0.471 412
3.874 9.307 -0.499 602
3.876 9.313 -0.529 913
3.876 9.311 -0.558 1229
3.875 9.309 -0.587 1229
3.877 9.315 -0.617 1256
3.876 9.312 -0.647 1285
3.878 9.318 -0.677 1187
3.887 9.337 -0.708 1133
3.876 9.313 -0.735 1363
3.875 9.311 -0.764 1631
3.874 9.308 -0.794 1631
3.870 9.298 -0.822 1315
3.866 9.288 -0.851 1021
3.862 9.278 -0.879 1035
3.858 9.268 -0.907 1103
3.857 9.266 -0.937 551
1.088 2.614 -0.184 260
0.883 2.106 1.759 3420
0.885 2.111 1.753 6841
0.887 2.115 1.746 6841
0.889 2.119 1.740 6536
0.895 2.136 1.742 6503
0.897 2.140 1.736 7606
0.899 2.144 1.729 8708
0.901 2.149 1.723 8708
0.905 2.159 1.720 8868
0.907 2.163 1.714 9147
0.914 2.179 1.716 6831
0.926 2.208 1.727 5879
0.925 2.206 1.716 4197
0.924 2.204 1.704 2569
0.972 2.318 1.777 2514
0.968 2.310 1.761 4305
0.970 2.314 1.754 6118
0.970 2.313 1.742 6106
0.971 2.317 1.735 6101
0.983 2.346 1.745 6436
0.988 2.356 1.742 8056
0.992 2.367 1.739 8386
0.997 2.377 1.736 9106
0.996 2.375 1.724 7970
0.998 2.379 1.717 6985
1.028 2.452 1.755 7506
1.030 2.456 1.748 10223
1.034 2.467 1.744 10589
1.036 2.471 1.737 11036
1.040 2.482 1.733 9720
1.045 2.492 1.729 9064
1.049 2.503 1.726 6594
1.083 2.582 1.766 6742
1.082 2.580 1.754 8000
1.084 2.585 1.746 9327
1.083 2.583 1.734 7759
1.079 2.574 1.718 5433
1.094 2.610 1.730 4666
1.099 2.621 1.726 5761
1.106 2.638 1.726 7242
1.110 2.649 1.721 5895
1.128 2.691 1.736 5912
1.127 2.689 1.724 6179
1.129 2.693 1.716 9741
1.131 2.697 1.707 13012
1.133 2.702 1.699 12169
1.137 2.712 1.694 11456
1.142 2.723 1.689 8760
1.154 2.753 1.696 7765
1.153 2.751 1.684 7421
1.169 2.787 1.693 8875
1.168 2.785 1.681 10962
1.169 2.789 1.672 11214
1.171 2.793 1.664 10654
1.173 2.797 1.655 9480
1.174 2.801 1.646 8867
1.247 2.975 1.730 8310
1.252 2.986 1.724 11992
1.256 2.996 1.718 13998
1.261 3.007 1.713 15987
1.263 3.011 1.703 17155
1.264 3.016 1.694 16194
1.266 3.020 1.684 14152
1.273 3.037 1.682 10059
1.286 3.068 1.686 8691
1.291 3.078 1.680 11497
1.295 3.089 1.673 11964
1.300 3.100 1.667 9437
1.357 3.237 1.723 7140
1.362 3.248 1.717 7986
1.363 3.252 1.707 7525
1.371 3.269 1.703 6751
1.378 3.287 1.699 6659
1.372 3.271 1.679 5204
1.368 3.262 1.663 4751
1.372 3.273 1.656 7410
1.379 3.290 1.652 9272
1.449 3.455 1.716 6220
1.451 3.460 1.705 5731
1.452 3.464 1.695 5077
1.457 3.475 1.687 5263
1.461 3.486 1.679 5149
1.466 3.497 1.671 6922
1.465 3.494 1.657 7385
1.509 3.599 1.691 8949
1.511 3.604 1.679 9189
1.513 3.608 1.668 7651
1.509 3.598 1.651 5988
1.508 3.596 1.637 6969
1.515 3.613 1.631 11415
1.519 3.624 1.623 13437
1.521 3.628 1.612 8537
1.580 3.769 1.656 5604
1.602 3.821 1.664 3778
1.606 3.831 1.654 4274
1.614 3.849 1.648 5687
1.621 3.867 1.641 7901
1.626 3.878 1.632 9726
1.630 3.889 1.622 11223
1.641 3.913 1.618 11902
1.642 3.917 1.606 11987
1.638 3.908 1.589 14206
1.646 3.925 1.581 14841
1.650 3.936 1.572 11426
1.724 4.113 1.623 9394
1.729 4.124 1.612 8253
1.789 4.266 1.649 8899
1.790 4.270 1.636 6012
1.830 4.365 1.654 5273
1.832 4.369 1.640 7311
1.833 4.373 1.627 6565
1.835 4.377 1.613 4101
1.872 4.464 1.627 6507
1.876 4.475 1.616 5687
1.881 4.486 1.604 3367
1.912 4.560 1.613 2510
1.949 4.648 1.626 3428
1.948 4.645 1.609 3029
1.996 4.761 1.630 2668
2.013 4.800 1.626 4246
2.020 4.818 1.615 8108
2.022 4.822 1.600 9037
2.026 4.833 1.587 5664
2.040 4.865 1.580 4255
2.044 4.876 1.567 4826
2.132 5.084 1.612 5234
2.136 5.095 1.598 7706
2.138 5.099 1.582 8437
2.143 5.110 1.568 8312
2.144 5.114 1.552 6438
2.149 5.125 1.538 4174
2.278 5.433 1.605 3996
2.277 5.430 1.586 4792
2.284 5.448 1.572 4633
2.298 5.480 1.563 4048
2.368 5.647 1.588 4417
2.375 5.665 1.574 3842
2.371 5.655 1.552 4512
2.376 5.666 1.536 6143
2.380 5.677 1.520 5642
2.382 5.680 1.502 3734
2.557 6.098 1.583 3835
2.555 6.094 1.562 4066
2.560 6.105 1.545 5319
2.561 6.109 1.526 5870
2.560 6.106 1.505 4388
2.573 6.138 1.492 3041
2.728 6.506 1.553 2963
2.859 6.818 1.599 3088
2.863 6.829 1.579 3455
2.853 6.804 1.551 2423
2.975 7.095 1.589 2632
2.976 7.099 1.567 3911
2.978 7.103 1.544 3226
3.034 7.236 1.547 3591
3.035 7.240 1.525 3854
3.037 7.243 1.502 3733
3.150 7.513 1.529 3754
3.149 7.510 1.504 4210
3.150 7.513 1.480 3556
3.544 8.454 1.622 3870
3.543 8.450 1.594 4640
3.545 8.454 1.567 5202
3.543 8.451 1.539 5409
3.542 8.447 1.512 5238
3.543 8.451 1.485 4012
3.545 8.455 1.458 2489
3.704 8.834 1.490 2891
3.708 8.845 1.463 2936
3.710 8.848 1.435 2069
3.708 8.845 1.406 1195
3.710 8.848 1.378 938
3.742 8.924 1.360 605
4.770 11.376 1.661 1014
4.771 11.380 1.626 1313
4.773 11.384 1.590 1202
4.915 11.722 1.595 1169
4.916 11.725 1.558 1135
5.000 11.925 1.545 1002
4.992 11.907 1.504 1077
4.994 11.911 1.467 849
5.001 11.929 1.431 620
5.018 11.969 1.397 528
5.096 12.154 1.378 501
5.103 12.171 1.341 508
5.104 12.175 1.303 428
5.106 12.178 1.264 292
3.922 9.353 -0.414 254
3.921 9.352 -0.444 344
3.923 9.357 -0.474 304
3.892 9.283 -0.498 446
3.891 9.281 -0.527 730
3.894 9.287 -0.557 1039
3.893 9.285 -0.586 1039
3.892 9.283 -0.616 1219
3.888 9.273 -0.644 1409
3.890 9.278 -0.674 1437
3.895 9.291 -0.705 1518
3.894 9.288 -0.734 1719
3.896 9.293 -0.764 1945
3.895 9.291 -0.793 1945
3.891 9.281 -0.822 1536
3.890 9.278 -0.851 1151
3.883 9.261 -0.878 1323
3.879 9.251 -0.907 1559
3.878 9.248 -0.936 779
1.095 2.611 -0.184 253
0.889 2.097 1.755 2870
0.891 2.102 1.748 5740
0.892 2.106 1.742 5740
0.897 2.116 1.740 5354
0.904 2.132 1.742 5434
0.905 2.137 1.736 6820
0.907 2.141 1.729 8205
0.909 2.145 1.723 8205
0.913 2.155 1.720 8899
0.918 2.166 1.718 9903
0.925 2.182 1.720 7802
0.937 2.210 1.731 7136
0.936 2.208 1.720 5525
0.932 2.201 1.704 4084
0.955 2.253 1.733 3412
0.977 2.306 1.761 4641
0.979 2.311 1.754 6870
0.978 2.309 1.742 6845
0.980 2.313 1.735 6827
0.992 2.342 1.745 6625
0.997 2.352 1.742 7563
1.001 2.363 1.739 7833
1.008 2.379 1.740 8607
1.005 2.371 1.724 7347
1.004 2.369 1.713 6451
1.040 2.454 1.760 7520
1.042 2.459 1.752 10413
1.044 2.463 1.744 11294
1.045 2.467 1.737 12175
1.050 2.478 1.733 10985
1.054 2.488 1.729 10384
1.059 2.499 1.726 7419
1.092 2.578 1.766 6609
1.092 2.576 1.754 7866
1.091 2.574 1.742 9193
1.093 2.579 1.734 7613
1.086 2.564 1.714 5335
1.107 2.612 1.734 4118
1.109 2.617 1.726 5204
1.113 2.627 1.722 6293
1.118 2.638 1.717 5007
1.141 2.693 1.740 4521
1.138 2.685 1.724 5027
1.137 2.682 1.712 8651
1.138 2.687 1.703 11658
1.143 2.697 1.699 10649
1.145 2.701 1.690 9794
1.152 2.718 1.689 6984
1.165 2.748 1.696 5718
1.180 2.785 1.706 6980
1.182 2.789 1.697 8491
1.178 2.780 1.681 9230
1.177 2.778 1.669 8595
1.182 2.789 1.664 8440
1.186 2.799 1.659 8014
1.188 2.803 1.650 7658
1.259 2.970 1.730 7935
1.263 2.981 1.724 12216
1.268 2.992 1.718 14506
1.272 3.002 1.713 16150
1.274 3.007 1.703 16356
1.273 3.004 1.690 14991
1.278 3.015 1.684 12441
1.285 3.032 1.682 8460
1.298 3.063 1.686 9223
1.302 3.074 1.680 12377
1.307 3.084 1.673 13197
1.311 3.095 1.667 10661
1.372 3.238 1.727 5565
1.374 3.243 1.717 6553
1.376 3.247 1.707 6132
1.380 3.258 1.700 6023
1.388 3.275 1.696 6994
1.384 3.266 1.679 5760
1.383 3.263 1.666 4683
1.385 3.267 1.656 6954
1.392 3.285 1.652 8812
1.394 3.289 1.641 5846
1.464 3.454 1.705 5688
1.465 3.458 1.695 5457
1.470 3.469 1.687 5338
1.469 3.467 1.673 4940
1.479 3.491 1.671 5363
1.518 3.583 1.699 6288
1.523 3.594 1.691 9593
1.525 3.598 1.679 10308
1.526 3.602 1.668 8397
1.522 3.593 1.651 6669
1.518 3.583 1.634 7309
1.526 3.601 1.629 11161
1.533 3.618 1.623 14132
1.538 3.629 1.614 9607
1.597 3.769 1.659 5980
1.611 3.801 1.658 3971
1.534 3.620 1.572 3039
1.631 3.850 1.651 5329
1.636 3.861 1.641 8961
1.638 3.865 1.629 10476
1.628 3.841 1.606 12030
1.653 3.900 1.616 10627
1.654 3.904 1.603 11798
1.653 3.901 1.589 14020
1.658 3.912 1.579 12567
1.665 3.930 1.572 7639
1.743 4.113 1.625 8111
1.748 4.124 1.615 8648
1.802 4.253 1.646 7553
1.810 4.271 1.638 5689
1.841 4.344 1.649 4765
1.848 4.362 1.640 6412
1.850 4.366 1.627 5851
1.852 4.370 1.613 3768
1.889 4.457 1.627 5990
1.896 4.475 1.618 4651
1.898 4.479 1.604 2752
1.897 4.476 1.588 2248
1.963 4.634 1.623 3717
1.965 4.638 1.609 3552
2.014 4.753 1.630 2447
2.031 4.792 1.626 4380
2.035 4.803 1.613 8592
2.040 4.814 1.600 9721
2.042 4.818 1.585 6193
2.061 4.864 1.582 4198
2.063 4.868 1.567 4790
2.166 5.111 1.622 4802
2.162 5.101 1.602 5966
2.157 5.091 1.582 6164
2.162 5.102 1.568 6372
2.172 5.127 1.558 5583
2.174 5.131 1.542 4590
2.301 5.431 1.606 4337
2.300 5.428 1.587 4807
2.308 5.446 1.574 4623
2.321 5.478 1.564 4199
2.383 5.624 1.584 4501
2.391 5.642 1.570 4768
2.395 5.653 1.554 7160
2.397 5.657 1.536 9466
2.399 5.661 1.518 8259
2.403 5.671 1.502 5322
2.580 6.088 1.583 5710
2.581 6.092 1.564 6403
2.583 6.096 1.545 7569
2.585 6.099 1.526 7671
2.583 6.096 1.505 5856
2.597 6.128 1.492 4596
2.598 6.132 1.473 3842
2.872 6.779 1.593 3109
2.886 6.811 1.577 3248
2.879 6.794 1.551 2410
2.999 7.077 1.588 3452
3.003 7.088 1.567 4533
3.005 7.091 1.544 3857
3.061 7.224 1.547 4171
3.063 7.228 1.525 4399
3.064 7.232 1.502 4227
3.179 7.501 1.529 3337
3.177 7.498 1.504 3747
3.179 7.501 1.480 3245
3.570 8.426 1.619 3374
3.575 8.437 1.594 4294
3.574 8.434 1.566 4858
3.572 8.430 1.538 5118
3.574 8.434 1.512 4753
3.569 8.423 1.483 3660
3.559 8.398 1.452 2503
3.581 8.452 1.433 1957
3.583 8.455 1.406 2266
3.753 8.856 1.438 1966
3.751 8.852 1.409 1563
3.749 8.848 1.380 1124
3.772 8.902 1.359 941
3.774 8.906 1.331 883
4.818 11.369 1.626 1107
4.816 11.366 1.590 1189
4.815 11.362 1.553 1168
5.083 11.996 1.594 1174
5.048 11.913 1.545 974
5.034 11.881 1.504 1085
5.036 11.884 1.466 826
5.108 12.055 1.447 750
5.091 12.015 1.404 554
5.551 13.099 1.477 444
5.149 12.152 1.341 467
5.151 12.155 1.303 365
0.676 1.595 0.062 294
0.676 1.595 0.057 465
0.676 1.594 0.052 622
0.672 1.587 0.048 814
0.672 1.587 0.043 1007
0.675 1.594 0.038 1152
0.675 1.593 0.033 1300
0.675 1.593 0.028 1309
0.675 1.593 0.023 1324
0.675 1.593 0.018 1252
0.675 1.592 0.013 1132
3.926 9.266 -0.645 1110
3.925 9.264 -0.674 1376
3.924 9.261 -0.703 1643
3.926 9.266 -0.733 1575
3.929 9.271 -0.763 1545
3.928 9.269 -0.792 1545
3.926 9.266 -0.822 1245
3.925 9.264 -0.851 946
3.912 9.232 -0.877 1408
3.911 9.229 -0.906 1993
3.910 9.226 -0.935 996
0.925 2.158 1.806 2282
0.926 2.163 1.799 4564
0.931 2.173 1.797 4597
0.910 2.124 1.749 4271
0.914 2.135 1.747 4507
0.916 2.139 1.740 6026
0.915 2.137 1.729 7583
0.917 2.142 1.723 7583
0.924 2.158 1.725 9237
0.929 2.168 1.723 11395
0.936 2.184 1.725 9673
0.950 2.219 1.740 9974
0.957 2.235 1.742 8021
0.959 2.239 1.735 6163
0.964 2.250 1.733 5027
0.999 2.333 1.783 5567
0.996 2.325 1.767 7961
0.992 2.317 1.751 7940
0.989 2.309 1.735 8036
1.001 2.338 1.745 7253
1.006 2.348 1.742 7214
1.013 2.365 1.743 7373
1.020 2.382 1.744 8383
1.022 2.386 1.737 6740
1.013 2.366 1.713 5521
1.049 2.450 1.760 7363
1.051 2.454 1.752 10442
1.053 2.459 1.744 12330
1.055 2.463 1.737 14219
1.057 2.467 1.729 13057
1.064 2.484 1.729 12369
1.071 2.501 1.730 8849
1.078 2.518 1.730 7116
1.099 2.566 1.750 8631
1.103 2.576 1.746 10577
1.103 2.574 1.734 8970
1.126 2.629 1.758 6594
1.123 2.621 1.742 5581
1.119 2.612 1.726 4800
1.115 2.604 1.710 4288
1.117 2.608 1.702 3357
1.154 2.695 1.744 4171
1.153 2.693 1.732 5038
1.147 2.678 1.712 7675
1.146 2.676 1.700 9442
1.151 2.686 1.695 8091
1.155 2.697 1.690 7019
1.209 2.823 1.753 5015
1.203 2.808 1.733 4526
1.194 2.787 1.709 6072
1.195 2.791 1.701 7866
1.194 2.789 1.688 7598
1.238 2.890 1.734 6667
1.251 2.920 1.740 6858
1.264 2.950 1.745 6915
1.268 2.961 1.739 5914
1.273 2.972 1.733 7369
1.275 2.976 1.724 11569
1.276 2.980 1.715 13697
1.284 2.997 1.713 14136
1.286 3.002 1.703 12717
1.282 2.993 1.687 10979
1.286 3.003 1.681 8954
1.325 3.093 1.716 6744
1.318 3.078 1.696 9218
1.314 3.068 1.680 12318
1.319 3.079 1.673 13984
1.323 3.090 1.667 11981
1.325 3.094 1.657 5598
1.387 3.237 1.717 3578
1.368 3.195 1.684 3707
1.370 3.199 1.674 6579
1.398 3.263 1.693 7416
1.402 3.274 1.686 5982
1.413 3.298 1.685 4680
1.400 3.269 1.659 5506
1.402 3.273 1.649 7225
1.406 3.284 1.641 5577
1.471 3.435 1.699 5402
1.473 3.439 1.688 6204
1.475 3.443 1.678 6273
1.462 3.414 1.652 7047
1.464 3.418 1.641 5837
1.532 3.577 1.699 6371
1.537 3.588 1.691 9861
1.538 3.592 1.679 11079
1.543 3.603 1.671 8094
1.533 3.580 1.648 7480
1.535 3.584 1.637 8212
1.543 3.601 1.631 10090
1.550 3.619 1.626 12940
1.561 3.643 1.623 11370
1.615 3.770 1.662 7133
1.619 3.781 1.653 6297
1.621 3.785 1.641 4906
1.620 3.782 1.626 6846
1.627 3.800 1.620 8499
1.656 3.865 1.632 9207
1.657 3.869 1.620 9783
1.659 3.873 1.608 11205
1.669 3.898 1.603 12331
1.665 3.888 1.586 12860
1.667 3.892 1.574 10240
1.745 4.075 1.628 7767
1.759 4.106 1.625 6601
1.763 4.117 1.615 8609
1.765 4.121 1.602 7999
1.829 4.270 1.641 6329
1.834 4.281 1.630 6333
1.830 4.271 1.611 4879
1.831 4.275 1.598 3372
1.833 4.279 1.584 3330
1.837 4.290 1.573 4953
1.839 4.294 1.560 3323
1.915 4.472 1.604 2703
1.917 4.476 1.590 3079
1.978 4.619 1.621 3716
1.983 4.630 1.609 3822
2.027 4.732 1.625 3059
2.049 4.785 1.626 3595
2.054 4.796 1.613 6634
2.059 4.807 1.600 6354
2.060 4.810 1.585 4487
2.059 4.807 1.568 4955
2.061 4.811 1.553 5948
2.192 5.117 1.626 6721
2.193 5.121 1.610 7539
2.198 5.132 1.596 6855
2.200 5.136 1.580 7429
2.201 5.140 1.564 8074
2.200 5.136 1.546 6972
2.208 5.154 1.533 4039
2.324 5.426 1.589 3446
2.338 5.459 1.580 3410
2.415 5.639 1.609 4113
2.408 5.622 1.586 5072
2.413 5.633 1.570 5760
2.417 5.644 1.554 8449
2.419 5.648 1.536 10622
2.420 5.651 1.518 9104
2.598 6.067 1.601 6371
2.603 6.078 1.583 7817
2.605 6.082 1.564 8922
2.606 6.085 1.545 9376
2.608 6.089 1.526 8691
2.613 6.100 1.508 6855
2.620 6.118 1.492 5614
2.622 6.122 1.473 4667
2.889 6.746 1.588 3283
3.020 7.050 1.631 2726
3.024 7.061 1.610 3241
3.029 7.072 1.589 4283
3.028 7.069 1.565 5384
3.029 7.073 1.543 5050
3.089 7.212 1.547 4510
3.091 7.216 1.525 5273
3.095 7.227 1.503 5175
3.097 7.231 1.480 3773
3.095 7.227 1.456 2954
3.589 8.379 1.641 2435
3.588 8.376 1.613 2632
3.592 8.387 1.588 2839
3.588 8.377 1.559 3928
3.602 8.409 1.537 3765
3.603 8.413 1.510 3132
3.589 8.381 1.478 3408
3.588 8.377 1.451 3092
3.589 8.380 1.424 2927
3.594 8.391 1.399 2450
4.006 9.353 1.514 1436
4.011 9.364 1.485 1243
3.815 8.906 1.391 1092
4.128 9.638 1.463 1137
4.130 9.642 1.433 1275
4.899 11.437 1.638 1225
4.897 11.434 1.601 1153
5.122 11.958 1.630 1254
5.130 11.977 1.594 1261
5.138 11.995 1.557 1112
5.136 11.991 1.519 1006
5.138 11.995 1.481 695
5.167 12.064 1.450 517
5.172 12.075 1.413 675
5.170 12.071 1.374 558
5.609 13.096 1.437 551
5.570 13.005 1.386 505
5.568 13.001 1.345 364
0.679 1.585 0.058 262
0.679 1.585 0.053 338
0.679 1.584 0.048 433
0.678 1.584 0.043 527
0.681 1.591 0.038 569
0.681 1.591 0.033 615
0.681 1.591 0.028 592
0.681 1.590 0.023 573
0.681 1.590 0.018 529
3.969 9.267 -0.617 687
3.968 9.265 -0.646 885
3.961 9.248 -0.674 973
3.960 9.246 -0.703 1093
3.956 9.237 -0.732 808
3.949 9.220 -0.759 544
3.948 9.217 -0.789 544
3.937 9.193 -0.815 508
3.930 9.176 -0.843 565
3.941 9.202 -0.875 1087
3.943 9.207 -0.905 1744
3.936 9.189 -0.932 896
0.929 2.150 1.801 2347
0.930 2.154 1.795 4695
0.932 2.159 1.788 4695
0.937 2.169 1.786 4320
0.923 2.138 1.752 4523
0.925 2.142 1.745 5548
0.958 2.218 1.793 7171
0.960 2.222 1.786 7171
0.933 2.161 1.729 8962
0.938 2.171 1.727 11654
0.960 2.223 1.756 10400
0.962 2.228 1.749 10855
0.964 2.232 1.742 9150
0.966 2.236 1.735 7445
0.970 2.247 1.733 5908
1.006 2.330 1.783 5780
1.003 2.322 1.767 8314
1.000 2.314 1.751 8453
0.996 2.306 1.735 8744
1.006 2.329 1.741 7640
1.013 2.345 1.742 7062
1.023 2.368 1.747 7059
1.027 2.378 1.744 8239
1.029 2.383 1.737 6385
1.068 2.473 1.788 4688
1.060 2.453 1.764 6859
1.059 2.451 1.752 9869
1.061 2.456 1.744 12474
1.060 2.454 1.732 15144
1.064 2.464 1.729 13960
1.069 2.475 1.725 13172
1.076 2.491 1.726 9082
1.086 2.514 1.730 7512
1.107 2.562 1.750 8554
1.109 2.567 1.742 10500
1.108 2.565 1.730 9003
1.137 2.632 1.762 7436
1.133 2.624 1.746 6750
1.127 2.609 1.726 5442
1.123 2.601 1.710 4960
1.133 2.624 1.713 4422
1.149 2.660 1.725 4844
1.156 2.677 1.724 6491
1.155 2.675 1.712 8031
1.154 2.672 1.700 8156
1.159 2.683 1.695 6815
1.166 2.700 1.694 5867
1.218 2.819 1.753 4835
1.217 2.817 1.740 3952
1.202 2.783 1.709 4347
1.207 2.794 1.704 6495
1.217 2.817 1.707 7515
1.221 2.828 1.701 6558
1.226 2.838 1.696 5984
1.273 2.946 1.745 6228
1.277 2.957 1.739 5333
1.285 2.974 1.737 6602
1.284 2.972 1.724 10119
1.286 2.976 1.715 12003
1.290 2.987 1.709 11816
1.295 2.998 1.703 10121
1.325 3.067 1.728 8685
1.332 3.085 1.726 7786
1.334 3.089 1.716 6916
1.330 3.080 1.699 8462
1.329 3.078 1.686 10744
1.331 3.082 1.677 12765
1.333 3.086 1.667 11512
1.335 3.090 1.657 5803
1.354 3.134 1.667 4093
1.375 3.184 1.680 4120
1.380 3.195 1.674 7139
1.385 3.206 1.667 7235
1.415 3.276 1.689 5074
1.423 3.294 1.685 4019
1.410 3.264 1.659 4172
1.412 3.269 1.649 5642
1.454 3.366 1.682 5406
1.476 3.417 1.693 5786
1.481 3.428 1.685 6447
1.482 3.432 1.675 6764
1.473 3.409 1.652 8148
1.477 3.420 1.644 6716
1.543 3.572 1.699 5566
1.548 3.583 1.691 9516
1.549 3.587 1.679 10900
1.554 3.598 1.671 8095
1.544 3.575 1.648 7617
1.549 3.586 1.640 8502
1.557 3.604 1.634 8669
1.567 3.628 1.631 10822
1.572 3.639 1.623 11026
1.629 3.772 1.664 7212
1.631 3.776 1.653 7229
1.633 3.780 1.641 6184
1.632 3.777 1.626 7283
1.636 3.788 1.617 8548
1.670 3.867 1.635 7499
1.669 3.864 1.620 8720
1.671 3.868 1.608 10756
1.673 3.872 1.595 11756
1.674 3.876 1.583 11676
1.676 3.880 1.571 9477
1.758 4.069 1.628 7437
1.768 4.094 1.623 5656
1.776 4.112 1.615 7560
1.778 4.116 1.602 7087
1.842 4.265 1.641 7250
1.844 4.269 1.627 7995
1.843 4.266 1.611 6018
1.844 4.270 1.598 4444
1.849 4.281 1.587 4815
1.851 4.284 1.573 6878
1.852 4.288 1.560 4405
1.926 4.459 1.602 2325
1.931 4.470 1.590 3041
1.990 4.606 1.619 3458
2.039 4.721 1.640 3468
2.041 4.725 1.625 3382
2.049 4.743 1.615 3135
2.066 4.782 1.611 5015
2.064 4.779 1.594 4016
2.072 4.797 1.583 3798
2.074 4.801 1.568 7459
2.075 4.805 1.553 8511
2.083 4.823 1.542 8174
2.212 5.121 1.612 8235
2.214 5.125 1.596 8206
2.215 5.129 1.580 8620
2.217 5.133 1.564 9129
2.219 5.137 1.547 8151
2.226 5.155 1.535 5592
2.295 5.313 1.561 3114
2.434 5.635 1.629 2787
2.436 5.639 1.611 4066
2.425 5.614 1.586 3887
2.433 5.632 1.572 4343
2.435 5.636 1.554 7039
2.436 5.640 1.536 9300
2.438 5.644 1.518 8455
2.617 6.059 1.601 6023
2.619 6.063 1.582 7323
2.623 6.074 1.564 8165
2.625 6.077 1.545 7964
2.630 6.088 1.527 7242
2.634 6.099 1.510 5753
2.639 6.110 1.492 4534
2.641 6.114 1.473 3846
2.910 6.737 1.588 2976
2.970 6.877 1.596 3127
3.046 7.052 1.610 2990
3.051 7.063 1.589 3957
3.049 7.059 1.565 5083
3.051 7.063 1.543 5005
3.111 7.203 1.547 4193
3.113 7.207 1.525 5332
3.118 7.217 1.503 5260
3.119 7.221 1.480 3734
3.118 7.218 1.456 2717
3.608 8.354 1.638 2656
3.607 8.351 1.610 2659
3.615 8.369 1.586 2765
3.613 8.366 1.559 3790
3.609 8.355 1.530 3716
3.607 8.351 1.502 3035
3.609 8.355 1.476 3261
3.610 8.359 1.449 3341
3.612 8.362 1.423 3351
3.617 8.373 1.398 2684
4.038 9.348 1.515 2083
4.039 9.352 1.485 1638
4.159 9.629 1.495 1400
4.158 9.626 1.463 1620
4.156 9.622 1.432 1468
4.158 9.625 1.401 1296
4.159 9.629 1.371 1200
5.158 11.942 1.630 1192
5.151 11.925 1.589 1027
5.143 11.907 1.549 810
5.391 12.482 1.577 743
5.168 11.965 1.479 641
5.610 12.988 1.553 652
5.434 12.579 1.468 623
5.651 13.082 1.479 545
5.612 12.992 1.428 636
5.610 12.988 1.386 581
5.608 12.984 1.345 420
0.687 1.590 0.067 374
0.687 1.590 0.062 563
0.687 1.590 0.057 884
0.687 1.590 0.052 1180
0.687 1.590 0.048 1551
0.686 1.589 0.043 1922
0.686 1.589 0.038 2226
0.686 1.589 0.033 2531
0.686 1.588 0.028 2657
0.686 1.588 0.023 2807
0.686 1.588 0.018 2713
0.686 1.587 0.013 2584
0.686 1.587 0.008 2574
0.689 1.594 0.003 2331
0.688 1.594 -0.002 2098
0.688 1.593 -0.007 1728
0.688 1.593 -0.012 1358
0.688 1.592 -0.017 1064
0.688 1.592 -0.022 770
3.964 9.178 -0.844 570
3.966 9.183 -0.874 896
3.965 9.180 -0.903 1238
3.961 9.170 -0.932 687
0.928 2.136 1.792 2804
0.930 2.141 1.785 5608
0.932 2.145 1.779 5608
0.931 2.143 1.767 5490
0.930 2.142 1.756 5511
0.953 2.194 1.786 6426
0.957 2.204 1.784 8362
0.959 2.208 1.777 8362
0.961 2.213 1.770 9081
0.942 2.169 1.727 11545
0.967 2.227 1.761 10290
0.967 2.226 1.749 10776
0.969 2.230 1.742 9736
0.970 2.234 1.735 8696
0.967 2.227 1.720 7103
0.966 2.225 1.708 5672
1.005 2.314 1.762 8324
1.004 2.312 1.751 8751
1.001 2.304 1.735 9464
1.005 2.315 1.732 8350
1.010 2.325 1.729 7412
1.033 2.378 1.756 7140
1.035 2.383 1.748 8283
1.037 2.387 1.741 6239
1.073 2.471 1.788 4373
1.062 2.445 1.760 6348
1.064 2.449 1.752 9125
1.066 2.453 1.744 12345
1.065 2.451 1.732 15823
1.069 2.462 1.729 14497
1.074 2.472 1.725 13643
1.078 2.483 1.722 9299
1.091 2.512 1.730 7643
1.112 2.560 1.750 8413
1.117 2.571 1.746 10258
1.118 2.575 1.738 8419
1.142 2.630 1.762 7761
1.141 2.628 1.750 6796
1.140 2.626 1.738 5881
1.129 2.598 1.710 5588
1.144 2.634 1.721 5896
1.151 2.651 1.721 6980
1.159 2.668 1.720 9287
1.161 2.672 1.712 10631
1.160 2.670 1.700 9692
1.164 2.681 1.695 7988
1.188 2.736 1.717 8488
1.190 2.740 1.708 8182
1.195 2.751 1.703 6353
1.199 2.761 1.698 5114
1.221 2.810 1.715 6341
1.223 2.815 1.707 8121
1.224 2.819 1.698 7513
1.232 2.836 1.696 6731
1.236 2.847 1.691 5883
1.235 2.844 1.678 5312
1.234 2.842 1.666 5875
1.290 2.969 1.724 8291
1.289 2.967 1.711 9846
1.293 2.978 1.706 9556
1.298 2.989 1.700 8388
1.331 3.065 1.728 8757
1.336 3.075 1.722 8229
1.340 3.086 1.716 7146
1.339 3.084 1.703 7705
1.341 3.088 1.693 9073
1.337 3.079 1.677 10528
1.339 3.083 1.667 10152
1.352 3.114 1.671 5815
1.363 3.138 1.671 5627
1.379 3.175 1.677 4837
1.389 3.199 1.677 7225
1.391 3.203 1.667 7421
1.393 3.207 1.657 4951
1.395 3.211 1.647 3844
1.402 3.228 1.643 3584
1.473 3.392 1.708 7218
1.478 3.403 1.701 8112
1.483 3.414 1.693 6837
1.488 3.425 1.685 6927
1.492 3.436 1.678 7282
1.479 3.406 1.652 8185
1.484 3.417 1.644 6774
1.506 3.468 1.654 5660
1.555 3.580 1.691 9154
1.557 3.584 1.679 10690
1.561 3.595 1.671 8641
1.560 3.592 1.657 8251
1.559 3.590 1.643 8419
1.567 3.607 1.637 6770
1.577 3.631 1.634 8410
1.579 3.635 1.623 9134
1.637 3.769 1.664 6490
1.639 3.773 1.653 7205
1.643 3.783 1.643 7146
1.639 3.774 1.626 7585
1.644 3.785 1.617 8144
1.654 3.809 1.613 8032
1.671 3.847 1.614 10580
1.673 3.851 1.602 11375
1.677 3.862 1.593 11091
1.679 3.866 1.581 10257
1.681 3.870 1.569 8105
1.766 4.066 1.628 7199
1.762 4.056 1.610 5027
1.787 4.115 1.617 5400
1.840 4.236 1.646 6078
1.848 4.254 1.638 9365
1.849 4.258 1.625 10614
1.851 4.262 1.611 6739
1.853 4.266 1.598 4872
1.855 4.270 1.584 5855
1.856 4.274 1.571 7945
1.861 4.285 1.560 5013
1.977 4.552 1.634 2457
2.012 4.633 1.645 3462
2.008 4.623 1.626 3253
2.046 4.710 1.638 2893
2.051 4.721 1.625 3204
2.061 4.746 1.617 3630
2.069 4.764 1.606 5836
2.077 4.782 1.596 8262
2.079 4.786 1.581 7628
2.086 4.804 1.570 9446
2.088 4.808 1.555 11031
2.096 4.825 1.544 10263
2.097 4.829 1.528 9197
2.224 5.121 1.596 8134
2.226 5.125 1.580 8742
2.227 5.128 1.564 9286
2.229 5.132 1.547 8959
2.237 5.150 1.535 7255
2.242 5.161 1.521 3411
2.448 5.637 1.631 2532
2.453 5.648 1.615 4107
2.393 5.511 1.560 3175
2.447 5.635 1.574 3082
2.446 5.631 1.554 5112
2.448 5.635 1.536 6647
2.449 5.639 1.518 5862
2.626 6.046 1.599 4645
2.631 6.057 1.582 5636
2.636 6.068 1.564 5825
2.637 6.072 1.545 5082
2.642 6.083 1.527 4675
2.647 6.094 1.510 3486
2.775 6.389 1.556 2698
2.916 6.713 1.606 3022
2.979 6.860 1.616 3319
2.984 6.871 1.596 3597
2.983 6.867 1.572 3627
2.981 6.864 1.549 3780
3.064 7.053 1.565 4200
3.065 7.057 1.543 4155
3.126 7.197 1.547 3450
3.127 7.200 1.525 4654
3.405 7.841 1.623 4852
3.404 7.837 1.597 3867
3.135 7.218 1.458 2200
3.622 8.339 1.637 2760
3.624 8.343 1.610 2734
3.635 8.369 1.588 2784
3.627 8.351 1.557 3543
3.623 8.341 1.529 4212
3.624 8.344 1.502 3321
3.623 8.341 1.475 2887
3.627 8.351 1.449 3146
3.629 8.355 1.423 3338
4.055 9.336 1.545 2801
4.057 9.340 1.515 2466
4.055 9.337 1.484 1800
4.172 9.607 1.492 2288
4.171 9.603 1.461 2336
4.163 9.585 1.428 2055
4.174 9.610 1.400 1511
4.178 9.620 1.371 1285
5.183 11.932 1.630 1593
5.181 11.929 1.591 1333
5.183 11.933 1.553 936
5.188 11.944 1.516 934
5.189 11.947 1.478 790
5.639 12.984 1.553 851
5.506 12.677 1.479 651
5.492 12.644 1.435 613
5.641 12.988 1.429 725
5.636 12.977 1.386 606
5.634 12.973 1.345 417
0.693 1.597 0.077 257
0.690 1.589 0.072 453
0.690 1.589 0.067 887
0.693 1.596 0.062 1230
0.690 1.589 0.057 1742
0.690 1.588 0.052 2222
0.690 1.588 0.048 2730
0.690 1.588 0.043 3238
0.690 1.588 0.038 3553
0.689 1.587 0.033 3868
0.689 1.587 0.028 3876
0.689 1.587 0.023 3910
0.689 1.586 0.018 3715
0.689 1.586 0.013 3447
0.689 1.586 0.008 3399
0.692 1.593 0.003 3046
0.692 1.592 -0.002 2736
0.691 1.592 -0.007 2276
0.688 1.584 -0.011 1818
0.691 1.591 -0.017 1435
0.691 1.591 -0.022 1053
0.691 1.590 -0.027 769
3.985 9.175 -0.874 742
3.981 9.165 -0.903 972
3.973 9.148 -0.930 592
0.933 2.127 1.787 3419
0.935 2.131 1.781 6839
0.937 2.135 1.774 6839
0.939 2.140 1.767 6677
0.941 2.144 1.761 6514
0.959 2.184 1.781 6901
0.966 2.200 1.784 8922
0.968 2.205 1.777 8922
0.970 2.209 1.770 8876
0.951 2.166 1.727 10585
0.955 2.176 1.725 9526
0.978 2.228 1.754 9627
0.977 2.226 1.742 9345
0.979 2.231 1.735 9121
0.976 2.223 1.720 7488
0.978 2.227 1.713 5976
1.014 2.310 1.762 7710
1.011 2.302 1.746 8215
1.007 2.294 1.731 9175
1.012 2.305 1.728 8267
1.016 2.315 1.725 7647
1.042 2.374 1.756 7124
1.044 2.379 1.748 8152
1.049 2.389 1.745 6106
1.050 2.393 1.738 4164
1.071 2.441 1.760 5878
1.070 2.439 1.748 8337
1.072 2.443 1.740 11995
1.074 2.447 1.732 15653
1.079 2.458 1.729 14317
1.083 2.468 1.725 13544
1.088 2.479 1.722 9287
1.101 2.508 1.730 7597
1.122 2.556 1.750 8263
1.126 2.566 1.746 10163
1.128 2.571 1.738 8439
1.152 2.625 1.762 7422
1.151 2.623 1.750 6486
1.151 2.621 1.738 6786
1.150 2.619 1.726 7173
1.154 2.630 1.721 8677
1.159 2.640 1.717 10230
1.169 2.663 1.720 12379
1.174 2.674 1.716 14090
1.170 2.666 1.700 12275
1.189 2.708 1.714 11261
1.199 2.731 1.717 12832
1.201 2.735 1.708 12834
1.203 2.740 1.700 10652
1.199 2.731 1.684 8594
1.201 2.735 1.675 7718
1.208 2.752 1.674 7659
1.210 2.756 1.665 8479
1.212 2.760 1.656 9007
1.213 2.764 1.648 7711
1.218 2.775 1.643 5891
1.245 2.837 1.666 6050
1.244 2.835 1.654 7480
1.246 2.839 1.645 8565
1.305 2.973 1.706 8121
1.307 2.977 1.696 7618
1.343 3.060 1.728 8627
1.348 3.070 1.722 8574
1.350 3.074 1.712 7551
1.351 3.079 1.703 7155
1.382 3.148 1.727 8289
1.352 3.080 1.680 8369
1.351 3.078 1.667 8445
1.370 3.122 1.677 6076
1.378 3.139 1.674 6411
1.388 3.163 1.674 5447
1.402 3.193 1.677 7054
1.406 3.204 1.670 7158
1.408 3.208 1.660 4899
1.410 3.212 1.650 3833
1.479 3.369 1.712 4681
1.487 3.387 1.708 9132
1.491 3.397 1.701 9903
1.493 3.402 1.690 7595
1.504 3.426 1.688 7736
1.517 3.457 1.690 8176
1.490 3.394 1.649 7403
1.497 3.411 1.644 6265
1.520 3.462 1.654 5074
1.569 3.574 1.691 8528
1.571 3.578 1.679 10104
1.575 3.589 1.671 8730
1.574 3.586 1.657 8835
1.573 3.584 1.643 7417
1.593 3.628 1.649 5034
1.594 3.632 1.637 6155
1.596 3.636 1.626 6870
1.589 3.620 1.606 5287
1.653 3.766 1.653 6156
1.655 3.770 1.641 7137
1.654 3.767 1.626 7888
1.667 3.799 1.625 8250
1.675 3.816 1.619 10487
1.683 3.834 1.612 12932
1.685 3.838 1.600 11936
1.677 3.821 1.580 9983
1.694 3.859 1.581 8887
1.744 3.973 1.610 7743
1.746 3.977 1.597 8457
1.747 3.981 1.585 7828
1.855 4.225 1.660 5697
1.856 4.229 1.646 8198
1.858 4.233 1.633 12444
1.863 4.244 1.622 13631
1.862 4.241 1.606 7730
1.866 4.252 1.595 4668
1.871 4.263 1.584 5891
1.873 4.267 1.571 7558
1.874 4.270 1.558 5036
1.998 4.552 1.636 2674
2.030 4.625 1.645 3715
2.038 4.643 1.635 3510
2.034 4.633 1.616 2838
2.035 4.637 1.601 3275
2.083 4.745 1.619 3993
2.091 4.763 1.609 7436
2.095 4.774 1.596 11884
2.097 4.778 1.581 10286
2.105 4.796 1.570 9031
2.110 4.806 1.557 10595
2.114 4.817 1.544 10143
2.113 4.814 1.526 9178
2.241 5.105 1.594 6427
2.246 5.116 1.580 7761
2.247 5.120 1.564 8644
2.252 5.131 1.549 8989
2.254 5.134 1.533 7577
2.255 5.138 1.517 3477
2.365 5.388 1.567 2827
2.478 5.646 1.617 3593
2.480 5.649 1.599 3228
2.481 5.653 1.581 3128
2.471 5.629 1.556 3014
2.469 5.626 1.536 3600
2.471 5.629 1.518 3256
2.646 6.029 1.597 2894
2.651 6.040 1.580 3474
2.653 6.044 1.561 3560
2.651 6.041 1.540 3030
2.669 6.080 1.529 2665
2.792 6.360 1.573 2485
2.862 6.520 1.588 2946
2.998 6.830 1.634 2645
3.003 6.841 1.614 3152
3.008 6.852 1.594 3400
3.006 6.849 1.571 3666
3.008 6.852 1.549 3942
3.009 6.856 1.528 4019
3.011 6.860 1.506 3099
3.150 7.177 1.546 2659
3.431 7.816 1.647 4226
3.436 7.827 1.623 5676
3.434 7.824 1.597 4610
3.436 7.828 1.572 2017
3.651 8.318 1.635 2515
3.735 8.508 1.642 2698
3.733 8.505 1.614 2838
3.663 8.344 1.559 3306
3.658 8.334 1.530 4227
3.660 8.337 1.503 3175
3.655 8.327 1.475 2283
4.082 9.299 1.601 2969
4.090 9.317 1.574 3300
4.091 9.321 1.545 3046
4.090 9.317 1.514 2671
4.088 9.314 1.483 2085
4.203 9.576 1.490 3057
4.202 9.572 1.459 3088
4.197 9.561 1.427 2900
4.189 9.543 1.394 1994
4.190 9.547 1.363 1240
5.001 11.393 1.565 1357
5.009 11.412 1.530 1355
5.011 11.415 1.494 1079
5.009 11.412 1.457 905
5.691 12.965 1.595 831
5.686 12.955 1.553 902
5.691 12.966 1.512 657
5.724 13.042 1.478 643
5.720 13.031 1.436 803
5.718 13.027 1.393 619
5.688 12.958 1.345 366
0.696 1.587 0.077 327
0.696 1.587 0.072 601
0.696 1.586 0.067 1235
0.696 1.586 0.062 1754
0.696 1.586 0.057 2550
0.696 1.586 0.052 3291
0.696 1.585 0.048 4128
0.696 1.585 0.043 4964
0.696 1.585 0.038 5555
0.696 1.585 0.033 6146
0.695 1.584 0.028 6254
0.695 1.584 0.023 6401
0.695 1.584 0.018 6088
0.695 1.583 0.013 5666
0.695 1.583 0.008 5598
0.698 1.590 0.003 5023
0.698 1.590 -0.002 4472
0.698 1.589 -0.007 3682
0.697 1.589 -0.012 2892
0.697 1.588 -0.017 2262
0.694 1.581 -0.021 1637
0.697 1.587 -0.027 1178
0.697 1.587 -0.031 723
4.007 9.128 -0.900 744
3.999 9.111 -0.927 625
3.991 9.093 -0.954 296
0.936 2.118 1.783 4297
0.938 2.123 1.776 8594
0.940 2.127 1.769 8594
0.942 2.132 1.763 8014
0.947 2.142 1.761 7598
0.964 2.182 1.781 7298
0.969 2.192 1.779 9262
0.971 2.196 1.772 9262
0.975 2.207 1.770 8221
0.953 2.157 1.723 9337
0.958 2.167 1.720 8880
0.960 2.172 1.714 8551
0.970 2.194 1.720 8589
0.982 2.222 1.731 9307
0.981 2.220 1.720 7677
0.983 2.225 1.713 6073
1.017 2.301 1.758 7110
1.014 2.294 1.742 7513
1.010 2.286 1.726 8819
1.015 2.296 1.723 7994
1.022 2.312 1.725 7820
1.048 2.372 1.756 7012
1.053 2.382 1.753 7812
1.055 2.386 1.745 6025
1.059 2.397 1.742 4315
1.064 2.407 1.739 5849
1.071 2.424 1.739 7972
1.076 2.434 1.736 11203
1.078 2.438 1.728 14484
1.082 2.449 1.725 13161
1.087 2.459 1.721 12341
1.092 2.470 1.718 8742
1.104 2.499 1.726 6932
1.131 2.559 1.754 7053
1.133 2.564 1.746 8576
1.138 2.574 1.742 7180
1.159 2.622 1.762 7670
1.158 2.620 1.750 6992
1.157 2.618 1.738 8692
1.156 2.616 1.726 10428
1.161 2.627 1.721 12518
1.166 2.637 1.717 14657
1.173 2.654 1.716 16421
1.181 2.671 1.716 18448
1.185 2.682 1.711 16122
1.198 2.711 1.718 15862
1.203 2.722 1.713 17876
1.205 2.726 1.704 18132
1.207 2.730 1.696 16045
1.209 2.734 1.687 13702
1.208 2.732 1.675 11979
1.209 2.736 1.666 11542
1.214 2.747 1.661 12926
1.216 2.751 1.653 13349
1.220 2.761 1.648 11197
1.222 2.765 1.639 8477
1.238 2.802 1.648 5991
1.251 2.831 1.654 7045
1.253 2.836 1.645 8350
1.310 2.963 1.702 8418
1.309 2.961 1.689 8034
1.351 3.056 1.728 8101
1.356 3.067 1.722 8494
1.354 3.065 1.709 7795
1.385 3.134 1.733 7310
1.390 3.145 1.727 9054
1.392 3.149 1.717 8361
1.362 3.081 1.670 6584
1.381 3.125 1.681 6133
1.389 3.142 1.677 6778
1.396 3.159 1.674 6273
1.410 3.190 1.677 7286
1.415 3.200 1.670 7108
1.422 3.218 1.666 5173
1.477 3.341 1.713 4666
1.487 3.365 1.712 6026
1.495 3.383 1.708 10227
1.500 3.394 1.701 10646
1.502 3.398 1.690 8331
1.510 3.415 1.685 8982
1.526 3.453 1.690 9027
1.528 3.457 1.679 6800
1.506 3.407 1.644 5762
1.514 3.425 1.639 4484
1.578 3.570 1.691 7666
1.580 3.574 1.679 9242
1.581 3.578 1.668 8432
1.580 3.575 1.654 8706
1.585 3.586 1.646 6252
1.605 3.631 1.651 4664
1.607 3.635 1.640 4910
1.608 3.639 1.629 5559
1.595 3.609 1.603 4362
1.705 3.857 1.691 7233
1.707 3.861 1.679 9400
1.663 3.763 1.626 7587
1.680 3.801 1.628 8092
1.685 3.812 1.619 11172
1.693 3.830 1.612 13272
1.697 3.840 1.602 11396
1.687 3.817 1.580 8918
1.749 3.958 1.620 12016
1.751 3.961 1.607 10946
1.753 3.965 1.595 11223
1.757 3.976 1.585 11151
1.756 3.973 1.570 8808
1.864 4.218 1.644 10783
1.866 4.222 1.631 15525
1.871 4.232 1.620 16674
1.869 4.229 1.604 10065
1.871 4.233 1.591 5521
1.876 4.244 1.580 5283
1.878 4.248 1.566 6161
1.879 4.252 1.553 4365
2.016 4.560 1.641 2722
2.036 4.606 1.640 3554
2.047 4.631 1.632 3565
2.042 4.621 1.613 4065
2.044 4.625 1.599 4462
2.101 4.754 1.624 4440
2.103 4.758 1.609 8586
2.108 4.769 1.596 13116
2.109 4.772 1.581 11019
2.114 4.783 1.568 6921
2.119 4.794 1.555 7652
2.108 4.770 1.531 8527
2.110 4.774 1.516 9128
2.254 5.099 1.594 5397
2.259 5.110 1.580 7455
2.263 5.121 1.566 7964
2.262 5.118 1.547 8723
2.264 5.121 1.531 6974
2.265 5.125 1.515 3012
2.385 5.396 1.570 2714
2.492 5.639 1.617 2265
2.497 5.650 1.601 2841
2.499 5.654 1.583 3441
2.513 5.686 1.572 2213
2.568 5.810 1.584 2063
2.579 5.835 1.571 2046
2.624 5.938 1.577 2283
2.626 5.941 1.558 2802
2.650 5.995 1.551 2562
2.798 6.331 1.610 2425
2.803 6.342 1.591 2768
2.808 6.353 1.573 2217
2.879 6.513 1.588 3102
2.880 6.517 1.567 2840
3.020 6.833 1.614 2615
3.025 6.844 1.594 2833
3.024 6.841 1.571 3275
3.025 6.845 1.549 3447
3.027 6.848 1.528 3381
3.029 6.852 1.506 2684
3.449 7.803 1.671 2275
3.451 7.807 1.647 4350
3.453 7.811 1.622 5731
3.454 7.815 1.597 4766
3.447 7.798 1.568 2377
3.672 8.309 1.635 2164
3.756 8.499 1.642 3573
3.752 8.488 1.613 3525
3.750 8.485 1.584 4310
3.758 8.503 1.560 4536
3.760 8.507 1.533 3585
3.755 8.496 1.504 3590
3.754 8.493 1.475 4027
3.758 8.503 1.450 3842
3.769 8.528 1.426 3088
4.117 9.314 1.515 2235
4.213 9.533 1.517 2653
4.221 9.551 1.488 3629
4.223 9.554 1.458 3475
4.218 9.544 1.426 3226
4.213 9.533 1.394 2528
4.212 9.529 1.362 1812
5.030 11.381 1.565 2038
5.035 11.392 1.529 1820
5.037 11.395 1.493 1404
5.038 11.399 1.457 1173
5.428 12.281 1.520 844
5.723 12.947 1.553 787
5.431 12.288 1.442 627
5.751 13.012 1.477 698
5.750 13.009 1.435 879
5.748 13.005 1.393 675
5.590 12.648 1.318 306
0.701 1.585 0.077 347
0.700 1.585 0.072 638
0.700 1.585 0.067 1320
0.700 1.584 0.062 1883
0.700 1.584 0.057 2727
0.700 1.584 0.052 3510
0.700 1.584 0.048 4337
0.700 1.583 0.043 5165
0.700 1.583 0.038 5710
0.700 1.583 0.033 6255
0.699 1.583 0.028 6320
0.699 1.582 0.023 6427
0.699 1.582 0.018 6159
0.699 1.582 0.013 5798
0.699 1.581 0.008 5747
0.702 1.588 0.003 5248
0.702 1.588 -0.002 4815
0.702 1.587 -0.007 4079
0.698 1.580 -0.011 3344
0.701 1.587 -0.017 2738
0.701 1.586 -0.022 2133
0.701 1.586 -0.027 1606
0.701 1.585 -0.031 1080
0.700 1.585 -0.036 1080
0.700 1.584 -0.041 711
0.700 1.584 -0.046 343
0.942 2.109 1.778 5085
0.944 2.113 1.771 10170
0.946 2.118 1.765 10170
0.951 2.128 1.763 9223
0.955 2.138 1.761 8439
0.970 2.172 1.777 7629
0.977 2.188 1.779 9487
0.979 2.192 1.772 9487
0.981 2.197 1.765 7891
0.962 2.153 1.723 8209
0.967 2.164 1.720 8405
0.968 2.168 1.714 8938
0.973 2.178 1.711 8699
0.983 2.200 1.718 9213
0.990 2.216 1.720 7459
1.005 2.251 1.735 6061
1.024 2.291 1.754 6417
1.012 2.265 1.725 7248
1.017 2.276 1.722 8560
1.021 2.286 1.719 7852
1.034 2.314 1.729 8205
1.055 2.361 1.752 6996
1.062 2.378 1.753 7524
1.064 2.382 1.745 5978
1.069 2.392 1.742 4534
1.073 2.403 1.739 6338
1.078 2.413 1.735 8287
1.085 2.430 1.736 10381
1.087 2.434 1.728 13043
1.092 2.445 1.725 11625
1.097 2.455 1.721 10751
1.101 2.465 1.718 8004
1.114 2.494 1.726 6572
1.141 2.555 1.754 6448
1.149 2.571 1.754 7675
1.162 2.601 1.762 6855
1.169 2.618 1.762 7989
1.177 2.634 1.762 7596
1.168 2.614 1.738 11007
1.169 2.618 1.729 14639
1.171 2.622 1.721 16534
1.176 2.633 1.717 18435
1.184 2.649 1.716 19502
1.188 2.660 1.712 21821
1.190 2.664 1.703 19756
1.206 2.700 1.714 19862
1.214 2.717 1.713 22202
1.216 2.721 1.704 22478
1.220 2.732 1.700 20344
1.219 2.730 1.687 17924
1.218 2.727 1.675 15459
1.220 2.731 1.666 14061
1.225 2.742 1.661 15179
1.227 2.746 1.653 15406
1.231 2.756 1.648 12581
1.233 2.760 1.639 9395
1.235 2.764 1.631 6374
1.315 2.943 1.717 7747
1.317 2.947 1.708 9849
1.318 2.951 1.699 9763
1.320 2.955 1.689 8925
1.322 2.960 1.680 8174
1.365 3.055 1.719 8205
1.364 3.053 1.706 8036
1.398 3.129 1.733 7649
1.400 3.133 1.723 10005
1.404 3.144 1.717 9652
1.386 3.102 1.684 6208
1.393 3.119 1.681 5813
1.401 3.136 1.677 6414
1.409 3.154 1.674 6524
1.419 3.178 1.674 7396
1.430 3.201 1.673 6891
1.441 3.225 1.673 5938
1.443 3.229 1.663 5411
1.504 3.366 1.716 6568
1.509 3.377 1.708 9901
1.513 3.388 1.701 9997
1.515 3.392 1.690 8487
1.523 3.409 1.685 9557
1.528 3.420 1.678 8960
1.542 3.451 1.679 6318
1.525 3.415 1.650 5255
1.533 3.432 1.645 5047
1.592 3.564 1.691 6522
1.591 3.561 1.676 8365
1.590 3.558 1.662 8391
1.585 3.549 1.645 8626
1.617 3.620 1.663 6457
1.613 3.611 1.646 4919
1.621 3.628 1.640 4927
1.626 3.639 1.631 5640
1.652 3.697 1.642 4404
1.723 3.857 1.694 8349
1.725 3.861 1.682 10743
1.727 3.865 1.670 7889
1.713 3.835 1.644 6690
1.703 3.812 1.621 9316
1.711 3.830 1.614 11318
1.716 3.840 1.605 9663
1.754 3.926 1.624 10547
1.762 3.944 1.617 14789
1.764 3.948 1.605 13206
1.768 3.958 1.595 12709
1.770 3.962 1.582 12853
1.769 3.959 1.567 11394
1.878 4.203 1.641 11621
1.883 4.214 1.631 15974
1.884 4.218 1.617 16726
1.883 4.215 1.602 11115
1.885 4.219 1.588 6150
1.886 4.223 1.575 4578
1.888 4.227 1.562 4765
1.893 4.237 1.551 3300
2.037 4.559 1.643 2695
2.048 4.584 1.636 3505
2.046 4.581 1.619 4098
2.048 4.585 1.604 5531
2.062 4.617 1.599 5148
2.120 4.745 1.624 4206
2.122 4.749 1.609 8068
2.126 4.760 1.596 10938
2.125 4.757 1.579 8962
2.127 4.761 1.564 5648
2.128 4.765 1.548 5900
2.127 4.761 1.531 8054
2.132 4.772 1.518 8573
2.277 5.097 1.596 7165
2.279 5.101 1.580 8648
2.284 5.112 1.566 7696
2.282 5.109 1.547 8347
2.284 5.113 1.531 5895
2.448 5.481 1.614 3251
2.450 5.485 1.597 2731
2.480 5.552 1.596 2216
2.520 5.640 1.601 2466
2.521 5.644 1.583 3531
2.539 5.683 1.574 2401
2.585 5.786 1.581 2853
2.602 5.825 1.571 2915
2.651 5.934 1.578 2512
2.646 5.924 1.556 2181
2.673 5.984 1.551 2321
2.823 6.320 1.610 1939
2.828 6.331 1.591 2519
2.833 6.342 1.573 2614
2.904 6.502 1.588 3247
2.906 6.505 1.567 3257
2.905 6.502 1.545 2495
3.093 6.924 1.614 2548
3.098 6.935 1.593 2589
3.100 6.939 1.571 2749
3.102 6.943 1.549 2712
3.154 7.060 1.550 2506
3.159 7.071 1.529 2652
3.482 7.794 1.647 3726
3.483 7.798 1.622 4708
3.485 7.802 1.597 4012
3.474 7.777 1.567 2349
3.785 8.473 1.668 2505
3.787 8.477 1.641 3829
3.788 8.481 1.614 3883
3.787 8.477 1.586 5195
3.792 8.488 1.560 5841
3.794 8.492 1.533 4383
3.789 8.481 1.504 4241
3.787 8.478 1.475 4785
3.792 8.489 1.450 4748
3.806 8.521 1.427 4335
3.817 8.545 1.403 2918
4.248 9.509 1.516 2757
4.256 9.527 1.487 3488
4.257 9.530 1.457 3321
4.253 9.520 1.425 3175
4.248 9.509 1.393 2659
5.067 11.342 1.599 2160
5.072 11.353 1.564 2454
5.080 11.372 1.529 2037
5.082 11.375 1.493 1514
5.083 11.379 1.457 1278
5.480 12.267 1.521 934
5.485 12.277 1.482 864
5.480 12.267 1.442 713
5.796 12.975 1.475 696
5.798 12.979 1.434 851
5.799 12.982 1.393 643
5.640 12.625 1.318 335
0.707 1.583 0.106 253
0.707 1.583 0.101 252
0.707 1.583 0.096 250
0.707 1.582 0.077 320
0.707 1.582 0.072 616
0.707 1.582 0.067 1347
0.710 1.589 0.062 1973
0.706 1.581 0.057 2943
0.706 1.581 0.052 3862
0.706 1.581 0.048 4830
0.706 1.581 0.043 5798
0.706 1.580 0.038 6360
0.706 1.580 0.033 6923
0.706 1.580 0.028 6882
0.706 1.579 0.023 6883
0.705 1.579 0.018 6437
0.705 1.579 0.013 5816
0.705 1.578 0.008 5681
0.708 1.585 0.003 4926
0.708 1.585 -0.002 4220
0.708 1.585 -0.007 3382
0.704 1.577 -0.011 2575
0.704 1.577 -0.016 2016
0.704 1.576 -0.021 1457
0.704 1.576 -0.026 1075
0.707 1.582 -0.031 707
0.707 1.582 -0.036 707
0.707 1.582 -0.041 468
0.948 2.106 1.778 5732
0.950 2.111 1.771 11465
0.952 2.115 1.765 11465
0.956 2.125 1.763 10060
0.961 2.135 1.761 8938
0.966 2.146 1.759 8080
0.981 2.179 1.775 9805
0.983 2.184 1.768 9805
0.987 2.194 1.765 8128
0.965 2.145 1.718 7265
0.973 2.161 1.720 8196
0.977 2.171 1.718 9633
0.979 2.175 1.711 9256
0.986 2.191 1.713 9363
0.994 2.208 1.715 7117
1.012 2.248 1.735 5839
1.014 2.252 1.727 5962
1.016 2.256 1.720 6968
1.023 2.273 1.722 8175
1.028 2.283 1.719 7647
1.040 2.311 1.729 8383
1.056 2.346 1.743 6834
1.069 2.375 1.753 6952
1.074 2.385 1.749 5879
1.075 2.389 1.742 4838
1.077 2.394 1.734 6596
1.082 2.404 1.731 8460
1.090 2.421 1.732 9463
1.094 2.431 1.728 11136
1.099 2.441 1.725 9606
1.104 2.452 1.721 8578
1.108 2.462 1.718 6828
1.118 2.485 1.722 6269
1.157 2.570 1.766 6017
1.162 2.581 1.762 7455
1.169 2.598 1.762 7642
1.177 2.614 1.762 8679
1.184 2.631 1.762 8554
1.175 2.610 1.738 12944
1.177 2.615 1.729 17600
1.179 2.619 1.721 19042
1.183 2.629 1.717 20489
1.188 2.640 1.712 20940
1.196 2.657 1.712 23394
1.198 2.661 1.703 21890
1.208 2.684 1.706 22253
1.218 2.707 1.709 24499
1.223 2.718 1.704 24663
1.228 2.728 1.700 22637
1.227 2.726 1.687 20222
1.226 2.724 1.675 17610
1.228 2.728 1.666 15930
1.232 2.738 1.661 17178
1.234 2.742 1.653 17137
1.239 2.753 1.648 13722
1.241 2.757 1.639 10035
1.243 2.761 1.631 7370
1.323 2.939 1.717 9658
1.325 2.943 1.708 11652
1.327 2.948 1.699 10987
1.329 2.952 1.689 9351
1.330 2.956 1.680 8381
1.373 3.051 1.719 7496
1.372 3.049 1.706 7794
1.403 3.118 1.730 7491
1.408 3.129 1.723 10408
1.410 3.133 1.714 10733
1.403 3.118 1.694 7302
1.402 3.115 1.681 6111
1.407 3.126 1.674 6044
1.415 3.143 1.671 6369
1.425 3.167 1.670 6987
1.442 3.204 1.677 6495
1.450 3.221 1.673 6814
1.452 3.225 1.663 6543
1.513 3.362 1.716 6843
1.518 3.373 1.708 8998
1.523 3.383 1.701 8764
1.525 3.388 1.690 8416
1.530 3.398 1.682 9782
1.537 3.416 1.678 8805
1.536 3.413 1.664 5880
1.538 3.417 1.653 5227
1.546 3.435 1.648 5612
1.602 3.559 1.691 5093
1.601 3.557 1.676 7130
1.594 3.541 1.656 7881
1.589 3.531 1.639 8428
1.627 3.616 1.663 5955
