1.085 3.715 1.600 10622
1.078 3.691 1.578 9756
1.079 3.695 1.567 7581
1.161 3.977 1.664 4447
1.167 3.995 1.657 5629
1.166 3.992 1.642 5145
1.163 3.982 1.625 5398
1.164 3.986 1.613 5482
1.188 4.069 1.630 4520
1.202 4.116 1.634 4922
1.207 4.135 1.627 4744
1.204 4.125 1.609 4026
1.208 4.136 1.599 4682
1.211 4.147 1.590 4157
1.246 4.267 1.618 4301
1.255 4.300 1.615 5205
1.257 4.304 1.602 6596
1.258 4.308 1.589 6024
1.278 4.377 1.598 5908
1.277 4.374 1.582 3991
1.276 4.370 1.567 2625
1.326 4.541 1.608 3309
1.329 4.553 1.597 4094
1.331 4.557 1.583 2902
1.359 4.655 1.599 3896
1.363 4.666 1.588 5708
1.368 4.685 1.578 4980
1.369 4.689 1.564 3631
1.375 4.708 1.554 3073
1.416 4.850 1.582 2967
1.456 4.986 1.606 4004
1.459 4.997 1.594 5110
1.465 5.016 1.583 4120
1.472 5.042 1.574 4474
1.476 5.053 1.561 5608
1.479 5.065 1.548 4765
1.555 5.326 1.604 4695
1.565 5.359 1.596 5726
1.562 5.348 1.576 7264
1.561 5.345 1.558 6884
1.603 5.489 1.579 6155
1.606 5.500 1.564 5843
1.601 5.482 1.542 5296
1.604 5.493 1.527 6442
1.605 5.497 1.511 5532
1.650 5.649 1.531 6582
1.651 5.653 1.514 6652
1.650 5.649 1.495 6628
1.651 5.653 1.478 6871
1.656 5.672 1.464 5711
1.657 5.675 1.447 3952
1.723 5.902 1.481 2874
1.724 5.905 1.463 2082
1.728 5.916 1.447 1708
1.922 6.582 1.575 2102
1.923 6.586 1.555 2729
1.922 6.582 1.534 3345
1.919 6.571 1.511 3714
1.981 6.784 1.534 3648
1.980 6.780 1.512 4076
1.983 6.791 1.493 4246
1.984 6.795 1.472 4540
1.988 6.806 1.453 3932
2.052 7.027 1.474 3752
2.057 7.045 1.456 3067
2.209 7.565 1.530 3652
2.210 7.569 1.507 3269
2.194 7.513 1.474 3694
2.195 7.517 1.451 3693
2.343 8.023 1.515 1899
2.335 7.997 1.486 1892
2.327 7.970 1.457 1769
2.473 8.470 1.513 1245
2.382 8.158 1.437 1675
2.530 8.665 1.492 1818
2.531 8.669 1.465 1929
2.532 8.672 1.439 1585
2.762 9.459 1.529 2303
2.763 9.462 1.500 3202
2.760 9.451 1.469 3260
2.759 9.447 1.439 2531
3.132 10.724 1.583 1408
3.133 10.728 1.551 1836
3.063 10.491 1.487 2219
3.065 10.495 1.455 2325
3.068 10.506 1.424 1468
3.360 11.506 1.512 1393
3.363 11.517 1.478 1565
3.408 11.672 1.460 1595
3.412 11.683 1.426 1939
3.410 11.679 1.390 2052
3.409 11.675 1.354 1728
3.024 10.355 1.184 1387
3.025 10.358 1.153 1563
3.014 10.323 1.118 1787
3.013 10.318 1.086 2625
3.003 10.283 1.051 3139
3.003 10.285 1.020 4227
2.978 10.197 0.981 4958
2.976 10.191 0.950 4743
2.977 10.194 0.919 3756
2.979 10.203 0.889 2079
2.962 10.145 0.854 2285
2.981 10.207 0.827 2307
2.981 10.209 0.796 4080
2.979 10.204 0.765 4720
2.980 10.205 0.734 3444
2.974 10.184 0.702 1954
2.974 10.186 0.671 1669
2.977 10.195 0.640 1684
2.980 10.204 0.610 1330
2.980 10.205 0.579 885
2.978 10.199 0.548 587
2.965 10.154 0.515 298
2.972 10.178 0.485 282
2.948 10.096 0.421 291
2.948 10.097 0.391 313
0.599 2.052 0.129 363
0.597 2.044 0.123 695
0.597 2.044 0.117 876
0.597 2.044 0.111 888
0.597 2.044 0.105 900
0.597 2.044 0.098 764
0.597 2.044 0.092 629
0.597 2.044 0.086 458
0.597 2.044 0.080 287
0.814 2.786 0.008 250
0.813 2.786 -0.000 280
0.811 2.778 -0.008 313
0.813 2.785 -0.017 333
0.815 2.792 -0.025 355
0.813 2.784 -0.033 353
0.813 2.784 -0.042 350
0.813 2.783 -0.050 294
0.744 2.547 -0.141 262
0.743 2.546 -0.148 298
0.743 2.545 -0.156 298
0.743 2.544 -0.163 415
0.625 2.110 1.699 3761
0.626 2.115 1.693 7522
0.627 2.119 1.686 7522
0.650 2.198 1.735 7683
0.652 2.202 1.729 10167
0.655 2.213 1.727 13099
0.658 2.223 1.725 16406
0.659 2.228 1.718 16406
0.661 2.232 1.711 15490
0.664 2.243 1.709 14838
0.665 2.247 1.703 11733
0.663 2.239 1.687 8848
0.673 2.275 1.702 9619
0.680 2.298 1.709 12442
0.687 2.321 1.715 11838
0.688 2.326 1.708 11454
0.688 2.324 1.697 11355
0.693 2.341 1.699 7747
0.704 2.377 1.713 7073
0.705 2.381 1.706 6560
0.706 2.386 1.699 6047
0.708 2.390 1.692 6366
0.711 2.401 1.689 6710
0.714 2.412 1.686 5817
0.721 2.435 1.692 5591
0.730 2.465 1.701 6296
0.735 2.483 1.702 8722
0.738 2.494 1.699 9972
0.739 2.498 1.691 11304
0.741 2.502 1.684 8675
0.740 2.500 1.672 6183
0.741 2.504 1.665 5877
0.743 2.509 1.657 5572
0.784 2.650 1.734 5196
0.780 2.635 1.714 6099
0.783 2.646 1.710 6604
0.792 2.677 1.718 6768
0.799 2.701 1.722 7398
0.807 2.725 1.726 7730
0.810 2.736 1.722 9844
0.811 2.741 1.713 11562
0.814 2.752 1.709 13395
0.814 2.749 1.697 13647
0.813 2.747 1.685 12744
0.814 2.751 1.677 11148
0.816 2.756 1.669 10018
0.817 2.760 1.660 8889
0.820 2.771 1.656 9001
0.851 2.876 1.703 8696
0.854 2.887 1.698 11172
0.856 2.891 1.690 11430
0.857 2.895 1.681 8764
0.856 2.893 1.669 5869
0.856 2.890 1.656 6144
0.865 2.922 1.662 7691
0.868 2.933 1.657 9431
0.871 2.944 1.652 9093
0.903 3.050 1.696 9331
0.904 3.054 1.687 11316
0.907 3.065 1.681 10697
0.909 3.070 1.672 8222
0.938 3.170 1.711 8093
0.942 3.181 1.705 11176
0.943 3.185 1.695 11741
0.946 3.196 1.689 9096
0.949 3.208 1.683 8967
0.951 3.212 1.673 9676
0.952 3.216 1.664 10351
0.974 3.290 1.687 11073
0.979 3.308 1.684 12490
0.956 3.229 1.635 12202
0.959 3.240 1.628 12112
0.987 3.334 1.660 8247
0.964 3.255 1.612 5156
0.969 3.273 1.609 4717
1.024 3.458 1.681 4291
1.025 3.463 1.671 5888
1.024 3.460 1.657 6998
1.050 3.548 1.684 6919
1.052 3.552 1.673 7308
1.055 3.564 1.665 4848
1.060 3.582 1.661 3839
1.074 3.628 1.668 5559
1.079 3.647 1.663 7550
1.081 3.651 1.652 6419
1.080 3.648 1.638 6587
1.079 3.645 1.624 8825
1.080 3.649 1.613 7911
1.094 3.696 1.620 5813
1.099 3.714 1.614 9988
1.101 3.718 1.603 10449
1.093 3.694 1.581 9209
1.095 3.698 1.570 7930
1.174 3.965 1.661 4459
1.181 3.991 1.657 5466
1.183 3.995 1.645 5133
1.177 3.978 1.625 5919
1.181 3.989 1.616 6597
1.186 4.008 1.609 4962
1.192 4.026 1.602 4295
1.223 4.130 1.627 4016
1.224 4.135 1.614 3550
1.227 4.146 1.605 4206
1.228 4.150 1.592 3926
1.259 4.255 1.615 3848
1.263 4.266 1.605 3883
1.275 4.306 1.604 4443
1.282 4.332 1.599 4902
1.294 4.372 1.598 4747
1.293 4.369 1.582 2926
1.327 4.481 1.605 2732
1.345 4.543 1.611 3764
1.348 4.555 1.599 4633
1.349 4.559 1.585 3987
1.351 4.563 1.572 4080
1.382 4.669 1.590 5082
1.387 4.687 1.580 4719
1.423 4.808 1.602 3283
1.426 4.819 1.590 3519
1.430 4.830 1.578 2697
1.474 4.980 1.606 5290
1.478 4.992 1.594 6725
1.483 5.011 1.583 5225
1.489 5.029 1.572 5353
1.492 5.041 1.559 6019
1.491 5.037 1.542 4854
1.581 5.342 1.610 4379
1.587 5.361 1.598 6813
1.588 5.365 1.582 7627
1.580 5.339 1.558 5970
1.588 5.365 1.547 4145
1.629 5.502 1.566 5239
1.623 5.484 1.544 4774
1.624 5.487 1.527 4648
1.621 5.477 1.507 4400
1.670 5.643 1.531 6005
1.671 5.647 1.514 5869
1.670 5.643 1.495 6297
1.672 5.647 1.478 6625
1.677 5.665 1.464 5283
1.748 5.906 1.502 4193
1.745 5.895 1.481 4551
1.748 5.906 1.465 3441
1.749 5.910 1.447 2839
1.750 5.914 1.429 2031
1.943 6.564 1.552 2842
1.944 6.568 1.532 4626
1.941 6.557 1.509 5157
1.942 6.561 1.489 4080
2.007 6.780 1.513 4257
2.008 6.784 1.493 4788
2.009 6.788 1.472 5383
2.013 6.799 1.453 4658
2.014 6.803 1.433 4190
2.083 7.038 1.456 3231
2.237 7.557 1.530 4059
2.234 7.546 1.505 3606
2.226 7.520 1.476 3985
2.223 7.509 1.451 4083
2.224 7.512 1.428 2210
2.367 7.995 1.487 1848
2.357 7.962 1.457 1588
2.502 8.453 1.512 1545
2.503 8.457 1.487 1527
2.562 8.656 1.492 1965
2.565 8.667 1.467 2118
2.564 8.663 1.439 1618
2.794 9.441 1.527 2437
2.796 9.445 1.499 3244
2.795 9.441 1.469 3280
2.791 9.429 1.438 2585
2.790 9.426 1.409 1497
3.101 10.476 1.519 1630
3.102 10.480 1.487 2704
3.103 10.483 1.455 2645
3.106 10.495 1.424 1672
3.389 11.448 1.507 1428
3.392 11.460 1.473 1326
3.453 11.667 1.461 1224
3.455 11.671 1.426 1443
3.453 11.667 1.390 1487
3.061 10.341 1.215 1468
3.060 10.336 1.183 2273
3.016 10.188 1.137 2548
3.014 10.183 1.105 2608
3.011 10.171 1.073 2245
3.063 10.347 1.058 2628
3.003 10.145 1.009 2609
3.022 10.208 0.983 3335
3.011 10.173 0.949 4057
3.010 10.168 0.918 4402
3.004 10.147 0.885 3101
3.000 10.134 0.854 3260
3.000 10.136 0.823 4276
3.003 10.145 0.793 4686
3.006 10.155 0.762 4086
3.013 10.179 0.733 3124
3.014 10.181 0.702 2203
3.014 10.182 0.671 2098
3.014 10.184 0.640 1568
2.979 10.064 0.604 1067
2.982 10.073 0.574 1138
2.982 10.074 0.543 980
2.982 10.075 0.513 750
2.985 10.083 0.482 679
2.989 10.099 0.452 569
2.992 10.108 0.422 432
2.985 10.086 0.391 373
2.988 10.094 0.360 260
0.604 2.042 0.147 253
0.605 2.042 0.141 267
0.605 2.042 0.135 281
0.607 2.050 0.129 251
0.609 2.057 0.116 251
0.609 2.057 0.110 282
0.609 2.057 0.104 313
0.607 2.049 0.098 300
0.604 2.042 0.092 295
0.824 2.784 0.017 305
0.824 2.783 0.008 365
0.824 2.783 -0.000 428
0.824 2.782 -0.008 490
0.823 2.782 -0.017 512
0.826 2.789 -0.025 538
0.823 2.781 -0.033 482
0.823 2.781 -0.042 429
0.823 2.780 -0.050 356
0.823 2.780 -0.058 285
0.823 2.779 -0.067 286
0.751 2.538 -0.125 407
0.751 2.537 -0.132 604
0.751 2.536 -0.140 730
0.751 2.536 -0.147 856
0.750 2.535 -0.155 856
0.750 2.534 -0.162 1055
0.631 2.108 1.699 3418
0.632 2.113 1.693 6837
0.634 2.117 1.686 6837
0.657 2.196 1.735 7560
0.658 2.200 1.729 10390
0.662 2.211 1.727 12709
0.665 2.221 1.725 15337
0.666 2.226 1.718 15337
0.667 2.230 1.711 14269
0.671 2.241 1.709 13705
0.674 2.251 1.707 10566
0.677 2.262 1.705 7739
0.682 2.279 1.707 8956
0.689 2.302 1.713 11758
0.692 2.313 1.711 10890
0.694 2.317 1.704 10058
0.695 2.322 1.697 10042
0.698 2.332 1.694 6435
0.713 2.381 1.718 5793
0.712 2.379 1.706 5452
0.713 2.384 1.699 5111
0.718 2.401 1.701 5917
0.720 2.405 1.693 6835
0.752 2.512 1.754 6292
0.753 2.517 1.746 6495
0.753 2.515 1.734 7011
0.748 2.500 1.714 8126
0.749 2.504 1.707 9101
0.749 2.502 1.695 10082
0.750 2.507 1.688 7228
0.767 2.563 1.713 6085
0.768 2.567 1.705 4803
0.795 2.656 1.750 5686
0.787 2.628 1.722 5744
0.786 2.626 1.710 7644
0.789 2.637 1.706 7891
0.794 2.655 1.706 6321
0.808 2.698 1.722 6355
0.815 2.723 1.726 7478
0.818 2.734 1.722 9789
0.819 2.738 1.713 11763
0.823 2.749 1.709 13892
0.822 2.747 1.697 13854
0.821 2.745 1.685 12336
0.823 2.749 1.677 10538
0.824 2.753 1.669 10048
0.827 2.764 1.664 9647
0.828 2.768 1.656 9374
0.858 2.866 1.700 9134
0.861 2.877 1.695 11594
0.864 2.888 1.690 11745
0.866 2.893 1.681 8840
0.865 2.890 1.669 5720
0.864 2.888 1.656 5796
0.876 2.926 1.666 7659
0.877 2.930 1.657 9503
0.880 2.941 1.652 9284
0.914 3.054 1.699 9828
0.915 3.058 1.690 12144
0.917 3.063 1.681 11517
0.918 3.067 1.672 8577
0.952 3.181 1.718 8825
0.953 3.185 1.708 11468
0.954 3.189 1.699 11602
0.958 3.201 1.693 9292
0.957 3.198 1.680 9393
0.960 3.209 1.673 10161
0.962 3.213 1.664 11638
0.963 3.218 1.654 12429
0.964 3.222 1.645 12517
0.965 3.226 1.635 13314
0.969 3.237 1.628 12619
0.970 3.241 1.619 8206
0.971 3.245 1.609 5190
1.031 3.444 1.688 4597
1.034 3.455 1.681 5115
1.035 3.460 1.671 6933
1.035 3.457 1.657 7380
1.059 3.538 1.681 5268
1.064 3.556 1.676 5360
1.070 3.575 1.672 4680
1.073 3.586 1.664 4737
1.085 3.625 1.668 6213
1.088 3.637 1.660 6547
1.090 3.641 1.649 5208
1.091 3.645 1.638 6481
1.092 3.649 1.627 9256
1.093 3.653 1.616 7487
1.105 3.693 1.620 5861
1.111 3.711 1.614 10087
1.114 3.722 1.606 10219
1.111 3.712 1.589 8678
1.108 3.702 1.572 7651
1.186 3.962 1.661 5034
1.189 3.973 1.652 5726
1.188 3.970 1.637 4849
1.189 3.974 1.625 5961
1.193 3.986 1.616 7513
1.192 3.983 1.601 5973
1.199 4.008 1.597 4632
1.201 4.012 1.585 3695
1.234 4.124 1.612 3629
1.268 4.235 1.638 4207
1.267 4.232 1.623 3809
1.268 4.237 1.610 3703
1.271 4.248 1.600 3073
1.303 4.353 1.622 4662
1.304 4.357 1.609 5843
1.307 4.368 1.598 4388
1.347 4.502 1.628 3688
1.355 4.528 1.622 4076
1.361 4.547 1.613 4620
1.362 4.551 1.599 5672
1.363 4.555 1.585 5740
1.364 4.559 1.572 5612
1.366 4.563 1.558 5360
1.369 4.574 1.547 4183
1.435 4.796 1.600 4281
1.439 4.808 1.588 3908
1.488 4.972 1.621 2555
1.489 4.976 1.606 6165
1.493 4.987 1.594 7373
1.496 4.999 1.581 5592
1.504 5.025 1.572 5862
1.507 5.036 1.559 5995
1.497 5.003 1.533 6179
1.496 5.000 1.516 7747
1.603 5.356 1.598 7100
1.604 5.360 1.582 7318
1.607 5.371 1.568 4802
1.602 5.353 1.546 3461
1.641 5.482 1.562 5304
1.640 5.479 1.544 5483
1.641 5.483 1.527 3556
1.688 5.641 1.550 3874
1.687 5.638 1.531 4715
1.688 5.642 1.514 4249
1.689 5.645 1.497 5044
1.691 5.649 1.480 5299
1.692 5.653 1.463 4036
1.764 5.894 1.501 4882
1.765 5.897 1.483 5402
1.766 5.901 1.465 4407
1.767 5.905 1.447 3721
1.768 5.908 1.429 2377
1.960 6.551 1.550 3124
1.962 6.554 1.530 5690
1.960 6.551 1.509 6290
1.959 6.547 1.488 4688
2.034 6.797 1.518 4397
2.031 6.786 1.494 5020
2.030 6.782 1.472 5579
2.033 6.793 1.453 4791
2.036 6.804 1.434 4068
2.142 7.158 1.480 3792
2.264 7.565 1.533 4588
2.256 7.539 1.505 4011
2.251 7.521 1.478 4341
2.247 7.510 1.452 4180
2.248 7.513 1.430 2459
2.393 7.996 1.488 1589
2.479 8.284 1.511 1451
2.527 8.445 1.512 1473
2.531 8.457 1.488 1618
2.586 8.640 1.490 1719
2.589 8.652 1.465 1682
2.819 9.421 1.555 1571
2.823 9.432 1.527 2333
2.824 9.436 1.499 2936
2.821 9.425 1.468 3024
2.819 9.421 1.438 2522
2.818 9.417 1.409 1557
3.132 10.467 1.519 1849
3.131 10.463 1.486 2797
3.132 10.467 1.454 2554
3.136 10.478 1.424 1681
3.423 11.438 1.507 1745
3.424 11.442 1.472 1511
3.457 11.551 1.449 1068
3.490 11.660 1.426 1257
3.486 11.649 1.389 1331
3.476 11.615 1.350 1613
3.475 11.610 1.314 1543
3.091 10.330 1.152 1817
3.094 10.340 1.121 2139
3.064 10.237 1.080 2178
3.094 10.338 1.058 2141
3.054 10.204 1.015 2915
3.052 10.199 0.983 3801
3.053 10.202 0.952 3639
3.051 10.196 0.921 3337
3.052 10.198 0.890 2986
3.053 10.201 0.859 2773
3.056 10.210 0.828 2244
3.033 10.136 0.793 3262
3.032 10.130 0.761 4548
3.032 10.132 0.731 4488
3.037 10.149 0.701 3597
3.040 10.158 0.670 2846
3.013 10.069 0.635 2486
3.016 10.077 0.605 1737
3.018 10.086 0.575 1252
3.014 10.072 0.544 1298
3.012 10.066 0.513 1561
3.013 10.067 0.482 1684
3.013 10.068 0.452 1484
3.015 10.076 0.421 892
3.013 10.069 0.391 480
2.970 9.926 0.357 287
2.971 9.926 0.327 292
2.971 9.927 0.297 252
0.835 2.789 0.025 306
0.835 2.789 0.016 398
0.834 2.788 0.008 491
0.832 2.780 -0.000 556
0.832 2.780 -0.008 622
0.832 2.780 -0.017 636
0.832 2.779 -0.025 651
0.832 2.779 -0.033 648
0.831 2.778 -0.042 644
0.831 2.778 -0.050 560
0.831 2.777 -0.058 475
0.833 2.784 -0.067 476
0.833 2.783 -0.075 390
0.835 2.790 -0.084 303
0.764 2.552 -0.111 251
0.764 2.552 -0.119 355
0.763 2.551 -0.126 460
0.761 2.542 -0.133 571
0.761 2.542 -0.141 641
0.760 2.541 -0.148 710
0.760 2.540 -0.156 710
0.760 2.539 -0.163 875
0.638 2.106 1.699 3022
0.639 2.111 1.693 6045
0.641 2.115 1.686 6045
0.664 2.193 1.735 7135
0.666 2.198 1.729 10047
0.669 2.208 1.727 11635
0.672 2.219 1.725 13392
0.674 2.223 1.718 13392
0.677 2.234 1.716 12162
0.680 2.245 1.714 11979
0.683 2.255 1.711 9578
0.686 2.266 1.709 7486
0.692 2.283 1.711 8640
0.699 2.306 1.718 10868
0.700 2.311 1.711 9704
0.701 2.315 1.704 8541
0.701 2.313 1.693 8525
0.713 2.355 1.712 5246
0.723 2.385 1.722 4988
0.726 2.396 1.719 4745
0.727 2.400 1.712 4575
0.728 2.405 1.705 5822
0.730 2.409 1.698 7069
0.760 2.510 1.754 7191
0.762 2.514 1.746 7882
0.763 2.519 1.739 8345
0.762 2.517 1.727 8888
0.762 2.515 1.715 9056
0.761 2.513 1.704 9370
0.772 2.549 1.717 7545
0.776 2.560 1.713 7341
0.777 2.565 1.705 5821
0.804 2.654 1.750 5745
0.793 2.619 1.718 6412
0.795 2.624 1.710 8993
0.796 2.628 1.702 9226
0.799 2.639 1.699 7228
0.819 2.702 1.726 5619
0.822 2.713 1.722 7346
0.825 2.724 1.718 9681
0.829 2.735 1.713 11600
0.832 2.746 1.709 13796
0.833 2.751 1.701 13358
0.833 2.748 1.689 11329
0.834 2.753 1.681 9528
0.835 2.757 1.672 9807
0.838 2.768 1.668 10107
0.838 2.766 1.656 9271
0.865 2.857 1.696 8999
0.871 2.875 1.695 11125
0.872 2.879 1.686 11347
0.873 2.883 1.677 8458
0.875 2.887 1.669 5346
0.888 2.932 1.682 5372
0.887 2.930 1.669 7316
0.887 2.927 1.657 9117
0.890 2.938 1.652 9003
0.924 3.051 1.699 10027
0.925 3.055 1.690 12664
0.927 3.060 1.681 12140
0.928 3.064 1.672 9587
0.964 3.184 1.721 9628
0.964 3.182 1.708 11197
0.965 3.186 1.699 10610
0.968 3.197 1.693 9077
0.968 3.195 1.680 9732
0.971 3.206 1.673 10512
0.972 3.210 1.664 12530
0.972 3.208 1.651 13510
0.975 3.219 1.645 13154
0.976 3.223 1.635 13428
0.980 3.234 1.628 12296
0.981 3.238 1.619 8039
0.982 3.242 1.609 4933
1.042 3.441 1.688 4284
1.046 3.452 1.681 5420
1.047 3.456 1.671 7693
1.046 3.454 1.657 7248
1.049 3.465 1.650 4825
1.053 3.476 1.642 4690
1.082 3.571 1.672 5480
1.085 3.582 1.664 5949
1.097 3.622 1.668 6594
1.100 3.633 1.660 6495
1.104 3.644 1.652 6041
1.107 3.655 1.644 7025
1.108 3.660 1.633 8272
1.110 3.664 1.622 7090
1.117 3.689 1.620 7363
1.123 3.707 1.614 10483
1.126 3.718 1.606 9734
1.125 3.715 1.592 7968
1.122 3.705 1.575 7085
1.199 3.958 1.661 5557
1.200 3.962 1.649 6612
1.204 3.973 1.640 4734
1.205 3.978 1.628 5187
1.204 3.975 1.613 7523
1.203 3.971 1.599 6416
1.213 4.004 1.597 4682
1.262 4.166 1.643 3901
1.244 4.105 1.607 4359
1.279 4.224 1.635 5421
1.281 4.228 1.623 5005
1.282 4.232 1.610 4397
1.314 4.337 1.632 4056
1.319 4.356 1.624 5849
1.321 4.360 1.611 6283
1.324 4.371 1.600 4418
1.365 4.505 1.631 5112
1.370 4.524 1.622 5405
1.374 4.535 1.611 5496
1.377 4.546 1.599 6672
1.378 4.550 1.585 7351
1.380 4.554 1.572 6966
1.381 4.558 1.558 6148
1.384 4.569 1.547 4913
1.451 4.791 1.600 4736
1.455 4.803 1.588 3381
1.505 4.967 1.621 2462
1.506 4.971 1.606 5682
1.509 4.982 1.594 6075
1.513 4.994 1.581 4874
1.520 5.020 1.572 5885
1.519 5.016 1.555 5736
1.512 4.991 1.531 8509
1.511 4.988 1.514 11962
1.512 4.991 1.499 9549
1.513 4.995 1.484 8039
1.514 4.999 1.469 6947
1.511 4.988 1.450 3694
1.654 5.462 1.558 5730
1.658 5.473 1.544 5913
1.659 5.477 1.527 3360
1.658 5.474 1.509 3758
1.657 5.470 1.490 3095
1.770 5.842 1.565 2784
1.771 5.846 1.547 4730
1.777 5.865 1.533 4816
1.780 5.876 1.517 3608
1.786 5.895 1.502 4629
1.785 5.891 1.483 5059
1.786 5.895 1.465 4609
1.787 5.899 1.447 4137
1.790 5.910 1.431 2462
1.980 6.537 1.549 3427
1.983 6.548 1.530 6323
1.982 6.544 1.509 6566
1.981 6.541 1.488 4976
2.057 6.790 1.518 4014
2.053 6.779 1.494 4566
2.052 6.775 1.472 5018
2.056 6.786 1.453 4338
2.059 6.797 1.434 3550
2.164 7.144 1.478 4447
2.289 7.558 1.533 5309
2.290 7.562 1.510 4896
2.276 7.513 1.478 4320
2.272 7.502 1.452 3744
2.273 7.506 1.430 2398
2.324 7.674 1.435 1545
2.468 8.149 1.490 1538
2.472 8.160 1.467 1353
2.559 8.448 1.488 1438
2.612 8.624 1.489 1603
2.663 8.793 1.489 1426
2.665 8.797 1.462 1532
2.852 9.415 1.526 2006
2.853 9.419 1.498 2394
2.852 9.415 1.468 2563
2.849 9.404 1.437 2378
3.164 10.445 1.550 1780
3.165 10.448 1.518 2065
3.166 10.452 1.486 2667
3.165 10.448 1.453 2203
3.462 11.430 1.542 1911
3.461 11.427 1.507 1949
3.462 11.430 1.472 1619
3.498 11.547 1.450 1134
3.499 11.551 1.415 1409
3.502 11.562 1.381 1154
3.485 11.505 1.339 1150
3.486 11.508 1.304 1462
3.126 10.320 1.152 1372
3.086 10.187 1.108 1825
3.084 10.182 1.076 2720
3.083 10.177 1.044 2794
3.081 10.172 1.013 2636
3.079 10.166 0.981 2904
3.076 10.154 0.949 3536
3.069 10.133 0.917 4904
3.068 10.128 0.885 5566
3.066 10.122 0.854 6066
3.062 10.109 0.822 5396
3.063 10.111 0.792 5064
3.065 10.120 0.761 5137
3.066 10.122 0.731 5643
3.066 10.124 0.700 4613
3.055 10.087 0.667 3703
3.058 10.096 0.637 3160
3.061 10.105 0.607 2069
3.068 10.129 0.577 1595
3.059 10.100 0.545 1512
3.051 10.071 0.513 1630
3.049 10.064 0.482 1598
3.046 10.058 0.452 1202
3.044 10.051 0.421 551
3.003 9.915 0.387 374
3.004 9.916 0.357 319
3.004 9.916 0.327 264
0.842 2.779 0.041 259
0.842 2.779 0.033 382
0.842 2.779 0.025 505
0.842 2.778 0.017 661
0.841 2.778 0.008 817
0.841 2.778 -0.000 970
0.841 2.777 -0.008 1122
0.841 2.777 -0.017 1210
0.841 2.776 -0.025 1297
0.841 2.776 -0.033 1252
0.841 2.775 -0.042 1207
0.841 2.775 -0.050 1059
0.840 2.774 -0.058 906
0.842 2.781 -0.067 911
0.842 2.781 -0.075 742
0.842 2.780 -0.084 573
0.842 2.779 -0.092 419
0.839 2.771 -0.100 268
0.772 2.549 -0.119 300
0.772 2.548 -0.126 477
0.772 2.547 -0.134 655
0.771 2.547 -0.141 842
0.771 2.546 -0.149 1028
0.771 2.545 -0.157 1028
0.771 2.544 -0.164 1360
0.651 2.109 1.704 2536
0.652 2.114 1.697 5073
0.653 2.118 1.691 5073
0.676 2.190 1.735 6894
0.677 2.194 1.729 9845
0.680 2.205 1.727 10896
0.682 2.209 1.720 12005
0.683 2.214 1.713 12005
0.688 2.231 1.716 10430
0.693 2.247 1.718 10516
0.697 2.258 1.716 8885
0.700 2.269 1.714 7480
0.709 2.298 1.725 8444
0.712 2.309 1.722 9733
0.710 2.301 1.706 8337
0.711 2.305 1.700 7092
0.711 2.303 1.688 7081
0.731 2.371 1.725 5117
0.737 2.388 1.726 4895
0.740 2.399 1.723 4638
0.741 2.403 1.716 4407
0.743 2.407 1.709 5716
0.742 2.405 1.698 7032
0.771 2.499 1.749 8019
0.775 2.510 1.746 9332
0.776 2.515 1.739 9643
0.777 2.519 1.731 9953
0.779 2.524 1.724 9626
0.778 2.522 1.712 9347
0.785 2.545 1.717 8759
0.789 2.556 1.713 8624
0.790 2.561 1.705 6737
0.818 2.650 1.750 5419
0.803 2.602 1.710 7023
0.806 2.613 1.706 10046
0.810 2.624 1.702 9964
0.811 2.628 1.695 7690
0.832 2.698 1.726 5917
0.836 2.709 1.722 7472
0.839 2.720 1.718 9371
0.843 2.731 1.713 10969
0.846 2.742 1.709 13042
0.847 2.746 1.701 12446
0.851 2.757 1.696 10535
0.852 2.762 1.688 9396
0.853 2.766 1.680 9888
0.857 2.777 1.675 10464
0.854 2.768 1.660 8725
0.880 2.852 1.696 8294
0.883 2.863 1.691 10259
0.887 2.874 1.686 10415
0.888 2.879 1.677 7667
0.890 2.883 1.669 4700
0.907 2.941 1.689 5235
0.903 2.925 1.669 6640
0.902 2.923 1.657 8188
0.905 2.934 1.652 8137
0.940 3.046 1.699 9805
0.941 3.050 1.690 12718
0.945 3.062 1.685 12422
0.946 3.066 1.675 10407
0.983 3.186 1.725 10593
0.982 3.184 1.712 10609
0.982 3.181 1.699 9154
0.985 3.192 1.693 8510
0.986 3.197 1.683 9683
0.988 3.201 1.673 10144
0.989 3.205 1.664 12053
0.988 3.202 1.651 13073
0.989 3.207 1.641 12315
0.993 3.218 1.635 12299
0.996 3.229 1.628 11027
0.998 3.233 1.619 7123
0.999 3.237 1.609 4208
1.049 3.401 1.672 3802
1.061 3.440 1.678 5202
1.065 3.451 1.671 7766
1.064 3.448 1.657 6611
1.065 3.452 1.647 5138
1.071 3.470 1.642 6687
1.098 3.558 1.668 6281
1.101 3.570 1.661 6764
1.118 3.623 1.671 6810
1.123 3.641 1.666 7072
1.129 3.659 1.661 8452
1.133 3.671 1.653 10049
1.132 3.668 1.639 9830
1.133 3.672 1.628 8329
1.136 3.683 1.620 9260
1.140 3.694 1.611 11401
1.143 3.706 1.603 9007
1.145 3.710 1.592 6264
1.190 3.855 1.637 5913
1.219 3.952 1.661 5718
1.223 3.963 1.652 7346
1.222 3.960 1.637 5430
1.223 3.964 1.625 5214
1.224 3.968 1.613 7039
1.223 3.965 1.599 5630
1.234 3.998 1.597 4617
1.283 4.159 1.643 4215
1.262 4.092 1.604 5626
1.299 4.210 1.633 6476
1.303 4.222 1.623 6108
1.306 4.233 1.612 5140
1.336 4.330 1.632 5301
1.342 4.349 1.624 6137
1.345 4.360 1.613 6391
1.351 4.379 1.605 5262
1.388 4.498 1.631 5894
1.394 4.516 1.622 5939
1.397 4.528 1.611 5845
1.401 4.539 1.599 6844
1.402 4.543 1.585 7846
1.403 4.547 1.572 7469
1.404 4.551 1.558 6427
1.405 4.555 1.544 5252
1.476 4.784 1.600 4234
1.482 4.802 1.590 2204
1.528 4.952 1.619 2687
1.531 4.963 1.606 4501
1.535 4.975 1.594 3608
1.509 4.891 1.553 3673
1.544 5.004 1.570 5167
1.530 4.957 1.540 7249
1.533 4.969 1.527 11003
1.536 4.980 1.514 15886
1.538 4.984 1.499 14029
1.539 4.987 1.484 11566
1.540 4.991 1.469 9744
1.537 4.980 1.450 5558
1.683 5.453 1.558 5547
1.684 5.457 1.542 5455
1.685 5.461 1.525 3347
1.686 5.465 1.509 3597
1.685 5.461 1.490 2783
1.798 5.826 1.563 2626
1.801 5.837 1.547 4919
1.807 5.856 1.533 5191
1.810 5.867 1.517 3649
1.814 5.878 1.501 3821
1.817 5.889 1.485 3812
1.818 5.893 1.467 3943
1.817 5.889 1.447 3806
1.821 5.901 1.431 2260
2.014 6.526 1.549 3716
2.017 6.538 1.530 6607
2.016 6.534 1.509 6275
2.015 6.530 1.488 4560
2.012 6.519 1.465 5158
2.010 6.515 1.443 5397
2.089 6.772 1.474 3602
2.194 7.110 1.519 3417
2.197 7.121 1.499 3499
2.201 7.133 1.478 4368
2.331 7.553 1.534 5754
2.329 7.550 1.510 5906
2.317 7.509 1.479 3851
2.311 7.490 1.452 2883
2.354 7.628 1.453 2035
2.447 7.930 1.481 1940
2.510 8.136 1.490 1757
2.518 8.162 1.469 1539
2.660 8.622 1.518 1253
2.701 8.753 1.512 1538
2.709 8.779 1.489 1937
2.705 8.768 1.460 2265
2.704 8.764 1.432 1981
2.902 9.404 1.498 1750
2.898 9.393 1.467 2029
3.216 10.424 1.581 2111
3.218 10.428 1.550 2035
3.219 10.432 1.518 2214
3.218 10.428 1.485 2338
3.219 10.432 1.453 1839
3.524 11.420 1.543 2143
3.522 11.416 1.508 1947
3.519 11.405 1.471 1521
3.560 11.536 1.451 1243
3.561 11.540 1.416 1543
3.562 11.543 1.381 1235
3.547 11.494 1.340 1189
3.548 11.498 1.305 1435
3.609 11.697 1.290 1163
3.138 10.170 1.108 1269
3.132 10.150 1.075 1696
3.128 10.138 1.042 2101
3.127 10.133 1.011 2262
3.127 10.135 0.980 2362
3.126 10.130 0.949 2306
3.124 10.125 0.917 3047
3.122 10.119 0.886 4084
3.121 10.114 0.855 4530
3.117 10.101 0.823 4191
3.112 10.087 0.791 5412
3.113 10.089 0.760 5885
3.114 10.091 0.730 6097
3.112 10.085 0.699 5992
3.110 10.079 0.668 5624
3.113 10.088 0.637 4554
3.113 10.089 0.607 2485
3.125 10.128 0.578 1643
3.116 10.099 0.546 1655
3.107 10.070 0.514 1983
3.105 10.064 0.483 2123
3.103 10.057 0.452 1503
3.099 10.043 0.421 821
3.094 10.028 0.390 695
3.099 10.044 0.360 675
3.102 10.052 0.330 707
3.102 10.053 0.299 565
3.104 10.061 0.269 319
0.583 1.891 0.090 261
0.583 1.891 0.085 333
0.583 1.890 0.079 423
0.583 1.890 0.073 513
0.581 1.883 0.068 527
0.856 2.774 0.025 575
0.856 2.774 0.017 738
0.856 2.774 0.008 902
0.856 2.773 -0.000 1043
0.856 2.773 -0.008 1184
0.855 2.772 -0.017 1229
0.855 2.772 -0.025 1275
0.855 2.771 -0.033 1227
0.855 2.771 -0.042 1179
0.855 2.770 -0.050 1041
0.855 2.770 -0.058 904
0.854 2.769 -0.067 906
0.857 2.776 -0.075 774
0.856 2.776 -0.084 645
0.856 2.775 -0.092 513
0.856 2.774 -0.100 381
0.856 2.774 -0.109 282
0.783 2.537 -0.118 278
0.785 2.544 -0.126 432
0.785 2.543 -0.134 589
0.785 2.543 -0.141 790
0.784 2.542 -0.149 992
0.784 2.541 -0.157 992
0.781 2.533 -0.163 1323
0.659 2.113 1.708 2027
0.661 2.118 1.702 4055
0.662 2.122 1.696 4055
0.682 2.188 1.735 6502
0.686 2.198 1.733 9311
0.687 2.203 1.727 9942
0.688 2.207 1.720 10573
0.690 2.212 1.713 10573
0.695 2.228 1.716 8845
0.704 2.258 1.727 9569
0.706 2.262 1.720 8649
0.709 2.273 1.718 7801
0.716 2.296 1.725 8059
0.721 2.313 1.727 8718
0.717 2.299 1.706 6990
0.714 2.290 1.691 5894
0.739 2.370 1.736 6407
0.741 2.375 1.729 5684
0.744 2.386 1.726 5084
0.747 2.396 1.723 4708
0.749 2.401 1.716 4407
0.750 2.405 1.709 5620
0.777 2.493 1.757 6960
0.779 2.497 1.749 8713
0.782 2.508 1.746 10561
0.784 2.512 1.739 10617
0.785 2.517 1.731 10674
0.788 2.528 1.728 10239
0.790 2.532 1.720 9814
0.793 2.543 1.717 9629
0.797 2.554 1.713 9503
0.798 2.558 1.705 7265
0.799 2.563 1.698 5028
0.811 2.599 1.710 7343
0.814 2.610 1.706 10349
0.816 2.615 1.699 9925
0.819 2.626 1.695 7431
0.841 2.695 1.726 6684
0.844 2.706 1.722 7660
0.848 2.717 1.718 8686
0.851 2.728 1.713 9854
0.854 2.739 1.709 11612
0.858 2.750 1.705 11056
0.861 2.761 1.700 10438
0.867 2.779 1.700 10559
0.868 2.783 1.691 10854
0.869 2.788 1.683 11150
0.867 2.779 1.667 8205
0.889 2.850 1.696 7295
0.892 2.861 1.691 9241
0.896 2.872 1.686 9215
0.899 2.883 1.681 6611
0.938 3.008 1.738 5249
0.944 3.026 1.736 5592
0.945 3.030 1.727 6335
0.911 2.920 1.657 6918
0.914 2.931 1.652 6905
0.951 3.050 1.703 9173
0.953 3.054 1.694 12279
0.954 3.059 1.685 12161
0.955 3.063 1.675 10939
0.993 3.183 1.725 11691
0.994 3.187 1.715 10487
0.993 3.185 1.702 7409
0.993 3.182 1.689 7323
0.996 3.194 1.683 8869
1.000 3.205 1.677 8969
0.999 3.202 1.664 9851
0.998 3.199 1.651 10721
0.999 3.204 1.641 10115
1.003 3.215 1.635 10168
1.006 3.226 1.628 9289
1.010 3.237 1.622 5645
1.028 3.296 1.638 3869
1.029 3.300 1.628 3519
1.070 3.429 1.675 4576
1.073 3.441 1.667 7167
1.098 3.521 1.691 6711
1.074 3.442 1.644 6173
1.081 3.467 1.642 8280
1.107 3.548 1.665 6919
1.112 3.566 1.661 7156
1.133 3.633 1.677 6637
1.137 3.645 1.669 7823
1.143 3.663 1.664 9747
1.144 3.667 1.653 9749
1.145 3.671 1.642 9582
1.146 3.676 1.631 10587
1.148 3.680 1.620 11031
1.151 3.691 1.611 10681
1.155 3.702 1.603 7805
1.196 3.833 1.643 6029
1.201 3.852 1.637 6151
1.234 3.955 1.664 5436
1.235 3.959 1.652 8024
1.232 3.949 1.634 6961
1.231 3.946 1.620 6003
1.237 3.964 1.613 6669
1.260 4.040 1.628 5656
1.261 4.044 1.616 4836
1.269 4.069 1.611 4897
1.273 4.081 1.601 6482
1.312 4.206 1.633 6855
1.315 4.218 1.623 6570
1.321 4.236 1.615 5394
1.349 4.326 1.632 5685
1.353 4.337 1.622 5731
1.361 4.363 1.616 6577
1.364 4.374 1.605 6484
1.402 4.494 1.631 5646
1.405 4.505 1.619 5680
1.409 4.516 1.608 5785
1.412 4.528 1.597 6347
1.416 4.539 1.585 7405
1.417 4.543 1.572 7198
1.418 4.547 1.558 6152
1.419 4.551 1.544 5282
1.491 4.779 1.600 3446
1.533 4.914 1.625 1891
1.539 4.933 1.615 3431
1.542 4.944 1.602 3673
1.514 4.853 1.559 2922
1.522 4.879 1.551 3407
1.557 4.992 1.568 4593
1.545 4.953 1.540 8205
1.548 4.964 1.527 12400
1.552 4.975 1.514 17714
1.553 4.979 1.499 15822
1.554 4.983 1.484 11863
1.555 4.986 1.469 9630
1.552 4.975 1.450 6338
1.555 4.986 1.437 5183
1.698 5.445 1.540 4367
1.734 5.559 1.552 3405
1.703 5.460 1.509 2725
1.743 5.588 1.523 2723
1.744 5.592 1.506 2593
1.819 5.832 1.547 4247
1.825 5.850 1.533 4741
1.831 5.869 1.518 3235
1.834 5.880 1.502 2728
1.897 6.083 1.531 2763
1.836 5.888 1.467 2916
1.835 5.884 1.447 2877
2.012 6.450 1.554 2846
2.024 6.490 1.542 4219
2.035 6.524 1.529 6315
2.036 6.528 1.509 5888
2.033 6.517 1.486 4418
2.031 6.513 1.465 6283
2.030 6.509 1.443 6941
2.029 6.505 1.422 4298
2.216 7.103 1.519 3182
2.219 7.115 1.499 3182
2.223 7.126 1.478 3871
2.354 7.546 1.534 5752
2.355 7.550 1.511 6292
2.356 7.554 1.488 3726
2.376 7.617 1.476 2195
2.470 7.919 1.505 2382
2.474 7.930 1.482 2911
2.479 7.949 1.460 2227
2.546 8.162 1.470 1613
2.717 8.711 1.533 1426
2.727 8.744 1.512 1949
2.731 8.756 1.486 2529
2.730 8.752 1.458 3095
2.731 8.756 1.432 2695
2.966 9.508 1.514 1668
3.247 10.410 1.613 1714
3.248 10.414 1.581 2005
3.186 10.216 1.522 2429
3.192 10.235 1.493 2556
3.196 10.246 1.463 2284
3.197 10.250 1.432 2097
3.556 11.401 1.542 1903
3.557 11.405 1.508 1649
3.554 11.394 1.471 1277
3.590 11.510 1.449 991
3.596 11.529 1.416 1181
3.597 11.533 1.381 976
3.584 11.491 1.341 968
3.585 11.494 1.306 1198
3.586 11.497 1.271 990
3.629 11.636 1.249 930
3.154 10.111 1.072 1153
3.157 10.121 1.042 2220
3.155 10.116 1.010 2865
3.156 10.118 0.979 2859
3.157 10.120 0.949 2165
3.150 10.100 0.916 1563
3.132 10.042 0.881 1785
3.130 10.036 0.850 2209
3.140 10.068 0.821 2081
3.148 10.093 0.792 2964
3.151 10.102 0.762 3604
3.152 10.104 0.731 3353
3.147 10.090 0.700 2950
3.148 10.092 0.669 2751
3.146 10.086 0.638 3028
3.146 10.087 0.607 3170
3.144 10.081 0.576 3053
3.142 10.075 0.545 2227
3.131 10.038 0.513 1782
3.136 10.054 0.483 1596
3.139 10.062 0.453 1652
3.132 10.041 0.421 1580
3.130 10.034 0.391 1621
3.132 10.042 0.360 1300
3.135 10.050 0.330 1016
3.135 10.051 0.299 763
3.137 10.059 0.269 384
3.135 10.051 0.238 255
0.592 1.896 0.084 359
0.589 1.889 0.079 452
0.589 1.889 0.073 547
0.865 2.772 0.033 570
0.865 2.772 0.025 742
0.864 2.771 0.017 953
0.864 2.771 0.008 1164
0.864 2.771 -0.000 1324
0.864 2.770 -0.008 1483
0.864 2.770 -0.017 1553
0.864 2.769 -0.025 1622
0.864 2.769 -0.033 1566
0.863 2.768 -0.042 1510
0.863 2.768 -0.050 1320
0.863 2.767 -0.058 1124
0.865 2.774 -0.067 1131
0.865 2.774 -0.075 938
0.867 2.781 -0.084 754
0.867 2.780 -0.093 553
0.865 2.772 -0.100 360
0.793 2.543 -0.119 327
0.793 2.542 -0.126 479
0.793 2.541 -0.134 631
0.790 2.533 -0.141 776
0.790 2.532 -0.148 924
0.789 2.531 -0.156 924
0.789 2.530 -0.163 1261
0.678 2.154 1.741 2123
0.680 2.159 1.734 4247
0.681 2.163 1.728 4247
0.688 2.186 1.735 6132
0.692 2.197 1.733 8718
0.693 2.201 1.727 9066
0.694 2.205 1.720 9414
0.696 2.210 1.713 9414
0.707 2.245 1.729 7871
0.712 2.262 1.732 9039
0.714 2.267 1.725 8454
0.715 2.271 1.718 7868
0.724 2.300 1.729 7501
0.732 2.324 1.735 7816
0.737 2.341 1.737 6615
0.744 2.364 1.743 6573
0.746 2.368 1.736 7179
0.747 2.373 1.729 6162
0.751 2.384 1.726 5239
0.754 2.394 1.723 4788
0.757 2.405 1.721 4525
0.759 2.409 1.713 5503
0.784 2.490 1.757 7011
0.786 2.495 1.749 9160
0.789 2.506 1.746 11327
0.790 2.510 1.739 11065
0.794 2.521 1.735 10858
0.795 2.526 1.728 10434
0.799 2.536 1.724 10059
0.800 2.541 1.717 9961
0.801 2.545 1.709 9864
0.803 2.550 1.701 7418
0.806 2.560 1.698 5022
0.818 2.597 1.710 7398
0.821 2.608 1.706 10258
0.823 2.612 1.699 9664
0.826 2.623 1.695 6896
0.850 2.700 1.730 7344
0.852 2.704 1.722 7473
0.853 2.709 1.714 7603
0.861 2.733 1.717 8516
0.862 2.737 1.709 9846
0.865 2.748 1.705 9766
0.873 2.772 1.708 11209
0.876 2.783 1.703 12988
0.878 2.788 1.695 12259
0.877 2.785 1.683 11630
0.878 2.790 1.674 8226
0.899 2.854 1.700 6617
0.900 2.858 1.691 8320
0.903 2.869 1.686 8001
0.907 2.880 1.681 5462
0.946 3.005 1.738 6241
0.952 3.023 1.736 6853
0.953 3.028 1.727 7868
0.953 3.025 1.714 8154
0.956 3.036 1.709 7018
0.960 3.047 1.703 8739
0.961 3.052 1.694 11676
0.962 3.056 1.685 11711
0.964 3.060 1.675 11070
1.004 3.187 1.728 12568
1.005 3.191 1.719 11063
0.974 3.094 1.658 7490
0.997 3.166 1.682 5841
1.005 3.191 1.683 7278
1.015 3.222 1.687 7605
1.025 3.254 1.690 9432
1.030 3.272 1.687 9178
1.032 3.277 1.677 8579
1.014 3.219 1.638 7721
1.017 3.230 1.632 7431
1.021 3.241 1.625 4478
1.035 3.287 1.635 4506
1.038 3.298 1.628 4256
1.077 3.419 1.671 4186
1.080 3.431 1.664 6399
1.077 3.421 1.648 7547
1.081 3.432 1.640 8265
1.089 3.457 1.639 9307
1.092 3.468 1.632 7516
1.120 3.556 1.658 7085
1.145 3.637 1.680 6437
1.149 3.649 1.672 7654
1.152 3.660 1.664 10149
1.154 3.664 1.653 11441
1.155 3.668 1.642 11164
1.159 3.679 1.634 9801
1.158 3.677 1.620 9768
1.159 3.681 1.609 11480
1.160 3.685 1.598 8892
1.204 3.823 1.640 5555
1.212 3.848 1.637 5169
1.220 3.874 1.633 5483
1.246 3.956 1.652 8454
1.245 3.953 1.637 7302
1.235 3.921 1.612 5287
1.247 3.961 1.613 5689
1.273 4.043 1.630 5833
1.275 4.048 1.618 5194
1.280 4.066 1.611 5148
1.286 4.084 1.604 6499
1.323 4.203 1.633 6143
1.329 4.221 1.625 6248
1.333 4.232 1.615 5425
1.361 4.322 1.632 5580
1.362 4.327 1.619 5350
1.373 4.359 1.616 6763
1.376 4.371 1.605 7381
1.380 4.382 1.594 5081
1.417 4.501 1.619 4969
1.421 4.512 1.608 5764
1.424 4.524 1.597 6363
1.430 4.542 1.588 7450
1.429 4.539 1.572 6982
1.433 4.550 1.560 5919
1.434 4.554 1.547 5145
1.504 4.775 1.600 3481
1.548 4.917 1.628 2446
1.552 4.928 1.615 4190
1.553 4.932 1.600 3838
1.557 4.944 1.587 3139
1.558 4.948 1.572 3900
1.564 4.966 1.561 5686
1.561 4.956 1.542 8355
1.562 4.960 1.527 12141
1.568 4.978 1.516 17050
1.569 4.982 1.501 14222
1.570 4.986 1.486 9614
1.569 4.982 1.469 7311
1.565 4.971 1.450 5687
1.571 4.989 1.439 5223
1.743 5.535 1.565 4010
1.747 5.547 1.550 3322
1.755 5.573 1.538 2468
1.754 5.569 1.520 3182
1.755 5.573 1.503 3155
1.835 5.827 1.547 2985
1.841 5.845 1.533 3563
1.849 5.871 1.520 2544
1.910 6.067 1.547 1944
1.912 6.071 1.529 3148
1.915 6.082 1.512 2596
2.030 6.447 1.575 2548
2.032 6.451 1.555 3626
2.037 6.470 1.539 4629
2.050 6.511 1.527 5690
2.051 6.515 1.507 5926
2.048 6.504 1.485 5245
2.049 6.507 1.465 7100
2.048 6.504 1.443 7513
2.044 6.493 1.421 4841
2.050 6.511 1.404 3330
2.168 6.886 1.456 2999
2.373 7.536 1.557 3258
2.374 7.540 1.534 5208
2.375 7.544 1.511 5894
2.377 7.547 1.488 3722
2.392 7.596 1.473 1964
2.494 7.920 1.506 2556
2.497 7.931 1.483 3518
2.501 7.942 1.460 2716
2.516 7.991 1.443 1608
2.755 8.748 1.541 1472
2.751 8.737 1.512 2208
2.752 8.741 1.485 2974
2.754 8.744 1.458 3655
2.755 8.748 1.432 3216
2.754 8.744 1.404 2021
3.207 10.184 1.582 2123
3.211 10.196 1.552 2591
3.214 10.207 1.522 3155
3.218 10.218 1.492 3052
3.221 10.230 1.462 2510
3.225 10.241 1.432 2172
3.228 10.252 1.401 1660
3.586 11.388 1.507 1161
3.540 11.242 1.454 1004
3.543 11.253 1.421 889
3.625 11.512 1.415 966
3.624 11.508 1.379 888
3.615 11.481 1.341 855
3.614 11.477 1.305 1070
3.617 11.488 1.271 938
3.673 11.664 1.252 888
3.671 11.659 1.216 976
3.175 10.082 1.039 1581
3.176 10.085 1.008 2768
3.176 10.087 0.978 3214
3.175 10.082 0.946 2704
3.171 10.069 0.914 2229
3.171 10.071 0.884 2402
3.174 10.081 0.854 2714
3.175 10.082 0.823 2822
3.176 10.084 0.792 2880
3.176 10.086 0.761 2831
3.174 10.080 0.730 2463
3.170 10.067 0.699 1588
3.144 9.985 0.664 2035
3.145 9.987 0.633 2169
3.148 9.996 0.603 2193
3.148 9.997 0.573 2068
3.151 10.006 0.543 1649
3.158 10.029 0.513 1685
3.159 10.030 0.482 2016
3.159 10.031 0.452 1723
3.157 10.024 0.421 1267
3.157 10.025 0.391 1093
3.157 10.026 0.360 1194
3.157 10.026 0.329 1295
3.157 10.027 0.299 964
3.153 10.012 0.268 402
0.599 1.903 0.107 304
0.597 1.895 0.101 279
0.597 1.895 0.090 273
0.597 1.895 0.084 322
0.597 1.895 0.079 383
0.597 1.894 0.073 444
0.872 2.770 0.033 551
0.874 2.777 0.025 721
0.872 2.769 0.017 890
0.872 2.769 0.008 1066
0.872 2.768 -0.000 1178
0.872 2.768 -0.008 1290
0.871 2.767 -0.017 1293
0.871 2.767 -0.025 1296
0.871 2.766 -0.033 1198
0.871 2.766 -0.042 1100
0.871 2.765 -0.050 943
0.871 2.765 -0.058 786
0.870 2.764 -0.067 787
0.873 2.771 -0.075 631
0.872 2.771 -0.084 477
0.872 2.770 -0.092 363
0.870 2.762 -0.100 253
0.802 2.548 -0.119 264
0.800 2.540 -0.126 292
0.799 2.539 -0.134 321
0.799 2.538 -0.141 281
0.791 2.513 -0.161 390
0.684 2.146 1.736 2249
0.685 2.150 1.730 4498
0.687 2.155 1.723 4498
0.696 2.184 1.735 5745
0.699 2.194 1.733 8104
0.701 2.199 1.727 8390
0.702 2.203 1.720 8677
0.704 2.207 1.713 8677
0.719 2.255 1.738 7950
0.722 2.266 1.736 9132
0.722 2.264 1.725 8422
0.723 2.268 1.718 7782
0.732 2.298 1.729 6992
0.744 2.334 1.744 7132
0.749 2.351 1.746 6719
0.753 2.361 1.743 7266
0.754 2.366 1.736 7883
0.753 2.364 1.725 6594
0.757 2.375 1.722 5393
0.762 2.392 1.723 4945
0.766 2.402 1.721 4899
0.767 2.407 1.713 5547
0.791 2.481 1.753 7262
0.794 2.492 1.749 9607
0.796 2.497 1.742 12053
0.799 2.507 1.739 11357
0.803 2.518 1.735 10839
0.804 2.523 1.728 10337
0.808 2.534 1.724 9910
0.809 2.538 1.717 9864
0.810 2.542 1.709 9818
0.812 2.547 1.701 7408
0.813 2.551 1.694 4998
0.827 2.594 1.710 7206
0.830 2.605 1.706 9791
0.832 2.610 1.699 8993
0.862 2.705 1.746 6402
0.862 2.703 1.734 7511
0.863 2.708 1.726 6863
0.860 2.699 1.710 6327
0.870 2.730 1.717 6942
0.874 2.741 1.713 7950
0.877 2.752 1.709 8660
0.885 2.776 1.712 12149
0.886 2.780 1.703 14905
0.888 2.784 1.695 13299
0.889 2.789 1.687 11693
0.888 2.786 1.674 8344
0.909 2.851 1.700 6573
0.910 2.855 1.691 7707
0.914 2.866 1.686 7014
0.955 2.997 1.747 5319
0.957 3.002 1.738 7267
0.963 3.020 1.736 8150
0.964 3.024 1.727 9370
0.965 3.029 1.718 9760
0.969 3.040 1.712 8067
0.970 3.044 1.703 8598
0.974 3.055 1.697 11009
0.975 3.059 1.688 11154
0.974 3.057 1.675 10767
1.015 3.183 1.728 13239
1.018 3.195 1.722 12315
0.985 3.090 1.658 7973
0.991 3.108 1.655 6121
1.018 3.194 1.686 5472
1.030 3.233 1.693 7369
1.036 3.251 1.690 9863
1.042 3.269 1.687 9165
1.043 3.273 1.677 8169
1.045 3.277 1.667 6273
1.031 3.233 1.635 5985
1.069 3.355 1.680 5349
1.046 3.283 1.635 4489
1.050 3.294 1.628 4163
1.080 3.388 1.659 4122
1.086 3.406 1.655 6227
1.089 3.417 1.648 8789
1.095 3.435 1.644 10281
1.101 3.453 1.639 9994
1.104 3.464 1.632 7661
1.130 3.545 1.655 6797
1.163 3.647 1.686 6101
1.166 3.658 1.678 7446
1.168 3.663 1.667 9510
1.169 3.667 1.656 9932
1.170 3.671 1.645 9780
1.172 3.675 1.634 9669
1.171 3.672 1.620 9339
1.172 3.677 1.609 9732
1.173 3.681 1.598 7655
1.217 3.819 1.640 5194
1.221 3.830 1.631 4375
1.233 3.869 1.633 5241
1.260 3.951 1.652 7847
1.259 3.948 1.637 7099
1.258 3.946 1.622 5286
1.261 3.957 1.613 5319
1.292 4.053 1.636 6318
1.293 4.057 1.623 5525
1.315 4.125 1.635 5223
1.300 4.080 1.604 6021
1.338 4.198 1.633 5440
1.344 4.216 1.625 6109
1.348 4.228 1.615 5468
1.376 4.318 1.632 5248
1.375 4.315 1.617 5257
1.388 4.355 1.616 6816
1.392 4.366 1.605 7478
1.393 4.370 1.592 4922
1.435 4.503 1.622 4395
1.439 4.515 1.611 5988
1.445 4.533 1.602 7617
1.446 4.537 1.588 8260
1.447 4.541 1.574 7182
1.449 4.545 1.560 6148
1.450 4.549 1.547 5086
1.523 4.777 1.602 3736
1.533 4.810 1.597 3055
1.569 4.923 1.615 4708
1.568 4.920 1.598 3986
1.574 4.938 1.587 3233
1.573 4.935 1.570 4731
1.577 4.946 1.557 8121
1.580 4.957 1.544 9887
1.584 4.969 1.531 12393
1.585 4.973 1.516 15734
1.586 4.976 1.501 11254
1.590 4.987 1.488 8219
1.589 4.984 1.471 7434
1.587 4.980 1.454 5214
1.596 5.006 1.445 4430
1.755 5.507 1.559 3866
1.766 5.540 1.550 3475
1.770 5.552 1.535 2981
1.773 5.563 1.520 3054
1.774 5.567 1.503 2799
1.790 5.615 1.497 3524
1.789 5.611 1.478 3960
1.792 5.622 1.463 2686
1.793 5.626 1.445 1807
1.935 6.071 1.531 3040
1.941 6.090 1.515 2638
2.053 6.440 1.575 2718
2.054 6.444 1.555 4217
2.058 6.456 1.537 5101
2.068 6.489 1.524 5268
2.072 6.500 1.506 6690
2.068 6.489 1.483 6874
2.070 6.493 1.463 7465
2.068 6.489 1.442 6915
2.067 6.485 1.421 4944
2.073 6.504 1.404 3926
2.195 6.886 1.457 2939
2.399 7.527 1.557 2819
2.401 7.531 1.534 4320
2.402 7.535 1.511 4937
2.403 7.539 1.488 3271
2.400 7.528 1.463 1867
2.524 7.918 1.507 2494
2.525 7.922 1.483 3656
2.529 7.933 1.460 2807
2.547 7.989 1.445 1798
2.788 8.746 1.542 1672
2.782 8.727 1.512 2267
2.783 8.731 1.485 3071
2.784 8.735 1.458 3813
2.785 8.738 1.432 3402
3.244 10.176 1.614 2274
3.243 10.173 1.582 2489
3.244 10.177 1.551 2816
3.250 10.196 1.522 3210
3.254 10.207 1.492 3001
3.255 10.211 1.461 2571
3.258 10.222 1.431 2411
3.259 10.225 1.399 1716
3.581 11.233 1.489 1321
3.584 11.244 1.456 1405
3.585 11.248 1.422 1320
3.586 11.251 1.387 1025
3.714 11.652 1.396 815
3.715 11.656 1.361 1217
3.716 11.659 1.325 1299
3.717 11.663 1.290 1024
3.721 11.673 1.255 824
3.705 11.624 1.214 783
3.701 11.612 1.177 817
3.206 10.058 1.007 899
3.207 10.061 0.976 1044
3.208 10.063 0.946 1305
3.206 10.058 0.914 1654
3.204 10.052 0.883 1394
3.202 10.047 0.852 1054
3.208 10.064 0.822 1875
3.211 10.073 0.792 3620
3.209 10.067 0.761 4359
3.210 10.069 0.730 4314
3.205 10.056 0.699 3155
3.189 10.004 0.665 3155
3.189 10.006 0.635 3113
3.202 10.045 0.606 3073
3.202 10.046 0.575 2738
3.200 10.040 0.544 2057
3.189 10.003 0.512 1220
3.189 10.004 0.482 813
3.189 10.005 0.451 784
3.187 9.998 0.421 991
3.185 9.991 0.390 1270
3.185 9.992 0.360 1228
3.185 9.993 0.329 1185
3.183 9.986 0.298 897
3.166 9.933 0.267 594
3.166 9.934 0.237 502
3.164 9.926 0.207 438
3.164 9.926 0.176 378
3.164 9.926 0.146 301
0.613 1.923 0.112 414
0.611 1.916 0.107 617
0.606 1.901 0.101 748
0.603 1.893 0.096 820
0.603 1.893 0.090 706
0.603 1.893 0.084 593
0.603 1.893 0.079 454
0.598 1.877 0.074 327
0.884 2.774 0.033 398
0.884 2.774 0.025 529
0.884 2.773 0.016 658
0.882 2.766 0.008 793
0.881 2.765 -0.000 874
0.881 2.765 -0.008 955
0.881 2.764 -0.017 940
0.881 2.764 -0.025 924
0.881 2.763 -0.033 834
0.881 2.763 -0.042 745
0.881 2.762 -0.050 617
0.880 2.762 -0.058 492
0.880 2.761 -0.067 494
0.882 2.768 -0.075 420
0.882 2.768 -0.084 351
0.882 2.767 -0.092 290
0.811 2.544 -0.127 279
0.811 2.544 -0.135 384
0.811 2.543 -0.142 482
0.810 2.542 -0.150 580
0.810 2.541 -0.158 580
0.810 2.540 -0.165 757
0.687 2.131 1.727 2494
0.688 2.136 1.720 4988
0.689 2.140 1.714 4988
0.703 2.181 1.735 5256
0.708 2.198 1.738 7189
0.708 2.196 1.727 7371
0.707 2.195 1.716 7648
0.708 2.199 1.709 7648
0.728 2.259 1.743 8244
0.731 2.270 1.741 9297
0.731 2.268 1.729 8444
0.730 2.266 1.718 7890
0.752 2.333 1.756 6691
0.755 2.344 1.753 7034
0.756 2.348 1.746 7267
0.760 2.359 1.743 8172
0.759 2.357 1.732 8882
0.761 2.362 1.725 7233
0.764 2.372 1.722 5664
0.770 2.389 1.723 5175
0.773 2.400 1.721 5351
0.777 2.411 1.718 5751
0.796 2.472 1.748 7691
0.802 2.490 1.749 10092
0.803 2.494 1.742 12753
0.807 2.505 1.739 11489
0.810 2.516 1.735 10579
0.812 2.520 1.728 10009
0.815 2.531 1.724 9482
0.815 2.529 1.713 9554
0.816 2.533 1.705 9669
0.818 2.538 1.697 7226
0.821 2.549 1.694 4902
0.835 2.592 1.710 6505
0.838 2.603 1.706 8765
0.840 2.607 1.699 7800
0.875 2.716 1.754 6211
0.876 2.720 1.746 7261
0.876 2.718 1.734 6030
0.866 2.690 1.706 5004
0.881 2.734 1.721 5402
0.882 2.738 1.713 6159
0.886 2.749 1.709 7931
0.893 2.773 1.712 13123
0.897 2.784 1.707 16428
0.898 2.788 1.699 14044
0.900 2.793 1.690 11659
0.897 2.784 1.674 8303
0.920 2.854 1.703 7154
0.919 2.852 1.691 7731
0.920 2.856 1.682 6644
0.965 2.994 1.747 6151
0.968 3.006 1.741 8313
0.972 3.017 1.736 9505
0.973 3.021 1.727 10945
0.975 3.026 1.718 11417
0.978 3.037 1.712 9611
0.982 3.048 1.707 9018
0.983 3.052 1.697 10313
0.985 3.056 1.688 10618
0.986 3.061 1.679 10601
1.027 3.187 1.732 13547
1.028 3.192 1.722 13496
1.032 3.203 1.716 9628
1.000 3.105 1.655 6405
1.037 3.218 1.700 5179
1.040 3.229 1.693 7823
1.046 3.247 1.690 10238
1.050 3.259 1.684 8706
1.053 3.270 1.677 7226
1.055 3.274 1.667 5915
1.072 3.326 1.680 5814
1.080 3.351 1.680 7364
1.081 3.355 1.670 6084
1.080 3.353 1.656 5284
1.084 3.364 1.649 5665
1.094 3.396 1.652 6495
1.100 3.414 1.648 9755
1.106 3.432 1.644 11518
1.111 3.450 1.639 10164
1.115 3.461 1.632 7522
1.141 3.542 1.655 6494
1.142 3.546 1.644 5641
1.177 3.655 1.678 6517
1.181 3.666 1.670 8029
1.182 3.670 1.659 8632
1.186 3.682 1.651 8576
1.192 3.700 1.645 8559
1.207 3.746 1.651 8643
1.183 3.673 1.609 7997
1.185 3.677 1.598 6723
1.227 3.808 1.637 4822
1.246 3.868 1.648 3977
1.248 3.873 1.636 5316
1.272 3.947 1.652 6918
1.271 3.945 1.637 6559
1.261 3.913 1.612 5253
1.308 4.059 1.653 5171
1.307 4.056 1.638 7147
1.308 4.060 1.626 5837
1.328 4.121 1.635 6303
1.315 4.083 1.607 5378
1.353 4.201 1.635 4643
1.355 4.205 1.623 5103
1.328 4.124 1.580 4537
1.392 4.320 1.635 4631
1.398 4.339 1.627 5289
1.401 4.350 1.616 6850
1.403 4.354 1.603 7102
1.406 4.366 1.592 4288
1.461 4.535 1.634 5166
1.460 4.532 1.618 6783
1.459 4.529 1.602 8679
1.462 4.540 1.590 8878
1.461 4.537 1.574 7397
1.463 4.541 1.560 6416
1.464 4.545 1.547 4972
1.535 4.765 1.600 3836
1.550 4.813 1.599 3369
1.584 4.918 1.615 4939
1.586 4.922 1.600 3667
1.592 4.941 1.589 2660
1.588 4.930 1.570 4740
1.592 4.941 1.557 9412
1.595 4.953 1.544 10526
1.599 4.964 1.531 12652
1.600 4.968 1.516 14522
1.604 4.979 1.503 10020
1.603 4.975 1.486 10758
1.604 4.979 1.471 11362
1.607 4.990 1.458 6260
1.613 5.008 1.446 3794
1.779 5.524 1.565 4027
1.776 5.513 1.544 3385
1.808 5.612 1.551 2837
1.788 5.550 1.518 2945
1.789 5.554 1.501 2834
1.805 5.602 1.495 4808
1.806 5.605 1.478 6576
1.809 5.616 1.463 4779
1.810 5.620 1.445 2995
1.963 6.095 1.537 3252
1.972 6.121 1.524 3183
1.978 6.139 1.509 3105
2.074 6.438 1.555 4314
2.075 6.442 1.536 5200
2.086 6.475 1.522 5131
2.090 6.486 1.504 7986
2.086 6.475 1.481 9008
2.087 6.479 1.462 7877
2.088 6.483 1.442 5864
2.089 6.486 1.422 4756
2.093 6.497 1.404 4216
2.099 6.516 1.387 3055
2.317 7.194 1.495 2577
2.424 7.524 1.534 3357
2.425 7.528 1.511 3805
2.426 7.532 1.488 2659
2.415 7.498 1.459 2037
2.551 7.918 1.509 2140
2.550 7.914 1.483 3225
2.553 7.926 1.460 2507
2.765 8.584 1.544 1848
2.819 8.752 1.544 1897
2.818 8.748 1.516 2214
2.810 8.722 1.485 2778
2.811 8.726 1.458 3498
2.812 8.730 1.432 3190
3.275 10.166 1.614 2451
3.274 10.163 1.582 2712
3.275 10.167 1.551 2927
3.279 10.178 1.521 3195
3.282 10.190 1.491 2884
3.284 10.193 1.460 2426
3.282 10.189 1.428 2208
3.284 10.193 1.397 1639
3.617 11.229 1.490 1492
3.619 11.233 1.456 1811
3.620 11.237 1.422 1846
3.621 11.240 1.387 1403
3.627 11.259 1.355 1007
3.626 11.255 1.320 878
3.755 11.655 1.326 1050
3.756 11.659 1.290 903
3.757 11.662 1.255 643
3.729 11.575 1.211 713
3.732 11.585 1.176 757
3.733 11.588 1.141 556
3.245 10.073 0.978 650
3.241 10.061 0.946 930
3.232 10.033 0.913 1426
3.230 10.027 0.882 1782
3.231 10.029 0.851 1819
3.231 10.031 0.821 1823
3.239 10.056 0.792 2592
3.242 10.065 0.761 3437
3.240 10.059 0.730 3580
3.236 10.046 0.699 3304
3.234 10.040 0.668 3031
3.232 10.034 0.637 2789
3.230 10.027 0.606 3255
3.228 10.021 0.575 4072
3.226 10.015 0.544 3688
3.224 10.008 0.513 2610
3.217 9.987 0.482 1931
3.225 10.010 0.452 1809
3.227 10.019 0.422 1279
3.235 10.042 0.392 836
3.211 9.967 0.359 684
3.199 9.930 0.328 752
3.199 9.931 0.298 889
3.197 9.924 0.267 910
3.194 9.916 0.237 791
3.194 9.917 0.207 623
3.192 9.909 0.176 463
3.192 9.909 0.146 362
3.195 9.917 0.116 268
0.617 1.914 0.118 322
0.614 1.906 0.112 547
0.614 1.906 0.107 622
0.614 1.906 0.101 580
0.619 1.921 0.095 527
0.619 1.921 0.089 666
0.619 1.921 0.083 806
0.616 1.913 0.078 812
0.614 1.906 0.073 840
0.614 1.905 0.067 607
0.609 1.890 0.062 389
0.611 1.897 0.056 331
0.890 2.763 0.008 336
0.890 2.762 -0.000 394
0.890 2.762 -0.008 452
0.890 2.762 -0.017 534
0.892 2.769 -0.025 617
0.889 2.761 -0.033 681
0.889 2.760 -0.042 745
0.889 2.760 -0.050 742
0.891 2.767 -0.059 734
0.891 2.766 -0.067 738
0.893 2.773 -0.076 697
0.893 2.772 -0.084 665
0.893 2.772 -0.093 543
0.893 2.771 -0.101 422
0.892 2.770 -0.109 324
0.689 2.117 1.717 2736
0.690 2.122 1.711 5472
0.691 2.126 1.705 5472
0.717 2.204 1.754 4865
0.718 2.208 1.747 6087
0.730 2.244 1.763 6628
0.733 2.254 1.761 7948
0.735 2.259 1.754 7948
0.738 2.269 1.752 8841
0.740 2.274 1.745 9862
0.741 2.278 1.738 8627
0.736 2.264 1.718 7715
0.758 2.331 1.756 6391
0.764 2.348 1.757 7108
0.763 2.346 1.746 7667
