0.960 2.743 1.708 8530
0.963 2.754 1.703 9258
0.970 2.772 1.703 9147
0.976 2.789 1.702 9736
0.982 2.807 1.701 8982
0.990 2.831 1.703 6249
0.966 2.762 1.654 5825
0.970 2.773 1.649 6198
0.967 2.764 1.634 5888
1.040 2.974 1.738 7594
1.046 2.992 1.736 8231
1.048 2.996 1.727 8973
1.047 2.994 1.714 8838
1.051 3.005 1.709 7092
1.055 3.016 1.703 8650
1.059 3.027 1.697 11849
1.058 3.024 1.685 12601
1.059 3.029 1.675 12738
1.106 3.161 1.732 14042
1.109 3.172 1.726 12300
1.113 3.183 1.719 11109
1.108 3.167 1.699 12488
1.107 3.164 1.686 13529
1.113 3.182 1.683 12319
1.119 3.200 1.680 10629
1.128 3.225 1.681 9334
1.129 3.229 1.671 9406
1.126 3.219 1.654 6680
1.151 3.292 1.677 5926
1.162 3.323 1.680 7495
1.166 3.334 1.673 6244
1.170 3.346 1.666 4547
1.174 3.357 1.659 4574
1.219 3.484 1.705 5432
1.223 3.495 1.697 8848
1.224 3.500 1.687 10376
1.228 3.511 1.679 10472
1.234 3.529 1.675 9667
1.238 3.540 1.667 9463
1.240 3.544 1.656 8438
1.246 3.562 1.651 8245
1.262 3.608 1.658 11671
1.266 3.619 1.650 12292
1.272 3.637 1.645 12304
1.271 3.634 1.631 10955
1.270 3.631 1.617 12141
1.272 3.635 1.606 12696
1.275 3.646 1.598 7322
1.323 3.783 1.640 7830
1.325 3.787 1.628 5696
1.365 3.903 1.661 6850
1.367 3.908 1.649 10973
1.366 3.905 1.634 10603
1.367 3.909 1.622 8746
1.374 3.927 1.616 6625
1.407 4.023 1.638 5116
1.399 3.998 1.616 6398
1.403 4.010 1.606 6376
1.411 4.035 1.601 5328
1.457 4.166 1.635 8005
1.461 4.177 1.625 6877
1.433 4.096 1.582 5392
1.499 4.285 1.635 5797
1.505 4.303 1.627 5960
1.509 4.314 1.616 6270
1.510 4.318 1.603 5482
1.559 4.457 1.635 6520
1.566 4.476 1.627 6001
1.574 4.501 1.620 4957
1.573 4.498 1.604 4603
1.572 4.495 1.588 6043
1.574 4.499 1.574 4530
1.630 4.660 1.611 3397
1.652 4.722 1.614 5035
1.653 4.726 1.600 4719
1.662 4.751 1.592 4010
1.703 4.870 1.613 7587
1.707 4.881 1.600 11434
1.709 4.885 1.585 9081
1.710 4.889 1.570 8404
1.714 4.900 1.557 8508
1.723 4.926 1.548 9774
1.717 4.908 1.527 10726
1.713 4.897 1.508 9058
1.717 4.908 1.495 8673
1.716 4.905 1.478 11826
1.719 4.916 1.465 13164
1.723 4.927 1.452 10971
1.725 4.930 1.437 5699
1.914 5.471 1.563 3778
1.915 5.474 1.546 3756
1.924 5.500 1.535 3463
1.935 5.533 1.525 3804
2.010 5.748 1.561 4082
1.946 5.562 1.497 3718
1.944 5.559 1.478 4752
1.946 5.562 1.461 4463
1.950 5.573 1.445 2772
2.101 6.008 1.529 3040
2.103 6.011 1.510 2706
2.237 6.395 1.578 2920
2.236 6.392 1.557 3513
2.237 6.396 1.537 5993
2.244 6.414 1.521 7517
2.247 6.425 1.503 10554
2.246 6.422 1.481 13034
2.247 6.425 1.462 10240
2.395 6.847 1.527 7279
2.253 6.440 1.424 6223
2.405 6.877 1.490 4620
2.404 6.873 1.467 4273
2.403 6.869 1.445 2625
2.615 7.476 1.537 2445
2.622 7.495 1.517 3187
2.623 7.498 1.494 3260
2.614 7.473 1.466 3122
2.747 7.852 1.509 3019
2.748 7.856 1.484 3987
2.749 7.860 1.460 2930
2.983 8.528 1.546 2088
3.041 8.694 1.547 1980
3.040 8.691 1.519 2070
3.026 8.650 1.485 2553
3.024 8.646 1.457 3456
3.026 8.650 1.431 3354
3.529 10.089 1.615 2822
3.531 10.093 1.584 3606
3.532 10.097 1.553 3777
3.533 10.101 1.522 2968
3.612 10.327 1.521 2618
3.536 10.109 1.460 2449
3.535 10.105 1.428 2131
3.538 10.116 1.398 1895
3.893 11.129 1.489 1388
3.899 11.147 1.457 1622
3.900 11.151 1.423 1732
3.899 11.147 1.387 1324
3.905 11.165 1.355 710
3.974 11.362 1.341 844
3.975 11.365 1.306 931
4.052 11.584 1.292 763
4.048 11.572 1.255 991
4.046 11.568 1.219 858
3.519 10.059 1.046 966
3.519 10.062 1.015 1616
3.520 10.064 0.984 1847
3.524 10.074 0.954 2206
3.524 10.076 0.923 2646
3.525 10.078 0.892 2430
3.523 10.073 0.861 2178
3.524 10.075 0.830 2370
3.514 10.047 0.797 1906
3.510 10.034 0.765 1909
3.508 10.028 0.733 2400
3.506 10.022 0.702 2720
3.503 10.016 0.671 2637
3.507 10.025 0.640 3105
3.510 10.034 0.610 4265
3.507 10.027 0.579 4873
3.511 10.036 0.548 4220
3.511 10.037 0.517 2692
3.511 10.038 0.486 1781
3.512 10.039 0.455 1659
1.265 3.616 0.241 1116
1.265 3.616 0.230 1154
1.265 3.616 0.219 1089
1.265 3.616 0.208 1023
1.265 3.617 0.197 867
1.268 3.624 0.186 582
1.681 4.805 0.187 589
1.681 4.805 0.172 621
1.681 4.805 0.157 556
1.929 5.515 0.143 547
2.279 6.516 0.124 501
2.282 6.524 0.104 633
2.282 6.524 0.084 775
2.282 6.523 0.064 884
2.282 6.523 0.044 992
2.282 6.523 0.024 1047
2.282 6.523 0.004 1103
1.152 3.295 0.061 1170
1.150 3.287 0.052 1324
1.150 3.287 0.042 1483
1.150 3.287 0.032 1555
1.150 3.286 0.022 1627
1.149 3.286 0.012 1560
1.149 3.286 0.002 1494
1.149 3.285 -0.008 1329
1.149 3.285 -0.018 1164
1.149 3.284 -0.028 960
1.146 3.276 -0.038 768
1.148 3.283 -0.048 579
1.148 3.283 -0.058 401
1.148 3.282 -0.068 273
2.674 7.644 -0.373 260
2.676 7.650 -0.397 258
0.782 2.236 -0.028 281
0.782 2.236 -0.035 352
0.782 2.235 -0.042 423
0.782 2.235 -0.048 429
2.159 6.173 -0.407 467
2.159 6.172 -0.426 467
2.161 6.178 -0.445 470
2.160 6.176 -0.464 475
2.157 6.167 -0.482 406
0.778 2.224 -0.088 450
0.775 2.216 -0.094 454
0.775 2.215 -0.101 470
0.424 1.212 0.007 679
0.421 1.204 0.004 748
0.421 1.203 0.001 971
0.418 1.196 -0.002 1446
0.750 2.124 1.736 3525
0.751 2.128 1.730 7051
0.753 2.132 1.723 7051
0.750 2.125 1.708 7618
0.747 2.117 1.692 8859
0.755 2.139 1.699 10709
0.759 2.150 1.697 13591
0.760 2.154 1.691 13591
0.764 2.164 1.689 11988
0.787 2.230 1.727 12100
0.769 2.179 1.680 9660
0.812 2.301 1.758 9173
0.814 2.305 1.751 8696
0.793 2.247 1.700 9011
0.797 2.258 1.698 8252
0.827 2.343 1.748 8275
0.827 2.341 1.736 9405
0.828 2.346 1.729 8556
0.830 2.350 1.722 7587
0.831 2.354 1.715 6501
0.835 2.365 1.712 5508
0.841 2.382 1.713 5430
0.869 2.462 1.757 6114
0.871 2.466 1.749 7754
0.875 2.477 1.746 9536
0.876 2.482 1.739 9023
0.880 2.492 1.735 8725
0.884 2.503 1.732 8422
0.888 2.514 1.728 8192
0.889 2.518 1.721 8267
0.891 2.523 1.713 8342
0.892 2.527 1.705 6517
0.919 2.602 1.742 6982
0.909 2.574 1.714 9238
0.910 2.578 1.706 12523
0.912 2.583 1.699 11118
0.913 2.587 1.691 7489
0.922 2.611 1.695 5952
0.962 2.725 1.753 5838
0.966 2.736 1.749 8505
0.965 2.734 1.737 10557
0.965 2.732 1.725 12918
0.964 2.730 1.712 10401
0.965 2.734 1.704 8509
0.969 2.745 1.700 9058
0.978 2.769 1.703 8729
0.984 2.786 1.702 9395
0.990 2.804 1.701 8771
0.998 2.828 1.703 6138
0.974 2.760 1.654 5394
0.976 2.764 1.646 5755
0.975 2.761 1.634 5562
1.049 2.971 1.738 7404
1.055 2.989 1.736 7927
1.057 2.993 1.727 8607
1.056 2.991 1.714 8476
1.060 3.002 1.709 6910
1.064 3.013 1.703 8808
1.065 3.017 1.694 12137
1.067 3.021 1.685 12747
1.068 3.025 1.675 12691
1.112 3.151 1.728 13861
1.116 3.162 1.722 11841
1.120 3.173 1.716 10756
1.115 3.157 1.696 12650
1.116 3.161 1.686 13695
1.122 3.179 1.683 12389
1.126 3.190 1.677 11044
1.135 3.215 1.677 10050
1.139 3.226 1.671 10114
1.135 3.216 1.654 7269
1.161 3.288 1.677 5650
1.172 3.320 1.680 7066
1.176 3.331 1.673 5876
1.182 3.349 1.669 4342
1.186 3.360 1.662 4566
1.193 3.378 1.658 5522
1.230 3.485 1.694 8841
1.234 3.496 1.687 10276
1.241 3.514 1.682 10424
1.249 3.539 1.681 9956
1.251 3.543 1.670 9772
1.250 3.541 1.656 8463
1.259 3.565 1.654 8238
1.270 3.597 1.655 11974
1.276 3.615 1.650 12468
1.283 3.633 1.645 12461
1.282 3.631 1.631 11075
1.281 3.628 1.617 12240
1.282 3.632 1.606 12916
1.284 3.636 1.595 7453
1.334 3.779 1.640 8058
1.336 3.783 1.628 5772
1.377 3.899 1.661 7000
1.381 3.911 1.652 11275
1.380 3.908 1.637 10633
1.381 3.912 1.625 8729
1.385 3.923 1.616 7055
1.416 4.011 1.636 4901
1.410 3.994 1.616 6239
1.414 4.006 1.606 6317
1.423 4.031 1.601 5357
1.469 4.162 1.635 8088
1.473 4.173 1.625 6953
1.445 4.092 1.582 4863
1.511 4.280 1.635 5821
1.518 4.298 1.627 5864
1.522 4.310 1.616 6099
1.523 4.314 1.603 5354
1.572 4.453 1.635 6559
1.579 4.471 1.627 5936
1.585 4.489 1.618 4957
1.584 4.486 1.602 4912
1.585 4.490 1.588 6304
1.587 4.494 1.574 4728
1.591 4.505 1.563 3362
1.665 4.717 1.614 4928
1.667 4.721 1.600 4665
1.673 4.739 1.590 3909
1.718 4.865 1.613 7393
1.722 4.876 1.600 11245
1.723 4.880 1.585 8802
1.724 4.884 1.570 7881
1.728 4.895 1.557 8109
1.737 4.921 1.548 9619
1.731 4.903 1.527 10828
1.727 4.892 1.508 9381
1.729 4.896 1.493 8866
1.730 4.900 1.478 11836
1.734 4.911 1.465 13210
1.738 4.922 1.452 11123
1.739 4.925 1.437 5860
1.929 5.465 1.563 3536
1.933 5.476 1.548 3707
1.940 5.495 1.535 3699
1.949 5.520 1.523 3615
2.027 5.742 1.561 4215
2.031 5.753 1.545 3175
1.961 5.553 1.478 4204
1.962 5.557 1.461 3904
2.058 5.830 1.508 2699
2.119 6.001 1.529 2990
2.120 6.005 1.510 2613
2.256 6.389 1.578 3005
2.254 6.385 1.557 3505
2.256 6.389 1.537 5962
2.265 6.415 1.522 7470
2.266 6.419 1.503 10258
2.265 6.415 1.481 12617
2.266 6.419 1.462 9965
2.415 6.840 1.527 7008
2.271 6.433 1.424 5970
2.425 6.870 1.490 4471
2.421 6.859 1.466 4182
2.423 6.862 1.445 2524
2.637 7.469 1.537 2399
2.643 7.487 1.517 3312
2.647 7.498 1.495 3421
2.636 7.465 1.466 3107
2.769 7.844 1.509 3043
2.768 7.841 1.483 4057
2.772 7.852 1.460 2968
3.008 8.519 1.546 1918
3.069 8.693 1.548 1869
3.065 8.682 1.519 2021
3.051 8.641 1.485 2565
3.049 8.637 1.457 3474
3.051 8.641 1.431 3360
3.558 10.079 1.615 2883
3.560 10.083 1.584 3673
3.561 10.087 1.553 3863
3.565 10.098 1.523 2985
3.642 10.317 1.521 2511
3.565 10.098 1.460 2376
3.564 10.094 1.428 2120
3.568 10.105 1.398 1959
3.593 10.176 1.375 1345
3.932 11.136 1.457 1480
3.933 11.139 1.423 1599
3.934 11.143 1.388 1234
4.064 11.510 1.394 694
4.007 11.350 1.341 881
4.006 11.346 1.305 964
3.566 10.101 1.145 626
4.081 11.560 1.255 808
3.573 10.121 1.084 732
3.574 10.123 1.053 1006
3.546 10.044 1.015 1296
3.550 10.054 0.984 1597
3.550 10.056 0.953 1487
3.570 10.110 0.927 1329
3.549 10.053 0.891 1939
3.550 10.055 0.860 2808
3.548 10.050 0.828 3364
3.546 10.044 0.797 3193
3.547 10.046 0.766 2487
3.547 10.047 0.735 2245
3.535 10.012 0.702 3303
3.535 10.013 0.671 4535
3.536 10.015 0.640 4639
3.534 10.008 0.609 4342
3.537 10.017 0.579 3921
3.537 10.018 0.548 2983
3.545 10.042 0.518 1730
3.551 10.058 0.487 1560
3.551 10.059 0.456 1445
3.549 10.052 0.425 1210
3.547 10.045 0.394 1141
3.544 10.039 0.363 909
3.536 10.017 0.332 760
1.276 3.613 0.197 513
1.697 4.807 0.202 619
1.695 4.800 0.187 952
1.695 4.800 0.172 1098
1.695 4.800 0.157 1145
1.697 4.808 0.143 1221
1.697 4.808 0.128 1206
1.695 4.800 0.113 1210
1.697 4.808 0.099 1109
1.697 4.807 0.084 889
1.695 4.800 0.069 769
1.695 4.800 0.055 646
1.160 3.284 0.072 825
1.162 3.291 0.061 1077
1.159 3.284 0.052 1261
1.159 3.284 0.042 1447
1.159 3.283 0.032 1551
1.159 3.283 0.022 1655
1.159 3.283 0.012 1632
1.159 3.282 0.002 1609
1.159 3.282 -0.008 1474
1.159 3.281 -0.018 1339
1.158 3.281 -0.028 1136
1.156 3.273 -0.038 945
1.158 3.280 -0.048 736
1.158 3.279 -0.058 538
1.158 3.279 -0.068 382
2.307 6.534 -0.298 278
2.180 6.175 -0.293 342
2.182 6.181 -0.313 424
2.182 6.180 -0.332 508
2.179 6.171 -0.350 556
2.178 6.170 -0.369 610
2.178 6.169 -0.388 644
2.177 6.167 -0.407 678
2.177 6.166 -0.426 678
2.176 6.164 -0.445 626
2.176 6.162 -0.464 574
2.175 6.161 -0.482 475
2.174 6.159 -0.501 375
0.430 1.218 0.013 359
0.427 1.211 0.011 498
0.427 1.210 0.007 650
0.425 1.203 0.004 606
0.422 1.195 0.002 684
0.422 1.194 -0.002 1089
0.763 2.112 1.731 3518
0.764 2.117 1.725 7036
0.766 2.121 1.719 7036
0.763 2.113 1.703 7883
0.762 2.111 1.692 9185
0.771 2.134 1.699 11046
0.774 2.144 1.697 14007
0.776 2.148 1.691 14007
0.780 2.159 1.689 12390
0.805 2.231 1.732 12300
0.785 2.173 1.680 9941
0.829 2.295 1.758 9222
0.830 2.299 1.751 8690
0.810 2.242 1.700 9085
0.811 2.246 1.693 8270
0.844 2.337 1.748 8669
0.843 2.335 1.736 9902
0.845 2.340 1.729 8924
0.846 2.344 1.722 7858
0.848 2.348 1.715 6685
0.854 2.365 1.716 5634
0.858 2.376 1.713 5523
0.887 2.456 1.757 6227
0.888 2.460 1.749 7944
0.892 2.471 1.746 9791
0.894 2.475 1.739 9157
0.900 2.492 1.739 8789
0.902 2.497 1.732 8509
0.905 2.507 1.728 8276
0.907 2.512 1.721 8344
0.909 2.516 1.713 8411
0.910 2.520 1.705 6571
0.937 2.595 1.742 6995
0.927 2.568 1.714 9288
0.929 2.572 1.706 12556
0.930 2.576 1.699 11080
0.932 2.580 1.691 7329
0.940 2.604 1.695 5865
0.982 2.718 1.753 6053
0.986 2.729 1.749 8766
0.985 2.727 1.737 10799
0.984 2.725 1.725 13119
0.983 2.723 1.712 10512
0.985 2.727 1.704 8547
0.989 2.738 1.700 9156
0.997 2.762 1.703 8908
1.004 2.779 1.702 9493
1.010 2.797 1.701 8849
1.019 2.821 1.703 6266
0.996 2.759 1.658 5613
0.998 2.763 1.649 5916
0.995 2.754 1.634 5649
1.070 2.963 1.738 7548
1.076 2.981 1.736 8138
1.078 2.985 1.727 8805
1.077 2.983 1.714 8587
1.081 2.994 1.709 7069
1.085 3.005 1.703 8921
1.089 3.016 1.697 12236
1.088 3.014 1.685 12729
1.090 3.018 1.675 12669
1.135 3.143 1.728 14249
1.141 3.160 1.726 12159
1.143 3.165 1.716 10649
1.137 3.149 1.696 11897
1.139 3.153 1.686 12859
1.145 3.171 1.683 11618
1.151 3.189 1.680 10523
1.160 3.213 1.681 9952
1.162 3.217 1.671 10131
1.158 3.208 1.654 7245
1.184 3.280 1.677 5619
1.196 3.312 1.680 7342
1.197 3.316 1.670 6065
1.206 3.340 1.669 4422
1.210 3.351 1.662 4643
1.217 3.369 1.658 5643
1.255 3.476 1.694 9100
1.259 3.487 1.687 10439
1.266 3.505 1.682 10519
1.272 3.523 1.678 10082
1.274 3.527 1.667 9903
1.275 3.532 1.656 8476
1.282 3.550 1.651 8152
1.296 3.588 1.655 11831
1.302 3.606 1.650 12436
1.309 3.624 1.645 12481
1.308 3.621 1.631 11067
1.307 3.618 1.617 12181
1.308 3.623 1.606 12775
1.310 3.627 1.595 7341
1.361 3.770 1.640 8009
1.363 3.774 1.628 5728
1.405 3.890 1.661 7099
1.409 3.901 1.652 12014
1.408 3.898 1.637 10671
1.409 3.902 1.625 8037
1.413 3.913 1.616 6760
1.447 4.008 1.638 5047
1.439 3.984 1.616 6365
1.443 3.995 1.606 6298
1.452 4.020 1.601 5307
1.499 4.151 1.635 7985
1.503 4.162 1.625 6964
1.474 4.082 1.582 5101
1.542 4.269 1.635 5922
1.548 4.288 1.627 6057
1.552 4.299 1.616 6361
1.556 4.310 1.605 5605
1.604 4.441 1.635 6548
1.610 4.460 1.627 6106
1.620 4.485 1.620 5151
1.616 4.475 1.602 4872
1.617 4.479 1.588 6227
1.619 4.483 1.574 4566
1.677 4.644 1.611 3378
1.699 4.705 1.614 4992
1.700 4.709 1.600 4710
1.710 4.734 1.592 3884
1.752 4.853 1.613 7442
1.756 4.864 1.600 11381
1.758 4.868 1.585 8992
1.759 4.872 1.570 8248
1.763 4.883 1.557 8474
1.772 4.908 1.548 9757
1.766 4.891 1.527 10600
1.762 4.880 1.508 9152
1.764 4.884 1.493 8928
1.765 4.887 1.478 12015
1.769 4.898 1.465 13284
1.773 4.909 1.452 10959
1.771 4.905 1.435 5632
1.968 5.451 1.563 3578
1.972 5.462 1.548 3866
1.979 5.480 1.535 4272
1.988 5.506 1.523 3896
2.068 5.727 1.561 4059
2.072 5.738 1.545 3048
2.000 5.539 1.478 4010
2.002 5.543 1.461 3820
2.097 5.808 1.506 2598
2.162 5.986 1.529 3049
2.163 5.990 1.510 2623
2.301 6.372 1.578 3034
2.300 6.369 1.557 3556
2.301 6.373 1.537 6050
2.308 6.391 1.521 7552
2.312 6.402 1.503 10426
2.311 6.399 1.481 12761
2.312 6.402 1.462 10046
2.464 6.823 1.527 7229
2.317 6.417 1.424 6094
2.474 6.852 1.490 4580
2.473 6.848 1.467 4265
2.472 6.845 1.445 2557
2.690 7.450 1.537 2438
2.697 7.468 1.517 3317
2.701 7.479 1.495 3426
2.689 7.446 1.466 3203
2.825 7.824 1.509 3050
2.824 7.821 1.483 4038
2.828 7.832 1.460 2961
3.068 8.497 1.546 1969
3.128 8.663 1.547 2049
3.127 8.660 1.519 2239
3.115 8.626 1.486 2735
3.114 8.623 1.458 3665
3.115 8.626 1.432 3449
3.630 10.053 1.615 3106
3.632 10.057 1.584 4021
3.633 10.061 1.553 4225
3.637 10.072 1.523 3183
3.716 10.290 1.521 2581
3.635 10.065 1.459 2481
3.636 10.069 1.428 2257
3.640 10.080 1.398 1987
4.002 11.082 1.489 1357
4.011 11.107 1.457 1519
4.012 11.111 1.423 1647
4.014 11.115 1.388 1279
4.017 11.125 1.355 717
4.088 11.321 1.341 790
4.087 11.317 1.305 935
3.644 10.090 1.147 770
3.642 10.085 1.115 966
3.635 10.065 1.082 1339
3.638 10.075 1.051 1823
3.642 10.085 1.021 1887
3.643 10.088 0.990 1565
3.611 10.001 0.951 1707
3.615 10.010 0.921 3079
3.616 10.013 0.890 3074
3.646 10.096 0.865 2442
3.617 10.016 0.828 2893
3.615 10.011 0.797 3158
3.605 9.983 0.764 3834
3.606 9.985 0.733 3537
3.609 9.994 0.702 3660
3.609 9.995 0.672 4096
3.610 9.997 0.641 4899
3.610 9.998 0.610 5341
3.613 10.007 0.579 5026
3.614 10.008 0.548 4480
3.612 10.001 0.517 3003
3.609 9.995 0.486 2216
3.610 9.996 0.455 1551
3.615 10.012 0.425 850
3.616 10.012 0.394 792
1.981 5.487 0.261 894
1.981 5.487 0.245 1005
1.982 5.487 0.228 1201
1.982 5.488 0.211 1284
1.982 5.488 0.194 1261
1.982 5.488 0.177 1237
1.982 5.488 0.160 1164
1.732 4.795 0.143 1286
1.732 4.795 0.128 1328
1.732 4.795 0.113 1371
1.732 4.795 0.099 1299
1.732 4.795 0.084 1076
1.732 4.795 0.069 926
1.731 4.795 0.054 762
1.183 3.276 0.072 821
1.183 3.276 0.062 939
1.183 3.275 0.052 1081
1.183 3.275 0.042 1222
1.183 3.275 0.032 1315
1.182 3.275 0.022 1407
1.182 3.274 0.012 1398
1.182 3.274 0.002 1389
1.182 3.273 -0.008 1298
1.182 3.273 -0.018 1206
1.182 3.273 -0.028 1048
1.179 3.265 -0.038 892
1.181 3.272 -0.048 709
1.181 3.271 -0.058 530
1.181 3.271 -0.068 385
2.222 6.153 -0.274 339
2.224 6.159 -0.293 362
2.226 6.166 -0.313 367
2.226 6.164 -0.332 377
2.226 6.163 -0.351 326
2.799 7.750 -0.502 282
2.798 7.748 -0.526 282
2.797 7.747 -0.550 281
2.799 7.752 -0.574 251
2.657 7.357 -0.560 253
2.656 7.355 -0.583 253
0.798 2.209 -0.081 259
0.798 2.209 -0.087 341
0.797 2.208 -0.094 351
0.794 2.200 -0.100 364
0.433 1.200 0.008 411
0.433 1.199 0.004 571
0.433 1.199 0.001 863
0.433 1.199 -0.003 1196
0.770 2.116 1.736 3351
0.772 2.121 1.730 6702
0.774 2.125 1.723 6702
0.769 2.111 1.703 7323
0.768 2.109 1.692 8571
0.776 2.132 1.699 10523
0.780 2.142 1.697 13497
0.781 2.146 1.691 13497
0.785 2.157 1.689 11968
0.811 2.229 1.732 11973
0.791 2.171 1.680 9633
0.835 2.293 1.758 8949
0.836 2.297 1.751 8435
0.815 2.240 1.700 8891
0.819 2.250 1.698 8136
0.850 2.335 1.748 8418
0.849 2.333 1.736 9615
0.851 2.338 1.729 8673
0.853 2.342 1.722 7647
0.854 2.346 1.715 6564
0.860 2.363 1.716 5590
0.864 2.374 1.713 5462
0.893 2.453 1.757 6026
0.895 2.458 1.749 7737
0.899 2.469 1.746 9561
0.900 2.473 1.739 8950
0.906 2.490 1.739 8605
0.908 2.494 1.732 8363
0.912 2.505 1.728 8152
0.914 2.509 1.721 8236
0.915 2.514 1.713 8320
0.917 2.518 1.705 6478
0.944 2.593 1.742 6947
0.934 2.565 1.714 9118
0.935 2.569 1.706 12311
0.937 2.574 1.699 10867
0.939 2.578 1.691 7221
0.947 2.602 1.695 5831
0.989 2.716 1.753 5946
0.993 2.727 1.749 8618
0.992 2.725 1.737 10572
0.991 2.722 1.725 12807
0.990 2.720 1.712 10275
0.992 2.725 1.704 8379
0.996 2.735 1.700 8962
1.004 2.759 1.703 8717
1.011 2.777 1.702 9309
1.017 2.794 1.701 8693
1.026 2.818 1.703 6152
1.001 2.750 1.654 5550
1.005 2.761 1.649 5826
1.002 2.752 1.634 5563
1.078 2.961 1.738 7387
1.084 2.978 1.736 7997
1.086 2.983 1.727 8708
1.085 2.980 1.714 8509
1.089 2.991 1.709 6972
1.093 3.002 1.703 8790
1.097 3.013 1.697 12098
1.096 3.011 1.685 12555
1.098 3.015 1.675 12474
1.143 3.140 1.728 14029
1.147 3.151 1.722 11959
1.151 3.162 1.716 10383
1.145 3.146 1.696 11601
1.147 3.150 1.686 12624
1.153 3.168 1.683 11419
1.160 3.186 1.680 10341
1.169 3.210 1.681 9770
1.170 3.214 1.671 9946
1.167 3.205 1.654 7118
1.193 3.277 1.677 5523
1.204 3.308 1.680 7188
1.206 3.313 1.670 5868
1.215 3.337 1.669 4280
1.219 3.348 1.662 4613
1.225 3.366 1.658 5636
1.264 3.473 1.694 8993
1.268 3.484 1.687 10309
1.272 3.495 1.679 10433
1.281 3.520 1.678 9955
1.283 3.524 1.667 9762
1.284 3.528 1.656 8338
1.291 3.546 1.651 8041
1.305 3.585 1.655 11820
1.312 3.603 1.650 12307
1.318 3.621 1.645 12216
1.317 3.618 1.631 10949
1.316 3.615 1.617 12227
1.318 3.619 1.606 12730
1.319 3.623 1.595 7243
1.371 3.766 1.640 7915
1.373 3.770 1.628 5668
1.415 3.886 1.661 6824
1.419 3.897 1.652 11492
1.418 3.894 1.637 10151
1.417 3.891 1.622 7528
1.423 3.909 1.616 6218
1.453 3.990 1.633 4905
1.449 3.980 1.616 6307
1.453 3.992 1.606 6269
1.462 4.017 1.601 5203
1.510 4.147 1.635 7876
1.514 4.158 1.625 6857
1.485 4.078 1.582 5243
1.553 4.265 1.635 5883
1.559 4.284 1.627 5982
1.563 4.295 1.616 6228
1.567 4.306 1.605 5493
1.615 4.437 1.635 6366
1.622 4.456 1.627 5962
1.631 4.481 1.620 5098
1.628 4.471 1.602 4917
1.629 4.475 1.588 6265
1.630 4.479 1.574 4566
1.689 4.639 1.611 3439
1.709 4.693 1.612 4902
1.713 4.704 1.600 4541
1.722 4.730 1.592 3759
1.765 4.848 1.613 7249
1.769 4.859 1.600 11128
1.770 4.863 1.585 8699
1.772 4.867 1.570 7873
1.776 4.878 1.557 8234
1.785 4.904 1.548 9580
1.779 4.886 1.527 10390
1.775 4.875 1.508 9101
1.776 4.879 1.493 9031
1.778 4.883 1.478 12115
1.782 4.894 1.465 13324
1.785 4.905 1.452 10999
1.787 4.908 1.437 5684
1.983 5.446 1.563 3744
1.987 5.457 1.548 3860
1.993 5.475 1.535 4138
2.003 5.501 1.523 3799
2.083 5.722 1.561 3991
2.087 5.733 1.545 3029
2.012 5.527 1.476 3886
2.016 5.537 1.461 3647
2.112 5.802 1.506 2554
2.177 5.981 1.529 2990
2.179 5.984 1.510 2553
2.318 6.366 1.578 2968
2.316 6.363 1.557 3475
2.318 6.367 1.537 5930
2.324 6.385 1.521 7453
2.329 6.396 1.503 10311
2.327 6.393 1.481 12629
2.329 6.396 1.462 9947
2.481 6.816 1.527 7113
2.334 6.411 1.424 6055
2.492 6.846 1.490 4481
2.491 6.842 1.467 4158
2.489 6.838 1.445 2459
2.709 7.443 1.537 2428
2.716 7.461 1.517 3304
2.720 7.472 1.495 3444
2.708 7.439 1.466 3233
2.846 7.817 1.509 3031
2.844 7.813 1.483 3996
2.848 7.824 1.460 2924
2.871 7.887 1.446 1955
3.151 8.655 1.547 2029
3.150 8.651 1.519 2189
3.135 8.611 1.485 2594
3.136 8.615 1.458 3539
3.137 8.618 1.432 3362
3.656 10.044 1.615 3023
3.658 10.048 1.584 3973
3.659 10.052 1.553 4194
3.661 10.056 1.522 3213
3.743 10.281 1.521 2580
3.663 10.063 1.460 2504
3.662 10.059 1.428 2243
3.666 10.070 1.398 2031
3.670 10.081 1.367 1423
4.040 11.097 1.457 1501
4.041 11.101 1.423 1641
4.042 11.104 1.388 1287
4.173 11.463 1.393 719
4.118 11.311 1.341 773
4.116 11.306 1.305 944
3.670 10.080 1.147 923
3.668 10.076 1.115 1033
3.658 10.049 1.081 1351
3.659 10.051 1.050 1962
3.668 10.076 1.021 1917
3.674 10.093 0.991 1834
3.675 10.095 0.960 1543
3.638 9.994 0.920 2440
3.639 9.996 0.889 2929
3.640 9.998 0.858 2652
3.651 10.029 0.830 2721
3.652 10.031 0.798 3415
3.650 10.026 0.767 3666
3.642 10.005 0.735 3604
3.637 9.992 0.703 4160
3.635 9.986 0.672 4734
3.638 9.995 0.641 4613
3.639 9.996 0.610 3735
3.642 10.005 0.580 2991
3.640 9.998 0.548 3410
3.638 9.992 0.517 3183
3.635 9.986 0.486 2602
3.636 9.986 0.455 1711
3.641 10.002 0.425 706
3.644 10.010 0.394 653
3.642 10.004 0.363 510
1.996 5.482 0.245 519
1.996 5.482 0.228 535
1.996 5.482 0.211 521
1.741 4.783 0.187 470
1.744 4.791 0.172 622
1.744 4.791 0.157 792
1.744 4.791 0.143 962
1.744 4.791 0.128 1111
1.744 4.791 0.113 1261
1.744 4.791 0.099 1265
1.744 4.791 0.084 1180
1.744 4.790 0.069 1092
1.744 4.790 0.054 932
1.746 4.797 0.040 771
1.194 3.280 0.061 836
1.191 3.272 0.052 994
1.191 3.272 0.042 1160
1.191 3.272 0.032 1273
1.191 3.271 0.022 1386
1.191 3.271 0.012 1394
1.191 3.271 0.002 1401
1.191 3.270 -0.008 1314
1.190 3.270 -0.018 1228
1.190 3.270 -0.028 1063
1.190 3.269 -0.038 899
1.190 3.269 -0.048 727
1.190 3.268 -0.058 555
1.190 3.267 -0.068 403
2.238 6.147 -0.274 270
2.240 6.154 -0.293 309
2.242 6.160 -0.313 331
2.242 6.159 -0.332 354
2.242 6.157 -0.351 336
2.238 6.148 -0.369 320
2.238 6.147 -0.388 304
2.237 6.146 -0.407 288
2.237 6.144 -0.426 288
2.492 6.846 -0.512 293
2.492 6.845 -0.533 340
2.491 6.843 -0.554 329
2.490 6.841 -0.575 317
0.439 1.207 0.014 357
0.439 1.206 0.011 347
0.439 1.206 0.007 336
0.434 1.191 0.005 331
0.431 1.183 0.003 477
0.431 1.183 -0.001 835
0.776 2.114 1.736 3375
0.777 2.119 1.730 6750
0.779 2.123 1.723 6750
0.778 2.121 1.712 6976
0.773 2.107 1.692 7872
0.784 2.136 1.704 10173
0.785 2.140 1.697 13239
0.787 2.144 1.691 13239
0.791 2.155 1.689 11780
0.815 2.220 1.727 11622
0.796 2.169 1.680 9471
0.840 2.290 1.758 8708
0.842 2.295 1.751 8341
0.821 2.238 1.700 8821
0.825 2.248 1.698 8075
0.856 2.333 1.748 8215
0.855 2.331 1.736 9375
0.857 2.335 1.729 8464
0.858 2.340 1.722 7468
0.860 2.344 1.715 6428
0.866 2.361 1.716 5509
0.870 2.372 1.713 5400
0.899 2.451 1.757 5858
0.901 2.456 1.749 7537
0.905 2.466 1.746 9317
0.906 2.471 1.739 8778
0.910 2.481 1.735 8478
0.914 2.492 1.732 8259
0.918 2.503 1.728 8067
0.920 2.507 1.721 8186
0.921 2.511 1.713 8305
0.923 2.516 1.705 6427
0.950 2.590 1.742 6799
0.940 2.563 1.714 8897
0.942 2.567 1.706 12055
0.943 2.571 1.699 10653
0.947 2.582 1.695 7203
0.954 2.599 1.695 5884
0.995 2.713 1.753 5805
0.999 2.724 1.749 8432
0.999 2.722 1.737 10354
0.998 2.720 1.725 12567
0.997 2.718 1.712 10116
0.999 2.722 1.704 8284
1.003 2.733 1.700 8836
1.011 2.757 1.703 8539
1.018 2.774 1.702 9122
1.024 2.791 1.701 8538
1.033 2.815 1.703 6007
1.010 2.754 1.658 5453
1.010 2.752 1.646 5707
1.009 2.749 1.634 5479
1.085 2.958 1.738 7211
1.092 2.975 1.736 7778
1.093 2.980 1.727 8494
1.092 2.978 1.714 8340
1.096 2.988 1.709 6823
1.100 2.999 1.703 8715
1.104 3.010 1.697 12028
1.104 3.008 1.685 12536
1.105 3.012 1.675 12368
1.151 3.137 1.728 13659
1.155 3.148 1.722 11663
1.159 3.159 1.716 10116
1.153 3.143 1.696 11434
1.155 3.147 1.686 12523
1.159 3.158 1.680 11292
1.165 3.176 1.677 10295
1.177 3.207 1.681 9804
1.178 3.211 1.671 10035
1.175 3.202 1.654 7257
1.201 3.274 1.677 5569
1.213 3.305 1.680 7233
1.214 3.310 1.670 5820
1.223 3.334 1.669 4143
1.227 3.345 1.662 4445
1.234 3.363 1.658 5573
1.273 3.470 1.694 8776
1.277 3.481 1.687 10081
1.281 3.492 1.679 10303
1.288 3.510 1.675 9810
1.292 3.521 1.667 9626
1.293 3.525 1.656 8207
1.302 3.550 1.654 7888
1.314 3.582 1.655 11691
1.321 3.599 1.650 12184
1.327 3.617 1.645 12134
1.326 3.615 1.631 10878
1.325 3.612 1.617 12118
1.327 3.616 1.606 12719
1.328 3.620 1.595 7309
1.381 3.763 1.640 7858
1.382 3.767 1.628 5668
1.424 3.882 1.661 6613
1.428 3.893 1.652 11109
1.427 3.891 1.637 9817
1.429 3.895 1.625 7279
1.433 3.906 1.616 6074
1.463 3.987 1.633 4837
1.459 3.977 1.616 6317
1.463 3.988 1.606 6253
1.472 4.013 1.601 5210
1.520 4.143 1.635 7915
1.524 4.155 1.625 6885
1.495 4.074 1.582 5222
1.563 4.261 1.635 5799
1.570 4.280 1.627 5869
1.574 4.291 1.616 6126
1.578 4.302 1.605 5457
1.627 4.433 1.635 6237
1.633 4.451 1.627 5846
1.640 4.470 1.618 5062
1.639 4.467 1.602 5048
1.640 4.471 1.588 6457
1.642 4.475 1.574 4607
1.701 4.635 1.611 3413
1.720 4.689 1.612 4886
1.724 4.700 1.600 4561
1.731 4.718 1.590 3766
1.777 4.844 1.613 7056
1.781 4.855 1.600 10866
1.783 4.859 1.585 8454
1.784 4.863 1.570 7583
1.788 4.874 1.557 8014
1.797 4.899 1.548 9512
1.791 4.881 1.527 10504
1.787 4.871 1.508 9191
1.788 4.875 1.493 9136
1.790 4.878 1.478 12313
1.794 4.889 1.465 13295
1.798 4.900 1.452 10967
1.799 4.904 1.437 5802
1.996 5.441 1.563 3890
2.000 5.452 1.548 3856
2.007 5.470 1.535 4039
2.016 5.496 1.523 3726
2.097 5.717 1.561 3892
2.101 5.728 1.545 2975
2.026 5.521 1.476 3712
2.027 5.525 1.459 3438
2.127 5.797 1.506 2529
2.192 5.975 1.529 2965
2.194 5.979 1.510 2528
2.334 6.360 1.578 2903
2.332 6.357 1.557 3415
2.334 6.361 1.537 5886
2.341 6.379 1.521 7395
2.345 6.390 1.503 10173
2.343 6.387 1.481 12502
2.345 6.390 1.462 9936
2.499 6.810 1.527 6887
2.350 6.405 1.424 6064
2.509 6.839 1.490 4437
2.505 6.828 1.466 4148
2.507 6.832 1.445 2461
2.728 7.436 1.537 2342
2.735 7.454 1.517 3256
2.739 7.465 1.495 3430
2.727 7.432 1.466 3263
2.865 7.810 1.509 3073
2.864 7.806 1.483 4043
2.868 7.817 1.460 2933
2.891 7.879 1.446 1909
3.173 8.647 1.547 1968
3.171 8.643 1.519 2103
3.156 8.603 1.485 2536
3.158 8.607 1.458 3511
3.159 8.610 1.432 3432
3.682 10.035 1.615 2843
3.683 10.039 1.584 3757
3.685 10.043 1.553 4011
3.686 10.046 1.522 3152
3.768 10.271 1.521 2484
3.689 10.054 1.460 2488
3.687 10.050 1.428 2187
3.691 10.061 1.398 1884
4.058 11.061 1.489 1338
4.068 11.087 1.457 1522
4.069 11.090 1.423 1663
4.070 11.094 1.388 1302
4.210 11.474 1.395 728
4.143 11.293 1.340 757
4.144 11.296 1.305 947
3.695 10.071 1.147 1046
3.693 10.066 1.115 1082
3.689 10.054 1.082 1232
3.684 10.042 1.050 1691
3.685 10.044 1.019 1717
3.683 10.039 0.987 1468
3.679 10.027 0.955 1500
3.669 9.999 0.921 1978
3.661 9.979 0.889 2203
3.692 10.063 0.864 2596
3.690 10.057 0.832 3085
3.685 10.044 0.800 3347
3.683 10.039 0.768 3046
3.670 10.003 0.735 3427
3.668 9.997 0.704 4615
3.663 9.984 0.672 5201
3.661 9.978 0.641 4256
3.659 9.972 0.610 2657
3.662 9.981 0.579 1807
3.662 9.982 0.548 2403
3.665 9.990 0.517 2821
3.663 9.984 0.486 2644
3.666 9.992 0.456 1743
3.669 10.000 0.425 666
2.009 5.476 0.278 541
2.009 5.477 0.261 687
2.009 5.477 0.245 813
2.010 5.477 0.228 1053
2.010 5.477 0.211 1167
2.010 5.478 0.194 1206
2.010 5.478 0.177 1245
2.010 5.478 0.160 1217
2.010 5.478 0.143 1188
2.010 5.478 0.126 1101
2.010 5.478 0.109 866
1.756 4.786 0.099 899
1.756 4.786 0.084 898
1.756 4.786 0.069 851
1.756 4.786 0.054 737
1.200 3.270 0.072 887
1.200 3.270 0.062 1080
1.199 3.269 0.052 1243
1.199 3.269 0.042 1406
1.199 3.269 0.032 1493
1.199 3.268 0.022 1580
1.199 3.268 0.012 1569
1.199 3.268 0.002 1558
1.199 3.267 -0.008 1448
1.199 3.267 -0.018 1337
1.198 3.267 -0.028 1151
1.198 3.266 -0.038 966
1.198 3.266 -0.048 769
1.198 3.265 -0.058 573
1.198 3.264 -0.068 411
2.789 7.603 -0.373 365
2.792 7.609 -0.397 365
2.794 7.615 -0.421 360
2.793 7.613 -0.444 356
2.839 7.738 -0.478 363
2.838 7.736 -0.502 383
2.838 7.734 -0.526 392
2.837 7.732 -0.550 400
2.252 6.138 -0.426 393
2.252 6.137 -0.445 383
2.251 6.135 -0.464 373
2.508 6.836 -0.554 353
2.508 6.834 -0.575 352
2.507 6.832 -0.597 336
2.506 6.830 -0.618 321
0.439 1.198 0.008 405
0.439 1.197 0.004 472
0.439 1.197 0.001 612
0.436 1.189 -0.002 901
0.782 2.112 1.736 3395
0.783 2.116 1.730 6790
0.785 2.121 1.723 6790
0.784 2.119 1.712 6976
0.779 2.105 1.692 7685
0.790 2.134 1.704 10044
0.791 2.138 1.697 13036
0.793 2.142 1.691 13036
0.797 2.153 1.689 11634
0.823 2.224 1.732 11347
0.802 2.167 1.680 9278
0.847 2.288 1.758 8508
0.849 2.292 1.751 8079
0.827 2.235 1.700 8525
0.831 2.246 1.698 7899
0.863 2.330 1.748 8047
0.862 2.329 1.736 9191
0.864 2.333 1.729 8339
0.865 2.337 1.722 7405
0.867 2.342 1.715 6440
0.871 2.352 1.712 5556
0.877 2.369 1.713 5369
0.906 2.449 1.757 5822
0.908 2.453 1.749 7498
0.912 2.464 1.746 9262
0.914 2.468 1.739 8705
0.918 2.479 1.735 8384
0.922 2.489 1.732 8161
0.926 2.500 1.728 7968
0.927 2.504 1.721 8077
0.929 2.509 1.713 8187
0.930 2.513 1.705 6344
0.956 2.581 1.738 6766
0.948 2.560 1.714 8900
0.949 2.564 1.706 12031
0.951 2.569 1.699 10639
0.952 2.573 1.691 7143
0.961 2.596 1.695 5806
1.003 2.710 1.753 5784
1.007 2.721 1.749 8420
1.007 2.719 1.737 10303
1.006 2.717 1.725 12470
1.005 2.715 1.712 10023
1.007 2.719 1.704 8201
1.011 2.730 1.700 8780
1.019 2.754 1.703 8503
1.026 2.771 1.702 9036
1.032 2.788 1.701 8422
1.041 2.812 1.703 5921
1.018 2.751 1.658 5419
1.018 2.749 1.646 5669
1.017 2.746 1.634 5425
1.094 2.955 1.738 7166
1.100 2.972 1.736 7758
1.102 2.977 1.727 8480
1.101 2.974 1.714 8323
1.105 2.985 1.709 6791
1.109 2.996 1.703 8579
1.113 3.007 1.697 11835
1.112 3.005 1.685 12354
1.114 3.009 1.675 12262
1.160 3.133 1.728 13477
1.164 3.144 1.722 11544
1.168 3.156 1.716 10000
1.162 3.140 1.696 11341
1.164 3.144 1.686 12455
1.170 3.162 1.683 11238
1.174 3.173 1.677 10243
1.186 3.204 1.681 9835
1.188 3.208 1.671 10085
1.184 3.199 1.654 7336
1.211 3.270 1.677 5422
1.222 3.302 1.680 6971
1.224 3.306 1.670 5573
1.203 3.249 1.631 4040
1.237 3.342 1.662 4403
1.244 3.359 1.658 5576
1.283 3.466 1.694 8717
1.287 3.477 1.687 9911
1.291 3.488 1.679 10180
1.298 3.506 1.675 9729
1.302 3.517 1.667 9516
1.304 3.521 1.656 8112
1.313 3.546 1.654 7756
1.327 3.585 1.658 11530
1.331 3.596 1.650 12133
1.338 3.614 1.645 12083
1.337 3.611 1.631 10771
1.336 3.608 1.617 12018
1.337 3.612 1.606 12564
1.339 3.616 1.595 7160
1.391 3.759 1.640 7568
1.393 3.763 1.628 5455
1.438 3.885 1.664 6306
1.440 3.889 1.652 10697
1.439 3.886 1.637 9496
1.440 3.891 1.625 7069
1.444 3.902 1.616 5909
1.474 3.983 1.633 4786
1.471 3.973 1.616 6206
1.475 3.984 1.606 6134
1.484 4.009 1.601 5064
1.532 4.139 1.635 7832
1.536 4.150 1.625 6830
1.507 4.070 1.582 5143
1.576 4.257 1.635 5843
1.583 4.275 1.627 5872
1.587 4.286 1.616 6107
1.591 4.297 1.605 5395
1.639 4.428 1.635 6086
1.646 4.447 1.627 5712
1.656 4.472 1.620 5019
1.652 4.462 1.602 5041
1.653 4.466 1.588 6434
1.655 4.470 1.574 4514
1.714 4.630 1.611 3380
1.734 4.684 1.612 4872
1.738 4.695 1.600 4548
1.745 4.713 1.590 3703
1.791 4.838 1.613 6966
1.795 4.850 1.600 10795
1.797 4.854 1.585 8381
1.798 4.858 1.570 7502
1.802 4.869 1.557 7955
1.812 4.894 1.548 9365
1.805 4.876 1.527 10414
1.801 4.866 1.508 9167
1.803 4.869 1.493 9040
1.804 4.873 1.478 12213
1.808 4.884 1.465 13212
1.812 4.895 1.452 10836
1.813 4.898 1.437 5676
2.012 5.435 1.563 3952
2.019 5.453 1.550 3697
2.026 5.472 1.537 3927
2.035 5.497 1.525 3727
2.114 5.710 1.561 3810
2.118 5.722 1.545 2991
2.042 5.516 1.476 3524
2.043 5.519 1.459 3325
2.144 5.791 1.506 2506
2.210 5.969 1.529 2933
2.211 5.972 1.510 2493
2.352 6.354 1.578 2904
2.351 6.350 1.557 3431
2.352 6.354 1.537 5859
2.359 6.372 1.521 7330
2.363 6.384 1.503 10145
2.362 6.380 1.481 12487
2.363 6.384 1.462 9890
2.518 6.803 1.527 6909
2.369 6.398 1.424 5940
2.529 6.832 1.490 4321
2.528 6.828 1.467 4045
2.526 6.825 1.445 2440
2.750 7.428 1.537 2322
2.757 7.446 1.517 3199
2.761 7.457 1.495 3401
2.748 7.424 1.466 3240
2.888 7.801 1.509 3061
2.887 7.798 1.483 3979
2.891 7.809 1.460 2880
3.120 8.428 1.539 1888
3.195 8.630 1.545 2014
3.196 8.634 1.519 2003
3.179 8.587 1.484 2390
3.180 8.590 1.457 3268
3.184 8.601 1.432 3207
3.711 10.024 1.615 2834
3.712 10.028 1.584 3709
3.714 10.032 1.553 3968
3.715 10.036 1.522 3155
3.798 10.260 1.521 2487
3.718 10.043 1.460 2472
3.716 10.039 1.428 2195
3.720 10.050 1.398 1892
4.090 11.049 1.489 1350
4.097 11.068 1.456 1557
4.101 11.079 1.423 1697
4.103 11.082 1.388 1347
4.249 11.477 1.397 835
4.247 11.473 1.361 741
4.177 11.284 1.305 925
3.727 10.068 1.147 998
3.722 10.055 1.115 1147
3.718 10.043 1.082 1279
3.711 10.024 1.049 1197
3.709 10.019 1.017 1409
3.710 10.021 0.986 1542
3.713 10.031 0.956 1984
3.717 10.040 0.925 2984
3.715 10.035 0.894 3361
3.710 10.022 0.862 3540
3.714 10.032 0.831 3699
3.714 10.033 0.800 3347
3.718 10.043 0.769 2809
3.699 9.992 0.735 2707
3.697 9.987 0.704 4725
3.698 9.988 0.673 6053
3.695 9.982 0.641 5230
3.690 9.969 0.610 3433
3.688 9.962 0.579 2319
3.691 9.971 0.548 2220
3.692 9.972 0.517 2098
3.692 9.973 0.486 2040
3.690 9.967 0.455 1402
3.682 9.945 0.424 578
3.676 9.931 0.392 403
3.679 9.939 0.362 376
2.028 5.478 0.245 406
2.028 5.479 0.228 495
2.028 5.479 0.211 540
2.028 5.479 0.194 524
2.028 5.479 0.177 508
2.028 5.479 0.160 476
2.705 7.306 0.145 536
2.705 7.306 0.122 617
2.704 7.306 0.099 658
2.707 7.313 0.077 705
2.704 7.305 0.054 681
2.704 7.305 0.032 663
1.209 3.266 0.082 606
1.209 3.266 0.072 836
1.209 3.266 0.062 1065
1.209 3.266 0.052 1280
1.209 3.266 0.042 1495
1.209 3.265 0.032 1598
1.209 3.265 0.022 1701
1.209 3.265 0.012 1676
1.208 3.264 0.002 1651
1.208 3.264 -0.008 1502
1.208 3.263 -0.018 1353
1.208 3.263 -0.028 1147
1.208 3.263 -0.038 940
1.208 3.262 -0.048 740
1.207 3.262 -0.058 540
1.207 3.261 -0.068 386
2.406 6.498 -0.298 342
2.408 6.504 -0.319 303
2.407 6.503 -0.339 282
2.404 6.494 -0.358 264
0.816 2.204 -0.067 272
0.816 2.203 -0.074 375
0.815 2.203 -0.081 384
0.815 2.202 -0.087 394
0.443 1.197 0.015 367
0.443 1.197 0.012 494
0.443 1.196 0.008 622
0.440 1.189 0.005 574
0.437 1.181 0.003 694
0.437 1.180 -0.001 1228
0.789 2.109 1.736 3284
0.790 2.114 1.730 6569
0.792 2.118 1.723 6569
0.791 2.116 1.712 6874
0.786 2.103 1.692 7675
0.797 2.131 1.704 9847
0.799 2.135 1.697 12698
0.800 2.140 1.691 12698
0.804 2.150 1.689 11361
0.831 2.221 1.732 11132
0.807 2.158 1.676 9027
0.855 2.285 1.758 8442
0.856 2.290 1.751 7940
0.835 2.232 1.700 8318
0.836 2.237 1.693 7701
0.870 2.328 1.748 7927
0.870 2.326 1.736 9053
0.871 2.330 1.729 8222
0.873 2.334 1.722 7313
0.875 2.339 1.715 6398
0.879 2.349 1.712 5542
0.885 2.366 1.713 5319
0.915 2.446 1.757 5768
0.916 2.450 1.749 7456
0.920 2.461 1.746 9215
0.922 2.465 1.739 8615
0.928 2.482 1.739 8269
0.930 2.486 1.732 8064
0.934 2.497 1.728 7876
0.935 2.501 1.721 7990
0.937 2.506 1.713 8104
0.939 2.510 1.705 6307
0.964 2.578 1.738 6757
0.956 2.557 1.714 8870
0.958 2.561 1.706 11980
0.959 2.565 1.699 10599
0.961 2.570 1.691 7135
0.970 2.593 1.695 5800
1.012 2.707 1.753 5721
1.016 2.718 1.749 8364
1.016 2.716 1.737 10224
1.015 2.714 1.725 12379
1.014 2.712 1.712 9965
1.016 2.716 1.704 8161
1.020 2.727 1.700 8746
1.029 2.750 1.703 8447
1.035 2.768 1.702 8954
1.041 2.785 1.701 8303
1.050 2.809 1.703 5813
1.027 2.748 1.658 5332
1.029 2.752 1.649 5581
1.026 2.743 1.634 5329
1.104 2.951 1.738 7050
1.110 2.969 1.736 7675
1.112 2.973 1.727 8395
1.111 2.971 1.714 8247
1.115 2.982 1.709 6749
1.119 2.993 1.703 8549
1.123 3.003 1.697 11797
1.122 3.001 1.685 12289
1.124 3.005 1.675 12229
1.170 3.130 1.728 13249
1.174 3.141 1.722 11338
1.179 3.152 1.716 9898
1.173 3.136 1.696 11354
1.174 3.140 1.686 12480
1.181 3.158 1.683 11255
1.185 3.169 1.677 10259
1.194 3.193 1.677 9905
1.198 3.204 1.671 10165
1.195 3.195 1.654 7419
1.222 3.266 1.677 5439
1.233 3.298 1.680 7062
1.235 3.302 1.670 5717
1.244 3.327 1.669 4112
1.248 3.338 1.662 4455
1.255 3.355 1.658 5506
1.295 3.462 1.694 8668
1.299 3.473 1.687 9749
1.303 3.484 1.679 10050
1.309 3.502 1.675 9519
1.314 3.513 1.667 9261
1.315 3.517 1.656 8081
1.324 3.542 1.654 7843
1.339 3.580 1.658 11664
1.343 3.591 1.650 12052
1.350 3.609 1.645 11878
1.349 3.606 1.631 10696
1.348 3.603 1.617 11943
1.349 3.607 1.606 12351
1.351 3.611 1.595 7007
1.404 3.754 1.640 7485
1.405 3.758 1.628 5450
1.451 3.880 1.664 6146
1.453 3.884 1.652 10346
1.452 3.882 1.637 9148
1.450 3.879 1.622 6798
1.457 3.897 1.616 5662
1.493 3.992 1.638 4721
1.484 3.968 1.616 6055
1.488 3.979 1.606 6010
1.497 4.004 1.601 5022
1.546 4.134 1.635 7632
1.550 4.145 1.625 6753
1.520 4.065 1.582 5159
1.590 4.252 1.635 5912
1.597 4.270 1.627 5970
1.601 4.281 1.616 6115
1.605 4.292 1.605 5267
1.654 4.423 1.635 5987
1.661 4.441 1.627 5596
1.668 4.459 1.618 4992
1.666 4.456 1.602 5090
1.668 4.460 1.588 6459
1.669 4.464 1.574 4453
1.729 4.624 1.611 3392
1.749 4.678 1.612 4757
1.754 4.689 1.600 4439
1.760 4.707 1.590 3640
1.807 4.833 1.613 6927
1.811 4.844 1.600 10726
1.813 4.848 1.585 8310
1.814 4.852 1.570 7389
1.818 4.863 1.557 7835
1.828 4.888 1.548 9206
1.821 4.870 1.527 10210
1.817 4.860 1.508 9068
1.819 4.863 1.493 8880
1.820 4.867 1.478 12029
1.824 4.878 1.465 13117
1.828 4.889 1.452 10747
1.829 4.892 1.437 5561
2.030 5.428 1.563 3711
2.037 5.447 1.550 3324
2.046 5.472 1.538 3633
2.053 5.490 1.525 3755
2.133 5.703 1.561 3856
2.137 5.715 1.545 3025
2.060 5.509 1.476 3327
2.061 5.512 1.459 3187
2.163 5.784 1.506 2511
2.229 5.961 1.529 2874
2.231 5.965 1.510 2426
2.373 6.346 1.578 2910
2.372 6.342 1.557 3430
2.373 6.346 1.537 5859
2.380 6.365 1.521 7298
2.384 6.376 1.503 10026
2.383 6.372 1.481 12321
2.384 6.376 1.462 9784
2.541 6.794 1.527 6886
2.390 6.390 1.424 5916
2.552 6.824 1.490 4309
2.550 6.820 1.467 3956
2.549 6.816 1.445 2368
2.774 7.419 1.537 2300
2.781 7.437 1.517 3147
2.785 7.448 1.495 3396
2.773 7.415 1.466 3311
2.772 7.411 1.441 3007
2.912 7.788 1.483 3860
2.917 7.799 1.460 2776
3.148 8.418 1.539 1904
3.223 8.620 1.545 2047
3.225 8.624 1.519 1954
3.207 8.576 1.484 2302
3.208 8.580 1.457 3124
3.210 8.583 1.431 3041
3.744 10.012 1.615 2772
3.745 10.016 1.584 3615
3.747 10.020 1.553 3885
3.748 10.023 1.522 3138
3.832 10.248 1.521 2491
3.751 10.031 1.460 2449
3.750 10.027 1.428 2139
3.754 10.038 1.398 1887
4.127 11.036 1.489 1347
4.134 11.054 1.456 1516
4.138 11.065 1.423 1633
4.139 11.068 1.388 1305
4.289 11.470 1.398 961
4.288 11.466 1.361 789
4.214 11.270 1.305 928
4.216 11.273 1.270 596
3.753 10.036 1.114 854
3.751 10.031 1.082 1287
3.738 9.997 1.048 1055
3.770 10.080 1.024 1149
3.768 10.075 0.992 1598
3.763 10.063 0.960 1827
3.739 9.998 0.923 3112
3.740 10.001 0.892 3087
3.740 10.003 0.861 2334
3.736 9.990 0.829 2923
3.734 9.984 0.798 3308
3.729 9.971 0.766 2988
3.732 9.980 0.735 3382
3.733 9.982 0.704 4241
3.733 9.983 0.673 4703
3.734 9.985 0.642 4748
3.732 9.979 0.611 4056
3.729 9.972 0.580 3451
3.727 9.966 0.548 3290
3.724 9.960 0.517 2850
3.722 9.953 0.486 2473
3.722 9.954 0.455 1728
3.714 9.933 0.424 925
3.715 9.934 0.393 837
3.715 9.934 0.362 675
3.712 9.927 0.331 528
3.732 9.980 0.301 463
1.786 4.775 0.202 456
1.786 4.775 0.187 491
2.729 7.297 0.190 490
2.729 7.297 0.167 590
2.729 7.297 0.145 708
2.726 7.289 0.122 828
2.729 7.297 0.099 801
2.729 7.296 0.077 774
2.728 7.296 0.054 670
1.223 3.270 0.092 726
1.220 3.262 0.082 867
1.220 3.262 0.072 1007
1.223 3.269 0.061 1165
1.220 3.262 0.052 1306
1.220 3.262 0.042 1465
1.220 3.261 0.032 1541
1.219 3.261 0.022 1617
1.219 3.261 0.012 1550
1.219 3.260 0.002 1482
1.219 3.260 -0.008 1324
1.219 3.259 -0.018 1167
1.219 3.259 -0.028 973
1.219 3.259 -0.038 779
1.218 3.258 -0.048 595
1.218 3.258 -0.058 410
1.218 3.257 -0.068 279
2.886 7.719 -0.382 262
2.291 6.126 -0.293 311
2.293 6.133 -0.312 382
2.293 6.131 -0.331 452
2.292 6.130 -0.350 485
2.292 6.129 -0.369 517
2.291 6.127 -0.388 541
2.291 6.126 -0.407 565
2.290 6.124 -0.426 565
2.290 6.123 -0.445 508
2.289 6.121 -0.464 451
2.738 7.323 -0.606 459
2.738 7.321 -0.629 481
2.737 7.318 -0.651 478
2.736 7.316 -0.674 475
0.441 1.180 0.010 695
0.441 1.180 0.006 693
0.438 1.172 0.004 909
0.438 1.172 0.000 1553
0.792 2.101 1.731 3292
0.794 2.106 1.725 6585
0.795 2.110 1.719 6585
0.794 2.108 1.708 6976
0.792 2.101 1.692 7751
0.802 2.129 1.704 9797
0.804 2.133 1.697 12531
0.805 2.138 1.691 12531
0.807 2.142 1.684 11233
0.836 2.219 1.732 11013
0.813 2.156 1.676 8909
0.860 2.283 1.758 8431
0.862 2.287 1.751 7855
0.840 2.230 1.700 8297
0.842 2.235 1.693 7675
0.876 2.325 1.748 7757
0.876 2.324 1.736 8856
0.877 2.328 1.729 8084
0.879 2.332 1.722 7225
0.880 2.337 1.715 6345
0.884 2.347 1.712 5512
0.891 2.364 1.713 5281
0.921 2.443 1.757 5695
0.922 2.448 1.749 7380
0.926 2.458 1.746 9131
0.928 2.463 1.739 8522
0.934 2.480 1.739 8182
0.936 2.484 1.732 8003
0.940 2.495 1.728 7847
0.942 2.499 1.721 7953
0.943 2.503 1.713 8058
0.945 2.508 1.705 6253
0.971 2.576 1.738 6743
0.963 2.554 1.714 8860
0.964 2.559 1.706 11950
0.966 2.563 1.699 10567
0.970 2.574 1.695 7161
0.976 2.591 1.695 5868
1.019 2.704 1.753 5646
1.023 2.715 1.749 8265
1.022 2.713 1.737 10103
1.022 2.711 1.725 12238
1.021 2.709 1.712 9859
1.022 2.713 1.704 8093
1.026 2.724 1.700 8699
1.035 2.748 1.703 8368
1.042 2.765 1.702 8843
1.048 2.782 1.701 8197
1.057 2.806 1.703 5735
1.034 2.745 1.658 5302
1.036 2.749 1.649 5548
1.033 2.740 1.634 5286
1.111 2.948 1.738 6956
1.118 2.966 1.736 7573
1.119 2.970 1.727 8270
1.118 2.968 1.714 8108
1.122 2.979 1.709 6667
1.127 2.990 1.703 8501
1.131 3.001 1.697 11747
1.130 2.998 1.685 12176
1.131 3.002 1.675 12064
1.178 3.127 1.728 13048
1.185 3.144 1.726 11164
1.186 3.149 1.716 9906
1.181 3.133 1.696 11508
1.182 3.137 1.686 12618
1.186 3.148 1.680 11311
1.193 3.166 1.677 10212
1.202 3.190 1.677 9816
1.206 3.201 1.671 10040
1.203 3.192 1.654 7357
1.230 3.263 1.677 5299
1.241 3.295 1.680 6976
1.243 3.299 1.670 5705
1.252 3.323 1.669 4162
1.256 3.334 1.662 4499
1.263 3.352 1.658 5595
1.303 3.458 1.694 8587
1.307 3.469 1.687 9676
1.312 3.481 1.679 9966
1.318 3.498 1.675 9479
1.320 3.503 1.664 9244
1.321 3.507 1.653 8029
1.333 3.538 1.654 7724
1.348 3.577 1.658 11459
1.352 3.588 1.650 11890
1.359 3.606 1.645 11839
1.358 3.603 1.631 10620
1.357 3.600 1.617 11665
1.358 3.604 1.606 12140
1.360 3.608 1.595 6972
1.413 3.751 1.640 7630
1.415 3.755 1.628 5501
1.461 3.877 1.664 6100
1.462 3.881 1.652 10155
1.461 3.878 1.637 9038
1.460 3.875 1.622 6738
1.464 3.886 1.613 5690
1.503 3.988 1.638 4662
1.494 3.964 1.616 5898
1.498 3.975 1.606 5878
1.507 4.000 1.601 5037
1.556 4.130 1.635 7479
1.560 4.141 1.625 6648
1.596 4.236 1.645 5037
1.601 4.248 1.635 6010
1.607 4.266 1.627 5930
1.612 4.277 1.616 5909
1.616 4.288 1.605 5050
1.665 4.419 1.635 5896
1.672 4.437 1.627 5451
1.679 4.455 1.618 4937
1.678 4.452 1.602 5163
1.679 4.456 1.588 6546
1.681 4.460 1.574 4440
1.741 4.620 1.611 3429
1.761 4.674 1.612 4837
1.765 4.685 1.600 4543
1.772 4.703 1.590 3793
1.819 4.828 1.613 6847
1.823 4.839 1.600 10623
1.825 4.843 1.585 8216
1.826 4.847 1.570 7302
1.831 4.858 1.557 7819
1.840 4.883 1.548 9169
1.833 4.866 1.527 10052
1.830 4.855 1.508 9054
1.831 4.859 1.493 8841
1.832 4.863 1.478 11935
1.836 4.873 1.465 13023
1.840 4.884 1.452 10631
1.842 4.888 1.437 5448
2.044 5.423 1.563 3376
2.053 5.449 1.552 2909
2.063 5.474 1.540 3469
2.070 5.492 1.527 3842
2.147 5.698 1.561 3743
2.151 5.709 1.545 3061
2.074 5.504 1.476 3192
2.075 5.507 1.459 3119
2.177 5.778 1.506 2479
2.244 5.956 1.529 2826
2.246 5.959 1.510 2382
2.389 6.340 1.578 2911
2.388 6.337 1.557 3446
2.389 6.340 1.537 5820
2.399 6.366 1.522 7245
2.400 6.370 1.503 10006
2.399 6.366 1.481 12257
2.400 6.370 1.462 9685
2.558 6.788 1.527 6782
2.406 6.384 1.424 5859
2.569 6.817 1.490 4266
2.565 6.806 1.466 3967
2.566 6.810 1.445 2343
2.793 7.412 1.537 2324
2.800 7.430 1.517 3133
2.804 7.441 1.495 3399
2.792 7.408 1.466 3305
2.933 7.784 1.509 3010
2.932 7.781 1.483 3898
2.936 7.792 1.460 2811
3.169 8.410 1.539 1913
3.245 8.612 1.545 1991
3.244 8.608 1.518 1901
3.229 8.568 1.484 2271
3.230 8.572 1.457 3017
3.231 8.575 1.431 2900
3.769 10.002 1.615 2803
3.770 10.006 1.584 3636
3.772 10.010 1.553 3924
3.773 10.014 1.522 3175
3.858 10.238 1.521 2471
3.776 10.021 1.460 2442
3.775 10.017 1.428 2063
3.779 10.028 1.398 1739
0.893 2.370 0.425 1284
4.161 11.044 1.456 1449
4.166 11.055 1.423 1583
4.167 11.058 1.388 1276
4.318 11.459 1.398 1063
4.317 11.455 1.361 844
4.240 11.252 1.304 923
4.241 11.255 1.269 596
4.323 11.472 1.255 739
3.771 10.007 1.081 835
3.763 9.987 1.048 916
3.789 10.056 1.023 1084
3.790 10.058 0.991 1484
3.788 10.053 0.960 1309
3.767 9.996 0.924 2209
3.765 9.991 0.892 3380
3.766 9.993 0.861 3549
3.769 10.002 0.831 3156
3.770 10.004 0.799 3012
3.768 9.999 0.768 3255
3.757 9.971 0.735 4242
3.752 9.958 0.703 4991
3.753 9.959 0.672 4498
3.753 9.960 0.641 3953
3.754 9.962 0.611 4000
3.751 9.956 0.579 4618
3.752 9.957 0.548 4475
3.750 9.950 0.517 3374
3.750 9.951 0.486 2503
3.747 9.945 0.455 1921
3.745 9.938 0.424 1255
3.742 9.932 0.393 1205
3.740 9.925 0.362 979
3.740 9.926 0.331 758
3.746 9.941 0.301 561
1.798 4.771 0.202 641
1.798 4.771 0.187 792
1.798 4.771 0.172 836
1.798 4.771 0.157 778
1.798 4.771 0.143 721
2.747 7.290 0.122 673
2.750 7.297 0.099 706
2.750 7.297 0.077 740
2.747 7.289 0.054 676
1.228 3.259 0.092 690
1.228 3.259 0.082 838
1.228 3.259 0.072 1004
1.228 3.259 0.062 1171
1.228 3.259 0.052 1287
1.228 3.258 0.042 1404
1.228 3.258 0.032 1429
1.228 3.258 0.022 1454
1.228 3.258 0.012 1366
1.227 3.257 0.002 1278
1.227 3.257 -0.008 1117
1.227 3.256 -0.018 957
1.227 3.256 -0.028 775
1.227 3.255 -0.038 593
1.227 3.255 -0.048 440
1.226 3.254 -0.058 286
2.306 6.121 -0.293 255
2.309 6.127 -0.312 280
2.308 6.126 -0.331 307
2.308 6.124 -0.350 328
2.304 6.116 -0.368 358
0.835 2.216 -0.048 403
0.835 2.215 -0.055 456
0.834 2.214 -0.062 456
0.834 2.214 -0.069 526
0.834 2.213 -0.075 596
0.834 2.213 -0.082 617
0.834 2.212 -0.089 638
0.831 2.204 -0.095 590
0.830 2.203 -0.102 556
0.444 1.179 0.010 738
0.444 1.179 0.006 834
0.444 1.178 0.003 1194
0.441 1.171 0.000 1896
0.797 2.099 1.731 3199
0.799 2.104 1.725 6399
0.800 2.108 1.719 6399
0.800 2.106 1.708 6742
0.797 2.099 1.692 7468
0.808 2.127 1.704 9411
0.809 2.131 1.697 11986
0.811 2.136 1.691 11986
0.815 2.146 1.689 10734
0.842 2.217 1.732 10732
0.818 2.154 1.676 8573
0.866 2.281 1.758 8263
0.868 2.285 1.751 7827
0.846 2.228 1.700 8582
0.848 2.232 1.693 7861
0.882 2.323 1.748 7597
0.881 2.321 1.736 8657
0.883 2.326 1.729 7940
0.885 2.330 1.722 7111
0.886 2.334 1.715 6261
0.890 2.345 1.712 5450
0.897 2.362 1.713 5228
0.927 2.441 1.757 5629
0.928 2.445 1.749 7287
0.933 2.456 1.746 9009
0.934 2.460 1.739 8434
0.941 2.477 1.739 8114
0.942 2.482 1.732 7940
0.946 2.492 1.728 7785
0.948 2.497 1.721 7917
0.950 2.501 1.713 8050
0.951 2.505 1.705 6247
0.977 2.573 1.738 6662
0.969 2.552 1.714 8807
0.971 2.556 1.706 11915
0.972 2.561 1.699 10597
0.974 2.565 1.691 7213
0.983 2.588 1.695 5852
1.026 2.702 1.753 5573
1.028 2.706 1.745 8159
1.029 2.711 1.737 9983
1.028 2.709 1.725 12123
1.028 2.706 1.712 9794
1.029 2.711 1.704 8078
1.033 2.721 1.700 8664
1.042 2.745 1.703 8236
1.049 2.762 1.702 8708
1.055 2.780 1.701 8093
1.065 2.804 1.703 5661
1.041 2.742 1.658 5181
1.043 2.747 1.649 5444
1.039 2.738 1.634 5226
1.118 2.945 1.738 6969
1.125 2.963 1.736 7479
1.127 2.967 1.727 8123
1.126 2.965 1.714 7989
1.130 2.976 1.709 6563
1.134 2.987 1.703 8441
1.138 2.998 1.697 11675
1.137 2.995 1.685 12122
1.139 3.000 1.675 12012
1.186 3.124 1.728 12783
1.190 3.135 1.722 10883
1.194 3.146 1.716 9810
1.188 3.130 1.696 11756
1.190 3.134 1.686 12866
1.194 3.145 1.680 11538
1.201 3.163 1.677 10353
1.210 3.187 1.677 9850
1.214 3.198 1.671 10042
1.211 3.189 1.654 7400
1.238 3.260 1.677 5408
