2.334 4.522 1.656 4928
2.346 4.546 1.648 3237
2.355 4.564 1.638 2655
2.420 4.689 1.663 3532
2.418 4.686 1.646 4171
2.424 4.697 1.633 5769
2.436 4.721 1.624 6507
2.438 4.725 1.608 4750
2.496 4.837 1.627 3891
2.505 4.855 1.615 4166
2.518 4.879 1.606 6216
2.527 4.896 1.594 7423
2.536 4.914 1.582 6733
2.541 4.924 1.568 8364
2.546 4.935 1.554 10504
2.548 4.938 1.538 10682
2.550 4.942 1.522 9052
2.556 4.952 1.507 7898
2.557 4.956 1.491 5986
2.820 5.465 1.613 3752
2.815 5.455 1.591 3151
2.930 5.678 1.632 3011
3.014 5.840 1.654 2522
3.019 5.850 1.637 2946
3.021 5.854 1.618 2473
3.076 5.961 1.625 2340
3.149 6.102 1.640 3379
3.151 6.106 1.620 4199
3.153 6.110 1.600 4914
3.155 6.114 1.580 6348
3.157 6.118 1.560 5804
3.159 6.121 1.540 3935
3.353 6.497 1.605 4219
3.355 6.501 1.583 3939
3.385 6.560 1.574 2944
3.515 6.812 1.607 2835
3.517 6.816 1.585 3172
3.748 7.262 1.655 2903
3.746 7.259 1.630 3723
3.755 7.277 1.609 5310
3.761 7.288 1.587 6991
3.759 7.285 1.562 7986
3.761 7.288 1.538 8253
3.759 7.285 1.513 6025
3.758 7.281 1.488 3468
3.921 7.597 1.521 2598
3.922 7.601 1.496 2384
3.928 7.611 1.473 2203
4.364 8.456 1.594 2495
4.369 8.467 1.567 1787
4.386 8.498 1.544 1631
4.384 8.495 1.515 1501
4.389 8.506 1.489 1302
5.276 10.223 1.728 1374
5.281 10.234 1.696 2291
5.287 10.245 1.664 2751
5.289 10.249 1.630 2517
5.295 10.260 1.598 1662
5.397 10.459 1.591 1348
5.399 10.463 1.557 1186
5.524 10.704 1.554 1036
5.526 10.708 1.519 1039
5.809 11.257 1.553 975
6.255 12.120 1.622 1080
6.257 12.124 1.582 1143
6.078 11.778 1.502 925
6.080 11.781 1.463 828
6.595 12.779 1.534 522
6.387 12.376 1.449 508
6.389 12.380 1.408 413
6.390 12.383 1.368 322
5.351 10.369 0.283 337
5.351 10.370 0.249 391
5.351 10.370 0.215 432
5.351 10.370 0.181 473
5.351 10.370 0.147 485
5.351 10.370 0.113 471
5.355 10.377 0.079 447
5.351 10.370 0.045 402
5.351 10.369 0.011 360
5.351 10.369 -0.023 305
5.354 10.376 -0.057 253
1.000 1.939 0.017 262
1.000 1.938 0.010 320
1.000 1.938 0.004 366
1.000 1.938 -0.002 412
1.184 2.295 -0.036 427
1.184 2.295 -0.044 664
1.188 2.301 -0.052 1048
1.187 2.301 -0.059 1440
1.187 2.300 -0.066 1961
1.183 2.293 -0.073 2485
1.183 2.292 -0.081 3068
1.183 2.292 -0.088 3651
1.182 2.291 -0.095 3651
1.182 2.290 -0.103 3778
1.185 2.297 -0.111 3906
1.181 2.289 -0.117 3724
1.181 2.288 -0.125 3542
1.181 2.288 -0.132 3278
1.180 2.287 -0.139 3014
1.180 2.286 -0.147 3014
1.179 2.286 -0.154 4001
1.057 2.032 1.764 2105
1.059 2.036 1.757 4210
1.061 2.041 1.751 4210
1.063 2.045 1.744 4347
1.065 2.049 1.738 4484
1.074 2.065 1.740 5283
1.082 2.080 1.743 6209
1.084 2.084 1.736 6209
1.128 2.169 1.792 7268
1.130 2.174 1.785 9346
1.135 2.184 1.783 7935
1.138 2.188 1.776 6552
1.140 2.192 1.769 6366
1.142 2.196 1.762 6181
1.147 2.206 1.759 5652
1.153 2.216 1.756 5589
1.149 2.209 1.741 5808
1.151 2.213 1.733 7246
1.153 2.217 1.726 8652
1.155 2.221 1.719 7859
1.160 2.231 1.716 7226
1.196 2.300 1.756 4915
1.217 2.340 1.774 5534
1.225 2.356 1.775 4756
1.231 2.367 1.771 4167
1.261 2.424 1.801 3513
1.263 2.429 1.793 4660
1.246 2.397 1.761 4539
1.246 2.395 1.749 5927
1.263 2.430 1.762 6348
1.269 2.440 1.758 8069
1.274 2.450 1.754 7918
1.279 2.460 1.750 8004
1.281 2.464 1.742 8849
1.280 2.462 1.730 9761
1.289 2.479 1.730 10811
1.294 2.489 1.726 10662
1.296 2.493 1.718 8769
1.340 2.576 1.761 6598
1.342 2.581 1.753 7227
1.341 2.579 1.741 6443
1.327 2.552 1.713 6094
1.345 2.587 1.724 7678
1.347 2.591 1.716 8939
1.349 2.595 1.707 8279
1.355 2.605 1.703 7896
1.357 2.609 1.694 7565
1.381 2.657 1.712 8131
1.380 2.655 1.700 7081
1.376 2.646 1.684 5010
1.391 2.675 1.690 4916
1.409 2.710 1.699 6821
1.411 2.714 1.691 6957
1.413 2.718 1.682 6004
1.484 2.854 1.748 4744
1.418 2.726 1.664 4432
1.498 2.881 1.741 3750
1.487 2.860 1.717 4953
1.489 2.864 1.708 6076
1.488 2.862 1.695 6091
1.487 2.859 1.682 6004
1.495 2.876 1.680 5560
1.501 2.886 1.674 4590
1.542 2.966 1.706 5053
1.558 2.996 1.710 4897
1.563 3.006 1.703 6045
1.615 3.106 1.744 7357
1.617 3.110 1.734 8106
1.616 3.108 1.720 6953
1.618 3.112 1.710 6014
1.620 3.116 1.700 4681
1.672 3.216 1.738 4103
1.664 3.201 1.718 5802
1.666 3.205 1.708 8267
1.672 3.215 1.701 9072
1.681 3.232 1.697 8165
1.690 3.249 1.692 7251
1.682 3.234 1.673 11295
1.680 3.231 1.659 18161
1.679 3.229 1.645 16346
1.678 3.226 1.632 13859
1.680 3.230 1.621 13694
1.685 3.240 1.614 14146
1.687 3.244 1.603 16293
1.689 3.248 1.593 13476
1.762 3.389 1.644 13106
1.764 3.393 1.633 14051
1.763 3.390 1.619 13421
1.768 3.400 1.611 11482
1.770 3.404 1.600 8642
1.772 3.408 1.589 6129
1.914 3.681 1.693 4438
1.930 3.711 1.692 3402
1.945 3.741 1.691 4896
1.934 3.719 1.668 6770
1.956 3.763 1.672 5820
1.962 3.773 1.663 4627
1.964 3.777 1.651 4841
1.969 3.788 1.641 7355
1.982 3.811 1.637 9194
1.987 3.822 1.627 8525
1.989 3.826 1.614 5110
2.053 3.949 1.648 5151
2.049 3.940 1.630 7186
2.054 3.950 1.620 6107
2.056 3.954 1.607 5615
2.058 3.958 1.594 5531
2.150 4.135 1.645 4743
2.218 4.266 1.678 7568
2.217 4.263 1.662 8965
2.219 4.267 1.648 6484
2.224 4.278 1.637 4189
2.226 4.282 1.623 2549
2.323 4.467 1.672 2513
2.332 4.484 1.662 3278
2.348 4.515 1.656 3670
2.357 4.532 1.646 2396
2.373 4.563 1.640 2087
2.375 4.567 1.625 3177
2.373 4.564 1.608 3603
2.435 4.683 1.630 4797
2.451 4.713 1.624 6050
2.456 4.724 1.610 5446
2.511 4.829 1.627 4570
2.520 4.847 1.615 4882
2.529 4.864 1.603 5488
2.528 4.861 1.586 6009
2.509 4.824 1.558 4848
2.549 4.903 1.564 5611
2.551 4.906 1.548 6072
2.567 4.937 1.540 5918
2.527 4.859 1.500 4929
2.571 4.944 1.507 4347
2.576 4.955 1.493 3943
2.837 5.456 1.613 3986
2.836 5.453 1.593 3594
2.852 5.485 1.583 2793
3.032 5.830 1.654 2768
3.034 5.834 1.635 3191
3.043 5.852 1.620 2650
3.052 5.869 1.604 3112
3.050 5.866 1.583 3586
3.170 6.096 1.620 2915
3.176 6.107 1.601 3297
3.174 6.104 1.580 4292
3.172 6.101 1.558 3673
3.378 6.497 1.629 2707
3.377 6.494 1.606 3723
3.379 6.497 1.585 3538
3.406 6.549 1.574 3130
3.533 6.794 1.605 3748
3.535 6.798 1.583 3387
3.770 7.251 1.655 2856
3.769 7.248 1.630 3758
3.774 7.258 1.608 5198
3.780 7.269 1.586 6386
3.782 7.273 1.562 7065
3.784 7.276 1.538 6993
3.782 7.273 1.513 5130
3.942 7.582 1.546 3477
3.944 7.585 1.521 4073
3.946 7.589 1.496 3706
3.951 7.599 1.473 3258
3.960 7.616 1.450 3353
3.962 7.620 1.426 2252
4.860 9.346 1.688 1675
4.862 9.350 1.657 1517
4.466 8.589 1.504 1369
5.307 10.207 1.728 1353
5.313 10.218 1.696 2082
5.319 10.229 1.664 2307
5.321 10.233 1.630 2081
5.330 10.250 1.599 1574
5.430 10.442 1.591 1444
5.436 10.453 1.558 1269
5.557 10.687 1.554 1300
5.559 10.691 1.519 1078
5.844 11.238 1.553 936
6.292 12.101 1.622 1015
6.294 12.105 1.582 1135
6.293 12.101 1.542 868
6.120 11.770 1.464 739
6.634 12.759 1.534 551
6.425 12.357 1.449 535
6.431 12.367 1.409 449
6.429 12.363 1.368 364
6.430 12.366 1.327 285
5.383 10.353 0.283 294
5.383 10.353 0.249 342
5.384 10.353 0.215 379
5.384 10.353 0.181 417
5.384 10.353 0.147 442
5.384 10.353 0.113 448
5.387 10.360 0.079 437
5.387 10.360 0.045 392
5.383 10.353 0.011 352
5.387 10.359 -0.023 300
5.387 10.359 -0.057 253
1.003 1.929 0.029 263
1.003 1.929 0.023 362
1.007 1.936 0.017 460
1.006 1.935 0.010 562
1.006 1.935 0.004 635
1.006 1.935 -0.002 708
1.006 1.934 -0.008 722
1.006 1.934 -0.014 735
1.005 1.933 -0.021 735
1.005 1.933 -0.027 692
1.194 2.297 -0.066 813
1.194 2.296 -0.074 1062
1.190 2.288 -0.081 1348
1.190 2.288 -0.088 1640
1.189 2.287 -0.095 1640
1.189 2.287 -0.103 1750
1.192 2.293 -0.111 1861
1.188 2.285 -0.117 1822
1.188 2.285 -0.125 1785
1.188 2.284 -0.132 1668
1.187 2.283 -0.139 1551
1.187 2.283 -0.147 1551
1.190 2.289 -0.155 2068
1.067 2.034 1.769 3109
1.070 2.038 1.762 6219
1.072 2.042 1.756 6219
1.074 2.046 1.749 6106
1.076 2.051 1.742 5992
1.078 2.055 1.736 6393
1.084 2.065 1.734 6793
1.086 2.069 1.727 6793
1.136 2.165 1.792 6693
1.139 2.169 1.785 8347
1.144 2.179 1.783 6996
1.146 2.184 1.776 5657
1.145 2.182 1.764 5620
1.147 2.186 1.757 5706
1.150 2.190 1.750 4987
1.161 2.212 1.756 4802
1.160 2.210 1.745 5137
1.159 2.209 1.733 6868
1.161 2.213 1.726 8617
1.163 2.217 1.719 7669
1.200 2.286 1.759 7064
1.205 2.296 1.756 6643
1.216 2.318 1.761 7073
1.228 2.340 1.766 5687
1.236 2.356 1.767 5135
1.239 2.360 1.760 3922
1.275 2.430 1.798 3791
1.278 2.434 1.790 4126
1.255 2.391 1.749 5328
1.279 2.437 1.770 6750
1.281 2.441 1.762 9080
1.283 2.445 1.754 8824
1.289 2.455 1.750 8599
1.288 2.453 1.738 9470
1.290 2.457 1.730 10372
1.295 2.468 1.726 11104
1.304 2.484 1.726 10601
1.306 2.488 1.718 8677
1.350 2.571 1.761 6535
1.349 2.569 1.749 7384
1.347 2.567 1.737 6673
1.340 2.553 1.717 6589
1.355 2.582 1.724 7849
1.357 2.586 1.716 9145
1.359 2.590 1.707 8450
1.365 2.600 1.703 7540
1.393 2.653 1.724 7099
1.395 2.658 1.716 7840
1.397 2.662 1.707 6872
1.399 2.666 1.698 5164
1.404 2.676 1.693 5524
1.416 2.699 1.696 7371
1.418 2.703 1.687 7666
1.421 2.707 1.678 6796
1.423 2.711 1.669 4819
1.500 2.858 1.743 3833
1.502 2.863 1.733 3908
1.498 2.854 1.717 5898
1.500 2.858 1.708 7088
1.499 2.856 1.695 6588
1.494 2.847 1.679 5728
1.503 2.864 1.677 4752
1.558 2.969 1.722 5813
1.557 2.967 1.709 6623
1.566 2.983 1.706 5739
1.575 3.000 1.703 6333
1.627 3.100 1.744 7619
1.629 3.104 1.734 9174
1.628 3.101 1.720 8268
1.630 3.105 1.710 7203
1.629 3.103 1.697 5432
1.681 3.203 1.735 4156
1.673 3.188 1.715 4951
1.679 3.198 1.708 6568
1.684 3.209 1.701 7408
1.690 3.219 1.693 7093
1.702 3.243 1.692 5995
1.687 3.214 1.666 9615
1.689 3.218 1.656 16655
1.688 3.216 1.642 15283
1.686 3.213 1.629 13146
1.692 3.224 1.621 13202
1.690 3.221 1.608 12037
1.696 3.231 1.600 11840
1.773 3.378 1.655 12023
1.775 3.382 1.644 13026
1.777 3.386 1.633 13901
1.776 3.383 1.619 13098
1.781 3.393 1.611 11197
1.783 3.397 1.600 8530
1.785 3.401 1.589 6041
1.931 3.680 1.696 4103
1.944 3.704 1.692 4186
1.956 3.727 1.689 5657
1.951 3.718 1.671 6145
1.967 3.748 1.670 5068
1.969 3.752 1.658 4217
1.971 3.756 1.645 4810
1.984 3.780 1.641 7824
2.000 3.810 1.639 11009
2.005 3.821 1.629 9747
2.004 3.818 1.614 5293
2.068 3.941 1.648 4676
2.067 3.938 1.633 5435
2.073 3.949 1.623 4806
2.075 3.953 1.610 4405
2.185 4.163 1.674 4303
2.197 4.187 1.668 5324
2.231 4.251 1.676 7149
2.233 4.255 1.662 9191
2.235 4.259 1.648 6976
2.237 4.262 1.634 4368
2.313 4.407 1.670 2317
2.336 4.451 1.669 2704
2.349 4.475 1.662 2815
2.245 4.278 1.579 2528
2.307 4.396 1.603 2078
2.394 4.561 1.642 2175
2.399 4.571 1.630 3360
2.405 4.582 1.617 3819
2.453 4.673 1.630 3852
2.472 4.711 1.626 5064
2.474 4.715 1.610 5705
2.530 4.820 1.627 4805
2.535 4.830 1.613 5343
2.544 4.848 1.601 5341
2.543 4.845 1.584 5950
2.527 4.815 1.558 6568
2.525 4.811 1.540 6254
2.527 4.815 1.524 4708
2.543 4.846 1.516 5451
2.545 4.849 1.500 6900
2.547 4.853 1.485 4327
2.845 5.421 1.625 3963
2.858 5.446 1.613 4310
2.857 5.443 1.593 3626
2.869 5.467 1.581 2871
3.054 5.819 1.654 2678
3.056 5.823 1.635 3190
3.069 5.847 1.622 3117
3.074 5.858 1.604 4343
3.073 5.855 1.583 4770
3.075 5.858 1.564 3513
3.077 5.862 1.545 2524
3.082 5.872 1.527 2538
3.401 6.480 1.650 2345
3.407 6.491 1.630 2439
3.401 6.481 1.606 3013
3.551 6.766 1.648 3221
3.553 6.770 1.626 3997
3.555 6.774 1.604 4400
3.561 6.785 1.583 3349
3.574 6.809 1.565 2489
3.796 7.233 1.630 3130
3.802 7.244 1.608 4279
3.808 7.255 1.586 5152
3.810 7.258 1.562 5708
3.811 7.262 1.538 5483
3.919 7.466 1.552 5061
3.975 7.573 1.547 4747
3.973 7.570 1.521 5320
3.975 7.574 1.496 4699
3.980 7.584 1.473 4114
3.990 7.601 1.450 4156
3.991 7.605 1.426 2752
4.899 9.335 1.689 1684
4.967 9.464 1.678 1722
4.987 9.502 1.653 1592
4.497 8.569 1.475 1438
5.352 10.197 1.696 1810
5.354 10.201 1.663 1883
5.360 10.212 1.630 1626
5.376 10.244 1.601 1515
5.473 10.429 1.592 1522
5.479 10.439 1.559 1287
5.598 10.666 1.554 1431
5.600 10.669 1.519 1037
5.887 11.216 1.553 815
6.338 12.077 1.622 874
6.340 12.081 1.582 1018
6.339 12.077 1.542 797
6.165 11.746 1.464 597
6.225 11.861 1.438 579
6.476 12.339 1.449 503
6.485 12.356 1.410 463
6.483 12.353 1.369 380
6.481 12.349 1.328 295
1.014 1.933 0.035 271
1.014 1.932 0.029 419
1.010 1.925 0.023 569
1.014 1.932 0.017 710
1.014 1.931 0.010 852
1.014 1.931 0.004 937
1.013 1.931 -0.002 1022
1.013 1.930 -0.008 1045
1.013 1.930 -0.014 1067
1.013 1.930 -0.021 1067
1.016 1.936 -0.027 1017
1.016 1.936 -0.034 985
1.016 1.935 -0.040 831
1.012 1.928 -0.045 692
1.198 2.283 -0.088 567
1.198 2.283 -0.095 567
1.201 2.289 -0.103 623
1.201 2.288 -0.111 680
1.201 2.288 -0.118 684
1.200 2.287 -0.126 689
1.200 2.286 -0.133 646
1.200 2.286 -0.140 602
1.199 2.285 -0.148 602
1.199 2.284 -0.155 809
1.073 2.031 1.769 4195
1.075 2.035 1.762 8391
1.078 2.039 1.756 8391
1.080 2.043 1.749 7957
1.085 2.053 1.747 7568
1.084 2.052 1.736 7382
1.086 2.056 1.729 7240
1.089 2.060 1.723 7240
1.097 2.075 1.725 6666
1.148 2.172 1.790 7235
1.150 2.176 1.783 6013
1.152 2.180 1.776 4790
1.151 2.179 1.764 5082
1.151 2.177 1.753 5694
1.150 2.175 1.742 4971
1.155 2.185 1.739 4554
1.169 2.213 1.749 5005
1.169 2.211 1.738 6680
1.168 2.209 1.726 8362
1.173 2.219 1.723 7331
1.206 2.282 1.759 8501
1.211 2.292 1.756 8246
1.220 2.308 1.757 8700
1.232 2.330 1.762 6561
1.243 2.352 1.767 5851
1.249 2.363 1.764 4858
1.254 2.373 1.760 4020
1.256 2.377 1.753 4452
1.290 2.441 1.786 5548
1.289 2.439 1.774 7898
1.291 2.443 1.766 10356
1.293 2.447 1.758 9960
1.296 2.452 1.750 9565
1.295 2.450 1.738 10208
1.297 2.454 1.730 10912
1.302 2.464 1.726 11315
1.308 2.474 1.722 10363
1.313 2.484 1.718 8425
1.357 2.567 1.761 6006
1.353 2.559 1.745 7000
1.352 2.557 1.733 6694
1.347 2.549 1.717 7036
1.359 2.572 1.720 7914
1.364 2.582 1.716 8994
1.367 2.586 1.707 8249
1.369 2.590 1.699 6939
1.410 2.668 1.735 6969
1.412 2.672 1.727 7523
1.408 2.664 1.711 6583
1.407 2.662 1.698 5279
1.415 2.678 1.697 5787
1.424 2.695 1.696 7512
1.426 2.699 1.687 8024
1.428 2.703 1.678 7340
1.430 2.706 1.669 5194
1.436 2.717 1.664 3747
1.507 2.852 1.730 4143
1.506 2.850 1.717 6163
1.508 2.854 1.708 7158
1.510 2.858 1.699 6415
1.502 2.843 1.679 5044
1.564 2.960 1.732 5902
1.567 2.965 1.722 7486
1.565 2.962 1.709 8258
1.571 2.973 1.703 6826
1.580 2.989 1.700 6660
1.636 3.095 1.744 7325
1.638 3.099 1.734 9405
1.640 3.103 1.723 8391
1.639 3.101 1.710 7111
1.634 3.092 1.693 5594
1.687 3.192 1.732 4319
1.682 3.183 1.715 4145
1.688 3.194 1.708 4940
1.697 3.211 1.704 5799
1.699 3.215 1.693 5973
1.711 3.238 1.692 4803
1.696 3.210 1.666 8283
1.698 3.214 1.656 14781
1.697 3.211 1.642 13930
1.696 3.208 1.629 12188
1.701 3.219 1.621 12592
1.703 3.223 1.611 11297
1.780 3.369 1.666 9707
1.782 3.373 1.655 10676
1.785 3.377 1.644 11543
1.783 3.374 1.630 12307
1.785 3.378 1.619 11447
1.791 3.388 1.611 9682
1.793 3.392 1.600 7378
1.795 3.396 1.589 5194
1.949 3.688 1.702 3978
1.954 3.698 1.692 4699
1.967 3.722 1.689 6309
1.976 3.739 1.682 6472
1.978 3.743 1.670 4585
1.980 3.747 1.658 4090
1.989 3.764 1.651 4714
1.998 3.781 1.644 7601
2.011 3.805 1.639 11881
2.016 3.815 1.629 10506
2.018 3.819 1.617 5564
2.080 3.935 1.648 4367
2.127 4.025 1.669 5962
2.129 4.029 1.655 6003
2.198 4.159 1.690 4291
2.200 4.163 1.676 5339
2.209 4.181 1.668 6351
2.208 4.178 1.651 6873
2.242 4.242 1.660 8426
2.244 4.246 1.646 6334
2.246 4.249 1.632 3651
2.325 4.400 1.670 2585
2.349 4.444 1.669 2853
2.351 4.448 1.655 2916
2.332 4.412 1.627 2881
2.323 4.396 1.605 2265
2.407 4.554 1.642 2609
2.412 4.564 1.630 3967
2.421 4.582 1.619 4420
2.423 4.586 1.604 3892
2.493 4.717 1.630 4023
2.491 4.714 1.613 5621
2.504 4.738 1.604 5112
2.531 4.789 1.603 7401
2.537 4.800 1.589 7886
2.539 4.804 1.573 7713
2.537 4.801 1.556 8264
2.539 4.804 1.540 6886
2.541 4.808 1.524 4982
2.553 4.832 1.514 5975
2.555 4.835 1.498 7682
2.855 5.403 1.641 4863
2.861 5.413 1.625 4844
2.874 5.437 1.613 4466
2.876 5.441 1.595 3287
2.885 5.459 1.581 2653
3.067 5.803 1.653 2565
3.072 5.814 1.635 3132
3.089 5.845 1.623 3821
3.091 5.849 1.604 5567
3.093 5.853 1.585 5798
3.091 5.849 1.564 4425
3.097 5.860 1.547 3517
3.099 5.864 1.527 3413
3.419 6.470 1.650 2391
3.421 6.474 1.629 1924
3.568 6.752 1.670 2392
3.567 6.749 1.647 3764
3.573 6.760 1.626 4591
3.575 6.764 1.604 4489
3.577 6.768 1.582 2958
3.662 6.930 1.593 2402
3.708 7.016 1.587 2468
3.939 7.454 1.653 4150
3.941 7.457 1.629 6561
3.939 7.454 1.603 6526
3.941 7.458 1.578 6112
3.940 7.455 1.552 6031
3.996 7.562 1.547 5967
3.998 7.566 1.523 6317
3.996 7.562 1.496 5490
4.002 7.573 1.473 4831
4.011 7.590 1.450 4530
4.013 7.593 1.426 2878
4.995 9.452 1.711 1908
5.001 9.463 1.681 2035
5.014 9.488 1.653 2005
5.016 9.492 1.622 1522
5.381 10.182 1.696 1482
5.383 10.186 1.663 1431
5.389 10.197 1.630 1168
5.494 10.395 1.624 1383
5.503 10.413 1.592 1411
5.630 10.653 1.590 1206
5.628 10.650 1.554 1379
6.144 11.627 1.646 904
6.150 11.638 1.609 880
6.512 12.323 1.655 969
6.294 11.909 1.564 1058
6.296 11.913 1.525 898
6.360 12.035 1.499 609
6.259 11.843 1.438 533
6.518 12.334 1.451 472
6.524 12.345 1.411 486
6.522 12.341 1.370 381
6.516 12.330 1.328 261
1.305 2.469 0.037 271
1.305 2.469 0.029 333
1.305 2.469 0.021 362
1.301 2.461 0.014 398
1.020 1.930 0.035 387
1.020 1.929 0.029 576
1.020 1.929 0.023 765
1.019 1.929 0.017 952
1.019 1.929 0.010 1140
1.019 1.928 0.004 1256
1.019 1.928 -0.002 1372
1.019 1.927 -0.008 1376
1.018 1.927 -0.014 1381
1.018 1.927 -0.021 1381
1.022 1.933 -0.027 1306
1.021 1.933 -0.034 1259
1.021 1.932 -0.040 1071
1.017 1.925 -0.045 900
1.017 1.924 -0.052 735
1.017 1.924 -0.058 570
1.016 1.923 -0.064 417
1.020 1.930 -0.071 272
1.089 2.062 -0.092 295
1.089 2.061 -0.099 329
1.089 2.060 -0.106 329
1.088 2.060 -0.112 323
1.088 2.059 -0.119 318
1.088 2.058 -0.126 445
1.076 2.022 1.764 5151
1.078 2.026 1.757 10302
1.080 2.030 1.751 10302
1.086 2.040 1.749 9524
1.091 2.050 1.747 8862
1.090 2.049 1.736 8039
1.089 2.047 1.725 7340
1.091 2.051 1.718 7340
1.100 2.067 1.720 6557
1.105 2.076 1.718 6119
1.156 2.173 1.783 4919
1.174 2.206 1.798 4147
1.154 2.170 1.760 4448
1.154 2.168 1.749 5536
1.156 2.172 1.742 4930
1.158 2.176 1.735 4558
1.179 2.215 1.754 5174
1.178 2.214 1.742 6669
1.177 2.212 1.731 8236
1.214 2.281 1.771 7292
1.213 2.279 1.759 9471
1.218 2.289 1.756 9355
1.223 2.299 1.753 9781
1.235 2.321 1.758 7045
1.250 2.349 1.767 5963
1.258 2.365 1.768 5531
1.261 2.369 1.760 5294
1.263 2.373 1.753 4958
1.297 2.437 1.786 6622
1.299 2.441 1.778 9040
1.301 2.446 1.770 11458
1.300 2.444 1.758 10936
1.303 2.448 1.750 10452
1.302 2.446 1.738 10796
1.304 2.450 1.730 11247
1.309 2.460 1.726 11280
1.315 2.470 1.722 9920
1.320 2.481 1.718 7937
1.364 2.564 1.761 5181
1.357 2.549 1.741 6294
1.356 2.547 1.729 6598
1.354 2.545 1.717 7146
1.366 2.568 1.720 7773
1.372 2.578 1.716 8514
1.374 2.582 1.707 7746
1.376 2.586 1.699 6188
1.418 2.664 1.735 7036
1.420 2.668 1.727 7226
1.419 2.666 1.714 6241
1.417 2.664 1.702 5394
1.423 2.674 1.697 5740
1.428 2.684 1.692 6989
1.430 2.688 1.683 7553
1.433 2.692 1.675 7134
1.435 2.696 1.666 5096
1.513 2.844 1.739 3664
1.495 2.810 1.709 4519
1.514 2.846 1.717 5657
1.516 2.850 1.708 6216
1.518 2.854 1.699 5445
1.574 2.958 1.745 5131
1.573 2.956 1.732 7176
1.575 2.960 1.722 8813
1.574 2.958 1.709 9745
1.576 2.962 1.699 8104
1.582 2.972 1.693 7373
1.590 2.989 1.690 7346
1.647 3.094 1.734 8583
1.649 3.098 1.723 7318
1.654 3.109 1.717 5827
1.643 3.087 1.693 4611
1.696 3.187 1.732 4123
1.650 3.102 1.677 3472
1.659 3.119 1.673 4136
1.706 3.206 1.704 4485
1.708 3.210 1.693 5061
1.707 3.207 1.680 4784
1.705 3.205 1.666 7242
1.707 3.209 1.656 12302
1.706 3.206 1.642 11739
1.708 3.210 1.632 10474
1.710 3.214 1.621 11415
1.712 3.218 1.611 10339
1.714 3.221 1.600 8043
1.792 3.368 1.655 8449
1.794 3.372 1.644 8969
1.793 3.369 1.630 9614
1.795 3.373 1.619 8880
1.800 3.383 1.611 7398
1.802 3.387 1.600 5605
1.915 3.600 1.680 4397
1.907 3.584 1.659 3954
1.968 3.699 1.695 4562
1.977 3.716 1.689 6460
1.987 3.733 1.682 6986
1.989 3.737 1.670 4501
1.994 3.748 1.660 3980
2.003 3.765 1.653 4627
2.023 3.802 1.654 7275
2.025 3.805 1.642 12314
2.030 3.816 1.632 11176
2.033 3.820 1.620 5891
2.080 3.910 1.641 4286
2.139 4.019 1.669 7247
2.141 4.023 1.655 7322
2.143 4.027 1.642 5045
2.216 4.164 1.679 6124
2.221 4.174 1.668 6936
2.216 4.165 1.649 7358
2.215 4.162 1.633 8784
2.224 4.179 1.624 7022
2.229 4.190 1.613 4534
2.231 4.193 1.599 3284
2.358 4.431 1.667 2759
2.349 4.415 1.646 3424
2.344 4.405 1.627 4328
2.343 4.402 1.610 2941
2.423 4.554 1.645 2788
2.429 4.564 1.632 4282
2.434 4.575 1.619 5017
2.436 4.579 1.604 4565
2.528 4.751 1.643 3784
2.512 4.721 1.617 5068
2.518 4.731 1.604 5761
2.545 4.782 1.603 10193
2.550 4.793 1.589 10439
2.552 4.796 1.573 8556
2.547 4.787 1.554 9444
2.553 4.797 1.540 6748
2.554 4.801 1.524 5050
2.564 4.818 1.512 6520
2.565 4.821 1.497 7457
2.874 5.401 1.643 5318
2.876 5.405 1.625 5396
2.889 5.429 1.613 4556
2.891 5.433 1.595 3189
2.893 5.437 1.577 2469
3.062 5.754 1.642 2645
3.089 5.805 1.635 2946
3.106 5.836 1.623 4367
3.108 5.840 1.604 6461
3.110 5.844 1.585 6408
3.112 5.848 1.566 5140
3.117 5.858 1.548 4435
3.119 5.862 1.529 4062
3.121 5.865 1.510 2679
3.126 5.876 1.492 1627
3.584 6.735 1.669 2410
3.586 6.739 1.647 3800
3.592 6.750 1.626 4550
3.594 6.754 1.604 3925
3.735 7.018 1.638 2772
3.729 7.008 1.612 3268
3.728 7.005 1.587 3224
3.960 7.442 1.653 4833
3.962 7.446 1.629 7649
3.964 7.450 1.604 7334
3.963 7.447 1.578 6456
3.961 7.444 1.552 6390
4.018 7.551 1.547 6900
4.020 7.554 1.523 7027
4.018 7.551 1.496 5925
4.020 7.554 1.472 5183
4.029 7.572 1.449 4482
4.031 7.575 1.424 2662
5.022 9.438 1.711 2071
5.028 9.449 1.681 2326
5.041 9.474 1.653 2446
5.039 9.471 1.621 1895
5.038 9.467 1.588 1462
5.353 10.060 1.646 1429
5.359 10.071 1.614 1288
5.523 10.380 1.624 1309
5.532 10.397 1.592 1275
5.682 10.679 1.596 1192
5.658 10.634 1.554 1215
5.815 10.929 1.557 851
6.187 11.627 1.610 901
6.547 12.305 1.655 989
6.328 11.892 1.564 1082
6.330 11.895 1.525 899
6.394 12.017 1.499 670
6.296 11.833 1.439 456
6.557 12.323 1.452 492
6.559 12.326 1.411 528
6.561 12.329 1.370 400
1.312 2.466 0.045 250
1.312 2.466 0.037 314
1.312 2.465 0.029 379
1.312 2.465 0.021 428
1.311 2.465 0.013 478
1.308 2.457 0.006 490
1.025 1.927 0.029 708
1.025 1.926 0.023 933
1.025 1.926 0.017 1181
1.025 1.926 0.010 1429
1.024 1.925 0.004 1620
1.024 1.925 -0.002 1812
1.024 1.925 -0.008 1820
1.024 1.924 -0.014 1828
1.024 1.924 -0.021 1828
1.027 1.930 -0.027 1728
1.027 1.930 -0.034 1650
1.027 1.929 -0.040 1413
1.023 1.922 -0.045 1194
1.022 1.922 -0.052 985
1.022 1.921 -0.058 776
1.100 2.067 -0.080 788
1.099 2.066 -0.087 933
1.099 2.065 -0.093 973
1.095 2.058 -0.099 1026
1.095 2.057 -0.106 1026
1.094 2.057 -0.112 902
1.094 2.056 -0.119 778
1.094 2.055 -0.126 984
1.083 2.018 1.764 5903
1.085 2.023 1.757 11807
1.087 2.027 1.751 11807
1.093 2.037 1.749 10687
1.098 2.046 1.747 9775
1.097 2.045 1.736 8315
1.096 2.043 1.725 7103
1.098 2.047 1.718 7103
1.104 2.057 1.716 6207
1.112 2.073 1.718 5613
1.114 2.077 1.711 4300
1.144 2.133 1.745 3896
1.152 2.148 1.747 4474
1.158 2.158 1.744 5649
1.160 2.162 1.737 4928
1.187 2.213 1.765 4720
1.186 2.211 1.754 5722
1.185 2.210 1.742 6871
1.188 2.214 1.735 8038
1.218 2.271 1.766 7430
1.220 2.275 1.759 10021
1.226 2.285 1.756 10012
1.231 2.295 1.753 10548
1.233 2.299 1.745 7657
1.251 2.333 1.759 5923
1.266 2.361 1.768 6038
1.269 2.365 1.760 6512
1.274 2.375 1.757 5753
1.305 2.433 1.786 7512
1.307 2.437 1.778 9824
1.310 2.441 1.770 12135
1.312 2.445 1.762 11530
1.311 2.443 1.750 10994
1.310 2.442 1.738 11122
1.309 2.440 1.726 11451
1.317 2.456 1.726 10968
1.323 2.466 1.722 9067
1.328 2.476 1.718 6963
1.330 2.480 1.710 4511
1.365 2.545 1.741 5500
1.367 2.549 1.733 6232
1.366 2.547 1.721 7042
1.375 2.563 1.720 7495
1.380 2.573 1.716 7600
1.383 2.577 1.707 6885
1.421 2.649 1.740 5654
1.426 2.659 1.735 6847
1.432 2.669 1.731 6572
1.428 2.661 1.714 5706
1.426 2.659 1.702 5394
1.432 2.669 1.697 5419
1.437 2.679 1.692 6118
1.440 2.683 1.683 6706
1.442 2.687 1.675 6552
1.444 2.691 1.666 4822
1.479 2.758 1.693 3951
1.501 2.799 1.705 5180
1.507 2.809 1.699 5571
1.512 2.819 1.694 4640
1.508 2.811 1.678 4305
1.584 2.953 1.745 5851
1.586 2.957 1.735 8029
1.585 2.955 1.722 9685
1.584 2.952 1.709 10855
1.586 2.957 1.699 9496
1.588 2.961 1.690 8797
1.594 2.971 1.683 8148
1.654 3.082 1.730 7157
1.663 3.099 1.727 5590
1.668 3.110 1.720 4293
1.650 3.076 1.690 3525
1.649 3.073 1.677 3525
1.654 3.083 1.670 3961
1.666 3.107 1.670 4463
1.672 3.117 1.663 4633
1.715 3.198 1.690 4340
1.717 3.202 1.680 4842
1.720 3.205 1.669 6070
1.718 3.203 1.656 9176
1.720 3.207 1.645 8589
1.719 3.204 1.632 7955
1.724 3.215 1.624 9145
1.726 3.218 1.614 8454
1.729 3.222 1.603 6128
1.803 3.362 1.655 5855
1.805 3.366 1.644 5895
1.804 3.363 1.630 6251
1.886 3.516 1.686 6098
1.892 3.527 1.677 5089
1.915 3.570 1.683 4616
1.917 3.574 1.671 4703
1.919 3.578 1.659 4125
1.977 3.686 1.692 3917
1.993 3.716 1.691 6081
1.999 3.727 1.682 7368
2.001 3.731 1.670 4701
2.024 3.774 1.674 4299
2.037 3.797 1.669 4994
2.039 3.801 1.657 8466
2.041 3.805 1.645 12260
2.043 3.809 1.632 11017
2.045 3.813 1.620 5707
2.147 4.001 1.679 4738
2.152 4.012 1.669 8145
2.154 4.016 1.655 8179
2.153 4.013 1.640 5747
2.233 4.163 1.681 6585
2.235 4.167 1.668 6898
2.227 4.151 1.647 7655
2.229 4.155 1.633 10095
2.238 4.172 1.624 8551
2.243 4.182 1.613 6206
2.246 4.186 1.599 4912
2.258 4.210 1.592 3009
2.357 4.394 1.641 3588
2.359 4.397 1.627 5364
2.365 4.408 1.614 3614
2.395 4.465 1.618 3052
2.448 4.563 1.634 4258
2.450 4.567 1.619 5462
2.452 4.570 1.604 5372
2.454 4.574 1.589 4053
2.531 4.719 1.619 4134
2.537 4.729 1.606 5751
2.561 4.774 1.603 12304
2.566 4.784 1.589 11395
2.568 4.788 1.573 7979
2.563 4.778 1.554 10317
2.565 4.782 1.538 7037
2.571 4.792 1.524 5670
2.580 4.809 1.512 7588
2.582 4.813 1.497 7060
2.892 5.392 1.643 5113
2.898 5.402 1.627 5300
2.907 5.420 1.613 4391
2.909 5.423 1.595 3029
2.908 5.420 1.575 2370
3.012 5.614 1.608 3083
3.010 5.611 1.588 3105
3.125 5.826 1.623 4488
3.127 5.830 1.604 6686
3.129 5.833 1.585 6313
3.131 5.837 1.566 5239
3.137 5.847 1.548 4824
3.139 5.851 1.529 4207
3.141 5.855 1.510 2681
3.458 6.446 1.627 2215
3.467 6.463 1.609 2327
3.609 6.727 1.647 3332
3.614 6.738 1.626 3966
3.616 6.742 1.604 3074
3.714 6.924 1.620 3762
3.753 6.996 1.612 4056
3.755 7.000 1.589 3799
3.989 7.436 1.654 4955
3.991 7.440 1.630 7859
3.989 7.437 1.604 7350
3.991 7.440 1.580 6016
4.038 7.527 1.571 6044
4.040 7.530 1.546 7257
4.045 7.541 1.523 7119
4.043 7.537 1.496 5918
4.045 7.541 1.472 5214
4.054 7.558 1.449 3967
4.056 7.561 1.424 2116
5.058 9.428 1.712 2043
5.063 9.439 1.682 2408
5.073 9.457 1.653 2715
5.071 9.454 1.621 2135
5.070 9.450 1.588 1668
5.391 10.049 1.647 1743
5.393 10.053 1.614 1634
5.454 10.167 1.597 1223
5.452 10.164 1.562 1180
5.722 10.666 1.597 1178
5.928 11.051 1.613 950
5.871 10.944 1.562 928
6.226 11.606 1.610 964
6.589 12.283 1.655 936
6.368 11.870 1.564 1036
6.370 11.874 1.525 844
6.431 11.988 1.498 691
6.425 11.978 1.457 457
6.602 12.308 1.452 517
6.604 12.311 1.412 548
6.606 12.314 1.371 396
1.320 2.461 0.037 291
1.320 2.461 0.029 348
1.320 2.461 0.021 404
1.320 2.460 0.013 460
1.032 1.923 0.035 495
1.032 1.923 0.029 725
1.031 1.923 0.023 955
1.031 1.923 0.017 1237
1.031 1.922 0.010 1519
1.031 1.922 0.004 1786
1.031 1.921 -0.002 2053
1.031 1.921 -0.008 2101
1.030 1.921 -0.014 2150
1.030 1.920 -0.021 2150
1.034 1.927 -0.027 2068
1.033 1.926 -0.034 1987
1.033 1.926 -0.040 1726
1.029 1.919 -0.045 1483
1.029 1.918 -0.052 1256
1.029 1.918 -0.058 1028
1.032 1.924 -0.065 791
1.032 1.923 -0.071 555
1.110 2.069 -0.094 587
1.106 2.061 -0.100 680
1.105 2.060 -0.107 680
1.105 2.060 -0.113 709
1.105 2.059 -0.120 738
1.104 2.059 -0.127 970
1.090 2.015 1.764 6205
1.092 2.019 1.757 12410
1.094 2.023 1.751 12410
1.100 2.033 1.749 11092
1.105 2.043 1.747 10055
1.104 2.041 1.736 8013
1.103 2.039 1.725 6380
1.106 2.043 1.718 6380
1.108 2.047 1.711 5583
1.113 2.057 1.709 4868
1.115 2.061 1.703 3886
1.152 2.129 1.745 3096
1.160 2.144 1.747 4230
1.165 2.154 1.744 5617
1.168 2.158 1.737 5090
1.195 2.209 1.765 5132
1.197 2.213 1.758 6440
1.196 2.211 1.746 7241
1.199 2.215 1.739 7977
1.217 2.249 1.753 7540
1.225 2.265 1.755 10160
1.234 2.281 1.756 9964
1.239 2.291 1.753 10462
1.241 2.295 1.745 7925
1.260 2.328 1.759 5695
1.278 2.362 1.772 6390
1.277 2.360 1.760 7583
1.282 2.370 1.757 6795
1.310 2.422 1.782 8018
1.316 2.432 1.778 9991
1.321 2.442 1.774 12066
1.320 2.441 1.762 11507
1.319 2.439 1.750 11025
1.318 2.437 1.738 10987
1.317 2.435 1.726 11169
1.326 2.451 1.726 10274
1.332 2.461 1.722 7852
1.334 2.465 1.714 5617
1.379 2.548 1.757 4174
1.374 2.540 1.741 5131
1.380 2.550 1.737 5979
1.382 2.554 1.728 6838
1.384 2.558 1.720 6930
1.386 2.562 1.712 6321
1.392 2.573 1.707 5687
1.430 2.644 1.740 5431
1.436 2.654 1.735 6467
1.438 2.658 1.727 5790
1.437 2.656 1.714 5207
1.436 2.654 1.702 5473
1.438 2.658 1.693 4987
1.444 2.668 1.688 4796
1.446 2.672 1.680 5125
1.448 2.676 1.671 5269
1.520 2.810 1.738 4601
1.526 2.821 1.732 4590
1.511 2.794 1.705 5611
1.510 2.791 1.692 5926
1.512 2.795 1.683 4958
1.514 2.799 1.674 4208
1.594 2.947 1.745 6085
1.597 2.951 1.735 8280
1.596 2.949 1.722 9870
1.594 2.947 1.709 11278
1.596 2.951 1.699 10584
1.599 2.955 1.690 10518
1.604 2.965 1.683 9167
1.651 3.051 1.717 7183
1.639 3.030 1.694 4883
1.683 3.110 1.723 3237
1.695 3.133 1.723 3068
1.656 3.061 1.674 3359
1.665 3.078 1.670 4465
1.674 3.094 1.666 4917
1.683 3.111 1.663 4762
1.727 3.191 1.690 3810
1.732 3.202 1.683 4820
1.734 3.206 1.673 4976
1.778 3.287 1.699 6400
1.780 3.291 1.688 5694
1.737 3.211 1.638 5437
1.743 3.221 1.631 6619
1.745 3.225 1.620 6064
1.743 3.222 1.606 4079
1.812 3.349 1.652 3570
1.880 3.476 1.697 3764
1.890 3.493 1.691 4390
1.899 3.509 1.686 5542
1.904 3.520 1.677 5086
1.921 3.550 1.677 5665
1.923 3.554 1.665 5286
1.928 3.564 1.657 4079
1.955 3.614 1.664 3585
2.003 3.702 1.689 5322
2.009 3.713 1.679 7174
2.014 3.723 1.670 4686
2.055 3.799 1.687 4926
2.054 3.797 1.672 6070
2.053 3.794 1.657 9570
2.055 3.798 1.645 11790
2.057 3.802 1.632 9774
2.059 3.806 1.620 5105
2.161 3.994 1.679 5121
2.170 4.011 1.671 8111
2.169 4.008 1.655 8112
2.171 4.012 1.642 6014
2.251 4.161 1.684 6582
2.250 4.159 1.668 6301
2.241 4.143 1.647 7464
2.243 4.147 1.633 10382
2.253 4.164 1.624 9562
2.258 4.174 1.613 7957
2.264 4.185 1.602 6774
2.270 4.195 1.590 4424
2.369 4.379 1.639 3648
2.371 4.382 1.624 5527
2.395 4.426 1.623 3857
2.408 4.450 1.616 3501
2.467 4.561 1.636 4003
2.470 4.565 1.621 5712
2.468 4.562 1.604 5895
2.474 4.572 1.591 4213
2.559 4.730 1.625 3989
2.565 4.741 1.612 6030
2.574 4.758 1.601 12417
2.583 4.775 1.589 10534
2.582 4.772 1.571 7088
2.580 4.769 1.554 10395
2.582 4.772 1.538 7698
2.595 4.796 1.528 6930
2.597 4.800 1.512 8953
2.599 4.803 1.497 6920
2.827 5.226 1.599 4633
2.833 5.236 1.584 4972
2.926 5.409 1.613 3785
3.027 5.596 1.645 3069
3.026 5.593 1.624 2950
3.028 5.597 1.606 3869
3.030 5.600 1.588 3673
3.149 5.821 1.625 3953
3.148 5.818 1.604 5940
3.150 5.822 1.585 5295
3.152 5.826 1.566 4355
3.158 5.836 1.548 4251
3.159 5.840 1.529 3705
3.475 6.423 1.647 2727
3.481 6.434 1.627 2998
3.486 6.444 1.608 3682
3.492 6.455 1.588 3967
3.498 6.465 1.568 3824
3.733 6.900 1.641 3505
3.735 6.903 1.619 4562
3.741 6.914 1.597 4721
3.780 6.986 1.589 3797
4.015 7.422 1.654 4431
4.017 7.425 1.630 6932
4.019 7.429 1.605 6343
4.018 7.426 1.580 4777
4.064 7.512 1.571 5871
4.066 7.516 1.546 6970
4.072 7.526 1.523 6566
4.070 7.523 1.496 5276
4.068 7.520 1.470 4606
4.077 7.537 1.448 3138
4.079 7.540 1.423 1514
5.095 9.417 1.713 1719
5.101 9.428 1.683 2377
5.106 9.439 1.653 2820
5.105 9.436 1.621 2194
5.424 10.026 1.680 1838
5.426 10.030 1.647 1961
5.428 10.034 1.614 1871
5.427 10.030 1.580 1302
5.488 10.145 1.562 1037
5.965 11.026 1.649 1156
5.967 11.030 1.613 1039
5.913 10.930 1.563 1016
6.271 11.591 1.610 994
6.269 11.588 1.571 950
6.410 11.847 1.564 893
6.277 11.602 1.495 788
6.474 11.965 1.498 719
6.569 12.142 1.478 522
6.650 12.291 1.453 550
6.652 12.294 1.413 566
6.650 12.291 1.371 401
1.329 2.457 0.045 266
1.329 2.456 0.037 325
1.329 2.456 0.029 383
1.329 2.456 0.021 427
1.329 2.456 0.013 471
1.328 2.455 0.005 508
1.038 1.919 0.029 583
1.038 1.919 0.023 775
1.038 1.919 0.017 1041
1.038 1.919 0.010 1308
1.038 1.918 0.004 1625
1.038 1.918 -0.002 1941
1.041 1.924 -0.009 2081
1.041 1.924 -0.015 2249
1.041 1.924 -0.021 2249
1.040 1.923 -0.027 2209
1.040 1.923 -0.034 2168
1.040 1.922 -0.040 1890
1.036 1.915 -0.045 1619
1.036 1.914 -0.052 1385
1.035 1.914 -0.058 1151
1.039 1.920 -0.065 917
1.039 1.920 -0.071 686
1.038 1.919 -0.077 686
1.038 1.919 -0.083 473
1.116 2.063 -0.107 399
1.116 2.063 -0.114 345
1.119 2.069 -0.122 291
1.119 2.068 -0.128 399
1.103 2.008 1.764 5878
1.105 2.012 1.757 11756
1.107 2.016 1.751 11756
1.113 2.026 1.749 10484
1.118 2.035 1.747 9545
1.120 2.040 1.740 7208
1.116 2.032 1.725 5219
1.118 2.036 1.718 5219
1.121 2.040 1.711 4759
1.123 2.044 1.705 4298
1.125 2.048 1.698 3739
1.127 2.052 1.691 3180
1.174 2.137 1.747 3941
1.179 2.147 1.744 5233
1.181 2.151 1.737 4904
1.212 2.207 1.769 5362
1.211 2.205 1.758 7031
1.210 2.204 1.746 7575
1.213 2.208 1.739 8096
1.228 2.235 1.749 8186
1.240 2.257 1.755 10409
1.245 2.267 1.752 9788
1.251 2.277 1.748 9922
1.256 2.287 1.745 7742
1.258 2.291 1.738 5584
1.293 2.354 1.772 6470
1.292 2.352 1.760 8221
1.297 2.362 1.757 7519
1.326 2.414 1.782 7911
1.331 2.424 1.778 9485
1.337 2.434 1.774 11343
1.336 2.432 1.762 10856
1.335 2.430 1.750 10607
1.334 2.429 1.738 10489
1.333 2.427 1.726 10559
1.342 2.443 1.726 9439
1.347 2.453 1.722 6728
1.349 2.457 1.714 4401
1.395 2.539 1.757 4651
1.394 2.537 1.745 5659
1.399 2.547 1.741 6229
1.401 2.552 1.732 6820
1.400 2.550 1.720 5978
1.403 2.554 1.712 4831
1.378 2.509 1.673 4727
1.447 2.635 1.740 5025
1.449 2.639 1.732 5839
1.452 2.643 1.723 5032
1.450 2.641 1.711 4900
1.453 2.645 1.702 5612
1.455 2.649 1.693 4802
1.454 2.647 1.681 4074
1.459 2.657 1.676 4080
1.465 2.667 1.671 4388
1.538 2.801 1.738 5040
1.540 2.805 1.728 5329
1.529 2.784 1.705 5820
1.528 2.782 1.692 6427
1.530 2.786 1.683 5713
1.532 2.790 1.674 4442
1.617 2.943 1.748 6010
1.619 2.947 1.739 8031
1.614 2.939 1.722 9426
1.613 2.937 1.709 11094
1.615 2.941 1.699 11344
1.617 2.945 1.690 12057
1.620 2.949 1.680 9917
1.663 3.028 1.710 8663
1.665 3.032 1.700 6446
1.678 3.055 1.700 5467
1.677 3.053 1.687 4253
1.675 3.050 1.674 3260
1.688 3.073 1.673 4323
1.694 3.084 1.666 4774
1.699 3.094 1.660 4379
1.743 3.174 1.687 3829
1.756 3.197 1.686 4717
1.762 3.207 1.679 4556
1.799 3.275 1.699 6341
1.801 3.279 1.688 5750
1.782 3.245 1.659 4752
1.781 3.242 1.646 5842
1.786 3.253 1.638 4741
1.891 3.443 1.714 2964
1.893 3.447 1.702 3448
1.902 3.464 1.697 4625
1.908 3.474 1.689 5046
1.921 3.497 1.686 6017
1.923 3.501 1.674 5952
1.939 3.531 1.674 6268
1.938 3.529 1.660 5880
1.937 3.526 1.645 4434
1.982 3.608 1.667 5212
1.991 3.625 1.661 6013
2.029 3.694 1.676 6601
1.999 3.639 1.640 5069
2.083 3.793 1.690 5862
2.082 3.790 1.675 6930
2.080 3.788 1.660 10107
2.079 3.785 1.645 10772
2.085 3.795 1.635 8009
2.090 3.806 1.625 4495
2.186 3.980 1.679 4956
2.195 3.997 1.671 7036
2.194 3.994 1.655 7171
2.196 3.998 1.642 5824
2.281 4.154 1.686 5954
2.294 4.177 1.680 6014
2.264 4.122 1.644 6926
2.273 4.139 1.635 9767
2.283 4.156 1.627 9931
2.288 4.166 1.615 9351
2.290 4.170 1.602 8239
2.296 4.180 1.590 5595
2.404 4.377 1.643 3647
2.399 4.367 1.624 4677
2.434 4.431 1.630 4949
2.436 4.435 1.616 4082
2.511 4.572 1.645 3471
2.498 4.549 1.621 5511
2.501 4.553 1.606 5668
2.506 4.563 1.594 3914
2.600 4.734 1.632 4880
2.595 4.724 1.612 5973
2.601 4.735 1.598 10206
2.603 4.738 1.583 8697
2.612 4.755 1.571 8183
2.614 4.759 1.556 11234
2.616 4.763 1.540 9049
2.625 4.780 1.528 8710
2.631 4.790 1.514 9332
2.633 4.793 1.498 6709
2.864 5.214 1.601 4573
2.866 5.218 1.584 4594
2.961 5.390 1.613 3014
3.059 5.570 1.643 3145
3.058 5.567 1.623 3781
3.063 5.577 1.606 4438
3.065 5.581 1.588 3976
3.186 5.801 1.625 3090
3.185 5.798 1.604 4493
3.187 5.802 1.585 3622
3.193 5.812 1.568 2841
3.195 5.816 1.548 3049
3.196 5.820 1.529 2900
3.445 6.272 1.616 2680
3.521 6.411 1.627 3236
3.527 6.422 1.608 4345
3.533 6.432 1.588 4384
3.539 6.443 1.568 3915
3.777 6.876 1.641 3553
3.775 6.873 1.617 4478
3.781 6.883 1.596 4695
3.786 6.894 1.574 3496
4.062 7.396 1.654 3463
4.064 7.400 1.630 5206
4.070 7.410 1.607 4696
4.114 7.489 1.597 4089
4.112 7.486 1.571 5144
4.114 7.490 1.546 5971
4.120 7.500 1.523 5423
4.118 7.497 1.496 4205
4.116 7.494 1.470 3678
4.121 7.504 1.447 2375
4.881 8.886 1.659 1259
5.158 9.391 1.714 1307
5.164 9.402 1.684 2261
5.166 9.406 1.653 2790
5.165 9.403 1.621 2118
5.488 9.991 1.680 1996
5.490 9.995 1.647 2053
5.492 9.999 1.614 1949
5.490 9.996 1.580 1364
5.659 10.302 1.589 1023
6.039 10.995 1.650 1165
6.037 10.992 1.613 1076
5.986 10.899 1.564 992
6.344 11.551 1.610 991
6.343 11.548 1.571 992
6.345 11.551 1.533 904
6.354 11.569 1.496 853
6.549 11.924 1.498 715
6.646 12.100 1.478 539
6.731 12.256 1.454 514
6.733 12.259 1.413 546
6.731 12.255 1.372 388
1.348 2.454 0.021 271
1.348 2.454 0.013 334
1.344 2.447 0.005 379
1.344 2.446 -0.003 426
1.050 1.913 0.023 449
1.050 1.912 0.017 641
1.050 1.912 0.010 834
1.054 1.918 0.004 1133
1.054 1.918 -0.003 1433
1.053 1.918 -0.009 1664
1.053 1.917 -0.015 1895
1.053 1.917 -0.021 1895
1.053 1.917 -0.027 1914
1.056 1.923 -0.034 1943
1.052 1.916 -0.040 1712
1.052 1.915 -0.046 1492
1.052 1.915 -0.052 1269
1.051 1.914 -0.059 1047
1.051 1.914 -0.065 843
1.051 1.913 -0.071 639
1.051 1.913 -0.077 639
1.050 1.912 -0.083 457
1.133 2.063 -0.108 344
1.133 2.063 -0.115 278
1.140 2.075 -0.130 291
1.108 2.005 1.764 5140
1.111 2.009 1.757 10281
1.113 2.013 1.751 10281
1.118 2.023 1.749 9229
1.124 2.032 1.747 8555
1.126 2.036 1.740 6253
1.169 2.114 1.793 4680
1.171 2.118 1.786 4680
1.171 2.117 1.774 4309
1.170 2.115 1.763 4099
1.172 2.120 1.756 3605
1.133 2.049 1.691 3262
1.180 2.134 1.747 4125
1.182 2.138 1.740 5209
1.187 2.147 1.737 4723
1.218 2.204 1.769 5507
1.217 2.202 1.758 7487
1.220 2.206 1.751 7825
1.222 2.210 1.744 8156
1.234 2.232 1.749 8847
1.243 2.247 1.750 10950
1.251 2.263 1.752 9655
1.257 2.273 1.748 9314
1.259 2.277 1.741 7253
1.265 2.287 1.738 5240
1.299 2.350 1.772 6299
1.299 2.348 1.760 8408
1.301 2.353 1.753 8020
1.306 2.363 1.749 7669
1.338 2.420 1.778 8632
1.344 2.430 1.774 10232
1.346 2.434 1.766 10009
1.345 2.433 1.754 10014
1.341 2.425 1.738 9699
1.340 2.423 1.726 9540
1.349 2.439 1.726 8538
1.354 2.449 1.722 5904
1.403 2.537 1.769 3962
1.402 2.535 1.757 5275
1.404 2.539 1.749 6511
1.406 2.543 1.741 6556
1.412 2.554 1.736 6718
1.414 2.558 1.728 5185
1.443 2.610 1.750 3925
1.388 2.511 1.677 3959
1.455 2.631 1.740 4462
1.457 2.635 1.732 5182
1.456 2.633 1.719 4560
1.455 2.631 1.707 4811
1.460 2.641 1.702 5590
1.459 2.639 1.690 4698
1.502 2.716 1.725 4246
1.494 2.702 1.705 4117
1.537 2.780 1.740 3980
1.543 2.790 1.734 5561
1.548 2.800 1.728 6034
1.537 2.780 1.705 5936
1.536 2.777 1.692 6692
1.541 2.788 1.687 6254
1.543 2.791 1.678 4765
1.625 2.939 1.748 5705
1.631 2.949 1.742 7485
1.626 2.941 1.726 8586
1.621 2.932 1.709 10595
1.623 2.936 1.699 11770
1.626 2.940 1.690 13041
1.628 2.944 1.680 10085
1.672 3.023 1.710 10051
1.677 3.034 1.704 8270
1.687 3.050 1.700 7785
1.685 3.048 1.687 5838
1.722 3.115 1.709 3996
1.700 3.075 1.677 4117
1.706 3.085 1.670 4179
1.750 3.165 1.698 4389
1.752 3.169 1.687 4860
1.762 3.186 1.683 4643
1.774 3.209 1.682 4316
1.805 3.264 1.696 5799
1.814 3.281 1.691 5402
1.820 3.291 1.684 4440
1.793 3.244 1.649 5208
1.852 3.350 1.686 4642
1.936 3.502 1.744 3310
1.903 3.441 1.702 3900
1.916 3.465 1.700 4989
1.918 3.469 1.689 5705
1.920 3.473 1.677 7111
1.929 3.489 1.671 6959
1.946 3.519 1.671 6310
1.944 3.517 1.657 6080
1.947 3.520 1.645 4801
1.995 3.609 1.670 6291
2.001 3.619 1.661 7103
2.010 3.636 1.654 6817
2.012 3.640 1.642 5302
2.094 3.787 1.690 6351
2.092 3.784 1.675 7331
2.091 3.782 1.660 9899
2.093 3.786 1.647 9235
2.099 3.796 1.637 6223
2.105 3.806 1.627 3897
2.186 3.954 1.671 4531
2.207 3.991 1.671 5457
2.212 4.001 1.660 5915
2.215 4.005 1.647 5596
2.257 4.081 1.661 5555
2.303 4.164 1.677 6073
2.279 4.122 1.647 6205
2.285 4.133 1.635 8090
2.294 4.150 1.627 9375
2.300 4.160 1.615 9868
2.302 4.164 1.602 8943
2.308 4.174 1.590 6299
2.438 4.410 1.657 4501
2.444 4.420 1.645 5535
2.446 4.424 1.630 6033
2.445 4.421 1.613 4635
2.447 4.425 1.599 4174
2.519 4.555 1.626 4866
2.524 4.566 1.613 4834
2.552 4.616 1.613 4078
2.613 4.726 1.632 5304
2.608 4.717 1.612 5578
2.606 4.714 1.594 7818
2.605 4.711 1.577 7488
2.625 4.748 1.571 9130
2.627 4.752 1.556 13149
2.633 4.762 1.542 12045
2.639 4.772 1.528 10292
2.648 4.789 1.516 8027
2.650 4.793 1.500 5939
2.882 5.213 1.603 4008
2.881 5.210 1.584 3820
2.942 5.322 1.596 3053
3.067 5.548 1.639 2975
3.066 5.545 1.619 4235
3.075 5.562 1.604 4477
3.081 5.572 1.588 3919
3.199 5.786 1.623 2503
3.205 5.796 1.606 3225
3.211 5.807 1.588 2230
3.295 5.959 1.606 1824
3.290 5.949 1.583 2551
3.209 5.804 1.527 2163
3.462 6.262 1.616 2423
3.543 6.408 1.629 3238
3.545 6.412 1.608 4290
3.547 6.416 1.586 3909
3.561 6.440 1.570 3354
3.792 6.858 1.640 3087
3.794 6.862 1.617 4003
3.800 6.873 1.596 4420
3.806 6.883 1.574 3158
4.083 7.385 1.654 2466
4.089 7.395 1.631 3238
4.095 7.406 1.608 2814
4.135 7.478 1.597 3499
4.133 7.475 1.571 4262
4.135 7.478 1.546 4707
4.141 7.489 1.523 3993
4.143 7.492 1.498 2892
4.137 7.482 1.470 2501
4.143 7.492 1.447 1579
4.906 8.872 1.659 1404
5.200 9.404 1.719 1109
5.191 9.388 1.684 2163
5.193 9.391 1.653 2736
5.191 9.388 1.621 1999
5.520 9.983 1.681 1883
5.518 9.980 1.647 1894
5.520 9.983 1.614 1851
5.522 9.987 1.581 1359
5.680 10.273 1.587 1021
6.070 10.978 1.650 1087
6.068 10.975 1.613 1017
6.017 10.882 1.564 1001
6.377 11.533 1.610 955
6.375 11.530 1.571 1005
6.377 11.533 1.533 959
6.387 11.551 1.496 894
6.388 11.554 1.458 700
6.676 12.075 1.477 486
6.770 12.243 1.455 485
6.772 12.247 1.414 533
6.773 12.250 1.373 380
1.351 2.444 0.037 262
1.351 2.444 0.029 281
1.351 2.444 0.021 261
1.060 1.917 0.029 311
1.060 1.916 0.022 416
1.056 1.909 0.017 545
1.055 1.909 0.010 677
1.055 1.909 0.004 867
1.055 1.908 -0.002 1057
1.059 1.915 -0.009 1272
1.059 1.914 -0.015 1505
1.058 1.914 -0.021 1505
1.062 1.920 -0.028 1611
1.062 1.920 -0.034 1707
1.058 1.913 -0.040 1509
1.057 1.912 -0.046 1338
1.057 1.912 -0.052 1094
1.053 1.904 -0.058 852
1.056 1.911 -0.065 655
1.056 1.910 -0.071 460
1.056 1.910 -0.077 460
1.056 1.909 -0.083 324
1.118 2.006 1.769 4128
1.120 2.011 1.762 8257
1.123 2.015 1.756 8257
1.128 2.024 1.754 7626
1.133 2.034 1.752 7432
1.136 2.038 1.745 5331
1.176 2.110 1.793 4611
1.178 2.115 1.786 4611
1.177 2.113 1.774 4577
1.177 2.112 1.763 4647
1.182 2.121 1.761 3880
1.140 2.045 1.691 3217
1.187 2.130 1.747 3872
1.189 2.134 1.740 4575
1.194 2.144 1.737 4302
1.226 2.200 1.769 5485
1.225 2.198 1.758 7689
1.227 2.202 1.751 8003
1.229 2.206 1.744 8298
1.238 2.222 1.745 9079
1.247 2.238 1.746 10811
1.252 2.248 1.743 8820
1.261 2.263 1.744 7488
1.267 2.273 1.741 6048
1.269 2.277 1.734 4650
1.307 2.346 1.772 5978
1.306 2.344 1.760 8089
1.309 2.348 1.753 8102
1.311 2.352 1.745 8116
1.346 2.416 1.778 7623
1.352 2.426 1.774 9091
1.351 2.424 1.762 9193
1.353 2.428 1.754 9434
1.352 2.426 1.742 8745
1.351 2.424 1.730 8142
1.360 2.440 1.730 7724
1.365 2.450 1.726 5498
1.411 2.533 1.769 4543
1.413 2.537 1.761 5822
1.416 2.541 1.753 6825
1.418 2.545 1.744 6411
1.424 2.555 1.740 6034
1.429 2.565 1.735 4560
1.448 2.600 1.746 3451
1.400 2.513 1.681 3413
1.463 2.626 1.740 3881
1.462 2.624 1.728 4586
1.451 2.604 1.704 4346
1.463 2.626 1.707 4764
1.465 2.630 1.698 5403
1.464 2.628 1.686 4491
1.511 2.711 1.725 4372
1.516 2.722 1.720 4151
1.546 2.775 1.740 4236
1.552 2.785 1.734 5979
1.558 2.795 1.728 6468
1.556 2.793 1.716 5976
1.545 2.772 1.692 6459
1.550 2.783 1.687 6404
1.553 2.786 1.678 4959
1.638 2.940 1.752 5466
1.644 2.950 1.745 7010
1.642 2.948 1.732 7904
1.631 2.927 1.709 9834
1.633 2.931 1.699 11683
1.639 2.941 1.693 13207
1.637 2.939 1.680 9566
1.682 3.018 1.710 10972
1.691 3.035 1.707 9911
1.697 3.045 1.700 9320
1.695 3.042 1.687 7094
1.733 3.110 1.709 5144
1.738 3.120 1.702 4821
1.755 3.149 1.705 5410
1.757 3.153 1.694 6469
1.759 3.157 1.684 6515
1.765 3.167 1.677 5345
1.785 3.203 1.682 4181
1.815 3.258 1.696 4876
1.825 3.275 1.691 4665
1.841 3.304 1.693 4311
1.843 3.308 1.682 4835
1.860 3.338 1.683 5021
1.869 3.354 1.678 4013
1.910 3.429 1.700 4333
1.927 3.458 1.700 5116
1.929 3.462 1.689 6252
1.928 3.460 1.674 8383
1.937 3.477 1.669 7633
1.957 3.513 1.671 6084
1.956 3.510 1.657 5785
2.016 3.618 1.690 5410
2.011 3.609 1.673 6631
2.013 3.612 1.661 7042
2.022 3.629 1.654 6378
2.028 3.640 1.645 4894
2.106 3.780 1.690 6229
2.101 3.771 1.672 7277
2.103 3.775 1.660 8691
2.105 3.779 1.647 7199
2.115 3.796 1.640 4789
2.121 3.806 1.630 3246
2.196 3.940 1.669 3705
2.220 3.984 1.671 3973
2.244 4.027 1.673 4948
2.253 4.044 1.665 5614
2.270 4.074 1.661 5958
2.316 4.157 1.677 5724
2.300 4.128 1.651 5027
2.298 4.125 1.635 5846
2.308 4.142 1.627 8002
2.314 4.152 1.615 9219
2.319 4.163 1.604 8421
2.322 4.166 1.590 6010
2.449 4.395 1.655 5259
2.458 4.412 1.645 6201
2.461 4.416 1.630 6271
2.459 4.413 1.613 4679
2.461 4.417 1.599 4475
2.545 4.567 1.632 4414
2.554 4.584 1.622 5467
2.560 4.594 1.609 4871
2.629 4.718 1.632 5052
2.620 4.702 1.610 5437
2.618 4.699 1.592 6242
2.620 4.702 1.577 6338
2.645 4.746 1.573 9851
2.650 4.756 1.560 14183
2.652 4.760 1.544 15098
2.654 4.764 1.528 11149
2.667 4.787 1.518 6030
2.666 4.784 1.500 4953
2.903 5.210 1.605 3220
2.958 5.308 1.614 3576
2.956 5.305 1.594 4149
2.936 5.268 1.566 3105
3.084 5.535 1.619 4154
3.093 5.552 1.604 4009
3.099 5.562 1.588 3368
3.214 5.768 1.622 2218
3.227 5.792 1.608 2703
3.335 5.985 1.636 2232
3.401 6.104 1.645 2218
3.396 6.094 1.621 2892
3.401 6.105 1.603 2490
3.411 6.122 1.586 2239
3.560 6.390 1.627 2883
3.566 6.400 1.608 3659
3.568 6.404 1.586 3037
3.585 6.435 1.571 2528
3.603 6.466 1.556 2584
3.817 6.850 1.617 3234
3.823 6.860 1.596 3889
3.828 6.871 1.574 2502
4.103 7.364 1.653 1709
4.102 7.361 1.627 1691
4.157 7.461 1.622 1967
4.163 7.471 1.598 2624
4.157 7.461 1.571 3212
4.159 7.465 1.546 3344
4.165 7.475 1.523 2512
4.171 7.485 1.499 1675
4.161 7.468 1.470 1400
4.929 8.846 1.687 1545
4.935 8.856 1.659 1482
5.124 9.195 1.686 1382
5.221 9.370 1.684 1965
5.223 9.374 1.653 2568
5.222 9.371 1.621 1808
5.552 9.964 1.681 1757
5.550 9.961 1.647 1755
5.553 9.965 1.614 1722
5.555 9.969 1.581 1309
5.710 10.247 1.586 1070
5.708 10.244 1.551 965
5.802 10.412 1.540 925
6.056 10.869 1.565 929
6.414 11.512 1.610 932
6.413 11.509 1.571 983
6.415 11.512 1.533 957
6.424 11.530 1.496 888
6.426 11.533 1.458 721
6.417 11.516 1.417 491
6.733 12.084 1.440 437
6.815 12.231 1.415 454
6.817 12.235 1.374 336
1.359 2.440 0.037 250
1.359 2.439 0.029 273
1.359 2.439 0.021 317
1.359 2.439 0.013 362
1.359 2.439 0.005 390
1.355 2.431 -0.002 421
1.158 2.079 0.012 440
1.158 2.078 0.005 533
1.158 2.078 -0.002 626
1.158 2.078 -0.008 691
1.157 2.077 -0.015 756
1.157 2.077 -0.022 766
1.157 2.076 -0.029 776
1.065 1.911 -0.021 734
1.064 1.910 -0.027 649
1.064 1.910 -0.034 565
1.064 1.909 -0.040 573
1.064 1.909 -0.046 581
1.067 1.915 -0.053 608
1.067 1.915 -0.059 636
1.067 1.914 -0.066 509
1.066 1.914 -0.072 382
1.066 1.913 -0.078 382
1.126 2.002 1.769 2989
1.128 2.006 1.762 5978
1.131 2.010 1.756 5978
1.139 2.026 1.758 6116
1.145 2.035 1.756 6632
1.144 2.034 1.745 4945
1.184 2.106 1.793 4654
1.187 2.110 1.786 4654
1.186 2.108 1.774 4973
1.185 2.107 1.763 5358
1.191 2.117 1.761 4355
1.196 2.127 1.758 3495
1.198 2.131 1.751 3482
1.239 2.203 1.797 3830
1.242 2.208 1.790 3830
1.238 2.200 1.774 5486
1.233 2.193 1.758 7890
1.236 2.197 1.751 8167
1.238 2.201 1.744 8420
1.247 2.217 1.745 9032
1.252 2.227 1.742 10308
1.258 2.237 1.739 8077
1.260 2.241 1.731 5968
1.269 2.256 1.733 5316
1.278 2.272 1.734 5004
1.313 2.335 1.768 5572
1.316 2.339 1.760 7465
1.318 2.343 1.753 7716
1.320 2.347 1.745 7967
1.356 2.410 1.778 6673
1.358 2.414 1.770 8293
1.360 2.419 1.762 8657
1.363 2.423 1.754 9021
1.365 2.427 1.746 7851
1.364 2.425 1.734 6691
1.373 2.441 1.734 6816
1.379 2.451 1.730 5246
1.421 2.527 1.769 5454
1.424 2.531 1.761 6268
1.429 2.541 1.757 6797
1.432 2.545 1.748 5902
1.437 2.555 1.744 5031
1.440 2.559 1.735 4222
1.455 2.588 1.742 3131
1.475 2.622 1.753 2791
1.467 2.608 1.733 3529
1.466 2.606 1.720 4282
1.461 2.598 1.704 4274
1.470 2.614 1.703 4450
1.476 2.624 1.698 4867
1.475 2.622 1.686 3992
1.525 2.711 1.729 4228
1.527 2.715 1.720 4074
1.557 2.769 1.740 4273
