3.759 9.494 -0.299 471
3.747 9.463 -0.327 577
3.749 9.470 -0.357 881
3.749 9.468 -0.387 1201
3.745 9.459 -0.416 1455
3.745 9.458 -0.446 1735
3.744 9.456 -0.475 1910
3.743 9.454 -0.505 2084
3.745 9.460 -0.535 1765
3.745 9.458 -0.564 1479
3.744 9.456 -0.594 1479
3.743 9.454 -0.623 1007
3.742 9.452 -0.653 534
3.730 9.420 -0.680 518
3.726 9.411 -0.709 563
3.725 9.409 -0.738 620
3.721 9.399 -0.767 681
3.720 9.396 -0.796 681
3.722 9.401 -0.826 609
3.727 9.413 -0.857 562
3.729 9.418 -0.887 469
3.728 9.415 -0.917 391
0.739 1.867 -0.071 334
0.739 1.866 -0.077 383
0.739 1.865 -0.082 432
0.738 1.865 -0.088 557
0.854 2.132 1.769 2345
0.855 2.137 1.762 4691
0.857 2.141 1.756 4691
0.859 2.146 1.749 6082
0.861 2.150 1.742 7472
0.860 2.148 1.731 7260
0.862 2.153 1.725 7212
0.863 2.157 1.718 7212
0.867 2.167 1.716 7493
0.872 2.178 1.714 8067
0.902 2.255 1.761 7119
0.899 2.247 1.745 6421
0.906 2.263 1.747 5866
0.910 2.274 1.744 5452
0.912 2.278 1.737 4688
0.916 2.289 1.735 4152
0.920 2.299 1.732 4540
0.929 2.322 1.738 4872
0.931 2.326 1.731 5304
0.943 2.355 1.741 5843
0.947 2.366 1.738 7589
0.951 2.376 1.735 7564
0.958 2.393 1.736 7885
0.957 2.391 1.724 6878
0.959 2.395 1.717 5871
0.988 2.468 1.755 7045
0.990 2.473 1.748 9310
0.994 2.483 1.744 8696
0.996 2.488 1.737 8242
0.997 2.492 1.729 7497
1.002 2.503 1.725 7002
1.008 2.519 1.726 4933
1.020 2.549 1.734 3531
1.032 2.579 1.742 4139
1.036 2.589 1.738 5609
1.036 2.587 1.726 6992
1.040 2.598 1.722 7833
1.054 2.634 1.734 11045
1.059 2.645 1.730 12632
1.063 2.656 1.726 14342
1.065 2.660 1.717 11050
1.066 2.664 1.709 7758
1.068 2.668 1.701 5880
1.095 2.737 1.731 7173
1.095 2.735 1.719 8985
1.102 2.752 1.718 7591
1.108 2.769 1.717 7057
1.108 2.767 1.704 7527
1.112 2.778 1.700 9463
1.113 2.782 1.691 11001
1.115 2.786 1.682 9281
1.122 2.803 1.681 7593
1.126 2.814 1.676 7842
1.128 2.818 1.667 6917
1.200 2.999 1.756 6202
1.205 3.010 1.750 6502
1.199 2.995 1.730 9351
1.200 2.999 1.721 12024
1.205 3.010 1.715 11962
1.212 3.027 1.713 11277
1.213 3.032 1.703 9875
1.212 3.029 1.690 8880
1.214 3.033 1.681 7274
1.245 3.111 1.709 7379
1.239 3.095 1.689 10956
1.240 3.099 1.680 12975
1.242 3.103 1.670 12987
1.246 3.114 1.664 9529
1.307 3.265 1.727 6699
1.309 3.269 1.717 7667
1.310 3.274 1.707 7789
1.317 3.291 1.703 7139
1.324 3.309 1.699 6229
1.326 3.313 1.689 5709
1.328 3.317 1.679 6258
1.327 3.315 1.665 8559
1.326 3.312 1.652 9927
1.327 3.316 1.641 6178
1.386 3.462 1.696 5714
1.393 3.480 1.691 7049
1.397 3.491 1.684 7319
1.399 3.495 1.673 7486
1.406 3.513 1.668 6757
1.419 3.544 1.669 6990
1.415 3.535 1.652 4927
1.419 3.546 1.644 2697
1.443 3.605 1.656 3093
1.466 3.663 1.668 4463
1.462 3.654 1.651 6654
1.456 3.637 1.631 7966
1.457 3.641 1.620 6975
1.473 3.680 1.623 6062
1.455 3.636 1.592 5815
1.454 3.633 1.578 5492
1.456 3.637 1.567 4541
1.532 3.827 1.629 4039
1.533 3.831 1.617 5115
1.571 3.925 1.640 7990
1.572 3.929 1.628 10634
1.569 3.919 1.610 11428
1.567 3.916 1.595 11064
1.577 3.941 1.591 14115
1.579 3.945 1.579 17690
1.583 3.955 1.569 14451
1.585 3.959 1.557 8011
1.706 4.263 1.652 6946
1.719 4.295 1.649 6307
1.726 4.313 1.641 4943
1.778 4.443 1.671 5043
1.763 4.405 1.643 5148
1.762 4.402 1.627 4666
1.769 4.420 1.618 3580
1.793 4.480 1.623 5739
1.795 4.484 1.609 6364
1.799 4.495 1.597 4891
1.804 4.506 1.585 4268
1.808 4.517 1.574 2961
1.920 4.796 1.647 2427
1.921 4.800 1.632 2459
1.906 4.762 1.604 1812
1.961 4.900 1.630 1823
1.963 4.904 1.615 2222
1.979 4.943 1.610 2194
1.980 4.947 1.595 2995
1.979 4.944 1.578 3740
2.046 5.111 1.610 3053
1.965 4.909 1.535 2399
2.072 5.176 1.594 3461
2.070 5.173 1.576 4476
2.063 5.155 1.554 4926
2.068 5.166 1.540 5220
2.189 5.469 1.605 3268
2.188 5.466 1.586 4390
2.198 5.492 1.574 3686
2.214 5.531 1.566 3683
2.218 5.542 1.551 2643
2.291 5.725 1.579 3375
2.290 5.721 1.559 3993
2.286 5.711 1.538 4596
2.287 5.715 1.520 4020
2.384 5.955 1.559 2808
2.460 6.146 1.585 3339
2.387 5.963 1.522 3784
2.388 5.966 1.504 3707
2.464 6.157 1.527 2743
2.472 6.175 1.511 2645
2.632 6.575 1.580 2466
2.725 6.809 1.609 2616
2.742 6.849 1.596 2921
2.755 6.882 1.580 3494
2.759 6.893 1.560 2292
2.836 7.085 1.577 2378
2.860 7.146 1.567 2333
2.908 7.266 1.567 2578
2.910 7.270 1.545 2987
3.024 7.556 1.576 3518
3.023 7.552 1.551 3456
2.923 7.303 1.480 2820
2.927 7.314 1.459 2435
3.393 8.477 1.643 2861
3.395 8.481 1.617 3549
3.393 8.478 1.589 2421
3.392 8.475 1.561 2393
3.399 8.493 1.537 2856
3.410 8.519 1.514 2413
3.411 8.522 1.487 2126
3.413 8.526 1.461 2167
3.411 8.522 1.433 1901
3.401 8.496 1.402 1796
3.402 8.500 1.375 1417
3.610 9.020 1.423 923
4.099 10.241 1.565 876
4.153 10.376 1.551 888
4.712 11.773 1.704 949
4.714 11.777 1.667 1152
4.716 11.781 1.630 1188
4.758 11.888 1.606 1328
4.774 11.928 1.573 1582
4.776 11.932 1.536 1472
4.780 11.943 1.499 1303
4.843 12.100 1.479 908
4.821 12.045 1.435 746
4.814 12.027 1.395 787
4.815 12.030 1.357 629
4.816 12.033 1.320 472
4.844 12.102 1.288 308
0.427 1.066 0.140 250
1.027 2.565 0.125 309
1.027 2.565 0.118 469
1.027 2.565 0.110 660
1.027 2.565 0.102 851
1.027 2.565 0.094 953
1.027 2.565 0.086 1054
1.029 2.572 0.078 1097
1.029 2.572 0.070 1153
1.029 2.572 0.062 1170
1.026 2.564 0.054 1083
1.026 2.564 0.046 988
1.026 2.564 0.038 804
1.029 2.571 0.030 620
1.029 2.570 0.022 532
3.782 9.449 -0.327 542
3.782 9.448 -0.357 852
3.781 9.447 -0.386 1161
3.783 9.453 -0.416 1474
3.783 9.451 -0.446 1792
3.779 9.442 -0.475 1979
3.779 9.440 -0.505 2172
3.778 9.439 -0.534 1819
3.780 9.444 -0.564 1485
3.779 9.442 -0.594 1485
3.778 9.440 -0.623 996
3.778 9.438 -0.653 507
3.765 9.406 -0.680 601
3.761 9.397 -0.709 717
3.760 9.395 -0.738 755
3.759 9.392 -0.767 793
3.758 9.390 -0.797 793
3.757 9.387 -0.826 668
3.759 9.392 -0.856 553
3.764 9.404 -0.887 474
3.766 9.408 -0.917 411
0.746 1.863 -0.077 258
0.746 1.863 -0.082 297
0.745 1.862 -0.088 400
0.863 2.136 1.773 2090
0.865 2.140 1.767 4181
0.867 2.144 1.760 4181
0.868 2.149 1.754 5535
0.868 2.147 1.742 6938
0.869 2.151 1.736 6711
0.866 2.144 1.720 6789
0.868 2.148 1.713 6789
0.877 2.170 1.720 7194
0.908 2.247 1.768 8415
0.907 2.246 1.756 7770
0.907 2.244 1.745 7251
0.911 2.254 1.742 6979
0.915 2.265 1.740 6835
0.919 2.275 1.737 5805
0.921 2.279 1.730 4976
0.925 2.290 1.727 5287
0.937 2.319 1.738 5563
0.939 2.323 1.731 6048
0.950 2.352 1.741 6132
0.955 2.363 1.738 7602
0.959 2.373 1.735 7615
0.966 2.390 1.736 8059
0.965 2.388 1.724 6699
0.974 2.411 1.729 5456
0.999 2.471 1.760 7004
1.000 2.476 1.752 9418
1.002 2.480 1.744 9508
1.004 2.484 1.737 9597
1.008 2.495 1.733 9067
1.010 2.499 1.725 8797
1.017 2.516 1.726 6302
1.029 2.546 1.734 5277
1.033 2.556 1.730 4939
1.042 2.580 1.734 5611
1.044 2.584 1.726 7076
1.056 2.614 1.734 8192
1.063 2.631 1.734 11405
1.067 2.641 1.730 12300
1.072 2.652 1.726 13519
1.073 2.656 1.717 10067
1.075 2.661 1.709 6614
1.087 2.690 1.716 4809
1.102 2.727 1.727 6417
1.104 2.731 1.719 7717
1.103 2.729 1.706 6545
1.118 2.766 1.717 5942
1.117 2.763 1.704 6574
1.118 2.768 1.696 8210
1.120 2.772 1.687 9173
1.124 2.782 1.682 8040
1.131 2.800 1.681 7421
1.138 2.817 1.680 8433
1.137 2.814 1.667 7024
1.210 2.995 1.756 5846
1.217 3.013 1.753 6534
1.211 2.997 1.733 9227
1.213 3.002 1.724 11592
1.215 3.006 1.715 11515
1.222 3.023 1.713 11001
1.223 3.028 1.703 9755
1.220 3.019 1.687 9113
1.224 3.029 1.681 7743
1.255 3.106 1.709 7918
1.249 3.091 1.689 11274
1.248 3.088 1.676 13634
1.252 3.099 1.670 13831
1.257 3.110 1.664 10539
1.318 3.261 1.727 4806
1.317 3.258 1.713 6011
1.321 3.269 1.707 6009
1.328 3.287 1.703 5533
1.335 3.305 1.699 5052
1.334 3.302 1.686 5088
1.336 3.306 1.675 5936
1.335 3.304 1.662 8025
1.337 3.308 1.652 9208
1.338 3.312 1.641 5814
1.400 3.465 1.699 5416
1.402 3.469 1.688 6621
1.406 3.480 1.681 6639
1.411 3.491 1.673 7225
1.415 3.502 1.665 6564
1.430 3.540 1.669 5226
1.424 3.523 1.649 3053
1.469 3.637 1.685 2660
1.466 3.627 1.668 3687
1.470 3.638 1.660 5285
1.480 3.663 1.657 7226
1.471 3.639 1.634 7596
1.483 3.671 1.634 7365
1.485 3.675 1.623 8086
1.467 3.631 1.592 7164
1.466 3.628 1.578 6297
1.468 3.632 1.567 5030
1.472 3.642 1.558 4538
1.574 3.895 1.644 5416
1.581 3.913 1.637 7654
1.583 3.917 1.625 10018
1.581 3.914 1.610 12363
1.580 3.911 1.595 10304
1.587 3.929 1.589 10887
1.592 3.939 1.579 15030
1.593 3.943 1.567 12196
1.713 4.239 1.660 6084
1.717 4.250 1.650 6518
1.716 4.247 1.634 5725
1.715 4.244 1.618 5412
1.720 4.255 1.608 4789
1.772 4.385 1.638 4620
1.774 4.389 1.624 4684
1.778 4.400 1.613 3168
1.802 4.460 1.618 3904
1.807 4.471 1.606 4113
1.814 4.489 1.597 3229
1.818 4.500 1.585 3253
1.823 4.511 1.574 2320
1.935 4.790 1.647 2481
1.946 4.815 1.639 2128
1.913 4.734 1.597 1542
1.946 4.816 1.606 1946
1.979 4.897 1.615 2097
1.946 4.817 1.574 2055
1.956 4.842 1.566 2750
1.995 4.938 1.578 3235
2.002 4.956 1.566 3389
2.087 5.165 1.610 3483
2.089 5.169 1.594 5064
2.087 5.166 1.576 5354
2.080 5.148 1.554 4637
2.088 5.166 1.542 4129
2.210 5.469 1.606 3734
2.209 5.466 1.587 4623
2.216 5.484 1.574 3959
2.232 5.524 1.566 3622
2.236 5.535 1.551 2787
2.304 5.703 1.575 2768
2.306 5.707 1.558 4330
2.305 5.703 1.538 6314
2.306 5.707 1.520 5081
2.418 5.983 1.568 3602
2.480 6.137 1.585 4440
2.479 6.134 1.564 4497
2.411 5.966 1.505 3867
2.482 6.142 1.526 3772
2.489 6.160 1.510 3466
2.502 6.192 1.497 2879
2.745 6.793 1.608 3600
2.752 6.812 1.590 3170
2.777 6.873 1.580 3224
2.878 7.122 1.610 2324
2.877 7.119 1.586 3081
2.884 7.137 1.567 3013
2.935 7.264 1.569 2944
2.937 7.267 1.546 3162
2.944 7.286 1.526 2822
2.945 7.289 1.503 3200
2.947 7.293 1.480 3259
2.951 7.304 1.459 2808
3.421 8.466 1.643 2651
3.420 8.463 1.615 3368
3.421 8.467 1.589 2496
3.414 8.449 1.559 3103
3.416 8.453 1.532 3534
3.438 8.507 1.514 2380
3.439 8.511 1.487 2104
3.438 8.507 1.460 2282
3.436 8.504 1.432 2218
3.426 8.478 1.401 2441
3.427 8.481 1.374 1915
3.434 8.499 1.350 830
3.939 9.747 1.498 603
3.940 9.751 1.467 647
4.751 11.758 1.704 892
4.753 11.762 1.667 1081
4.754 11.766 1.630 1072
4.827 11.945 1.615 1223
4.816 11.920 1.574 1260
4.815 11.916 1.536 1190
4.878 12.073 1.516 1088
4.880 12.077 1.478 1049
4.887 12.095 1.442 738
4.906 12.142 1.409 684
4.855 12.014 1.357 520
4.856 12.017 1.320 395
5.300 13.117 1.386 279
1.038 2.569 0.110 275
1.038 2.569 0.102 374
1.038 2.569 0.094 494
1.038 2.569 0.086 614
1.038 2.569 0.078 680
1.041 2.576 0.070 748
1.041 2.576 0.062 775
1.041 2.575 0.054 821
1.041 2.575 0.046 841
1.040 2.575 0.038 869
1.040 2.575 0.030 896
1.040 2.574 0.022 892
1.037 2.567 0.014 891
1.037 2.566 0.007 832
3.812 9.434 -0.386 1020
3.815 9.440 -0.416 1369
3.814 9.439 -0.446 1721
3.810 9.430 -0.475 1814
3.810 9.428 -0.505 1922
3.809 9.426 -0.534 1540
3.811 9.432 -0.564 1168
3.810 9.430 -0.594 1168
3.809 9.428 -0.623 796
3.797 9.396 -0.650 493
3.793 9.387 -0.679 639
3.789 9.377 -0.708 813
3.788 9.375 -0.737 857
3.787 9.372 -0.767 900
3.786 9.370 -0.796 900
3.785 9.367 -0.825 713
0.759 1.878 -0.055 543
0.759 1.877 -0.061 614
0.755 1.869 -0.066 471
1.392 3.445 -0.255 359
1.392 3.444 -0.266 359
0.884 2.168 1.801 2154
0.886 2.173 1.795 4308
0.888 2.177 1.788 4308
0.875 2.146 1.754 5429
0.877 2.150 1.747 6967
0.879 2.155 1.740 6594
0.873 2.141 1.720 6441
0.875 2.145 1.713 6441
0.913 2.240 1.774 7241
0.913 2.238 1.763 8551
0.912 2.237 1.752 8033
0.911 2.235 1.740 7617
0.915 2.245 1.738 7645
0.920 2.256 1.735 7781
0.924 2.266 1.733 6619
0.928 2.277 1.730 5638
0.930 2.281 1.723 5826
0.944 2.316 1.738 6354
0.943 2.314 1.726 7286
0.958 2.349 1.741 6647
0.962 2.360 1.738 7714
0.969 2.376 1.739 7686
0.973 2.387 1.736 8167
0.977 2.397 1.733 6336
0.982 2.408 1.729 4838
1.006 2.468 1.760 6699
1.008 2.473 1.752 9224
1.010 2.477 1.744 10251
1.012 2.481 1.737 11278
1.013 2.485 1.729 10583
1.018 2.496 1.725 10088
1.025 2.513 1.726 7055
1.037 2.542 1.734 6750
1.041 2.553 1.730 5940
1.050 2.576 1.734 5709
1.052 2.581 1.726 6979
1.062 2.604 1.730 8012
1.071 2.627 1.734 10576
1.076 2.638 1.730 10914
1.080 2.649 1.726 11708
1.082 2.653 1.717 8454
1.089 2.670 1.717 5330
1.101 2.700 1.724 4775
1.108 2.717 1.723 6137
1.109 2.721 1.715 6747
1.095 2.687 1.684 6560
1.095 2.685 1.672 6758
1.115 2.734 1.689 6258
1.124 2.758 1.692 7263
1.129 2.768 1.687 7371
1.130 2.772 1.679 6557
1.143 2.803 1.685 6809
1.152 2.826 1.687 8702
1.162 2.850 1.689 7145
1.169 2.867 1.687 5977
1.227 3.009 1.753 6268
1.220 2.994 1.733 9445
1.222 2.998 1.724 11607
1.224 3.002 1.715 11421
1.231 3.020 1.713 10383
1.236 3.030 1.707 9038
1.229 3.015 1.687 7961
1.236 3.032 1.684 7075
1.268 3.109 1.712 7456
1.259 3.087 1.689 10269
1.258 3.084 1.676 12932
1.262 3.095 1.670 13593
1.266 3.106 1.664 11212
1.271 3.117 1.657 5236
1.327 3.254 1.713 4367
1.326 3.252 1.700 4372
1.319 3.236 1.680 4679
1.316 3.227 1.664 4591
1.342 3.291 1.682 4321
1.344 3.295 1.672 5242
1.345 3.300 1.662 6809
1.347 3.304 1.652 7759
1.349 3.308 1.641 5170
1.411 3.460 1.699 5229
1.412 3.464 1.688 6183
1.417 3.475 1.681 6006
1.419 3.480 1.670 6947
1.426 3.497 1.665 6617
1.425 3.495 1.651 4186
1.476 3.621 1.694 3515
1.478 3.625 1.682 3790
1.477 3.623 1.668 5564
1.479 3.627 1.657 6940
1.491 3.658 1.657 7768
1.493 3.662 1.646 7289
1.498 3.673 1.637 8243
1.496 3.670 1.623 10197
1.492 3.661 1.606 8446
1.553 3.809 1.653 6867
1.557 3.820 1.643 5736
1.486 3.645 1.561 4961
1.583 3.883 1.641 8083
1.585 3.887 1.629 8938
1.586 3.891 1.617 10862
1.591 3.902 1.608 12930
1.595 3.913 1.598 10209
1.597 3.917 1.586 9345
1.601 3.927 1.576 11466
1.606 3.938 1.567 9289
1.678 4.116 1.618 5819
1.728 4.238 1.647 5969
1.727 4.235 1.632 5889
1.725 4.232 1.616 5611
1.733 4.250 1.608 5364
1.754 4.303 1.611 5078
1.759 4.314 1.600 5090
1.763 4.325 1.589 3965
1.762 4.322 1.573 3332
1.849 4.536 1.630 2428
1.862 4.568 1.625 2710
1.864 4.572 1.611 2909
1.860 4.562 1.592 2400
1.899 4.657 1.607 2585
1.877 4.605 1.574 1909
1.928 4.728 1.597 1737
1.967 4.824 1.611 2774
1.963 4.814 1.591 2318
1.964 4.818 1.576 2569
1.974 4.843 1.568 3601
2.106 5.165 1.646 4424
2.104 5.162 1.628 5271
2.103 5.159 1.610 5564
2.105 5.163 1.594 6519
2.104 5.159 1.576 5986
2.030 4.979 1.508 4561
2.115 5.188 1.549 5125
2.114 5.185 1.531 4322
2.229 5.466 1.589 4444
2.236 5.484 1.576 3462
2.246 5.510 1.564 2756
2.312 5.670 1.588 3067
2.316 5.681 1.572 3030
2.321 5.692 1.556 4930
2.322 5.696 1.538 7025
2.324 5.700 1.520 5287
2.492 6.111 1.601 4165
2.496 6.123 1.583 5017
2.498 6.126 1.564 4991
2.458 6.030 1.522 4368
2.501 6.134 1.526 4214
2.511 6.159 1.511 3970
2.519 6.177 1.495 3416
2.763 6.777 1.606 4032
2.768 6.789 1.586 3468
2.813 6.900 1.588 2846
2.900 7.113 1.610 3156
2.899 7.110 1.586 3766
2.903 7.121 1.565 3637
2.961 7.262 1.570 3648
2.962 7.265 1.547 3791
2.967 7.276 1.526 3147
2.968 7.280 1.503 3509
2.973 7.291 1.482 3725
2.974 7.295 1.459 3033
3.267 8.014 1.564 2227
3.446 8.452 1.615 2689
3.445 8.449 1.588 2336
3.437 8.431 1.557 4222
3.439 8.435 1.531 4656
3.437 8.431 1.503 2804
3.439 8.435 1.477 2122
3.461 8.489 1.458 2440
3.451 8.464 1.427 2628
3.449 8.460 1.400 3160
3.451 8.463 1.373 2478
3.449 8.459 1.346 1036
4.209 10.324 1.580 777
3.751 9.200 1.393 898
3.752 9.204 1.364 855
4.789 11.747 1.667 893
4.794 11.758 1.631 851
4.864 11.930 1.615 1127
4.865 11.934 1.578 1005
4.915 12.054 1.554 1051
4.916 12.058 1.516 1148
4.918 12.062 1.478 1130
4.922 12.072 1.441 818
4.944 12.127 1.409 606
5.252 12.882 1.447 427
5.340 13.097 1.428 449
5.341 13.101 1.386 433
5.340 13.097 1.345 292
0.780 1.913 0.188 319
0.780 1.913 0.182 378
0.780 1.913 0.176 406
0.783 1.921 0.170 412
0.783 1.921 0.164 386
0.783 1.921 0.159 329
1.043 2.559 0.118 344
1.046 2.566 0.110 522
1.046 2.566 0.102 707
1.046 2.566 0.094 894
1.043 2.558 0.086 1088
1.046 2.565 0.078 1215
1.046 2.565 0.070 1350
1.046 2.565 0.062 1381
1.043 2.557 0.054 1341
1.043 2.557 0.046 1269
1.042 2.557 0.038 1131
1.042 2.557 0.031 988
1.042 2.556 0.023 822
1.042 2.556 0.015 656
3.845 9.431 -0.357 599
3.845 9.430 -0.387 845
3.844 9.428 -0.416 1152
3.843 9.427 -0.446 1460
3.840 9.418 -0.475 1504
3.839 9.416 -0.505 1568
3.838 9.414 -0.534 1218
3.837 9.412 -0.564 868
3.837 9.410 -0.593 868
3.836 9.408 -0.623 579
3.823 9.377 -0.650 416
3.819 9.368 -0.678 597
3.815 9.358 -0.707 779
3.817 9.363 -0.737 898
3.816 9.361 -0.767 1017
3.815 9.358 -0.796 1017
0.988 2.423 -0.106 810
0.988 2.422 -0.114 965
0.984 2.414 -0.121 716
1.403 3.442 -0.244 546
1.403 3.441 -0.255 565
1.402 3.440 -0.266 565
1.402 3.439 -0.277 282
1.001 2.454 -0.163 305
0.891 2.166 1.801 2382
0.893 2.170 1.795 4765
0.895 2.175 1.788 4765
0.884 2.149 1.758 5624
0.884 2.148 1.747 7425
0.885 2.152 1.740 6988
0.887 2.156 1.734 6552
0.889 2.161 1.727 6552
0.915 2.225 1.765 7085
0.917 2.229 1.759 8163
0.917 2.228 1.747 7860
0.918 2.232 1.740 7650
0.923 2.242 1.738 8037
0.924 2.247 1.731 8523
0.931 2.263 1.733 7238
0.935 2.274 1.730 6175
0.937 2.278 1.723 6351
0.952 2.313 1.738 6939
0.951 2.311 1.726 8126
0.965 2.346 1.741 7025
0.972 2.363 1.742 7863
0.976 2.373 1.739 7751
0.981 2.384 1.736 8181
0.985 2.394 1.733 5975
0.992 2.411 1.734 4145
1.014 2.465 1.760 6254
1.016 2.469 1.752 8798
1.018 2.474 1.744 10761
1.020 2.478 1.737 12723
1.021 2.482 1.729 12004
1.026 2.493 1.725 11592
1.038 2.522 1.734 8453
1.045 2.539 1.734 8215
1.049 2.550 1.730 6772
1.056 2.567 1.730 5898
1.060 2.577 1.726 6800
1.070 2.601 1.730 7808
1.077 2.618 1.730 9630
1.084 2.635 1.730 9505
1.088 2.645 1.726 10073
1.090 2.649 1.717 7188
1.102 2.679 1.725 5035
1.109 2.696 1.724 5229
1.116 2.713 1.723 6379
1.105 2.686 1.696 6933
1.107 2.690 1.687 7366
1.106 2.688 1.675 7833
1.121 2.724 1.686 6716
1.130 2.748 1.688 6520
1.135 2.758 1.684 5969
1.139 2.769 1.679 5027
1.168 2.838 1.707 6777
1.167 2.836 1.694 9193
1.174 2.853 1.693 8402
1.178 2.864 1.687 7806
1.183 2.874 1.682 7644
1.230 2.990 1.733 9333
1.232 2.994 1.724 11210
1.234 2.998 1.715 10921
1.238 3.009 1.709 9269
1.245 3.026 1.707 7983
1.269 3.083 1.725 7655
1.251 3.041 1.691 6732
1.278 3.105 1.712 5905
1.266 3.076 1.686 8131
1.267 3.080 1.676 10792
1.272 3.091 1.670 12160
1.276 3.102 1.664 11106
1.300 3.159 1.681 6454
1.302 3.163 1.671 6144
1.317 3.201 1.677 5027
1.324 3.218 1.674 5439
1.329 3.229 1.667 6104
1.328 3.227 1.654 4937
1.354 3.291 1.672 4089
1.356 3.295 1.662 5253
1.357 3.299 1.652 6175
1.356 3.297 1.638 4526
1.419 3.449 1.696 5237
1.424 3.460 1.688 6140
1.428 3.471 1.681 5799
1.433 3.482 1.673 6660
1.437 3.493 1.665 6440
1.433 3.483 1.648 4094
1.488 3.616 1.694 4120
1.487 3.614 1.679 4837
1.489 3.618 1.668 7195
1.490 3.622 1.657 8177
1.506 3.660 1.660 7840
1.510 3.671 1.651 7514
1.509 3.668 1.637 8669
1.505 3.659 1.620 11525
1.504 3.656 1.606 10075
1.514 3.680 1.603 7718
1.570 3.815 1.643 6983
1.591 3.867 1.651 6467
1.596 3.878 1.641 11003
1.594 3.875 1.627 11646
1.590 3.865 1.609 13441
1.598 3.883 1.602 12778
1.608 3.908 1.598 10063
1.609 3.911 1.586 8676
1.611 3.915 1.574 8052
1.615 3.926 1.564 6387
1.691 4.110 1.618 5895
1.693 4.114 1.605 5713
1.737 4.223 1.629 5272
1.748 4.247 1.623 4968
1.749 4.251 1.610 5293
1.768 4.297 1.611 6050
1.773 4.308 1.600 6350
1.774 4.312 1.587 5689
1.773 4.309 1.571 5082
1.861 4.523 1.627 2957
1.871 4.548 1.620 2511
1.876 4.559 1.608 2849
1.909 4.640 1.619 3234
1.911 4.644 1.604 3348
1.933 4.697 1.605 1848
1.983 4.821 1.628 2416
1.982 4.817 1.611 3225
1.984 4.821 1.596 2662
1.985 4.825 1.581 2618
1.993 4.843 1.570 4093
2.122 5.158 1.646 5872
2.121 5.155 1.628 7095
2.120 5.152 1.610 7649
2.121 5.156 1.594 7298
2.123 5.160 1.578 6752
2.127 5.171 1.564 6766
2.132 5.182 1.549 7437
2.134 5.185 1.533 5334
2.246 5.459 1.589 3470
2.265 5.506 1.584 2707
2.317 5.631 1.598 2574
2.333 5.670 1.590 2981
2.332 5.667 1.570 3274
2.336 5.678 1.554 4877
2.341 5.689 1.538 6313
2.342 5.692 1.520 4546
2.467 5.996 1.575 4111
2.516 6.115 1.583 4875
2.514 6.111 1.562 4648
2.478 6.022 1.522 4524
2.515 6.112 1.523 4062
2.531 6.151 1.511 3984
2.538 6.169 1.495 3529
2.785 6.769 1.606 3972
2.789 6.780 1.586 3355
2.841 6.906 1.591 3854
2.843 6.910 1.569 3652
2.924 7.108 1.588 3892
2.929 7.119 1.567 3819
2.987 7.259 1.572 4291
2.988 7.263 1.549 4359
2.990 7.267 1.526 3486
2.991 7.271 1.503 3757
2.996 7.281 1.482 3868
2.997 7.285 1.459 2931
3.293 8.004 1.564 2240
3.464 8.419 1.612 1964
3.463 8.416 1.584 2327
3.464 8.420 1.557 5053
3.463 8.417 1.530 5528
3.464 8.420 1.503 3869
3.466 8.424 1.477 3557
3.473 8.442 1.453 3330
3.475 8.445 1.426 3272
3.476 8.449 1.400 3534
3.475 8.445 1.372 2768
4.240 10.306 1.613 1324
4.242 10.310 1.580 1132
3.780 9.188 1.393 975
4.003 9.729 1.436 901
4.734 11.506 1.638 678
3.943 9.583 1.356 751
4.998 12.147 1.644 1168
4.996 12.144 1.605 1213
4.950 12.031 1.553 987
4.955 12.042 1.516 1150
4.956 12.046 1.478 1157
4.961 12.057 1.441 865
5.271 12.811 1.482 517
5.383 13.084 1.470 456
5.385 13.087 1.428 551
5.386 13.091 1.387 534
5.382 13.080 1.345 378
0.786 1.910 0.194 320
0.786 1.910 0.188 634
0.786 1.911 0.182 790
0.786 1.911 0.176 824
0.786 1.911 0.170 760
0.786 1.911 0.164 661
0.786 1.911 0.158 541
0.786 1.911 0.153 350
0.786 1.911 0.147 255
1.051 2.555 0.110 286
1.051 2.555 0.102 380
1.051 2.555 0.094 499
1.051 2.555 0.086 619
1.051 2.555 0.078 756
1.054 2.562 0.070 906
1.054 2.562 0.062 1071
1.054 2.561 0.054 1367
1.051 2.554 0.046 1501
1.054 2.561 0.038 1523
1.054 2.561 0.030 1550
1.053 2.560 0.022 1449
0.752 1.829 0.051 1554
0.752 1.828 0.045 1717
0.752 1.828 0.040 1881
0.749 1.821 0.035 1861
0.749 1.820 0.029 1859
0.749 1.820 0.023 1634
0.752 1.827 0.017 1417
0.749 1.819 0.012 1112
0.748 1.819 0.007 847
0.751 1.826 0.000 628
3.857 9.374 -0.621 416
3.850 9.357 -0.649 333
3.849 9.355 -0.678 545
3.848 9.353 -0.708 757
3.847 9.351 -0.737 900
3.846 9.348 -0.767 1044
3.845 9.346 -0.796 1044
0.993 2.413 -0.106 918
0.992 2.412 -0.113 1112
0.989 2.404 -0.120 846
1.414 3.437 -0.244 686
1.414 3.436 -0.255 719
1.413 3.435 -0.266 719
1.413 3.434 -0.277 359
0.979 2.378 -0.154 384
0.896 2.157 1.797 2670
0.898 2.161 1.790 5340
0.900 2.165 1.783 5340
0.894 2.152 1.763 6169
0.891 2.144 1.747 8125
0.896 2.155 1.745 7718
0.897 2.159 1.738 7334
0.899 2.163 1.732 7334
0.906 2.180 1.734 6855
0.923 2.220 1.754 7133
0.922 2.218 1.743 7075
0.924 2.223 1.736 7125
0.928 2.233 1.733 7899
0.932 2.243 1.731 8867
0.932 2.242 1.720 7729
0.933 2.246 1.713 6657
0.945 2.275 1.723 6689
0.952 2.291 1.725 7393
0.957 2.301 1.722 8721
0.966 2.324 1.728 7313
0.978 2.353 1.738 8072
0.985 2.370 1.739 7813
0.992 2.386 1.740 8216
0.996 2.397 1.737 5741
1.034 2.488 1.788 3685
1.023 2.461 1.760 5575
1.025 2.466 1.752 7931
1.027 2.470 1.744 10547
1.028 2.474 1.737 13164
1.030 2.479 1.729 12541
1.035 2.489 1.725 12174
1.047 2.519 1.734 8818
1.054 2.535 1.734 8731
1.058 2.546 1.730 7081
1.068 2.569 1.734 5971
1.070 2.573 1.726 6821
1.079 2.597 1.730 7882
1.086 2.614 1.730 9411
1.093 2.631 1.730 9115
1.098 2.641 1.726 9774
1.102 2.652 1.721 7316
1.109 2.669 1.721 5594
1.119 2.692 1.724 5844
1.123 2.703 1.719 7123
1.115 2.682 1.696 7744
1.116 2.686 1.687 8319
1.118 2.690 1.679 8894
1.130 2.720 1.686 7773
1.138 2.737 1.685 5891
1.145 2.754 1.684 4742
1.173 2.823 1.712 4166
1.178 2.834 1.707 6440
1.179 2.838 1.698 8856
1.184 2.849 1.693 8549
1.191 2.866 1.691 8720
1.193 2.870 1.682 8842
1.241 2.985 1.733 9292
1.242 2.990 1.724 10938
1.242 2.987 1.711 10795
1.246 2.998 1.706 8591
1.275 3.068 1.731 7180
1.280 3.079 1.725 8225
1.281 3.083 1.715 6231
1.297 3.120 1.723 4427
1.279 3.078 1.689 5727
1.281 3.082 1.680 8314
1.286 3.093 1.673 10431
1.287 3.097 1.664 10566
1.314 3.161 1.684 7678
1.316 3.165 1.674 7338
1.326 3.190 1.674 5835
1.336 3.214 1.674 5971
1.343 3.231 1.670 7273
1.342 3.229 1.657 5670
1.338 3.219 1.640 4151
1.365 3.284 1.659 3851
1.366 3.288 1.649 4874
1.363 3.278 1.632 3955
1.429 3.437 1.693 5525
1.436 3.455 1.688 6638
1.443 3.472 1.684 6263
1.448 3.483 1.676 6461
1.449 3.488 1.665 5885
1.448 3.485 1.651 3847
1.498 3.604 1.691 4505
1.500 3.608 1.679 5285
1.501 3.612 1.668 7924
1.506 3.623 1.660 8760
1.519 3.655 1.660 7653
1.526 3.672 1.654 7793
1.525 3.670 1.640 8479
1.518 3.653 1.620 11518
1.520 3.657 1.609 10852
1.524 3.668 1.600 9593
1.583 3.809 1.643 8087
1.593 3.834 1.640 9237
1.606 3.865 1.639 13776
1.608 3.869 1.627 14071
1.604 3.859 1.609 16091
1.609 3.870 1.600 14681
1.616 3.888 1.593 10725
1.626 3.913 1.589 8697
1.668 4.013 1.612 8299
1.673 4.024 1.602 6940
1.709 4.111 1.620 5656
1.710 4.115 1.607 6230
1.709 4.112 1.592 4988
1.780 4.283 1.638 6229
1.779 4.280 1.622 6678
1.783 4.291 1.611 6889
1.788 4.302 1.600 7087
1.790 4.306 1.587 6657
1.788 4.303 1.571 6187
1.877 4.516 1.627 3318
1.916 4.611 1.643 2977
1.912 4.601 1.624 3191
1.926 4.633 1.619 3992
1.927 4.637 1.604 4011
1.926 4.634 1.588 2135
1.998 4.806 1.626 3279
1.996 4.803 1.609 3757
1.998 4.807 1.594 2919
2.000 4.811 1.579 2016
2.007 4.829 1.568 4267
2.009 4.833 1.553 7261
2.139 5.147 1.628 7772
2.138 5.144 1.610 8736
2.140 5.148 1.594 7245
2.144 5.159 1.580 7375
2.146 5.163 1.564 9209
2.150 5.174 1.549 8832
2.152 5.178 1.533 6235
2.215 5.330 1.557 2687
2.306 5.547 1.597 3140
2.304 5.544 1.578 3630
2.306 5.548 1.560 3119
2.352 5.658 1.570 3179
2.356 5.669 1.554 4156
2.361 5.680 1.538 4736
2.490 5.991 1.595 3364
2.494 6.002 1.578 3926
2.538 6.106 1.583 3989
2.533 6.095 1.561 3749
2.499 6.013 1.522 4214
2.533 6.096 1.521 3879
2.541 6.114 1.505 3851
2.557 6.153 1.494 3235
2.809 6.759 1.606 3549
2.867 6.899 1.614 3562
2.866 6.896 1.591 4980
2.867 6.899 1.569 4608
2.875 6.918 1.551 4329
2.877 6.921 1.529 3794
3.013 7.249 1.572 4472
3.014 7.252 1.549 4562
3.016 7.256 1.526 3548
3.020 7.267 1.505 3734
3.022 7.271 1.482 3638
3.026 7.282 1.460 2603
3.280 7.891 1.546 2082
3.284 7.902 1.523 1747
3.490 8.396 1.583 2179
3.494 8.408 1.557 5334
3.493 8.404 1.530 5890
3.494 8.408 1.503 4479
3.496 8.411 1.477 4531
3.500 8.422 1.452 4189
3.502 8.426 1.425 3635
3.503 8.429 1.399 3517
3.505 8.433 1.372 2751
4.277 10.291 1.613 1495
4.279 10.295 1.580 1321
3.997 9.617 1.454 1025
4.035 9.708 1.435 1026
3.994 9.610 1.392 920
4.780 11.500 1.603 906
5.038 12.122 1.643 1323
5.037 12.118 1.604 1392
5.035 12.115 1.565 994
4.997 12.024 1.516 1155
4.999 12.028 1.478 1150
5.004 12.039 1.441 867
5.453 13.119 1.517 550
5.466 13.152 1.478 569
5.434 13.075 1.429 598
5.433 13.072 1.387 553
5.428 13.060 1.345 367
0.787 1.893 0.205 369
0.790 1.900 0.199 509
0.793 1.908 0.194 756
0.793 1.908 0.188 1184
0.793 1.908 0.182 1347
0.793 1.908 0.176 1296
0.793 1.908 0.170 1035
0.793 1.908 0.164 825
0.796 1.915 0.159 627
0.796 1.915 0.153 357
0.796 1.916 0.147 261
1.063 2.558 0.054 372
1.063 2.557 0.046 475
1.063 2.557 0.038 562
1.066 2.564 0.030 654
1.063 2.557 0.022 695
1.062 2.556 0.014 741
0.762 1.833 0.045 744
0.759 1.825 0.040 936
0.759 1.825 0.034 1098
0.758 1.825 0.028 1261
0.758 1.825 0.023 1289
0.758 1.824 0.017 1318
0.758 1.824 0.012 1207
0.758 1.824 0.006 1153
0.758 1.823 0.000 978
0.758 1.823 -0.005 747
0.757 1.822 -0.011 579
3.882 9.342 -0.678 462
3.882 9.339 -0.708 679
3.881 9.337 -0.737 839
3.877 9.327 -0.766 1000
3.876 9.325 -0.795 1000
3.871 9.315 -0.824 957
3.867 9.305 -0.852 981
3.863 9.295 -0.881 900
3.859 9.285 -0.909 858
1.429 3.438 -0.256 685
1.429 3.437 -0.267 685
1.428 3.436 -0.277 342
0.996 2.397 -0.157 411
0.900 2.148 1.792 3052
0.902 2.152 1.785 6105
0.904 2.157 1.779 6105
0.901 2.149 1.763 7116
0.900 2.148 1.752 8975
0.902 2.152 1.745 8621
0.906 2.162 1.743 8269
0.908 2.167 1.736 8269
0.910 2.171 1.729 7042
0.914 2.181 1.727 6020
0.918 2.192 1.725 6254
0.925 2.208 1.727 6522
0.929 2.218 1.725 7559
0.936 2.235 1.727 8791
0.938 2.239 1.720 7889
0.940 2.243 1.713 6986
0.942 2.247 1.706 6933
0.956 2.282 1.720 7622
0.963 2.299 1.722 9095
0.970 2.315 1.723 7533
0.985 2.350 1.738 8253
0.992 2.367 1.739 7791
0.999 2.383 1.740 8096
1.006 2.400 1.741 5428
1.041 2.485 1.788 3440
1.030 2.458 1.760 5120
1.032 2.463 1.752 7182
1.034 2.467 1.744 10307
1.033 2.465 1.732 13449
1.037 2.476 1.729 12808
1.042 2.486 1.725 12366
1.051 2.509 1.730 8764
1.061 2.532 1.734 8664
1.065 2.543 1.730 6963
1.075 2.566 1.734 6003
1.077 2.570 1.726 6800
1.087 2.594 1.730 8002
1.094 2.611 1.730 9589
1.101 2.628 1.730 9607
1.105 2.638 1.726 10823
1.110 2.649 1.721 9002
1.114 2.659 1.717 7458
1.121 2.676 1.716 7236
1.128 2.693 1.716 8356
1.122 2.678 1.696 9064
1.127 2.689 1.691 9504
1.131 2.700 1.687 10150
1.135 2.710 1.682 9313
1.137 2.714 1.674 6487
1.177 2.809 1.717 5275
1.179 2.813 1.708 4512
1.186 2.830 1.707 5632
1.190 2.841 1.701 7908
1.195 2.852 1.696 8118
1.199 2.862 1.691 9395
1.201 2.867 1.682 10096
1.203 2.871 1.673 10181
1.251 2.986 1.724 9825
1.250 2.984 1.711 9599
1.252 2.988 1.702 7325
1.287 3.071 1.734 7155
1.288 3.075 1.725 8668
1.293 3.086 1.719 6532
1.311 3.130 1.729 3858
1.330 3.174 1.740 4526
1.295 3.092 1.686 6268
1.294 3.090 1.673 8410
1.299 3.100 1.667 9313
1.323 3.158 1.684 7985
1.325 3.162 1.674 7650
1.329 3.172 1.667 6130
1.345 3.210 1.674 6120
1.352 3.227 1.670 8085
1.354 3.231 1.660 6007
1.347 3.215 1.640 4121
1.413 3.374 1.703 4321
1.418 3.384 1.696 5859
1.422 3.395 1.688 5456
1.438 3.433 1.693 6087
1.446 3.451 1.688 7683
1.453 3.468 1.684 7257
1.460 3.486 1.679 6456
1.459 3.483 1.665 4999
1.506 3.596 1.702 4166
1.508 3.600 1.691 4590
1.510 3.604 1.679 4914
1.515 3.615 1.671 7256
1.516 3.619 1.660 8200
1.527 3.644 1.657 6850
1.537 3.668 1.654 7634
1.533 3.659 1.637 7980
1.529 3.649 1.620 10148
1.530 3.653 1.609 10437
1.532 3.657 1.597 10549
1.534 3.661 1.586 9321
1.607 3.836 1.642 10958
1.620 3.867 1.641 15555
1.619 3.865 1.627 15683
1.615 3.855 1.609 17315
1.617 3.859 1.597 15399
1.621 3.870 1.588 10693
1.681 4.011 1.627 10441
1.679 4.009 1.612 10039
1.684 4.019 1.602 8556
1.686 4.023 1.590 5955
1.684 4.020 1.575 6175
1.724 4.114 1.594 4579
1.789 4.271 1.636 8040
1.788 4.268 1.620 9146
1.793 4.279 1.609 7457
1.800 4.297 1.600 6991
1.802 4.301 1.587 6492
1.800 4.298 1.571 6294
1.884 4.497 1.623 3473
1.930 4.606 1.643 3685
1.931 4.610 1.629 3810
1.936 4.621 1.617 4583
1.940 4.632 1.604 4988
1.945 4.642 1.592 3310
2.011 4.801 1.626 3821
2.007 4.791 1.606 4586
2.009 4.795 1.591 3794
2.010 4.798 1.576 3678
2.018 4.816 1.566 6356
2.019 4.820 1.551 9202
2.154 5.141 1.628 7299
2.153 5.138 1.610 8244
2.151 5.135 1.592 6646
2.156 5.146 1.578 7634
2.161 5.157 1.564 10201
2.162 5.161 1.547 9098
2.167 5.172 1.533 6396
2.234 5.331 1.559 2933
2.321 5.541 1.597 3112
2.320 5.538 1.578 3553
2.322 5.541 1.560 2957
2.404 5.737 1.592 2872
2.411 5.755 1.577 2905
2.380 5.681 1.540 2897
2.510 5.991 1.597 2947
2.514 6.002 1.580 3602
2.549 6.084 1.580 2781
2.524 6.024 1.546 3043
2.534 6.049 1.532 4072
2.545 6.074 1.518 3782
2.552 6.092 1.502 3771
2.560 6.110 1.486 3128
2.825 6.743 1.605 2904
2.887 6.891 1.614 4294
2.885 6.887 1.591 5687
2.887 6.891 1.569 5236
2.895 6.909 1.551 5203
2.896 6.913 1.529 4651
3.033 7.240 1.572 4200
3.035 7.244 1.549 4302
3.036 7.248 1.526 3236
3.041 7.259 1.505 3334
3.043 7.262 1.482 3104
3.303 7.885 1.572 3465
3.305 7.889 1.547 2821
3.310 7.900 1.524 2087
3.580 8.545 1.610 1984
3.518 8.398 1.557 5045
3.517 8.394 1.530 5627
3.518 8.398 1.503 4497
3.520 8.402 1.477 4763
3.524 8.412 1.452 4399
3.526 8.416 1.425 3525
3.527 8.419 1.399 3091
3.526 8.415 1.371 2410
4.306 10.279 1.613 1476
4.308 10.283 1.580 1317
4.024 9.606 1.454 1465
4.026 9.609 1.424 1497
4.021 9.598 1.392 1317
4.812 11.487 1.603 1185
5.072 12.107 1.643 1314
5.071 12.104 1.604 1383
5.070 12.101 1.565 972
5.029 12.003 1.515 1122
5.033 12.014 1.478 1125
5.476 13.071 1.555 965
5.490 13.104 1.517 687
5.504 13.136 1.478 672
5.502 13.133 1.436 685
5.476 13.071 1.389 551
5.468 13.052 1.345 349
0.795 1.897 0.217 253
0.795 1.897 0.211 501
0.795 1.898 0.205 1046
0.795 1.898 0.199 1343
0.795 1.898 0.193 1450
0.795 1.898 0.188 1375
0.795 1.898 0.182 1193
0.795 1.898 0.176 851
0.798 1.906 0.170 398
0.798 1.906 0.164 282
0.798 1.906 0.158 284
1.071 2.555 0.094 336
1.071 2.555 0.086 466
1.071 2.555 0.078 634
1.073 2.562 0.070 807
1.070 2.555 0.062 969
1.070 2.555 0.054 1248
1.070 2.554 0.046 1360
1.070 2.554 0.038 1388
1.070 2.554 0.030 1415
1.070 2.553 0.022 1344
1.070 2.553 0.014 1273
1.070 2.553 0.007 1118
0.764 1.823 0.040 1091
0.764 1.823 0.034 1139
0.761 1.815 0.029 1215
0.760 1.815 0.023 1199
0.760 1.815 0.018 1184
0.760 1.814 0.012 1133
0.760 1.814 0.007 1126
0.763 1.821 0.000 1017
0.763 1.821 -0.005 852
0.763 1.820 -0.011 687
0.765 1.827 -0.017 536
3.908 9.328 -0.708 594
3.904 9.319 -0.737 772
3.903 9.316 -0.766 963
3.902 9.314 -0.795 963
3.898 9.304 -0.824 994
3.894 9.294 -0.852 1072
3.890 9.284 -0.881 1007
3.882 9.267 -0.908 1036
1.436 3.427 -0.255 589
1.435 3.426 -0.266 589
1.435 3.425 -0.277 294
0.904 2.139 1.787 3575
0.906 2.144 1.781 7151
0.908 2.148 1.774 7151
0.907 2.147 1.763 8355
0.907 2.145 1.752 9918
0.908 2.149 1.745 9579
0.913 2.160 1.743 9321
0.915 2.164 1.736 9321
0.916 2.168 1.729 7336
0.921 2.178 1.727 5397
0.922 2.183 1.720 6045
0.924 2.187 1.714 6694
0.931 2.203 1.716 7309
0.938 2.220 1.718 8502
0.945 2.236 1.720 7528
0.947 2.240 1.713 6781
0.949 2.245 1.706 6752
0.963 2.279 1.720 7590
0.968 2.290 1.718 9288
0.977 2.312 1.723 7687
0.992 2.347 1.738 8614
0.999 2.364 1.739 7914
1.006 2.380 1.740 7939
1.013 2.397 1.741 5165
1.036 2.451 1.767 3100
1.035 2.449 1.755 4609
1.037 2.453 1.748 6153
1.039 2.458 1.740 9547
1.040 2.462 1.732 12940
1.045 2.472 1.729 12300
1.049 2.483 1.725 11964
1.056 2.500 1.726 8774
1.069 2.529 1.734 8614
1.071 2.533 1.726 6880
1.086 2.569 1.738 5781
1.085 2.567 1.726 6428
1.095 2.590 1.730 7794
1.099 2.601 1.726 9390
1.109 2.624 1.730 10277
1.116 2.641 1.729 12602
1.118 2.645 1.721 11426
1.122 2.656 1.717 10260
1.127 2.667 1.712 9916
1.134 2.684 1.712 10966
1.131 2.675 1.696 11593
1.138 2.692 1.695 11455
1.142 2.703 1.690 11473
1.144 2.707 1.682 11191
1.140 2.698 1.666 8979
1.134 2.683 1.647 8417
1.141 2.700 1.646 7250
1.145 2.710 1.641 5111
1.199 2.837 1.701 6548
1.204 2.848 1.696 7074
1.208 2.859 1.691 9265
1.210 2.863 1.682 10503
1.212 2.867 1.673 10535
1.260 2.982 1.724 8689
1.259 2.980 1.711 8376
1.261 2.984 1.702 6166
1.299 3.073 1.738 7361
1.301 3.078 1.728 8913
1.305 3.089 1.722 6922
1.310 3.099 1.716 4241
1.340 3.170 1.740 5318
1.341 3.174 1.730 6154
1.346 3.185 1.724 7363
1.309 3.096 1.667 8270
1.333 3.153 1.684 7451
1.334 3.158 1.674 7108
1.339 3.168 1.667 5947
1.355 3.206 1.674 6449
1.365 3.230 1.673 8523
1.367 3.234 1.663 6239
1.371 3.245 1.656 4125
1.421 3.362 1.700 5287
1.428 3.380 1.696 7130
1.433 3.391 1.688 6669
1.446 3.422 1.690 6818
1.456 3.446 1.688 9065
1.464 3.464 1.684 8463
1.471 3.481 1.679 6663
1.473 3.486 1.668 4047
1.518 3.591 1.702 4082
1.519 3.595 1.691 4308
1.524 3.606 1.682 3791
1.523 3.603 1.668 5213
1.507 3.567 1.639 6576
1.509 3.571 1.628 6591
1.548 3.663 1.654 7077
1.524 3.606 1.617 7829
1.540 3.644 1.620 7855
1.542 3.648 1.609 8869
1.543 3.652 1.597 10237
1.542 3.649 1.583 9470
1.628 3.852 1.651 11450
1.635 3.869 1.644 16807
1.634 3.866 1.629 16628
1.630 3.857 1.612 16856
1.629 3.854 1.597 14219
1.691 4.002 1.640 11953
1.690 3.999 1.625 12035
1.692 4.003 1.612 11197
1.696 4.014 1.602 9517
1.695 4.011 1.587 7041
1.697 4.015 1.575 7860
1.701 4.026 1.565 5676
1.800 4.258 1.633 9507
1.798 4.255 1.617 11161
1.800 4.259 1.604 7580
1.814 4.291 1.600 6008
1.815 4.295 1.587 5205
1.814 4.292 1.571 5430
1.892 4.477 1.618 3814
1.941 4.593 1.641 3919
1.943 4.597 1.627 3923
1.950 4.615 1.617 4729
1.958 4.632 1.607 5719
1.962 4.643 1.594 4664
2.026 4.794 1.626 3906
2.022 4.784 1.606 5078
2.024 4.788 1.591 5327
2.028 4.799 1.579 6726
2.030 4.803 1.564 9067
2.034 4.814 1.551 10548
2.033 4.811 1.533 7454
2.172 5.138 1.612 6567
2.167 5.128 1.592 6442
2.172 5.139 1.578 7753
2.180 5.157 1.566 9619
2.181 5.161 1.549 8500
2.180 5.158 1.531 5819
2.250 5.324 1.559 2819
2.297 5.434 1.570 2462
2.391 5.658 1.611 2737
2.399 5.676 1.597 2943
2.421 5.730 1.592 2399
2.432 5.755 1.579 2959
2.434 5.759 1.561 2699
2.532 5.990 1.599 2476
2.533 5.994 1.580 3353
2.517 5.955 1.551 2534
2.551 6.037 1.551 2898
2.556 6.048 1.533 4170
2.564 6.066 1.518 3602
2.571 6.084 1.502 3448
2.576 6.095 1.484 3041
2.904 6.870 1.634 2508
2.908 6.882 1.614 4357
2.907 6.878 1.591 5730
2.909 6.882 1.569 5213
2.916 6.900 1.551 5246
2.918 6.904 1.529 4717
3.056 7.231 1.572 3464
3.057 7.234 1.549 3627
3.059 7.238 1.526 2589
3.061 7.242 1.503 2572
3.326 7.871 1.597 2964
3.328 7.875 1.572 4139
3.333 7.886 1.549 3532
3.608 8.537 1.638 2711
3.607 8.534 1.610 2997
3.547 8.394 1.559 4460
3.546 8.390 1.531 4874
3.612 8.546 1.529 4915
3.613 8.549 1.502 4698
3.612 8.546 1.474 4496
3.613 8.549 1.447 3765
3.618 8.560 1.422 2754
3.619 8.563 1.395 2146
4.045 9.571 1.512 1369
4.047 9.575 1.482 1481
4.054 9.593 1.454 1884
4.056 9.597 1.424 1966
4.051 9.586 1.392 1746
4.845 11.465 1.602 1547
4.847 11.468 1.565 1513
5.109 12.088 1.604 1270
4.069 9.627 1.274 942
5.066 11.987 1.515 1023
5.071 11.998 1.478 1007
5.517 13.054 1.555 1056
5.531 13.086 1.517 748
5.541 13.112 1.478 686
5.540 13.108 1.436 751
5.529 13.082 1.391 531
5.386 12.744 1.318 320
0.801 1.895 0.217 348
0.798 1.888 0.211 466
0.798 1.888 0.205 715
0.795 1.881 0.199 853
0.798 1.888 0.193 1113
0.801 1.896 0.188 1603
0.801 1.896 0.182 1797
0.801 1.896 0.176 1687
0.801 1.896 0.170 1248
0.801 1.896 0.164 917
0.801 1.896 0.158 600
0.804 1.903 0.153 268
1.079 2.552 0.086 329
1.082 2.559 0.078 450
1.081 2.559 0.070 576
1.081 2.559 0.062 698
1.078 2.551 0.054 910
1.078 2.551 0.046 996
1.078 2.551 0.038 1011
1.081 2.558 0.030 1037
1.078 2.550 0.022 989
1.078 2.550 0.014 951
1.077 2.549 0.007 843
0.770 1.821 0.040 1001
0.769 1.821 0.034 1329
0.769 1.820 0.028 1657
0.769 1.820 0.023 1741
0.769 1.820 0.017 1824
0.769 1.819 0.012 1657
0.769 1.819 0.006 1566
0.769 1.819 0.000 1305
0.768 1.818 -0.005 967
0.768 1.818 -0.011 720
0.771 1.825 -0.017 477
3.940 9.323 -0.709 573
3.936 9.314 -0.737 736
3.932 9.304 -0.766 918
3.931 9.301 -0.795 918
3.927 9.292 -0.824 961
3.923 9.282 -0.852 1072
3.915 9.265 -0.880 1057
3.911 9.255 -0.908 1130
1.446 3.423 -0.255 598
1.446 3.421 -0.266 598
1.446 3.420 -0.277 299
1.004 2.376 -0.155 276
0.910 2.137 1.787 4183
0.912 2.141 1.781 8367
0.914 2.145 1.774 8367
0.914 2.144 1.763 9548
0.913 2.142 1.752 10804
0.917 2.153 1.749 10499
0.919 2.157 1.743 10209
0.921 2.161 1.736 10209
0.923 2.166 1.729 7597
0.925 2.170 1.723 4985
0.929 2.180 1.720 5865
0.933 2.190 1.718 6919
0.938 2.201 1.716 7263
0.942 2.211 1.713 8185
0.949 2.227 1.715 6890
0.953 2.237 1.713 6114
0.955 2.242 1.706 6083
0.973 2.282 1.725 7115
0.974 2.287 1.718 8955
0.981 2.303 1.719 7509
0.999 2.344 1.738 8990
1.006 2.361 1.739 8075
1.013 2.377 1.740 7785
1.017 2.388 1.737 5259
1.030 2.417 1.746 3489
1.032 2.421 1.739 4576
1.036 2.432 1.735 5699
1.046 2.455 1.740 8563
1.048 2.459 1.732 11741
1.052 2.469 1.729 11147
1.057 2.480 1.725 10969
1.064 2.497 1.726 8507
1.074 2.520 1.730 8348
1.075 2.524 1.722 6532
1.115 2.616 1.770 5361
1.119 2.627 1.766 5725
1.102 2.587 1.730 7273
1.110 2.604 1.730 8723
1.119 2.627 1.734 11201
1.124 2.638 1.729 14586
1.128 2.648 1.725 13842
1.130 2.653 1.717 13288
1.135 2.663 1.712 13311
1.139 2.674 1.708 14407
1.141 2.678 1.700 14995
1.146 2.689 1.695 13974
1.147 2.693 1.687 13093
1.149 2.697 1.678 13529
1.145 2.688 1.662 12639
1.144 2.686 1.650 12087
1.149 2.696 1.646 10518
1.153 2.707 1.641 7320
1.174 2.756 1.658 6034
1.212 2.844 1.696 5641
1.217 2.855 1.691 8425
1.216 2.853 1.678 10091
1.220 2.863 1.673 10084
1.269 2.978 1.724 7063
1.271 2.983 1.715 6735
1.312 3.078 1.754 5627
1.311 3.076 1.741 7998
1.313 3.080 1.732 9128
1.314 3.085 1.722 7343
1.311 3.076 1.706 5179
1.349 3.166 1.740 5645
1.351 3.170 1.730 6746
1.352 3.174 1.720 7310
1.357 3.185 1.714 6888
1.339 3.143 1.681 6317
1.344 3.154 1.674 5899
1.351 3.171 1.671 5352
1.364 3.202 1.674 6624
1.374 3.226 1.673 8314
1.382 3.243 1.670 6511
1.392 3.267 1.669 5368
1.431 3.358 1.700 5804
1.438 3.376 1.696 7317
1.443 3.387 1.688 6840
1.459 3.424 1.693 7581
1.467 3.442 1.688 10283
1.474 3.460 1.684 9455
1.482 3.477 1.679 6919
1.486 3.488 1.671 3507
1.531 3.593 1.705 3568
1.530 3.591 1.691 3727
1.503 3.527 1.650 3253
1.510 3.545 1.645 6279
1.515 3.556 1.637 8037
1.520 3.566 1.628 7102
1.527 3.584 1.623 7517
1.535 3.602 1.617 8228
1.542 3.619 1.612 5657
1.552 3.644 1.609 6489
1.554 3.647 1.597 8496
1.553 3.645 1.583 7992
1.657 3.888 1.667 12318
1.652 3.878 1.649 17576
1.648 3.868 1.632 16328
1.647 3.866 1.617 15472
1.652 3.876 1.608 12726
1.697 3.983 1.635 12268
1.699 3.987 1.622 12542
1.704 3.998 1.612 11119
1.708 4.009 1.602 9313
1.707 4.006 1.587 7249
1.706 4.003 1.572 8768
1.710 4.014 1.562 6385
1.812 4.253 1.633 9525
1.811 4.250 1.617 11129
1.810 4.247 1.602 6981
1.829 4.293 1.603 4587
1.896 4.449 1.641 3785
1.898 4.453 1.627 5527
1.899 4.457 1.613 4399
1.954 4.587 1.641 3879
1.956 4.591 1.627 3806
1.964 4.609 1.617 4673
1.971 4.627 1.607 6214
1.976 4.638 1.594 5978
1.993 4.676 1.591 3719
2.039 4.785 1.609 4833
2.041 4.789 1.594 6255
2.042 4.793 1.579 8804
2.044 4.797 1.564 9836
2.049 4.808 1.551 9799
2.047 4.805 1.533 7290
2.190 5.139 1.614 5382
2.179 5.115 1.590 6992
2.187 5.133 1.578 8005
2.195 5.151 1.566 8240
2.196 5.155 1.549 7650
2.195 5.151 1.531 4918
2.314 5.431 1.589 2828
2.313 5.428 1.570 2427
2.411 5.658 1.613 2796
2.415 5.669 1.597 2961
2.417 5.673 1.579 2354
2.452 5.755 1.581 2923
2.451 5.751 1.561 3003
2.552 5.990 1.601 2415
2.551 5.986 1.580 3289
2.537 5.955 1.553 2613
2.569 6.030 1.551 2997
2.577 6.048 1.535 3809
2.721 6.386 1.593 3098
2.723 6.390 1.573 2906
2.788 6.544 1.586 3116
2.793 6.555 1.567 2897
2.925 6.866 1.613 3759
2.927 6.870 1.591 5091
2.929 6.874 1.569 4569
2.936 6.892 1.551 4519
2.941 6.903 1.530 4077
3.080 7.229 1.573 2727
3.079 7.225 1.549 2783
3.037 7.129 1.507 2316
3.039 7.132 1.484 1896
3.349 7.861 1.597 2862
3.351 7.865 1.572 4200
3.356 7.876 1.549 3846
3.633 8.527 1.638 3171
3.632 8.523 1.610 3713
3.633 8.527 1.583 5085
3.638 8.538 1.557 5919
3.637 8.535 1.529 5961
3.638 8.539 1.502 5823
3.637 8.535 1.474 5701
3.638 8.539 1.447 4962
3.643 8.549 1.422 3691
3.644 8.553 1.395 2572
4.070 9.552 1.511 1844
4.075 9.563 1.482 1833
4.082 9.581 1.454 2191
4.084 9.585 1.424 2276
4.079 9.574 1.392 1992
4.879 11.450 1.602 1830
4.880 11.454 1.565 1771
4.876 11.443 1.528 1070
4.100 9.623 1.275 922
5.104 11.979 1.516 820
5.553 13.034 1.596 954
5.558 13.045 1.556 1082
5.569 13.070 1.517 804
5.580 13.096 1.478 681
5.575 13.085 1.435 768
5.574 13.081 1.393 552
5.420 12.721 1.318 323
0.803 1.885 0.222 293
0.803 1.885 0.217 329
0.810 1.900 0.211 384
0.807 1.893 0.205 862
0.807 1.893 0.199 1285
0.807 1.893 0.193 1684
0.807 1.893 0.188 2133
0.804 1.886 0.182 2224
0.804 1.886 0.176 2012
0.804 1.886 0.170 1477
0.804 1.886 0.164 1155
0.807 1.894 0.158 803
0.807 1.894 0.153 433
0.807 1.894 0.147 341
0.810 1.901 0.141 295
0.807 1.894 0.135 303
0.704 1.653 0.115 267
0.704 1.653 0.110 347
0.704 1.653 0.105 426
0.701 1.646 0.100 457
1.089 2.556 0.070 524
1.089 2.556 0.062 650
1.086 2.548 0.054 872
1.086 2.548 0.046 965
1.085 2.548 0.038 977
0.775 1.820 0.062 1209
0.775 1.819 0.057 1445
0.775 1.819 0.051 1680
0.775 1.819 0.045 1855
0.775 1.819 0.040 2030
0.775 1.818 0.034 2010
0.772 1.811 0.029 2000
0.775 1.818 0.023 1795
0.774 1.817 0.017 1600
0.774 1.817 0.012 1335
0.774 1.817 0.006 1129
0.774 1.816 0.000 946
0.774 1.816 -0.005 705
0.774 1.816 -0.011 571
0.517 1.213 0.037 471
0.517 1.212 0.033 508
3.963 9.302 -0.737 647
3.959 9.292 -0.766 822
3.958 9.290 -0.795 822
3.954 9.280 -0.824 870
3.947 9.263 -0.852 1026
3.943 9.253 -0.880 1050
3.938 9.243 -0.908 1111
3.937 9.240 -0.938 555
1.456 3.417 -0.266 399
1.098 2.576 -0.181 294
0.922 2.125 1.783 4769
0.924 2.129 1.776 9538
0.926 2.133 1.769 9538
0.928 2.138 1.763 10565
0.930 2.142 1.756 11592
0.932 2.146 1.749 11220
0.933 2.151 1.743 10848
0.935 2.155 1.736 10848
0.937 2.159 1.729 7798
0.939 2.164 1.723 4748
0.943 2.174 1.720 5806
0.948 2.184 1.718 7295
0.952 2.194 1.716 7379
0.957 2.205 1.713 7797
0.964 2.221 1.715 6135
0.968 2.231 1.713 5235
0.999 2.302 1.754 5312
0.988 2.276 1.725 6451
0.990 2.280 1.718 8241
1.007 2.321 1.736 7206
1.017 2.344 1.742 9314
1.022 2.354 1.739 8133
1.029 2.371 1.740 7398
1.031 2.375 1.733 5506
1.046 2.410 1.746 3821
1.048 2.414 1.739 5083
1.047 2.412 1.727 6399
1.057 2.435 1.732 7723
1.061 2.446 1.728 10135
1.069 2.462 1.729 9448
1.073 2.473 1.725 9323
1.078 2.483 1.722 7695
1.088 2.506 1.726 7639
1.090 2.510 1.718 6133
1.132 2.609 1.770 6442
1.137 2.619 1.766 7010
1.136 2.617 1.754 7801
1.135 2.615 1.742 8336
1.140 2.626 1.738 11604
1.144 2.637 1.733 15331
1.146 2.641 1.725 15229
1.148 2.645 1.717 15126
1.153 2.656 1.712 16304
1.157 2.666 1.708 18286
1.159 2.670 1.700 19262
1.161 2.675 1.691 17440
1.165 2.685 1.687 15662
1.164 2.683 1.674 16231
1.163 2.680 1.662 15570
1.162 2.678 1.650 14833
1.167 2.689 1.646 13151
1.194 2.751 1.670 9362
1.196 2.755 1.661 8653
1.197 2.759 1.653 7831
1.236 2.847 1.691 7058
1.237 2.851 1.682 8702
1.239 2.855 1.673 8670
1.241 2.859 1.664 5970
1.294 2.981 1.718 5153
1.332 3.070 1.754 6615
1.334 3.074 1.745 8285
1.333 3.072 1.732 8738
1.338 3.082 1.726 7105
1.328 3.060 1.702 5714
1.330 3.065 1.693 5497
1.369 3.154 1.727 7248
1.371 3.158 1.717 7769
1.381 3.182 1.717 6401
1.360 3.134 1.681 5125
1.365 3.145 1.674 4424
1.375 3.169 1.674 4693
1.386 3.192 1.674 6436
1.399 3.223 1.677 7801
1.406 3.241 1.673 7062
1.411 3.251 1.666 6547
1.456 3.355 1.703 5565
1.461 3.366 1.696 6442
1.471 3.390 1.694 6240
1.482 3.415 1.693 8115
1.489 3.432 1.688 10873
1.497 3.450 1.684 9716
1.505 3.467 1.679 6776
1.509 3.478 1.671 3518
1.497 3.448 1.645 3240
1.554 3.580 1.691 3054
1.532 3.531 1.656 4325
1.534 3.535 1.645 8382
1.539 3.545 1.637 9710
1.543 3.556 1.628 7740
1.554 3.580 1.626 7672
1.562 3.598 1.620 8266
1.566 3.609 1.612 4997
1.618 3.728 1.648 4529
1.575 3.630 1.595 5894
1.636 3.770 1.638 6615
1.685 3.883 1.670 14623
1.684 3.881 1.655 18285
1.677 3.864 1.635 15185
1.679 3.868 1.622 14386
1.686 3.886 1.616 12826
1.724 3.972 1.635 11826
1.726 3.976 1.622 12087
1.730 3.987 1.612 9713
1.732 3.991 1.600 7865
1.734 3.995 1.587 6526
1.729 3.985 1.570 9065
1.734 3.995 1.560 6666
1.841 4.241 1.633 8283
1.839 4.238 1.617 9254
1.835 4.228 1.599 5609
1.927 4.440 1.658 3228
1.923 4.430 1.639 3725
1.924 4.434 1.625 5475
1.929 4.445 1.613 4500
1.985 4.574 1.641 3290
1.984 4.571 1.624 3671
1.994 4.596 1.617 4367
2.005 4.620 1.609 6521
2.010 4.631 1.597 6660
2.027 4.670 1.593 4327
2.028 4.674 1.578 4383
2.076 4.783 1.596 5756
2.077 4.786 1.581 8659
2.079 4.790 1.566 8499
2.081 4.794 1.551 7283
2.079 4.791 1.533 5653
2.233 5.145 1.620 5213
2.220 5.114 1.594 7075
2.221 5.118 1.578 7475
2.232 5.143 1.568 6641
2.234 5.147 1.551 6788
2.229 5.137 1.531 4183
2.396 5.521 1.618 2838
2.401 5.532 1.602 3176
2.455 5.656 1.617 3027
2.456 5.660 1.599 3214
2.455 5.657 1.579 3023
2.487 5.731 1.579 2968
2.489 5.735 1.561 3177
2.592 5.972 1.601 2595
2.594 5.976 1.582 3024
2.598 5.987 1.565 2501
2.609 6.012 1.551 3042
2.617 6.030 1.535 3099
2.764 6.368 1.593 2611
2.765 6.372 1.573 2452
2.832 6.525 1.586 2984
2.837 6.536 1.567 2992
2.974 6.853 1.614 2739
2.976 6.857 1.593 4030
2.975 6.854 1.569 3536
2.982 6.872 1.551 3321
2.987 6.883 1.530 3102
3.144 7.244 1.580 2834
3.148 7.255 1.559 3099
3.085 7.108 1.507 2847
3.152 7.262 1.513 2558
3.399 7.831 1.596 2409
3.404 7.842 1.572 3767
3.408 7.853 1.549 3776
3.687 8.495 1.637 3153
3.688 8.499 1.610 3907
3.690 8.503 1.583 5420
3.695 8.514 1.557 6171
3.693 8.510 1.529 6254
3.695 8.514 1.502 6239
3.694 8.511 1.474 6205
3.695 8.514 1.447 5562
3.700 8.525 1.422 4227
3.701 8.528 1.395 2685
4.131 9.518 1.510 2171
4.135 9.529 1.481 2043
4.143 9.547 1.453 2223
4.145 9.550 1.423 2257
4.140 9.539 1.391 1976
4.955 11.417 1.602 1876
4.954 11.414 1.565 1835
4.952 11.411 1.528 1148
4.164 9.595 1.275 794
4.958 11.425 1.456 837
5.640 12.996 1.596 859
5.648 13.014 1.557 1047
5.656 13.033 1.517 787
5.658 13.036 1.475 626
5.659 13.040 1.434 698
5.658 13.036 1.392 502
5.505 12.685 1.318 319
0.816 1.879 0.228 330
0.816 1.880 0.222 505
0.816 1.880 0.217 568
0.816 1.880 0.211 496
0.816 1.880 0.205 667
0.816 1.880 0.199 911
0.819 1.888 0.193 1408
0.819 1.888 0.188 2148
0.816 1.881 0.182 2413
0.816 1.881 0.176 2232
0.816 1.881 0.170 1610
0.816 1.881 0.164 1169
0.813 1.874 0.158 851
0.813 1.874 0.152 561
0.816 1.881 0.147 508
0.816 1.881 0.141 347
0.816 1.881 0.135 256
0.712 1.641 0.120 293
0.712 1.641 0.115 380
0.715 1.649 0.110 399
0.719 1.656 0.105 444
0.715 1.648 0.100 545
0.712 1.641 0.095 672
0.712 1.641 0.090 673
0.788 1.815 0.079 760
0.788 1.815 0.073 962
0.784 1.807 0.068 1219
