1.226 4.381 1.551 11867
1.225 4.378 1.536 9367
1.226 4.382 1.523 8393
1.227 4.386 1.509 7941
1.233 4.404 1.501 4677
1.268 4.532 1.526 5837
1.267 4.529 1.510 9164
1.269 4.532 1.497 9007
1.270 4.536 1.483 6332
1.271 4.540 1.470 6220
1.403 5.013 1.594 7206
1.406 5.025 1.581 9037
1.407 5.029 1.566 8812
1.407 5.025 1.548 10900
1.408 5.029 1.533 11789
1.411 5.041 1.520 12687
1.412 5.044 1.505 14388
1.413 5.048 1.490 12086
1.414 5.052 1.475 9290
1.417 5.063 1.462 7783
1.520 5.429 1.541 8137
1.554 5.552 1.555 10184
1.555 5.555 1.538 10435
1.556 5.559 1.522 9087
1.557 5.563 1.505 8931
1.558 5.567 1.488 7078
1.607 5.742 1.513 5795
1.608 5.745 1.496 5215
1.617 5.779 1.485 3865
1.614 5.768 1.464 3234
1.647 5.883 1.473 3232
1.648 5.887 1.455 1900
1.797 6.420 1.555 1729
1.806 6.454 1.542 2230
1.812 6.473 1.526 2343
1.852 6.618 1.537 3596
1.851 6.615 1.515 5802
1.850 6.611 1.494 5236
1.931 6.899 1.532 3745
1.932 6.903 1.511 3664
1.952 6.974 1.503 3076
2.039 7.285 1.542 3098
2.042 7.297 1.522 3946
2.043 7.301 1.500 3987
2.042 7.297 1.476 3735
2.043 7.301 1.454 2889
2.143 7.658 1.495 2550
2.174 7.767 1.491 2254
2.156 7.703 1.456 1950
2.165 7.736 1.437 1977
2.204 7.876 1.437 1564
2.403 8.587 1.528 1712
2.402 8.583 1.501 1875
2.403 8.587 1.475 1718
2.381 8.508 1.436 1842
2.389 8.534 1.414 1663
2.580 9.217 1.489 1350
2.773 9.908 1.560 1634
2.772 9.904 1.529 2031
2.775 9.916 1.500 1978
2.776 9.920 1.470 1679
2.883 10.302 1.490 1564
2.785 9.950 1.413 1357
2.926 10.453 1.446 1419
2.854 10.199 1.383 1115
2.858 10.210 1.353 1604
2.856 10.206 1.321 2742
2.855 10.201 1.290 3692
2.858 10.212 1.260 3892
2.861 10.223 1.230 3526
2.873 10.264 1.203 2948
2.882 10.297 1.175 2644
2.885 10.308 1.144 2266
2.858 10.212 1.104 1894
2.855 10.199 1.072 2115
2.819 10.073 1.030 2900
2.820 10.075 0.999 2968
2.820 10.077 0.969 2611
2.823 10.087 0.939 2070
2.828 10.105 0.910 1918
2.829 10.107 0.879 2336
2.829 10.109 0.849 2386
2.830 10.111 0.818 1849
0.592 2.116 0.272 1320
0.592 2.116 0.266 1396
0.590 2.109 0.259 1284
0.590 2.109 0.253 1047
0.593 2.117 0.247 889
0.593 2.117 0.241 1111
0.593 2.118 0.235 1259
0.593 2.118 0.229 1195
0.591 2.110 0.222 937
0.591 2.111 0.216 720
0.591 2.111 0.210 504
0.828 2.957 0.230 356
0.828 2.957 0.221 465
0.828 2.957 0.212 608
0.828 2.958 0.203 679
0.828 2.958 0.194 686
0.828 2.958 0.186 588
0.828 2.958 0.177 483
0.828 2.958 0.168 344
3.256 11.635 -0.274 289
3.256 11.634 -0.309 273
3.253 11.625 -0.344 260
0.422 1.508 0.074 389
0.422 1.508 0.070 878
0.422 1.508 0.065 1368
0.422 1.508 0.061 2246
0.422 1.508 0.057 3125
0.422 1.507 0.052 4207
0.420 1.499 0.048 5315
0.422 1.507 0.043 6136
0.422 1.506 0.039 6982
0.422 1.506 0.035 7201
0.421 1.506 0.030 7434
0.421 1.506 0.026 6998
0.421 1.505 0.021 6548
0.421 1.505 0.017 5854
0.421 1.505 0.013 5159
0.421 1.504 0.008 4314
0.421 1.504 0.004 3461
0.421 1.503 -0.001 3452
0.421 1.503 -0.005 2889
0.421 1.503 -0.009 2327
0.420 1.502 -0.014 1839
0.420 1.502 -0.018 1352
0.420 1.501 -0.023 951
0.420 1.501 -0.027 550
0.420 1.500 -0.031 542
0.422 1.507 -0.037 687
0.611 2.161 1.731 3533
0.612 2.166 1.725 7066
0.613 2.170 1.719 7066
0.609 2.156 1.698 7451
0.610 2.160 1.692 8630
0.624 2.208 1.718 7383
0.627 2.219 1.716 9909
0.628 2.223 1.709 9909
0.629 2.228 1.702 10061
0.631 2.232 1.696 10212
0.637 2.255 1.703 10411
0.640 2.266 1.700 12225
0.643 2.277 1.698 11420
0.664 2.351 1.740 10814
0.664 2.349 1.728 11592
0.663 2.347 1.717 12758
0.664 2.351 1.710 12653
0.666 2.356 1.703 11588
0.669 2.366 1.700 10959
0.675 2.390 1.706 9038
0.678 2.401 1.703 8395
0.680 2.405 1.696 6786
0.694 2.455 1.719 5328
0.697 2.466 1.716 5720
0.698 2.470 1.708 6189
0.699 2.474 1.701 8105
0.700 2.479 1.694 10021
0.703 2.490 1.690 11703
0.705 2.494 1.683 13398
0.708 2.505 1.680 9962
0.724 2.561 1.705 9874
0.727 2.572 1.701 8409
0.730 2.583 1.698 7083
0.733 2.594 1.694 6080
0.742 2.625 1.702 7193
0.743 2.629 1.695 7913
0.744 2.634 1.687 6981
0.745 2.638 1.679 5459
0.762 2.695 1.702 7194
0.763 2.700 1.694 10415
0.764 2.704 1.686 12013
0.765 2.708 1.678 13611
0.768 2.719 1.674 10521
0.796 2.817 1.719 8233
0.793 2.808 1.703 9824
0.802 2.839 1.710 10725
0.803 2.844 1.702 12873
0.807 2.855 1.697 12358
0.810 2.866 1.692 12104
0.811 2.870 1.684 12239
0.812 2.874 1.675 9604
0.815 2.886 1.670 5035
0.830 2.937 1.687 4077
0.835 2.955 1.685 4258
0.852 3.014 1.705 5660
0.853 3.018 1.696 6425
0.854 3.022 1.687 7342
0.855 3.027 1.678 7286
0.860 3.045 1.676 6449
0.860 3.042 1.664 5777
0.870 3.081 1.672 5852
0.872 3.085 1.663 7289
0.877 3.103 1.660 7617
0.892 3.155 1.675 10596
0.895 3.167 1.669 9323
0.888 3.143 1.646 7854
0.897 3.175 1.650 7796
0.926 3.276 1.687 9611
0.931 3.294 1.684 12579
0.936 3.313 1.681 14112
0.937 3.317 1.671 15350
0.936 3.314 1.658 14360
0.934 3.305 1.641 14445
0.937 3.316 1.635 14311
0.938 3.320 1.625 12544
0.939 3.324 1.615 8818
0.964 3.412 1.642 5389
0.967 3.423 1.635 7105
0.970 3.435 1.628 10269
0.974 3.446 1.621 12529
0.979 3.464 1.617 10010
1.000 3.539 1.637 7322
1.001 3.543 1.626 5538
1.028 3.639 1.654 6633
1.029 3.643 1.643 6126
1.042 3.690 1.650 7720
1.042 3.687 1.636 12972
1.039 3.677 1.619 12537
1.048 3.709 1.620 8399
1.053 3.728 1.614 9756
1.054 3.732 1.603 8528
1.058 3.743 1.595 5077
1.097 3.883 1.637 5070
1.130 4.001 1.669 6016
1.130 3.998 1.654 8688
1.135 4.017 1.648 8598
1.142 4.042 1.644 7705
1.149 4.068 1.640 5131
1.161 4.108 1.641 4060
1.162 4.112 1.629 6723
1.167 4.131 1.622 7541
1.172 4.149 1.614 7389
1.176 4.161 1.605 5770
1.191 4.215 1.610 5611
1.221 4.321 1.633 7294
1.222 4.325 1.620 10112
1.223 4.329 1.607 9869
1.226 4.340 1.596 13463
1.225 4.337 1.581 14447
1.220 4.319 1.561 9665
1.230 4.352 1.557 7302
1.235 4.371 1.549 10845
1.236 4.375 1.536 8195
1.237 4.379 1.523 7933
1.238 4.383 1.509 7263
1.287 4.554 1.549 5541
1.284 4.544 1.531 5988
1.281 4.533 1.513 8850
1.280 4.529 1.497 7731
1.279 4.526 1.481 4962
1.282 4.537 1.470 4301
1.420 5.025 1.598 5853
1.421 5.029 1.583 8617
1.420 5.025 1.566 7480
1.419 5.022 1.548 8302
1.422 5.033 1.535 9232
1.423 5.037 1.520 9831
1.424 5.041 1.505 10654
1.425 5.045 1.490 9544
1.426 5.049 1.475 6726
1.530 5.414 1.555 7290
1.531 5.418 1.539 8377
1.567 5.548 1.555 12552
1.569 5.552 1.538 13738
1.570 5.556 1.522 13253
1.571 5.559 1.505 11982
1.572 5.563 1.488 8817
1.573 5.567 1.472 6917
1.647 5.831 1.517 4728
1.651 5.842 1.501 4662
1.658 5.868 1.489 3622
1.661 5.879 1.473 3312
1.660 5.875 1.453 1767
1.821 6.445 1.562 1496
1.822 6.449 1.542 1865
1.825 6.461 1.524 2020
1.864 6.599 1.534 3582
1.868 6.610 1.515 5387
1.867 6.607 1.494 4791
1.950 6.902 1.533 4116
1.951 6.906 1.512 4282
1.969 6.970 1.503 4323
1.970 6.973 1.482 4413
1.973 6.985 1.463 3854
2.063 7.303 1.501 3025
2.060 7.292 1.476 2670
2.161 7.648 1.518 2279
2.164 7.660 1.497 2405
2.172 7.686 1.477 2166
2.175 7.697 1.456 2279
2.184 7.731 1.437 2165
2.200 7.787 1.423 1606
2.425 8.581 1.528 1630
2.426 8.585 1.502 1919
2.422 8.574 1.474 1973
2.402 8.502 1.436 1765
2.405 8.513 1.412 1405
2.677 9.475 1.527 1117
2.911 10.301 1.617 1631
2.910 10.298 1.585 2013
2.798 9.901 1.499 1826
2.803 9.920 1.471 1605
3.045 10.778 1.554 1595
3.049 10.790 1.522 1355
2.949 10.438 1.445 1163
2.886 10.215 1.386 1632
2.891 10.233 1.356 1935
2.903 10.274 1.330 2562
2.904 10.278 1.299 3167
2.883 10.205 1.260 3102
2.886 10.216 1.230 3573
2.887 10.219 1.199 3480
2.886 10.214 1.167 2976
2.859 10.118 1.127 2570
2.858 10.114 1.095 2459
2.850 10.086 1.062 2590
2.842 10.058 1.029 4036
2.843 10.061 0.998 4314
2.843 10.063 0.968 3976
2.846 10.073 0.938 3339
2.853 10.098 0.910 3577
2.852 10.092 0.879 3688
2.852 10.094 0.848 3268
2.853 10.096 0.818 2275
2.853 10.098 0.787 1008
0.597 2.115 0.266 974
0.598 2.115 0.260 939
0.598 2.115 0.254 768
0.598 2.116 0.247 532
0.600 2.123 0.241 562
0.598 2.116 0.235 652
0.598 2.116 0.229 639
0.596 2.109 0.222 517
0.596 2.109 0.216 400
0.596 2.109 0.210 290
0.835 2.956 0.186 281
0.835 2.956 0.177 324
0.835 2.956 0.168 297
0.835 2.956 0.159 270
0.424 1.501 0.110 298
0.424 1.501 0.105 352
0.424 1.501 0.101 353
0.424 1.500 0.097 320
3.290 11.643 -0.240 312
3.289 11.642 -0.275 323
3.289 11.641 -0.310 296
0.422 1.492 0.079 308
0.422 1.492 0.075 423
0.424 1.500 0.070 853
0.426 1.507 0.065 1289
0.424 1.499 0.061 2078
0.423 1.499 0.057 2867
0.423 1.499 0.053 3919
0.423 1.498 0.048 4971
0.423 1.498 0.044 5874
0.425 1.505 0.039 6831
0.425 1.505 0.035 7373
0.425 1.505 0.030 7941
0.425 1.505 0.026 7907
0.425 1.504 0.021 7847
0.425 1.504 0.017 7405
0.427 1.511 0.012 7045
0.425 1.503 0.008 6125
0.425 1.503 0.004 5289
0.424 1.502 -0.001 5293
0.424 1.502 -0.005 4495
0.424 1.502 -0.009 3697
0.424 1.501 -0.014 2878
0.426 1.508 -0.019 2085
0.426 1.508 -0.023 1416
0.424 1.500 -0.027 760
0.424 1.499 -0.031 737
0.423 1.499 -0.036 938
0.620 2.165 1.736 3300
0.621 2.170 1.730 6601
0.622 2.174 1.723 6601
0.615 2.148 1.694 7245
0.616 2.152 1.687 8629
0.633 2.212 1.722 8868
0.636 2.223 1.720 12500
0.638 2.227 1.713 12500
0.639 2.232 1.707 12674
0.638 2.230 1.696 12917
0.645 2.253 1.703 11979
0.648 2.264 1.700 13039
0.649 2.268 1.694 11941
0.654 2.285 1.696 11375
0.670 2.340 1.724 12325
0.671 2.345 1.717 13536
0.672 2.349 1.710 13373
0.674 2.353 1.703 12046
0.679 2.371 1.705 11474
0.684 2.388 1.706 9515
0.687 2.398 1.703 8567
0.688 2.403 1.696 6947
0.684 2.388 1.676 5882
0.705 2.463 1.716 6245
0.706 2.468 1.708 7028
0.710 2.478 1.705 9184
0.711 2.483 1.698 11404
0.712 2.487 1.690 13247
0.713 2.491 1.683 15090
0.716 2.502 1.680 11504
0.733 2.559 1.705 9544
0.736 2.570 1.701 7687
0.737 2.574 1.694 6005
0.748 2.611 1.706 5553
0.753 2.629 1.706 7128
0.752 2.627 1.695 7224
0.753 2.631 1.687 6259
0.754 2.635 1.679 5166
0.771 2.693 1.702 7093
0.772 2.697 1.694 10021
0.773 2.701 1.686 11730
0.776 2.712 1.682 13470
0.780 2.723 1.678 10653
0.802 2.801 1.712 8691
0.803 2.805 1.703 10692
0.812 2.836 1.710 10026
0.815 2.847 1.705 11898
0.816 2.852 1.697 11054
0.820 2.863 1.692 10047
0.821 2.867 1.684 9860
0.822 2.872 1.675 8119
0.829 2.896 1.677 5203
0.838 2.928 1.683 5509
0.841 2.939 1.678 5169
0.862 3.011 1.705 4715
0.863 3.015 1.696 5385
0.864 3.020 1.687 6636
0.866 3.024 1.678 6899
0.871 3.042 1.676 6293
0.872 3.046 1.667 5712
0.875 3.057 1.662 6627
0.880 3.075 1.659 8737
0.886 3.093 1.657 8535
0.902 3.152 1.675 10993
0.906 3.164 1.669 9130
0.907 3.168 1.660 7466
0.910 3.179 1.653 7528
0.939 3.280 1.690 9900
0.944 3.298 1.687 13230
0.947 3.309 1.681 14901
0.949 3.314 1.671 15047
0.950 3.318 1.661 12674
0.943 3.294 1.638 13310
0.948 3.313 1.635 14171
0.950 3.317 1.625 12722
0.951 3.321 1.615 8860
0.958 3.346 1.614 4817
0.979 3.420 1.635 6286
0.982 3.431 1.628 8428
0.988 3.449 1.624 10164
0.989 3.454 1.614 8118
1.010 3.528 1.634 6038
1.011 3.532 1.623 5877
1.041 3.635 1.654 6680
1.042 3.639 1.643 6485
1.059 3.700 1.656 8978
1.056 3.690 1.639 12876
1.054 3.680 1.622 12546
1.061 3.706 1.620 8729
1.066 3.724 1.614 10541
1.067 3.728 1.603 9413
1.066 3.725 1.589 5376
1.115 3.893 1.642 5146
1.144 3.997 1.669 5370
1.146 4.001 1.657 7763
1.149 4.013 1.648 8381
1.156 4.038 1.644 7475
1.168 4.078 1.645 5409
1.175 4.104 1.641 4368
1.178 4.116 1.631 6824
1.181 4.127 1.622 7864
1.187 4.145 1.614 7699
1.190 4.157 1.605 5974
1.206 4.211 1.610 6047
1.236 4.316 1.633 9983
1.237 4.321 1.620 13257
1.240 4.332 1.609 11298
1.243 4.343 1.599 12134
1.238 4.326 1.578 11326
1.235 4.315 1.561 10289
1.243 4.341 1.555 9164
1.248 4.359 1.546 9433
1.253 4.378 1.538 6777
1.254 4.382 1.525 7088
1.253 4.378 1.509 6034
1.303 4.550 1.549 6808
1.302 4.546 1.533 6790
1.298 4.536 1.515 8161
1.298 4.532 1.499 6267
1.294 4.521 1.481 3754
1.295 4.525 1.467 3120
1.439 5.027 1.600 4942
1.438 5.024 1.583 7443
1.437 5.020 1.566 5432
1.438 5.024 1.551 5388
1.442 5.036 1.537 6838
1.443 5.040 1.522 7197
1.442 5.036 1.505 6851
1.445 5.047 1.492 6607
1.446 5.051 1.477 4810
1.548 5.409 1.555 6063
1.583 5.531 1.570 8717
1.587 5.542 1.555 13321
1.588 5.546 1.538 14833
1.589 5.550 1.522 15233
1.590 5.554 1.505 13343
1.591 5.558 1.488 9424
1.592 5.561 1.472 7501
1.668 5.825 1.517 5511
1.671 5.836 1.501 5221
1.678 5.862 1.489 3488
1.679 5.866 1.471 2864
1.680 5.870 1.453 1642
1.846 6.446 1.563 1429
1.734 6.056 1.457 1977
1.880 6.566 1.549 1939
1.883 6.577 1.530 3376
1.888 6.596 1.514 4587
1.887 6.593 1.492 4047
1.974 6.895 1.533 4284
1.977 6.906 1.514 4796
1.993 6.963 1.503 5089
1.994 6.966 1.482 5263
1.998 6.978 1.463 4293
2.104 7.348 1.511 2476
2.154 7.525 1.521 1672
2.185 7.633 1.517 1982
2.191 7.652 1.497 2181
2.198 7.678 1.477 2207
2.201 7.690 1.456 2480
2.209 7.716 1.436 2249
2.227 7.780 1.423 1665
2.396 8.370 1.495 1579
2.455 8.577 1.502 1881
2.454 8.573 1.475 2027
2.432 8.494 1.436 1593
2.502 8.738 1.447 1286
2.608 9.111 1.475 1050
2.946 10.291 1.617 1958
2.947 10.295 1.586 2343
2.946 10.292 1.554 1923
2.945 10.288 1.522 1526
3.080 10.760 1.553 1621
3.082 10.764 1.520 1518
2.927 10.224 1.419 1946
2.930 10.235 1.389 2283
2.933 10.246 1.359 2930
2.932 10.242 1.327 3816
2.929 10.230 1.295 4383
2.936 10.256 1.266 4315
2.937 10.259 1.235 4024
2.927 10.224 1.200 2783
2.906 10.151 1.162 2791
2.903 10.139 1.130 3036
2.899 10.126 1.098 2823
2.893 10.106 1.065 3142
2.888 10.086 1.032 3370
2.880 10.058 0.999 5190
2.880 10.061 0.969 6055
2.883 10.070 0.939 5644
2.886 10.080 0.909 5993
2.884 10.075 0.878 5744
2.883 10.069 0.847 4950
2.883 10.071 0.817 3336
2.886 10.081 0.787 1197
2.886 10.082 0.756 692
2.872 10.031 0.723 713
2.870 10.025 0.692 738
2.870 10.026 0.662 684
2.869 10.020 0.631 534
2.867 10.014 0.600 331
0.605 2.114 0.229 271
2.868 10.016 0.540 251
0.638 2.230 0.128 260
0.638 2.230 0.121 340
0.638 2.230 0.115 420
0.636 2.222 0.108 412
0.636 2.222 0.101 403
0.636 2.222 0.095 364
0.636 2.222 0.088 285
0.752 2.625 0.071 328
0.751 2.625 0.063 357
0.751 2.625 0.055 374
0.751 2.624 0.047 349
3.329 11.629 -0.310 287
3.329 11.628 -0.345 272
0.429 1.498 0.070 328
0.431 1.505 0.065 538
0.431 1.505 0.061 988
0.431 1.505 0.057 1439
0.431 1.505 0.052 2171
0.429 1.497 0.048 2905
0.431 1.504 0.043 3782
0.431 1.504 0.039 4662
0.430 1.504 0.035 5456
0.430 1.503 0.030 6202
0.432 1.511 0.025 6603
0.430 1.503 0.021 6993
0.432 1.510 0.016 7038
0.432 1.510 0.012 7122
0.432 1.509 0.007 6471
0.430 1.501 0.004 5841
0.430 1.501 -0.001 5865
0.430 1.501 -0.005 5145
0.429 1.500 -0.009 4425
0.432 1.507 -0.015 3561
0.431 1.507 -0.019 2707
0.431 1.506 -0.023 1913
0.429 1.498 -0.027 1128
0.429 1.498 -0.031 1095
0.431 1.505 -0.037 1408
0.608 2.102 1.690 3227
0.609 2.106 1.683 6455
0.610 2.111 1.677 6455
0.619 2.140 1.689 7028
0.622 2.150 1.687 8315
0.641 2.217 1.727 10639
0.642 2.221 1.720 14959
0.644 2.226 1.713 14959
0.645 2.230 1.707 15193
0.646 2.234 1.700 15427
0.649 2.245 1.698 13766
0.654 2.262 1.700 13414
0.655 2.266 1.694 12256
0.662 2.290 1.700 11775
0.676 2.338 1.724 12632
0.678 2.343 1.717 13767
0.677 2.341 1.706 13625
0.680 2.352 1.703 12005
0.685 2.369 1.705 11546
0.690 2.386 1.706 9649
0.693 2.397 1.703 8504
0.693 2.395 1.692 6949
0.690 2.386 1.676 6209
0.712 2.461 1.716 6485
0.713 2.466 1.708 7509
0.716 2.476 1.705 9802
0.718 2.481 1.698 12208
0.719 2.485 1.690 14233
0.722 2.496 1.687 16323
0.723 2.500 1.680 12675
0.728 2.518 1.680 9525
0.729 2.522 1.673 7251
0.731 2.526 1.665 4978
0.757 2.616 1.710 5060
0.760 2.627 1.706 6534
0.761 2.631 1.699 6085
0.760 2.629 1.687 5103
0.785 2.712 1.726 5077
0.778 2.690 1.702 7020
0.777 2.688 1.690 9249
0.781 2.699 1.686 11003
0.784 2.710 1.682 13054
0.789 2.728 1.682 10542
0.808 2.792 1.708 9228
0.809 2.796 1.700 11373
0.814 2.814 1.699 9286
0.825 2.852 1.709 10655
0.826 2.856 1.701 9515
0.825 2.854 1.688 7602
0.827 2.858 1.680 6954
0.830 2.869 1.675 5985
0.841 2.907 1.685 6267
0.844 2.918 1.680 7058
0.847 2.930 1.675 6332
0.851 2.941 1.669 4698
0.867 2.999 1.689 4154
0.873 3.017 1.687 5645
0.878 3.035 1.685 6557
0.881 3.046 1.680 6481
0.882 3.051 1.671 6007
0.886 3.062 1.665 7500
0.889 3.073 1.659 9557
0.894 3.091 1.657 8843
0.911 3.150 1.675 11011
0.914 3.161 1.669 8861
0.916 3.165 1.660 7091
0.919 3.177 1.653 7213
0.948 3.277 1.690 10371
0.951 3.289 1.684 13805
0.954 3.300 1.677 15444
0.958 3.311 1.671 14163
0.961 3.322 1.664 10968
0.952 3.292 1.638 11560
0.957 3.310 1.635 12784
0.959 3.314 1.625 11534
0.960 3.318 1.615 7963
0.969 3.350 1.617 4370
0.988 3.417 1.635 5428
0.994 3.436 1.631 6477
0.997 3.447 1.624 7566
0.998 3.451 1.614 5895
1.018 3.518 1.631 5536
1.021 3.530 1.623 6284
1.024 3.541 1.615 6750
1.056 3.651 1.649 7138
1.069 3.697 1.656 10231
1.069 3.694 1.642 12557
1.066 3.684 1.625 11809
1.071 3.703 1.620 8928
1.076 3.721 1.614 11007
1.075 3.718 1.600 10124
1.075 3.715 1.586 6061
1.131 3.911 1.651 5938
1.135 3.923 1.642 5360
1.156 3.998 1.657 6525
1.160 4.010 1.648 7627
1.165 4.028 1.641 6691
1.179 4.075 1.645 5627
1.186 4.101 1.641 4451
1.189 4.112 1.631 6379
1.195 4.131 1.624 7501
1.198 4.142 1.614 7332
1.199 4.146 1.602 5752
1.244 4.302 1.643 6460
1.247 4.313 1.633 12085
1.251 4.324 1.622 15673
1.252 4.328 1.609 13274
1.255 4.340 1.599 12175
1.250 4.322 1.578 11195
1.249 4.319 1.563 12430
1.252 4.330 1.552 11144
1.258 4.349 1.544 8501
1.265 4.374 1.538 5201
1.266 4.378 1.525 5652
1.312 4.535 1.560 6157
1.315 4.546 1.549 7113
1.314 4.543 1.533 6865
1.313 4.539 1.517 7013
1.312 4.536 1.501 4918
1.309 4.525 1.483 2825
1.310 4.529 1.470 2330
1.453 5.023 1.600 4396
1.454 5.027 1.585 5878
1.453 5.024 1.568 3662
1.473 5.094 1.571 3954
1.457 5.039 1.540 4853
1.539 5.322 1.602 5274
1.545 5.341 1.590 6065
1.544 5.338 1.572 6597
1.545 5.342 1.556 5313
1.593 5.508 1.583 5489
1.596 5.519 1.568 9015
1.600 5.530 1.553 12605
1.603 5.542 1.538 13622
1.602 5.538 1.520 14508
1.605 5.550 1.505 12206
1.606 5.553 1.488 8025
1.607 5.557 1.472 6472
1.683 5.820 1.517 5828
1.685 5.824 1.499 5289
1.694 5.858 1.489 3045
1.695 5.861 1.471 2299
1.746 6.036 1.492 1692
1.745 6.032 1.472 1645
1.750 6.051 1.457 2444
1.749 6.047 1.437 1983
1.901 6.572 1.530 2894
1.904 6.584 1.512 3712
1.905 6.587 1.492 3452
1.993 6.890 1.533 4185
1.996 6.901 1.514 4983
2.012 6.957 1.503 5299
2.013 6.961 1.482 5542
2.019 6.980 1.464 4290
2.007 6.938 1.435 2319
2.172 7.511 1.519 2367
2.171 7.507 1.495 2497
2.170 7.504 1.471 1902
2.217 7.665 1.476 2258
2.222 7.684 1.456 2735
2.230 7.710 1.436 2245
2.248 7.774 1.423 1625
2.417 8.356 1.494 1618
2.479 8.570 1.502 1743
2.478 8.566 1.475 1900
2.633 9.104 1.531 1457
2.632 9.100 1.503 1314
2.631 9.097 1.474 1118
2.974 10.283 1.617 1782
2.973 10.280 1.585 2159
2.974 10.284 1.554 1814
2.975 10.287 1.523 1541
3.107 10.744 1.552 1749
3.109 10.748 1.519 1812
3.110 10.752 1.487 1868
3.144 10.869 1.468 1576
3.145 10.872 1.435 1557
2.942 10.173 1.320 2473
2.943 10.176 1.290 3275
2.953 10.210 1.262 4012
2.952 10.205 1.230 5705
2.944 10.178 1.196 5681
2.945 10.181 1.166 4387
2.917 10.085 1.125 4559
2.920 10.096 1.095 4383
2.927 10.121 1.067 3420
2.935 10.146 1.038 2976
2.911 10.066 1.000 2063
2.912 10.068 0.970 2618
2.913 10.070 0.940 2476
2.907 10.050 0.907 2382
2.905 10.044 0.876 3371
2.903 10.039 0.845 4177
2.908 10.056 0.816 3336
2.916 10.080 0.787 2344
2.916 10.082 0.757 1603
2.892 10.000 0.721 1038
2.897 10.017 0.692 718
2.889 9.988 0.660 442
2.891 9.997 0.630 481
2.894 10.006 0.600 626
2.894 10.007 0.570 725
2.895 10.009 0.540 632
2.895 10.010 0.510 382
0.645 2.228 0.134 407
0.645 2.228 0.128 556
0.645 2.228 0.121 605
0.642 2.221 0.115 667
0.642 2.221 0.108 618
0.642 2.221 0.101 569
0.642 2.220 0.095 542
0.642 2.220 0.088 457
0.759 2.623 0.071 495
0.759 2.623 0.063 579
0.759 2.623 0.055 644
0.758 2.622 0.047 620
0.758 2.622 0.040 534
3.358 11.611 -0.345 472
3.358 11.610 -0.380 408
3.357 11.608 -0.415 344
3.357 11.607 -0.450 289
0.435 1.504 0.057 377
0.435 1.504 0.052 633
0.435 1.503 0.048 890
0.435 1.503 0.043 1217
0.435 1.503 0.039 1545
0.435 1.502 0.035 1871
0.437 1.510 0.030 2172
0.437 1.509 0.025 2431
0.436 1.509 0.021 2663
0.436 1.509 0.016 2825
0.436 1.508 0.012 2987
0.436 1.508 0.007 2858
0.436 1.508 0.003 2729
0.436 1.507 -0.001 2726
0.436 1.507 -0.006 2514
0.436 1.507 -0.010 2304
0.436 1.506 -0.015 1947
0.435 1.506 -0.019 1591
0.435 1.505 -0.023 1180
0.435 1.505 -0.028 769
0.433 1.497 -0.031 741
0.437 1.511 -0.038 991
0.613 2.100 1.690 3405
0.614 2.105 1.683 6810
0.615 2.109 1.677 6810
0.622 2.132 1.685 7010
0.625 2.142 1.683 7907
0.648 2.221 1.731 12226
0.648 2.220 1.720 16791
0.649 2.224 1.713 16791
0.650 2.228 1.707 17013
0.652 2.233 1.700 17236
0.655 2.243 1.698 14954
0.658 2.254 1.696 13462
0.661 2.265 1.694 12143
0.671 2.301 1.709 12347
0.682 2.337 1.724 12825
0.683 2.341 1.717 13729
0.683 2.339 1.706 13692
0.686 2.350 1.703 11630
0.693 2.373 1.709 11196
0.696 2.384 1.706 9527
0.699 2.395 1.703 8349
0.698 2.393 1.692 7008
0.696 2.384 1.676 6486
0.720 2.466 1.720 6275
0.719 2.464 1.708 7448
0.722 2.475 1.705 9833
0.725 2.486 1.702 12396
0.727 2.490 1.695 14667
0.728 2.494 1.687 16937
0.729 2.499 1.680 13227
0.734 2.516 1.680 9972
0.735 2.520 1.673 7615
0.735 2.518 1.661 5310
0.736 2.522 1.654 4658
0.768 2.631 1.710 5370
0.769 2.636 1.702 4740
0.788 2.699 1.730 4940
0.789 2.704 1.722 5281
0.783 2.682 1.698 6644
0.784 2.686 1.690 8273
0.791 2.711 1.694 10015
0.792 2.715 1.686 12459
0.797 2.732 1.686 10406
0.810 2.777 1.700 9840
0.814 2.788 1.696 11668
0.815 2.792 1.687 8588
0.834 2.857 1.713 9462
0.835 2.861 1.704 8220
0.836 2.865 1.696 5349
0.830 2.843 1.672 4322
0.843 2.888 1.686 4524
0.848 2.905 1.685 7399
0.851 2.916 1.680 8528
0.852 2.921 1.671 7546
0.858 2.939 1.669 5821
0.859 2.943 1.661 4752
0.884 3.029 1.694 4579
0.887 3.040 1.689 6545
0.890 3.051 1.683 7170
0.894 3.062 1.678 6834
0.895 3.066 1.669 8186
0.894 3.064 1.656 9853
0.901 3.089 1.657 8969
0.921 3.155 1.678 10956
0.920 3.152 1.666 8495
0.923 3.163 1.660 6564
0.928 3.181 1.657 6706
0.956 3.275 1.690 10431
0.959 3.286 1.684 14238
0.962 3.298 1.677 16004
0.966 3.309 1.671 13238
0.971 3.327 1.667 9799
0.958 3.283 1.635 10675
0.965 3.308 1.635 11195
0.966 3.312 1.625 10077
0.968 3.316 1.615 6815
1.018 3.488 1.680 4146
1.003 3.436 1.645 4787
1.035 3.545 1.681 5436
1.036 3.550 1.670 7542
1.035 3.547 1.656 6372
1.028 3.523 1.634 5395
1.031 3.534 1.626 6397
1.033 3.538 1.615 6631
1.069 3.662 1.655 7634
1.078 3.695 1.656 10711
1.079 3.699 1.645 11881
1.077 3.689 1.628 10305
1.080 3.700 1.620 8682
1.083 3.711 1.611 10954
1.084 3.716 1.600 10202
1.081 3.705 1.584 6940
1.143 3.916 1.653 6324
1.144 3.920 1.642 4958
1.166 3.995 1.657 5082
1.169 4.007 1.648 6277
1.177 4.032 1.644 5439
1.188 4.072 1.645 5588
1.169 4.005 1.606 5957
1.172 4.016 1.597 6162
1.207 4.135 1.627 6863
1.208 4.139 1.614 6128
1.203 4.122 1.594 5204
1.254 4.299 1.643 6971
1.260 4.317 1.635 12837
1.261 4.321 1.622 16512
1.262 4.325 1.609 14681
1.266 4.337 1.599 12926
1.263 4.326 1.581 12331
1.259 4.316 1.563 13866
1.263 4.327 1.552 11739
1.266 4.338 1.542 7902
1.267 4.342 1.529 4296
1.279 4.382 1.527 4119
1.325 4.539 1.563 5635
1.326 4.543 1.549 6485
1.327 4.547 1.535 6045
1.326 4.544 1.519 5463
1.325 4.540 1.503 3572
1.415 4.851 1.582 2590
1.421 4.869 1.572 2763
1.465 5.019 1.600 3550
1.468 5.031 1.587 4345
1.469 5.035 1.572 3139
1.483 5.083 1.569 4602
1.480 5.072 1.550 4037
1.552 5.318 1.602 5502
1.555 5.330 1.588 6308
1.559 5.341 1.574 7459
1.558 5.338 1.556 6369
1.595 5.467 1.573 6078
1.609 5.515 1.568 8277
1.611 5.519 1.551 10759
1.614 5.531 1.537 10805
1.615 5.534 1.520 11935
1.616 5.538 1.503 9574
1.619 5.550 1.488 5723
1.621 5.553 1.472 4736
1.697 5.816 1.517 5339
1.698 5.820 1.499 4622
1.617 5.542 1.416 2665
1.618 5.546 1.399 2501
1.619 5.549 1.383 2184
1.759 6.028 1.472 1750
1.765 6.047 1.457 2522
1.763 6.043 1.437 2085
1.919 6.575 1.532 2423
1.920 6.579 1.512 3101
1.971 6.754 1.528 3543
1.974 6.766 1.509 4224
2.012 6.896 1.514 4802
2.016 6.908 1.495 5091
2.032 6.964 1.484 5281
2.038 6.982 1.466 4023
2.189 7.502 1.542 2600
2.188 7.498 1.518 2853
2.189 7.502 1.495 3094
2.190 7.506 1.472 2461
2.237 7.667 1.477 2094
2.241 7.678 1.456 2750
2.246 7.697 1.435 2173
2.269 7.776 1.424 1441
2.432 8.335 1.491 1517
2.499 8.564 1.502 1584
2.498 8.560 1.475 1668
2.653 9.090 1.530 1771
2.652 9.086 1.502 1484
2.767 9.482 1.532 1233
2.768 9.485 1.503 1735
2.767 9.482 1.473 1997
2.764 9.470 1.443 1985
3.002 10.288 1.524 1622
3.131 10.729 1.551 1977
3.132 10.733 1.518 2062
3.133 10.737 1.486 2119
3.132 10.733 1.452 1658
3.171 10.865 1.435 1533
2.973 10.189 1.323 1792
2.983 10.222 1.296 2046
2.986 10.233 1.265 2962
2.985 10.229 1.234 3684
2.931 10.043 1.183 4079
2.929 10.038 1.152 3995
2.930 10.041 1.121 3405
2.937 10.066 1.093 4948
2.936 10.061 1.062 6578
2.939 10.071 1.032 5068
2.937 10.066 1.001 3600
2.936 10.061 0.970 3728
2.934 10.056 0.939 3164
2.931 10.043 0.907 2540
2.933 10.052 0.878 3548
2.934 10.054 0.847 5072
2.935 10.056 0.817 5269
2.935 10.058 0.786 3786
2.918 9.999 0.752 2522
2.918 10.001 0.722 2224
2.919 10.002 0.692 1491
2.922 10.012 0.662 1100
2.922 10.013 0.631 1168
2.920 10.007 0.601 1132
2.918 10.000 0.570 1049
2.919 10.002 0.540 886
2.917 9.995 0.509 539
2.917 9.996 0.479 351
0.665 2.279 0.209 271
0.650 2.227 0.148 255
0.648 2.219 0.141 384
0.648 2.219 0.134 631
0.650 2.227 0.128 748
0.648 2.219 0.121 759
0.645 2.212 0.115 774
0.648 2.219 0.108 787
0.648 2.219 0.101 801
0.648 2.219 0.095 802
0.647 2.219 0.088 683
0.650 2.226 0.081 568
0.765 2.621 0.063 606
0.765 2.621 0.055 718
0.765 2.621 0.047 717
0.765 2.620 0.040 621
0.765 2.620 0.032 510
0.764 2.620 0.024 387
0.499 1.708 0.060 269
0.498 1.708 0.055 417
0.498 1.708 0.050 566
0.498 1.708 0.045 735
0.498 1.707 0.040 905
0.498 1.707 0.035 999
0.438 1.502 0.043 1204
0.438 1.502 0.039 1551
0.438 1.501 0.035 1928
0.438 1.501 0.030 2275
0.440 1.508 0.025 2544
0.440 1.508 0.021 2782
0.440 1.508 0.016 2922
0.440 1.507 0.012 3063
0.440 1.507 0.007 2914
0.440 1.507 0.003 2765
0.437 1.499 -0.001 2782
0.437 1.498 -0.005 2552
0.437 1.498 -0.009 2322
0.439 1.505 -0.015 1986
0.439 1.505 -0.019 1657
0.439 1.504 -0.023 1258
0.437 1.496 -0.027 870
0.436 1.496 -0.031 857
0.439 1.503 -0.037 1129
0.623 2.104 1.694 3379
0.624 2.109 1.688 6759
0.625 2.113 1.682 6759
0.650 2.198 1.735 7283
0.655 2.214 1.738 8897
0.657 2.219 1.731 13475
0.658 2.223 1.725 18054
0.659 2.228 1.718 18054
0.661 2.232 1.711 18179
0.662 2.237 1.705 18303
0.663 2.241 1.698 15576
0.666 2.252 1.696 13104
0.669 2.262 1.694 11753
0.680 2.298 1.709 12821
0.689 2.328 1.720 12824
0.690 2.332 1.713 13389
0.691 2.337 1.706 13294
0.695 2.347 1.703 10736
0.702 2.371 1.709 10437
0.705 2.382 1.706 9028
0.708 2.392 1.703 7900
0.707 2.390 1.692 6929
0.705 2.382 1.676 6514
0.729 2.463 1.720 5696
0.726 2.455 1.704 7027
0.733 2.478 1.709 9434
0.735 2.483 1.702 12183
0.736 2.487 1.695 14447
0.737 2.492 1.687 16711
0.741 2.502 1.684 13093
0.744 2.513 1.680 9715
0.743 2.511 1.669 7524
0.744 2.515 1.661 5384
0.744 2.513 1.650 4934
0.801 2.707 1.758 5173
0.801 2.705 1.746 4741
0.798 2.696 1.730 5038
0.799 2.701 1.722 5294
0.805 2.719 1.722 6223
0.814 2.749 1.729 7564
0.807 2.727 1.706 9702
0.806 2.725 1.694 12240
0.810 2.736 1.689 10618
0.817 2.760 1.693 10525
0.820 2.771 1.688 12051
0.819 2.769 1.676 9629
0.848 2.867 1.720 8390
0.850 2.871 1.712 7473
0.823 2.782 1.651 5110
0.824 2.786 1.643 4709
0.860 2.905 1.697 5142
0.859 2.902 1.685 8214
0.860 2.906 1.676 9845
0.863 2.918 1.671 8749
0.869 2.935 1.669 7078
0.870 2.940 1.661 6205
0.871 2.944 1.652 4886
0.901 3.043 1.692 7105
0.904 3.054 1.687 8303
0.905 3.059 1.678 8027
0.906 3.063 1.669 8559
0.908 3.067 1.659 9367
0.915 3.092 1.660 8701
0.941 3.178 1.692 11057
0.948 3.203 1.693 8565
0.949 3.208 1.683 7280
0.953 3.219 1.677 7890
0.968 3.271 1.690 9744
0.971 3.283 1.684 13929
0.975 3.294 1.677 16037
0.976 3.298 1.667 12930
0.986 3.330 1.670 9452
0.972 3.286 1.638 9300
0.976 3.297 1.631 8763
0.979 3.308 1.625 7897
0.980 3.312 1.615 5383
1.031 3.484 1.680 4158
1.020 3.446 1.651 5010
1.050 3.548 1.684 6810
1.049 3.546 1.670 8877
1.048 3.543 1.656 6952
1.048 3.540 1.643 5256
1.047 3.537 1.629 5816
1.079 3.647 1.663 6118
1.087 3.672 1.661 7598
1.092 3.691 1.656 10390
1.093 3.695 1.645 10500
1.093 3.692 1.631 8110
1.094 3.696 1.620 8084
1.099 3.714 1.614 10560
1.098 3.711 1.600 9704
1.093 3.694 1.581 7994
1.158 3.911 1.653 5938
1.159 3.916 1.642 3877
1.185 4.005 1.663 3419
1.184 4.002 1.648 4788
1.198 4.049 1.652 4294
1.204 4.068 1.645 5326
1.186 4.008 1.609 6564
1.187 4.012 1.597 6761
1.222 4.131 1.627 6639
1.219 4.120 1.609 5467
1.216 4.110 1.592 5298
1.271 4.294 1.643 6675
1.276 4.312 1.635 12063
1.277 4.317 1.622 15486
1.279 4.321 1.609 14688
1.280 4.325 1.596 13492
1.279 4.322 1.581 12693
1.278 4.318 1.565 13294
1.279 4.322 1.552 10618
1.282 4.334 1.542 6824
1.281 4.330 1.526 4004
1.366 4.617 1.604 3830
1.344 4.541 1.565 4466
1.345 4.545 1.551 5224
1.385 4.680 1.578 4563
1.343 4.538 1.519 3600
1.396 4.717 1.559 2774
1.436 4.852 1.584 3046
1.437 4.856 1.570 3008
1.482 5.007 1.598 2820
1.485 5.018 1.585 3192
1.493 5.044 1.576 3473
1.500 5.070 1.567 5066
1.499 5.067 1.550 4287
1.572 5.313 1.602 4950
1.578 5.331 1.590 5706
1.579 5.335 1.574 7352
1.580 5.339 1.558 6640
1.616 5.461 1.573 7045
1.628 5.502 1.566 6365
1.632 5.513 1.551 7799
1.633 5.517 1.535 7719
1.632 5.514 1.516 8633
1.635 5.525 1.501 6374
1.675 5.662 1.517 4060
1.672 5.651 1.497 5471
1.673 5.654 1.480 6677
1.677 5.666 1.464 5072
1.638 5.536 1.416 2940
1.637 5.532 1.398 2716
1.638 5.535 1.381 2296
1.751 5.918 1.449 1934
1.790 6.047 1.459 2143
1.951 6.594 1.558 2281
1.946 6.575 1.534 2342
1.945 6.572 1.512 2999
1.999 6.754 1.529 3609
2.000 6.758 1.509 4245
2.036 6.881 1.512 4226
2.040 6.892 1.493 4389
2.065 6.978 1.488 4600
2.071 6.997 1.470 3759
2.220 7.501 1.543 2686
2.219 7.498 1.519 2990
2.218 7.494 1.495 3399
2.219 7.498 1.472 3101
2.222 7.509 1.451 1908
2.272 7.677 1.457 2336
2.273 7.681 1.434 1791
2.456 8.299 1.513 1351
2.457 8.303 1.488 1594
2.412 8.149 1.437 1418
2.688 9.084 1.559 1420
2.687 9.080 1.530 1959
2.686 9.076 1.502 1513
2.805 9.479 1.533 1635
2.804 9.475 1.503 2077
2.803 9.471 1.473 2250
2.802 9.467 1.444 2387
2.801 9.463 1.414 1794
3.172 10.717 1.551 2034
3.173 10.721 1.518 2186
3.174 10.725 1.486 2165
3.106 10.495 1.424 1903
3.395 11.471 1.509 1511
3.398 11.482 1.476 1429
3.024 10.218 1.296 1878
3.023 10.214 1.265 2769
2.972 10.043 1.215 3559
2.971 10.039 1.184 4645
2.972 10.042 1.153 4052
2.970 10.037 1.122 3606
2.971 10.040 1.092 3226
2.976 10.057 1.063 2689
2.979 10.068 1.033 2100
2.985 10.085 1.004 2418
2.985 10.088 0.973 2816
2.981 10.075 0.941 2654
2.975 10.054 0.909 3207
2.974 10.049 0.878 3718
2.979 10.066 0.849 3692
2.977 10.060 0.818 3298
2.969 10.032 0.785 2474
2.967 10.026 0.754 2218
2.965 10.020 0.724 1748
2.946 9.953 0.689 1429
2.944 9.947 0.659 977
2.944 9.949 0.629 941
2.949 9.965 0.599 789
2.952 9.974 0.569 723
2.954 9.983 0.540 596
2.955 9.984 0.509 417
0.674 2.276 0.216 413
0.674 2.277 0.209 413
0.674 2.277 0.202 345
0.672 2.269 0.195 272
0.661 2.232 0.134 491
0.661 2.232 0.128 641
0.661 2.232 0.121 678
0.658 2.224 0.115 719
0.658 2.224 0.108 591
0.660 2.232 0.101 463
0.658 2.224 0.095 366
0.779 2.634 0.078 327
0.779 2.634 0.071 402
0.777 2.626 0.063 480
0.777 2.626 0.055 570
0.777 2.625 0.047 607
0.777 2.625 0.039 602
0.777 2.625 0.032 567
0.777 2.624 0.024 465
0.774 2.616 0.016 368
0.774 2.616 0.008 262
0.505 1.706 0.050 308
0.505 1.706 0.045 371
0.505 1.705 0.040 433
0.442 1.493 0.048 441
0.444 1.500 0.043 549
0.444 1.500 0.039 667
0.444 1.500 0.035 767
0.444 1.499 0.030 866
0.509 1.719 0.009 998
0.509 1.718 0.003 1050
0.446 1.506 0.016 1136
0.446 1.506 0.012 1269
0.445 1.505 0.007 1387
0.445 1.505 0.003 1505
0.445 1.505 -0.001 1523
0.445 1.504 -0.006 1629
0.445 1.504 -0.010 1718
0.445 1.503 -0.015 1593
0.445 1.503 -0.019 1468
0.445 1.502 -0.023 1183
0.444 1.502 -0.028 898
0.444 1.502 -0.032 861
0.444 1.501 -0.037 1181
0.629 2.103 1.694 3179
0.630 2.107 1.688 6358
0.631 2.111 1.682 6358
0.656 2.196 1.735 7673
0.662 2.213 1.738 9704
0.663 2.217 1.731 14035
0.664 2.221 1.725 18367
0.666 2.226 1.718 18367
0.667 2.230 1.711 18425
0.668 2.235 1.705 18484
0.669 2.239 1.698 15327
0.671 2.243 1.691 12170
0.676 2.260 1.694 11013
0.688 2.302 1.713 12913
0.693 2.319 1.715 12549
0.697 2.330 1.713 12625
0.696 2.328 1.701 12602
0.701 2.345 1.703 9391
0.708 2.369 1.709 9066
0.711 2.380 1.706 7914
0.715 2.390 1.703 6837
0.714 2.388 1.692 6520
0.713 2.386 1.681 6376
0.719 2.403 1.682 5015
0.731 2.446 1.700 6268
0.742 2.483 1.714 8691
0.744 2.487 1.706 11576
0.745 2.492 1.699 13659
0.746 2.496 1.691 15741
0.748 2.500 1.684 12235
0.751 2.511 1.680 8728
0.750 2.509 1.669 6847
0.751 2.513 1.661 4966
0.807 2.700 1.766 4869
0.809 2.705 1.758 5662
0.810 2.709 1.750 4929
0.798 2.668 1.714 4850
0.811 2.712 1.730 5135
0.816 2.729 1.730 6503
0.819 2.740 1.726 8234
0.817 2.732 1.710 10273
0.818 2.736 1.701 12641
0.819 2.740 1.693 11435
0.823 2.751 1.689 11255
0.826 2.762 1.684 12506
0.825 2.760 1.672 10487
0.824 2.758 1.660 8727
0.828 2.769 1.656 7584
0.859 2.873 1.703 6645
0.862 2.884 1.698 6014
0.866 2.895 1.693 6252
0.867 2.900 1.685 8660
0.866 2.897 1.672 10725
0.870 2.908 1.667 9690
0.877 2.933 1.669 8381
0.878 2.937 1.661 7781
0.879 2.941 1.652 6237
0.911 3.047 1.696 8105
0.912 3.052 1.687 9648
0.916 3.063 1.681 9255
0.917 3.067 1.672 8518
0.916 3.065 1.659 8131
0.948 3.171 1.702 9620
0.952 3.183 1.695 12193
0.957 3.201 1.693 10230
0.960 3.212 1.686 9174
0.962 3.216 1.677 9451
0.975 3.262 1.687 8849
0.981 3.280 1.684 12929
0.984 3.291 1.677 15301
0.985 3.295 1.667 12578
0.995 3.327 1.670 9882
0.996 3.332 1.660 8329
0.985 3.294 1.631 6383
0.986 3.298 1.621 5726
0.987 3.303 1.612 4045
1.037 3.467 1.674 4667
1.032 3.450 1.654 5985
1.060 3.545 1.684 7481
1.059 3.543 1.670 8942
1.058 3.540 1.656 6394
1.058 3.537 1.643 4775
1.059 3.541 1.632 4681
1.094 3.658 1.669 6272
1.099 3.676 1.664 7013
1.100 3.680 1.653 9149
1.104 3.692 1.645 8100
1.097 3.668 1.622 5953
1.102 3.686 1.617 7280
1.110 3.711 1.614 10126
1.111 3.715 1.603 9132
1.101 3.684 1.578 8814
1.105 3.695 1.570 7033
1.172 3.919 1.644 3322
1.175 3.931 1.635 2968
1.189 3.978 1.640 3839
1.184 3.960 1.620 4027
1.187 3.972 1.610 4717
1.197 4.004 1.609 6122
1.201 4.016 1.600 7016
1.234 4.127 1.627 6154
1.235 4.131 1.614 4895
1.232 4.121 1.597 4985
1.289 4.312 1.651 5402
1.290 4.316 1.638 9402
1.292 4.320 1.625 12280
1.293 4.324 1.612 12710
1.292 4.321 1.596 12472
1.291 4.318 1.581 10987
1.290 4.315 1.565 10251
1.291 4.319 1.552 7719
1.292 4.323 1.539 4965
1.367 4.573 1.606 3861
1.379 4.613 1.604 3793
1.378 4.610 1.588 3926
1.397 4.672 1.592 4802
1.398 4.676 1.578 4843
1.399 4.680 1.564 3060
1.409 4.713 1.559 2734
1.447 4.841 1.582 3037
1.451 4.852 1.570 2790
1.491 4.988 1.594 3548
1.497 5.006 1.583 3257
1.505 5.032 1.574 4120
1.510 5.051 1.563 5459
1.514 5.062 1.550 4163
1.589 5.315 1.604 4332
1.595 5.334 1.592 5572
1.596 5.338 1.576 7103
1.630 5.452 1.589 6556
1.629 5.449 1.571 7041
1.630 5.453 1.554 5686
1.643 5.494 1.547 4872
1.644 5.498 1.531 5686
1.643 5.494 1.512 6701
1.644 5.498 1.496 4556
1.689 5.649 1.516 3985
1.688 5.646 1.497 6257
1.689 5.650 1.480 7510
1.690 5.653 1.463 5631
1.694 5.664 1.447 2953
1.653 5.527 1.398 2597
1.767 5.909 1.467 2591
1.768 5.913 1.449 2656
1.769 5.916 1.431 1847
1.970 6.588 1.558 2502
1.964 6.570 1.534 2878
1.963 6.566 1.512 3558
1.967 6.577 1.494 3935
2.023 6.767 1.512 4096
2.027 6.779 1.493 3663
2.028 6.782 1.472 3819
2.089 6.987 1.491 3685
2.095 7.006 1.473 3814
2.248 7.517 1.547 2732
2.255 7.544 1.529 3386
2.241 7.495 1.496 3425
2.242 7.499 1.474 3869
2.245 7.510 1.452 3059
2.394 8.008 1.515 1765
2.391 7.996 1.488 1680
2.387 7.985 1.462 1481
2.530 8.461 1.515 1297
2.437 8.150 1.438 1645
2.711 9.069 1.558 1612
2.710 9.065 1.529 2093
2.819 9.429 1.556 1499
2.829 9.463 1.532 1914
2.830 9.467 1.503 2292
2.829 9.463 1.473 2382
2.828 9.459 1.444 2584
3.131 10.471 1.552 2220
3.130 10.467 1.519 2643
3.133 10.479 1.488 2671
3.136 10.490 1.457 2530
3.135 10.486 1.424 2397
3.141 10.505 1.394 1733
3.428 11.465 1.475 1816
2.999 10.029 1.276 1939
3.002 10.040 1.246 2447
3.000 10.035 1.215 4004
2.999 10.031 1.184 5655
2.998 10.026 1.153 5546
2.994 10.014 1.121 5272
2.992 10.009 1.090 4037
3.000 10.034 1.061 3536
3.005 10.052 1.032 5609
3.008 10.062 1.002 6314
3.009 10.064 0.972 5802
3.005 10.051 0.940 4046
2.990 10.000 0.906 4980
2.991 10.003 0.875 5033
2.991 10.005 0.845 4332
2.992 10.006 0.815 3812
2.988 9.993 0.783 2609
2.986 9.987 0.753 2075
2.989 9.997 0.723 1542
2.994 10.013 0.693 1138
2.992 10.007 0.662 1128
2.990 10.001 0.632 935
2.986 9.987 0.601 848
2.982 9.973 0.570 985
2.982 9.975 0.540 960
2.983 9.976 0.509 653
2.985 9.984 0.479 378
0.680 2.275 0.209 391
0.680 2.275 0.202 378
0.680 2.275 0.195 328
0.662 2.215 0.121 278
0.664 2.222 0.115 344
0.669 2.238 0.108 383
0.669 2.237 0.101 440
0.671 2.245 0.094 410
0.671 2.245 0.088 369
0.669 2.237 0.081 360
0.667 2.229 0.075 304
0.787 2.631 0.055 474
0.784 2.623 0.047 593
0.784 2.623 0.039 663
0.784 2.623 0.032 670
0.784 2.622 0.024 551
0.784 2.622 0.016 432
0.784 2.622 0.008 290
0.636 2.129 0.027 267
0.636 2.128 0.021 343
0.512 1.712 0.039 460
0.448 1.499 0.048 644
0.450 1.507 0.043 924
0.450 1.506 0.038 1207
0.450 1.506 0.034 1569
0.450 1.506 0.030 1919
0.452 1.513 0.025 2303
0.450 1.505 0.021 2684
0.452 1.512 0.016 3030
0.452 1.512 0.011 3383
0.452 1.512 0.007 3494
0.452 1.511 0.002 3606
0.452 1.511 -0.002 3625
0.452 1.510 -0.007 3644
0.451 1.510 -0.011 3643
0.451 1.510 -0.015 3253
0.451 1.509 -0.020 2864
0.451 1.509 -0.024 2266
0.449 1.501 -0.028 1688
0.449 1.500 -0.032 1630
0.451 1.507 -0.038 2279
0.654 2.168 1.745 2929
0.656 2.173 1.739 5858
0.657 2.177 1.732 5858
0.662 2.194 1.735 7717
0.667 2.211 1.738 10157
0.668 2.215 1.731 13931
0.670 2.220 1.725 17705
0.671 2.224 1.718 17705
0.672 2.229 1.711 17608
0.674 2.233 1.705 17512
0.675 2.237 1.698 14164
0.676 2.242 1.691 10817
0.683 2.265 1.698 10136
0.694 2.301 1.713 12758
0.697 2.311 1.711 12093
0.701 2.322 1.708 11791
0.700 2.320 1.697 11698
0.705 2.337 1.699 7998
0.716 2.373 1.713 7737
0.717 2.378 1.706 6706
0.721 2.389 1.703 5681
0.720 2.386 1.692 5908
0.721 2.391 1.685 6141
0.726 2.408 1.686 5443
0.757 2.509 1.742 6803
0.754 2.500 1.726 8475
0.752 2.492 1.710 10994
0.753 2.496 1.703 12604
0.752 2.494 1.691 14271
0.754 2.498 1.684 10742
0.755 2.503 1.676 7213
0.756 2.507 1.669 5706
0.803 2.661 1.754 4883
0.792 2.627 1.722 4900
0.792 2.624 1.710 6413
0.795 2.635 1.706 6510
0.800 2.653 1.706 5376
0.817 2.710 1.730 4785
0.821 2.721 1.726 6566
0.824 2.732 1.722 8558
0.825 2.736 1.713 10762
0.825 2.734 1.701 13040
0.826 2.738 1.693 12454
0.829 2.749 1.689 12113
0.831 2.754 1.681 12356
0.832 2.758 1.672 10470
0.833 2.762 1.664 8585
0.835 2.767 1.656 8111
0.866 2.871 1.703 7956
0.867 2.876 1.695 7795
0.871 2.887 1.690 7047
0.872 2.891 1.681 8667
0.873 2.895 1.672 10868
0.877 2.906 1.667 9979
0.884 2.931 1.669 9451
0.885 2.935 1.661 9100
0.887 2.939 1.652 7446
0.919 3.045 1.696 9049
0.920 3.050 1.687 10821
0.923 3.061 1.681 10344
0.925 3.065 1.672 8302
0.957 3.172 1.714 6856
0.958 3.176 1.705 10386
0.962 3.187 1.699 12853
0.967 3.205 1.696 11600
0.968 3.210 1.686 11092
0.970 3.214 1.677 10928
0.977 3.239 1.677 8965
0.989 3.278 1.684 12301
0.992 3.289 1.677 14680
0.993 3.293 1.667 12406
1.003 3.325 1.670 10015
1.004 3.329 1.660 7722
0.987 3.271 1.622 4970
1.040 3.449 1.691 4987
1.042 3.453 1.681 4499
1.043 3.457 1.671 5499
1.040 3.448 1.654 7072
1.069 3.543 1.684 6961
1.070 3.547 1.673 7590
1.069 3.544 1.659 5027
1.068 3.541 1.646 3952
1.104 3.658 1.683 4003
1.103 3.655 1.669 5600
1.102 3.652 1.655 5851
1.107 3.671 1.650 7427
1.104 3.661 1.633 6823
1.101 3.651 1.616 5971
1.107 3.669 1.611 6817
1.119 3.709 1.614 9806
1.120 3.713 1.603 9025
1.111 3.681 1.578 8732
1.116 3.699 1.572 7587
1.115 3.696 1.559 3461
1.185 3.928 1.635 4623
1.188 3.939 1.626 4331
1.196 3.965 1.622 4541
1.195 3.962 1.608 5424
1.199 3.973 1.599 4930
1.213 4.020 1.602 6304
1.244 4.124 1.627 5672
1.245 4.128 1.614 4739
1.244 4.125 1.599 4891
1.302 4.316 1.653 3787
1.303 4.320 1.640 6123
1.305 4.324 1.627 8526
1.304 4.321 1.612 10028
1.305 4.325 1.599 10026
1.304 4.322 1.583 7600
1.303 4.319 1.568 5977
1.302 4.316 1.552 4324
1.373 4.551 1.615 4317
1.374 4.555 1.602 4628
1.380 4.574 1.592 3837
1.374 4.556 1.572 4309
1.378 4.567 1.560 4743
1.410 4.673 1.578 4554
1.448 4.800 1.602 3118
1.452 4.812 1.590 3516
1.457 4.830 1.580 2743
1.500 4.973 1.606 3635
1.504 4.984 1.594 4708
1.509 5.003 1.583 4072
1.515 5.021 1.572 5111
1.518 5.033 1.559 5968
1.519 5.037 1.544 3922
1.602 5.311 1.604 3809
1.612 5.345 1.596 7580
1.614 5.349 1.580 7625
1.637 5.426 1.583 5751
1.640 5.438 1.569 6506
1.644 5.449 1.554 6767
1.649 5.468 1.542 5868
1.660 5.501 1.533 5127
1.654 5.483 1.511 5666
1.653 5.479 1.492 4026
1.692 5.608 1.506 3889
1.700 5.634 1.495 6076
1.703 5.645 1.480 7058
1.704 5.649 1.463 5297
1.705 5.653 1.445 2755
1.778 5.893 1.483 3606
1.781 5.905 1.467 3513
1.780 5.901 1.447 3441
1.781 5.904 1.429 2328
1.986 6.583 1.558 2437
1.981 6.565 1.534 3690
1.979 6.561 1.512 4576
1.981 6.565 1.492 4870
2.042 6.770 1.513 4085
2.043 6.774 1.493 4145
2.045 6.777 1.472 4711
2.048 6.788 1.453 4139
2.049 6.792 1.433 3652
2.273 7.534 1.552 2827
2.274 7.538 1.529 3640
2.264 7.505 1.499 3317
2.263 7.501 1.475 4477
2.264 7.505 1.452 3904
2.267 7.516 1.431 2283
2.411 7.991 1.488 1724
2.500 8.286 1.513 1706
2.501 8.290 1.488 1492
2.457 8.144 1.438 1576
2.732 9.054 1.556 1566
2.733 9.058 1.529 1983
2.729 9.047 1.499 1381
2.853 9.456 1.532 1924
2.852 9.452 1.502 2266
2.853 9.456 1.473 2282
2.852 9.452 1.444 2474
3.157 10.463 1.552 2425
3.155 10.460 1.519 3257
3.159 10.471 1.488 3311
3.162 10.482 1.457 2812
3.161 10.478 1.424 2441
3.451 11.438 1.508 1999
3.459 11.464 1.476 2285
3.469 11.498 1.444 1854
3.477 11.524 1.412 1826
3.027 10.035 1.216 3024
3.026 10.031 1.185 4285
3.029 10.041 1.155 3382
3.016 9.999 1.120 2392
3.019 10.009 1.090 3380
3.023 10.019 1.061 4941
3.023 10.022 1.030 4975
3.024 10.024 1.000 3999
3.025 10.026 0.969 3461
3.028 10.036 0.940 2703
3.017 10.001 0.906 3322
3.013 9.988 0.875 5519
3.014 9.990 0.844 6028
3.014 9.991 0.814 4193
3.013 9.986 0.783 1619
2.990 9.912 0.748 1357
2.995 9.929 0.719 1589
2.998 9.938 0.689 1494
2.996 9.932 0.659 1115
2.994 9.926 0.628 777
2.988 9.904 0.597 739
2.988 9.905 0.567 927
2.993 9.922 0.538 875
3.005 9.961 0.509 736
3.005 9.962 0.479 520
3.006 9.963 0.449 335
0.686 2.273 0.202 277
0.686 2.273 0.195 297
0.672 2.229 0.134 484
0.672 2.228 0.128 640
0.672 2.228 0.121 764
0.670 2.221 0.115 901
0.670 2.221 0.108 909
0.670 2.221 0.101 918
0.668 2.213 0.095 870
0.668 2.213 0.088 812
0.670 2.220 0.081 791
0.667 2.212 0.075 715
0.667 2.212 0.069 643
0.667 2.212 0.062 540
0.791 2.621 0.039 521
0.791 2.621 0.032 583
0.790 2.620 0.024 501
0.790 2.620 0.016 419
0.790 2.620 0.008 302
0.644 2.134 0.014 267
0.646 2.141 0.007 295
0.456 1.513 0.042 353
0.456 1.513 0.038 497
0.454 1.505 0.034 845
0.454 1.505 0.030 1186
0.456 1.512 0.025 1701
0.454 1.504 0.021 2219
0.456 1.511 0.016 2761
0.456 1.511 0.011 3315
0.456 1.511 0.007 3592
0.453 1.503 0.003 3898
0.453 1.502 -0.001 3908
0.453 1.502 -0.006 3999
0.453 1.501 -0.010 4080
0.453 1.501 -0.015 3643
0.455 1.508 -0.020 3233
0.741 2.457 -0.131 2740
0.741 2.456 -0.139 2879
0.741 2.456 -0.146 2879
0.741 2.455 -0.153 3892
0.664 2.172 1.750 2721
0.666 2.176 1.744 5443
0.667 2.181 1.737 5443
0.672 2.198 1.740 7691
0.676 2.208 1.738 10392
0.677 2.213 1.731 13420
0.678 2.217 1.725 16449
0.680 2.222 1.718 16449
0.681 2.226 1.711 16136
0.682 2.230 1.705 15824
0.684 2.235 1.698 12474
0.685 2.239 1.691 9125
0.694 2.269 1.702 9510
0.703 2.298 1.713 12307
0.706 2.309 1.711 11446
0.708 2.313 1.704 10781
0.709 2.317 1.697 10749
0.712 2.328 1.694 6973
0.725 2.371 1.713 6504
0.728 2.381 1.711 5528
0.732 2.392 1.708 4610
0.733 2.396 1.701 5427
0.734 2.401 1.693 6243
0.738 2.412 1.690 5954
0.767 2.506 1.742 7783
0.768 2.510 1.734 9391
0.767 2.508 1.723 11118
0.765 2.500 1.707 11732
0.764 2.498 1.695 12707
0.765 2.502 1.688 9047
0.765 2.500 1.676 5470
0.782 2.556 1.701 4380
0.813 2.658 1.754 5255
0.801 2.617 1.718 6136
0.802 2.621 1.710 8759
0.805 2.632 1.706 8657
0.807 2.637 1.699 6648
0.808 2.641 1.691 4519
0.831 2.718 1.726 6393
0.833 2.722 1.718 8436
0.836 2.733 1.713 10789
0.837 2.737 1.705 13260
0.839 2.742 1.697 13244
0.840 2.746 1.689 12358
0.841 2.750 1.681 11486
0.843 2.755 1.672 9593
0.846 2.766 1.668 7805
0.847 2.770 1.660 8388
0.849 2.774 1.651 9133
0.850 2.778 1.643 9293
0.853 2.789 1.638 7594
0.883 2.887 1.681 8266
0.883 2.885 1.669 10312
0.888 2.903 1.667 9625
0.895 2.927 1.669 10048
0.897 2.932 1.661 9872
0.900 2.943 1.655 8292
0.930 3.042 1.696 9615
0.934 3.053 1.690 11781
0.935 3.057 1.681 11230
0.936 3.061 1.672 8354
0.971 3.175 1.718 7596
0.973 3.179 1.708 10539
0.974 3.183 1.699 12504
0.979 3.201 1.696 12256
0.981 3.206 1.686 12370
0.982 3.210 1.677 11753
0.985 3.221 1.670 9735
1.001 3.274 1.684 11923
1.003 3.278 1.674 14270
1.006 3.289 1.667 11857
1.016 3.321 1.670 9560
1.017 3.325 1.660 7060
1.050 3.433 1.698 5112
1.054 3.445 1.691 5332
1.055 3.449 1.681 5169
1.056 3.453 1.671 6538
1.056 3.451 1.657 7735
1.080 3.532 1.681 5394
1.086 3.550 1.676 5361
1.094 3.575 1.675 4419
1.091 3.565 1.658 4263
1.088 3.556 1.641 3742
1.115 3.644 1.666 4233
1.116 3.648 1.655 4441
1.117 3.652 1.644 5944
1.116 3.649 1.630 6299
1.113 3.640 1.613 6043
1.121 3.665 1.611 6425
1.133 3.704 1.614 9501
1.137 3.715 1.606 9074
1.133 3.705 1.589 8303
1.133 3.702 1.575 7346
1.201 3.926 1.650 3757
1.202 3.930 1.638 5217
1.201 3.927 1.623 4787
1.211 3.960 1.622 5382
1.213 3.964 1.610 6162
1.210 3.954 1.593 5181
1.257 4.108 1.637 5334
1.258 4.112 1.624 5070
1.259 4.116 1.612 4582
1.295 4.235 1.641 5577
1.295 4.232 1.625 4033
1.322 4.322 1.643 3849
1.323 4.326 1.630 5846
1.325 4.330 1.617 7942
1.324 4.327 1.601 7666
1.325 4.331 1.588 4620
1.377 4.501 1.631 4166
1.385 4.527 1.624 4051
1.393 4.553 1.618 4985
1.390 4.542 1.599 5693
1.391 4.546 1.585 5459
1.392 4.550 1.572 5608
1.395 4.562 1.560 5543
1.397 4.566 1.547 4058
1.467 4.795 1.602 4007
1.468 4.799 1.588 3774
1.471 4.810 1.575 2167
1.519 4.967 1.606 4039
1.523 4.978 1.594 4790
1.531 5.004 1.585 4094
1.534 5.015 1.572 5603
1.535 5.019 1.557 5893
1.528 4.994 1.533 5602
1.527 4.991 1.516 6484
1.633 5.339 1.596 8697
1.634 5.343 1.580 8274
1.654 5.405 1.579 4620
1.661 5.431 1.569 5555
1.667 5.450 1.556 7723
1.673 5.469 1.544 7485
1.681 5.495 1.533 5121
1.675 5.476 1.511 4992
1.674 5.473 1.492 3732
1.714 5.602 1.506 3736
1.722 5.628 1.495 5035
1.725 5.639 1.480 5385
1.726 5.643 1.463 4076
1.795 5.868 1.497 3631
1.801 5.886 1.483 4346
1.802 5.890 1.465 4037
1.803 5.894 1.447 3858
1.806 5.905 1.431 2475
2.012 6.576 1.558 2227
2.004 6.550 1.532 4443
2.005 6.554 1.512 5405
2.006 6.557 1.492 5587
2.075 6.784 1.518 3975
2.072 6.773 1.494 4372
2.073 6.777 1.474 5056
2.074 6.781 1.453 4478
2.075 6.784 1.433 3811
2.145 7.011 1.455 2785
2.306 7.537 1.530 3814
2.302 7.526 1.505 3756
2.294 7.499 1.476 4828
2.295 7.503 1.454 4380
2.296 7.507 1.431 2667
2.442 7.981 1.488 1624
2.532 8.276 1.513 1651
2.581 8.437 1.513 1430
2.580 8.434 1.487 1464
2.764 9.036 1.555 1360
2.765 9.040 1.528 1616
2.686 8.782 1.461 1335
2.889 9.445 1.532 1732
2.888 9.441 1.502 2040
2.889 9.445 1.473 2024
2.890 9.449 1.445 2160
3.197 10.451 1.552 2401
3.196 10.447 1.519 3526
3.199 10.459 1.488 3490
3.203 10.470 1.457 3000
3.202 10.466 1.424 2647
3.493 11.417 1.507 2213
3.503 11.451 1.476 2554
3.513 11.485 1.444 2009
3.521 11.511 1.412 1873
3.525 11.522 1.378 1775
3.065 10.019 1.185 1999
3.066 10.022 1.154 1938
3.062 10.009 1.122 1816
3.065 10.020 1.092 2315
3.068 10.030 1.063 3148
3.071 10.040 1.033 2886
3.049 9.967 0.996 3151
3.054 9.984 0.967 4739
3.053 9.979 0.936 5213
3.051 9.974 0.905 4598
3.045 9.953 0.873 3330
3.045 9.955 0.843 3139
3.044 9.950 0.812 2213
3.037 9.929 0.780 1651
3.036 9.923 0.750 2073
3.036 9.925 0.720 2066
3.034 9.919 0.689 1870
3.030 9.905 0.658 1921
3.033 9.914 0.628 1806
3.038 9.930 0.599 1894
3.038 9.932 0.569 1933
3.039 9.933 0.539 1384
3.027 9.896 0.507 724
3.046 9.957 0.479 528
3.046 9.958 0.449 364
0.695 2.271 0.202 328
0.697 2.278 0.195 362
0.697 2.278 0.189 323
0.697 2.279 0.182 275
0.679 2.218 0.148 272
0.679 2.218 0.141 440
0.679 2.218 0.134 669
0.679 2.218 0.128 730
0.676 2.211 0.121 699
0.674 2.203 0.115 685
0.679 2.218 0.108 891
0.681 2.226 0.101 1132
0.678 2.218 0.095 1247
0.678 2.218 0.088 1230
0.681 2.225 0.081 1094
0.678 2.217 0.075 868
0.678 2.217 0.068 647
