2.056 4.766 1.589 5019
2.067 4.791 1.581 4891
2.072 4.802 1.568 7164
2.070 4.799 1.551 5934
2.072 4.802 1.535 6651
2.207 5.115 1.610 8949
2.205 5.112 1.592 8073
2.210 5.123 1.578 9545
2.215 5.134 1.564 10848
2.217 5.138 1.547 7812
2.218 5.141 1.531 4589
2.293 5.314 1.561 3321
2.337 5.417 1.570 2989
2.412 5.590 1.598 2670
2.426 5.623 1.588 2804
2.452 5.683 1.585 2511
2.493 5.779 1.590 1969
2.495 5.783 1.572 2007
2.579 5.978 1.601 2533
2.578 5.975 1.580 4577
2.582 5.986 1.563 4112
2.612 6.054 1.559 3431
2.616 6.064 1.542 3489
2.615 6.061 1.521 2855
2.610 6.050 1.499 2751
2.818 6.531 1.586 2615
2.819 6.535 1.565 2215
2.959 6.860 1.614 3600
2.961 6.864 1.593 5436
2.960 6.860 1.569 4916
2.958 6.857 1.546 3245
2.966 6.875 1.528 2709
2.971 6.886 1.507 2792
3.105 7.197 1.546 2533
3.107 7.201 1.523 2412
3.386 7.849 1.623 2505
3.388 7.853 1.598 3632
3.390 7.857 1.574 4166
3.391 7.861 1.549 3586
3.610 8.367 1.613 3249
3.608 8.363 1.585 3606
3.675 8.518 1.584 3897
3.677 8.522 1.557 3491
3.616 8.382 1.507 3024
3.683 8.536 1.505 2965
3.681 8.533 1.477 2991
3.611 8.371 1.424 3215
3.616 8.382 1.399 2656
4.031 9.343 1.514 1837
4.110 9.527 1.510 1715
4.127 9.566 1.485 2007
4.126 9.563 1.454 2083
4.127 9.566 1.424 1645
4.153 9.627 1.401 1254
4.158 9.638 1.372 1038
5.200 12.053 1.643 1112
5.199 12.050 1.604 1168
5.150 11.938 1.552 965
5.155 11.949 1.515 985
5.157 11.953 1.478 897
5.614 13.012 1.555 831
5.640 13.074 1.520 595
5.642 13.077 1.478 637
5.640 13.074 1.436 659
5.642 13.077 1.395 452
5.609 13.001 1.346 274
3.948 9.151 -0.754 305
3.947 9.149 -0.783 305
3.946 9.146 -0.812 303
3.942 9.137 -0.840 309
3.941 9.134 -0.869 446
3.939 9.131 -0.898 583
3.935 9.121 -0.926 567
3.934 9.118 -0.954 283
0.925 2.124 1.783 5196
0.927 2.128 1.776 10392
0.929 2.132 1.769 10392
0.931 2.137 1.763 9716
0.932 2.141 1.756 9040
0.939 2.157 1.759 8551
0.947 2.173 1.761 8769
0.948 2.178 1.754 8769
0.945 2.170 1.738 7305
0.944 2.168 1.727 6436
0.946 2.173 1.720 6300
0.951 2.183 1.718 6353
0.955 2.193 1.716 6479
0.960 2.203 1.713 7034
0.969 2.226 1.720 6305
0.974 2.236 1.717 6323
0.976 2.240 1.710 6301
0.988 2.269 1.720 7181
0.995 2.285 1.722 9760
1.005 2.308 1.728 9090
1.015 2.330 1.733 10754
1.022 2.347 1.735 9130
1.029 2.363 1.736 8171
1.031 2.367 1.728 5433
1.062 2.439 1.767 3532
1.051 2.413 1.739 4952
1.058 2.430 1.739 6631
1.063 2.440 1.736 9568
1.067 2.450 1.732 12746
1.072 2.461 1.729 11760
1.076 2.471 1.725 11251
1.078 2.476 1.718 7508
1.094 2.511 1.730 5379
1.112 2.553 1.746 5309
1.116 2.563 1.742 5948
1.132 2.599 1.754 6596
1.126 2.584 1.734 8299
1.127 2.589 1.726 9353
1.148 2.637 1.745 11397
1.153 2.648 1.741 15231
1.155 2.652 1.733 12950
1.160 2.663 1.728 10835
1.159 2.660 1.716 7967
1.160 2.665 1.708 8082
1.162 2.669 1.700 10900
1.164 2.673 1.691 13307
1.166 2.677 1.683 15713
1.168 2.681 1.674 15982
1.172 2.692 1.670 14368
1.196 2.747 1.691 16190
1.198 2.751 1.682 13989
1.200 2.756 1.674 9080
1.207 2.773 1.672 6889
1.215 2.790 1.671 7278
1.234 2.832 1.684 8186
1.238 2.843 1.678 8813
1.240 2.847 1.670 8101
1.242 2.851 1.661 8195
1.243 2.855 1.652 9003
1.245 2.859 1.643 7039
1.329 3.053 1.734 7578
1.331 3.057 1.725 9509
1.336 3.068 1.719 7652
1.343 3.085 1.716 5247
1.365 3.135 1.730 7280
1.370 3.146 1.723 9097
1.340 3.078 1.677 8992
1.342 3.082 1.667 8479
1.364 3.132 1.681 7263
1.369 3.143 1.674 7124
1.373 3.154 1.667 5591
1.392 3.197 1.677 6532
1.397 3.208 1.670 6987
1.402 3.219 1.663 5089
1.406 3.230 1.656 3930
1.458 3.347 1.700 5533
1.468 3.371 1.699 7549
1.473 3.382 1.691 7987
1.483 3.406 1.690 8778
1.494 3.430 1.688 9806
1.507 3.461 1.690 9819
1.509 3.465 1.679 8142
1.517 3.483 1.674 4313
1.495 3.433 1.639 3702
1.558 3.578 1.691 4159
1.563 3.589 1.682 4989
1.536 3.526 1.642 4391
1.573 3.611 1.666 5131
1.571 3.608 1.651 8769
1.564 3.592 1.631 11419
1.563 3.589 1.617 10377
1.565 3.593 1.606 6104
1.572 3.611 1.600 4751
1.678 3.853 1.686 7043
1.686 3.870 1.679 7440
1.640 3.765 1.623 7578
1.704 3.913 1.668 8068
1.700 3.903 1.651 11514
1.681 3.859 1.620 11058
1.700 3.904 1.623 10628
1.723 3.956 1.629 12855
1.725 3.960 1.617 16181
1.726 3.964 1.605 16886
1.728 3.968 1.592 12684
1.730 3.972 1.580 9602
1.731 3.976 1.567 10379
1.733 3.980 1.555 8340
1.843 4.232 1.631 8390
1.842 4.229 1.615 11585
1.843 4.233 1.602 12893
1.848 4.243 1.591 10380
1.853 4.254 1.580 5571
1.933 4.438 1.627 5425
1.941 4.456 1.618 4732
1.994 4.578 1.643 4483
1.999 4.589 1.631 3979
2.000 4.593 1.617 3859
2.002 4.597 1.602 4768
2.010 4.615 1.592 5265
2.011 4.619 1.578 4123
2.074 4.762 1.606 6261
2.073 4.759 1.589 5588
2.077 4.770 1.576 5144
2.085 4.788 1.566 7149
2.087 4.791 1.551 6595
2.085 4.788 1.533 7473
2.227 5.115 1.612 6603
2.223 5.104 1.592 7246
2.228 5.115 1.578 9393
2.232 5.126 1.564 9829
2.234 5.130 1.547 7485
2.233 5.127 1.529 4407
2.311 5.307 1.561 3078
2.356 5.409 1.570 3043
2.425 5.568 1.594 2833
2.430 5.579 1.579 2423
2.468 5.668 1.583 2677
2.510 5.763 1.588 1884
2.512 5.767 1.570 1948
2.600 5.969 1.601 2732
2.601 5.973 1.582 4481
2.603 5.977 1.563 3607
2.629 6.037 1.557 2404
2.634 6.048 1.540 2504
2.623 6.024 1.514 2544
2.835 6.510 1.605 2512
2.840 6.521 1.586 3210
2.842 6.525 1.565 2905
2.983 6.849 1.614 3294
2.985 6.853 1.593 4993
2.983 6.850 1.569 4397
2.982 6.847 1.546 2912
2.990 6.865 1.528 2323
2.994 6.876 1.507 2489
3.397 7.801 1.667 2371
2.991 6.869 1.461 1874
3.413 7.837 1.623 2430
3.415 7.841 1.598 3720
3.417 7.845 1.574 4342
3.418 7.849 1.549 3793
3.707 8.512 1.641 2835
3.705 8.509 1.613 3779
3.704 8.505 1.584 4672
3.706 8.509 1.557 4024
3.711 8.520 1.532 3560
3.709 8.517 1.504 3897
3.707 8.513 1.475 4056
3.709 8.517 1.449 3725
3.714 8.527 1.423 3294
4.138 9.502 1.539 2502
4.140 9.505 1.509 2310
4.147 9.523 1.481 2348
4.155 9.541 1.453 2404
4.157 9.545 1.423 1973
4.962 11.393 1.636 1560
4.963 11.397 1.600 1244
4.971 11.415 1.565 1095
5.240 12.032 1.604 933
5.191 11.920 1.552 833
5.429 12.465 1.577 886
5.198 11.935 1.478 796
5.662 13.000 1.556 971
5.673 13.025 1.517 681
5.684 13.051 1.478 633
5.682 13.047 1.436 672
5.687 13.058 1.395 455
5.531 12.699 1.320 263
3.966 9.106 -0.867 378
3.964 9.103 -0.896 584
3.963 9.100 -0.925 584
3.962 9.097 -0.954 292
0.927 2.115 1.778 5640
0.929 2.120 1.771 11281
0.931 2.124 1.765 11281
0.936 2.134 1.763 10272
0.937 2.139 1.756 9370
0.947 2.161 1.763 8950
0.952 2.171 1.761 9281
0.954 2.175 1.754 9281
0.955 2.180 1.747 7444
0.947 2.160 1.723 5769
0.954 2.176 1.725 6180
0.956 2.181 1.718 6816
0.960 2.191 1.716 6774
0.965 2.201 1.713 6929
0.972 2.217 1.715 5722
0.982 2.240 1.721 5737
0.981 2.238 1.710 5731
0.993 2.266 1.720 6766
1.001 2.283 1.722 9311
1.010 2.305 1.728 8776
1.020 2.328 1.733 10734
1.028 2.344 1.735 8937
1.035 2.361 1.736 7784
1.037 2.365 1.728 5485
1.055 2.406 1.746 3858
1.057 2.410 1.739 5325
1.058 2.415 1.731 6791
1.068 2.437 1.736 8625
1.070 2.442 1.728 11047
1.075 2.452 1.725 10158
1.082 2.469 1.725 9791
1.084 2.473 1.718 6771
1.097 2.502 1.726 4616
1.134 2.588 1.770 5549
1.136 2.592 1.762 6668
1.141 2.603 1.758 7590
1.143 2.607 1.750 9479
1.147 2.617 1.746 10329
1.155 2.634 1.745 14457
1.159 2.645 1.741 19263
1.161 2.649 1.733 17043
1.163 2.654 1.725 14822
1.165 2.658 1.716 12036
1.167 2.662 1.708 11746
1.169 2.666 1.700 14242
1.170 2.670 1.691 17158
1.169 2.668 1.679 20178
1.174 2.679 1.674 20227
1.179 2.689 1.670 17876
1.203 2.744 1.691 18431
1.202 2.742 1.679 15993
1.192 2.721 1.655 10280
1.214 2.770 1.672 6371
1.219 2.780 1.667 6556
1.240 2.830 1.684 7624
1.245 2.840 1.678 8290
1.247 2.844 1.670 7753
1.249 2.848 1.661 8125
1.250 2.852 1.652 9033
1.252 2.856 1.643 7118
1.342 3.062 1.741 7294
1.344 3.067 1.732 8822
1.346 3.071 1.722 7081
1.351 3.082 1.716 4892
1.373 3.132 1.730 7487
1.378 3.143 1.723 9838
1.382 3.153 1.717 9635
1.393 3.177 1.717 6998
1.369 3.122 1.677 5516
1.373 3.133 1.671 5221
1.378 3.144 1.664 4515
1.400 3.194 1.677 6220
1.405 3.205 1.670 6634
1.418 3.235 1.673 5391
1.420 3.239 1.663 4768
1.457 3.323 1.690 6100
1.476 3.367 1.699 7388
1.484 3.385 1.694 6886
1.494 3.409 1.693 7918
1.505 3.433 1.691 9935
1.516 3.458 1.690 9998
1.517 3.462 1.679 7983
1.531 3.493 1.680 4527
1.503 3.430 1.639 3531
1.561 3.561 1.685 3905
1.560 3.559 1.671 4134
1.544 3.522 1.642 5753
1.552 3.540 1.637 6881
1.583 3.611 1.654 8292
1.573 3.588 1.631 9230
1.572 3.586 1.617 7886
1.624 3.705 1.654 6178
1.629 3.716 1.645 5065
1.690 3.855 1.689 7183
1.695 3.866 1.679 7725
1.649 3.762 1.623 6688
1.713 3.909 1.668 10881
1.709 3.899 1.651 14838
1.705 3.889 1.633 12494
1.710 3.900 1.623 11435
1.729 3.945 1.627 14214
1.734 3.956 1.617 19587
1.736 3.960 1.605 21685
1.738 3.964 1.592 17196
1.739 3.968 1.580 14347
1.741 3.972 1.567 14494
1.743 3.975 1.555 11236
1.853 4.227 1.631 8828
1.852 4.224 1.615 12133
1.850 4.221 1.599 12301
1.855 4.232 1.588 9671
1.860 4.243 1.577 5599
1.943 4.434 1.627 5747
1.948 4.445 1.616 5241
2.005 4.573 1.643 4126
2.013 4.591 1.633 3906
2.011 4.588 1.617 3944
2.013 4.592 1.602 4763
2.021 4.610 1.592 5024
2.022 4.614 1.578 4559
2.085 4.757 1.606 5585
2.087 4.761 1.591 5329
2.092 4.772 1.579 5596
2.096 4.783 1.566 6704
2.095 4.780 1.548 6127
2.097 4.783 1.533 6990
2.098 4.787 1.518 6281
2.235 5.099 1.592 6933
2.240 5.110 1.578 9502
2.245 5.121 1.564 8575
2.246 5.125 1.547 7113
2.245 5.121 1.529 3934
2.367 5.400 1.587 2952
2.418 5.516 1.601 3122
2.438 5.562 1.594 3015
2.443 5.573 1.579 2367
2.482 5.662 1.583 2628
2.545 5.807 1.601 2370
2.522 5.754 1.568 2222
2.617 5.970 1.602 2964
2.615 5.967 1.582 4170
2.617 5.971 1.563 2921
2.625 5.989 1.547 1818
2.639 6.021 1.535 1965
2.638 6.017 1.514 2313
2.851 6.504 1.605 2478
2.856 6.515 1.586 3397
2.857 6.519 1.565 3247
2.999 6.842 1.614 2527
3.001 6.846 1.593 3905
3.000 6.843 1.569 3289
3.054 6.968 1.573 2847
3.053 6.965 1.549 2602
3.108 7.090 1.552 2297
3.112 7.100 1.531 2659
3.111 7.097 1.507 2282
3.432 7.829 1.623 1913
3.434 7.833 1.598 3280
3.435 7.837 1.574 4087
3.437 7.841 1.549 3698
3.724 8.496 1.640 2981
3.723 8.493 1.611 4002
3.721 8.489 1.583 4821
3.723 8.493 1.556 4095
3.728 8.504 1.531 3705
3.729 8.508 1.504 4246
3.728 8.504 1.475 4557
3.729 8.508 1.449 4224
3.734 8.518 1.423 3724
4.157 9.485 1.538 2858
4.159 9.488 1.508 2689
4.164 9.499 1.479 2742
4.168 9.510 1.450 2611
4.173 9.520 1.421 2175
4.175 9.524 1.391 1806
4.990 11.385 1.600 1350
4.995 11.396 1.565 1226
5.000 11.407 1.529 913
5.453 12.441 1.616 730
5.458 12.452 1.577 842
5.691 12.983 1.597 841
5.696 12.994 1.557 1036
5.700 13.005 1.516 739
5.712 13.030 1.477 606
5.710 13.026 1.435 647
5.711 13.030 1.393 430
5.558 12.679 1.319 259
3.994 9.111 -0.869 257
3.992 9.108 -0.898 321
3.988 9.098 -0.926 313
0.935 2.105 1.773 5842
0.936 2.110 1.767 11685
0.938 2.114 1.760 11685
0.946 2.130 1.763 10570
0.947 2.134 1.756 9636
0.957 2.156 1.763 9285
0.962 2.167 1.761 9728
0.964 2.171 1.754 9728
0.968 2.181 1.752 7835
0.973 2.191 1.750 6095
0.972 2.190 1.738 6646
0.969 2.182 1.723 7566
0.973 2.192 1.720 7180
0.975 2.196 1.713 6832
0.980 2.207 1.711 5218
0.992 2.235 1.721 5057
0.991 2.233 1.710 5026
1.004 2.262 1.720 6205
1.011 2.278 1.722 8635
1.024 2.306 1.732 8414
1.031 2.323 1.733 10571
1.036 2.333 1.730 8654
1.046 2.356 1.736 7219
1.048 2.360 1.728 5553
1.066 2.401 1.746 4053
1.068 2.405 1.739 5644
1.070 2.410 1.731 7236
1.077 2.426 1.732 8111
1.082 2.437 1.728 9811
1.086 2.447 1.725 8703
1.094 2.464 1.725 8317
1.096 2.468 1.718 6064
1.142 2.572 1.774 4260
1.146 2.582 1.770 5863
1.148 2.587 1.762 7514
1.153 2.597 1.758 8336
1.158 2.608 1.754 10675
1.160 2.612 1.746 12152
1.167 2.629 1.745 17202
1.172 2.640 1.741 22765
1.174 2.644 1.733 20803
1.175 2.648 1.725 18841
1.177 2.652 1.716 15969
1.179 2.656 1.708 15060
1.181 2.661 1.700 17023
1.183 2.665 1.691 20348
1.182 2.663 1.679 23875
1.187 2.673 1.674 23709
1.191 2.684 1.670 20530
1.216 2.739 1.691 20088
1.215 2.737 1.679 17552
1.197 2.696 1.645 11947
1.193 2.687 1.629 8148
1.194 2.691 1.620 5840
1.253 2.824 1.684 6776
1.258 2.834 1.678 7507
1.260 2.838 1.670 7206
1.262 2.842 1.661 7911
1.261 2.840 1.648 8982
1.262 2.844 1.639 7211
1.360 3.063 1.745 7667
1.361 3.067 1.735 8414
1.366 3.078 1.729 6831
1.365 3.075 1.716 4729
1.384 3.119 1.726 7397
1.389 3.130 1.720 10332
1.394 3.140 1.714 10426
1.410 3.177 1.720 6705
1.383 3.116 1.677 4639
1.441 3.245 1.730 3672
1.393 3.137 1.664 3776
1.412 3.181 1.674 5596
1.423 3.205 1.673 6064
1.433 3.229 1.673 6303
1.435 3.233 1.663 6192
1.469 3.310 1.687 6930
1.471 3.314 1.677 7724
1.502 3.385 1.697 5960
1.513 3.409 1.696 7539
1.518 3.420 1.688 9554
1.532 3.450 1.690 9277
1.533 3.455 1.679 7244
1.547 3.485 1.680 4930
1.528 3.443 1.648 3718
1.569 3.534 1.676 3499
1.568 3.531 1.662 4187
1.560 3.515 1.642 6538
1.568 3.533 1.637 8631
1.579 3.557 1.634 7903
1.587 3.574 1.629 8044
1.588 3.578 1.617 6511
1.638 3.690 1.651 7090
1.634 3.681 1.634 5858
1.708 3.847 1.689 6366
1.716 3.865 1.682 6982
1.730 3.896 1.681 6641
1.731 3.901 1.668 11997
1.727 3.891 1.651 15913
1.726 3.888 1.636 12667
1.728 3.892 1.623 10656
1.748 3.937 1.627 14132
1.753 3.948 1.617 21008
1.754 3.952 1.605 24095
1.756 3.956 1.592 19403
1.758 3.960 1.580 17228
1.759 3.963 1.567 16849
1.761 3.967 1.555 12794
1.873 4.219 1.631 8055
1.871 4.216 1.615 10982
1.870 4.213 1.599 10258
1.875 4.223 1.588 7824
1.880 4.234 1.577 4813
1.961 4.418 1.625 4900
1.969 4.435 1.616 4825
2.023 4.557 1.641 2999
2.055 4.630 1.649 3638
2.063 4.648 1.639 4549
2.031 4.576 1.600 4263
2.042 4.601 1.592 4052
2.047 4.611 1.580 4459
2.049 4.615 1.565 6075
2.053 4.626 1.553 4956
2.123 4.783 1.585 5390
2.119 4.773 1.566 5389
2.117 4.770 1.548 4939
2.116 4.766 1.531 5554
2.248 5.064 1.602 5089
2.262 5.096 1.594 7075
2.264 5.100 1.578 8996
2.272 5.117 1.566 7295
2.273 5.121 1.549 6477
2.272 5.118 1.531 3342
2.348 5.290 1.561 2910
2.444 5.505 1.601 3390
2.464 5.551 1.594 3070
2.503 5.639 1.599 2795
2.508 5.650 1.583 2812
2.572 5.795 1.601 3102
2.571 5.792 1.581 2486
2.642 5.951 1.601 3221
2.643 5.955 1.582 3895
2.585 5.824 1.531 2517
2.653 5.976 1.547 2092
2.661 5.994 1.532 1951
2.666 6.005 1.514 1904
2.881 6.490 1.605 2222
2.886 6.501 1.586 3265
2.888 6.505 1.565 3224
2.886 6.502 1.543 2172
3.036 6.839 1.594 2600
3.088 6.957 1.596 2803
3.087 6.954 1.573 3066
3.085 6.950 1.549 3104
3.207 7.224 1.582 3221
3.209 7.228 1.559 3328
3.210 7.232 1.536 2741
3.212 7.236 1.513 2168
3.470 7.817 1.598 2588
3.472 7.821 1.574 3450
3.473 7.825 1.549 3239
3.764 8.478 1.640 2773
3.762 8.475 1.611 3726
3.761 8.472 1.583 4489
3.762 8.476 1.556 3922
3.764 8.479 1.529 3459
3.769 8.490 1.504 3964
3.767 8.487 1.475 4440
3.769 8.490 1.449 4147
3.774 8.501 1.423 3636
4.202 9.465 1.538 3061
4.203 9.469 1.508 2954
4.205 9.472 1.478 3120
4.206 9.476 1.448 2949
4.211 9.486 1.419 2291
4.219 9.504 1.391 1928
5.043 11.361 1.600 1352
5.048 11.373 1.565 1265
5.050 11.376 1.528 894
5.598 12.610 1.639 692
5.516 12.427 1.577 734
5.751 12.956 1.597 855
5.756 12.967 1.557 1017
5.761 12.978 1.516 722
5.763 12.982 1.475 556
5.764 12.985 1.433 579
5.759 12.974 1.391 399
5.610 12.639 1.318 268
0.941 2.102 1.773 5906
0.943 2.107 1.767 11812
0.945 2.111 1.760 11812
0.950 2.121 1.758 10613
0.954 2.131 1.756 9627
0.964 2.153 1.763 9378
0.969 2.164 1.761 9966
0.971 2.168 1.754 9966
0.975 2.178 1.752 8132
0.991 2.212 1.768 7250
0.984 2.199 1.747 7487
0.981 2.191 1.731 8314
0.980 2.189 1.720 7385
0.982 2.193 1.713 6512
0.987 2.204 1.711 4672
0.999 2.232 1.721 3980
0.999 2.230 1.710 3940
1.017 2.270 1.729 5568
1.019 2.275 1.722 7814
1.031 2.303 1.732 8027
1.039 2.320 1.733 10045
1.043 2.330 1.730 8098
1.053 2.352 1.736 6614
1.055 2.357 1.728 5468
1.074 2.398 1.746 4324
1.073 2.396 1.734 5546
1.075 2.400 1.727 6785
1.085 2.423 1.732 7093
1.090 2.433 1.728 8165
1.094 2.444 1.725 7142
1.102 2.460 1.725 6781
1.104 2.464 1.718 5236
1.150 2.568 1.774 3901
1.152 2.572 1.766 5827
1.157 2.583 1.762 7846
1.161 2.593 1.758 8496
1.166 2.604 1.754 11142
1.168 2.608 1.746 13144
1.176 2.625 1.745 18806
1.180 2.636 1.741 24825
1.182 2.640 1.733 23260
1.184 2.644 1.725 21696
1.186 2.648 1.716 18669
1.188 2.653 1.708 17126
1.190 2.657 1.700 18609
1.192 2.661 1.691 22130
1.191 2.659 1.679 25860
1.195 2.669 1.674 25501
1.200 2.680 1.670 21544
1.222 2.728 1.687 20256
1.224 2.733 1.679 17842
1.202 2.685 1.641 12790
1.201 2.683 1.629 9103
1.203 2.687 1.620 6400
1.263 2.820 1.684 5718
1.264 2.824 1.675 6512
1.269 2.834 1.670 6486
1.271 2.838 1.661 7470
1.270 2.836 1.648 8517
1.272 2.840 1.639 7030
1.369 3.058 1.745 7501
1.374 3.069 1.739 8017
1.379 3.080 1.732 6552
1.361 3.038 1.699 4651
1.395 3.114 1.726 7123
1.399 3.125 1.720 10048
1.404 3.136 1.714 10427
1.403 3.133 1.700 7103
1.446 3.230 1.737 4666
1.451 3.240 1.730 4482
1.412 3.152 1.674 3601
1.419 3.170 1.670 4964
1.436 3.207 1.677 5842
1.441 3.217 1.670 6684
1.446 3.228 1.663 6787
1.477 3.298 1.684 7542
1.479 3.303 1.674 8972
1.493 3.333 1.676 5894
1.524 3.404 1.696 7513
1.529 3.415 1.688 8843
1.543 3.445 1.690 7940
1.548 3.456 1.682 6151
1.558 3.480 1.680 5041
1.545 3.451 1.654 4213
1.547 3.455 1.643 3348
1.564 3.493 1.647 3978
1.575 3.517 1.645 6434
1.580 3.527 1.637 9410
1.587 3.545 1.631 8683
1.595 3.562 1.626 7383
1.600 3.573 1.617 5734
1.647 3.678 1.648 7436
1.649 3.682 1.637 6187
1.723 3.849 1.691 4984
1.728 3.860 1.682 5495
1.742 3.891 1.681 6085
1.741 3.888 1.666 11323
1.740 3.885 1.651 14649
1.739 3.883 1.636 11330
1.753 3.914 1.634 8817
1.757 3.925 1.624 12605
1.762 3.935 1.614 20409
1.767 3.946 1.605 23536
1.769 3.950 1.592 18813
1.774 3.961 1.582 17711
1.772 3.958 1.567 16760
1.774 3.961 1.555 12338
1.776 3.965 1.542 7605
1.885 4.210 1.615 8952
1.884 4.207 1.599 7466
1.885 4.210 1.586 5357
1.890 4.221 1.575 3408
1.978 4.418 1.627 3701
1.983 4.429 1.616 3759
1.991 4.447 1.606 2267
2.074 4.631 1.652 4337
2.078 4.641 1.639 5914
2.080 4.645 1.625 4589
2.076 4.636 1.605 3422
2.074 4.632 1.589 4198
2.070 4.622 1.570 6341
2.072 4.626 1.555 5220
2.142 4.783 1.587 4531
2.137 4.773 1.568 3902
2.136 4.770 1.551 3710
2.259 5.046 1.616 5242
2.261 5.049 1.600 5727
2.278 5.088 1.594 6613
2.283 5.099 1.580 7737
2.288 5.110 1.566 6059
2.290 5.114 1.549 5260
2.411 5.384 1.606 2854
2.362 5.275 1.559 2789
2.465 5.504 1.602 3360
2.482 5.543 1.594 3165
2.553 5.701 1.617 3196
2.526 5.642 1.583 3059
2.591 5.786 1.601 3861
2.593 5.790 1.582 2905
2.658 5.935 1.599 3365
2.656 5.932 1.578 3695
2.604 5.816 1.531 2671
2.666 5.954 1.544 2322
2.671 5.964 1.527 2187
2.685 5.996 1.514 1508
2.832 6.325 1.570 1907
2.907 6.492 1.586 2930
2.912 6.503 1.567 3011
2.910 6.500 1.545 2212
3.106 6.936 1.617 2137
3.114 6.954 1.598 2750
3.112 6.951 1.574 2899
3.229 7.210 1.605 3460
3.230 7.214 1.582 4393
3.232 7.218 1.559 4649
3.234 7.222 1.536 4040
3.235 7.225 1.513 3192
3.237 7.229 1.490 2223
3.497 7.810 1.574 2676
3.499 7.813 1.549 2627
3.791 8.466 1.640 2300
3.790 8.463 1.611 3086
3.788 8.460 1.583 3782
3.790 8.463 1.556 3562
3.824 8.539 1.541 2991
3.822 8.535 1.513 3477
3.814 8.517 1.482 3853
3.803 8.492 1.451 3487
3.801 8.489 1.423 3027
4.232 9.451 1.538 2886
4.231 9.448 1.507 2891
4.232 9.451 1.477 3148
4.231 9.448 1.446 2987
4.232 9.451 1.416 2255
4.247 9.483 1.390 1707
5.080 11.345 1.600 1222
5.082 11.349 1.564 1170
5.450 12.171 1.628 982
4.204 9.388 1.256 840
5.647 12.610 1.601 772
5.793 12.937 1.597 809
5.795 12.941 1.556 939
5.800 12.952 1.515 681
5.801 12.956 1.474 517
5.803 12.959 1.433 523
5.801 12.955 1.391 365
5.635 12.584 1.314 257
0.948 2.099 1.773 5838
0.950 2.104 1.767 11677
0.951 2.108 1.760 11677
0.956 2.118 1.758 10438
0.961 2.128 1.756 9465
0.971 2.150 1.763 9409
0.975 2.161 1.761 10137
0.977 2.165 1.754 10137
0.984 2.181 1.756 8372
0.997 2.209 1.768 8226
0.996 2.208 1.756 8429
0.993 2.200 1.740 9236
0.989 2.192 1.725 7487
0.989 2.190 1.713 6127
0.993 2.201 1.711 4210
1.014 2.247 1.735 3251
1.021 2.263 1.736 3238
1.026 2.273 1.733 5191
1.028 2.278 1.726 7197
1.038 2.300 1.732 7600
1.046 2.316 1.733 9227
1.047 2.321 1.726 7310
1.074 2.380 1.757 5839
1.062 2.354 1.728 5301
1.064 2.358 1.721 4884
1.080 2.393 1.734 5737
1.082 2.397 1.727 6808
1.089 2.413 1.728 6471
1.094 2.424 1.724 6712
1.101 2.440 1.725 5428
1.112 2.463 1.729 4987
1.111 2.461 1.718 4231
1.152 2.552 1.766 3623
1.159 2.569 1.766 5637
1.164 2.580 1.762 7859
1.166 2.584 1.754 8321
1.174 2.601 1.754 10951
1.179 2.611 1.750 13334
1.183 2.622 1.745 19224
1.188 2.632 1.741 25421
1.190 2.636 1.733 24300
1.192 2.641 1.725 23179
1.194 2.645 1.716 20005
1.196 2.649 1.708 17964
1.198 2.653 1.700 19097
1.199 2.657 1.691 22701
1.198 2.655 1.679 26498
1.203 2.666 1.674 25859
1.208 2.676 1.670 21242
1.230 2.725 1.687 19574
1.232 2.729 1.679 17345
1.210 2.682 1.641 12790
1.212 2.686 1.632 9344
1.214 2.690 1.624 6486
1.300 2.880 1.720 4898
1.308 2.897 1.718 5866
1.315 2.914 1.716 6255
1.279 2.835 1.661 6876
1.278 2.832 1.648 7793
1.371 3.037 1.747 7315
1.378 3.054 1.745 7124
1.386 3.071 1.742 7451
1.391 3.082 1.736 6098
1.364 3.021 1.692 5033
1.404 3.110 1.726 6240
1.406 3.114 1.717 8829
1.413 3.132 1.714 9507
1.412 3.129 1.700 7511
1.456 3.225 1.737 5271
1.464 3.243 1.733 5233
1.421 3.148 1.674 4225
1.426 3.159 1.667 4288
1.445 3.203 1.677 5259
1.450 3.213 1.670 6862
1.452 3.217 1.660 7282
1.484 3.287 1.681 7860
1.489 3.298 1.674 9624
1.496 3.316 1.669 7199
1.537 3.406 1.699 7426
1.536 3.403 1.685 8033
1.547 3.428 1.684 6391
1.558 3.452 1.682 4931
1.569 3.476 1.680 5040
1.559 3.453 1.657 4738
1.560 3.457 1.646 4281
1.568 3.475 1.641 3763
1.588 3.519 1.648 5836
1.590 3.523 1.637 9135
1.598 3.540 1.631 8739
1.603 3.551 1.623 6987
1.610 3.568 1.617 5293
1.658 3.673 1.648 7285
1.657 3.671 1.634 6143
1.643 3.641 1.608 4299
1.685 3.733 1.633 4328
1.693 3.750 1.626 5822
1.753 3.883 1.666 9261
1.751 3.880 1.651 11861
1.750 3.877 1.636 9250
1.767 3.915 1.637 6642
1.769 3.919 1.624 10158
1.774 3.930 1.614 18055
1.779 3.941 1.605 20539
1.784 3.952 1.595 16054
1.785 3.955 1.582 16016
1.787 3.959 1.570 14614
1.786 3.956 1.555 10289
1.899 4.207 1.631 6363
1.897 4.204 1.615 6726
1.896 4.201 1.599 4680
1.898 4.205 1.586 2892
1.937 4.291 1.601 4122
1.939 4.295 1.587 4063
1.996 4.423 1.616 2605
2.045 4.531 1.636 2708
2.090 4.631 1.654 4871
2.095 4.642 1.642 6629
2.097 4.646 1.627 5471
2.096 4.643 1.610 3930
2.107 4.668 1.602 5566
2.109 4.672 1.587 6505
2.088 4.627 1.557 4852
2.156 4.777 1.587 3441
2.151 4.767 1.568 2806
2.228 4.937 1.603 3476
2.277 5.046 1.618 4606
2.276 5.043 1.600 5139
2.297 5.089 1.596 5111
2.302 5.099 1.582 5963
2.310 5.117 1.570 5141
2.308 5.114 1.551 4260
2.427 5.377 1.606 3037
2.428 5.381 1.589 2842
2.484 5.504 1.604 2771
2.498 5.535 1.594 3087
2.570 5.694 1.617 3324
2.603 5.768 1.617 3384
2.608 5.779 1.601 4413
2.610 5.783 1.582 3090
2.662 5.899 1.592 4085
2.664 5.903 1.573 4615
2.669 5.914 1.556 3280
2.677 5.932 1.541 2907
2.685 5.949 1.525 2607
2.671 5.918 1.498 1622
2.851 6.317 1.570 2067
2.929 6.490 1.588 2485
2.934 6.501 1.569 2750
2.936 6.505 1.548 2345
3.126 6.927 1.617 1896
3.141 6.959 1.601 2584
3.245 7.190 1.626 3347
3.250 7.201 1.605 4186
3.252 7.204 1.582 5268
3.253 7.208 1.559 5614
3.255 7.212 1.536 4996
3.257 7.216 1.513 3995
3.258 7.219 1.490 2889
3.520 7.799 1.574 1958
3.525 7.810 1.550 2064
3.646 8.077 1.572 2381
3.847 8.523 1.624 2780
3.852 8.534 1.598 3409
3.818 8.459 1.557 3196
3.845 8.520 1.540 3150
3.844 8.517 1.512 3875
3.846 8.520 1.485 3925
3.850 8.531 1.459 3269
3.826 8.477 1.423 2144
4.260 9.439 1.538 2479
4.259 9.435 1.507 2735
4.260 9.439 1.477 3072
4.259 9.435 1.446 2749
4.260 9.439 1.416 1861
4.223 9.356 1.375 1408
4.227 9.367 1.346 1057
5.115 11.334 1.564 967
5.486 12.155 1.628 1094
5.491 12.166 1.590 839
5.684 12.593 1.601 720
5.501 12.188 1.514 728
5.833 12.924 1.556 827
5.835 12.928 1.515 614
5.833 12.924 1.472 497
5.835 12.928 1.431 503
5.836 12.931 1.390 364
0.957 2.095 1.773 5606
0.959 2.100 1.767 11213
0.960 2.104 1.760 11213
0.965 2.114 1.758 10027
0.970 2.124 1.756 9171
0.980 2.146 1.763 9376
0.984 2.156 1.761 10224
0.986 2.161 1.754 10224
0.994 2.177 1.756 8453
1.007 2.205 1.768 8596
1.006 2.203 1.756 8941
1.005 2.202 1.745 9912
1.004 2.200 1.733 7621
0.998 2.186 1.713 5591
1.055 2.310 1.794 4548
1.054 2.309 1.783 3952
1.048 2.295 1.762 3555
1.039 2.275 1.738 5141
1.041 2.279 1.731 6779
1.048 2.296 1.732 7125
1.055 2.312 1.733 8171
1.055 2.310 1.722 6582
1.084 2.375 1.757 5222
1.075 2.355 1.733 5186
1.077 2.359 1.725 5344
1.085 2.376 1.726 5686
1.089 2.386 1.723 6238
1.100 2.409 1.728 5695
1.104 2.419 1.724 5716
1.109 2.429 1.721 4398
1.122 2.458 1.729 3778
1.124 2.463 1.722 3686
1.163 2.547 1.766 3669
1.170 2.564 1.766 5310
1.175 2.574 1.762 7384
1.177 2.579 1.754 7660
1.185 2.596 1.754 10003
1.190 2.606 1.750 12700
1.194 2.617 1.745 18492
1.199 2.627 1.741 24596
1.201 2.631 1.733 23898
1.203 2.636 1.725 23201
1.205 2.640 1.716 19837
1.207 2.644 1.708 17320
1.209 2.648 1.700 18167
1.211 2.652 1.691 21718
1.210 2.650 1.679 25388
1.215 2.660 1.674 24537
1.219 2.671 1.670 19475
1.241 2.720 1.687 17853
1.243 2.724 1.679 15992
1.222 2.677 1.641 11603
1.268 2.777 1.687 10206
1.272 2.787 1.682 6934
1.274 2.791 1.673 4372
1.317 2.885 1.714 5272
1.328 2.909 1.716 6340
1.336 2.926 1.714 7529
1.338 2.930 1.704 7860
1.339 2.934 1.695 8043
1.344 2.945 1.689 7592
1.349 2.955 1.683 7014
1.360 2.979 1.684 5955
1.374 3.009 1.689 5906
1.378 3.020 1.682 5995
1.419 3.108 1.717 7313
1.424 3.119 1.710 7787
1.429 3.130 1.704 7198
1.428 3.127 1.690 5933
1.474 3.230 1.730 5788
1.434 3.142 1.674 4741
1.439 3.153 1.667 3939
1.456 3.190 1.673 5051
1.461 3.200 1.666 6739
1.466 3.211 1.660 7104
1.495 3.274 1.678 7416
1.506 3.298 1.677 9433
1.511 3.309 1.669 8044
1.552 3.399 1.699 7069
1.548 3.390 1.682 7472
1.556 3.408 1.678 5439
1.570 3.438 1.679 3776
1.584 3.469 1.680 4215
1.573 3.446 1.657 4364
1.575 3.450 1.646 4289
1.650 3.615 1.706 3919
1.606 3.519 1.651 4940
1.608 3.523 1.639 8130
1.610 3.527 1.628 8128
1.615 3.537 1.620 6436
1.663 3.642 1.651 5258
1.674 3.666 1.648 6995
1.666 3.650 1.628 6329
1.662 3.640 1.611 5054
1.701 3.725 1.633 4658
1.709 3.743 1.626 5623
1.766 3.869 1.663 6716
1.768 3.873 1.651 8845
1.770 3.877 1.638 7543
1.809 3.962 1.658 6115
1.786 3.912 1.624 7570
1.791 3.923 1.614 14494
1.799 3.940 1.607 15955
1.804 3.951 1.597 12591
1.805 3.955 1.585 12940
1.804 3.952 1.570 11101
1.803 3.949 1.555 7104
1.920 4.206 1.633 6117
1.928 4.223 1.625 5204
1.945 4.261 1.623 4357
1.947 4.265 1.610 3920
1.955 4.283 1.601 5405
1.957 4.287 1.587 5282
2.062 4.518 1.651 3975
2.064 4.522 1.636 3267
2.110 4.622 1.654 4606
2.115 4.633 1.642 6307
2.117 4.637 1.627 5875
2.119 4.641 1.612 4662
2.127 4.659 1.602 6313
2.129 4.663 1.587 7045
2.143 4.694 1.581 4958
2.154 4.719 1.572 3101
2.235 4.896 1.610 2614
2.253 4.935 1.605 2734
2.309 5.057 1.624 3659
2.298 5.033 1.600 3608
2.322 5.086 1.598 3647
2.333 5.110 1.588 4724
2.335 5.114 1.572 5670
2.333 5.111 1.553 4098
2.447 5.359 1.605 3046
2.451 5.370 1.589 3056
2.456 5.381 1.574 2492
2.560 5.609 1.617 2978
2.559 5.606 1.597 2976
2.628 5.757 1.617 3761
2.633 5.768 1.601 4649
2.680 5.870 1.607 3352
2.685 5.881 1.590 5409
2.686 5.884 1.571 5983
2.691 5.895 1.554 4253
2.703 5.920 1.541 3613
2.707 5.931 1.523 2977
2.696 5.906 1.498 2079
2.827 6.192 1.544 1794
2.957 6.478 1.588 2050
2.965 6.496 1.570 2565
2.967 6.500 1.549 2574
2.966 6.496 1.527 2071
3.271 7.165 1.647 2580
3.272 7.169 1.624 3515
3.281 7.187 1.605 4501
3.282 7.190 1.582 5582
3.284 7.194 1.559 5913
3.286 7.198 1.536 5266
3.288 7.202 1.513 4206
3.289 7.205 1.490 3154
3.703 8.111 1.634 2509
3.704 8.115 1.608 2911
3.722 8.154 1.589 2898
3.880 8.499 1.623 2495
3.888 8.517 1.598 3486
3.857 8.450 1.559 3055
3.875 8.489 1.538 3354
3.880 8.500 1.512 3883
3.882 8.504 1.485 3653
3.887 8.514 1.459 2886
4.260 9.331 1.555 2372
4.258 9.328 1.525 2510
4.299 9.417 1.507 2490
4.297 9.413 1.476 3070
4.296 9.410 1.445 2379
4.274 9.363 1.408 1458
4.266 9.345 1.375 1177
4.268 9.348 1.346 1057
4.285 9.387 1.320 929
5.538 12.131 1.628 1069
5.540 12.135 1.589 814
4.280 9.375 1.228 700
5.887 12.895 1.597 630
5.888 12.899 1.556 699
5.887 12.895 1.514 557
5.885 12.892 1.472 499
5.887 12.895 1.431 503
5.892 12.906 1.390 364
0.960 2.087 1.769 5143
0.962 2.091 1.762 10287
0.964 2.095 1.756 10287
0.972 2.111 1.758 9244
0.976 2.121 1.756 8701
0.986 2.143 1.763 9243
0.991 2.153 1.761 10205
0.993 2.158 1.754 10205
0.998 2.168 1.752 8489
1.013 2.202 1.768 8735
1.013 2.200 1.756 9281
1.012 2.199 1.745 10461
1.014 2.203 1.738 7952
1.021 2.219 1.740 5526
1.059 2.301 1.790 5355
1.061 2.305 1.783 4662
1.055 2.292 1.762 4087
1.048 2.278 1.742 5432
1.050 2.282 1.735 6852
1.055 2.292 1.732 6672
1.060 2.303 1.729 6763
1.062 2.307 1.722 5683
1.083 2.354 1.744 5383
1.085 2.358 1.737 5618
1.087 2.362 1.729 5852
1.089 2.366 1.722 5467
1.091 2.371 1.714 5081
1.107 2.405 1.728 4430
1.115 2.422 1.728 4361
1.148 2.494 1.766 3455
1.150 2.498 1.758 3757
1.157 2.515 1.758 3589
1.168 2.538 1.762 3753
1.175 2.554 1.762 4859
1.180 2.565 1.758 6407
1.185 2.575 1.754 6533
1.193 2.592 1.754 8326
1.198 2.602 1.750 11100
1.205 2.619 1.749 16536
1.207 2.623 1.741 22207
1.209 2.628 1.733 21896
1.211 2.632 1.725 21585
1.213 2.636 1.716 17921
1.218 2.647 1.712 14928
1.217 2.644 1.700 15460
1.219 2.649 1.691 18911
1.221 2.653 1.683 22363
1.223 2.657 1.674 21359
1.227 2.667 1.670 16266
1.250 2.716 1.687 14993
1.252 2.720 1.679 13842
1.271 2.762 1.692 13522
1.276 2.773 1.687 12825
1.278 2.777 1.678 9140
1.283 2.787 1.673 6076
1.285 2.791 1.664 6680
1.340 2.911 1.719 6488
1.345 2.922 1.714 8111
1.346 2.926 1.704 8070
1.348 2.930 1.695 8644
1.356 2.947 1.693 8597
1.358 2.951 1.683 7779
1.369 2.975 1.684 6183
1.383 3.005 1.689 6572
1.388 3.015 1.682 7271
1.390 3.019 1.673 7000
1.433 3.115 1.710 5280
1.450 3.152 1.717 6210
1.440 3.130 1.694 6534
1.442 3.134 1.684 6390
1.447 3.144 1.677 5280
1.467 3.188 1.687 4701
1.466 3.185 1.673 5074
1.471 3.196 1.666 6188
1.473 3.200 1.656 6556
1.508 3.277 1.681 6174
1.516 3.294 1.677 8592
1.521 3.304 1.669 8195
1.559 3.388 1.696 6286
1.555 3.379 1.679 7091
1.563 3.396 1.675 5198
1.568 3.407 1.667 3536
1.603 3.484 1.689 3451
1.581 3.435 1.654 4472
1.583 3.439 1.643 5139
1.664 3.617 1.709 5616
1.669 3.627 1.700 5462
1.619 3.518 1.639 6250
1.621 3.522 1.628 6856
1.672 3.633 1.663 6355
1.677 3.644 1.654 5222
1.682 3.654 1.645 6864
1.674 3.638 1.625 7290
1.673 3.635 1.611 5671
1.709 3.713 1.630 4557
1.714 3.724 1.621 4638
1.775 3.857 1.660 4385
1.780 3.867 1.651 6533
1.788 3.885 1.644 7069
1.821 3.957 1.658 5877
1.823 3.961 1.645 6543
1.806 3.924 1.617 10758
1.826 3.969 1.620 13109
1.828 3.972 1.607 10849
1.820 3.956 1.587 9984
1.822 3.960 1.575 7414
1.934 4.203 1.649 7357
1.939 4.213 1.638 6875
1.953 4.245 1.634 6318
1.958 4.255 1.623 5486
1.960 4.259 1.610 4762
1.968 4.277 1.601 6297
1.970 4.281 1.587 6097
2.076 4.512 1.651 5056
2.081 4.522 1.639 3641
2.127 4.623 1.656 3386
2.126 4.620 1.639 4961
2.128 4.624 1.625 5746
2.133 4.635 1.612 5308
2.141 4.652 1.602 6209
2.143 4.656 1.587 6139
2.157 4.688 1.581 4606
2.245 4.879 1.623 3004
2.272 4.938 1.625 2661
2.341 5.088 1.653 2851
2.343 5.092 1.636 4398
2.342 5.089 1.618 3724
2.334 5.072 1.596 3531
2.345 5.096 1.586 4334
2.350 5.107 1.572 5746
2.352 5.111 1.555 4077
2.421 5.261 1.579 2916
2.471 5.370 1.591 2839
2.476 5.380 1.576 2680
2.542 5.524 1.596 2647
2.544 5.528 1.579 2395
2.645 5.749 1.617 3400
2.650 5.759 1.601 4152
2.697 5.861 1.607 4334
2.702 5.872 1.590 6329
2.704 5.876 1.571 6657
2.709 5.887 1.554 4645
2.717 5.905 1.539 4239
2.722 5.915 1.522 3299
2.714 5.898 1.498 2406
2.807 6.099 1.524 2027
3.016 6.553 1.607 2327
3.018 6.557 1.586 3598
3.023 6.568 1.566 3573
3.031 6.586 1.548 3549
3.032 6.590 1.527 3268
3.203 6.961 1.583 3154
3.303 7.177 1.605 3935
3.304 7.180 1.582 4892
3.306 7.184 1.559 5202
3.308 7.188 1.536 4556
3.306 7.185 1.511 3579
3.311 7.195 1.490 2771
3.727 8.099 1.634 3185
3.732 8.110 1.610 4076
3.744 8.136 1.587 3946
3.749 8.146 1.563 2904
3.914 8.505 1.598 3299
3.919 8.516 1.572 2946
3.891 8.456 1.534 3678
3.903 8.481 1.511 3375
3.905 8.485 1.483 2880
4.234 9.200 1.567 2189
4.291 9.325 1.556 2573
4.290 9.322 1.526 2708
4.324 9.397 1.506 2350
4.329 9.407 1.477 3017
4.314 9.375 1.442 2191
4.303 9.350 1.408 2126
4.291 9.325 1.375 1643
4.289 9.321 1.344 1562
4.291 9.324 1.314 1094
5.575 12.115 1.628 909
4.317 9.380 1.260 828
5.565 12.094 1.547 580
5.923 12.870 1.596 586
5.700 12.387 1.501 637
5.676 12.333 1.455 565
5.921 12.867 1.471 483
5.926 12.877 1.431 474
5.928 12.881 1.389 336
5.892 12.803 -1.084 266
5.894 12.807 -1.126 298
5.892 12.804 -1.167 255
0.967 2.083 1.769 4394
0.969 2.088 1.762 8789
0.971 2.092 1.756 8789
0.976 2.102 1.754 8147
0.983 2.118 1.756 8109
0.993 2.140 1.763 8950
0.998 2.150 1.761 9999
1.000 2.154 1.754 9999
1.005 2.165 1.752 8413
1.021 2.198 1.768 8362
1.020 2.197 1.756 9056
1.019 2.195 1.745 10306
1.021 2.199 1.738 7904
1.029 2.216 1.740 5842
1.067 2.297 1.790 5631
1.066 2.296 1.778 5060
1.062 2.288 1.762 4659
1.056 2.274 1.742 5762
1.058 2.279 1.735 6940
1.060 2.283 1.728 6150
1.065 2.293 1.725 5406
1.095 2.358 1.760 5413
1.091 2.350 1.744 6209
1.093 2.354 1.737 6151
1.098 2.365 1.734 6161
1.100 2.369 1.726 5391
1.107 2.385 1.727 4636
1.115 2.402 1.728 4097
1.123 2.418 1.728 3810
1.156 2.490 1.766 3825
1.158 2.494 1.758 3951
1.163 2.505 1.754 3772
1.176 2.534 1.762 3790
1.184 2.550 1.762 4430
1.189 2.561 1.758 5411
1.191 2.565 1.750 5533
1.201 2.588 1.754 6542
1.209 2.605 1.754 9195
1.214 2.615 1.749 13992
1.216 2.619 1.741 18850
1.218 2.624 1.733 18829
1.220 2.628 1.725 18807
1.222 2.632 1.716 14984
1.227 2.643 1.712 11745
1.229 2.647 1.703 11852
1.228 2.644 1.691 15055
1.230 2.649 1.683 18292
1.231 2.653 1.674 17125
1.239 2.669 1.674 12569
1.256 2.705 1.684 11948
1.270 2.735 1.690 11972
1.280 2.758 1.692 15468
1.285 2.768 1.687 14887
1.287 2.772 1.678 11409
1.292 2.783 1.673 8544
1.294 2.787 1.664 9172
1.296 2.791 1.655 8138
1.354 2.917 1.714 8193
1.353 2.915 1.701 7911
1.361 2.932 1.699 8988
1.366 2.942 1.693 9147
1.368 2.947 1.683 7954
1.379 2.970 1.684 6215
1.393 3.000 1.689 6903
1.398 3.011 1.682 7687
1.400 3.015 1.673 7639
1.401 3.019 1.663 5350
1.461 3.147 1.717 5899
1.454 3.131 1.697 6568
1.456 3.135 1.687 6521
1.476 3.179 1.697 5881
1.481 3.189 1.690 6031
1.479 3.187 1.677 5080
1.481 3.191 1.666 5104
1.483 3.195 1.656 5311
1.528 3.291 1.690 5360
1.533 3.302 1.683 8056
1.532 3.299 1.669 7873
1.567 3.376 1.693 5768
1.569 3.380 1.682 7201
1.577 3.398 1.678 6272
1.579 3.402 1.667 4524
1.630 3.512 1.704 3900
1.586 3.416 1.648 4692
1.588 3.420 1.637 5272
1.676 3.611 1.709 6956
1.681 3.622 1.700 6982
1.686 3.633 1.692 5688
1.688 3.637 1.680 6602
1.690 3.641 1.669 6554
1.689 3.638 1.654 5311
1.691 3.642 1.643 7112
1.690 3.639 1.628 7903
1.688 3.637 1.614 5881
1.718 3.701 1.627 3929
1.720 3.705 1.615 3623
1.784 3.844 1.658 3425
1.796 3.868 1.653 5557
1.801 3.879 1.644 6556
1.825 3.930 1.650 5424
1.830 3.941 1.640 5858
1.835 3.952 1.630 8730
1.840 3.962 1.620 12592
1.841 3.966 1.607 11274
1.837 3.957 1.590 8392
1.946 4.192 1.662 7155
1.948 4.196 1.649 8081
1.953 4.207 1.638 7930
1.961 4.224 1.630 6839
1.969 4.242 1.621 5674
1.974 4.253 1.610 4872
1.982 4.270 1.601 6255
1.984 4.274 1.587 5955
2.091 4.505 1.651 5288
2.099 4.522 1.641 3824
1.983 4.272 1.542 2976
2.138 4.606 1.637 3438
2.143 4.617 1.625 5155
2.151 4.634 1.614 5299
2.160 4.652 1.604 5170
2.161 4.656 1.589 4361
2.173 4.680 1.581 3286
2.287 4.926 1.640 3425
2.289 4.930 1.625 3860
2.355 5.073 1.651 3403
2.360 5.084 1.636 4648
2.362 5.088 1.620 3429
2.354 5.071 1.598 4131
2.359 5.081 1.584 4968
2.367 5.099 1.572 5327
2.369 5.103 1.555 4093
2.426 5.225 1.572 2948
2.495 5.375 1.595 2127
2.497 5.379 1.578 2334
2.560 5.515 1.596 2329
2.566 5.526 1.580 2512
2.567 5.530 1.563 2550
2.670 5.751 1.601 3060
2.717 5.852 1.607 4644
2.719 5.856 1.588 6290
2.721 5.860 1.570 6237
2.732 5.885 1.556 4244
2.737 5.896 1.539 4206
2.739 5.899 1.520 3327
2.737 5.896 1.500 2663
2.827 6.089 1.524 2245
3.034 6.536 1.605 2966
3.039 6.547 1.586 4581
3.044 6.558 1.566 4761
3.056 6.583 1.550 4965
3.054 6.579 1.527 4571
3.226 6.950 1.583 3226
3.231 6.961 1.562 2834
3.328 7.169 1.582 3380
3.445 7.420 1.608 4201
3.443 7.417 1.583 4163
3.439 7.407 1.556 3404
3.447 7.425 1.535 2745
3.754 8.087 1.634 3417
3.763 8.105 1.611 5050
3.771 8.123 1.587 4940
3.773 8.127 1.561 3544
3.771 8.124 1.534 3544
3.776 8.134 1.509 3329
3.916 8.436 1.533 3437
3.921 8.447 1.507 2772
4.263 9.182 1.597 2344
4.334 9.336 1.591 2209
4.329 9.325 1.559 2350
4.321 9.307 1.526 2245
4.342 9.354 1.502 2328
4.357 9.386 1.476 2656
4.342 9.354 1.441 2348
4.341 9.350 1.410 2238
4.352 9.375 1.383 1213
4.311 9.285 1.341 1178
4.319 9.303 1.313 900
4.333 9.334 1.287 916
4.321 9.309 1.253 997
4.326 9.319 1.224 777
5.747 12.379 1.543 658
5.874 12.654 1.533 717
5.879 12.665 1.493 652
5.964 12.847 1.471 476
5.969 12.858 1.431 467
5.971 12.861 1.389 331
0.971 2.075 1.764 3681
0.973 2.079 1.757 7362
0.975 2.083 1.751 7362
0.980 2.093 1.749 7075
0.998 2.133 1.770 7699
1.003 2.143 1.768 8659
1.005 2.147 1.761 9739
1.007 2.151 1.754 9739
1.011 2.162 1.752 8242
1.027 2.195 1.768 7715
1.024 2.188 1.752 8560
1.026 2.192 1.745 9703
1.028 2.196 1.738 7637
1.038 2.218 1.744 6259
1.071 2.288 1.785 5634
1.070 2.287 1.774 5403
1.066 2.279 1.758 5367
1.066 2.277 1.746 6194
1.065 2.275 1.735 7057
1.067 2.280 1.728 5899
1.108 2.368 1.780 5409
1.102 2.355 1.760 5877
1.098 2.347 1.744 7333
1.103 2.357 1.741 6845
1.105 2.361 1.734 6465
1.107 2.365 1.726 5180
1.117 2.388 1.731 3982
1.162 2.484 1.786 3954
1.164 2.488 1.778 4090
1.166 2.492 1.770 4032
1.165 2.491 1.758 3977
1.170 2.501 1.754 3829
1.175 2.511 1.750 3726
1.192 2.547 1.762 3984
1.197 2.557 1.758 4460
1.196 2.555 1.746 4720
1.198 2.559 1.738 5069
1.220 2.607 1.758 7431
1.222 2.611 1.749 11362
1.224 2.616 1.741 15292
1.226 2.620 1.733 15502
1.228 2.624 1.725 15711
1.233 2.635 1.720 11955
1.238 2.645 1.716 8490
1.240 2.649 1.707 8240
1.236 2.641 1.691 10858
1.238 2.645 1.683 13702
1.243 2.655 1.678 12685
1.250 2.672 1.677 9092
1.264 2.701 1.684 9271
1.284 2.744 1.697 11705
1.289 2.754 1.692 16693
1.291 2.758 1.683 16106
1.296 2.769 1.678 13104
1.300 2.779 1.673 10753
1.302 2.783 1.664 11370
1.304 2.787 1.655 9739
1.366 2.919 1.717 8177
1.371 2.930 1.711 7968
1.373 2.934 1.702 9678
1.375 2.938 1.693 9412
1.377 2.942 1.683 7434
1.388 2.966 1.684 5294
1.402 2.996 1.689 6337
1.407 3.006 1.682 7416
1.412 3.017 1.676 7570
1.456 3.112 1.714 5377
1.467 3.136 1.714 5717
1.503 3.212 1.740 6414
1.468 3.137 1.690 6368
1.488 3.181 1.700 7131
1.490 3.185 1.690 7592
1.492 3.189 1.680 5528
1.494 3.193 1.670 4364
1.496 3.197 1.660 4352
1.550 3.313 1.703 5964
1.543 3.297 1.683 8077
1.542 3.295 1.669 7045
1.575 3.365 1.690 4948
1.583 3.382 1.685 6658
1.594 3.406 1.684 7101
1.596 3.410 1.673 5450
1.641 3.507 1.704 4706
1.593 3.405 1.645 6358
1.595 3.409 1.634 6717
1.690 3.612 1.712 8053
1.696 3.623 1.703 8370
1.701 3.634 1.695 7023
1.706 3.645 1.686 7551
1.708 3.649 1.674 6860
1.703 3.640 1.657 5527
1.702 3.637 1.643 7577
1.701 3.634 1.628 8107
1.702 3.638 1.617 5659
1.723 3.682 1.622 3512
1.797 3.841 1.672 3704
1.796 3.838 1.658 3820
1.798 3.842 1.645 5066
1.809 3.867 1.641 5287
1.837 3.925 1.650 4608
1.838 3.929 1.637 5147
1.847 3.946 1.630 7183
1.852 3.957 1.620 10933
1.853 3.961 1.607 10572
1.852 3.958 1.592 6982
1.959 4.186 1.662 6380
1.964 4.197 1.651 7875
1.969 4.208 1.641 8282
1.974 4.218 1.630 7397
1.979 4.229 1.619 5592
1.984 4.240 1.607 4758
1.995 4.264 1.601 5704
1.997 4.268 1.587 5124
2.105 4.498 1.651 5017
1.994 4.262 1.556 3991
1.996 4.266 1.542 3374
2.155 4.606 1.639 2785
2.157 4.610 1.625 4394
2.159 4.614 1.610 4836
2.174 4.645 1.604 3632
2.179 4.656 1.591 2408
2.219 4.743 1.602 2141
2.305 4.926 1.642 3640
2.304 4.923 1.625 4522
2.370 5.066 1.651 3759
2.376 5.076 1.636 4460
2.377 5.080 1.620 2944
2.373 5.070 1.600 3910
2.378 5.081 1.586 4691
2.383 5.092 1.572 4473
2.385 5.096 1.555 4302
2.442 5.218 1.572 3070
2.443 5.221 1.555 1962
2.559 5.469 1.604 2102
2.665 5.696 1.646 2024
2.582 5.518 1.580 2100
2.587 5.529 1.565 2209
2.733 5.840 1.626 3059
2.735 5.844 1.607 4363
2.737 5.848 1.588 5494
2.738 5.852 1.570 5102
2.753 5.884 1.558 3297
2.755 5.887 1.539 3497
2.845 6.080 1.565 3028
2.844 6.077 1.544 2520
3.052 6.523 1.626 2342
3.054 6.527 1.605 3226
3.059 6.538 1.586 5216
3.064 6.549 1.566 5721
3.076 6.573 1.550 6003
3.074 6.570 1.527 5368
3.089 6.602 1.512 3962
3.098 6.620 1.494 3708
3.462 7.399 1.630 3718
3.464 7.403 1.607 5057
3.466 7.407 1.583 5475
3.461 7.396 1.556 5140
3.463 7.400 1.533 4074
3.782 8.083 1.635 3381
3.787 8.094 1.611 5918
3.796 8.112 1.587 5863
3.798 8.115 1.561 3997
3.796 8.112 1.534 3813
3.801 8.123 1.509 3694
3.803 8.126 1.483 2972
3.944 8.428 1.506 2296
3.945 8.431 1.479 1939
4.366 9.329 1.592 2175
4.364 9.326 1.561 2115
4.382 9.365 1.536 1907
4.381 9.362 1.505 2261
4.386 9.373 1.476 2305
4.387 9.376 1.446 2161
4.379 9.358 1.413 2117
4.387 9.376 1.385 1285
4.352 9.301 1.345 1026
4.354 9.304 1.315 954
5.422 11.587 1.567 800
5.624 12.018 1.582 812
6.009 12.842 1.639 788
5.784 12.361 1.543 694
5.773 12.336 1.500 697
5.918 12.647 1.493 643
5.763 12.315 1.417 432
6.005 12.832 1.430 366
6.003 12.828 1.388 257
0.978 2.064 1.759 2952
0.980 2.069 1.753 5905
0.982 2.073 1.746 5905
0.986 2.083 1.744 6238
1.008 2.128 1.770 7552
1.013 2.138 1.768 8566
1.015 2.142 1.761 9597
1.017 2.147 1.754 9597
1.021 2.157 1.752 8377
1.035 2.185 1.763 7576
1.031 2.177 1.747 8506
1.033 2.181 1.740 9451
1.038 2.191 1.738 7653
1.051 2.219 1.749 7104
1.073 2.265 1.772 6021
1.075 2.270 1.765 6290
1.074 2.268 1.754 6555
1.073 2.266 1.742 6996
1.075 2.270 1.735 7442
1.072 2.263 1.719 6263
1.119 2.363 1.780 5861
1.113 2.349 1.760 7002
1.109 2.342 1.744 8899
1.114 2.352 1.741 7844
1.116 2.356 1.734 6917
1.118 2.360 1.726 5014
1.172 2.474 1.793 3479
1.174 2.478 1.786 3996
1.176 2.483 1.778 4514
1.178 2.487 1.770 4233
1.186 2.504 1.770 4081
1.185 2.502 1.758 3771
1.184 2.500 1.746 3557
1.201 2.535 1.758 3239
1.205 2.545 1.754 3316
1.205 2.543 1.742 3881
1.236 2.610 1.774 4344
1.235 2.608 1.762 6053
1.237 2.612 1.753 8929
1.239 2.616 1.745 11804
1.238 2.614 1.733 12207
1.240 2.618 1.725 12627
1.245 2.629 1.720 9414
1.253 2.646 1.719 6100
1.270 2.681 1.730 5668
1.251 2.641 1.695 6945
1.253 2.645 1.687 8907
1.255 2.649 1.678 8227
1.266 2.672 1.681 6069
1.289 2.721 1.698 7326
1.300 2.744 1.701 12194
1.301 2.748 1.692 17046
1.303 2.752 1.683 16323
1.308 2.763 1.678 13987
1.313 2.773 1.673 12305
1.315 2.777 1.664 12805
1.317 2.781 1.655 10702
1.383 2.920 1.721 8743
1.406 2.969 1.736 9318
1.390 2.934 1.706 11113
1.389 2.932 1.693 10281
1.390 2.936 1.683 7660
1.395 2.947 1.678 5616
1.419 2.996 1.692 5841
1.427 3.013 1.689 7037
1.429 3.017 1.680 7159
1.471 3.105 1.714 6332
1.482 3.129 1.714 5810
1.515 3.198 1.737 6642
1.520 3.209 1.730 6439
1.503 3.174 1.700 8011
1.508 3.184 1.693 8703
1.513 3.195 1.686 6114
1.524 3.219 1.686 4310
1.567 3.308 1.717 4176
1.566 3.306 1.703 6170
1.558 3.290 1.683 7918
1.557 3.288 1.669 6077
1.590 3.357 1.690 4200
1.601 3.381 1.688 6466
1.613 3.405 1.687 7423
1.618 3.416 1.679 5983
1.660 3.506 1.707 5420
1.606 3.391 1.642 6178
1.611 3.401 1.634 7162
1.710 3.611 1.715 8808
1.712 3.615 1.703 9643
1.717 3.626 1.695 8858
1.722 3.637 1.686 8645
1.728 3.648 1.677 7069
1.720 3.632 1.657 5848
1.722 3.636 1.645 8041
1.721 3.633 1.631 7930
1.719 3.630 1.617 5007
1.756 3.708 1.635 3131
1.815 3.833 1.672 4402
1.814 3.830 1.658 5939
1.816 3.834 1.645 6549
1.821 3.845 1.636 4775
1.861 3.930 1.655 3547
1.869 3.947 1.648 3724
1.868 3.944 1.633 5604
1.873 3.955 1.623 8678
1.875 3.959 1.610 8806
1.877 3.963 1.597 5303
1.981 4.184 1.665 5735
1.983 4.188 1.651 7802
1.988 4.199 1.641 10182
1.990 4.203 1.627 10459
1.989 4.200 1.611 7742
2.000 4.224 1.605 4986
2.015 4.255 1.601 4638
2.017 4.259 1.587 3861
2.126 4.488 1.651 4198
2.014 4.253 1.556 3983
2.172 4.585 1.652 4901
2.170 4.582 1.635 3423
2.175 4.593 1.622 4073
2.180 4.604 1.610 4465
2.199 4.642 1.606 2683
2.249 4.749 1.624 1802
2.280 4.815 1.628 2446
2.328 4.916 1.642 3281
2.327 4.913 1.625 4188
2.397 5.061 1.653 3658
2.399 5.065 1.636 4352
2.398 5.062 1.618 3416
2.396 5.059 1.600 4075
2.401 5.070 1.586 4411
2.406 5.081 1.572 4383
2.408 5.085 1.555 4756
2.466 5.206 1.572 3087
2.576 5.439 1.618 2277
2.581 5.450 1.602 2166
2.688 5.676 1.644 2121
2.578 5.444 1.564 1841
2.738 5.782 1.634 1979
2.757 5.821 1.624 2959
2.765 5.838 1.609 3501
2.764 5.835 1.588 4000
2.765 5.839 1.570 3492
2.780 5.871 1.558 2084
2.785 5.882 1.541 2539
2.867 6.053 1.562 2293
2.868 6.057 1.542 2062
3.083 6.509 1.626 2239
3.084 6.513 1.605 3113
3.090 6.524 1.586 5263
3.105 6.555 1.571 6327
3.110 6.566 1.551 6416
3.115 6.577 1.532 5807
3.123 6.595 1.514 6622
3.128 6.605 1.494 6552
3.127 6.602 1.471 4742
3.498 7.387 1.607 5373
3.500 7.391 1.583 6356
3.495 7.380 1.556 6847
3.494 7.377 1.531 5536
3.502 7.395 1.510 3632
3.828 8.083 1.612 6606
3.833 8.094 1.587 6495
3.835 8.098 1.561 4117
3.833 8.094 1.534 3494
3.839 8.105 1.509 3509
3.840 8.109 1.483 2864
3.842 8.112 1.457 1892
3.988 8.420 1.480 1965
4.412 9.316 1.593 2233
4.407 9.306 1.561 2019
4.426 9.345 1.536 2052
4.427 9.349 1.506 2140
4.429 9.352 1.476 1955
4.431 9.356 1.446 2030
4.426 9.345 1.414 2111
4.431 9.355 1.385 1357
4.392 9.273 1.344 1055
4.400 9.291 1.316 1070
4.405 9.301 1.287 1148
4.403 9.297 1.256 1277
4.404 9.300 1.226 987
5.683 12.000 1.504 745
5.823 12.295 1.498 626
5.673 11.978 1.424 676
5.678 11.989 1.386 481
5.686 12.006 1.349 354
0.694 1.465 0.214 261
5.438 11.483 -0.963 271
5.437 11.480 -1.000 294
5.436 11.477 -1.037 252
0.982 2.055 1.755 2459
0.984 2.060 1.748 4918
0.986 2.064 1.742 4918
0.990 2.074 1.740 5853
1.017 2.131 1.774 7390
1.019 2.135 1.768 8298
1.024 2.145 1.765 9284
1.026 2.149 1.759 9284
1.031 2.159 1.756 8523
1.036 2.170 1.754 7934
1.038 2.174 1.747 8380
1.040 2.178 1.740 8826
1.045 2.188 1.738 7256
1.061 2.222 1.753 8100
1.069 2.238 1.755 7228
1.079 2.260 1.761 7202
1.079 2.259 1.749 7603
1.081 2.263 1.742 7593
1.085 2.273 1.739 7598
1.079 2.259 1.719 6804
1.118 2.342 1.768 6425
1.117 2.340 1.756 7948
1.116 2.338 1.744 9815
1.121 2.348 1.741 8217
1.123 2.352 1.734 6721
1.128 2.363 1.730 4665
1.154 2.416 1.756 3449
1.182 2.475 1.786 3856
1.184 2.479 1.778 4591
1.189 2.489 1.774 4129
1.197 2.506 1.774 4008
1.196 2.504 1.762 3327
1.183 2.478 1.734 3477
1.182 2.476 1.722 3374
1.184 2.480 1.714 3276
1.207 2.527 1.734 4008
1.209 2.531 1.726 4737
1.246 2.610 1.765 5294
1.245 2.608 1.753 7318
1.247 2.612 1.745 9426
1.249 2.616 1.737 9914
1.251 2.621 1.728 10403
1.256 2.631 1.724 8505
1.264 2.648 1.723 6271
1.269 2.658 1.719 5252
1.265 2.650 1.703 5506
1.300 2.723 1.735 6078
1.269 2.658 1.686 5475
1.301 2.725 1.714 6022
1.303 2.729 1.706 7687
1.308 2.740 1.701 12262
1.310 2.744 1.692 16076
1.312 2.748 1.683 15139
1.317 2.758 1.678 13458
1.322 2.769 1.673 12260
1.321 2.766 1.661 12516
1.326 2.777 1.655 10293
1.395 2.921 1.724 9554
1.409 2.951 1.729 10644
1.402 2.936 1.709 12527
1.401 2.934 1.696 10891
1.400 2.932 1.683 7526
1.402 2.936 1.674 5934
1.438 3.011 1.702 4959
1.437 3.008 1.689 7119
1.442 3.019 1.683 7320
1.484 3.107 1.717 6519
1.492 3.124 1.714 5923
1.525 3.193 1.737 6739
1.527 3.197 1.726 6435
1.513 3.169 1.700 7957
1.518 3.180 1.693 8782
1.527 3.197 1.689 6571
1.535 3.214 1.686 5365
1.537 3.218 1.675 4538
1.576 3.301 1.703 5549
1.569 3.285 1.683 6675
1.564 3.276 1.666 5435
1.607 3.365 1.696 3603
1.615 3.383 1.691 6085
1.624 3.400 1.687 7071
1.629 3.411 1.679 5861
1.672 3.501 1.707 5487
1.614 3.379 1.639 5480
1.619 3.390 1.631 5919
1.722 3.606 1.715 8775
1.724 3.610 1.703 9884
1.729 3.621 1.695 9606
1.734 3.631 1.686 8801
1.739 3.642 1.677 6917
1.735 3.633 1.660 6375
1.734 3.630 1.645 8223
1.732 3.627 1.631 7268
1.734 3.631 1.619 4075
1.832 3.836 1.690 2832
1.824 3.820 1.670 5435
1.826 3.824 1.658 8061
1.831 3.835 1.648 8534
1.833 3.839 1.636 5318
1.880 3.937 1.660 3396
1.888 3.955 1.653 3126
1.884 3.945 1.635 4315
1.886 3.949 1.623 6895
1.894 3.966 1.615 7889
1.902 3.984 1.607 5557
1.998 4.184 1.667 4849
1.997 4.181 1.651 7003
2.002 4.192 1.641 11682
2.001 4.189 1.625 13667
2.002 4.193 1.611 10494
2.008 4.204 1.600 5377
2.029 4.249 1.601 3431
2.128 4.457 1.658 3210
2.134 4.468 1.646 3539
2.181 4.568 1.664 3727
2.183 4.572 1.649 5861
2.182 4.569 1.632 4502
2.187 4.579 1.620 4134
2.195 4.597 1.610 3904
2.213 4.635 1.606 2296
2.261 4.735 1.622 1848
2.302 4.822 1.632 2324
2.304 4.825 1.617 2564
