9.313 9.429 1.853 1006
9.305 9.421 1.813 851
9.955 10.079 1.888 939
9.958 10.082 1.847 967
9.514 9.633 1.731 982
10.042 10.168 1.777 824
9.963 10.087 1.722 700
9.866 9.990 1.666 495
9.986 10.110 1.642 400
10.055 10.181 1.611 317
1.730 1.751 0.204 255
1.724 1.746 0.197 367
1.724 1.746 0.190 488
1.724 1.746 0.183 559
1.719 1.740 0.176 550
1.719 1.740 0.169 531
1.719 1.741 0.162 472
1.719 1.741 0.155 479
1.725 1.746 0.148 425
1.953 1.977 0.141 380
1.953 1.977 0.133 504
1.953 1.977 0.125 670
1.953 1.977 0.117 711
1.953 1.977 0.109 616
1.953 1.977 0.102 521
1.953 1.977 0.094 380
10.037 10.163 -0.267 296
10.042 10.168 -0.309 354
10.041 10.167 -0.350 417
10.040 10.165 -0.392 456
10.039 10.164 -0.433 495
10.032 10.157 -0.475 496
10.031 10.156 -0.516 502
10.030 10.155 -0.558 470
10.034 10.159 -0.600 442
10.032 10.157 -0.641 402
10.030 10.156 -0.683 362
10.023 10.148 -0.724 306
10.021 10.146 -0.765 254
1.579 1.588 1.727 2144
1.582 1.591 1.720 4288
1.585 1.595 1.714 4288
1.598 1.607 1.717 3005
1.665 1.674 1.774 2671
1.673 1.682 1.772 3437
1.680 1.690 1.770 4338
1.684 1.694 1.763 4338
1.696 1.706 1.765 4350
1.700 1.710 1.759 4560
1.703 1.713 1.752 3900
1.702 1.712 1.740 3242
1.714 1.724 1.742 3582
1.718 1.728 1.735 4020
1.725 1.736 1.733 4355
1.761 1.772 1.756 6000
1.760 1.770 1.745 7581
1.763 1.774 1.738 8606
1.767 1.777 1.731 9625
1.775 1.785 1.728 9076
1.787 1.798 1.729 9164
1.795 1.806 1.726 8150
1.808 1.818 1.727 7345
1.811 1.822 1.720 6872
1.814 1.825 1.713 6398
1.822 1.833 1.709 7917
1.826 1.836 1.702 9467
1.829 1.839 1.695 10060
1.832 1.843 1.687 10653
1.840 1.851 1.684 9290
1.843 1.854 1.676 7938
1.841 1.852 1.665 6792
1.845 1.855 1.657 5715
1.862 1.873 1.662 4864
1.889 1.900 1.674 3986
1.955 1.967 1.718 5417
1.958 1.970 1.710 7769
1.962 1.973 1.702 8550
1.965 1.976 1.695 10023
1.968 1.980 1.687 11496
1.962 1.973 1.671 9473
1.955 1.966 1.655 8060
1.958 1.969 1.647 7864
1.966 1.978 1.643 7660
1.979 1.990 1.643 8376
1.992 2.003 1.642 7224
2.000 2.012 1.638 7831
2.003 2.015 1.630 9917
2.001 2.013 1.618 10444
1.999 2.011 1.606 10863
2.002 2.014 1.598 10316
2.010 2.022 1.593 8420
2.013 2.025 1.585 7286
2.021 2.033 1.581 4977
2.288 2.301 1.763 4095
2.296 2.309 1.757 4690
2.304 2.318 1.751 4992
2.308 2.321 1.742 4738
2.291 2.304 1.718 5355
2.414 2.428 1.793 5058
2.428 2.442 1.790 5731
2.431 2.445 1.780 5915
2.429 2.444 1.767 5607
2.433 2.447 1.757 4462
2.436 2.450 1.747 3505
2.444 2.459 1.740 4924
2.453 2.467 1.734 6090
2.461 2.476 1.727 5310
2.464 2.479 1.717 6553
2.468 2.482 1.707 8204
2.466 2.480 1.693 6952
2.464 2.478 1.680 6970
2.472 2.487 1.673 11382
2.485 2.500 1.670 14499
2.499 2.513 1.666 14823
2.502 2.517 1.656 11413
2.500 2.515 1.642 8463
2.508 2.523 1.635 9654
2.516 2.531 1.628 10616
2.525 2.539 1.621 8547
2.517 2.532 1.605 6700
2.515 2.530 1.591 9356
2.518 2.533 1.581 11041
2.521 2.536 1.571 10933
2.529 2.544 1.563 10377
2.543 2.557 1.559 10275
2.551 2.566 1.551 8357
2.554 2.568 1.541 5502
2.525 2.540 1.513 6072
2.528 2.543 1.503 5622
2.541 2.556 1.498 4704
2.935 2.953 1.699 4397
2.583 2.598 1.497 4114
2.591 2.607 1.489 3827
2.940 2.957 1.660 5047
2.948 2.965 1.651 5380
3.088 3.106 1.709 5374
3.096 3.114 1.699 7353
3.099 3.117 1.686 6766
3.081 3.099 1.663 6339
3.106 3.124 1.661 6869
3.114 3.132 1.651 6211
3.112 3.130 1.635 9005
3.115 3.133 1.623 16472
3.123 3.141 1.612 16675
3.121 3.139 1.597 13250
3.119 3.137 1.582 10753
3.175 3.193 1.594 8309
3.183 3.201 1.583 7893
3.180 3.199 1.568 7691
3.194 3.213 1.560 4813
3.554 3.575 1.705 3890
3.552 3.572 1.689 3737
3.608 3.629 1.697 3458
3.633 3.654 1.692 5726
3.641 3.663 1.679 7400
3.644 3.666 1.664 5209
3.771 3.793 1.701 5196
3.790 3.812 1.692 7934
3.793 3.815 1.676 10650
3.796 3.818 1.661 8264
3.805 3.827 1.647 6872
3.808 3.830 1.632 5405
4.021 4.044 1.698 3275
4.105 4.129 1.713 5057
4.103 4.126 1.694 6329
4.116 4.141 1.681 6656
4.109 4.133 1.660 10245
4.112 4.136 1.644 11158
4.137 4.161 1.635 8641
4.118 4.142 1.610 6712
4.121 4.145 1.593 3713
4.314 4.339 1.643 4570
4.322 4.347 1.627 3037
4.634 4.662 1.715 2706
4.643 4.670 1.698 2470
4.712 4.739 1.701 2352
4.883 4.912 1.737 2753
4.892 4.921 1.719 2847
4.906 4.935 1.702 3872
4.909 4.938 1.682 4533
4.912 4.941 1.662 2863
5.128 5.158 1.707 2384
5.170 5.200 1.697 3150
5.238 5.269 1.696 3580
5.236 5.267 1.673 4297
5.245 5.275 1.653 3571
5.614 5.647 1.736 4112
5.629 5.661 1.716 5215
5.637 5.670 1.695 3977
5.865 5.899 1.733 2741
5.863 5.897 1.707 3177
5.976 6.011 1.712 2932
5.968 6.003 1.685 2476
6.015 6.050 1.671 2291
6.007 6.042 1.644 1906
6.005 6.040 1.618 1237
6.520 6.558 1.718 1095
6.858 6.899 1.771 1280
6.818 6.858 1.732 1165
7.422 7.465 1.843 1246
7.364 7.407 1.799 1398
7.246 7.289 1.741 1613
7.426 7.470 1.750 1366
7.435 7.478 1.720 1156
7.438 7.482 1.690 1123
8.369 8.418 1.850 1243
8.378 8.427 1.816 1094
8.686 8.737 1.842 916
7.865 7.911 1.647 1025
7.863 7.909 1.614 922
9.349 9.404 1.854 1100
9.342 9.396 1.814 893
9.988 10.046 1.888 906
9.991 10.050 1.847 942
9.546 9.601 1.731 926
10.070 10.129 1.776 808
9.896 9.954 1.707 670
9.905 9.963 1.667 521
10.074 10.133 1.651 409
10.050 10.108 1.605 317
1.736 1.746 0.197 251
1.736 1.746 0.190 336
1.730 1.740 0.183 397
1.730 1.740 0.176 397
1.730 1.740 0.169 340
1.959 1.971 0.165 284
1.959 1.971 0.157 371
1.959 1.971 0.149 425
1.959 1.971 0.141 478
1.965 1.976 0.133 490
1.965 1.976 0.125 531
1.965 1.976 0.117 559
1.965 1.976 0.109 542
1.965 1.976 0.101 526
1.959 1.970 0.094 442
1.953 1.965 0.086 363
1.959 1.970 0.078 315
1.959 1.970 0.070 269
1.590 1.586 1.731 1955
1.593 1.590 1.725 3910
1.596 1.593 1.719 3910
1.609 1.605 1.721 3085
1.630 1.627 1.733 2632
1.684 1.680 1.777 3389
1.687 1.684 1.770 4255
1.691 1.687 1.763 4255
1.703 1.700 1.765 4086
1.711 1.707 1.763 4112
1.710 1.706 1.752 3358
1.708 1.705 1.740 2626
1.721 1.717 1.742 3167
1.729 1.725 1.740 3878
1.732 1.729 1.733 4074
1.768 1.765 1.756 5868
1.767 1.763 1.745 7410
1.770 1.767 1.738 8004
1.774 1.770 1.731 8576
1.782 1.778 1.728 7832
1.799 1.795 1.733 7864
1.807 1.803 1.730 7683
1.810 1.806 1.723 7511
1.814 1.810 1.716 6932
1.817 1.813 1.708 6354
1.834 1.830 1.714 7329
1.838 1.834 1.706 8502
1.841 1.837 1.699 9041
1.844 1.840 1.691 9580
1.847 1.843 1.684 8243
1.846 1.842 1.672 6984
1.849 1.845 1.665 6142
1.910 1.906 1.706 6198
1.913 1.909 1.698 5404
1.955 1.951 1.722 4513
1.958 1.954 1.714 5671
1.966 1.962 1.710 6852
1.969 1.965 1.702 6818
1.973 1.969 1.695 8140
1.971 1.967 1.683 9485
1.964 1.960 1.667 9073
1.963 1.959 1.655 9144
1.966 1.962 1.647 8647
1.974 1.970 1.643 6957
1.982 1.978 1.639 5747
1.995 1.991 1.638 5211
2.003 1.999 1.634 6035
2.011 2.007 1.630 7733
2.009 2.005 1.618 8576
2.007 2.003 1.606 9173
2.010 2.006 1.598 9197
2.018 2.014 1.593 8485
2.021 2.017 1.585 7901
2.029 2.025 1.581 5549
2.157 2.152 1.662 3982
2.310 2.305 1.761 4300
2.318 2.314 1.755 5222
2.322 2.317 1.745 4600
2.300 2.295 1.718 4567
2.424 2.419 1.793 4555
2.437 2.432 1.790 4929
2.441 2.436 1.780 5125
2.439 2.434 1.767 5217
2.442 2.437 1.757 4323
2.380 2.375 1.703 3549
2.449 2.444 1.737 5200
2.457 2.452 1.730 6681
2.466 2.461 1.724 6332
2.469 2.464 1.714 8302
2.472 2.467 1.704 10362
2.470 2.465 1.690 9225
2.474 2.468 1.680 7881
2.482 2.477 1.673 11260
2.495 2.490 1.670 15208
2.504 2.498 1.663 15888
2.507 2.502 1.653 13510
2.505 2.500 1.639 12120
2.513 2.508 1.632 11402
2.521 2.516 1.625 8642
2.535 2.529 1.621 5607
2.522 2.517 1.601 5982
2.525 2.520 1.591 10892
2.528 2.523 1.581 13609
2.531 2.526 1.571 13777
2.539 2.534 1.563 12699
2.553 2.547 1.559 11097
2.561 2.555 1.551 9043
2.558 2.553 1.538 6076
2.535 2.530 1.513 5926
2.538 2.533 1.503 5365
2.541 2.536 1.493 4226
2.947 2.941 1.699 3709
2.599 2.593 1.500 4239
2.607 2.601 1.492 4016
2.957 2.950 1.663 5173
2.960 2.954 1.651 5356
3.021 3.014 1.668 4509
3.108 3.102 1.699 5821
3.106 3.100 1.684 6337
3.099 3.092 1.666 7972
3.113 3.106 1.658 8507
3.121 3.114 1.648 5624
3.114 3.107 1.630 7242
3.122 3.115 1.620 14208
3.130 3.124 1.610 14995
3.133 3.127 1.597 11865
3.126 3.119 1.579 9055
3.193 3.186 1.596 8419
3.196 3.189 1.583 7184
3.198 3.192 1.570 6812
3.212 3.205 1.562 4570
3.568 3.560 1.705 3291
3.571 3.564 1.691 3021
3.623 3.615 1.697 3409
3.642 3.634 1.689 5540
3.656 3.648 1.679 7017
3.664 3.657 1.666 4852
3.791 3.783 1.703 5100
3.805 3.797 1.692 8020
3.808 3.800 1.676 10033
3.811 3.803 1.661 7182
3.820 3.812 1.647 6108
3.823 3.815 1.632 5089
4.123 4.114 1.732 3354
4.132 4.123 1.717 4567
4.146 4.137 1.704 5721
4.144 4.135 1.685 5189
4.136 4.127 1.665 6250
4.145 4.136 1.650 7542
4.164 4.155 1.639 9157
4.162 4.153 1.620 5848
4.317 4.308 1.657 2965
4.320 4.311 1.639 4486
4.323 4.314 1.621 2760
4.653 4.643 1.715 2857
4.662 4.652 1.698 2536
4.725 4.715 1.699 2137
4.903 4.892 1.737 2719
4.906 4.896 1.717 2341
4.926 4.915 1.702 3153
4.929 4.918 1.682 3693
4.926 4.916 1.660 2293
5.187 5.176 1.719 2476
5.190 5.179 1.697 3554
5.259 5.248 1.696 3459
5.257 5.246 1.673 4137
5.342 5.331 1.675 3752
5.637 5.625 1.736 3489
5.651 5.639 1.716 4357
5.660 5.648 1.695 3373
5.613 5.602 1.658 3048
5.886 5.874 1.707 3440
5.625 5.613 1.613 3689
5.986 5.974 1.683 2445
6.034 6.021 1.670 2071
6.031 6.019 1.644 1857
6.029 6.016 1.618 1142
5.562 5.551 1.479 1047
6.886 6.871 1.771 1435
7.448 7.432 1.873 1275
7.451 7.435 1.843 1638
7.460 7.444 1.814 1569
7.469 7.453 1.784 1695
7.461 7.446 1.751 1762
7.465 7.449 1.720 1511
7.473 7.458 1.691 1469
7.471 7.455 1.659 1265
8.417 8.400 1.817 1022
7.894 7.877 1.679 921
7.897 7.880 1.647 1027
9.388 9.369 1.894 1049
9.392 9.372 1.855 1202
9.384 9.365 1.815 912
10.027 10.006 1.888 811
10.025 10.004 1.846 842
9.584 9.564 1.731 827
10.110 10.089 1.776 846
10.114 10.092 1.735 728
9.944 9.923 1.667 494
10.114 10.093 1.651 417
9.956 9.935 1.586 322
1.978 1.974 0.157 322
1.973 1.969 0.149 441
1.973 1.969 0.141 560
1.973 1.969 0.133 618
1.973 1.969 0.125 617
1.973 1.968 0.117 559
1.973 1.968 0.109 457
1.978 1.974 0.101 359
1.972 1.968 0.093 285
10.237 10.215 -0.398 253
10.236 10.214 -0.440 280
10.234 10.213 -0.483 286
10.233 10.212 -0.525 292
1.608 1.595 1.745 1845
1.611 1.598 1.739 3690
1.615 1.601 1.732 3690
1.627 1.614 1.735 3572
1.631 1.617 1.729 3579
1.634 1.620 1.722 3436
1.697 1.683 1.775 4125
1.700 1.686 1.768 4125
1.708 1.694 1.765 3981
1.712 1.698 1.759 3980
1.715 1.701 1.752 3184
1.700 1.686 1.727 2676
1.722 1.707 1.738 3058
1.734 1.720 1.740 3879
1.766 1.751 1.759 4077
1.774 1.759 1.756 5816
1.777 1.762 1.749 7227
1.776 1.761 1.738 7297
1.779 1.764 1.731 7318
1.787 1.772 1.728 6396
1.814 1.799 1.742 6481
1.813 1.798 1.730 7050
1.811 1.796 1.719 7730
1.819 1.804 1.716 7125
1.822 1.807 1.708 6573
1.840 1.825 1.714 6599
1.848 1.833 1.710 7223
1.851 1.836 1.703 7491
1.855 1.839 1.695 7760
1.853 1.838 1.684 6607
1.851 1.836 1.672 5647
1.912 1.897 1.714 5950
1.920 1.905 1.710 7538
1.924 1.908 1.702 6684
1.932 1.916 1.698 5719
1.959 1.943 1.710 6467
1.967 1.951 1.706 6590
1.980 1.964 1.706 5772
1.979 1.962 1.695 6493
1.982 1.966 1.687 7287
1.975 1.959 1.671 8750
1.979 1.962 1.663 10184
1.987 1.970 1.659 10157
1.995 1.978 1.654 7399
1.998 1.981 1.646 4523
2.001 1.984 1.638 4223
2.004 1.988 1.630 4599
2.007 1.991 1.622 5412
2.010 1.994 1.614 6377
2.008 1.992 1.602 7288
2.016 2.000 1.598 7874
2.024 2.008 1.593 8201
2.027 2.011 1.585 7958
2.030 2.014 1.577 5701
2.164 2.146 1.662 3921
2.317 2.298 1.761 3912
2.326 2.306 1.755 5079
2.329 2.310 1.745 4100
2.418 2.398 1.796 3468
2.371 2.351 1.751 4320
2.440 2.420 1.786 4249
2.438 2.418 1.773 4947
2.442 2.421 1.763 5165
2.389 2.369 1.716 4646
2.433 2.413 1.733 3942
2.452 2.431 1.733 5935
2.460 2.440 1.727 8204
2.463 2.443 1.717 8333
2.472 2.451 1.710 10133
2.480 2.460 1.704 12070
2.478 2.458 1.690 11315
2.481 2.461 1.680 8845
2.490 2.469 1.673 10383
2.503 2.482 1.670 14445
2.511 2.491 1.663 15876
2.509 2.489 1.649 15512
2.507 2.487 1.636 16197
2.516 2.495 1.629 14288
2.524 2.503 1.622 8530
2.532 2.511 1.615 3783
2.520 2.499 1.595 5709
2.533 2.512 1.591 11726
2.536 2.515 1.581 15067
2.539 2.518 1.571 15508
2.547 2.526 1.563 13901
2.561 2.539 1.559 11007
2.563 2.542 1.549 9721
2.566 2.545 1.538 7272
2.554 2.532 1.519 4915
2.541 2.520 1.500 4457
2.549 2.528 1.493 3997
2.583 2.562 1.499 3527
2.602 2.580 1.497 4485
2.599 2.578 1.484 4972
2.966 2.941 1.663 4866
3.027 3.002 1.681 5837
3.025 3.000 1.666 4788
3.123 3.097 1.702 4008
3.111 3.085 1.681 6371
3.114 3.088 1.668 9916
3.122 3.096 1.658 9966
3.125 3.100 1.646 5930
3.123 3.097 1.630 5730
3.132 3.106 1.620 10747
3.140 3.114 1.610 11553
3.143 3.117 1.597 8636
3.194 3.168 1.607 7648
3.197 3.171 1.594 7977
3.205 3.179 1.583 6094
3.214 3.187 1.573 5854
3.227 3.201 1.564 4529
3.498 3.470 1.670 3247
3.496 3.467 1.653 2586
3.639 3.609 1.700 3301
3.653 3.623 1.689 5192
3.667 3.637 1.679 6172
3.676 3.645 1.666 4281
3.808 3.777 1.705 4283
3.817 3.785 1.692 6841
3.820 3.788 1.676 7995
3.818 3.786 1.659 5305
3.832 3.800 1.647 4328
3.835 3.803 1.632 3795
4.136 4.102 1.732 3301
4.145 4.110 1.717 3933
4.159 4.124 1.704 4489
4.173 4.138 1.692 3288
4.154 4.120 1.667 3313
4.168 4.134 1.654 5707
4.177 4.142 1.639 8072
4.180 4.145 1.622 5167
4.330 4.294 1.657 3444
4.311 4.276 1.631 5563
4.315 4.279 1.614 3762
4.667 4.629 1.715 2593
4.681 4.643 1.700 2375
4.723 4.684 1.693 2366
4.918 4.877 1.737 2263
4.746 4.707 1.660 1953
4.930 4.889 1.698 2224
4.933 4.892 1.678 2588
5.205 5.162 1.742 1929
5.203 5.160 1.719 2500
5.206 5.163 1.697 3541
5.209 5.166 1.676 3056
5.273 5.230 1.673 3146
5.359 5.315 1.675 3974
5.610 5.564 1.724 3715
5.608 5.561 1.699 4077
5.616 5.570 1.678 4204
5.631 5.584 1.658 3536
5.639 5.593 1.636 3976
5.642 5.596 1.613 4510
5.645 5.599 1.590 2574
6.041 5.991 1.667 1807
6.050 6.000 1.644 1694
5.571 5.525 1.501 1099
5.580 5.533 1.479 1240
6.901 6.844 1.770 1472
7.470 7.409 1.873 1630
7.474 7.412 1.843 1911
7.489 7.427 1.815 1777
7.492 7.430 1.784 2131
7.490 7.428 1.752 2261
7.488 7.426 1.720 1875
7.491 7.429 1.690 1716
7.500 7.438 1.660 1406
8.160 8.092 1.761 1010
8.163 8.095 1.727 1040
7.927 7.861 1.648 906
9.417 9.340 1.894 1099
9.421 9.343 1.855 1238
9.419 9.341 1.816 909
9.210 9.134 1.740 857
9.214 9.138 1.703 777
9.931 9.849 1.784 914
10.141 10.058 1.776 814
10.150 10.067 1.736 712
10.148 10.064 1.693 463
9.984 9.901 1.627 418
9.987 9.904 1.586 363
1.979 1.962 0.157 318
1.979 1.962 0.149 364
1.979 1.962 0.141 410
1.984 1.968 0.133 430
1.984 1.968 0.125 466
1.979 1.962 0.117 488
1.979 1.962 0.109 445
1.979 1.962 0.101 403
9.796 9.715 -0.092 320
9.796 9.715 -0.133 361
9.790 9.709 -0.173 403
9.789 9.708 -0.213 411
9.788 9.707 -0.253 419
9.787 9.706 -0.293 395
9.792 9.711 -0.333 371
9.606 9.526 -0.364 376
9.599 9.520 -0.403 388
9.598 9.518 -0.442 387
9.596 9.517 -0.481 387
9.595 9.516 -0.520 369
9.599 9.520 -0.560 353
9.592 9.513 -0.599 282
7.789 7.725 -0.492 252
1.628 1.602 1.759 2223
1.632 1.605 1.753 4447
1.635 1.608 1.746 4447
1.638 1.612 1.740 4513
1.642 1.615 1.733 4580
1.645 1.618 1.727 3900
1.704 1.676 1.775 3836
1.707 1.679 1.768 3836
1.711 1.683 1.761 3848
1.719 1.691 1.759 3882
1.713 1.685 1.743 3389
1.707 1.679 1.727 3270
1.719 1.691 1.729 3363
1.774 1.745 1.771 4304
1.778 1.749 1.763 4495
1.781 1.752 1.756 5963
1.784 1.755 1.749 7274
1.788 1.758 1.742 6972
1.791 1.762 1.735 6635
1.799 1.770 1.732 5851
1.817 1.787 1.738 5997
1.815 1.786 1.726 6943
1.818 1.789 1.719 8158
1.822 1.792 1.712 7551
1.830 1.800 1.708 7143
1.847 1.817 1.714 6403
1.855 1.825 1.710 6592
1.859 1.828 1.703 6232
1.867 1.836 1.700 6015
1.860 1.830 1.684 4769
1.917 1.886 1.721 4659
1.925 1.894 1.718 6773
1.933 1.902 1.714 8968
1.936 1.905 1.706 8245
1.944 1.913 1.702 7442
1.962 1.930 1.706 7639
1.975 1.943 1.706 7281
1.979 1.946 1.699 5970
1.992 1.959 1.698 5652
2.000 1.967 1.694 5663
1.998 1.966 1.682 8115
1.996 1.964 1.671 10708
2.005 1.972 1.666 10935
2.008 1.975 1.658 7836
2.011 1.978 1.650 4475
2.019 1.986 1.646 4352
2.022 1.989 1.638 3926
2.145 2.110 1.719 3577
2.018 1.985 1.614 4276
2.021 1.988 1.606 5628
2.024 1.991 1.598 6559
2.032 1.999 1.593 7321
2.035 2.002 1.585 7209
2.038 2.005 1.577 5310
2.177 2.142 1.666 3336
2.326 2.289 1.761 3456
2.330 2.292 1.751 4846
2.338 2.300 1.745 3447
2.372 2.333 1.757 3036
2.380 2.342 1.751 3887
2.394 2.355 1.748 4320
2.443 2.403 1.770 5416
2.446 2.406 1.760 5396
2.399 2.360 1.716 5176
2.443 2.403 1.733 4717
2.456 2.416 1.730 7178
2.465 2.425 1.724 10514
2.468 2.428 1.714 11247
2.482 2.441 1.710 11476
2.485 2.444 1.700 12465
2.488 2.448 1.690 12073
2.491 2.451 1.680 9986
2.500 2.459 1.673 9125
2.513 2.472 1.670 11402
2.521 2.480 1.663 13499
2.519 2.478 1.649 15330
2.517 2.476 1.636 18448
2.521 2.479 1.626 16528
2.524 2.483 1.616 11192
2.516 2.475 1.599 6425
2.525 2.483 1.592 6681
2.538 2.497 1.588 11629
2.546 2.505 1.581 14690
2.549 2.508 1.571 15281
2.557 2.516 1.563 13390
2.566 2.524 1.556 10881
2.569 2.527 1.546 11554
2.566 2.524 1.532 9438
2.574 2.532 1.525 4993
2.577 2.535 1.514 4372
2.570 2.528 1.498 5286
2.588 2.546 1.496 4208
2.602 2.559 1.492 5140
2.599 2.557 1.478 7094
2.602 2.559 1.468 7012
3.039 2.990 1.681 6365
3.037 2.988 1.666 5139
3.115 3.064 1.691 3628
3.118 3.067 1.678 7779
3.126 3.075 1.668 11535
3.135 3.084 1.658 10830
3.133 3.082 1.643 6997
3.136 3.085 1.630 5059
3.144 3.093 1.620 6576
3.153 3.101 1.610 6994
3.193 3.141 1.615 6300
3.207 3.155 1.607 7246
3.210 3.158 1.594 6374
3.218 3.166 1.583 4736
3.232 3.179 1.575 5618
3.246 3.193 1.567 4965
3.513 3.455 1.670 3705
3.516 3.458 1.656 3217
3.659 3.599 1.702 3423
3.668 3.608 1.689 4600
3.682 3.622 1.679 4973
3.690 3.630 1.666 3643
3.769 3.708 1.683 2876
3.832 3.770 1.692 4344
3.835 3.773 1.676 4778
3.833 3.771 1.659 3287
3.842 3.779 1.645 2268
4.144 4.076 1.747 2337
4.158 4.090 1.734 2455
4.172 4.104 1.721 2642
4.219 4.150 1.721 3172
4.228 4.159 1.706 3024
4.231 4.162 1.689 3898
4.234 4.165 1.672 5151
4.205 4.136 1.643 5756
4.240 4.171 1.637 4279
4.315 4.244 1.645 4618
4.323 4.253 1.629 6910
4.326 4.256 1.612 4801
4.335 4.264 1.596 3072
4.728 4.651 1.709 2748
4.736 4.659 1.692 3105
4.751 4.673 1.676 2345
4.754 4.676 1.657 2375
5.093 5.010 1.744 2039
5.107 5.024 1.727 1990
5.232 5.146 1.743 1723
5.229 5.144 1.720 2316
5.222 5.137 1.696 3136
5.589 5.498 1.782 2947
5.593 5.502 1.760 3952
5.380 5.293 1.675 3590
5.633 5.541 1.724 3561
5.630 5.539 1.699 4279
5.639 5.547 1.678 4437
5.653 5.561 1.658 3483
5.662 5.570 1.636 3989
5.665 5.573 1.613 4572
6.051 5.953 1.689 2704
6.060 5.961 1.666 2029
6.063 5.964 1.641 1735
6.455 6.350 1.712 1364
5.602 5.511 1.479 1249
6.929 6.816 1.770 1389
7.501 7.378 1.873 1730
7.504 7.382 1.843 1833
7.513 7.391 1.814 1822
7.522 7.400 1.784 2515
7.520 7.398 1.752 2835
7.518 7.395 1.720 2278
7.521 7.399 1.690 1889
7.530 7.407 1.660 1494
8.198 8.064 1.762 1270
8.201 8.068 1.728 1270
8.758 8.616 1.800 1019
8.767 8.624 1.766 1175
9.459 9.305 1.855 1278
8.779 8.636 1.695 1020
9.247 9.097 1.740 899
9.256 9.106 1.703 852
9.971 9.809 1.784 928
9.964 9.801 1.741 682
10.186 10.020 1.735 638
10.183 10.017 1.692 473
10.186 10.021 1.651 356
10.027 9.863 1.586 293
1.992 1.960 0.149 256
1.992 1.960 0.141 312
1.992 1.960 0.133 351
1.992 1.960 0.125 366
1.987 1.954 0.117 346
9.831 9.671 -0.012 322
9.831 9.670 -0.052 360
9.836 9.676 -0.092 403
9.830 9.669 -0.132 424
9.829 9.669 -0.173 450
9.828 9.668 -0.213 448
9.827 9.667 -0.253 447
9.827 9.667 -0.293 415
9.826 9.666 -0.333 384
9.825 9.665 -0.373 343
9.824 9.664 -0.413 302
1.634 1.596 1.759 2557
1.637 1.599 1.753 5115
1.641 1.603 1.746 5115
1.644 1.606 1.740 5124
1.647 1.609 1.733 5134
1.651 1.612 1.727 4062
1.714 1.675 1.779 3558
1.718 1.678 1.772 3558
1.716 1.677 1.761 3692
1.720 1.680 1.754 3902
1.718 1.679 1.743 3878
1.717 1.677 1.731 3989
1.720 1.681 1.725 3854
1.785 1.744 1.775 4922
1.788 1.747 1.768 4950
1.792 1.750 1.761 6150
1.795 1.754 1.754 7276
1.798 1.757 1.746 7207
1.802 1.760 1.739 7185
1.810 1.768 1.736 6979
1.823 1.781 1.738 7461
1.821 1.779 1.726 8124
1.820 1.778 1.715 9075
1.828 1.786 1.712 8391
1.836 1.794 1.708 8052
1.844 1.801 1.705 7372
1.852 1.809 1.702 7192
1.860 1.817 1.699 5569
1.883 1.839 1.708 4956
1.901 1.857 1.713 4282
1.928 1.884 1.725 4738
1.936 1.892 1.722 7160
1.940 1.895 1.714 9692
1.948 1.903 1.710 9170
1.951 1.906 1.702 8575
1.969 1.924 1.706 8427
1.982 1.936 1.706 7950
1.985 1.939 1.699 6526
2.008 1.962 1.706 5761
2.021 1.975 1.706 6208
2.015 1.968 1.690 8134
2.013 1.967 1.678 10512
2.016 1.970 1.670 10383
2.015 1.968 1.658 7436
2.018 1.971 1.650 4537
2.031 1.984 1.650 4781
2.039 1.992 1.645 4812
2.057 2.010 1.648 4418
2.050 2.003 1.633 5029
2.043 1.996 1.617 5619
2.036 1.989 1.602 5766
2.034 1.987 1.590 6120
2.037 1.990 1.582 5998
2.040 1.993 1.573 4556
2.185 2.134 1.666 3099
2.319 2.266 1.750 2980
2.328 2.274 1.744 4579
2.316 2.262 1.724 3797
2.314 2.261 1.711 2659
2.394 2.338 1.754 3470
2.443 2.386 1.776 4550
2.446 2.390 1.766 6077
2.450 2.393 1.756 5826
2.412 2.356 1.719 5330
2.451 2.394 1.733 5595
2.465 2.408 1.730 8689
2.473 2.416 1.724 12664
2.476 2.419 1.714 13807
2.485 2.427 1.707 11587
2.498 2.441 1.704 11241
2.497 2.439 1.690 11123
2.500 2.442 1.680 10011
2.508 2.450 1.673 7276
2.522 2.463 1.670 7644
2.530 2.472 1.663 9873
2.523 2.465 1.646 13487
2.526 2.468 1.636 18155
2.529 2.471 1.626 17161
2.532 2.474 1.616 13249
2.525 2.467 1.599 8968
2.533 2.475 1.592 7573
2.547 2.488 1.588 10766
2.555 2.496 1.581 13174
2.558 2.499 1.571 13569
2.561 2.502 1.560 11632
2.569 2.510 1.553 10954
2.567 2.507 1.540 13986
2.570 2.510 1.529 12173
2.573 2.513 1.519 7442
2.581 2.521 1.512 8097
2.578 2.519 1.498 9406
2.586 2.527 1.491 6457
2.600 2.540 1.486 5156
2.603 2.542 1.476 6819
2.611 2.550 1.468 7004
2.608 2.548 1.455 6256
3.053 2.982 1.668 5101
3.120 3.048 1.688 4411
3.128 3.056 1.678 8740
3.137 3.064 1.668 11913
3.145 3.073 1.658 10656
3.143 3.071 1.643 7380
3.141 3.068 1.628 5649
3.187 3.113 1.635 5101
3.201 3.127 1.628 5900
3.204 3.130 1.615 7090
3.207 3.133 1.602 6333
3.221 3.146 1.594 4341
3.267 3.191 1.600 4799
3.259 3.184 1.582 7979
3.262 3.187 1.569 6842
3.530 3.448 1.672 3597
3.528 3.446 1.656 3513
3.677 3.592 1.704 3485
3.680 3.595 1.689 3999
3.705 3.620 1.684 4023
3.708 3.623 1.669 3314
3.777 3.689 1.681 2958
3.785 3.698 1.668 2335
3.843 3.754 1.674 2148
3.841 3.752 1.656 2076
4.051 3.957 1.723 1489
4.147 4.051 1.742 2083
4.118 4.022 1.713 2110
4.110 4.015 1.692 2238
4.233 4.136 1.721 3283
4.226 4.128 1.700 3702
4.234 4.137 1.685 4134
4.243 4.145 1.670 5327
4.318 4.218 1.678 5022
4.321 4.221 1.661 4934
4.329 4.229 1.645 5182
4.338 4.238 1.629 7081
4.341 4.241 1.612 5062
4.350 4.249 1.596 3295
4.749 4.640 1.711 3140
4.747 4.637 1.690 3946
4.756 4.646 1.672 2919
4.770 4.660 1.657 2576
5.116 4.997 1.746 2309
5.119 5.001 1.725 2234
5.200 5.080 1.728 1552
5.242 5.121 1.719 2065
5.240 5.118 1.696 2612
5.608 5.479 1.782 3053
5.612 5.482 1.760 4367
5.404 5.279 1.677 3024
5.402 5.277 1.653 3519
5.650 5.519 1.699 3722
5.658 5.528 1.678 3783
6.062 5.922 1.763 3096
5.954 5.816 1.709 3552
5.684 5.553 1.613 3872
6.077 5.937 1.690 3582
6.086 5.946 1.667 2737
6.095 5.954 1.644 2205
6.472 6.322 1.710 1747
6.536 6.385 1.699 1469
6.540 6.389 1.672 1655
7.526 7.352 1.873 1600
7.530 7.356 1.843 1502
7.539 7.365 1.814 1671
7.542 7.368 1.783 2642
7.546 7.371 1.752 3118
7.543 7.369 1.720 2481
7.547 7.372 1.690 1843
7.556 7.381 1.660 1367
8.226 8.036 1.762 1313
8.229 8.039 1.728 1329
8.788 8.585 1.800 1129
8.797 8.594 1.766 1247
9.491 9.272 1.855 1213
8.809 8.606 1.695 1025
9.279 9.065 1.740 811
9.294 9.079 1.704 801
10.000 9.769 1.783 802
10.065 9.832 1.752 657
10.220 9.984 1.735 511
9.925 9.696 1.648 419
9.968 9.737 1.613 420
9.977 9.746 1.573 343
9.865 9.637 0.028 261
9.865 9.636 -0.012 303
9.864 9.636 -0.052 331
9.869 9.641 -0.092 361
9.863 9.635 -0.132 375
9.863 9.635 -0.173 391
9.862 9.634 -0.213 383
9.861 9.633 -0.253 376
9.860 9.632 -0.293 345
9.859 9.631 -0.333 313
9.858 9.630 -0.373 265
9.567 9.346 -0.436 251
9.566 9.345 -0.475 267
9.565 9.344 -0.514 269
9.569 9.348 -0.553 271
9.562 9.341 -0.591 268
9.560 9.339 -0.630 265
5.787 5.654 -0.372 285
5.792 5.658 -0.396 283
5.791 5.657 -0.420 258
5.790 5.656 -0.538 251
1.639 1.591 1.759 2781
1.642 1.594 1.753 5563
1.646 1.598 1.746 5563
1.649 1.601 1.740 5482
1.652 1.604 1.733 5402
1.660 1.612 1.731 4187
1.724 1.674 1.784 3325
1.728 1.677 1.777 3325
1.726 1.676 1.765 3271
1.716 1.666 1.745 3539
1.719 1.669 1.738 4082
1.722 1.672 1.731 4626
1.726 1.675 1.725 4412
1.790 1.738 1.775 5412
1.794 1.741 1.768 5332
1.802 1.749 1.765 6281
1.801 1.748 1.754 7339
1.804 1.751 1.746 7951
1.812 1.759 1.744 8543
1.820 1.767 1.741 9027
1.828 1.775 1.738 9993
1.827 1.774 1.726 9999
1.825 1.772 1.715 10326
1.833 1.780 1.712 9436
1.842 1.788 1.708 8903
1.845 1.791 1.701 8730
1.853 1.799 1.698 8840
1.856 1.802 1.690 6565
1.893 1.838 1.712 4845
1.906 1.851 1.713 4481
1.934 1.878 1.725 4940
1.942 1.886 1.722 7429
1.946 1.889 1.714 9971
1.954 1.897 1.710 9687
1.962 1.905 1.706 9245
1.975 1.917 1.706 8772
1.988 1.930 1.706 8351
1.991 1.933 1.699 6891
2.014 1.956 1.706 6736
2.023 1.964 1.702 7560
2.026 1.967 1.694 8779
2.024 1.965 1.682 10086
2.027 1.968 1.674 9109
2.016 1.957 1.654 6411
2.019 1.960 1.646 4256
2.052 1.992 1.661 4904
2.050 1.990 1.649 6130
2.058 1.998 1.645 6606
2.061 2.001 1.636 7219
2.060 1.999 1.624 7289
2.058 1.998 1.613 6024
2.046 1.986 1.593 4742
2.044 1.984 1.582 4580
2.047 1.987 1.573 3620
2.196 2.132 1.669 2673
2.316 2.249 1.743 3023
2.325 2.257 1.737 4614
2.328 2.260 1.728 4356
2.331 2.263 1.718 3231
2.411 2.341 1.761 3286
2.445 2.374 1.773 5156
2.454 2.382 1.766 6638
2.452 2.380 1.753 6261
2.424 2.354 1.723 5338
2.459 2.387 1.733 6446
2.467 2.395 1.727 10187
2.475 2.403 1.720 14823
2.479 2.407 1.710 15844
2.487 2.415 1.704 11248
2.506 2.433 1.704 9098
2.504 2.431 1.690 9255
2.507 2.434 1.680 9185
2.516 2.442 1.673 6580
2.524 2.451 1.666 5457
2.533 2.459 1.660 6780
2.525 2.452 1.643 10903
2.534 2.460 1.636 15873
2.537 2.463 1.626 16250
2.535 2.461 1.613 14109
2.533 2.459 1.599 10582
2.536 2.462 1.589 8211
2.549 2.475 1.585 9606
2.557 2.483 1.578 11252
2.566 2.491 1.571 11024
2.569 2.494 1.560 9865
2.566 2.491 1.547 12210
2.575 2.499 1.540 16521
2.577 2.502 1.529 14238
2.575 2.500 1.516 10248
2.583 2.508 1.509 12143
2.586 2.511 1.498 13380
2.594 2.519 1.491 9091
2.602 2.527 1.483 5110
2.610 2.534 1.476 5074
2.613 2.537 1.465 6142
2.611 2.535 1.452 7623
2.613 2.537 1.441 6195
3.129 3.038 1.688 4639
3.138 3.046 1.678 8704
3.146 3.055 1.668 11056
3.155 3.063 1.658 9360
3.153 3.061 1.643 6708
3.151 3.059 1.628 6105
3.207 3.114 1.641 5740
3.216 3.122 1.630 6801
3.214 3.120 1.615 6871
3.206 3.113 1.597 5786
3.285 3.189 1.618 4279
3.282 3.187 1.603 7050
3.269 3.174 1.582 11518
3.272 3.177 1.569 9568
3.286 3.190 1.561 4044
3.538 3.435 1.656 3503
3.688 3.581 1.704 3528
3.691 3.584 1.689 3444
3.754 3.645 1.700 3615
3.763 3.653 1.687 3455
3.788 3.678 1.681 2866
3.802 3.691 1.670 1739
4.051 3.933 1.753 1230
4.049 3.931 1.735 1176
4.156 4.035 1.759 1338
4.138 4.017 1.734 2308
4.135 4.015 1.715 2842
4.122 4.002 1.692 2815
4.235 4.112 1.717 3127
4.233 4.110 1.698 3931
4.242 4.118 1.683 3743
4.261 4.137 1.672 4538
4.325 4.199 1.676 5195
4.328 4.202 1.659 5069
4.343 4.216 1.645 4769
4.346 4.219 1.627 6102
4.354 4.227 1.612 4548
4.363 4.236 1.596 2794
4.764 4.625 1.711 3156
4.767 4.628 1.692 4571
4.776 4.637 1.674 3647
4.785 4.645 1.657 2667
5.131 4.982 1.746 2335
5.195 5.044 1.744 2487
5.215 5.063 1.728 2152
5.252 5.099 1.717 1863
5.400 5.242 1.739 2756
5.392 5.235 1.714 3000
5.623 5.459 1.758 4292
5.615 5.452 1.732 3261
5.413 5.255 1.652 3826
5.667 5.501 1.699 2793
6.088 5.910 1.790 3899
6.091 5.914 1.766 4389
6.095 5.917 1.741 4417
6.092 5.915 1.715 4767
6.101 5.924 1.692 4376
6.105 5.927 1.667 3480
6.113 5.935 1.644 2765
6.486 6.297 1.709 2082
6.556 6.365 1.699 1901
6.559 6.368 1.672 2134
6.563 6.371 1.646 1877
7.440 7.223 1.817 1385
6.602 6.410 1.600 1886
7.565 7.345 1.783 2517
7.569 7.348 1.752 3079
7.572 7.351 1.722 2514
7.570 7.349 1.690 1755
7.578 7.357 1.660 1182
8.251 8.010 1.762 1238
7.978 7.746 1.675 1255
8.815 8.558 1.800 993
8.829 8.572 1.767 1101
8.833 8.575 1.731 1052
8.836 8.578 1.695 927
9.871 9.583 1.838 887
9.874 9.587 1.798 752
10.036 9.743 1.784 701
10.096 9.801 1.752 582
9.941 9.651 1.686 563
9.950 9.660 1.647 535
9.998 9.707 1.613 467
10.007 9.715 1.573 369
9.894 9.606 -0.012 277
9.894 9.606 -0.052 313
9.899 9.611 -0.092 352
9.893 9.605 -0.132 370
9.892 9.604 -0.173 390
9.892 9.603 -0.213 370
9.891 9.603 -0.253 350
9.890 9.602 -0.293 320
9.895 9.606 -0.333 290
9.888 9.600 -0.373 254
9.603 9.323 -0.397 286
9.596 9.317 -0.436 334
9.595 9.315 -0.475 384
9.599 9.320 -0.514 408
9.598 9.318 -0.553 437
9.596 9.317 -0.592 425
9.595 9.315 -0.631 413
9.588 9.308 -0.669 376
9.586 9.306 -0.708 342
6.393 6.207 -0.450 311
6.301 6.118 -0.468 283
6.300 6.116 -0.493 291
6.304 6.121 -0.519 259
6.396 6.210 -0.607 280
1.639 1.582 1.755 3130
1.642 1.585 1.748 6260
1.646 1.588 1.742 6260
1.654 1.596 1.740 5608
1.662 1.604 1.738 5259
1.665 1.607 1.731 4128
1.734 1.673 1.788 3102
1.737 1.676 1.781 3102
1.717 1.657 1.752 3085
1.721 1.660 1.745 3428
1.724 1.664 1.738 4187
1.732 1.671 1.736 4971
1.783 1.720 1.773 4613
1.791 1.728 1.771 5688
1.799 1.736 1.768 5488
1.807 1.744 1.765 6367
1.806 1.743 1.754 7232
1.809 1.746 1.746 8569
1.817 1.754 1.744 9962
1.825 1.762 1.741 11231
1.834 1.769 1.738 12897
1.832 1.768 1.726 12448
1.831 1.767 1.715 12313
1.839 1.774 1.712 10879
1.847 1.782 1.708 9681
1.850 1.786 1.701 10169
1.858 1.793 1.698 10731
1.862 1.796 1.690 8338
1.860 1.795 1.679 5983
1.912 1.845 1.713 5312
1.920 1.853 1.709 5500
1.948 1.880 1.722 7511
1.951 1.883 1.714 9738
1.959 1.891 1.710 9607
1.968 1.899 1.706 9273
1.981 1.911 1.706 8539
1.994 1.924 1.706 8318
2.002 1.932 1.702 7003
2.020 1.950 1.706 8005
2.024 1.953 1.698 9481
2.027 1.956 1.690 9692
2.030 1.959 1.682 9904
2.033 1.962 1.674 7990
2.012 1.941 1.647 5565
2.080 2.007 1.688 4708
2.063 1.991 1.665 5244
2.056 1.984 1.649 6897
2.059 1.987 1.641 8145
2.062 1.990 1.633 8811
2.066 1.993 1.624 8576
2.069 1.996 1.616 6581
2.067 1.994 1.604 3486
2.044 1.973 1.578 3106
2.301 2.220 1.750 2873
2.309 2.229 1.745 3079
2.313 2.232 1.736 3534
2.321 2.240 1.730 4556
2.335 2.253 1.728 4449
2.343 2.261 1.722 3637
2.357 2.274 1.720 3909
2.452 2.366 1.773 5590
2.456 2.370 1.763 6921
2.459 2.373 1.753 6408
2.462 2.376 1.743 5509
2.466 2.380 1.733 7287
2.474 2.388 1.727 11542
2.483 2.396 1.720 16735
2.486 2.399 1.710 17595
2.489 2.402 1.700 11047
2.498 2.410 1.694 6714
2.506 2.419 1.687 7090
2.515 2.427 1.680 8003
2.513 2.425 1.667 8136
2.516 2.428 1.657 6857
2.519 2.431 1.647 5562
2.527 2.439 1.640 8573
2.536 2.447 1.633 12668
2.544 2.455 1.626 14178
2.542 2.453 1.613 13700
2.540 2.451 1.599 11208
2.543 2.454 1.589 8656
2.551 2.462 1.582 8282
2.560 2.470 1.575 8701
2.568 2.478 1.568 8521
2.560 2.471 1.552 9839
2.568 2.479 1.544 14945
2.577 2.487 1.537 18246
2.585 2.495 1.529 14494
2.583 2.492 1.516 11513
2.585 2.495 1.506 14267
2.594 2.503 1.498 14560
2.602 2.511 1.491 9212
2.615 2.524 1.486 4138
2.570 2.480 1.451 3072
2.610 2.519 1.460 4672
2.608 2.516 1.446 8098
2.616 2.524 1.439 6605
3.133 3.023 1.685 4188
3.142 3.032 1.676 7421
3.156 3.045 1.668 8797
3.164 3.054 1.658 6840
3.151 3.041 1.638 5191
3.149 3.039 1.623 5713
3.222 3.110 1.643 6537
3.231 3.118 1.633 7624
3.174 3.063 1.592 7326
3.199 3.087 1.589 6163
3.294 3.179 1.618 5722
3.292 3.177 1.603 9516
3.279 3.164 1.582 15111
3.282 3.167 1.569 12429
3.295 3.180 1.561 5944
3.298 3.183 1.547 4924
3.699 3.570 1.704 3528
3.762 3.631 1.715 3816
3.765 3.634 1.700 4520
3.774 3.642 1.687 4032
3.805 3.672 1.683 3018
3.835 3.701 1.679 2327
3.948 3.810 1.707 1545
4.028 3.887 1.722 1252
4.179 4.033 1.764 1093
4.155 4.010 1.736 2327
4.158 4.013 1.719 3365
4.178 4.032 1.709 2818
4.231 4.083 1.711 2890
4.240 4.092 1.696 3275
4.287 4.137 1.695 3305
4.290 4.140 1.678 4896
4.305 4.154 1.664 5302
4.335 4.184 1.657 4776
4.355 4.203 1.645 3521
4.364 4.211 1.629 4336
4.373 4.220 1.614 3562
4.431 4.276 1.615 2496
4.783 4.616 1.713 2988
4.786 4.619 1.693 4901
4.795 4.628 1.676 4199
4.798 4.631 1.657 2721
5.196 5.014 1.761 2653
5.211 5.028 1.744 3185
5.225 5.042 1.726 2759
5.390 5.201 1.754 1981
5.410 5.221 1.737 3055
5.408 5.219 1.714 3739
5.628 5.432 1.755 3984
5.632 5.435 1.732 3464
5.423 5.233 1.650 4137
6.102 5.889 1.815 3368
6.106 5.892 1.790 4588
6.109 5.896 1.766 5181
6.112 5.899 1.741 5352
6.110 5.897 1.715 5430
6.119 5.905 1.692 4877
6.122 5.908 1.667 4027
6.126 5.911 1.642 3205
6.505 6.277 1.709 2352
6.575 6.345 1.699 1761
6.579 6.349 1.672 1730
6.576 6.346 1.644 1304
7.462 7.201 1.817 1425
6.622 6.390 1.600 1721
7.587 7.322 1.783 2185
7.591 7.325 1.752 2723
7.594 7.328 1.722 2329
7.597 7.332 1.691 1555
7.600 7.335 1.660 997
7.998 7.719 1.707 1028
7.996 7.716 1.674 1252
9.049 8.733 1.840 929
9.471 9.139 1.880 1116
9.474 9.143 1.842 1078
9.478 9.146 1.804 954
9.899 9.553 1.838 980
9.903 9.557 1.798 922
9.386 9.058 1.672 659
9.921 9.574 1.719 556
9.964 9.616 1.685 631
9.973 9.624 1.646 602
10.027 9.677 1.613 498
10.030 9.679 1.573 382
9.920 9.573 1.516 289
9.891 9.545 1.351 271
9.899 9.553 1.312 338
9.907 9.561 1.272 340
9.909 9.563 1.232 300
1.789 1.726 0.113 265
1.783 1.721 0.106 250
1.789 1.726 0.099 291
1.789 1.726 0.091 329
1.800 1.737 0.084 387
1.805 1.742 0.077 477
1.800 1.737 0.070 431
1.799 1.737 0.063 393
9.633 9.296 -0.319 343
9.632 9.295 -0.358 414
9.625 9.289 -0.397 486
9.624 9.288 -0.436 537
9.623 9.287 -0.475 589
9.622 9.285 -0.514 592
9.626 9.289 -0.553 601
9.624 9.288 -0.592 565
9.617 9.281 -0.630 532
9.615 9.279 -0.669 465
9.614 9.278 -0.708 397
9.618 9.281 -0.747 332
5.331 5.144 -0.372 306
5.330 5.143 -0.393 345
5.323 5.137 -0.414 290
1.645 1.575 1.755 3018
1.649 1.578 1.748 6036
1.652 1.582 1.742 6036
1.660 1.589 1.740 5294
1.673 1.602 1.742 4950
1.676 1.605 1.736 3839
1.548 1.482 1.602 2962
1.749 1.674 1.786 2886
1.719 1.646 1.747 3090
1.722 1.649 1.741 3358
1.731 1.657 1.738 4262
1.739 1.665 1.736 5304
1.789 1.713 1.773 4839
1.798 1.721 1.771 5541
1.801 1.724 1.763 5224
1.814 1.737 1.765 6020
1.817 1.740 1.758 6844
1.821 1.743 1.751 8812
1.824 1.747 1.744 10855
1.832 1.754 1.741 13054
1.841 1.762 1.738 15580
1.839 1.761 1.726 15001
1.838 1.759 1.715 14706
1.846 1.767 1.712 12478
1.849 1.770 1.704 10432
1.857 1.778 1.701 11317
1.865 1.786 1.698 12291
1.869 1.789 1.690 9928
1.872 1.792 1.683 7565
1.914 1.833 1.708 6491
1.927 1.845 1.709 6467
1.950 1.867 1.718 7328
1.959 1.875 1.714 9022
1.967 1.883 1.710 9063
1.975 1.891 1.706 8949
1.993 1.908 1.710 7895
2.006 1.921 1.710 8024
2.010 1.924 1.702 7063
2.023 1.937 1.702 9161
2.026 1.940 1.694 11434
2.035 1.948 1.690 10622
2.038 1.951 1.682 9900
2.036 1.949 1.670 7451
2.079 1.991 1.693 5239
2.078 1.989 1.681 5541
2.076 1.987 1.669 5549
2.064 1.976 1.649 6700
2.067 1.979 1.641 8804
2.070 1.982 1.633 9481
2.073 1.985 1.624 9069
2.077 1.988 1.616 6661
2.272 2.176 1.747 3256
2.276 2.179 1.738 3975
2.300 2.202 1.743 3798
2.313 2.215 1.741 4182
2.311 2.213 1.728 4575
2.325 2.226 1.726 4691
2.344 2.244 1.728 4503
2.347 2.247 1.718 4060
2.366 2.265 1.720 4700
2.456 2.352 1.769 5726
2.460 2.355 1.759 6993
2.463 2.358 1.749 6125
2.472 2.366 1.743 5228
2.475 2.370 1.733 7864
2.478 2.373 1.723 12657
2.487 2.381 1.717 18267
2.490 2.384 1.707 19213
2.488 2.382 1.694 12413
2.481 2.376 1.677 8399
2.495 2.389 1.674 6683
2.514 2.407 1.674 7475
2.517 2.410 1.664 11028
2.520 2.413 1.654 10624
2.523 2.416 1.644 8309
2.527 2.419 1.634 8495
2.540 2.432 1.630 9790
2.554 2.445 1.626 11587
2.552 2.443 1.613 11674
2.550 2.441 1.599 9892
2.547 2.439 1.586 7579
2.556 2.447 1.579 6583
2.559 2.450 1.569 6063
2.567 2.458 1.562 7060
2.570 2.461 1.552 10686
2.578 2.468 1.544 16397
2.581 2.471 1.534 17721
2.589 2.479 1.527 12172
2.587 2.477 1.513 10515
2.590 2.480 1.503 14714
2.598 2.488 1.496 14216
2.606 2.495 1.488 8323
2.582 2.472 1.464 3784
2.591 2.480 1.456 3329
2.609 2.498 1.454 5480
2.618 2.506 1.446 9172
2.626 2.514 1.439 7171
2.628 2.516 1.428 3231
3.154 3.019 1.676 5166
3.168 3.033 1.668 5440
3.171 3.036 1.656 3709
3.152 3.018 1.633 3672
3.156 3.021 1.620 4582
3.234 3.097 1.643 6799
3.248 3.110 1.635 7649
3.192 3.056 1.595 7691
3.200 3.064 1.584 6748
3.301 3.161 1.616 6675
3.299 3.158 1.600 11231
3.297 3.156 1.585 17237
3.294 3.154 1.569 14200
3.308 3.167 1.561 7793
3.311 3.170 1.547 6875
3.309 3.168 1.532 5078
3.771 3.610 1.712 4426
3.774 3.614 1.697 5496
3.788 3.627 1.687 4561
3.819 3.657 1.683 3444
3.844 3.681 1.676 3380
3.848 3.684 1.661 2257
4.038 3.866 1.719 1599
4.118 3.943 1.733 990
4.177 3.999 1.738 2142
4.174 3.997 1.719 3639
4.183 4.005 1.705 3037
4.286 4.103 1.725 3431
4.311 4.128 1.716 3592
4.298 4.115 1.693 3329
4.307 4.123 1.678 5623
4.310 4.126 1.660 6869
4.313 4.130 1.643 5321
4.394 4.207 1.653 3740
4.397 4.210 1.635 4831
4.395 4.208 1.616 3269
4.687 4.487 1.695 3200
4.807 4.602 1.715 2905
4.810 4.605 1.695 4706
4.814 4.609 1.676 4246
4.822 4.617 1.658 2750
5.216 4.994 1.761 2911
5.225 5.002 1.742 3696
5.245 5.022 1.726 3201
5.232 5.009 1.700 2380
5.431 5.199 1.737 3058
5.434 5.202 1.715 4021
5.644 5.404 1.753 3800
5.816 5.568 1.778 4257
5.819 5.571 1.755 4748
5.823 5.575 1.732 3764
6.129 5.868 1.790 4401
5.829 5.581 1.685 5152
6.136 5.875 1.741 5305
6.139 5.878 1.716 5304
6.142 5.881 1.692 4721
6.146 5.884 1.667 3951
6.149 5.887 1.642 3123
6.524 6.246 1.708 2459
6.527 6.249 1.681 1547
6.604 6.322 1.672 1218
6.720 6.434 1.672 1002
7.490 7.171 1.817 1376
7.500 7.180 1.789 1430
7.616 7.292 1.783 1572
7.620 7.295 1.752 1957
7.623 7.298 1.722 1792
7.626 7.301 1.691 1272
7.629 7.305 1.660 833
8.029 7.687 1.707 912
8.027 7.685 1.674 1124
9.514 9.109 1.921 980
9.507 9.102 1.880 1205
9.505 9.100 1.841 1151
9.446 9.044 1.792 1138
9.444 9.041 1.753 1176
9.941 9.517 1.798 1152
9.944 9.521 1.758 853
9.959 9.535 1.719 750
9.962 9.538 1.679 807
9.966 9.541 1.639 661
9.952 9.528 1.596 579
9.949 9.525 1.556 603
9.952 9.528 1.515 475
9.966 9.542 1.477 277
9.920 9.498 1.390 320
9.923 9.500 1.350 326
9.937 9.514 1.312 348
9.945 9.521 1.272 358
9.947 9.524 1.232 339
9.944 9.520 1.192 282
1.801 1.725 0.120 284
1.801 1.725 0.113 389
1.807 1.730 0.105 403
1.801 1.724 0.098 398
1.795 1.719 0.091 380
1.801 1.724 0.084 388
1.801 1.724 0.077 398
1.806 1.730 0.070 406
1.818 1.740 0.062 440
1.818 1.740 0.055 329
9.669 9.257 -0.358 307
9.668 9.256 -0.397 365
9.661 9.250 -0.436 424
9.660 9.248 -0.475 482
9.664 9.253 -0.514 505
9.663 9.251 -0.553 535
9.661 9.250 -0.592 533
9.660 9.248 -0.631 531
9.652 9.241 -0.669 489
9.650 9.239 -0.708 451
9.654 9.243 -0.747 399
9.658 9.247 -0.787 366
5.607 5.368 -0.419 298
2.039 1.952 -0.110 250
1.646 1.565 1.750 2955
1.650 1.568 1.744 5911
1.653 1.571 1.737 5911
1.666 1.583 1.740 4950
1.678 1.596 1.742 4620
1.710 1.625 1.763 3783
1.713 1.629 1.756 3199
1.717 1.632 1.750 3199
1.720 1.635 1.743 3118
1.724 1.638 1.736 3037
1.770 1.682 1.770 3914
1.773 1.685 1.763 4985
1.796 1.707 1.773 4625
1.804 1.715 1.771 4834
1.802 1.713 1.759 4632
1.820 1.730 1.765 5257
1.824 1.734 1.758 6082
1.827 1.737 1.751 8527
1.830 1.740 1.744 11019
1.839 1.748 1.741 14105
1.847 1.756 1.738 17423
1.845 1.754 1.726 16915
1.844 1.753 1.715 16628
1.852 1.761 1.712 13519
1.855 1.764 1.704 10564
1.864 1.771 1.701 11620
1.872 1.779 1.698 12858
1.875 1.782 1.690 10675
1.908 1.813 1.708 9035
1.921 1.826 1.708 7718
1.934 1.838 1.709 7418
1.947 1.851 1.709 7314
1.960 1.864 1.710 8133
1.969 1.871 1.706 8334
1.982 1.884 1.706 8329
2.000 1.901 1.710 7134
2.013 1.914 1.710 7826
2.022 1.922 1.706 7519
2.030 1.930 1.702 10270
2.033 1.933 1.694 13101
2.036 1.936 1.686 11532
2.040 1.939 1.678 9964
2.043 1.942 1.670 7973
2.066 1.964 1.677 5703
2.075 1.972 1.673 6554
2.078 1.975 1.665 5632
2.066 1.964 1.645 5963
2.069 1.967 1.637 8406
2.072 1.970 1.629 8941
2.080 1.978 1.624 8419
2.084 1.981 1.616 5996
2.280 2.167 1.747 4001
2.284 2.171 1.738 4925
2.307 2.193 1.743 4641
2.316 2.201 1.738 5153
2.319 2.205 1.728 5605
2.328 2.213 1.723 5113
2.341 2.226 1.721 4377
2.350 2.234 1.715 3934
2.379 2.261 1.723 4695
2.387 2.269 1.717 6091
2.463 2.341 1.756 7106
2.472 2.349 1.749 5887
2.480 2.358 1.743 4756
2.473 2.351 1.726 8392
2.487 2.364 1.723 13552
2.496 2.372 1.717 19296
2.494 2.370 1.704 21229
2.492 2.369 1.690 15912
2.495 2.372 1.681 12154
2.498 2.375 1.671 9090
2.517 2.393 1.670 8190
2.520 2.396 1.660 13479
2.524 2.399 1.650 13756
2.532 2.407 1.644 11187
2.530 2.405 1.630 9635
2.538 2.413 1.624 8731
2.557 2.431 1.623 9456
2.560 2.434 1.613 8796
2.558 2.432 1.599 7145
2.556 2.430 1.586 5465
2.559 2.433 1.576 5256
2.546 2.420 1.557 5604
2.565 2.438 1.556 6487
2.579 2.451 1.552 10269
2.582 2.454 1.541 15809
2.585 2.457 1.531 16444
2.588 2.460 1.521 10587
2.591 2.463 1.510 10765
2.593 2.465 1.500 15184
2.602 2.473 1.493 13758
2.610 2.481 1.485 8109
2.602 2.473 1.469 4026
2.610 2.481 1.462 4494
2.618 2.489 1.454 7473
2.627 2.497 1.446 9910
2.629 2.499 1.436 7292
2.605 2.476 1.412 4623
2.608 2.479 1.402 4557
2.589 2.461 1.381 3372
2.597 2.468 1.373 2572
3.169 3.012 1.635 3317
3.237 3.077 1.653 3581
3.251 3.090 1.646 6418
3.260 3.098 1.635 7010
3.203 3.045 1.595 7287
3.206 3.047 1.582 6875
3.313 3.149 1.616 6700
3.310 3.147 1.600 11591
3.308 3.144 1.585 17097
3.311 3.147 1.572 14429
3.319 3.155 1.561 8976
3.317 3.153 1.545 8016
3.320 3.156 1.532 6172
3.323 3.159 1.519 4893
3.787 3.600 1.697 6133
3.801 3.614 1.687 4805
3.832 3.643 1.683 3789
3.852 3.662 1.674 3897
3.855 3.665 1.659 2804
4.052 3.851 1.719 1719
4.132 3.928 1.733 1466
4.191 3.984 1.738 2171
4.194 3.987 1.721 3580
4.186 3.980 1.701 3196
4.306 4.093 1.727 4363
4.309 4.096 1.710 3661
4.302 4.089 1.689 2663
4.322 4.108 1.678 5713
4.325 4.111 1.660 8683
4.322 4.109 1.641 6637
4.403 4.186 1.651 5633
4.407 4.189 1.633 7252
4.410 4.192 1.616 4077
4.708 4.476 1.697 3983
4.717 4.484 1.680 3149
4.827 4.588 1.695 3871
4.836 4.597 1.678 3652
4.839 4.600 1.658 2452
5.234 4.975 1.761 2964
5.243 4.984 1.742 3860
5.263 5.003 1.726 3201
5.249 4.990 1.700 2518
5.449 5.180 1.737 2787
5.452 5.183 1.715 3735
5.821 5.533 1.798 3938
5.836 5.547 1.778 5018
5.839 5.551 1.755 5652
5.837 5.548 1.730 5128
5.846 5.557 1.708 5176
5.849 5.560 1.685 6222
5.852 5.563 1.661 6371
5.856 5.566 1.638 4666
6.163 5.859 1.692 3806
6.167 5.862 1.667 3226
6.532 6.209 1.731 2768
6.541 6.217 1.706 2396
6.549 6.226 1.681 1224
6.870 6.530 1.729 1391
6.862 6.522 1.699 1328
7.516 7.145 1.817 1326
7.525 7.153 1.789 1510
7.880 7.491 1.834 1389
7.889 7.500 1.804 1588
7.649 7.271 1.722 1252
7.658 7.279 1.692 1033
7.860 7.471 1.701 790
8.801 8.366 1.853 1147
8.804 8.369 1.818 1100
9.547 9.075 1.921 969
9.534 9.062 1.879 1148
9.492 9.023 1.833 1117
9.478 9.010 1.792 1391
9.476 9.008 1.753 1472
9.975 9.482 1.798 1103
9.978 9.485 1.758 873
9.993 9.499 1.719 823
9.996 9.502 1.679 889
9.994 9.500 1.638 729
9.974 9.481 1.595 747
9.983 9.490 1.556 748
9.992 9.498 1.516 596
10.006 9.511 1.478 390
9.946 9.454 1.429 320
9.954 9.462 1.390 424
9.957 9.465 1.350 424
9.971 9.478 1.312 391
9.979 9.486 1.272 372
9.976 9.483 1.232 368
9.978 9.485 1.192 337
1.406 1.336 0.157 421
1.406 1.336 0.152 519
1.406 1.336 0.146 594
1.406 1.336 0.141 637
1.406 1.336 0.135 608
1.406 1.336 0.130 510
1.406 1.336 0.124 411
1.808 1.718 0.113 356
1.813 1.724 0.105 400
1.807 1.718 0.098 347
1.790 1.702 0.092 285
1.813 1.723 0.084 300
1.813 1.723 0.077 322
1.813 1.723 0.070 327
1.812 1.723 0.063 332
1.824 1.734 0.055 301
9.696 9.217 -0.358 368
9.695 9.216 -0.397 459
9.694 9.215 -0.436 550
9.693 9.214 -0.475 640
9.691 9.212 -0.514 679
9.696 9.217 -0.553 719
9.688 9.210 -0.591 716
9.687 9.208 -0.630 714
9.685 9.207 -0.669 656
9.683 9.205 -0.708 598
9.682 9.203 -0.747 510
9.691 9.212 -0.787 446
9.683 9.205 -0.825 355
9.681 9.203 -0.864 263
9.679 9.201 -0.903 263
1.648 1.554 1.745 2921
1.651 1.557 1.739 5843
1.654 1.560 1.732 5843
1.672 1.577 1.740 4481
1.708 1.611 1.765 4690
1.716 1.619 1.763 4216
1.720 1.622 1.756 3755
1.723 1.625 1.750 3755
1.722 1.624 1.738 3420
1.778 1.676 1.781 3472
1.781 1.680 1.774 4160
1.784 1.683 1.767 4848
1.797 1.695 1.769 4208
1.806 1.703 1.766 3908
1.809 1.706 1.759 3839
1.827 1.723 1.765 4296
1.830 1.726 1.758 5109
1.834 1.730 1.751 7828
1.837 1.733 1.744 10592
1.846 1.741 1.741 14318
1.854 1.748 1.738 18180
1.852 1.747 1.726 17910
1.851 1.746 1.715 17799
1.854 1.749 1.707 14136
1.857 1.752 1.700 10472
1.871 1.764 1.701 11325
1.879 1.772 1.698 12579
1.882 1.775 1.690 10675
1.915 1.806 1.708 10363
1.928 1.818 1.708 8545
1.941 1.831 1.709 7919
1.950 1.839 1.705 7230
1.963 1.851 1.706 7316
1.971 1.859 1.702 7651
1.989 1.876 1.706 7913
2.008 1.893 1.710 6564
2.026 1.911 1.714 7784
2.029 1.914 1.706 8224
2.032 1.917 1.698 11157
2.036 1.920 1.690 14091
2.044 1.928 1.686 11982
2.047 1.931 1.678 9924
2.051 1.934 1.670 8522
2.069 1.951 1.674 7034
2.077 1.959 1.669 7833
2.075 1.957 1.657 6211
2.069 1.951 1.642 5894
2.072 1.954 1.633 7557
2.080 1.962 1.629 7661
2.083 1.965 1.621 7065
2.091 1.972 1.616 4951
2.289 2.159 1.747 4426
2.292 2.162 1.738 5425
2.316 2.184 1.743 5179
2.324 2.192 1.738 5868
2.323 2.191 1.725 6483
2.331 2.199 1.719 5734
2.345 2.212 1.717 4447
2.446 2.307 1.775 3991
2.455 2.315 1.768 4564
2.427 2.289 1.738 6253
2.451 2.312 1.742 7867
2.470 2.330 1.743 6519
2.479 2.338 1.736 5240
2.482 2.341 1.726 8801
2.491 2.349 1.720 13955
2.500 2.357 1.714 19872
2.503 2.361 1.704 22994
2.501 2.359 1.690 19162
2.504 2.362 1.681 15612
2.508 2.365 1.671 11556
2.521 2.378 1.667 8977
2.530 2.386 1.660 14225
2.528 2.384 1.647 15218
2.536 2.392 1.640 13147
2.534 2.390 1.627 10977
2.543 2.398 1.620 9270
2.556 2.411 1.617 8272
2.570 2.424 1.613 6607
2.573 2.427 1.602 4710
2.560 2.415 1.583 3880
2.558 2.413 1.570 4701
2.556 2.410 1.557 5732
2.559 2.413 1.547 6704
2.583 2.436 1.549 9186
2.591 2.444 1.541 14331
2.589 2.442 1.528 15772
2.592 2.445 1.518 12079
2.595 2.447 1.508 13093
2.598 2.450 1.497 15665
2.611 2.463 1.493 13225
2.614 2.466 1.482 8246
2.612 2.463 1.469 4733
2.625 2.476 1.465 6081
2.628 2.479 1.454 9258
2.631 2.481 1.444 10075
2.634 2.484 1.433 7025
2.615 2.466 1.412 5591
2.623 2.474 1.405 4870
2.577 2.430 1.370 3574
2.579 2.433 1.360 3385
3.191 3.010 1.640 3685
3.189 3.008 1.625 3335
3.263 3.077 1.646 5298
3.272 3.086 1.635 5654
3.215 3.032 1.595 6988
3.218 3.035 1.582 6878
3.319 3.131 1.613 6000
3.323 3.134 1.600 10573
3.320 3.131 1.585 15054
3.323 3.134 1.572 13176
3.332 3.142 1.561 9017
3.329 3.140 1.545 7991
3.332 3.143 1.532 6278
3.335 3.145 1.519 5251
3.796 3.580 1.695 6034
3.810 3.593 1.684 4599
3.846 3.628 1.683 3872
3.861 3.641 1.672 3892
3.864 3.644 1.657 3072
4.067 3.835 1.719 1553
4.148 3.912 1.733 1991
4.201 3.962 1.736 2040
4.204 3.965 1.719 3072
4.191 3.953 1.696 3157
4.317 4.071 1.725 4477
4.231 3.990 1.675 4234
4.240 3.999 1.660 3313
4.338 4.091 1.678 5157
4.335 4.089 1.658 9537
4.338 4.092 1.641 7244
4.420 4.169 1.651 6784
4.423 4.172 1.633 8729
4.426 4.175 1.616 4680
4.726 4.457 1.697 4193
4.735 4.466 1.680 3826
4.850 4.574 1.697 2834
4.854 4.578 1.678 2782
4.862 4.586 1.660 1909
5.248 4.949 1.760 3063
5.257 4.958 1.740 3731
5.277 4.977 1.725 2836
5.275 4.975 1.702 2248
5.374 5.068 1.709 2695
5.473 5.162 1.715 2986
5.843 5.510 1.798 3914
5.857 5.524 1.778 4916
5.861 5.528 1.755 5853
5.864 5.531 1.732 5930
5.868 5.534 1.708 6064
5.871 5.537 1.685 6612
5.869 5.535 1.660 6572
5.872 5.538 1.637 4805
6.186 5.835 1.692 2663
6.541 6.169 1.754 2318
6.550 6.178 1.730 2879
6.559 6.186 1.705 2191
6.931 6.537 1.766 1243
6.906 6.514 1.732 1831
6.910 6.517 1.704 1696
7.544 7.115 1.817 1187
7.553 7.124 1.789 1378
7.910 7.460 1.834 1436
7.925 7.474 1.805 1593
7.917 7.466 1.771 1116
7.134 6.728 1.580 855
7.137 6.731 1.551 887
8.845 8.342 1.855 1337
8.854 8.351 1.821 1303
9.428 8.892 1.892 1089
9.381 8.847 1.845 1038
9.510 8.969 1.830 1179
9.508 8.967 1.791 1525
9.517 8.976 1.754 1650
9.515 8.973 1.715 1203
9.489 8.950 1.672 895
10.030 9.460 1.719 912
10.028 9.458 1.678 1032
10.008 9.439 1.635 912
10.006 9.437 1.594 940
10.020 9.450 1.556 897
10.023 9.453 1.515 720
10.032 9.461 1.476 476
9.994 9.426 1.431 433
9.991 9.423 1.390 574
9.994 9.426 1.350 553
9.996 9.428 1.310 406
10.016 9.447 1.272 303
10.013 9.443 1.232 315
10.015 9.446 1.192 320
10.017 9.448 1.151 269
1.417 1.336 0.157 361
1.417 1.336 0.152 483
1.417 1.336 0.146 576
1.411 1.331 0.141 662
1.411 1.331 0.135 666
1.411 1.331 0.130 592
1.411 1.331 0.124 504
1.411 1.331 0.119 417
