1.966 1.396 1.701 11652
1.975 1.402 1.698 11019
1.984 1.409 1.696 9978
1.993 1.415 1.693 9216
1.997 1.418 1.686 6537
2.017 1.432 1.692 4035
2.047 1.454 1.706 4314
2.051 1.457 1.699 5538
2.049 1.455 1.688 6871
2.048 1.454 1.676 8404
2.062 1.464 1.677 10581
2.071 1.471 1.674 13491
2.092 1.485 1.680 13554
2.101 1.492 1.676 15392
2.110 1.498 1.673 13908
2.125 1.509 1.674 13221
2.128 1.511 1.666 14472
2.132 1.514 1.659 14122
2.152 1.528 1.663 12745
2.133 1.515 1.640 12447
2.126 1.510 1.624 12899
2.124 1.508 1.613 12013
2.116 1.503 1.598 11640
2.131 1.513 1.598 11024
2.134 1.516 1.591 7805
2.121 1.506 1.571 5136
2.243 1.593 1.645 4743
2.240 1.591 1.633 5357
2.238 1.590 1.622 4246
2.440 1.733 1.747 4625
2.450 1.740 1.742 5198
2.453 1.742 1.733 4824
2.457 1.745 1.725 3827
2.421 1.719 1.690 3011
2.516 1.787 1.741 4582
2.503 1.777 1.721 5869
2.501 1.776 1.708 5157
2.568 1.823 1.740 3590
2.571 1.826 1.730 4506
2.569 1.825 1.718 5320
2.539 1.803 1.687 9915
2.542 1.805 1.678 14467
2.546 1.808 1.669 16061
2.550 1.810 1.660 16234
2.559 1.817 1.655 15355
2.586 1.836 1.660 12906
2.613 1.855 1.665 18051
2.622 1.862 1.659 22699
2.631 1.869 1.653 25309
2.635 1.871 1.644 24597
2.644 1.878 1.638 21980
2.648 1.880 1.628 16853
2.652 1.883 1.619 13967
2.649 1.881 1.606 12438
2.647 1.880 1.594 10891
2.644 1.878 1.581 11300
2.654 1.884 1.575 11576
2.657 1.887 1.566 15355
2.660 1.889 1.556 18910
2.664 1.892 1.547 18815
2.667 1.894 1.538 15931
2.670 1.896 1.528 9423
2.674 1.899 1.519 3910
2.683 1.905 1.513 3550
2.692 1.912 1.506 6904
2.701 1.918 1.500 8009
2.699 1.916 1.487 5902
2.696 1.914 1.475 6981
2.699 1.917 1.465 9365
2.708 1.923 1.459 12004
2.711 1.925 1.449 12931
2.708 1.923 1.437 9038
2.711 1.925 1.427 5513
2.727 1.936 1.423 7104
2.718 1.930 1.408 12016
2.721 1.932 1.398 15127
2.724 1.934 1.389 15543
2.727 1.936 1.379 16212
2.736 1.943 1.372 15803
2.744 1.949 1.365 15519
2.747 1.951 1.356 11882
2.744 1.949 1.343 8422
2.747 1.951 1.334 9080
2.774 1.970 1.335 12468
2.783 1.976 1.327 14175
2.786 1.978 1.318 9454
2.801 1.989 1.313 7679
2.810 1.995 1.306 11564
2.806 1.993 1.293 11359
2.803 1.991 1.281 7442
2.812 1.997 1.273 7898
2.815 1.999 1.264 13668
2.811 1.996 1.251 15523
2.820 2.002 1.244 13062
2.823 2.004 1.234 9248
2.825 2.006 1.224 5632
2.828 2.008 1.214 4516
2.843 2.019 1.209 4853
2.857 2.029 1.203 5629
2.860 2.031 1.193 11307
2.869 2.037 1.185 15602
2.871 2.039 1.175 12970
2.880 2.045 1.167 11501
2.888 2.051 1.159 8987
2.928 2.079 1.162 5658
2.930 2.081 1.152 4686
2.914 2.069 1.135 3977
2.904 2.062 1.121 5805
4.200 2.983 1.549 4865
4.198 2.981 1.532 3648
4.213 2.992 1.522 5725
4.223 2.999 1.509 8506
4.207 2.988 1.488 7629
4.198 2.981 1.469 9171
4.201 2.983 1.454 9202
4.204 2.986 1.439 8642
4.201 2.983 1.422 7009
2.907 2.065 1.012 4424
2.903 2.062 1.000 4166
4.166 2.959 1.364 3857
4.169 2.961 1.350 4716
4.172 2.963 1.335 4650
4.187 2.974 1.324 4949
4.196 2.980 1.311 4290
4.218 2.995 1.301 4049
4.202 2.984 1.281 2887
4.179 2.968 1.259 1946
4.226 3.001 1.256 2366
4.229 3.003 1.241 3640
4.225 3.000 1.224 3107
4.253 3.020 1.216 2978
4.471 3.175 1.255 3372
4.644 3.298 1.282 3557
4.647 3.300 1.265 5266
4.656 3.306 1.250 5808
4.665 3.312 1.235 6111
5.149 3.657 1.331 5384
5.152 3.659 1.313 10399
5.155 3.661 1.294 13757
5.157 3.662 1.276 13531
5.167 3.669 1.259 11157
5.169 3.671 1.241 9465
5.165 3.668 1.221 7022
5.174 3.674 1.204 4585
5.183 3.681 1.187 3244
6.250 4.438 1.381 2173
6.284 4.463 1.365 3010
6.287 4.465 1.343 3886
6.271 4.453 1.317 4640
6.299 4.473 1.300 4480
6.181 4.389 1.255 4204
6.190 4.395 1.234 6494
6.192 4.397 1.212 5480
6.124 4.349 1.178 3905
6.114 4.342 1.154 3770
6.116 4.343 1.133 3479
6.138 4.359 1.114 3803
6.153 4.369 1.094 4692
6.130 4.353 1.068 5146
6.132 4.354 1.046 5006
6.134 4.356 1.025 5106
6.123 4.348 1.001 5034
6.113 4.341 0.977 3905
6.082 4.319 0.951 2629
6.084 4.321 0.930 2498
6.093 4.326 0.909 2414
6.101 4.332 0.888 3277
6.109 4.338 0.867 4950
6.111 4.339 0.845 4832
6.106 4.336 0.823 3356
6.532 4.638 0.848 3568
6.527 4.635 0.824 3310
6.509 4.622 0.798 3057
6.537 4.642 0.778 3338
6.538 4.643 0.755 3996
6.533 4.639 0.731 3949
6.528 4.636 0.707 3646
6.529 4.637 0.684 3140
6.531 4.638 0.660 2361
6.545 4.648 0.638 1918
6.552 4.653 0.615 1878
6.554 4.654 0.592 1535
6.542 4.645 0.568 1207
6.917 4.912 0.568 873
6.582 4.674 0.524 902
6.590 4.679 0.501 757
7.132 5.065 0.505 708
6.785 4.818 0.463 742
6.779 4.814 0.438 708
6.767 4.805 0.414 733
6.748 4.792 0.389 652
11.549 8.201 0.526 680
11.602 8.239 0.487 939
11.602 8.239 0.445 1226
1.226 0.870 0.167 1805
1.219 0.866 0.162 3160
1.219 0.866 0.158 3911
1.219 0.866 0.154 3761
1.219 0.866 0.150 2940
1.206 0.857 0.146 2384
1.213 0.861 0.141 2481
1.219 0.866 0.137 2602
1.219 0.866 0.133 2659
1.219 0.866 0.129 2273
1.219 0.866 0.125 1811
1.219 0.866 0.120 1270
1.213 0.861 0.116 763
1.213 0.861 0.112 557
1.206 0.857 0.108 360
1.213 0.861 0.104 275
8.631 6.129 -0.218 256
8.630 6.128 -0.249 272
8.629 6.128 -0.279 289
1.367 0.970 0.071 371
1.360 0.966 0.066 509
1.360 0.966 0.061 644
1.360 0.966 0.057 745
1.359 0.965 0.052 853
1.359 0.965 0.047 899
1.359 0.965 0.043 926
1.359 0.965 0.038 902
1.359 0.965 0.033 869
1.365 0.969 0.028 746
1.358 0.964 0.024 620
1.364 0.969 0.019 488
1.370 0.973 0.013 362
0.990 0.703 0.046 283
0.990 0.703 0.043 407
0.990 0.703 0.039 530
0.983 0.698 0.037 659
0.983 0.698 0.033 752
0.983 0.698 0.030 856
0.982 0.698 0.027 912
0.982 0.698 0.023 950
0.982 0.697 0.020 942
0.994 0.706 0.015 996
0.994 0.706 0.011 1493
1.814 1.283 1.736 4736
1.818 1.286 1.730 9472
1.822 1.288 1.723 9472
1.846 1.306 1.736 7664
1.856 1.312 1.734 6962
1.865 1.319 1.732 7053
1.895 1.340 1.748 9329
1.899 1.343 1.742 9329
1.886 1.334 1.721 9654
1.890 1.337 1.715 11025
1.947 1.377 1.753 11664
1.946 1.376 1.742 13661
1.955 1.382 1.740 12486
1.969 1.393 1.742 12385
1.968 1.392 1.730 11575
1.966 1.391 1.719 11115
1.970 1.393 1.712 11035
1.968 1.392 1.701 10340
1.977 1.398 1.698 9623
1.981 1.401 1.692 8788
1.990 1.408 1.689 8147
1.999 1.414 1.686 5715
2.025 1.432 1.696 3838
2.045 1.446 1.702 4464
2.054 1.453 1.699 5836
2.052 1.451 1.688 7304
2.056 1.454 1.680 8852
2.065 1.460 1.677 10951
2.074 1.467 1.674 13486
2.089 1.477 1.675 12725
2.104 1.488 1.676 13978
2.118 1.498 1.677 13650
2.127 1.505 1.674 14048
2.131 1.507 1.666 15080
2.135 1.510 1.659 14383
2.155 1.524 1.663 13132
2.142 1.515 1.644 12419
2.134 1.509 1.628 12458
2.132 1.508 1.617 11278
2.125 1.503 1.602 10478
2.134 1.509 1.598 10178
2.137 1.511 1.591 7170
2.141 1.514 1.583 4437
2.240 1.584 1.641 4878
2.244 1.587 1.633 5598
2.241 1.585 1.622 4430
2.443 1.728 1.747 4344
2.453 1.735 1.742 5072
2.457 1.737 1.733 4971
2.455 1.736 1.721 4150
2.430 1.719 1.694 3734
2.520 1.782 1.741 4671
2.512 1.776 1.724 5732
2.510 1.775 1.712 4772
2.565 1.814 1.736 3707
2.569 1.817 1.727 4507
2.567 1.816 1.714 4802
2.536 1.794 1.684 9055
2.540 1.796 1.675 13163
2.544 1.799 1.666 14885
2.553 1.806 1.660 15706
2.562 1.812 1.655 15289
2.583 1.827 1.656 12172
2.616 1.850 1.665 18304
2.626 1.857 1.659 22663
2.635 1.864 1.653 24531
2.639 1.866 1.644 22734
2.648 1.873 1.638 19204
2.652 1.875 1.628 15184
2.649 1.874 1.616 13838
2.647 1.872 1.603 13415
2.650 1.874 1.594 12094
2.648 1.873 1.581 11442
2.657 1.879 1.575 11502
2.661 1.882 1.566 16303
2.664 1.884 1.556 20317
2.667 1.886 1.547 20775
2.671 1.889 1.538 18028
2.668 1.887 1.525 10995
2.671 1.889 1.516 5387
2.687 1.900 1.513 4189
2.696 1.907 1.506 7014
2.699 1.909 1.497 8492
2.696 1.907 1.484 6770
2.700 1.909 1.475 7473
2.703 1.911 1.465 9633
2.712 1.918 1.459 11865
2.709 1.916 1.446 13062
2.706 1.914 1.434 10364
2.709 1.916 1.424 6147
2.724 1.927 1.420 6337
2.721 1.925 1.408 12395
2.724 1.927 1.398 15912
2.727 1.929 1.389 16837
2.730 1.931 1.379 18183
2.739 1.937 1.372 17552
2.748 1.944 1.365 17264
2.751 1.946 1.356 13859
2.742 1.939 1.341 8847
2.751 1.945 1.334 7635
2.778 1.965 1.335 10390
2.787 1.971 1.327 12024
2.790 1.973 1.318 8877
2.805 1.984 1.313 7386
2.814 1.990 1.306 9891
2.810 1.988 1.293 9988
2.801 1.981 1.278 7332
2.810 1.987 1.271 7925
2.812 1.989 1.261 13307
2.815 1.991 1.251 15372
2.818 1.993 1.241 13717
2.826 1.999 1.234 10572
2.829 2.001 1.224 7440
2.832 2.003 1.214 5994
2.840 2.009 1.206 6153
2.855 2.019 1.201 6875
2.864 2.025 1.193 11040
2.873 2.032 1.185 15024
2.875 2.033 1.175 12384
2.890 2.044 1.170 10186
2.892 2.046 1.159 8832
2.913 2.060 1.156 5451
2.922 2.067 1.148 4430
2.912 2.059 1.133 4057
2.908 2.057 1.121 6229
2.904 2.054 1.108 5675
2.819 1.994 1.069 3499
4.213 2.979 1.519 5075
4.222 2.986 1.507 7850
4.207 2.975 1.486 6818
4.204 2.973 1.469 8350
4.207 2.975 1.454 8463
4.210 2.977 1.439 7689
4.207 2.975 1.422 6395
2.911 2.059 1.012 5505
2.907 2.056 1.000 4819
4.166 2.946 1.362 3759
4.169 2.948 1.348 4230
4.171 2.950 1.333 4285
4.181 2.957 1.320 4479
4.196 2.967 1.309 3476
4.218 2.983 1.299 3487
4.195 2.967 1.277 3066
4.179 2.955 1.257 2210
4.447 3.145 1.313 1973
4.235 2.995 1.241 3450
4.237 2.997 1.226 3414
4.259 3.012 1.216 3806
4.477 3.166 1.255 4003
4.486 3.172 1.241 3774
4.659 3.295 1.267 5138
4.662 3.297 1.250 5792
4.671 3.303 1.235 6011
5.156 3.647 1.331 5222
5.159 3.649 1.313 9455
5.162 3.651 1.294 12095
5.165 3.652 1.276 11857
5.174 3.659 1.259 10504
5.176 3.661 1.241 9603
5.172 3.658 1.221 7426
5.181 3.664 1.204 4521
5.190 3.671 1.187 2797
6.258 4.426 1.381 1992
6.293 4.450 1.365 2616
6.277 4.439 1.339 3370
6.280 4.441 1.317 4186
6.301 4.457 1.298 3921
6.196 4.382 1.256 4032
6.198 4.383 1.234 6548
6.201 4.385 1.212 5476
6.133 4.337 1.178 4203
6.122 4.330 1.154 4245
6.125 4.332 1.133 3937
6.140 4.342 1.113 4044
6.149 4.349 1.092 4912
6.138 4.341 1.068 5554
6.140 4.343 1.046 5295
6.142 4.344 1.025 5360
6.132 4.336 1.001 5475
6.121 4.329 0.977 4131
6.110 4.321 0.954 2263
6.106 4.318 0.931 2776
6.114 4.324 0.911 3139
6.116 4.325 0.889 3692
6.117 4.326 0.867 5163
6.119 4.328 0.845 5433
6.114 4.324 0.823 3992
6.541 4.626 0.848 3371
6.536 4.622 0.824 3313
6.512 4.605 0.798 3244
6.546 4.629 0.778 3168
6.547 4.630 0.755 3800
6.542 4.627 0.731 3910
6.537 4.623 0.707 3854
6.538 4.624 0.684 3380
6.540 4.625 0.660 2551
6.554 4.635 0.638 2001
6.561 4.640 0.615 1837
6.562 4.641 0.592 1391
6.544 4.628 0.567 1196
6.926 4.898 0.568 859
8.683 6.141 0.646 794
8.697 6.151 0.616 774
7.142 5.051 0.505 819
7.136 5.047 0.479 926
7.144 5.052 0.454 877
6.763 4.783 0.413 907
7.138 5.048 0.403 716
11.559 8.174 0.526 710
11.611 8.212 0.486 945
11.612 8.212 0.445 1240
1.221 0.863 0.167 1187
1.221 0.863 0.162 1958
1.221 0.864 0.158 2432
1.227 0.868 0.154 2643
1.228 0.868 0.150 2616
1.221 0.864 0.146 2353
1.221 0.864 0.141 1813
1.215 0.859 0.137 1260
1.221 0.864 0.133 1550
1.221 0.864 0.129 2053
1.221 0.864 0.125 2288
1.221 0.863 0.120 1984
1.221 0.863 0.116 1649
1.221 0.863 0.112 1183
1.214 0.859 0.108 757
1.214 0.859 0.104 516
1.214 0.859 0.100 256
8.649 6.117 -0.218 267
8.642 6.112 -0.249 279
8.641 6.111 -0.279 293
8.646 6.115 -0.310 279
8.645 6.114 -0.341 268
1.362 0.963 0.061 366
1.362 0.963 0.057 495
1.361 0.963 0.052 620
1.361 0.963 0.047 706
1.361 0.962 0.043 767
1.361 0.962 0.038 746
1.360 0.962 0.033 719
1.367 0.966 0.028 645
1.366 0.966 0.023 566
1.366 0.966 0.019 474
1.366 0.966 0.014 382
0.992 0.701 0.046 365
0.992 0.701 0.043 534
0.991 0.701 0.039 769
0.991 0.701 0.036 1005
0.991 0.701 0.033 1217
0.991 0.701 0.029 1430
0.984 0.696 0.027 1378
0.984 0.696 0.023 1283
0.990 0.700 0.019 1243
0.989 0.700 0.016 1169
0.983 0.695 0.013 1474
1.827 1.287 1.746 4174
1.831 1.290 1.739 8349
1.835 1.292 1.733 8349
1.849 1.303 1.736 7526
1.858 1.309 1.734 7181
1.867 1.315 1.732 6886
1.897 1.337 1.748 8826
1.901 1.339 1.742 8826
1.889 1.331 1.721 8873
1.887 1.330 1.710 10089
1.950 1.374 1.753 11171
1.948 1.372 1.742 12868
1.963 1.383 1.744 11977
1.966 1.385 1.737 11932
1.970 1.388 1.730 10996
1.974 1.391 1.724 10060
1.972 1.390 1.712 10051
1.976 1.392 1.705 9226
1.974 1.391 1.694 8406
1.984 1.397 1.692 7681
1.993 1.404 1.689 7067
1.996 1.407 1.682 4937
2.027 1.428 1.696 3596
2.047 1.442 1.702 4462
2.057 1.449 1.699 5923
2.055 1.448 1.688 7580
2.059 1.450 1.680 9263
2.068 1.457 1.677 11217
2.077 1.463 1.674 13378
2.092 1.474 1.675 11987
2.106 1.484 1.676 12691
2.121 1.494 1.677 13565
2.130 1.501 1.674 15088
2.134 1.503 1.666 15806
2.137 1.506 1.659 14649
2.158 1.520 1.663 13324
2.145 1.511 1.644 12392
2.143 1.510 1.632 12127
2.141 1.508 1.621 10650
2.139 1.507 1.610 9483
2.142 1.509 1.602 9290
2.146 1.512 1.595 6532
2.149 1.514 1.587 3967
2.243 1.580 1.641 4795
2.246 1.583 1.633 5565
2.239 1.577 1.618 4477
2.452 1.728 1.751 4074
2.456 1.730 1.742 4863
2.454 1.729 1.730 5016
2.452 1.728 1.717 4553
2.439 1.718 1.697 4463
2.523 1.777 1.741 4580
2.521 1.776 1.728 5546
2.513 1.771 1.712 4464
2.569 1.810 1.736 3746
2.572 1.812 1.727 4460
2.565 1.807 1.711 4549
2.540 1.789 1.684 8624
2.537 1.788 1.671 12109
2.547 1.794 1.666 13948
2.556 1.801 1.660 15150
2.566 1.808 1.655 14960
2.581 1.818 1.653 11652
2.619 1.845 1.665 18237
2.629 1.852 1.659 22465
2.638 1.859 1.653 23826
2.642 1.861 1.644 21142
2.651 1.868 1.638 16638
2.655 1.871 1.628 13539
2.647 1.865 1.612 13731
2.650 1.867 1.603 14063
2.648 1.865 1.591 12897
2.657 1.872 1.585 11491
2.661 1.875 1.575 11165
2.664 1.877 1.566 16542
2.667 1.879 1.556 20908
2.671 1.882 1.547 21833
2.674 1.884 1.538 19267
2.672 1.882 1.525 12078
2.675 1.885 1.516 6441
2.690 1.895 1.513 4801
2.699 1.902 1.506 7307
2.697 1.900 1.494 9462
2.700 1.902 1.484 8161
2.703 1.904 1.475 7895
2.706 1.907 1.465 9388
2.709 1.909 1.456 11489
2.712 1.911 1.446 13074
2.710 1.909 1.434 11444
2.713 1.911 1.424 7051
2.722 1.918 1.417 6289
2.725 1.920 1.408 12580
2.728 1.922 1.398 16190
2.731 1.924 1.389 17402
2.734 1.926 1.379 19316
2.743 1.932 1.372 18496
2.752 1.939 1.365 18181
2.749 1.936 1.353 15436
2.751 1.938 1.343 9602
2.754 1.940 1.334 6597
2.782 1.960 1.335 8246
2.784 1.962 1.325 9818
2.793 1.968 1.318 8122
2.808 1.979 1.313 6968
2.817 1.985 1.306 8361
2.814 1.982 1.293 8725
2.804 1.976 1.278 7134
2.813 1.982 1.271 8048
2.816 1.984 1.261 13041
2.819 1.986 1.251 14926
2.821 1.988 1.241 14155
2.830 1.994 1.234 11661
2.833 1.996 1.224 8942
2.835 1.997 1.214 7324
2.844 2.004 1.206 7718
2.853 2.010 1.199 8745
2.868 2.020 1.193 10632
2.876 2.026 1.185 13725
2.879 2.028 1.175 11357
2.894 2.039 1.170 8837
2.896 2.040 1.159 8809
2.905 2.046 1.151 6658
2.895 2.039 1.137 5268
2.903 2.045 1.129 4953
2.912 2.051 1.121 7527
2.908 2.049 1.108 7811
2.910 2.050 1.098 4087
2.831 1.995 1.061 5482
4.228 2.979 1.507 7443
4.218 2.972 1.488 6600
4.209 2.965 1.469 7875
4.212 2.968 1.454 7673
4.215 2.970 1.439 6495
4.206 2.963 1.420 5456
2.915 2.054 1.012 6018
2.911 2.051 1.000 5172
4.171 2.939 1.362 3267
4.174 2.941 1.348 3557
4.177 2.943 1.333 3710
4.180 2.945 1.318 4026
4.195 2.955 1.307 3034
3.794 2.673 1.180 3518
4.194 2.955 1.276 3376
4.191 2.952 1.259 2620
4.244 2.990 1.258 2085
4.240 2.987 1.241 3180
4.249 2.994 1.228 3637
4.264 3.004 1.216 4348
4.476 3.153 1.253 4641
4.485 3.160 1.239 4056
4.665 3.287 1.267 4860
4.674 3.293 1.252 5609
4.677 3.295 1.235 5747
5.163 3.637 1.331 4995
5.166 3.639 1.313 8465
5.168 3.641 1.294 10556
5.171 3.643 1.276 10473
5.180 3.650 1.259 9964
5.176 3.647 1.239 9649
5.179 3.649 1.221 7735
5.188 3.655 1.204 4632
5.197 3.661 1.187 2561
5.653 3.983 1.259 1889
6.307 4.444 1.367 2276
6.285 4.428 1.339 2959
6.288 4.430 1.317 3712
6.309 4.445 1.298 3394
6.210 4.375 1.257 3901
6.206 4.372 1.234 6384
6.209 4.374 1.212 5320
6.141 4.326 1.178 4422
6.130 4.319 1.154 4583
6.126 4.316 1.131 4238
6.148 4.331 1.113 4179
6.150 4.333 1.091 5228
6.146 4.330 1.068 6205
6.148 4.331 1.046 5885
6.150 4.333 1.025 5756
6.140 4.325 1.001 5695
6.135 4.322 0.978 4251
6.124 4.315 0.955 2528
6.120 4.311 0.932 3188
6.128 4.317 0.911 3426
6.123 4.314 0.889 3760
6.119 4.311 0.866 5048
6.120 4.312 0.845 5312
6.122 4.313 0.823 3877
6.549 4.614 0.848 3009
6.538 4.606 0.823 3177
6.520 4.594 0.798 3311
6.548 4.613 0.777 2905
6.555 4.618 0.755 3475
6.544 4.610 0.730 3775
6.539 4.607 0.706 3944
6.547 4.612 0.684 3481
6.548 4.613 0.660 2647
6.556 4.619 0.638 2047
6.563 4.624 0.615 1908
6.571 4.629 0.592 1512
6.553 4.616 0.567 1318
6.553 4.617 0.544 1025
6.561 4.622 0.521 891
8.702 6.131 0.616 800
7.157 5.043 0.505 957
7.152 5.039 0.480 1115
7.146 5.035 0.454 989
6.765 4.766 0.413 1089
7.148 5.036 0.403 887
7.148 5.036 0.378 742
1.222 0.861 0.175 835
1.222 0.861 0.171 1009
11.634 8.196 0.404 968
11.654 8.210 0.363 1034
11.661 8.215 0.321 845
1.242 0.875 0.154 894
1.236 0.870 0.150 1633
1.229 0.866 0.146 2254
1.223 0.861 0.141 2739
1.223 0.861 0.137 3285
1.223 0.861 0.133 3201
1.216 0.857 0.129 2627
1.210 0.852 0.125 2124
1.210 0.852 0.121 1675
1.210 0.852 0.116 1236
1.209 0.852 0.112 941
1.209 0.852 0.108 646
1.216 0.857 0.104 447
8.660 6.101 -0.218 268
8.653 6.096 -0.249 272
8.652 6.095 -0.279 277
1.370 0.965 0.071 291
1.370 0.965 0.066 441
1.363 0.961 0.061 604
1.363 0.960 0.057 770
1.363 0.960 0.052 918
1.363 0.960 0.047 1003
1.363 0.960 0.043 1069
1.362 0.960 0.038 1075
1.369 0.964 0.033 1068
1.368 0.964 0.028 950
1.368 0.964 0.023 819
1.368 0.964 0.019 657
1.374 0.968 0.013 497
1.367 0.963 0.009 379
0.986 0.695 0.043 520
0.993 0.699 0.039 829
0.992 0.699 0.036 1145
0.992 0.699 0.033 1529
0.992 0.699 0.029 1913
0.992 0.699 0.026 1987
0.991 0.698 0.022 2080
0.991 0.698 0.019 2098
0.991 0.698 0.016 1789
0.984 0.693 0.013 1853
1.829 1.284 1.746 4203
1.833 1.287 1.739 8406
1.837 1.289 1.733 8406
1.851 1.299 1.736 7345
1.860 1.306 1.734 6927
1.869 1.312 1.732 6697
1.899 1.333 1.748 8894
1.903 1.336 1.742 8894
1.891 1.327 1.721 8593
1.890 1.326 1.710 9608
1.952 1.370 1.753 10538
1.951 1.369 1.742 11993
1.960 1.375 1.740 11423
1.969 1.382 1.737 11541
1.973 1.385 1.730 10334
1.976 1.387 1.724 9128
1.975 1.386 1.712 9043
1.979 1.389 1.705 8071
1.977 1.388 1.694 7082
1.986 1.394 1.692 6469
1.990 1.397 1.685 5924
1.999 1.403 1.682 4225
2.030 1.425 1.696 3353
2.050 1.439 1.702 4451
2.059 1.445 1.699 5980
2.057 1.444 1.688 7766
2.061 1.447 1.680 9554
2.070 1.453 1.677 11440
2.074 1.456 1.670 13357
2.089 1.466 1.671 11470
2.109 1.480 1.676 11713
2.124 1.491 1.677 13526
2.133 1.497 1.674 15909
2.137 1.500 1.666 16342
2.146 1.506 1.663 14888
2.161 1.516 1.663 13603
2.153 1.511 1.648 12464
2.151 1.510 1.636 11865
2.149 1.508 1.625 10063
2.147 1.507 1.613 8497
2.150 1.509 1.606 8296
2.154 1.512 1.598 5799
2.191 1.538 1.614 3853
2.246 1.576 1.641 4687
2.249 1.579 1.633 5461
2.241 1.573 1.618 4444
2.455 1.723 1.751 3839
2.459 1.726 1.742 4796
2.457 1.725 1.730 5393
2.455 1.723 1.717 5206
2.448 1.718 1.701 5001
2.520 1.769 1.737 4435
2.524 1.771 1.728 5335
2.516 1.766 1.712 4152
2.566 1.801 1.732 3790
2.570 1.804 1.723 4491
2.545 1.786 1.696 4631
2.543 1.785 1.684 8166
2.541 1.783 1.671 11162
2.550 1.790 1.666 12702
2.559 1.796 1.660 13941
2.569 1.803 1.655 13848
2.578 1.810 1.649 10855
2.623 1.841 1.665 17989
2.632 1.847 1.659 22143
2.642 1.854 1.653 23116
2.645 1.857 1.644 19698
2.655 1.863 1.638 14156
2.658 1.866 1.628 11948
2.650 1.860 1.612 13832
2.648 1.858 1.600 14693
2.651 1.861 1.591 13586
2.661 1.867 1.585 11458
2.664 1.870 1.575 10575
2.667 1.872 1.566 16186
2.671 1.875 1.556 20851
2.674 1.877 1.547 22093
2.678 1.879 1.538 19750
2.675 1.877 1.525 12829
2.678 1.880 1.516 7279
2.693 1.890 1.513 5271
2.697 1.893 1.503 7567
2.700 1.895 1.494 10450
2.703 1.897 1.484 9332
2.706 1.900 1.475 7911
2.710 1.902 1.465 8613
2.713 1.904 1.456 10658
2.716 1.906 1.446 12781
2.713 1.904 1.434 12161
2.716 1.906 1.424 7920
2.725 1.913 1.417 6653
2.728 1.915 1.408 13010
2.731 1.917 1.398 16511
2.734 1.919 1.389 17344
2.737 1.921 1.379 19501
2.746 1.927 1.372 18819
2.755 1.934 1.365 18410
2.752 1.932 1.353 16505
2.755 1.934 1.343 11216
2.758 1.936 1.334 6637
2.779 1.950 1.332 6211
2.788 1.957 1.325 7629
2.797 1.963 1.318 7390
2.812 1.974 1.313 6648
2.821 1.980 1.306 6995
2.805 1.969 1.288 7536
2.802 1.966 1.276 6708
2.817 1.977 1.271 7980
2.819 1.979 1.261 12757
2.822 1.981 1.251 14440
2.825 1.983 1.241 14336
2.834 1.989 1.234 12354
2.836 1.991 1.224 9861
2.839 1.992 1.214 8319
2.847 1.999 1.206 9285
2.856 2.005 1.199 10829
2.871 2.015 1.193 10029
2.880 2.021 1.185 11672
2.876 2.019 1.173 10211
2.897 2.033 1.170 7383
2.906 2.040 1.162 7863
2.908 2.041 1.151 7740
2.898 2.034 1.137 7744
2.901 2.036 1.127 6278
2.915 2.046 1.121 7574
2.912 2.043 1.108 8965
2.914 2.045 1.098 6121
2.835 1.990 1.061 5892
4.233 2.971 1.507 7226
2.921 2.050 1.067 7493
4.214 2.958 1.469 7236
4.218 2.960 1.454 6639
4.214 2.958 1.437 5247
2.923 2.052 1.024 5397
2.919 2.049 1.012 6521
2.921 2.050 1.002 5535
4.182 2.936 1.364 2828
4.185 2.938 1.350 3285
2.914 2.045 0.967 3097
4.185 2.937 1.318 2830
3.809 2.673 1.197 3329
3.792 2.662 1.178 4567
4.199 2.947 1.276 3707
4.202 2.949 1.261 3081
4.255 2.987 1.259 2126
4.258 2.989 1.244 2999
4.261 2.990 1.229 3704
4.270 2.997 1.216 4623
4.482 3.146 1.253 5242
4.491 3.152 1.239 4326
4.671 3.279 1.267 4402
4.680 3.285 1.252 5268
4.683 3.287 1.235 5310
5.169 3.628 1.331 4657
5.172 3.630 1.313 7425
5.175 3.632 1.294 9028
5.184 3.638 1.277 9254
5.187 3.640 1.259 9657
5.183 3.638 1.239 9813
5.186 3.640 1.221 8082
5.194 3.646 1.204 4879
5.197 3.648 1.186 2521
5.660 3.973 1.259 2020
5.208 3.656 1.150 2419
5.211 3.657 1.132 2639
6.289 4.414 1.316 3260
6.317 4.434 1.298 2867
6.224 4.368 1.259 3725
6.214 4.361 1.234 6068
6.216 4.363 1.212 5049
6.142 4.311 1.177 4497
6.138 4.308 1.154 4789
6.140 4.310 1.133 4476
6.156 4.320 1.113 4293
6.158 4.322 1.091 5354
6.154 4.319 1.068 6385
6.156 4.321 1.046 6003
6.158 4.322 1.025 5912
6.147 4.315 1.001 6168
6.149 4.316 0.979 4968
6.138 4.308 0.956 2904
6.127 4.301 0.932 2993
6.136 4.306 0.911 2994
6.131 4.303 0.889 3352
6.126 4.300 0.866 4869
6.128 4.301 0.845 5215
6.130 4.302 0.823 3949
6.151 4.317 0.803 3174
6.540 4.590 0.822 2989
6.528 4.582 0.798 3330
6.549 4.597 0.777 2696
6.557 4.602 0.754 3123
6.552 4.599 0.730 3615
6.547 4.595 0.706 4007
6.548 4.596 0.683 3608
6.550 4.597 0.660 2779
6.564 4.607 0.638 2098
6.571 4.612 0.615 1936
6.579 4.618 0.592 1560
6.554 4.600 0.567 1423
6.562 4.605 0.544 1148
6.925 4.860 0.542 1228
6.926 4.861 0.518 1073
7.166 5.030 0.505 1191
7.161 5.026 0.480 1358
7.155 5.022 0.454 1144
6.767 4.750 0.413 1051
7.156 5.023 0.403 873
7.164 5.028 0.378 645
11.647 8.175 0.487 730
11.641 8.171 0.445 926
11.648 8.176 0.404 947
1.230 0.864 0.163 1372
1.231 0.864 0.158 1698
1.231 0.864 0.154 2249
1.231 0.864 0.150 3273
1.231 0.864 0.146 3746
1.224 0.859 0.141 3529
1.218 0.855 0.137 3393
1.211 0.850 0.133 2871
1.211 0.850 0.129 2162
1.211 0.850 0.125 1846
1.211 0.850 0.121 1389
1.211 0.850 0.116 1026
1.211 0.850 0.112 778
1.211 0.850 0.108 531
1.211 0.850 0.104 383
8.673 6.087 -0.157 254
8.672 6.087 -0.187 283
8.671 6.086 -0.218 312
8.664 6.081 -0.249 321
8.663 6.080 -0.279 332
8.668 6.084 -0.310 302
8.667 6.083 -0.341 276
1.359 0.954 0.062 299
1.358 0.953 0.057 354
1.358 0.953 0.052 402
1.358 0.953 0.048 398
1.364 0.958 0.043 393
1.364 0.957 0.038 373
1.364 0.957 0.033 353
1.364 0.957 0.029 321
1.363 0.957 0.024 290
0.988 0.693 0.047 259
0.994 0.698 0.043 401
0.994 0.698 0.039 653
0.987 0.693 0.037 908
0.993 0.697 0.033 1170
0.987 0.692 0.030 1443
0.986 0.692 0.027 1529
0.986 0.692 0.023 1655
0.986 0.692 0.020 1712
0.992 0.696 0.016 1701
0.992 0.696 0.012 2240
1.837 1.284 1.750 3979
1.841 1.287 1.744 7958
1.844 1.290 1.737 7958
1.859 1.300 1.740 7188
1.862 1.302 1.734 6846
1.887 1.320 1.746 6696
1.902 1.330 1.748 8912
1.906 1.333 1.742 8912
1.904 1.332 1.731 8347
1.892 1.323 1.710 9111
1.954 1.367 1.753 9975
1.953 1.366 1.742 11212
1.962 1.372 1.740 10996
1.971 1.378 1.737 11194
1.975 1.381 1.730 9791
1.979 1.384 1.724 8388
1.983 1.386 1.717 8358
1.981 1.385 1.705 7100
1.974 1.380 1.690 5938
1.983 1.387 1.687 5507
1.992 1.393 1.685 5081
1.996 1.396 1.678 3690
2.032 1.421 1.696 3128
2.052 1.435 1.702 4408
2.062 1.442 1.699 6003
2.065 1.444 1.692 7999
2.069 1.447 1.685 9996
2.073 1.449 1.677 11728
2.076 1.452 1.670 13460
2.091 1.462 1.671 11138
2.111 1.476 1.676 10935
2.126 1.487 1.677 13423
2.135 1.493 1.674 16418
2.139 1.496 1.666 16677
2.148 1.502 1.663 15186
2.158 1.509 1.659 14034
2.161 1.511 1.652 12729
2.154 1.506 1.636 11808
2.157 1.508 1.629 9665
2.234 1.562 1.673 8553
2.153 1.505 1.606 7464
2.156 1.508 1.598 5194
2.194 1.534 1.614 3675
2.248 1.572 1.641 4488
2.246 1.571 1.630 5309
2.244 1.569 1.618 4412
2.458 1.719 1.751 3546
2.462 1.722 1.742 4638
2.460 1.720 1.730 5765
2.458 1.719 1.717 5963
2.451 1.714 1.701 5674
2.523 1.764 1.737 4252
2.527 1.767 1.728 5107
2.519 1.762 1.712 3944
2.563 1.792 1.729 3757
2.567 1.795 1.720 4429
2.548 1.782 1.696 4978
2.540 1.776 1.680 7881
2.544 1.779 1.671 10324
2.547 1.781 1.662 11655
2.563 1.792 1.660 13037
2.572 1.799 1.655 13141
2.576 1.801 1.646 10662
2.626 1.836 1.665 17604
2.635 1.843 1.659 21653
2.645 1.849 1.653 22356
2.649 1.852 1.644 18448
2.652 1.855 1.634 12168
2.656 1.857 1.625 10692
2.647 1.851 1.609 14156
2.651 1.854 1.600 15256
2.654 1.856 1.591 14046
2.664 1.863 1.585 11352
2.667 1.865 1.575 9845
2.671 1.868 1.566 15347
2.674 1.870 1.556 20173
2.677 1.872 1.547 21675
2.681 1.875 1.538 19740
2.678 1.873 1.525 13328
2.682 1.875 1.516 7667
2.697 1.886 1.513 5409
2.700 1.888 1.503 7690
2.703 1.890 1.494 10961
2.701 1.888 1.481 9936
2.710 1.895 1.475 7351
2.713 1.897 1.465 7185
2.710 1.895 1.453 9347
2.713 1.897 1.443 12153
2.716 1.899 1.434 12385
2.719 1.902 1.424 8560
2.728 1.908 1.417 7156
2.725 1.906 1.405 13404
2.735 1.912 1.398 16753
2.738 1.914 1.389 16776
2.741 1.916 1.379 18723
2.750 1.923 1.372 18448
2.759 1.929 1.365 18089
2.761 1.931 1.356 16983
2.758 1.929 1.343 12571
2.761 1.931 1.334 7141
2.746 1.920 1.316 5265
2.785 1.948 1.322 5988
2.794 1.954 1.315 6880
2.809 1.964 1.310 6631
2.818 1.971 1.303 6037
2.796 1.955 1.283 6736
2.799 1.957 1.273 6182
2.820 1.972 1.271 7762
2.823 1.974 1.261 12231
2.826 1.976 1.251 13841
2.828 1.978 1.241 14414
2.831 1.979 1.231 12941
2.840 1.986 1.224 10452
2.842 1.987 1.214 9147
2.851 1.994 1.206 10674
2.860 2.000 1.199 12831
2.868 2.006 1.191 10374
2.877 2.012 1.183 9651
2.880 2.014 1.173 9573
2.882 2.015 1.163 6855
2.909 2.034 1.162 6307
2.906 2.032 1.149 7803
2.902 2.029 1.137 9816
2.904 2.031 1.127 7607
2.919 2.041 1.121 6634
2.915 2.038 1.108 7497
2.917 2.040 1.098 6059
2.845 1.989 1.063 6156
4.245 2.968 1.509 7259
2.924 2.045 1.067 7755
4.226 2.955 1.471 6858
4.223 2.953 1.454 5711
2.931 2.049 1.037 5014
2.927 2.046 1.024 5604
2.922 2.043 1.012 6806
2.924 2.045 1.002 5713
2.920 2.042 0.990 2471
4.191 2.930 1.350 2902
2.918 2.040 0.967 3104
3.830 2.678 1.216 2493
3.820 2.671 1.199 4354
3.797 2.655 1.178 5879
4.205 2.940 1.276 3945
4.201 2.938 1.259 3483
3.804 2.660 1.138 2365
4.263 2.981 1.244 2832
4.266 2.983 1.229 3997
4.275 2.989 1.216 5006
4.487 3.138 1.253 5723
4.496 3.144 1.239 4528
4.677 3.270 1.267 3922
4.686 3.277 1.252 4801
4.689 3.279 1.235 4741
5.176 3.619 1.331 4226
5.178 3.621 1.313 6390
5.181 3.623 1.294 7602
5.190 3.629 1.277 8261
5.193 3.631 1.259 9439
5.189 3.629 1.239 9983
5.192 3.630 1.221 8463
5.201 3.637 1.204 5203
5.203 3.638 1.186 2668
5.667 3.963 1.259 2073
5.208 3.642 1.149 2628
5.217 3.648 1.132 2900
6.297 4.403 1.316 2767
5.575 3.898 1.160 2997
6.238 4.362 1.260 3537
6.228 4.355 1.235 5628
6.224 4.352 1.212 4687
6.149 4.300 1.177 4440
6.145 4.297 1.154 4842
6.148 4.299 1.133 4540
6.163 4.310 1.113 4278
6.165 4.311 1.091 5406
6.155 4.304 1.067 6495
6.157 4.305 1.045 6129
6.159 4.307 1.024 5849
6.155 4.304 1.001 6186
6.150 4.301 0.978 5110
6.101 4.266 0.950 3790
6.122 4.281 0.931 4409
6.143 4.296 0.911 4299
6.132 4.288 0.888 4391
6.134 4.289 0.866 5722
6.136 4.290 0.845 5852
6.131 4.287 0.822 4259
6.145 4.297 0.802 3338
6.548 4.578 0.822 2977
6.536 4.571 0.798 3405
6.551 4.581 0.776 2579
6.565 4.591 0.754 2817
6.554 4.583 0.730 3458
6.555 4.584 0.706 4033
6.556 4.585 0.683 3711
6.558 4.586 0.660 2910
6.572 4.595 0.638 2157
6.586 4.605 0.615 2005
6.594 4.611 0.592 1700
6.562 4.589 0.567 1532
6.563 4.589 0.544 1290
6.934 4.848 0.542 1544
6.928 4.844 0.517 1523
6.916 4.836 0.492 1290
7.176 5.018 0.480 1367
7.177 5.018 0.455 1072
7.171 5.014 0.429 782
7.165 5.010 0.403 802
7.172 5.015 0.378 795
6.797 4.753 0.341 797
11.655 8.150 0.445 869
1.232 0.861 0.167 1132
1.226 0.857 0.162 2107
1.226 0.857 0.158 2783
1.226 0.857 0.154 3261
1.219 0.852 0.150 3458
1.219 0.853 0.146 3350
1.213 0.848 0.141 3077
1.206 0.843 0.137 2731
1.213 0.848 0.133 2429
1.213 0.848 0.129 1807
1.206 0.843 0.125 1359
1.206 0.843 0.121 942
1.213 0.848 0.116 682
1.212 0.848 0.112 522
1.206 0.843 0.108 363
1.212 0.848 0.104 266
8.683 6.072 -0.157 276
8.683 6.071 -0.187 304
8.682 6.071 -0.218 333
8.681 6.070 -0.249 355
8.680 6.069 -0.280 378
8.679 6.069 -0.310 371
8.678 6.068 -0.341 363
8.677 6.067 -0.372 307
8.675 6.066 -0.403 251
1.366 0.955 0.052 252
1.366 0.955 0.047 265
1.366 0.955 0.043 269
0.989 0.692 0.047 252
0.989 0.691 0.043 378
0.989 0.691 0.040 580
0.995 0.696 0.036 783
0.995 0.695 0.033 1025
0.994 0.695 0.029 1267
0.988 0.691 0.027 1269
0.987 0.690 0.023 1274
0.987 0.690 0.020 1283
0.987 0.690 0.016 1170
0.986 0.690 0.013 1542
1.839 1.281 1.750 3850
1.843 1.284 1.744 7701
1.847 1.286 1.737 7701
1.861 1.296 1.740 7092
1.865 1.299 1.734 6782
1.890 1.316 1.746 6759
1.904 1.326 1.748 8942
1.908 1.329 1.742 8942
1.907 1.328 1.731 8162
1.894 1.320 1.710 8583
1.957 1.363 1.753 9327
1.955 1.362 1.742 10407
1.965 1.368 1.740 10517
1.974 1.375 1.737 10801
1.978 1.378 1.730 9261
1.987 1.384 1.728 7758
1.985 1.383 1.717 7740
1.984 1.382 1.705 6233
1.976 1.377 1.690 5014
1.980 1.379 1.683 4838
1.984 1.382 1.676 4663
1.993 1.388 1.673 3429
2.040 1.421 1.701 2928
2.055 1.432 1.702 4364
2.064 1.438 1.699 6003
2.068 1.441 1.692 8125
2.072 1.443 1.685 10247
2.075 1.446 1.677 11819
2.079 1.448 1.670 13391
2.088 1.455 1.667 10817
2.114 1.473 1.676 10226
2.129 1.483 1.677 13110
2.133 1.486 1.670 16502
2.142 1.492 1.666 16611
2.151 1.498 1.663 15256
2.160 1.505 1.659 14359
2.164 1.507 1.652 12950
2.162 1.506 1.640 11728
2.222 1.548 1.672 9765
2.231 1.554 1.669 8755
2.229 1.553 1.657 6862
2.165 1.508 1.602 4632
2.270 1.581 1.665 3612
2.251 1.568 1.641 4467
2.255 1.571 1.633 5271
2.247 1.565 1.618 4336
2.461 1.715 1.751 3255
2.465 1.717 1.742 4483
2.463 1.716 1.730 6138
2.461 1.715 1.717 6617
2.459 1.713 1.705 6187
2.446 1.704 1.685 4457
2.530 1.763 1.728 4682
2.522 1.757 1.712 3686
2.515 1.752 1.696 3805
2.524 1.758 1.691 4413
2.551 1.777 1.696 5037
2.543 1.772 1.680 7464
2.541 1.770 1.668 9498
2.551 1.777 1.662 10664
2.566 1.787 1.660 12026
2.575 1.794 1.655 12363
2.573 1.792 1.642 10554
2.629 1.832 1.665 17074
2.639 1.838 1.659 20875
2.648 1.845 1.653 21432
2.646 1.843 1.640 17267
2.608 1.817 1.607 11383
2.612 1.819 1.598 11013
2.645 1.842 1.606 14477
2.648 1.845 1.597 15648
2.658 1.851 1.591 14139
2.661 1.854 1.581 11139
2.665 1.856 1.572 9198
2.674 1.863 1.566 14226
2.677 1.865 1.556 19095
2.681 1.867 1.547 20769
2.684 1.870 1.538 19267
2.682 1.868 1.525 13387
2.685 1.870 1.516 7593
2.700 1.881 1.513 5156
2.697 1.879 1.500 7693
2.701 1.881 1.491 10797
2.704 1.883 1.481 9796
2.707 1.886 1.472 6585
2.710 1.888 1.462 5617
2.707 1.886 1.450 7916
2.717 1.892 1.443 11190
2.720 1.894 1.434 12113
2.723 1.897 1.424 8828
2.726 1.899 1.415 7597
2.729 1.901 1.405 13720
2.732 1.903 1.395 17027
2.741 1.909 1.389 15825
2.744 1.911 1.379 17011
2.753 1.918 1.372 17462
2.762 1.924 1.365 17238
2.765 1.926 1.356 16861
2.762 1.924 1.343 13490
2.771 1.930 1.336 8092
2.755 1.919 1.319 5859
2.770 1.930 1.314 5305
2.791 1.945 1.312 6479
2.807 1.955 1.308 6667
2.816 1.961 1.301 5530
2.794 1.946 1.280 6275
2.803 1.952 1.273 5864
2.824 1.967 1.271 7551
2.826 1.969 1.261 11494
2.829 1.971 1.251 13092
2.832 1.973 1.241 14199
2.834 1.974 1.231 13226
2.843 1.981 1.224 10823
2.846 1.982 1.214 9879
2.855 1.988 1.206 11808
2.863 1.995 1.199 14522
2.866 1.996 1.188 11501
2.875 2.002 1.181 8911
2.877 2.004 1.171 9920
2.879 2.006 1.161 7739
2.901 2.021 1.157 5239
2.909 2.027 1.149 7729
2.905 2.024 1.137 11380
2.908 2.026 1.127 8903
2.916 2.032 1.119 7116
2.919 2.033 1.108 7686
2.921 2.035 1.098 6176
2.848 1.984 1.063 6552
2.844 1.981 1.051 7551
2.928 2.039 1.067 8714
4.237 2.952 1.473 6314
4.228 2.945 1.454 4746
2.934 2.044 1.037 4332
2.930 2.041 1.024 5319
2.932 2.043 1.014 6906
2.928 2.040 1.002 5680
2.924 2.037 0.990 2218
4.196 2.923 1.350 2590
2.922 2.035 0.967 2895
3.828 2.667 1.214 3544
3.824 2.664 1.199 5434
3.802 2.648 1.178 6861
3.804 2.650 1.165 4480
4.213 2.934 1.261 4026
4.222 2.941 1.248 2805
4.262 2.969 1.243 2457
4.271 2.975 1.229 4236
4.280 2.982 1.216 5422
4.493 3.130 1.253 6059
4.502 3.136 1.239 4652
4.689 3.266 1.268 3435
4.698 3.273 1.253 4345
4.516 3.146 1.193 4371
4.518 3.147 1.177 4100
5.185 3.612 1.313 5489
5.194 3.618 1.296 6469
5.197 3.620 1.277 7559
5.200 3.622 1.259 9345
5.202 3.624 1.241 10126
5.198 3.621 1.221 8745
5.207 3.627 1.204 5479
5.210 3.629 1.186 2863
5.206 3.626 1.166 2131
5.215 3.633 1.149 2815
5.224 3.639 1.132 3167
5.586 3.891 1.181 2692
5.582 3.888 1.160 3126
6.252 4.355 1.261 3277
6.236 4.344 1.235 5035
6.232 4.341 1.212 4167
6.157 4.289 1.177 4262
6.153 4.286 1.154 4783
6.156 4.288 1.133 4541
6.171 4.298 1.113 4256
6.173 4.300 1.091 5417
6.162 4.293 1.067 6499
6.165 4.294 1.045 6109
6.167 4.296 1.024 5572
6.156 4.288 1.000 6039
6.152 4.285 0.977 5370
6.115 4.259 0.951 5711
6.130 4.270 0.931 6280
6.138 4.276 0.910 5808
6.140 4.277 0.888 5497
6.142 4.278 0.866 6064
6.143 4.279 0.845 5881
6.145 4.280 0.823 4425
6.153 4.286 0.802 3825
6.155 4.287 0.780 3337
6.538 4.554 0.797 3331
6.527 4.546 0.773 2425
6.567 4.574 0.753 2475
6.562 4.571 0.730 3250
6.557 4.567 0.706 3947
6.565 4.573 0.683 3694
6.559 4.569 0.659 2993
6.574 4.579 0.637 2217
6.594 4.593 0.615 1998
6.602 4.599 0.592 1658
6.564 4.572 0.567 1538
6.572 4.578 0.544 1335
6.942 4.836 0.542 1461
6.937 4.832 0.517 1569
6.925 4.824 0.492 1257
7.185 5.005 0.480 1225
7.179 5.001 0.454 1016
7.174 4.997 0.429 843
7.174 4.997 0.403 754
6.792 4.731 0.365 707
1.227 0.855 0.175 1182
1.227 0.855 0.171 1798
1.227 0.855 0.167 2518
1.221 0.850 0.162 3502
1.221 0.850 0.158 3992
1.221 0.850 0.154 4005
1.221 0.850 0.150 4013
1.221 0.850 0.146 4072
1.214 0.846 0.141 3780
1.214 0.846 0.137 3410
1.214 0.846 0.133 2653
1.208 0.841 0.129 1641
1.208 0.841 0.125 1198
1.214 0.846 0.121 687
1.221 0.850 0.116 390
1.220 0.850 0.112 290
4.876 3.396 -0.215 256
0.996 0.694 0.039 430
0.996 0.694 0.036 630
0.996 0.694 0.033 856
0.996 0.693 0.029 1081
0.995 0.693 0.026 1113
0.995 0.693 0.022 1177
0.995 0.693 0.019 1210
0.988 0.688 0.016 1085
0.988 0.688 0.013 1314
1.847 1.281 1.755 3747
1.850 1.284 1.749 7494
1.854 1.287 1.742 7494
1.863 1.293 1.740 7067
1.867 1.296 1.734 6782
1.892 1.313 1.746 6955
1.907 1.323 1.748 9157
1.911 1.326 1.742 9157
1.914 1.328 1.735 8119
1.897 1.316 1.710 8053
1.959 1.360 1.753 8745
1.958 1.358 1.742 9646
1.967 1.365 1.740 10144
1.971 1.368 1.733 10651
1.980 1.374 1.730 8888
1.989 1.380 1.728 7316
1.988 1.379 1.717 7265
1.992 1.382 1.710 5515
2.039 1.415 1.738 4870
1.977 1.372 1.678 4363
1.986 1.378 1.676 4541
1.985 1.377 1.665 3532
2.043 1.418 1.701 2724
2.063 1.432 1.706 4279
2.067 1.434 1.699 5908
2.071 1.437 1.692 8195
2.074 1.439 1.685 10482
2.078 1.442 1.677 11897
2.082 1.444 1.670 13312
2.085 1.447 1.663 10656
2.117 1.469 1.676 9587
2.132 1.479 1.677 12729
2.135 1.482 1.670 16398
2.145 1.488 1.666 16286
2.154 1.494 1.663 15129
2.163 1.501 1.659 14595
2.167 1.503 1.652 13032
2.165 1.502 1.640 11551
2.225 1.544 1.672 9748
2.234 1.550 1.669 8812
2.232 1.549 1.657 7098
2.236 1.551 1.649 4396
2.273 1.577 1.665 3767
2.402 1.666 1.742 4697
2.258 1.567 1.633 5155
2.256 1.565 1.622 4182
2.465 1.710 1.751 2978
2.463 1.709 1.738 4451
2.461 1.707 1.726 6747
2.465 1.710 1.717 7485
2.468 1.713 1.709 6848
2.449 1.699 1.685 4792
2.528 1.754 1.724 4296
2.526 1.752 1.712 3506
2.518 1.747 1.696 4051
2.522 1.750 1.687 4808
2.537 1.760 1.685 4949
2.541 1.763 1.677 6978
2.544 1.765 1.668 8721
2.554 1.772 1.662 9597
2.569 1.783 1.660 10843
2.579 1.789 1.655 11395
2.582 1.792 1.646 10466
2.633 1.827 1.665 16384
2.636 1.829 1.655 19755
2.652 1.840 1.653 20054
2.649 1.838 1.640 16032
2.612 1.812 1.607 12508
2.621 1.819 1.602 12085
2.648 1.838 1.606 15197
2.652 1.840 1.597 16531
2.661 1.846 1.591 14350
2.665 1.849 1.581 10969
2.662 1.847 1.569 8794
2.672 1.854 1.563 13132
2.675 1.856 1.553 17926
2.684 1.862 1.547 19655
2.688 1.865 1.538 18437
2.685 1.863 1.525 12889
2.682 1.861 1.513 7205
2.686 1.863 1.503 5382
2.695 1.870 1.497 8190
2.704 1.876 1.491 10288
2.707 1.879 1.481 9275
2.705 1.877 1.469 6935
2.696 1.870 1.453 6380
2.705 1.877 1.447 7871
2.714 1.883 1.440 10477
2.723 1.889 1.434 11582
2.726 1.892 1.424 8887
2.729 1.894 1.415 8320
2.732 1.896 1.405 14493
2.735 1.898 1.395 17614
2.744 1.904 1.389 14433
2.747 1.906 1.379 14708
2.757 1.913 1.372 16028
2.766 1.919 1.365 15739
2.769 1.921 1.356 16219
2.771 1.923 1.346 14411
2.774 1.925 1.336 9647
2.765 1.918 1.321 7347
2.768 1.920 1.312 6177
2.789 1.935 1.310 6346
2.804 1.946 1.305 6687
2.813 1.952 1.298 5088
2.785 1.932 1.275 5638
2.806 1.947 1.273 5515
2.827 1.962 1.271 7103
2.830 1.964 1.261 10511
2.833 1.965 1.251 12154
2.835 1.967 1.241 13785
2.838 1.969 1.231 13321
2.847 1.975 1.224 11134
2.849 1.977 1.214 10748
2.858 1.983 1.206 12982
2.867 1.989 1.199 16106
2.869 1.991 1.188 12917
2.872 1.993 1.178 9063
2.881 1.999 1.171 11165
2.883 2.000 1.161 10055
2.892 2.007 1.153 6153
2.907 2.017 1.147 8103
2.909 2.019 1.137 12679
2.912 2.020 1.127 10138
2.920 2.026 1.119 7185
2.916 2.023 1.106 8029
2.925 2.029 1.098 7422
2.852 1.979 1.063 6899
2.854 1.980 1.053 8098
2.932 2.034 1.067 8934
2.934 2.036 1.057 6646
2.930 2.033 1.045 3557
2.938 2.039 1.037 4630
2.934 2.036 1.024 5475
2.936 2.037 1.014 6976
2.932 2.034 1.002 5499
3.768 2.615 1.238 2400
4.201 2.915 1.350 2306
3.837 2.662 1.229 3063
3.833 2.660 1.214 4295
3.829 2.657 1.199 6317
3.807 2.641 1.178 7500
3.809 2.643 1.165 5030
4.218 2.927 1.261 4233
4.227 2.933 1.248 3171
3.969 2.754 1.165 2546
4.270 2.963 1.228 4121
4.286 2.974 1.216 5519
4.499 3.121 1.253 6297
4.501 3.123 1.238 4770
4.325 3.001 1.178 3756
4.321 2.998 1.162 4289
4.522 3.137 1.193 4514
4.518 3.135 1.176 4889
5.192 3.602 1.313 4876
5.201 3.609 1.296 5767
5.203 3.610 1.277 7309
5.206 3.612 1.259 9600
5.209 3.614 1.241 10477
5.205 3.612 1.221 9115
5.214 3.618 1.204 5788
5.217 3.620 1.186 3016
5.213 3.617 1.166 2199
5.222 3.623 1.149 2934
5.230 3.629 1.132 3447
5.593 3.880 1.181 2646
5.589 3.878 1.160 2956
6.267 4.348 1.262 2957
6.244 4.332 1.235 4338
6.240 4.329 1.212 3573
6.165 4.278 1.177 4061
6.161 4.275 1.154 4677
6.163 4.277 1.133 4419
6.179 4.287 1.113 4040
6.175 4.284 1.090 5286
6.170 4.281 1.067 6413
6.173 4.283 1.045 6090
6.168 4.280 1.023 5589
6.157 4.272 0.999 6390
6.121 4.247 0.972 5894
6.123 4.248 0.951 7338
6.138 4.259 0.931 7694
6.146 4.264 0.910 7052
6.148 4.266 0.888 6486
6.149 4.267 0.866 6439
6.151 4.268 0.845 5812
6.153 4.269 0.823 4327
6.161 4.275 0.802 3911
6.162 4.276 0.780 3422
6.546 4.542 0.797 3252
6.535 4.534 0.773 2426
6.575 4.562 0.753 2151
6.570 4.559 0.730 2988
6.565 4.555 0.706 3801
6.573 4.561 0.683 3634
6.568 4.557 0.659 3001
6.582 4.567 0.637 2189
6.603 4.581 0.615 1941
6.610 4.587 0.592 1609
6.572 4.560 0.567 1541
6.573 4.561 0.543 1380
6.919 4.801 0.540 1185
6.920 4.801 0.516 1233
7.193 4.991 0.505 1168
7.194 4.992 0.480 1118
7.189 4.988 0.454 873
6.702 4.650 0.409 737
6.702 4.650 0.385 673
1.228 0.852 0.179 704
1.222 0.848 0.175 1162
1.222 0.848 0.171 1515
1.222 0.848 0.167 1879
1.216 0.843 0.162 2773
1.216 0.843 0.158 3320
1.222 0.848 0.154 3876
1.222 0.848 0.150 4438
1.216 0.844 0.146 4525
1.216 0.844 0.141 4329
1.216 0.844 0.137 4007
1.216 0.844 0.133 3526
1.216 0.844 0.129 2597
1.216 0.844 0.125 1907
1.216 0.843 0.121 1108
1.222 0.848 0.116 554
1.222 0.848 0.112 359
8.704 6.039 -0.218 272
8.703 6.038 -0.249 282
8.702 6.038 -0.280 292
8.701 6.037 -0.310 282
8.700 6.036 -0.341 272
1.363 0.946 0.052 260
1.363 0.946 0.048 264
1.369 0.950 0.043 267
1.369 0.950 0.038 259
1.375 0.954 0.033 250
0.991 0.688 0.040 358
0.991 0.687 0.037 480
0.997 0.692 0.033 686
0.997 0.692 0.029 894
0.997 0.691 0.026 954
0.996 0.691 0.022 1052
0.996 0.691 0.019 1090
0.996 0.691 0.016 993
0.995 0.691 0.012 1256
1.849 1.278 1.755 3724
1.853 1.280 1.749 7448
1.857 1.283 1.742 7448
1.866 1.289 1.740 7097
1.870 1.292 1.734 6807
1.895 1.309 1.746 7151
1.909 1.319 1.748 9348
1.913 1.322 1.742 9348
1.917 1.325 1.735 8090
1.899 1.313 1.710 7495
1.957 1.352 1.749 8115
1.960 1.355 1.742 8875
1.970 1.361 1.740 9720
1.974 1.364 1.733 10607
1.977 1.366 1.726 8593
1.992 1.377 1.728 6974
1.996 1.379 1.721 6918
1.994 1.378 1.710 5040
2.041 1.411 1.738 5020
1.980 1.368 1.678 4208
1.989 1.375 1.676 4770
1.987 1.373 1.665 3909
1.985 1.372 1.654 3105
2.066 1.428 1.706 4211
2.070 1.430 1.699 5813
2.073 1.433 1.692 8213
2.077 1.435 1.685 10613
2.081 1.438 1.677 11839
2.084 1.440 1.670 13065
2.088 1.443 1.663 10449
2.114 1.461 1.672 8972
2.129 1.471 1.673 12132
2.138 1.478 1.670 15876
2.142 1.480 1.662 15637
2.157 1.490 1.663 14667
2.166 1.497 1.659 14504
2.170 1.499 1.652 12863
2.173 1.502 1.644 11221
2.228 1.539 1.672 9515
2.231 1.542 1.665 8712
2.235 1.544 1.657 7116
2.238 1.547 1.649 4339
2.276 1.573 1.665 3632
2.405 1.662 1.742 5454
2.414 1.669 1.737 6085
2.418 1.671 1.729 4879
2.428 1.678 1.724 3679
2.466 1.704 1.738 4409
2.464 1.703 1.726 7327
2.474 1.709 1.721 8305
2.472 1.708 1.709 7532
2.452 1.695 1.685 5093
2.531 1.749 1.724 3821
2.523 1.744 1.708 3420
2.515 1.738 1.692 4445
2.519 1.741 1.683 5210
2.534 1.751 1.682 5060
2.544 1.758 1.677 6555
2.548 1.761 1.668 7964
2.551 1.763 1.659 8431
2.572 1.778 1.660 9470
2.582 1.784 1.655 10522
2.650 1.831 1.684 10518
2.630 1.818 1.661 15666
2.640 1.824 1.655 18479
2.655 1.835 1.653 18436
2.653 1.833 1.640 14684
2.621 1.811 1.611 13894
2.631 1.818 1.605 13425
2.646 1.828 1.602 15520
2.655 1.835 1.597 16998
2.659 1.837 1.587 14574
2.668 1.844 1.581 11092
2.666 1.842 1.569 8454
2.675 1.849 1.563 11958
2.678 1.851 1.553 16502
2.682 1.853 1.544 18176
2.685 1.856 1.535 17303
2.683 1.854 1.522 11939
2.686 1.856 1.513 6921
2.689 1.858 1.503 6318
2.692 1.861 1.494 9276
2.708 1.871 1.491 9526
2.705 1.869 1.478 8713
2.696 1.863 1.463 9655
2.699 1.865 1.453 10102
2.702 1.867 1.444 9908
2.712 1.874 1.437 10867
2.727 1.884 1.434 11121
2.736 1.891 1.427 8947
2.733 1.889 1.415 9189
2.730 1.887 1.402 15115
2.739 1.893 1.395 17731
2.742 1.895 1.386 12880
2.751 1.901 1.379 12183
2.760 1.907 1.372 14253
2.769 1.914 1.365 13998
2.772 1.916 1.356 15134
2.775 1.918 1.346 14841
2.778 1.920 1.336 11130
2.775 1.917 1.324 9100
2.771 1.915 1.312 7376
2.780 1.921 1.305 6846
2.795 1.932 1.300 6873
2.810 1.942 1.295 4688
2.789 1.927 1.275 5088
2.810 1.942 1.273 5582
2.825 1.952 1.268 7046
2.828 1.954 1.259 9562
2.836 1.960 1.251 11028
2.839 1.962 1.241 13080
2.842 1.964 1.231 12997
2.851 1.970 1.224 11096
2.853 1.972 1.214 11540
2.862 1.978 1.206 13816
2.864 1.980 1.196 17211
2.867 1.981 1.186 14419
2.876 1.987 1.178 10003
2.878 1.989 1.168 12571
2.887 1.995 1.161 12039
2.889 1.997 1.150 8181
2.904 2.007 1.145 8876
2.913 2.013 1.137 13315
2.915 2.015 1.127 11191
2.918 2.016 1.116 7670
2.920 2.018 1.106 7921
2.929 2.024 1.098 7394
2.862 1.978 1.065 7196
2.858 1.975 1.053 8446
2.942 2.033 1.069 8942
2.931 2.026 1.055 7453
2.934 2.027 1.045 4847
2.942 2.033 1.037 5147
2.938 2.030 1.024 5522
2.940 2.032 1.014 6672
2.942 2.033 1.004 5083
3.780 2.612 1.239 2690
3.814 2.636 1.235 2229
3.836 2.651 1.227 2814
3.838 2.652 1.214 4252
3.834 2.650 1.199 6570
3.811 2.634 1.178 8348
3.808 2.631 1.163 5756
4.230 2.923 1.262 4129
4.239 2.929 1.249 3211
3.974 2.746 1.165 2712
4.276 2.955 1.228 3563
4.291 2.966 1.216 5138
4.504 3.113 1.253 6307
4.507 3.115 1.238 4807
4.337 2.997 1.180 4251
4.327 2.990 1.162 4578
4.534 3.133 1.194 4661
4.524 3.126 1.176 5916
4.513 3.119 1.157 6512
5.208 3.599 1.296 5485
5.210 3.601 1.277 7354
5.213 3.603 1.259 9870
5.216 3.604 1.241 10732
5.212 3.602 1.221 9311
5.221 3.608 1.204 5986
5.223 3.610 1.186 3052
5.219 3.607 1.166 2092
5.235 3.618 1.150 2977
5.237 3.619 1.132 3732
5.233 3.616 1.112 2895
5.596 3.867 1.160 2740
5.592 3.864 1.139 2754
6.252 4.320 1.235 3579
6.248 4.318 1.212 2945
6.173 4.266 1.177 3720
6.169 4.263 1.154 4455
6.172 4.265 1.133 4202
6.180 4.271 1.112 3744
6.183 4.273 1.090 5081
6.178 4.270 1.067 6325
6.174 4.267 1.045 5980
6.170 4.264 1.022 5495
6.140 4.243 0.996 6564
6.129 4.235 0.972 6050
6.124 4.232 0.950 6888
6.146 4.247 0.931 6805
6.160 4.257 0.911 6173
6.149 4.250 0.887 5922
6.151 4.251 0.866 6280
6.153 4.252 0.844 5317
6.154 4.253 0.822 3691
6.169 4.263 0.802 3364
6.171 4.264 0.780 3077
6.548 4.525 0.796 3097
6.550 4.526 0.773 2363
6.584 4.550 0.753 1935
6.572 4.542 0.729 2831
6.574 4.543 0.706 3708
6.582 4.548 0.683 3602
6.576 4.545 0.659 3006
6.513 4.501 0.631 2337
6.611 4.569 0.615 1909
6.612 4.570 0.592 1609
6.581 4.548 0.567 1615
6.582 4.549 0.543 1469
6.589 4.554 0.521 1138
6.916 4.779 0.515 1032
7.203 4.978 0.505 1033
6.885 4.758 0.465 1001
6.788 4.691 0.436 922
6.795 4.696 0.413 869
6.796 4.696 0.389 741
11.731 8.107 0.529 704
11.719 8.099 0.487 822
11.720 8.099 0.446 955
6.791 4.693 0.293 798
1.224 0.846 0.162 1192
1.217 0.841 0.158 1354
1.224 0.846 0.154 1416
1.224 0.846 0.150 1623
1.224 0.846 0.146 1743
1.224 0.846 0.141 1815
1.217 0.841 0.137 1907
1.217 0.841 0.133 1955
1.217 0.841 0.129 1869
1.217 0.841 0.125 1741
1.217 0.841 0.121 1456
1.217 0.841 0.116 1164
1.217 0.841 0.112 878
1.217 0.841 0.108 592
1.217 0.841 0.104 427
1.217 0.841 0.100 261
0.992 0.686 0.037 303
0.998 0.690 0.033 432
0.992 0.685 0.030 565
0.991 0.685 0.027 613
0.998 0.689 0.022 703
0.997 0.689 0.019 749
0.990 0.684 0.016 719
0.990 0.684 0.013 990
1.856 1.278 1.760 3748
1.860 1.281 1.753 7496
1.864 1.284 1.747 7496
1.868 1.286 1.740 7181
1.872 1.289 1.734 6866
1.897 1.306 1.746 7281
1.911 1.316 1.748 9448
1.915 1.319 1.742 9448
1.919 1.321 1.735 8021
1.944 1.339 1.747 7039
1.959 1.349 1.749 7596
1.963 1.352 1.742 8179
1.967 1.354 1.735 9349
1.970 1.357 1.728 10520
1.980 1.363 1.726 8418
1.994 1.373 1.728 6697
1.998 1.376 1.721 6667
2.029 1.397 1.736 4843
2.044 1.407 1.738 5077
2.053 1.414 1.735 4160
1.991 1.371 1.676 5097
1.989 1.370 1.665 4256
1.993 1.372 1.658 3483
2.068 1.424 1.706 4103
2.072 1.427 1.699 5615
2.076 1.429 1.692 8070
2.079 1.432 1.685 10525
2.083 1.434 1.677 11562
2.087 1.437 1.670 12599
2.091 1.440 1.663 10084
2.116 1.457 1.672 8309
2.131 1.468 1.673 11383
2.141 1.474 1.670 15012
2.144 1.477 1.662 14684
2.159 1.487 1.663 13957
2.168 1.493 1.659 14131
2.172 1.496 1.652 12475
2.181 1.502 1.648 10847
2.230 1.536 1.672 9091
2.234 1.538 1.665 8369
2.237 1.541 1.657 6965
2.241 1.543 1.649 4270
2.279 1.569 1.665 3546
2.408 1.658 1.742 6080
2.417 1.665 1.737 6883
2.421 1.667 1.729 5634
2.425 1.670 1.720 4386
2.434 1.676 1.716 4973
2.467 1.699 1.726 7886
2.476 1.705 1.721 9159
2.474 1.704 1.709 8134
2.455 1.691 1.685 5422
2.453 1.689 1.673 3705
2.509 1.728 1.697 3819
2.518 1.734 1.692 5094
2.522 1.737 1.683 5902
2.532 1.743 1.678 5547
2.541 1.750 1.673 6362
2.638 1.817 1.721 7849
2.642 1.819 1.712 8207
2.646 1.822 1.703 8397
2.591 1.784 1.658 10170
2.653 1.827 1.684 10724
2.627 1.809 1.658 15162
2.637 1.816 1.652 17215
2.658 1.830 1.653 16795
2.632 1.813 1.627 14012
2.624 1.807 1.611 15208
2.634 1.813 1.605 14399
2.649 1.824 1.602 15340
2.658 1.831 1.597 16773
2.662 1.833 1.587 14568
2.671 1.839 1.581 11432
2.669 1.838 1.569 8447
2.678 1.844 1.563 10625
2.682 1.847 1.553 14574
2.685 1.849 1.544 16473
2.688 1.851 1.535 15991
2.686 1.849 1.522 11074
2.689 1.852 1.513 6926
2.686 1.850 1.500 7516
2.695 1.856 1.494 10267
2.699 1.858 1.484 9158
2.696 1.856 1.472 9344
2.699 1.859 1.463 13635
2.702 1.861 1.453 14898
2.705 1.863 1.444 13412
2.709 1.865 1.434 12454
2.724 1.876 1.431 10825
2.733 1.882 1.424 8933
2.730 1.880 1.412 10435
2.733 1.882 1.402 15849
2.736 1.884 1.393 17773
2.745 1.890 1.386 11736
2.754 1.897 1.379 9539
2.763 1.903 1.372 12009
2.772 1.909 1.365 11908
2.769 1.907 1.353 13591
2.778 1.913 1.346 14593
2.781 1.915 1.336 12260
2.778 1.913 1.324 10744
2.775 1.911 1.312 8349
2.783 1.917 1.305 7496
2.792 1.923 1.297 7256
2.789 1.921 1.285 4782
2.792 1.922 1.275 4747
