1.341 2.340 1.768 7385
1.344 2.344 1.761 7463
1.349 2.354 1.757 7543
1.352 2.358 1.749 6152
1.391 2.427 1.786 5884
1.370 2.390 1.750 6496
1.369 2.388 1.738 7338
1.371 2.392 1.730 6844
1.373 2.396 1.722 6351
1.430 2.495 1.778 6123
1.432 2.499 1.770 6792
1.435 2.503 1.762 6032
1.437 2.507 1.753 5794
1.443 2.518 1.749 5754
1.445 2.522 1.741 8303
1.444 2.520 1.728 10856
1.446 2.524 1.720 9441
1.445 2.522 1.708 5517
1.444 2.520 1.696 3099
1.477 2.578 1.721 4428
1.476 2.576 1.709 6225
1.479 2.580 1.701 6407
1.526 2.663 1.740 6273
1.521 2.654 1.724 7009
1.531 2.671 1.723 5860
1.554 2.711 1.736 5113
1.560 2.721 1.731 5385
1.573 2.744 1.732 5901
1.578 2.754 1.727 6547
1.584 2.764 1.721 5943
1.590 2.774 1.716 4380
1.652 2.883 1.767 4349
1.655 2.887 1.757 4051
1.657 2.891 1.747 6244
1.659 2.895 1.738 8864
1.647 2.874 1.714 9437
1.682 2.934 1.736 9083
1.680 2.932 1.723 8623
1.683 2.936 1.713 8987
1.688 2.946 1.707 10365
1.701 2.969 1.707 9571
1.718 2.997 1.710 9332
1.731 3.020 1.710 7203
1.726 3.012 1.694 6159
1.732 3.022 1.687 5276
1.767 3.082 1.706 6657
1.765 3.080 1.693 5619
1.767 3.084 1.682 3541
1.773 3.094 1.675 2678
1.859 3.243 1.738 2812
1.861 3.247 1.727 4190
1.870 3.263 1.722 3834
1.804 3.147 1.653 5094
1.810 3.157 1.645 4857
1.877 3.275 1.690 4161
1.930 3.368 1.721 4445
1.925 3.359 1.704 7172
1.920 3.351 1.687 7945
1.974 3.444 1.717 5323
1.976 3.448 1.706 6087
1.953 3.407 1.674 6875
1.966 3.430 1.671 8270
2.034 3.549 1.712 7024
2.040 3.559 1.703 7957
2.050 3.576 1.697 7120
2.056 3.586 1.688 7094
2.062 3.597 1.678 7862
2.064 3.601 1.666 7563
2.070 3.611 1.657 5343
2.116 3.692 1.678 6935
2.126 3.709 1.671 7382
2.135 3.726 1.664 7891
2.171 3.788 1.676 6813
2.177 3.798 1.666 4931
2.187 3.815 1.658 3613
2.189 3.819 1.646 3225
2.239 3.907 1.666 6078
2.245 3.918 1.656 8082
2.318 4.045 1.691 6008
2.324 4.055 1.680 6492
2.323 4.053 1.664 7139
2.325 4.057 1.650 4677
2.353 4.106 1.654 3015
2.356 4.110 1.640 5263
2.358 4.114 1.627 7116
2.367 4.131 1.618 4556
2.437 4.252 1.646 5051
2.451 4.276 1.639 4177
2.464 4.299 1.632 6014
2.466 4.303 1.617 6655
2.469 4.307 1.603 5121
2.588 4.515 1.658 4118
2.590 4.519 1.643 3248
2.600 4.536 1.632 2602
2.602 4.539 1.617 2435
2.604 4.543 1.602 4811
2.606 4.547 1.587 5932
2.631 4.590 1.585 5658
2.641 4.607 1.573 6352
2.643 4.611 1.558 4972
2.641 4.608 1.541 9015
2.647 4.618 1.527 10093
2.717 4.741 1.548 8475
2.716 4.738 1.530 4881
2.939 5.127 1.627 4358
2.945 5.138 1.612 5147
2.951 5.148 1.597 4725
2.960 5.165 1.584 3020
3.028 5.282 1.598 4570
3.030 5.286 1.580 4105
3.036 5.296 1.565 3782
3.038 5.300 1.547 2743
3.274 5.712 1.637 2188
3.284 5.729 1.622 2533
3.405 5.941 1.656 2742
3.411 5.951 1.638 3891
3.413 5.955 1.618 3891
3.473 6.059 1.623 3357
3.479 6.070 1.604 3555
3.485 6.080 1.586 2727
3.499 6.104 1.570 2696
3.713 6.478 1.636 2686
3.715 6.482 1.614 2313
3.787 6.607 1.620 2630
3.905 6.813 1.643 2281
3.915 6.830 1.623 2558
3.905 6.814 1.596 2954
3.903 6.810 1.572 2352
4.088 7.132 1.615 1906
4.268 7.446 1.655 2027
4.270 7.450 1.630 1935
4.350 7.589 1.632 1806
4.247 7.410 1.571 1384
4.700 8.200 1.696 1907
4.710 8.217 1.671 2379
4.720 8.235 1.646 2028
4.971 8.673 1.697 1504
4.969 8.670 1.667 1691
4.968 8.667 1.637 1543
4.966 8.664 1.607 1382
4.754 8.294 1.515 1610
5.344 9.324 1.655 1940
5.350 9.335 1.625 2703
5.348 9.332 1.593 3368
5.351 9.335 1.561 3337
5.353 9.339 1.530 2248
1.160 2.024 0.429 1695
5.825 10.164 1.584 1408
5.831 10.174 1.551 1280
1.161 2.026 0.409 1201
1.166 2.034 0.403 953
6.283 10.963 1.550 1042
1.186 2.069 0.394 1032
1.182 2.063 0.386 1100
1.187 2.071 0.380 696
0.987 1.723 0.333 550
0.988 1.723 0.327 912
0.984 1.717 0.321 1726
0.980 1.710 0.315 2333
0.977 1.704 0.308 2333
0.977 1.704 0.303 2112
0.977 1.705 0.297 1709
0.973 1.698 0.291 1086
0.981 1.712 0.287 967
0.982 1.713 0.281 1275
0.982 1.713 0.275 1348
0.986 1.720 0.270 1173
0.982 1.714 0.264 772
0.979 1.707 0.258 414
0.979 1.708 0.253 264
1.090 1.902 0.185 266
1.090 1.902 0.178 339
1.087 1.896 0.172 477
1.087 1.896 0.166 630
1.087 1.896 0.160 771
1.087 1.896 0.153 1104
1.083 1.889 0.147 1301
1.083 1.889 0.141 1456
1.087 1.896 0.135 1612
1.087 1.896 0.128 1483
1.087 1.896 0.122 1078
1.083 1.889 0.116 818
1.087 1.896 0.110 623
1.086 1.896 0.104 442
1.086 1.896 0.097 322
1.082 1.887 0.048 253
1.082 1.887 0.042 411
1.081 1.887 0.036 569
1.081 1.887 0.029 784
1.081 1.886 0.023 998
1.081 1.886 0.017 1175
1.081 1.886 0.011 1352
1.081 1.885 0.005 1537
1.084 1.892 -0.002 1725
1.084 1.891 -0.008 1656
1.088 1.898 -0.015 1594
1.088 1.898 -0.021 1594
1.087 1.897 -0.027 1234
1.091 1.904 -0.034 896
1.091 1.903 -0.041 1176
1.090 1.903 -0.047 1455
1.090 1.902 -0.053 1461
1.090 1.902 -0.059 1466
1.090 1.901 -0.066 1049
1.093 1.907 -0.073 639
1.093 1.907 -0.079 639
1.093 1.906 -0.085 460
1.088 1.899 -0.090 285
1.088 1.898 -0.097 259
1.087 1.897 -0.109 289
1.155 2.000 1.778 3884
1.158 2.004 1.771 7769
1.160 2.008 1.765 7769
1.166 2.018 1.763 6005
1.184 2.050 1.779 5703
1.190 2.060 1.777 4286
1.218 2.109 1.806 4135
1.221 2.113 1.799 4135
1.220 2.112 1.788 4421
1.216 2.104 1.772 4880
1.221 2.114 1.770 4914
1.227 2.124 1.767 4999
1.229 2.128 1.760 5116
1.271 2.200 1.806 5808
1.274 2.205 1.799 5808
1.273 2.203 1.787 7702
1.269 2.196 1.771 9953
1.271 2.200 1.764 8787
1.273 2.204 1.756 7614
1.272 2.202 1.745 6377
1.271 2.201 1.733 5340
1.304 2.257 1.764 4761
1.303 2.255 1.753 6506
1.305 2.259 1.745 7714
1.307 2.263 1.738 8921
1.310 2.267 1.730 7619
1.346 2.330 1.764 6960
1.352 2.339 1.761 6877
1.357 2.349 1.757 6874
1.366 2.365 1.758 5650
1.403 2.428 1.791 5500
1.409 2.438 1.787 5442
1.377 2.383 1.738 5672
1.379 2.387 1.730 5336
1.385 2.397 1.726 5006
1.439 2.490 1.778 6490
1.441 2.494 1.770 7579
1.443 2.498 1.762 6987
1.446 2.503 1.753 7101
1.452 2.513 1.749 7331
1.454 2.517 1.741 10334
1.453 2.515 1.728 13439
1.455 2.519 1.720 11505
1.454 2.517 1.708 6126
1.449 2.509 1.692 2736
1.483 2.567 1.718 4353
1.485 2.571 1.709 6197
1.491 2.581 1.704 6687
1.539 2.663 1.744 6979
1.537 2.661 1.732 7176
1.543 2.671 1.726 5764
1.567 2.712 1.740 4939
1.569 2.716 1.731 5438
1.582 2.738 1.732 5726
1.588 2.748 1.727 6046
1.590 2.752 1.718 5335
1.656 2.867 1.773 3531
1.666 2.883 1.770 4511
1.671 2.893 1.764 4281
1.667 2.885 1.747 6190
1.666 2.883 1.734 9004
1.657 2.869 1.714 10309
1.659 2.872 1.705 9286
1.701 2.944 1.733 8141
1.696 2.936 1.716 8186
1.698 2.940 1.707 9279
1.712 2.963 1.707 9395
1.728 2.992 1.710 9080
1.745 3.020 1.714 5911
1.747 3.024 1.704 3881
1.778 3.078 1.720 5593
1.777 3.076 1.706 7505
1.779 3.080 1.696 6375
1.778 3.078 1.682 4275
1.820 3.151 1.707 3369
1.804 3.123 1.681 3172
1.876 3.247 1.730 4638
1.882 3.257 1.722 4686
1.818 3.147 1.656 5170
1.820 3.151 1.645 5039
1.943 3.364 1.735 4126
1.942 3.361 1.721 4954
1.937 3.353 1.704 7536
1.935 3.350 1.690 8338
1.934 3.348 1.676 5781
2.002 3.466 1.718 6374
1.964 3.400 1.674 6383
1.978 3.423 1.671 7364
2.046 3.542 1.712 7916
2.052 3.552 1.703 8624
2.058 3.563 1.694 6657
2.083 3.605 1.699 6264
2.092 3.622 1.692 8220
2.083 3.606 1.672 8016
2.082 3.604 1.657 5474
2.129 3.685 1.678 6001
2.142 3.708 1.674 6102
2.182 3.777 1.688 6950
2.191 3.793 1.681 6993
2.194 3.797 1.668 4829
2.200 3.808 1.658 3561
2.247 3.889 1.677 3482
2.253 3.899 1.666 7074
2.259 3.910 1.656 8471
2.265 3.920 1.645 6808
2.338 4.047 1.680 6034
2.337 4.045 1.664 6206
2.339 4.049 1.650 3869
2.371 4.105 1.656 3107
2.370 4.102 1.640 4372
2.372 4.106 1.627 5793
2.450 4.240 1.660 3758
2.452 4.244 1.646 5235
2.465 4.268 1.639 4291
2.479 4.291 1.632 6180
2.485 4.301 1.620 7181
2.483 4.298 1.603 5568
2.603 4.506 1.658 4057
2.605 4.510 1.643 3812
2.615 4.527 1.632 3590
2.621 4.537 1.620 4153
2.623 4.541 1.604 4980
2.637 4.564 1.596 4376
2.650 4.588 1.587 5773
2.656 4.598 1.573 6974
2.658 4.602 1.558 5441
2.657 4.599 1.541 9734
2.662 4.609 1.527 10863
2.672 4.626 1.516 6082
2.674 4.629 1.501 4763
2.956 5.117 1.627 3936
2.962 5.128 1.612 4905
2.964 5.131 1.595 4480
3.036 5.255 1.612 3289
3.046 5.272 1.598 5384
3.048 5.276 1.580 4302
3.058 5.293 1.566 3476
3.056 5.290 1.547 3031
3.247 5.620 1.616 2057
3.423 5.925 1.676 2432
3.425 5.929 1.656 3406
3.431 5.939 1.638 4277
3.430 5.936 1.616 4383
3.432 5.940 1.596 3046
3.496 6.051 1.603 3074
3.498 6.055 1.582 2484
3.589 6.213 1.599 3011
3.731 6.458 1.634 2720
3.737 6.469 1.614 2309
3.805 6.587 1.618 2632
4.060 7.028 1.694 1998
3.946 6.830 1.626 1857
3.932 6.807 1.597 2208
4.118 7.127 1.642 1702
4.112 7.118 1.615 1676
4.293 7.432 1.655 2150
4.370 7.564 1.656 2231
4.376 7.575 1.632 2177
4.386 7.592 1.609 1517
4.368 7.562 1.577 1533
4.742 8.208 1.673 1765
4.752 8.225 1.648 1891
4.770 8.256 1.625 1400
4.995 8.646 1.666 1600
4.993 8.643 1.636 1490
4.995 8.647 1.607 1406
5.366 9.288 1.684 1515
5.372 9.299 1.654 1989
5.382 9.316 1.625 2840
5.384 9.320 1.594 3544
5.382 9.317 1.561 3419
5.381 9.314 1.529 2214
1.167 2.020 0.429 2405
1.168 2.021 0.422 3133
1.168 2.022 0.415 2398
1.168 2.022 0.409 1639
1.165 2.016 0.401 1541
1.165 2.017 0.394 1303
1.169 2.024 0.389 911
6.565 11.364 1.527 870
6.748 11.681 1.526 779
6.774 11.725 1.492 555
0.990 1.713 0.327 873
0.986 1.707 0.320 1647
0.986 1.707 0.315 1959
0.982 1.701 0.308 1722
0.983 1.701 0.303 1327
0.983 1.701 0.297 1110
0.987 1.709 0.292 1365
0.987 1.709 0.287 1729
0.988 1.709 0.281 1742
0.988 1.710 0.275 1605
0.988 1.710 0.270 1262
0.988 1.710 0.264 776
0.984 1.704 0.258 441
0.985 1.704 0.253 314
1.097 1.899 0.185 258
1.097 1.899 0.178 334
1.093 1.892 0.172 440
1.089 1.885 0.166 570
1.089 1.885 0.159 741
1.093 1.892 0.153 1093
1.093 1.892 0.147 1272
1.089 1.885 0.141 1235
1.089 1.885 0.135 1210
1.089 1.885 0.128 1069
1.089 1.885 0.122 779
1.093 1.892 0.116 628
1.703 2.948 0.093 523
1.703 2.947 0.083 495
1.703 2.947 0.073 425
1.703 2.947 0.063 356
1.702 2.947 0.054 292
1.655 2.864 0.047 269
1.088 1.884 0.048 296
1.088 1.883 0.042 476
1.088 1.883 0.036 656
1.088 1.883 0.029 947
1.088 1.883 0.023 1238
1.087 1.882 0.017 1633
1.087 1.882 0.011 2029
1.091 1.888 0.004 2514
1.091 1.888 -0.002 3005
1.091 1.888 -0.008 3204
1.090 1.887 -0.014 3402
1.090 1.887 -0.021 3402
1.094 1.893 -0.027 3128
1.094 1.893 -0.034 2879
1.093 1.892 -0.040 2226
1.089 1.885 -0.045 1631
1.089 1.885 -0.052 1215
1.085 1.877 -0.057 808
1.084 1.877 -0.063 575
4.201 7.272 -0.686 393
1.084 1.876 -0.076 342
4.821 8.345 -0.865 276
4.820 8.343 -0.893 276
1.164 1.995 1.778 3432
1.166 1.999 1.771 6865
1.169 2.003 1.765 6865
1.171 2.007 1.758 6560
1.177 2.017 1.756 6372
1.182 2.027 1.754 5933
1.185 2.031 1.747 5498
1.187 2.035 1.741 5498
1.193 2.045 1.738 4060
1.231 2.111 1.781 4025
1.227 2.103 1.765 5033
1.229 2.107 1.758 6093
1.235 2.117 1.756 6024
1.280 2.195 1.806 6772
1.283 2.199 1.799 6772
1.282 2.198 1.787 8550
1.281 2.196 1.775 10616
1.280 2.195 1.764 9130
1.283 2.199 1.756 7626
1.285 2.203 1.749 6172
1.270 2.178 1.721 4775
1.313 2.251 1.764 6053
1.312 2.250 1.753 8260
1.315 2.254 1.745 9535
1.317 2.258 1.738 10810
1.319 2.262 1.730 9114
1.322 2.266 1.723 7418
1.361 2.334 1.761 6142
1.367 2.344 1.757 5864
1.376 2.359 1.758 4784
1.416 2.428 1.795 5905
1.422 2.438 1.791 6160
1.428 2.448 1.787 6551
1.430 2.452 1.778 5891
1.433 2.456 1.770 5230
1.446 2.478 1.774 6778
1.451 2.488 1.770 8451
1.450 2.486 1.758 8256
1.456 2.496 1.753 8458
1.462 2.506 1.749 8693
1.461 2.505 1.737 12214
1.463 2.509 1.728 15754
1.466 2.513 1.720 13387
1.464 2.511 1.708 7214
1.488 2.550 1.722 3629
1.494 2.560 1.718 4971
1.499 2.570 1.713 6598
1.502 2.574 1.704 7199
1.550 2.657 1.744 7292
1.552 2.661 1.735 7198
1.555 2.665 1.726 5415
1.578 2.705 1.740 4924
1.584 2.715 1.734 5743
1.590 2.726 1.729 5470
1.596 2.736 1.723 4960
1.602 2.746 1.718 4139
1.668 2.860 1.773 3375
1.678 2.876 1.770 4687
1.680 2.880 1.760 4750
1.679 2.878 1.747 6107
1.678 2.876 1.734 8096
1.669 2.862 1.714 9841
1.668 2.859 1.702 8969
1.713 2.937 1.733 7607
1.709 2.929 1.716 7325
1.711 2.933 1.707 8036
1.724 2.955 1.707 9198
1.744 2.990 1.714 9416
1.761 3.019 1.717 5399
1.785 3.061 1.726 3996
1.791 3.071 1.720 6091
1.794 3.075 1.709 7764
1.792 3.072 1.696 6501
1.827 3.133 1.714 5185
1.833 3.143 1.707 4993
1.832 3.141 1.693 4306
1.893 3.245 1.733 5066
1.895 3.249 1.722 5535
1.831 3.140 1.656 4815
1.834 3.143 1.645 4814
1.961 3.362 1.739 4347
1.956 3.353 1.721 4888
1.951 3.345 1.704 7099
1.946 3.336 1.687 8442
1.952 3.346 1.679 6278
2.017 3.458 1.718 6041
2.049 3.513 1.729 6209
2.055 3.523 1.721 6447
2.061 3.533 1.712 8536
2.063 3.537 1.700 8840
2.092 3.586 1.708 5714
2.109 3.615 1.707 7558
2.108 3.613 1.692 10298
2.106 3.611 1.678 8828
2.097 3.595 1.657 5467
2.144 3.676 1.678 4592
2.150 3.686 1.668 4543
2.201 3.774 1.691 6817
2.207 3.784 1.681 6824
2.210 3.788 1.668 4342
2.212 3.792 1.656 3386
2.263 3.880 1.677 4234
2.269 3.890 1.666 7226
2.275 3.900 1.656 8266
2.281 3.911 1.645 7838
2.283 3.914 1.632 6195
2.354 4.035 1.664 5500
2.356 4.039 1.650 3655
2.385 4.088 1.654 3487
2.387 4.092 1.640 3715
2.389 4.096 1.627 4227
2.467 4.230 1.660 3453
2.470 4.234 1.646 5555
2.479 4.251 1.637 4568
2.497 4.281 1.632 5469
2.503 4.291 1.620 6895
2.497 4.281 1.601 6171
2.492 4.272 1.582 4746
2.624 4.499 1.643 4067
2.626 4.503 1.628 4526
2.640 4.526 1.620 5283
2.646 4.536 1.607 4308
2.660 4.560 1.598 2785
2.670 4.577 1.587 4420
2.676 4.587 1.573 5888
2.678 4.590 1.558 5028
2.676 4.587 1.541 8938
2.682 4.598 1.527 9666
2.703 4.634 1.522 7173
2.732 4.684 1.520 6160
2.688 4.608 1.481 3382
2.980 5.109 1.610 3854
2.982 5.112 1.593 3497
3.062 5.249 1.614 3449
3.064 5.253 1.596 5283
3.058 5.243 1.575 4095
3.060 5.246 1.557 2853
3.074 5.270 1.545 3124
3.255 5.580 1.609 2597
3.448 5.911 1.676 2438
3.450 5.914 1.656 3433
3.456 5.925 1.638 4082
3.458 5.929 1.618 4222
3.457 5.926 1.596 3089
3.521 6.036 1.603 2242
3.512 6.020 1.578 2312
3.619 6.204 1.600 3112
3.621 6.208 1.579 3096
3.627 6.218 1.560 2326
4.009 6.873 1.687 2486
4.015 6.884 1.665 2311
4.088 7.008 1.669 2147
4.047 6.938 1.629 1727
4.049 6.942 1.606 1842
4.185 7.174 1.630 1770
4.329 7.420 1.656 2101
4.401 7.546 1.656 2386
4.408 7.556 1.632 2317
4.414 7.567 1.608 1518
4.400 7.543 1.577 1388
4.418 7.574 1.557 1583
4.790 8.212 1.649 1641
4.800 8.229 1.624 1396
5.023 8.612 1.663 1420
5.026 8.615 1.634 1323
5.028 8.619 1.605 1256
5.405 9.266 1.684 1513
5.411 9.276 1.654 1915
5.421 9.294 1.625 2451
5.427 9.304 1.595 2991
5.422 9.294 1.561 2761
5.416 9.284 1.528 1866
1.176 2.015 0.429 2035
1.176 2.016 0.422 3252
1.172 2.010 0.414 3226
1.173 2.011 0.408 2674
1.173 2.011 0.401 2346
1.174 2.012 0.394 1828
1.174 2.013 0.388 1084
6.795 11.649 1.566 1033
6.797 11.653 1.526 973
6.827 11.704 1.493 639
0.997 1.709 0.327 824
0.997 1.709 0.321 1358
0.997 1.710 0.315 1303
0.998 1.710 0.310 1076
0.994 1.704 0.303 1183
0.990 1.697 0.297 1507
0.990 1.698 0.292 1920
0.995 1.705 0.287 1928
0.995 1.705 0.281 1551
0.991 1.699 0.275 1190
0.995 1.706 0.270 798
0.991 1.699 0.264 459
0.992 1.700 0.258 298
1.097 1.881 0.172 355
1.097 1.881 0.166 486
1.097 1.881 0.159 591
1.097 1.881 0.153 754
1.097 1.881 0.147 812
1.097 1.881 0.141 793
1.093 1.874 0.135 785
1.097 1.881 0.128 685
1.097 1.881 0.122 468
1.719 2.947 0.102 357
1.719 2.947 0.093 284
1.671 2.865 0.056 254
1.671 2.864 0.046 386
1.667 2.857 0.037 467
1.667 2.857 0.028 555
1.666 2.857 0.018 488
1.666 2.856 0.009 420
1.666 2.856 -0.001 291
1.100 1.885 0.035 261
1.100 1.885 0.029 378
1.099 1.885 0.023 496
1.099 1.884 0.017 687
1.099 1.884 0.010 879
1.099 1.884 0.004 1071
1.099 1.883 -0.002 1264
1.098 1.883 -0.008 1282
1.098 1.883 -0.014 1299
1.098 1.882 -0.021 1299
1.102 1.889 -0.027 1202
1.102 1.888 -0.034 1131
1.101 1.888 -0.040 923
1.101 1.887 -0.046 716
1.101 1.887 -0.052 508
1.104 1.893 -0.059 302
1.104 1.893 -0.066 349
1.108 1.899 -0.073 400
1.107 1.898 -0.079 400
1.107 1.898 -0.085 335
1.103 1.891 -0.090 273
1.169 1.985 1.773 3144
1.171 1.989 1.767 6288
1.173 1.993 1.760 6288
1.179 2.003 1.758 7033
1.185 2.012 1.756 7928
1.187 2.016 1.749 7657
1.193 2.026 1.747 7478
1.195 2.030 1.741 7478
1.201 2.040 1.738 5302
1.207 2.049 1.736 3450
1.229 2.087 1.756 4897
1.234 2.097 1.754 6644
1.244 2.112 1.756 6409
1.289 2.190 1.806 7124
1.292 2.194 1.799 7124
1.291 2.193 1.787 8948
1.290 2.191 1.775 11011
1.289 2.189 1.764 9520
1.291 2.194 1.756 8041
1.294 2.198 1.749 7150
1.300 2.207 1.746 6307
1.319 2.240 1.760 7236
1.325 2.250 1.757 9141
1.324 2.248 1.745 10580
1.326 2.252 1.738 12027
1.328 2.256 1.730 10207
1.331 2.260 1.723 8387
1.333 2.264 1.715 5560
1.373 2.332 1.753 4791
1.427 2.424 1.807 4618
1.430 2.428 1.799 6540
1.435 2.438 1.795 6877
1.441 2.448 1.791 7365
1.440 2.446 1.778 6405
1.443 2.451 1.770 5521
1.456 2.472 1.774 6726
1.461 2.482 1.770 8766
1.460 2.481 1.758 9034
1.466 2.491 1.753 9022
1.469 2.495 1.745 9062
1.471 2.499 1.737 12657
1.473 2.503 1.728 16252
1.472 2.501 1.716 13877
1.478 2.511 1.712 7806
1.494 2.538 1.719 4947
1.504 2.554 1.718 5468
1.510 2.564 1.713 6898
1.512 2.568 1.704 7214
1.561 2.651 1.744 6844
1.563 2.655 1.735 6641
1.526 2.592 1.686 4942
1.528 2.596 1.677 4941
1.591 2.703 1.731 5818
1.597 2.713 1.725 5194
1.603 2.723 1.720 3832
1.566 2.660 1.671 2974
1.676 2.847 1.769 3299
1.682 2.857 1.763 4614
1.627 2.763 1.697 5875
1.633 2.773 1.692 6472
1.635 2.777 1.682 7364
1.677 2.849 1.711 8903
1.676 2.846 1.698 8445
1.725 2.930 1.733 7262
1.728 2.934 1.723 7316
1.723 2.926 1.707 7359
1.740 2.955 1.710 9037
1.760 2.990 1.717 9654
1.773 3.012 1.717 5416
1.798 3.053 1.726 4245
1.804 3.064 1.720 6042
1.810 3.074 1.713 7066
1.819 3.090 1.709 5964
1.840 3.125 1.714 5982
1.846 3.136 1.707 5752
1.845 3.133 1.693 4876
1.906 3.237 1.733 5076
1.905 3.235 1.719 5981
1.903 3.233 1.705 4351
1.976 3.356 1.753 4158
1.978 3.360 1.742 4243
1.973 3.352 1.724 4156
1.964 3.337 1.704 5943
1.959 3.328 1.687 7982
1.962 3.332 1.676 6450
2.024 3.437 1.712 4924
2.063 3.504 1.729 6365
2.069 3.515 1.721 6702
2.075 3.525 1.712 8484
2.078 3.529 1.700 8714
2.114 3.590 1.714 5369
2.124 3.607 1.707 8438
2.126 3.611 1.695 11514
2.124 3.608 1.680 9370
2.119 3.599 1.663 5661
2.152 3.655 1.672 4170
2.158 3.665 1.663 4240
2.217 3.765 1.691 6137
2.223 3.775 1.681 5841
2.229 3.785 1.671 3632
2.250 3.822 1.671 3375
2.275 3.864 1.674 4166
2.285 3.881 1.666 6360
2.291 3.891 1.656 7598
2.297 3.901 1.645 7996
2.299 3.905 1.632 6629
2.366 4.019 1.661 6185
2.376 4.036 1.653 4654
2.397 4.072 1.651 4075
2.407 4.089 1.643 3695
2.406 4.086 1.627 3348
2.488 4.226 1.663 4555
2.491 4.230 1.649 6713
2.497 4.241 1.637 5734
2.506 4.257 1.627 6532
2.513 4.268 1.615 7213
2.507 4.258 1.596 7024
2.505 4.255 1.580 7876
2.511 4.266 1.568 7380
2.645 4.492 1.628 5208
2.654 4.509 1.617 5176
2.664 4.526 1.607 3773
2.694 4.575 1.606 2218
2.696 4.579 1.591 3689
2.702 4.589 1.578 5283
2.708 4.599 1.564 5622
2.698 4.583 1.543 7101
2.720 4.620 1.537 7832
2.730 4.636 1.526 9166
2.747 4.666 1.518 7869
2.753 4.676 1.505 3609
3.016 5.123 1.618 2932
2.999 5.094 1.591 2575
3.028 5.144 1.587 2736
3.081 5.233 1.594 4193
3.079 5.230 1.575 3786
3.246 5.513 1.634 2923
3.260 5.537 1.620 3630
3.270 5.554 1.605 3485
3.280 5.571 1.590 1859
3.474 5.901 1.656 2653
3.480 5.911 1.638 3203
3.482 5.915 1.618 3249
3.480 5.912 1.596 2397
3.553 6.036 1.606 1675
3.670 6.233 1.632 1959
3.648 6.197 1.602 2687
3.650 6.200 1.581 2789
4.035 6.853 1.710 2102
4.037 6.857 1.687 2929
4.043 6.867 1.665 2792
4.097 6.958 1.661 2419
4.079 6.929 1.631 2742
4.077 6.926 1.606 3016
4.079 6.929 1.583 2542
4.358 7.403 1.656 1930
4.436 7.534 1.657 2385
4.505 7.653 1.655 2308
4.508 7.656 1.629 1655
4.704 7.990 1.666 1142
4.452 7.563 1.558 1314
4.589 7.795 1.575 1733
4.595 7.806 1.550 1416
4.828 8.200 1.594 1159
5.056 8.588 1.633 1069
4.820 8.187 1.535 1086
5.442 9.244 1.684 1435
5.444 9.248 1.653 1791
5.451 9.258 1.623 2085
5.461 9.275 1.594 2674
5.459 9.272 1.561 2438
5.457 9.269 1.529 1708
1.184 2.011 0.429 2778
1.180 2.005 0.421 3290
1.181 2.005 0.414 2930
1.181 2.006 0.408 2270
1.181 2.007 0.401 2039
1.190 2.021 0.396 2011
1.198 2.035 0.391 1445
6.842 11.621 1.566 1099
6.844 11.625 1.526 1015
6.878 11.683 1.493 646
6.884 11.693 1.455 616
1.004 1.705 0.321 657
1.004 1.706 0.315 769
1.000 1.699 0.309 975
1.001 1.700 0.303 1270
0.997 1.693 0.297 1613
0.997 1.694 0.292 1696
0.997 1.694 0.286 1303
0.998 1.694 0.281 853
0.994 1.688 0.274 584
0.998 1.695 0.269 387
1.395 2.369 0.315 478
1.395 2.370 0.307 592
1.395 2.370 0.299 638
1.396 2.371 0.291 633
1.396 2.371 0.283 578
1.396 2.371 0.275 453
1.400 2.379 0.268 380
1.396 2.372 0.259 307
1.723 2.927 0.190 291
1.727 2.933 0.181 396
1.727 2.934 0.171 494
1.727 2.934 0.161 597
1.723 2.927 0.151 602
1.727 2.934 0.142 533
1.101 1.869 0.135 492
1.101 1.869 0.129 424
1.731 2.940 0.112 304
1.731 2.940 0.102 266
1.667 2.831 0.094 256
1.675 2.844 0.075 266
1.679 2.851 0.066 325
1.678 2.851 0.056 372
1.678 2.851 0.047 419
1.674 2.844 0.037 451
1.674 2.843 0.028 487
1.678 2.850 0.018 498
1.678 2.850 0.009 518
1.677 2.849 -0.001 427
1.681 2.856 -0.011 336
2.166 3.680 -0.067 376
2.170 3.686 -0.080 359
1.103 1.874 0.023 380
1.103 1.873 0.017 455
1.107 1.880 0.010 530
1.102 1.873 0.005 503
1.102 1.872 -0.002 476
1.106 1.879 -0.008 521
1.106 1.878 -0.014 584
1.106 1.878 -0.021 584
1.109 1.884 -0.027 765
1.109 1.884 -0.034 951
1.109 1.883 -0.040 950
1.109 1.883 -0.046 949
1.108 1.882 -0.052 797
1.108 1.882 -0.059 646
1.108 1.881 -0.065 465
2.510 4.264 -0.345 304
2.510 4.263 -0.359 304
2.505 4.255 -0.372 387
2.504 4.253 -0.387 472
1.172 1.976 1.769 2978
1.174 1.980 1.762 5957
1.177 1.984 1.756 5957
1.182 1.993 1.754 7446
1.188 2.003 1.752 9188
1.194 2.013 1.749 9058
1.199 2.022 1.747 9161
1.202 2.026 1.741 9161
1.207 2.036 1.738 6531
1.213 2.045 1.736 4319
1.229 2.072 1.747 4840
1.238 2.087 1.749 6085
1.254 2.114 1.760 5700
1.296 2.186 1.806 7044
1.299 2.190 1.799 7044
1.298 2.188 1.787 8984
1.297 2.187 1.775 11038
1.299 2.191 1.768 9792
1.302 2.195 1.761 8496
1.304 2.199 1.753 8325
1.310 2.209 1.750 8175
1.326 2.236 1.760 8082
1.329 2.240 1.753 9324
1.331 2.244 1.745 10953
1.333 2.248 1.738 12582
1.336 2.252 1.730 10782
1.338 2.256 1.723 8982
1.340 2.260 1.715 5862
1.436 2.421 1.819 3346
1.438 2.425 1.811 5226
1.441 2.429 1.803 7106
1.447 2.439 1.799 7370
1.453 2.449 1.795 7856
1.452 2.448 1.782 6838
1.419 2.393 1.734 5923
1.464 2.468 1.774 6808
1.470 2.478 1.770 8721
1.468 2.476 1.758 9392
1.471 2.480 1.749 9111
1.470 2.478 1.737 8918
1.476 2.488 1.733 12314
1.478 2.492 1.725 15797
1.480 2.496 1.716 13488
1.490 2.512 1.716 7837
1.499 2.528 1.715 5698
1.509 2.544 1.714 5649
1.518 2.559 1.713 6626
1.524 2.569 1.708 6596
1.530 2.579 1.703 6035
1.568 2.644 1.732 5863
1.534 2.587 1.686 5600
1.537 2.591 1.677 5810
1.543 2.601 1.672 6096
1.602 2.702 1.722 5133
1.605 2.706 1.712 4157
1.600 2.698 1.696 3679
1.609 2.714 1.694 3852
1.623 2.736 1.696 5877
1.632 2.752 1.694 8286
1.642 2.768 1.692 7822
1.648 2.778 1.686 7962
1.643 2.770 1.670 8157
1.681 2.835 1.695 7559
1.735 2.925 1.733 7606
1.737 2.929 1.723 8199
1.732 2.920 1.707 7561
1.767 2.980 1.727 8911
1.770 2.984 1.717 9356
1.798 3.031 1.730 5056
1.808 3.048 1.726 4319
1.817 3.064 1.723 5728
1.823 3.074 1.716 6181
1.840 3.103 1.718 5646
1.850 3.119 1.714 5813
1.856 3.130 1.707 5628
1.855 3.127 1.693 4669
1.913 3.225 1.730 4615
1.911 3.223 1.716 5753
1.914 3.227 1.705 5363
1.987 3.350 1.753 4394
1.993 3.360 1.745 4267
2.003 3.377 1.739 3776
1.971 3.324 1.701 4336
1.966 3.315 1.684 6946
1.972 3.325 1.676 6084
2.065 3.481 1.735 4243
2.071 3.491 1.726 6735
2.077 3.502 1.718 7043
2.083 3.512 1.709 8308
2.085 3.516 1.697 8588
2.088 3.520 1.685 5322
2.135 3.600 1.707 8347
2.134 3.598 1.692 11449
2.136 3.601 1.680 8873
2.135 3.599 1.665 5957
2.144 3.616 1.659 5584
2.158 3.639 1.655 5220
2.229 3.758 1.691 5067
2.235 3.768 1.681 4246
2.256 3.804 1.681 2938
2.274 3.833 1.679 3876
2.276 3.837 1.666 4547
2.313 3.899 1.677 5339
2.311 3.897 1.661 6675
2.313 3.900 1.648 7207
2.381 4.014 1.677 6887
2.379 4.011 1.661 8180
2.385 4.022 1.650 6311
2.403 4.051 1.647 4086
2.424 4.087 1.645 3626
2.496 4.208 1.674 3111
2.502 4.218 1.663 5668
2.504 4.222 1.649 8164
2.510 4.232 1.637 7073
2.520 4.249 1.627 8569
2.522 4.253 1.613 9172
2.517 4.244 1.594 9067
2.519 4.247 1.580 10894
2.525 4.257 1.568 10943
2.527 4.261 1.553 7124
2.673 4.507 1.620 4834
2.718 4.582 1.628 3298
2.716 4.580 1.610 4123
2.722 4.590 1.597 5790
2.724 4.594 1.582 7069
2.734 4.610 1.570 8841
2.740 4.620 1.557 9060
2.743 4.624 1.541 9163
2.745 4.627 1.526 10819
2.751 4.638 1.512 8521
2.757 4.648 1.499 5011
2.755 4.644 1.481 3069
2.772 4.674 1.473 2269
3.045 5.134 1.587 2418
3.090 5.210 1.591 3747
3.081 5.194 1.567 3645
3.267 5.509 1.635 2817
3.278 5.526 1.620 3408
3.288 5.543 1.605 3262
3.294 5.553 1.588 1750
3.426 5.776 1.627 2240
3.499 5.900 1.638 1994
3.501 5.903 1.618 1972
3.421 5.767 1.563 1904
3.593 6.057 1.614 1469
3.717 6.268 1.644 1795
3.842 6.478 1.672 2438
3.845 6.482 1.650 2247
4.088 6.893 1.722 2275
4.067 6.857 1.690 3101
4.069 6.861 1.667 3099
4.095 6.905 1.653 2771
4.102 6.915 1.631 3638
4.100 6.912 1.606 3946
4.102 6.916 1.583 3247
4.351 7.335 1.645 2242
4.361 7.352 1.623 2320
4.530 7.638 1.655 2535
4.532 7.642 1.629 1793
4.786 8.069 1.685 2228
4.784 8.066 1.656 1848
4.615 7.780 1.575 1839
4.621 7.791 1.550 1439
4.850 8.178 1.592 980
4.840 8.161 1.561 965
4.839 8.158 1.532 1293
5.468 9.219 1.683 1446
5.470 9.223 1.652 1813
5.481 9.241 1.623 1760
5.495 9.264 1.595 2147
5.493 9.261 1.562 1997
1.202 2.026 0.438 2547
1.198 2.020 0.431 3628
1.195 2.014 0.423 3196
1.195 2.015 0.416 2546
1.191 2.009 0.409 2738
1.188 2.003 0.401 2570
1.188 2.003 0.394 2093
1.193 2.011 0.389 1349
6.884 11.606 1.566 1087
6.882 11.603 1.526 984
6.920 11.667 1.494 675
6.922 11.671 1.455 694
7.350 12.392 1.494 506
1.006 1.696 0.315 586
1.002 1.689 0.308 878
1.002 1.690 0.303 1087
1.002 1.690 0.297 1281
1.003 1.690 0.292 1161
0.999 1.684 0.285 691
0.999 1.684 0.280 426
1.406 2.371 0.331 427
1.402 2.364 0.322 567
1.403 2.365 0.315 842
1.403 2.365 0.307 1056
1.403 2.366 0.299 1137
1.403 2.366 0.291 1116
1.404 2.366 0.283 989
1.404 2.367 0.275 742
1.408 2.374 0.268 604
1.404 2.367 0.259 480
1.404 2.368 0.252 278
1.736 2.928 0.191 261
1.741 2.935 0.181 319
1.741 2.935 0.171 348
1.741 2.935 0.161 468
1.741 2.935 0.151 560
1.741 2.935 0.142 709
1.737 2.928 0.132 859
1.737 2.928 0.122 926
1.737 2.928 0.112 885
1.741 2.935 0.102 788
1.741 2.935 0.093 637
1.680 2.832 0.085 526
1.684 2.839 0.075 467
1.684 2.839 0.066 415
1.688 2.845 0.056 367
1.692 2.852 0.046 322
1.687 2.845 0.037 450
1.687 2.845 0.028 579
1.687 2.844 0.018 548
1.687 2.844 0.009 518
1.683 2.837 -0.001 427
1.678 2.830 -0.010 346
2.182 3.680 -0.068 344
2.182 3.679 -0.080 359
2.182 3.678 -0.092 374
2.181 3.678 -0.105 345
1.109 1.869 0.011 437
1.109 1.869 0.005 594
1.112 1.875 -0.002 753
1.112 1.875 -0.008 794
1.112 1.875 -0.014 836
1.112 1.874 -0.021 836
1.111 1.874 -0.027 758
1.111 1.873 -0.033 680
1.111 1.873 -0.039 601
1.111 1.873 -0.045 522
1.110 1.872 -0.052 474
1.114 1.878 -0.059 432
1.114 1.878 -0.065 323
2.520 4.249 -0.344 325
2.519 4.248 -0.358 325
2.519 4.246 -0.372 436
2.522 4.252 -0.388 546
2.521 4.251 -0.402 273
1.179 1.971 1.769 3161
1.182 1.975 1.762 6323
1.184 1.979 1.756 6323
1.190 1.989 1.754 8061
1.196 1.998 1.752 10117
1.201 2.008 1.749 10084
1.207 2.018 1.747 10422
1.210 2.022 1.741 10422
1.215 2.031 1.738 7400
1.221 2.041 1.736 4821
1.227 2.050 1.734 4669
1.243 2.077 1.745 5149
1.292 2.160 1.800 4765
1.305 2.181 1.806 6720
1.307 2.185 1.799 6720
1.306 2.183 1.787 8791
1.309 2.187 1.780 10830
1.308 2.186 1.768 9955
1.321 2.207 1.774 9379
1.320 2.205 1.762 9476
1.319 2.204 1.750 9786
1.324 2.214 1.747 9024
1.337 2.235 1.753 8923
1.340 2.239 1.745 10662
1.342 2.243 1.738 12400
1.344 2.247 1.730 10762
1.347 2.251 1.723 9124
1.349 2.255 1.715 5862
1.442 2.410 1.815 3797
1.448 2.420 1.811 5528
1.450 2.424 1.803 7337
1.456 2.434 1.799 7463
1.466 2.450 1.799 7911
1.465 2.448 1.786 7147
1.429 2.387 1.734 6980
1.434 2.397 1.730 6905
1.476 2.466 1.766 8304
1.478 2.470 1.758 9486
1.477 2.468 1.745 9159
1.479 2.472 1.737 9081
1.482 2.476 1.729 11952
1.488 2.486 1.725 15050
1.490 2.490 1.716 12841
1.496 2.500 1.712 7556
1.509 2.522 1.715 5354
1.515 2.532 1.710 5169
1.528 2.554 1.713 5594
1.534 2.564 1.708 5372
1.543 2.579 1.707 5457
1.546 2.583 1.698 5559
1.548 2.587 1.690 5910
1.554 2.597 1.685 6683
1.556 2.601 1.676 7088
1.562 2.611 1.671 5687
1.615 2.700 1.712 5834
1.618 2.703 1.703 6171
1.620 2.707 1.694 5808
1.633 2.729 1.696 7705
1.643 2.746 1.694 10515
1.649 2.756 1.688 9429
1.658 2.772 1.686 8851
1.657 2.769 1.673 8650
1.678 2.804 1.681 7176
1.746 2.918 1.733 8808
1.745 2.916 1.720 9994
1.743 2.914 1.707 8898
1.779 2.973 1.727 9298
1.781 2.977 1.717 9342
1.813 3.030 1.733 4855
1.830 3.059 1.736 4644
1.833 3.063 1.726 5517
1.839 3.073 1.719 5284
1.852 3.096 1.718 4524
1.866 3.118 1.718 4582
1.868 3.122 1.707 4538
1.871 3.126 1.697 3841
1.925 3.217 1.730 3912
1.924 3.215 1.716 5398
1.922 3.213 1.702 6441
1.928 3.223 1.695 5375
1.935 3.233 1.687 4230
2.019 3.375 1.742 3474
1.943 3.247 1.668 3328
1.979 3.308 1.684 5989
1.989 3.324 1.679 6111
2.074 3.467 1.732 4433
2.084 3.483 1.726 7374
2.083 3.481 1.712 7842
2.093 3.498 1.706 8316
2.095 3.501 1.694 8490
2.101 3.512 1.685 5793
2.145 3.585 1.704 7094
2.148 3.589 1.692 9824
2.150 3.593 1.680 7322
2.148 3.591 1.665 5567
2.162 3.614 1.662 6424
2.172 3.630 1.655 6585
2.239 3.743 1.688 4260
2.234 3.734 1.670 3575
2.290 3.827 1.695 3030
2.285 3.818 1.677 4917
2.291 3.829 1.666 5576
2.343 3.916 1.687 5895
2.345 3.920 1.674 7154
2.336 3.904 1.653 6064
2.396 4.005 1.677 8811
2.395 4.002 1.661 10807
2.397 4.006 1.648 8524
2.411 4.029 1.642 4948
2.444 4.085 1.648 3684
2.458 4.108 1.641 3747
2.518 4.209 1.663 5860
2.524 4.219 1.651 8668
2.530 4.229 1.639 7766
2.537 4.239 1.627 9851
2.535 4.237 1.611 10737
2.533 4.234 1.594 10192
2.535 4.237 1.580 12141
2.541 4.248 1.568 12616
2.544 4.251 1.553 8623
2.694 4.503 1.622 5093
2.724 4.552 1.622 4508
2.730 4.563 1.608 6573
2.740 4.579 1.597 8167
2.746 4.590 1.584 9290
2.752 4.600 1.570 11555
2.766 4.623 1.561 12341
2.768 4.627 1.546 11472
2.762 4.617 1.526 11755
2.772 4.633 1.514 8815
2.778 4.643 1.501 7453
2.776 4.640 1.483 5974
2.771 4.630 1.464 3353
3.108 5.195 1.608 2897
3.106 5.192 1.589 4620
3.101 5.182 1.567 3873
3.091 5.166 1.545 2633
3.303 5.520 1.622 2588
3.317 5.544 1.609 3069
3.323 5.554 1.592 2495
3.325 5.557 1.573 2289
3.446 5.760 1.605 1790
3.449 5.764 1.586 1546
3.443 5.754 1.563 1751
3.636 6.077 1.622 1947
3.630 6.067 1.599 2469
3.863 6.457 1.670 2273
3.866 6.460 1.648 2412
4.111 6.871 1.721 2281
4.101 6.855 1.693 3385
4.100 6.852 1.668 3369
4.118 6.882 1.651 3188
4.124 6.893 1.629 3908
4.126 6.896 1.606 4252
4.129 6.900 1.583 3480
4.379 7.318 1.645 2868
4.385 7.329 1.622 2950
4.556 7.614 1.653 2417
4.814 8.046 1.712 2769
4.817 8.050 1.685 3660
4.819 8.054 1.657 3091
4.821 8.058 1.630 2638
4.823 8.061 1.603 2171
4.826 8.065 1.576 1827
4.832 8.075 1.549 1653
4.866 8.133 1.531 1578
5.540 9.259 1.693 1610
5.502 9.195 1.651 1783
5.512 9.213 1.622 1215
5.539 9.257 1.597 1134
5.525 9.233 1.561 1066
6.381 10.665 1.746 1204
1.198 2.002 0.429 1818
1.202 2.010 0.423 2952
1.207 2.017 0.417 3306
1.211 2.025 0.411 2885
1.216 2.032 0.406 3198
1.212 2.026 0.398 3673
1.208 2.020 0.390 3494
1.209 2.020 0.384 2461
1.213 2.028 0.378 1150
6.977 11.661 1.497 741
6.967 11.644 1.455 752
7.341 12.269 1.484 628
7.343 12.273 1.442 723
7.345 12.276 1.400 595
1.009 1.686 0.303 667
1.005 1.679 0.297 656
1.005 1.680 0.291 513
1.005 1.680 0.285 325
1.411 2.358 0.338 574
1.411 2.359 0.330 818
1.411 2.359 0.322 1136
1.412 2.359 0.315 1740
1.412 2.360 0.307 2198
1.412 2.360 0.299 2370
1.412 2.361 0.291 2381
1.413 2.361 0.283 2248
1.413 2.361 0.275 1828
1.417 2.369 0.268 1555
1.413 2.362 0.259 1253
1.413 2.362 0.252 733
1.414 2.363 0.244 510
1.414 2.363 0.236 392
1.748 2.921 0.161 394
1.748 2.921 0.151 516
1.752 2.928 0.142 611
1.752 2.928 0.132 716
1.752 2.928 0.122 751
1.752 2.928 0.112 793
1.752 2.928 0.102 801
1.752 2.928 0.093 718
1.752 2.928 0.083 634
1.752 2.928 0.073 530
1.699 2.839 0.066 497
1.699 2.839 0.056 434
1.703 2.846 0.046 372
1.702 2.845 0.037 459
1.702 2.845 0.027 547
1.702 2.845 0.018 459
1.702 2.844 0.008 372
1.702 2.844 -0.001 410
1.706 2.850 -0.011 448
1.701 2.843 -0.020 383
1.701 2.843 -0.030 318
2.200 3.677 -0.093 320
2.196 3.669 -0.105 321
2.195 3.669 -0.117 323
1.116 1.865 0.005 357
1.116 1.864 -0.002 409
1.115 1.864 -0.008 405
1.115 1.864 -0.014 400
1.115 1.863 -0.020 399
1.119 1.870 -0.027 436
1.122 1.876 -0.034 484
1.122 1.876 -0.040 478
1.122 1.875 -0.046 473
1.122 1.875 -0.052 394
1.121 1.874 -0.059 316
2.535 4.237 -0.372 280
1.875 3.134 -0.248 322
1.875 3.133 -0.259 322
1.180 1.963 1.764 3309
1.182 1.967 1.757 6618
1.185 1.971 1.751 6618
1.194 1.986 1.754 8162
1.200 1.996 1.752 10091
1.205 2.005 1.749 10096
1.211 2.015 1.747 10476
1.214 2.019 1.741 10476
1.219 2.029 1.738 7344
1.225 2.038 1.736 4630
1.228 2.042 1.729 4502
1.247 2.074 1.745 4557
1.297 2.157 1.800 4596
1.306 2.172 1.801 6166
1.308 2.177 1.794 6166
1.311 2.181 1.787 8242
1.313 2.185 1.780 10295
1.316 2.189 1.772 9824
1.325 2.204 1.774 9963
1.324 2.203 1.762 9976
1.326 2.207 1.755 10253
1.329 2.211 1.747 9063
1.342 2.232 1.753 8048
1.341 2.230 1.741 9690
1.343 2.234 1.734 11400
1.349 2.244 1.730 9930
1.351 2.248 1.723 8539
1.354 2.252 1.715 5430
1.443 2.401 1.811 3959
1.453 2.417 1.811 5429
1.455 2.421 1.803 7103
1.461 2.431 1.799 7066
1.471 2.447 1.799 7573
1.473 2.451 1.790 7036
1.430 2.379 1.730 7466
1.439 2.394 1.730 7463
1.480 2.463 1.766 7781
1.483 2.467 1.758 9303
1.482 2.465 1.745 8999
1.484 2.469 1.737 8774
1.487 2.473 1.729 11348
1.493 2.483 1.725 14055
1.495 2.487 1.716 11898
1.501 2.497 1.712 6715
1.514 2.519 1.715 4071
1.520 2.529 1.710 4177
1.526 2.539 1.705 4406
1.550 2.578 1.719 4310
1.567 2.606 1.726 5202
1.569 2.610 1.717 5667
1.560 2.596 1.697 6362
1.563 2.600 1.688 7619
1.565 2.604 1.680 7919
1.571 2.614 1.675 6351
1.621 2.696 1.712 6807
1.623 2.700 1.703 7578
1.629 2.710 1.698 6926
1.642 2.732 1.699 8658
1.648 2.742 1.694 11551
1.654 2.752 1.688 10316
1.664 2.768 1.686 9365
1.663 2.766 1.673 9037
1.672 2.782 1.671 7148
1.752 2.915 1.733 9990
1.751 2.912 1.720 11343
1.749 2.910 1.707 9997
1.785 2.969 1.727 9416
1.784 2.967 1.714 9333
1.782 2.965 1.700 4972
1.837 3.055 1.736 4919
1.839 3.059 1.726 5487
1.841 3.063 1.716 4825
1.851 3.080 1.712 3651
1.872 3.115 1.718 3573
1.878 3.125 1.710 3559
1.881 3.129 1.700 3087
1.935 3.220 1.733 4009
1.878 3.124 1.673 5376
1.929 3.209 1.702 6757
1.935 3.219 1.695 6462
1.941 3.229 1.687 5397
1.947 3.239 1.679 4181
1.949 3.243 1.668 3270
1.986 3.304 1.684 4924
1.996 3.320 1.679 5973
2.043 3.400 1.703 5179
2.087 3.473 1.724 7524
2.090 3.477 1.712 8359
2.096 3.487 1.703 8203
2.102 3.497 1.694 8239
2.108 3.507 1.685 6069
2.153 3.581 1.704 5674
2.155 3.585 1.692 7734
2.153 3.583 1.678 5843
2.148 3.574 1.660 4818
2.173 3.616 1.664 6202
2.179 3.626 1.655 6914
2.239 3.725 1.683 4509
2.242 3.729 1.670 4806
2.298 3.823 1.695 4068
2.292 3.814 1.677 6019
2.295 3.818 1.664 6017
2.351 3.911 1.687 5876
2.357 3.921 1.676 7665
2.359 3.925 1.663 5988
2.404 4.000 1.677 9778
2.407 4.004 1.664 12385
2.409 4.007 1.650 10003
2.407 4.005 1.634 5688
2.468 4.105 1.657 4627
2.474 4.116 1.646 5281
2.531 4.210 1.665 5301
2.533 4.214 1.651 7889
2.543 4.231 1.641 7318
2.545 4.234 1.627 9522
2.543 4.232 1.611 10299
2.542 4.229 1.594 9304
2.544 4.232 1.580 10871
2.550 4.242 1.568 11345
2.552 4.246 1.553 7851
2.707 4.504 1.624 5125
2.729 4.540 1.619 4985
2.739 4.557 1.608 7279
2.749 4.574 1.597 8330
2.755 4.584 1.584 9395
2.765 4.601 1.573 11415
2.779 4.624 1.563 13696
2.781 4.627 1.548 13001
2.780 4.624 1.530 11351
2.786 4.634 1.516 8984
2.792 4.644 1.503 9622
2.790 4.641 1.485 8562
2.788 4.638 1.467 4203
3.119 5.188 1.608 3306
3.117 5.185 1.589 4279
3.115 5.182 1.569 3502
3.328 5.536 1.648 3549
3.330 5.540 1.629 3483
3.336 5.550 1.612 4021
3.338 5.554 1.594 3814
3.336 5.551 1.573 3409
3.339 5.554 1.554 2352
3.456 5.750 1.584 2018
3.634 6.046 1.638 1888
3.644 6.063 1.621 2704
3.646 6.066 1.600 3325
3.644 6.063 1.578 2375
3.879 6.453 1.648 2386
3.945 6.563 1.651 2019
4.111 6.840 1.691 3409
4.113 6.843 1.668 3271
4.132 6.874 1.651 3069
4.138 6.884 1.629 3551
4.144 6.895 1.607 3800
4.142 6.892 1.583 3022
4.398 7.316 1.647 3257
4.404 7.327 1.623 3322
4.828 8.032 1.739 2115
4.830 8.036 1.712 3413
4.833 8.040 1.685 4487
4.835 8.044 1.657 3834
4.837 8.048 1.630 3373
4.840 8.052 1.603 2844
4.846 8.062 1.577 2478
4.848 8.066 1.549 2285
4.878 8.116 1.530 1719
5.567 9.261 1.695 1820
5.516 9.178 1.650 1549
4.933 8.207 1.461 1232
5.484 9.124 1.578 1234
5.487 9.128 1.547 1195
6.403 10.652 1.746 1177
6.401 10.649 1.709 1110
6.395 10.640 1.671 1318
6.394 10.637 1.634 1383
6.392 10.634 1.597 1135
1.208 2.009 0.403 1032
1.204 2.003 0.395 1068
1.204 2.004 0.389 973
6.656 11.073 1.505 903
7.153 11.900 1.567 837
7.155 11.903 1.527 754
6.990 11.630 1.455 753
7.362 12.248 1.483 783
7.368 12.258 1.442 856
7.366 12.254 1.400 707
7.428 12.359 1.368 418
1.008 1.677 0.297 304
1.411 2.348 0.345 374
1.416 2.355 0.338 982
1.420 2.362 0.331 1397
1.416 2.356 0.322 1937
1.416 2.357 0.315 2920
1.417 2.357 0.307 3509
1.417 2.357 0.299 3667
1.417 2.358 0.291 3578
1.417 2.358 0.283 3255
1.418 2.359 0.275 2631
1.422 2.366 0.268 2244
1.418 2.359 0.259 1795
1.418 2.359 0.252 1003
1.418 2.360 0.244 658
1.182 1.967 0.219 531
1.178 1.960 0.213 546
1.178 1.960 0.206 456
1.178 1.960 0.200 343
1.758 2.925 0.151 291
1.758 2.925 0.142 349
1.758 2.925 0.132 407
1.758 2.925 0.122 422
1.758 2.925 0.112 401
1.758 2.924 0.102 365
1.705 2.836 0.094 419
1.701 2.829 0.085 510
1.701 2.829 0.075 536
1.700 2.829 0.066 562
1.700 2.829 0.056 496
1.700 2.829 0.047 429
1.700 2.828 0.037 373
1.700 2.828 0.028 317
1.700 2.828 0.018 387
1.704 2.834 0.009 459
1.703 2.834 -0.001 406
1.699 2.827 -0.010 355
1.123 1.868 -0.014 250
1.123 1.868 -0.021 250
1.126 1.874 -0.027 251
1.126 1.874 -0.034 259
4.282 7.124 -0.678 365
4.281 7.122 -0.702 475
4.276 7.113 -0.725 588
4.274 7.111 -0.749 588
4.273 7.109 -0.773 294
1.190 1.957 1.764 3322
1.193 1.961 1.757 6644
1.195 1.965 1.751 6644
1.201 1.975 1.749 8072
1.207 1.984 1.747 9875
1.212 1.994 1.745 9877
1.218 2.003 1.743 10095
1.221 2.007 1.736 10095
1.230 2.022 1.738 6847
1.276 2.099 1.790 4282
1.258 2.069 1.756 4403
1.261 2.073 1.749 4725
1.308 2.150 1.800 4342
1.317 2.166 1.801 5474
1.320 2.170 1.794 5474
1.284 2.112 1.739 7577
1.325 2.178 1.780 9584
1.330 2.188 1.777 9576
1.336 2.198 1.774 10205
1.339 2.202 1.766 9994
1.338 2.200 1.755 9903
1.340 2.204 1.747 8328
1.311 2.157 1.702 7175
1.352 2.223 1.741 8167
1.355 2.227 1.734 9745
1.357 2.231 1.726 8517
1.363 2.241 1.723 7424
1.365 2.245 1.715 4672
1.413 2.324 1.761 5639
1.462 2.403 1.807 5166
1.468 2.413 1.803 6599
1.474 2.423 1.799 6329
1.483 2.439 1.799 6771
1.486 2.443 1.790 6706
1.442 2.371 1.730 8089
1.452 2.387 1.730 8201
1.486 2.444 1.758 7475
1.492 2.454 1.754 9063
1.495 2.458 1.745 8732
1.497 2.462 1.737 8400
1.503 2.471 1.733 10745
1.505 2.475 1.725 13302
1.511 2.485 1.720 11106
1.521 2.501 1.719 6025
1.552 2.552 1.741 4976
1.555 2.556 1.733 4227
1.528 2.513 1.694 4752
1.534 2.523 1.689 4627
1.580 2.598 1.726 5846
1.582 2.602 1.717 6727
1.581 2.600 1.704 8054
1.580 2.598 1.692 9290
1.582 2.602 1.683 8945
1.585 2.606 1.675 6695
1.635 2.688 1.712 7551
1.641 2.698 1.707 8578
1.647 2.708 1.702 7617
1.660 2.730 1.703 9194
1.662 2.734 1.694 12077
1.668 2.744 1.688 10866
1.675 2.754 1.682 10061
1.673 2.751 1.670 10048
1.679 2.761 1.664 8317
1.767 2.905 1.733 11235
1.769 2.909 1.723 12281
1.764 2.901 1.707 10593
1.800 2.960 1.727 9560
1.799 2.958 1.714 9628
1.794 2.950 1.697 5944
1.852 3.046 1.736 5273
1.855 3.050 1.726 5630
1.857 3.054 1.716 4838
1.875 3.082 1.718 4777
1.884 3.099 1.714 4262
1.902 3.127 1.717 3552
1.908 3.138 1.709 3335
1.952 3.210 1.733 4889
1.894 3.114 1.673 5859
1.949 3.205 1.705 7033
1.955 3.215 1.698 7701
1.962 3.225 1.690 7038
1.964 3.229 1.679 5139
1.970 3.239 1.671 3188
2.056 3.381 1.726 5095
2.059 3.385 1.714 7627
2.069 3.401 1.709 6656
2.102 3.456 1.721 7387
2.108 3.466 1.712 8535
2.114 3.476 1.703 7941
2.120 3.486 1.694 7408
2.123 3.490 1.682 5845
2.167 3.564 1.702 4610
2.170 3.567 1.690 5768
2.168 3.565 1.675 4999
2.166 3.562 1.660 4147
2.200 3.617 1.670 5665
2.202 3.621 1.658 6510
2.258 3.714 1.683 5460
2.261 3.718 1.670 6126
2.302 3.785 1.684 5407
2.308 3.795 1.674 7053
2.314 3.806 1.664 6270
2.379 3.912 1.692 5442
2.377 3.909 1.676 7614
2.415 3.971 1.686 5961
2.425 3.987 1.677 9500
2.427 3.991 1.664 12321
2.429 3.995 1.650 9941
2.494 4.102 1.676 7166
2.493 4.099 1.660 6365
2.495 4.103 1.646 6732
2.497 4.107 1.632 5369
2.562 4.214 1.656 6317
2.565 4.217 1.641 6100
2.567 4.221 1.627 7601
2.569 4.225 1.613 7967
2.568 4.222 1.596 6784
2.570 4.226 1.582 7491
2.572 4.229 1.568 7654
2.574 4.233 1.553 5241
2.730 4.490 1.624 5241
2.745 4.513 1.615 4761
2.763 4.543 1.608 6068
2.773 4.560 1.597 6520
2.779 4.570 1.584 7090
2.793 4.593 1.575 8665
2.807 4.616 1.565 12725
2.809 4.620 1.550 12684
2.811 4.623 1.534 10560
2.818 4.633 1.520 9607
2.816 4.630 1.503 11150
2.818 4.633 1.487 10320
2.820 4.637 1.471 5048
3.217 5.290 1.642 2723
3.312 5.445 1.667 2930
3.350 5.508 1.665 3298
3.356 5.519 1.648 4761
3.358 5.522 1.629 4812
3.361 5.526 1.611 5053
3.363 5.530 1.592 4785
3.365 5.533 1.573 4160
3.588 5.900 1.648 3441
3.594 5.911 1.630 3158
3.597 5.914 1.610 2447
3.675 6.044 1.621 3054
3.678 6.047 1.600 3585
3.680 6.051 1.580 2586
3.912 6.433 1.648 2370
4.108 6.755 1.701 3039
4.106 6.752 1.676 4993
4.104 6.749 1.652 5040
4.111 6.759 1.630 4820
4.113 6.763 1.607 4749
4.115 6.767 1.584 3598
4.117 6.770 1.562 3095
4.119 6.774 1.539 2950
4.438 7.297 1.622 2822
4.866 8.001 1.738 2307
4.868 8.005 1.710 3638
4.874 8.015 1.685 4765
4.877 8.019 1.657 4286
4.879 8.023 1.630 4039
4.881 8.027 1.603 3402
4.887 8.037 1.577 3085
4.890 8.040 1.549 2862
4.900 8.057 1.524 1867
5.618 9.239 1.697 2054
4.961 8.158 1.485 1383
4.971 8.174 1.460 1188
5.536 9.103 1.579 1427
5.538 9.106 1.548 1375
5.536 9.103 1.516 1197
1.216 2.000 0.430 1324
1.217 2.001 0.423 1595
6.448 10.604 1.634 1559
6.447 10.601 1.597 1274
1.222 2.010 0.404 782
1.227 2.017 0.398 867
1.223 2.011 0.390 951
1.223 2.012 0.384 984
7.214 11.863 1.567 868
7.441 12.236 1.570 776
7.419 12.199 1.524 886
7.425 12.209 1.483 939
7.427 12.213 1.441 916
7.429 12.216 1.400 754
6.414 10.548 1.191 616
6.420 10.557 1.156 622
6.422 10.559 1.120 605
6.423 10.562 1.084 547
1.428 2.348 0.338 534
1.432 2.355 0.331 881
1.432 2.356 0.323 1484
1.433 2.356 0.315 2656
1.429 2.350 0.307 3448
1.429 2.350 0.299 3681
1.429 2.350 0.291 3492
1.430 2.351 0.283 3041
1.430 2.351 0.275 2487
1.430 2.352 0.267 2196
1.430 2.352 0.259 1796
1.430 2.352 0.252 1019
1.180 1.940 0.225 795
1.184 1.947 0.219 641
1.180 1.940 0.212 616
1.180 1.941 0.206 570
1.180 1.941 0.199 546
1.180 1.941 0.193 390
1.723 2.834 0.075 286
1.723 2.834 0.065 393
1.719 2.827 0.056 369
1.715 2.820 0.047 360
1.710 2.813 0.038 276
1.718 2.825 -0.010 293
1.718 2.824 -0.020 305
1.721 2.831 -0.030 318
1.157 1.902 -0.107 277
1.152 1.895 -0.113 320
1.196 1.953 1.764 3221
1.199 1.957 1.757 6443
1.201 1.961 1.751 6443
1.207 1.971 1.749 7600
1.213 1.980 1.747 9072
1.219 1.990 1.745 9080
1.225 1.999 1.743 9146
1.227 2.003 1.736 9146
1.223 1.996 1.720 5920
1.280 2.089 1.785 4912
1.275 2.082 1.770 4801
1.274 2.081 1.758 5077
1.280 2.090 1.756 4194
1.324 2.162 1.801 4673
1.282 2.093 1.737 6065
1.284 2.097 1.730 9080
1.286 2.101 1.723 9311
1.289 2.104 1.716 10317
1.295 2.114 1.713 11468
1.346 2.197 1.766 9110
1.348 2.201 1.759 8640
1.347 2.200 1.747 6891
1.315 2.147 1.698 5816
1.356 2.213 1.737 6280
1.362 2.223 1.734 7695
1.368 2.233 1.730 6820
1.373 2.243 1.727 6084
1.422 2.321 1.773 5821
1.421 2.320 1.761 7307
1.423 2.324 1.753 5870
1.475 2.409 1.803 5697
1.481 2.419 1.799 5435
1.494 2.440 1.803 5795
1.493 2.438 1.790 6074
1.453 2.373 1.734 8298
1.463 2.388 1.734 8636
1.487 2.427 1.750 7578
1.496 2.443 1.750 8987
1.502 2.453 1.745 8331
1.508 2.463 1.741 8037
1.514 2.473 1.737 10313
1.517 2.477 1.728 12597
1.523 2.486 1.724 10882
1.532 2.502 1.723 7066
1.553 2.536 1.734 6935
1.545 2.522 1.714 6480
1.540 2.514 1.698 7093
1.542 2.518 1.689 6737
1.585 2.587 1.722 6295
1.587 2.591 1.713 8082
1.586 2.589 1.701 10082
1.588 2.593 1.692 10965
1.590 2.597 1.683 9809
1.593 2.601 1.675 7035
1.643 2.683 1.712 8044
1.649 2.693 1.707 8867
1.655 2.703 1.702 7785
1.669 2.725 1.703 9263
1.675 2.734 1.697 11987
1.681 2.744 1.692 10799
1.683 2.748 1.682 10455
1.682 2.746 1.670 11016
1.688 2.756 1.664 9371
1.780 2.906 1.736 11707
1.778 2.904 1.723 12056
1.773 2.896 1.707 9776
1.810 2.954 1.727 9515
1.804 2.946 1.710 9879
1.796 2.932 1.690 7002
1.862 3.040 1.736 5515
1.868 3.050 1.729 5791
1.874 3.060 1.722 5525
1.888 3.083 1.722 6955
1.894 3.093 1.714 5882
1.912 3.121 1.717 4325
1.914 3.125 1.706 4016
1.966 3.210 1.736 5322
1.900 3.102 1.669 5543
1.959 3.199 1.705 7128
1.969 3.215 1.701 8493
1.975 3.225 1.693 8209
1.982 3.236 1.685 5948
1.988 3.246 1.677 3461
2.067 3.375 1.726 5520
2.073 3.385 1.717 8807
2.079 3.395 1.709 7552
2.112 3.449 1.721 6427
2.119 3.459 1.712 7996
2.125 3.469 1.703 7437
2.127 3.473 1.691 6403
2.134 3.483 1.682 5192
2.175 3.550 1.699 4157
2.177 3.554 1.687 5370
2.179 3.558 1.675 5619
2.178 3.556 1.660 4419
2.219 3.623 1.675 5446
2.217 3.620 1.660 5780
2.270 3.707 1.683 6010
2.272 3.710 1.670 6591
2.318 3.784 1.687 6159
2.324 3.794 1.677 7196
2.326 3.798 1.664 5862
2.391 3.904 1.692 4797
2.394 3.908 1.679 6760
2.431 3.969 1.688 5297
2.433 3.973 1.675 8144
2.440 3.984 1.664 10456
2.442 3.987 1.650 7899
2.507 4.094 1.676 7871
2.510 4.098 1.662 6410
2.508 4.095 1.646 6616
2.510 4.099 1.632 5947
2.580 4.212 1.658 4837
2.582 4.216 1.644 4368
2.584 4.219 1.629 4793
2.587 4.223 1.615 4952
2.585 4.220 1.599 4276
2.583 4.218 1.582 4212
2.585 4.221 1.568 3848
2.746 4.484 1.641 3491
2.745 4.481 1.624 5239
2.755 4.498 1.613 4516
2.817 4.599 1.630 4405
2.791 4.557 1.599 4255
2.793 4.561 1.584 4220
2.820 4.604 1.581 5674
2.822 4.607 1.565 9632
2.828 4.617 1.552 10135
2.830 4.621 1.536 9012
2.836 4.631 1.522 9221
2.834 4.628 1.505 10370
2.832 4.624 1.487 9302
2.838 4.634 1.473 4738
3.234 5.280 1.642 3038
3.256 5.317 1.633 3178
3.371 5.504 1.667 2913
3.374 5.508 1.648 4610
3.376 5.512 1.629 4992
3.378 5.516 1.611 4832
3.380 5.519 1.592 4215
3.378 5.516 1.571 3569
3.607 5.889 1.648 4431
3.613 5.899 1.630 4096
3.615 5.903 1.610 3166
3.618 5.907 1.590 2878
3.697 6.036 1.600 3025
3.703 6.046 1.581 2235
3.863 6.308 1.622 2606
4.125 6.735 1.699 5078
4.123 6.732 1.675 8426
4.126 6.736 1.652 8393
4.128 6.740 1.629 8443
4.134 6.750 1.607 9072
4.136 6.754 1.584 7072
4.139 6.757 1.562 5568
4.141 6.761 1.539 5083
4.139 6.758 1.514 3206
4.883 7.972 1.735 2272
4.889 7.983 1.709 3406
4.900 8.000 1.685 4232
4.906 8.010 1.659 3986
4.904 8.007 1.630 4028
4.906 8.011 1.603 3357
4.913 8.021 1.577 3095
4.915 8.025 1.549 3007
4.925 8.042 1.524 1899
5.648 9.221 1.697 2043
5.654 9.232 1.666 1544
5.660 9.242 1.636 1213
5.564 9.085 1.579 1313
5.567 9.089 1.548 1235
5.647 9.219 1.536 1131
6.625 10.817 1.742 870
6.488 10.593 1.672 1206
6.482 10.583 1.634 1440
6.476 10.574 1.596 1172
1.220 1.992 0.402 790
6.916 11.292 1.617 804
6.914 11.289 1.578 895
6.920 11.299 1.540 895
7.482 12.216 1.612 917
7.476 12.206 1.569 879
7.457 12.176 1.524 1035
7.463 12.186 1.483 996
7.465 12.189 1.441 862
7.467 12.192 1.400 672
6.448 10.527 1.191 470
6.453 10.537 1.156 487
6.455 10.539 1.120 472
6.456 10.542 1.084 437
1.431 2.337 0.338 423
1.427 2.330 0.329 469
1.440 2.351 0.323 965
1.440 2.351 0.315 2161
1.436 2.345 0.307 3277
1.437 2.346 0.299 3720
1.437 2.346 0.291 3557
1.437 2.346 0.283 2974
1.437 2.347 0.275 2250
1.437 2.347 0.267 1948
1.438 2.347 0.259 1682
1.442 2.354 0.252 1100
1.442 2.355 0.244 800
1.442 2.355 0.236 530
1.182 1.930 0.212 346
1.182 1.930 0.205 434
1.182 1.930 0.199 533
1.178 1.924 0.192 487
1.178 1.924 0.186 503
1.178 1.924 0.180 557
1.178 1.924 0.173 538
1.178 1.924 0.167 396
1.178 1.924 0.160 260
1.745 2.849 0.074 286
1.740 2.842 0.065 369
1.740 2.841 0.055 336
1.736 2.835 0.046 304
1.740 2.841 0.036 324
1.740 2.841 0.027 345
1.740 2.840 0.017 312
1.748 2.854 0.007 284
1.743 2.847 -0.002 268
1.739 2.839 -0.011 258
3.870 6.319 -0.545 250
3.865 6.311 -0.566 250
3.860 6.302 -0.586 263
3.990 6.515 -0.634 305
