3.538 5.184 1.663 1945
3.536 5.182 1.643 2348
3.551 5.204 1.630 2398
3.658 5.361 1.655 3059
3.674 5.384 1.642 3044
3.689 5.406 1.628 2311
3.835 5.620 1.667 1946
3.846 5.637 1.651 2488
3.840 5.628 1.628 3005
3.838 5.625 1.606 2911
4.059 5.948 1.669 2172
3.847 5.638 1.568 1382
4.182 6.128 1.671 2438
4.188 6.138 1.651 2718
4.300 6.302 1.669 3873
4.307 6.312 1.648 4151
4.428 6.489 1.667 4637
4.426 6.486 1.643 5842
4.428 6.490 1.620 4843
4.466 6.545 1.609 4211
4.438 6.503 1.576 5094
4.436 6.500 1.552 4422
4.776 6.999 1.635 3634
4.779 7.003 1.611 3607
4.785 7.013 1.588 2093
4.902 7.184 1.597 1410
5.226 7.659 1.666 1386
5.206 7.630 1.633 1551
5.187 7.601 1.600 1802
5.189 7.605 1.573 1465
5.549 8.132 1.644 1445
5.556 8.142 1.617 1613
5.558 8.145 1.588 2053
5.565 8.155 1.561 1732
5.576 8.172 1.534 1806
5.578 8.175 1.505 2202
5.580 8.178 1.477 1935
5.499 8.058 1.428 1724
5.571 8.165 1.416 1478
5.578 8.175 1.388 1617
5.584 8.184 1.361 2009
5.591 8.193 1.333 1689
7.051 10.333 1.609 1540
7.058 10.343 1.574 1119
7.175 10.515 1.560 796
7.182 10.525 1.524 619
7.339 10.756 1.516 612
8.061 11.813 1.610 572
8.063 11.817 1.568 651
8.074 11.833 1.528 485
7.948 11.647 1.465 399
7.950 11.651 1.424 411
7.952 11.654 1.383 346
8.074 11.833 1.360 271
5.544 8.125 -0.140 255
5.543 8.123 -0.226 259
4.936 7.233 -0.211 294
5.541 8.121 -0.283 377
5.545 8.126 -0.312 464
5.544 8.125 -0.340 531
5.544 8.124 -0.369 597
5.543 8.123 -0.397 602
5.542 8.122 -0.426 607
5.541 8.120 -0.454 554
5.540 8.119 -0.483 500
5.543 8.124 -0.512 435
5.551 8.135 -0.542 416
5.550 8.133 -0.570 416
5.544 8.125 -0.598 381
5.543 8.123 -0.627 353
5.537 8.115 -0.655 303
5.532 8.107 -0.683 263
5.530 8.105 -0.711 251
5.530 8.105 -0.797 318
5.529 8.102 -0.826 398
5.527 8.100 -0.854 439
5.525 8.097 -0.883 480
5.524 8.095 -0.911 480
1.329 1.936 1.806 4282
1.332 1.940 1.799 8564
1.334 1.944 1.792 8564
1.344 1.959 1.795 8016
1.358 1.979 1.802 8587
1.361 1.983 1.795 9924
1.367 1.992 1.793 11358
1.370 1.996 1.786 11358
1.373 2.000 1.779 12044
1.372 1.998 1.768 12766
1.371 1.997 1.756 14704
1.370 1.995 1.745 16795
1.376 2.005 1.742 14047
1.386 2.019 1.744 12046
1.392 2.029 1.742 8636
1.399 2.038 1.739 5625
1.424 2.074 1.758 5699
1.434 2.089 1.759 6732
1.440 2.099 1.756 8006
1.447 2.108 1.753 7517
1.453 2.117 1.750 7121
1.452 2.116 1.739 7249
1.455 2.120 1.731 7395
1.461 2.129 1.728 5577
1.502 2.188 1.763 5527
1.512 2.203 1.764 5630
1.522 2.218 1.764 6365
1.521 2.216 1.753 5375
1.520 2.215 1.741 4623
1.561 2.274 1.774 6752
1.564 2.278 1.766 8943
1.570 2.288 1.762 9236
1.573 2.292 1.754 9785
1.576 2.296 1.746 7712
1.563 2.277 1.722 5750
1.585 2.309 1.734 6420
1.588 2.313 1.726 6613
1.586 2.311 1.714 6056
1.593 2.320 1.710 5264
1.619 2.358 1.726 6125
1.641 2.391 1.737 7232
1.643 2.394 1.728 9222
1.650 2.404 1.724 9056
1.653 2.408 1.716 7499
1.663 2.423 1.715 6259
1.666 2.427 1.706 4998
1.700 2.476 1.728 4641
1.706 2.486 1.723 4034
1.693 2.467 1.700 4867
1.700 2.476 1.695 5957
1.706 2.486 1.690 5311
1.713 2.495 1.685 4141
1.695 2.470 1.658 3473
1.746 2.543 1.693 4710
1.748 2.547 1.684 11209
1.747 2.545 1.671 15353
1.753 2.554 1.666 17737
1.756 2.558 1.657 19422
1.754 2.556 1.645 19280
1.749 2.548 1.629 14783
1.747 2.546 1.617 12234
1.754 2.555 1.611 12992
1.756 2.559 1.602 14261
1.759 2.562 1.593 12624
1.919 2.796 1.716 8654
1.922 2.799 1.707 9584
1.981 2.886 1.744 7605
1.984 2.890 1.734 5042
2.043 2.977 1.770 6586
2.050 2.987 1.763 6162
2.053 2.991 1.752 6079
2.051 2.988 1.738 8409
2.058 2.998 1.731 9188
2.069 3.014 1.727 7634
2.080 3.030 1.723 9546
2.086 3.040 1.716 11197
2.093 3.049 1.708 8706
2.100 3.059 1.701 5927
2.172 3.165 1.742 5734
2.179 3.175 1.734 5312
2.182 3.179 1.723 4354
2.184 3.182 1.712 4425
2.199 3.204 1.710 6707
2.210 3.220 1.705 9335
2.225 3.242 1.702 12126
2.232 3.252 1.694 12883
2.239 3.262 1.686 10049
2.241 3.265 1.674 8366
2.248 3.275 1.666 8513
2.255 3.285 1.657 7481
2.249 3.276 1.640 6989
2.247 3.274 1.626 7870
2.245 3.271 1.611 7696
2.256 3.287 1.606 7037
2.263 3.297 1.597 9429
2.265 3.300 1.585 11938
2.276 3.316 1.579 10217
2.287 3.332 1.573 7308
2.294 3.341 1.564 6076
2.494 3.634 1.676 8091
2.493 3.632 1.661 10166
2.491 3.629 1.646 7066
2.532 3.688 1.656 4259
2.538 3.698 1.646 5297
2.643 3.850 1.693 5359
2.616 3.810 1.662 5589
2.622 3.820 1.651 6125
2.638 3.843 1.645 6889
2.649 3.859 1.637 6260
2.647 3.856 1.621 4846
2.700 3.934 1.636 5121
2.703 3.938 1.622 5080
2.701 3.935 1.606 3283
2.811 4.095 1.651 4105
2.817 4.104 1.639 4786
2.850 4.152 1.640 6452
2.861 4.168 1.630 5578
2.859 4.165 1.613 3061
2.926 4.263 1.632 2776
2.950 4.298 1.628 3049
2.957 4.307 1.615 4167
2.963 4.317 1.602 4346
2.966 4.321 1.587 3436
3.102 4.519 1.637 2328
3.200 4.661 1.667 2574
3.263 4.753 1.680 2870
3.270 4.763 1.665 5578
3.272 4.767 1.648 6307
3.275 4.771 1.632 6523
3.277 4.774 1.615 5806
3.258 4.746 1.588 3283
3.377 4.920 1.624 2942
3.384 4.930 1.608 2970
3.382 4.927 1.589 1929
3.498 5.096 1.620 1677
3.570 5.201 1.632 1936
3.677 5.357 1.657 3063
3.684 5.367 1.640 3230
3.844 5.600 1.685 1882
3.851 5.610 1.667 2305
3.857 5.620 1.649 2752
3.856 5.617 1.628 3099
3.854 5.614 1.606 2653
4.071 5.930 1.668 2268
4.187 6.100 1.689 1501
4.194 6.110 1.669 2557
4.201 6.120 1.650 2862
4.318 6.290 1.669 3564
4.325 6.300 1.648 3535
4.441 6.470 1.666 5817
4.439 6.468 1.641 6910
4.446 6.478 1.620 5267
4.453 6.488 1.599 4889
4.456 6.491 1.576 6247
4.453 6.488 1.552 4798
4.791 6.980 1.634 2960
4.793 6.983 1.610 2897
4.805 7.000 1.588 1858
4.811 7.010 1.564 1357
5.216 7.599 1.657 1250
5.214 7.596 1.629 1783
5.208 7.587 1.600 1994
5.210 7.590 1.573 1540
5.571 8.116 1.644 1404
5.578 8.126 1.617 1642
5.580 8.130 1.588 2059
5.578 8.127 1.558 1765
5.594 8.150 1.533 1808
5.596 8.153 1.504 2185
5.598 8.156 1.476 1805
5.516 8.037 1.427 1569
5.585 8.137 1.414 1541
5.596 8.153 1.387 1532
5.607 8.169 1.361 1669
7.077 10.310 1.645 1504
7.079 10.313 1.609 1549
7.086 10.323 1.574 1133
7.538 10.982 1.626 799
8.093 11.790 1.694 608
7.570 11.028 1.554 614
8.084 11.778 1.608 721
8.091 11.788 1.568 767
8.098 11.798 1.527 511
8.100 11.801 1.485 332
8.107 11.811 1.444 351
8.109 11.814 1.403 350
8.107 11.810 1.360 275
4.961 7.227 -0.186 261
4.960 7.226 -0.211 336
4.960 7.225 -0.237 408
4.959 7.224 -0.262 480
4.958 7.223 -0.287 461
4.962 7.229 -0.313 451
5.565 8.108 -0.397 431
5.564 8.106 -0.426 428
4.964 7.232 -0.390 370
4.963 7.231 -0.416 444
4.967 7.236 -0.441 440
4.966 7.234 -0.467 365
4.960 7.226 -0.492 289
5.549 8.085 -0.854 258
5.548 8.082 -0.883 291
5.546 8.080 -0.911 291
1.336 1.931 1.806 4762
1.339 1.935 1.799 9524
1.341 1.939 1.792 9524
1.351 1.954 1.795 8419
1.365 1.974 1.802 8664
1.368 1.978 1.795 10080
1.374 1.987 1.793 11815
1.377 1.991 1.786 11815
1.380 1.995 1.779 13565
1.379 1.993 1.768 15518
1.378 1.992 1.756 16809
1.377 1.990 1.745 18263
1.383 2.000 1.742 14499
1.393 2.014 1.744 11213
1.396 2.018 1.737 8366
1.406 2.033 1.739 5856
1.435 2.075 1.762 6170
1.445 2.089 1.764 7551
1.448 2.093 1.756 9092
1.455 2.103 1.753 7792
1.461 2.112 1.750 6548
1.460 2.110 1.739 6337
1.463 2.114 1.731 6148
1.469 2.124 1.728 4642
1.514 2.188 1.767 5035
1.524 2.203 1.768 4954
1.530 2.213 1.764 5297
1.533 2.216 1.757 4274
1.547 2.237 1.761 3703
1.562 2.258 1.766 5299
1.568 2.267 1.762 7392
1.575 2.277 1.758 7613
1.581 2.286 1.754 8317
1.584 2.290 1.746 6587
1.587 2.294 1.738 4858
1.593 2.303 1.734 5744
1.592 2.301 1.722 6354
1.595 2.305 1.714 6157
1.601 2.315 1.710 5083
1.631 2.358 1.729 6468
1.649 2.385 1.737 8124
1.652 2.388 1.728 10354
1.659 2.398 1.724 9807
1.665 2.407 1.719 7447
1.672 2.417 1.715 5713
1.674 2.421 1.706 5821
1.677 2.424 1.698 5929
1.676 2.422 1.686 5678
1.702 2.461 1.700 6101
1.709 2.470 1.695 7494
1.711 2.474 1.686 6637
1.722 2.489 1.685 5099
1.704 2.464 1.658 4812
1.755 2.537 1.693 5405
1.758 2.541 1.684 12003
1.760 2.544 1.675 15904
1.763 2.548 1.666 17393
1.765 2.552 1.657 18092
1.760 2.544 1.641 18374
1.758 2.542 1.629 14357
1.756 2.539 1.617 11940
1.759 2.543 1.608 12571
1.765 2.552 1.602 13571
1.768 2.556 1.593 11910
1.925 2.783 1.713 9783
1.932 2.792 1.707 10210
1.991 2.879 1.744 8828
2.051 2.965 1.780 5682
2.054 2.969 1.770 7386
2.061 2.979 1.763 7153
2.059 2.977 1.749 8047
2.062 2.981 1.738 11095
2.065 2.985 1.728 11213
2.076 3.001 1.724 8942
2.082 3.010 1.717 10513
2.093 3.026 1.712 12071
2.096 3.030 1.702 9080
2.090 3.022 1.685 6812
2.184 3.157 1.742 5394
2.187 3.161 1.731 5271
2.189 3.165 1.720 4455
2.192 3.169 1.709 4210
2.215 3.202 1.713 5411
2.226 3.218 1.708 8606
2.237 3.234 1.702 13621
2.244 3.244 1.694 15015
2.255 3.260 1.689 12108
2.253 3.257 1.674 10649
2.260 3.267 1.666 11611
2.267 3.277 1.657 11618
2.261 3.268 1.640 10079
2.259 3.266 1.626 10025
2.257 3.263 1.611 9072
2.268 3.279 1.606 7876
2.275 3.289 1.597 10106
2.277 3.292 1.585 11915
2.288 3.308 1.579 9254
2.290 3.311 1.568 5889
2.505 3.621 1.689 5786
2.508 3.625 1.676 7638
2.510 3.629 1.663 9200
2.504 3.620 1.646 5958
2.549 3.685 1.659 5874
2.552 3.689 1.646 6593
2.661 3.847 1.696 5702
2.663 3.850 1.682 4483
2.640 3.817 1.654 4923
2.660 3.845 1.650 6753
2.671 3.861 1.642 7179
2.669 3.859 1.626 5743
2.672 3.862 1.612 4367
2.708 3.916 1.618 3714
2.827 4.087 1.667 4416
2.825 4.084 1.651 5262
2.828 4.088 1.636 6017
2.843 4.110 1.629 6196
2.876 4.157 1.630 5044
2.978 4.305 1.667 2834
2.985 4.315 1.654 2060
2.978 4.306 1.635 2588
2.977 4.303 1.617 3715
2.996 4.332 1.611 3457
3.007 4.348 1.600 2992
3.114 4.502 1.635 2258
3.221 4.656 1.669 2311
3.280 4.741 1.680 3659
3.291 4.758 1.667 6275
3.289 4.755 1.648 6510
3.292 4.759 1.632 6855
3.294 4.762 1.615 6550
3.288 4.753 1.594 3651
3.439 4.971 1.643 2638
3.398 4.912 1.607 2754
3.571 5.162 1.663 1830
3.521 5.090 1.622 1633
3.532 5.106 1.608 1770
3.701 5.350 1.659 2693
3.703 5.354 1.640 3037
3.864 5.586 1.685 2335
3.875 5.602 1.669 2544
3.886 5.618 1.652 2642
3.876 5.603 1.628 2622
4.085 5.906 1.687 2311
4.088 5.909 1.666 2101
4.205 6.079 1.688 1655
4.207 6.082 1.666 2636
4.219 6.099 1.648 2778
4.340 6.275 1.669 3085
4.458 6.444 1.687 3783
4.460 6.448 1.664 7076
4.463 6.452 1.641 8010
4.461 6.449 1.617 6436
4.472 6.465 1.597 6570
4.479 6.475 1.576 7211
4.481 6.478 1.553 4678
4.807 6.950 1.631 2404
4.810 6.953 1.607 2213
4.874 7.047 1.601 1717
4.846 7.005 1.567 1363
5.319 7.689 1.679 1563
5.237 7.571 1.628 2025
5.235 7.568 1.600 2142
5.237 7.572 1.573 1579
5.600 8.096 1.644 1307
5.603 8.100 1.615 1601
5.605 8.103 1.587 1940
5.603 8.100 1.557 1642
5.619 8.123 1.532 1623
5.621 8.126 1.503 2012
5.534 8.001 1.453 1802
5.617 8.120 1.444 1408
5.614 8.116 1.414 1579
5.621 8.126 1.386 1379
5.636 8.148 1.361 1254
7.114 10.284 1.645 1585
7.121 10.294 1.610 1528
7.571 10.945 1.664 1235
7.573 10.948 1.625 1111
7.593 10.978 1.590 777
7.605 10.994 1.553 827
8.127 11.749 1.608 906
7.600 10.988 1.474 914
7.598 10.984 1.434 635
7.954 11.499 1.454 360
8.149 11.781 1.444 384
8.152 11.784 1.403 381
8.154 11.787 1.361 289
4.933 7.131 -0.182 258
4.937 7.137 -0.208 331
4.932 7.129 -0.232 402
4.931 7.128 -0.258 474
4.935 7.134 -0.283 455
4.934 7.133 -0.308 448
4.938 7.138 -0.334 370
4.941 7.144 -0.360 301
4.941 7.142 -0.385 378
4.940 7.141 -0.410 455
4.939 7.140 -0.435 455
4.938 7.138 -0.460 377
4.937 7.137 -0.486 299
5.051 7.302 -0.656 274
5.050 7.300 -0.681 274
1.341 1.927 1.806 5095
1.344 1.931 1.799 10191
1.347 1.935 1.792 10191
1.357 1.950 1.795 8689
1.371 1.970 1.802 8564
1.377 1.979 1.800 10326
1.380 1.983 1.793 12234
1.383 1.987 1.786 12234
1.386 1.991 1.779 14841
1.385 1.989 1.768 17912
1.383 1.988 1.756 18729
1.386 1.992 1.749 19553
1.389 1.996 1.742 14738
1.399 2.010 1.744 10219
1.402 2.014 1.737 7803
1.412 2.029 1.739 5915
1.437 2.065 1.758 6304
1.455 2.091 1.768 7809
1.454 2.089 1.756 9412
1.460 2.099 1.753 7274
1.467 2.108 1.750 5159
1.470 2.112 1.743 4627
1.472 2.116 1.736 4095
1.513 2.174 1.771 4125
1.520 2.184 1.767 4839
1.530 2.199 1.768 4547
1.537 2.208 1.764 4643
1.547 2.223 1.765 3908
1.554 2.233 1.761 3584
1.564 2.248 1.762 4800
1.567 2.251 1.754 6194
1.581 2.272 1.758 6152
1.588 2.282 1.754 6938
1.590 2.285 1.746 5484
1.593 2.289 1.738 4031
1.600 2.299 1.734 4932
1.598 2.297 1.722 5954
1.601 2.301 1.714 6168
1.608 2.310 1.710 4975
1.642 2.359 1.733 6879
1.656 2.380 1.737 8752
1.659 2.384 1.728 11133
1.666 2.393 1.724 10204
1.676 2.408 1.723 7441
1.683 2.418 1.719 5433
1.681 2.416 1.706 6501
1.684 2.420 1.698 7578
1.683 2.418 1.686 7311
1.709 2.456 1.700 6761
1.716 2.465 1.695 8293
1.718 2.469 1.686 7601
1.729 2.484 1.685 6014
1.711 2.459 1.658 5704
1.762 2.532 1.693 6480
1.765 2.536 1.684 12841
1.767 2.539 1.675 16283
1.770 2.543 1.666 16630
1.772 2.547 1.657 16013
1.767 2.539 1.641 16391
1.765 2.537 1.629 12901
1.764 2.534 1.617 10798
1.766 2.538 1.608 11676
1.769 2.541 1.599 12362
1.926 2.768 1.719 10636
1.929 2.771 1.710 11238
1.935 2.781 1.703 10834
2.000 2.873 1.744 9230
2.060 2.960 1.780 6229
2.062 2.964 1.770 7917
2.069 2.973 1.763 7812
2.068 2.971 1.749 9154
2.070 2.975 1.738 12478
2.073 2.979 1.728 12701
2.080 2.989 1.721 10031
2.091 3.004 1.717 11144
2.098 3.014 1.709 12242
2.096 3.012 1.696 9527
2.099 3.016 1.685 7981
2.105 3.025 1.678 6273
2.195 3.155 1.731 5881
2.202 3.165 1.723 4951
2.188 3.144 1.700 4353
2.182 3.136 1.683 5543
2.244 3.224 1.714 7766
2.246 3.228 1.702 13665
2.253 3.238 1.694 15655
2.264 3.253 1.689 13596
2.262 3.251 1.674 12473
2.269 3.261 1.666 13591
2.276 3.270 1.657 13998
2.270 3.262 1.640 11875
2.268 3.259 1.626 11255
2.271 3.263 1.614 9370
2.277 3.273 1.606 7951
2.284 3.282 1.597 10157
2.287 3.286 1.585 11059
2.297 3.301 1.579 7620
2.530 3.635 1.712 4676
2.439 3.504 1.641 6428
2.522 3.624 1.679 6290
2.525 3.628 1.666 7371
2.557 3.674 1.671 5858
2.560 3.678 1.659 7490
2.566 3.688 1.648 7784
2.565 3.685 1.633 5885
2.563 3.683 1.617 4640
2.651 3.809 1.654 4450
2.679 3.850 1.655 6476
2.686 3.860 1.644 7013
2.684 3.857 1.628 6291
2.687 3.861 1.615 6326
2.694 3.871 1.603 5168
2.834 4.073 1.665 5514
2.837 4.076 1.651 5741
2.839 4.080 1.636 6961
2.850 4.096 1.627 7146
2.844 4.087 1.608 4794
2.842 4.084 1.591 3290
3.027 4.350 1.670 2551
2.995 4.303 1.637 2503
2.989 4.295 1.617 2899
3.017 4.336 1.615 2895
3.024 4.345 1.602 2688
3.131 4.499 1.637 2527
3.155 4.534 1.632 2152
3.298 4.738 1.682 4124
3.305 4.748 1.667 6504
3.303 4.746 1.648 6277
3.305 4.749 1.632 6637
3.308 4.753 1.615 7016
3.306 4.750 1.596 4108
3.453 4.962 1.643 2301
3.411 4.902 1.607 2362
3.506 5.038 1.629 1948
3.632 5.219 1.663 1938
3.551 5.102 1.610 2009
3.602 5.175 1.612 2117
3.718 5.343 1.640 2364
3.884 5.581 1.687 2601
3.895 5.597 1.671 2608
3.907 5.614 1.654 2335
3.896 5.598 1.629 1953
4.102 5.894 1.687 1884
4.056 5.828 1.648 2266
4.063 5.838 1.629 1816
4.220 6.064 1.665 2572
4.333 6.227 1.683 2787
4.247 6.103 1.630 2854
4.476 6.432 1.687 4460
4.479 6.435 1.664 7873
4.477 6.433 1.640 9051
4.479 6.436 1.617 8510
4.486 6.446 1.596 8441
4.493 6.456 1.574 7447
4.500 6.466 1.553 4243
4.493 6.456 1.527 2268
4.816 6.920 1.603 2012
4.997 7.180 1.632 1586
5.191 7.459 1.663 1554
5.341 7.674 1.679 1889
5.348 7.684 1.654 1984
5.252 7.547 1.599 2043
5.259 7.557 1.573 1522
5.722 8.222 1.671 1124
5.621 8.077 1.614 1372
5.624 8.081 1.586 1674
5.622 8.078 1.556 1383
5.548 7.972 1.509 1682
5.550 7.975 1.480 1852
5.552 7.978 1.452 1762
5.631 8.091 1.442 1534
5.633 8.094 1.413 1525
6.909 9.928 1.667 1181
7.055 10.138 1.663 1153
7.143 10.264 1.645 1406
7.150 10.274 1.610 1325
7.597 10.917 1.663 1379
7.600 10.920 1.625 1368
7.616 10.943 1.588 968
7.636 10.972 1.553 991
8.156 11.719 1.608 1057
7.627 10.960 1.473 1059
7.629 10.963 1.434 747
7.987 11.477 1.454 385
8.183 11.758 1.444 401
8.185 11.761 1.403 391
8.187 11.764 1.361 290
5.057 7.266 -0.189 260
5.056 7.266 -0.215 339
5.056 7.265 -0.240 405
5.055 7.264 -0.266 472
5.059 7.269 -0.292 456
5.058 7.268 -0.318 451
5.062 7.274 -0.344 367
5.066 7.279 -0.370 288
5.060 7.271 -0.395 363
5.059 7.270 -0.421 439
5.063 7.275 -0.447 438
5.062 7.273 -0.473 377
5.061 7.272 -0.499 315
1.347 1.923 1.806 5197
1.350 1.927 1.799 10395
1.353 1.931 1.792 10395
1.363 1.946 1.795 8724
1.380 1.971 1.806 8456
1.383 1.975 1.800 10575
1.386 1.979 1.793 12694
1.389 1.983 1.786 12694
1.388 1.981 1.774 15952
1.387 1.980 1.763 19848
1.389 1.984 1.756 20165
1.392 1.988 1.749 20482
1.395 1.991 1.742 14743
1.405 2.006 1.744 9187
1.412 2.015 1.742 7162
1.418 2.025 1.739 5786
1.440 2.055 1.754 6133
1.442 2.059 1.746 7368
1.464 2.090 1.761 8793
1.432 2.045 1.715 6381
1.431 2.043 1.703 4554
1.426 2.036 1.688 3538
1.517 2.166 1.778 3672
1.520 2.170 1.771 4251
1.526 2.179 1.767 4883
1.533 2.189 1.764 4099
1.547 2.209 1.768 3928
1.558 2.224 1.769 3808
1.584 2.261 1.786 4696
1.571 2.243 1.762 4920
1.570 2.241 1.750 5637
1.588 2.267 1.758 5094
1.595 2.277 1.754 5742
1.601 2.286 1.750 4600
1.604 2.290 1.742 3459
1.607 2.294 1.734 4263
1.605 2.292 1.722 5573
1.608 2.296 1.714 6235
1.615 2.305 1.710 5049
1.653 2.360 1.737 7194
1.663 2.375 1.737 9278
1.666 2.379 1.728 11756
1.677 2.394 1.728 10470
1.683 2.403 1.723 7474
1.690 2.413 1.719 5315
1.693 2.417 1.710 6793
1.691 2.415 1.698 8333
1.690 2.413 1.686 8050
1.712 2.445 1.696 7040
1.723 2.460 1.695 8641
1.726 2.464 1.686 8323
1.736 2.479 1.685 6943
1.719 2.454 1.658 5941
1.770 2.527 1.693 7748
1.772 2.530 1.684 13629
1.775 2.534 1.675 16639
1.782 2.544 1.670 15629
1.780 2.541 1.657 13010
1.770 2.528 1.638 13201
1.773 2.531 1.629 10580
1.767 2.523 1.613 9667
1.770 2.527 1.604 10786
1.776 2.536 1.599 10546
1.934 2.762 1.719 11398
1.937 2.766 1.710 11696
1.940 2.769 1.700 10299
2.008 2.867 1.744 9055
2.069 2.953 1.780 6564
2.071 2.957 1.770 7974
2.078 2.967 1.763 8272
2.077 2.965 1.749 10596
2.079 2.969 1.738 13740
2.078 2.967 1.725 13134
2.089 2.982 1.721 10235
2.096 2.992 1.713 11022
2.102 3.002 1.706 11739
2.101 3.000 1.692 9903
2.104 3.003 1.682 8875
2.114 3.019 1.678 6866
2.205 3.148 1.731 6592
2.212 3.158 1.723 5712
2.202 3.144 1.703 4694
2.192 3.129 1.683 5880
2.258 3.223 1.717 6808
2.260 3.227 1.705 12322
2.267 3.237 1.697 14875
2.274 3.246 1.689 14639
2.272 3.244 1.674 13815
2.279 3.254 1.666 14403
2.286 3.264 1.657 14401
2.280 3.255 1.640 12376
2.278 3.253 1.626 11732
2.281 3.256 1.614 9113
2.292 3.272 1.608 7563
2.294 3.275 1.597 9344
2.296 3.279 1.585 9200
2.307 3.294 1.579 5637
2.455 3.505 1.659 4982
2.449 3.497 1.641 6894
2.447 3.494 1.626 6854
2.544 3.632 1.671 5842
2.572 3.673 1.674 6066
2.575 3.676 1.661 8182
2.577 3.680 1.648 8083
2.576 3.677 1.633 6225
2.578 3.681 1.620 5265
2.658 3.795 1.651 5046
2.687 3.836 1.653 6048
2.694 3.846 1.642 5758
2.696 3.849 1.628 6210
2.699 3.853 1.615 8462
2.701 3.856 1.601 8328
2.703 3.860 1.587 5985
2.840 4.055 1.646 5303
2.852 4.071 1.636 7300
2.863 4.087 1.627 7384
2.852 4.072 1.605 4646
2.850 4.070 1.589 3271
3.045 4.347 1.672 3397
3.047 4.351 1.657 2868
3.137 4.479 1.685 2633
3.039 4.339 1.619 2535
3.151 4.499 1.657 2630
3.153 4.502 1.641 2866
3.169 4.525 1.632 2795
3.316 4.735 1.684 4213
3.319 4.738 1.667 6387
3.321 4.742 1.650 6468
3.324 4.746 1.634 6557
3.326 4.749 1.617 6872
3.324 4.746 1.598 4334
3.375 4.819 1.603 2315
3.431 4.898 1.608 1950
3.649 5.210 1.683 2787
3.652 5.214 1.665 3608
3.650 5.211 1.645 3219
3.661 5.227 1.630 3905
3.664 5.231 1.611 3284
3.901 5.569 1.687 2624
3.912 5.586 1.671 2688
3.937 5.621 1.659 2180
3.922 5.599 1.633 1540
4.071 5.812 1.668 2025
4.073 5.816 1.648 2496
4.080 5.825 1.629 2031
4.349 6.210 1.705 2656
4.352 6.214 1.683 2810
4.364 6.230 1.664 2698
4.491 6.412 1.685 4422
4.498 6.422 1.664 7841
4.496 6.419 1.640 9903
4.498 6.423 1.617 10299
4.501 6.426 1.594 9580
4.512 6.442 1.574 6758
4.519 6.452 1.553 3421
4.834 6.902 1.627 2268
4.832 6.899 1.601 2218
5.018 7.165 1.632 1740
5.213 7.443 1.663 1678
5.364 7.658 1.679 1989
5.371 7.668 1.654 2004
5.275 7.531 1.599 1717
5.730 8.181 1.696 1681
5.742 8.198 1.669 1383
5.641 8.054 1.613 1383
5.639 8.051 1.583 1747
5.561 7.939 1.534 1503
5.572 7.955 1.509 1854
5.574 7.958 1.480 1864
5.648 8.064 1.469 1702
5.651 8.068 1.441 1723
5.657 8.077 1.413 1526
6.930 9.894 1.665 1224
7.086 10.117 1.663 1397
7.088 10.120 1.627 1359
7.181 10.252 1.610 1109
7.630 10.894 1.663 1415
7.633 10.897 1.625 1497
7.649 10.920 1.588 1101
7.664 10.943 1.552 1112
7.662 10.940 1.512 1104
7.660 10.937 1.473 1082
7.662 10.940 1.434 748
7.664 10.943 1.395 388
8.218 11.733 1.444 381
8.220 11.737 1.403 369
8.222 11.740 1.361 270
4.978 7.108 -0.208 304
4.978 7.107 -0.233 355
4.977 7.106 -0.258 407
4.976 7.105 -0.283 400
4.980 7.110 -0.309 401
4.984 7.116 -0.334 320
5.001 7.141 -0.361 250
4.982 7.113 -0.385 316
4.981 7.112 -0.410 384
4.980 7.111 -0.435 381
4.984 7.116 -0.461 343
4.988 7.121 -0.487 305
5.010 7.152 -0.770 252
5.008 7.150 -0.796 252
1.354 1.919 1.806 5137
1.356 1.923 1.799 10275
1.359 1.927 1.792 10275
1.369 1.941 1.795 8539
1.387 1.966 1.806 8275
1.390 1.970 1.800 10569
1.393 1.974 1.793 12864
1.395 1.978 1.786 12864
1.394 1.977 1.774 16371
1.393 1.975 1.763 20584
1.396 1.979 1.756 20537
1.399 1.983 1.749 20490
1.402 1.987 1.742 14339
1.404 1.991 1.735 8188
1.418 2.011 1.742 6459
1.429 2.025 1.743 5719
1.431 2.029 1.736 5862
1.438 2.038 1.733 7022
1.440 2.042 1.726 8257
1.439 2.040 1.715 6423
1.442 2.044 1.708 4734
1.433 2.031 1.688 3668
1.528 2.166 1.782 4004
1.531 2.170 1.775 4358
1.530 2.169 1.763 4754
1.498 2.123 1.718 3951
1.500 2.127 1.710 4217
1.589 2.252 1.794 4985
1.591 2.256 1.786 6254
1.594 2.260 1.778 5382
1.577 2.236 1.750 4897
1.603 2.273 1.766 4563
1.610 2.283 1.762 4703
1.613 2.286 1.754 3940
1.627 2.307 1.758 3375
1.618 2.294 1.738 3752
1.617 2.292 1.726 5253
1.616 2.290 1.714 6231
1.622 2.300 1.710 5163
1.661 2.354 1.737 7464
1.671 2.369 1.737 9690
1.674 2.373 1.728 12264
1.685 2.388 1.728 10553
1.695 2.403 1.727 7363
1.714 2.430 1.734 5298
1.701 2.411 1.710 6591
1.699 2.409 1.698 8127
1.698 2.407 1.686 7930
1.721 2.439 1.696 6992
1.731 2.454 1.695 8713
1.734 2.458 1.686 8771
1.745 2.473 1.685 7727
1.751 2.483 1.680 6843
1.774 2.515 1.689 8965
1.781 2.524 1.684 14138
1.783 2.528 1.675 16674
1.790 2.538 1.670 14532
1.793 2.541 1.661 10066
1.775 2.516 1.634 9810
1.777 2.519 1.625 8562
1.776 2.517 1.613 9177
1.782 2.526 1.608 9770
1.785 2.530 1.599 8304
1.944 2.755 1.719 11308
1.942 2.753 1.706 11227
1.945 2.757 1.696 9109
2.018 2.860 1.744 8303
2.078 2.946 1.780 6435
2.081 2.950 1.770 7547
2.026 2.872 1.713 8519
2.087 2.958 1.749 11011
2.089 2.962 1.738 14054
2.088 2.960 1.725 13378
2.095 2.969 1.718 10503
2.102 2.979 1.710 10586
2.108 2.989 1.703 10735
2.107 2.987 1.689 9296
2.114 2.996 1.682 8796
2.120 3.006 1.674 6705
2.211 3.135 1.728 7762
2.222 3.150 1.723 6830
2.217 3.142 1.706 5017
2.202 3.122 1.683 4551
2.273 3.222 1.720 5529
2.271 3.219 1.705 9801
2.278 3.229 1.697 12984
2.285 3.239 1.689 14869
2.287 3.243 1.677 14336
2.290 3.246 1.666 13695
2.297 3.256 1.657 12760
2.291 3.247 1.640 11477
2.293 3.251 1.629 11572
2.296 3.254 1.617 8571
2.303 3.264 1.608 6766
2.305 3.268 1.597 7678
2.307 3.271 1.585 6663
2.559 3.627 1.730 3723
2.471 3.503 1.661 5050
2.461 3.488 1.641 6772
2.459 3.486 1.626 7029
2.461 3.489 1.614 4612
2.585 3.664 1.674 5432
2.592 3.674 1.664 7853
2.594 3.677 1.651 7503
2.653 3.761 1.671 6134
2.655 3.764 1.657 6251
2.671 3.786 1.651 5718
2.700 3.827 1.653 5917
2.702 3.830 1.639 5463
2.705 3.834 1.626 6987
2.711 3.844 1.615 10673
2.714 3.847 1.601 10980
2.712 3.845 1.585 7593
2.845 4.033 1.641 6027
2.852 4.043 1.629 7531
2.868 4.065 1.622 6689
2.861 4.056 1.603 4391
2.860 4.054 1.586 3379
3.059 4.337 1.672 3937
2.996 4.247 1.624 3401
3.003 4.257 1.611 2749
3.172 4.497 1.677 2671
3.170 4.494 1.659 2670
3.173 4.498 1.644 2840
3.184 4.514 1.632 2934
3.332 4.724 1.684 3750
3.335 4.727 1.667 5465
3.333 4.725 1.648 6622
3.340 4.734 1.634 6242
3.342 4.738 1.617 6131
3.345 4.742 1.600 4507
3.383 4.795 1.599 2388
3.456 4.899 1.612 1843
3.671 5.204 1.685 4014
3.669 5.202 1.665 5664
3.672 5.205 1.647 4749
3.679 5.215 1.630 5626
3.681 5.219 1.611 4973
3.684 5.222 1.593 2533
3.927 5.566 1.669 2547
3.965 5.620 1.663 2047
4.030 5.712 1.667 1600
4.090 5.798 1.668 2361
4.093 5.802 1.648 2663
4.100 5.812 1.629 2326
4.375 6.202 1.707 2742
4.373 6.199 1.683 2822
4.496 6.374 1.703 3005
4.512 6.397 1.685 4063
4.515 6.400 1.663 7325
4.517 6.404 1.640 9943
4.515 6.401 1.616 10729
4.522 6.411 1.594 9207
4.529 6.421 1.573 5310
4.536 6.431 1.552 2442
4.858 6.886 1.627 2119
4.856 6.883 1.601 2240
4.867 6.899 1.580 1701
5.234 7.420 1.662 1672
5.389 7.640 1.679 1863
5.397 7.650 1.654 1715
5.755 8.158 1.725 1563
5.753 8.156 1.695 1989
5.760 8.166 1.667 1654
5.582 7.914 1.591 1572
5.580 7.911 1.561 1721
5.583 7.914 1.533 1755
5.594 7.930 1.507 1844
5.673 8.042 1.498 1832
5.675 8.045 1.469 1960
5.678 8.049 1.441 1960
5.680 8.052 1.412 1651
6.963 9.871 1.665 1181
7.120 10.093 1.663 1342
7.118 10.090 1.626 1373
7.116 10.087 1.590 1043
7.662 10.862 1.662 1339
7.664 10.865 1.624 1507
7.681 10.888 1.588 1078
7.706 10.924 1.553 1074
8.230 11.667 1.608 1042
7.701 10.917 1.474 953
7.699 10.914 1.434 650
8.228 11.664 1.481 365
8.280 11.738 1.448 353
8.264 11.715 1.403 338
8.266 11.718 1.362 268
5.102 7.233 -0.215 267
5.102 7.232 -0.240 313
5.097 7.225 -0.266 361
5.100 7.230 -0.292 361
5.104 7.236 -0.318 367
5.103 7.235 -0.343 297
5.106 7.239 -0.395 304
5.105 7.237 -0.421 374
5.109 7.243 -0.447 370
5.108 7.241 -0.473 338
5.111 7.246 -0.499 305
1.359 1.915 1.806 4985
1.362 1.919 1.799 9971
1.365 1.923 1.792 9971
1.375 1.937 1.795 8250
1.393 1.962 1.806 7873
1.396 1.966 1.800 10185
1.398 1.970 1.793 12498
1.401 1.974 1.786 12498
1.400 1.973 1.774 15987
1.399 1.971 1.763 20195
1.402 1.975 1.756 19932
1.401 1.974 1.745 19691
1.404 1.977 1.738 13775
1.395 1.965 1.718 8451
1.432 2.017 1.750 6431
1.435 2.021 1.743 6114
1.437 2.025 1.736 5991
1.440 2.029 1.729 6721
1.443 2.032 1.722 7523
1.445 2.036 1.715 6300
1.448 2.040 1.708 5077
1.489 2.098 1.743 3898
1.538 2.167 1.787 4228
1.541 2.171 1.779 4003
1.501 2.115 1.725 4608
1.504 2.119 1.718 4740
1.510 2.128 1.714 4919
1.595 2.247 1.794 5954
1.598 2.251 1.786 7460
1.601 2.255 1.778 6102
1.611 2.270 1.778 4993
1.618 2.279 1.774 4521
1.621 2.283 1.766 4088
1.627 2.293 1.762 3959
1.630 2.297 1.754 3868
1.629 2.295 1.742 4014
1.624 2.288 1.726 5222
1.626 2.291 1.718 6326
1.629 2.295 1.710 5354
1.668 2.349 1.737 7644
1.678 2.364 1.737 10010
1.681 2.368 1.728 12619
1.692 2.383 1.728 10387
1.702 2.398 1.727 7033
1.721 2.425 1.734 5589
1.712 2.412 1.714 5990
1.706 2.404 1.698 7100
1.705 2.402 1.686 6988
1.732 2.440 1.700 6658
1.738 2.449 1.695 8470
1.741 2.453 1.686 8828
1.752 2.468 1.685 8252
1.763 2.483 1.683 7690
1.781 2.510 1.689 9990
1.788 2.519 1.684 14277
1.791 2.523 1.675 16261
1.797 2.532 1.670 13405
1.800 2.536 1.661 7922
1.782 2.511 1.634 6491
1.785 2.514 1.625 6775
1.787 2.518 1.617 8420
1.794 2.527 1.611 8906
1.792 2.525 1.599 6719
1.952 2.750 1.719 10475
1.950 2.748 1.706 10170
2.023 2.851 1.754 7835
2.026 2.854 1.744 7414
2.016 2.841 1.724 5882
2.036 2.868 1.727 7522
2.034 2.866 1.713 10439
2.095 2.952 1.749 11213
2.094 2.950 1.735 13822
2.097 2.954 1.725 12257
2.099 2.957 1.714 9153
2.110 2.973 1.710 8801
2.113 2.977 1.700 8743
2.116 2.980 1.689 8052
2.122 2.990 1.682 8149
2.197 3.095 1.724 9184
2.216 3.122 1.725 9667
2.223 3.132 1.717 8343
2.230 3.142 1.709 5450
2.284 3.217 1.734 3678
2.290 3.227 1.726 4451
2.280 3.213 1.705 6782
2.287 3.222 1.697 10079
2.294 3.232 1.689 14120
2.297 3.236 1.677 14096
2.304 3.245 1.669 11607
2.310 3.255 1.660 9597
2.304 3.247 1.643 9503
2.307 3.250 1.631 10749
2.305 3.248 1.617 7985
2.406 3.390 1.669 7768
2.413 3.400 1.660 7305
2.420 3.410 1.651 4475
2.462 3.468 1.663 3646
2.477 3.490 1.659 4813
2.467 3.475 1.638 6318
2.469 3.479 1.626 6715
2.476 3.488 1.616 4760
2.604 3.669 1.679 4690
2.607 3.672 1.666 7149
2.609 3.676 1.653 6361
2.664 3.753 1.671 9152
2.666 3.757 1.657 8024
2.673 3.766 1.646 4816
2.711 3.819 1.653 6306
2.713 3.823 1.639 7490
2.716 3.826 1.626 9244
2.723 3.836 1.615 12636
2.725 3.839 1.601 12620
2.723 3.837 1.585 8371
2.853 4.019 1.639 7852
2.860 4.029 1.627 8530
2.866 4.038 1.615 6717
2.865 4.036 1.599 4681
2.867 4.039 1.584 3672
2.997 4.222 1.634 4890
3.004 4.232 1.621 5120
3.006 4.236 1.606 4459
3.004 4.233 1.589 4934
3.011 4.242 1.576 4662
3.014 4.246 1.561 3046
3.197 4.505 1.632 2974
3.341 4.708 1.682 2974
3.344 4.711 1.665 4560
3.347 4.715 1.648 7156
3.349 4.718 1.632 6202
3.361 4.734 1.619 4979
3.359 4.732 1.600 4122
3.392 4.779 1.597 2650
3.688 5.196 1.706 2304
3.691 5.200 1.687 5491
3.684 5.191 1.665 7839
3.687 5.194 1.647 6133
3.694 5.204 1.630 6579
3.697 5.208 1.611 6044
3.699 5.211 1.593 3021
3.943 5.555 1.669 2200
3.986 5.615 1.665 2068
4.042 5.694 1.665 1747
4.103 5.780 1.667 2596
4.110 5.790 1.648 2755
4.117 5.800 1.629 2621
4.124 5.810 1.610 2472
4.400 6.199 1.686 2806
4.403 6.203 1.664 3059
4.405 6.206 1.642 3552
4.534 6.387 1.663 6156
4.532 6.384 1.638 8695
4.534 6.388 1.616 9403
4.541 6.398 1.594 7319
4.544 6.401 1.572 3454
5.060 7.129 1.709 1659
4.882 6.878 1.629 2139
4.970 7.003 1.630 2231
5.126 7.222 1.651 2026
5.138 7.239 1.628 1873
5.525 7.784 1.712 1762
5.523 7.781 1.683 1419
5.774 8.135 1.724 1608
5.777 8.139 1.695 2144
5.784 8.149 1.667 1852
5.601 7.891 1.590 1845
5.603 7.894 1.561 1979
5.601 7.891 1.532 1830
5.608 7.901 1.505 1648
5.697 8.026 1.498 1889
5.699 8.029 1.469 2045
5.697 8.026 1.439 2164
5.703 8.035 1.412 1898
5.701 8.032 1.382 1256
7.149 10.072 1.663 1076
7.147 10.069 1.626 1210
7.150 10.073 1.591 1033
7.434 10.474 1.611 1282
7.696 10.843 1.624 1313
7.708 10.859 1.587 935
7.738 10.901 1.553 953
8.264 11.643 1.608 870
8.267 11.646 1.566 816
8.269 11.650 1.524 524
8.262 11.640 1.481 356
8.324 11.727 1.449 288
4.500 6.340 -0.352 270
4.504 6.345 -0.375 269
4.507 6.350 -0.398 266
4.511 6.355 -0.421 270
1.365 1.910 1.806 4819
1.368 1.914 1.799 9638
1.371 1.918 1.792 9638
1.381 1.933 1.795 7899
1.399 1.958 1.806 7200
1.402 1.962 1.800 9354
1.405 1.965 1.793 11508
1.408 1.969 1.786 11508
1.407 1.968 1.774 14617
1.406 1.967 1.763 18460
1.408 1.970 1.756 18201
1.407 1.969 1.745 18077
1.410 1.973 1.738 13135
1.401 1.960 1.718 9251
1.404 1.964 1.711 7293
1.437 2.011 1.739 6616
1.440 2.015 1.732 6443
1.443 2.018 1.725 6348
1.503 2.103 1.782 6622
1.502 2.102 1.771 6237
1.497 2.095 1.755 6421
1.496 2.093 1.743 5518
1.499 2.097 1.736 4651
1.501 2.101 1.728 4680
1.508 2.110 1.725 4768
1.515 2.119 1.722 4745
1.592 2.227 1.793 5021
1.599 2.237 1.790 6567
1.601 2.240 1.782 8142
1.612 2.255 1.782 6400
1.623 2.270 1.782 5272
1.629 2.280 1.778 4485
1.636 2.289 1.774 3764
1.635 2.287 1.762 3898
1.634 2.286 1.750 4126
1.636 2.290 1.742 4470
1.635 2.288 1.730 5440
1.634 2.286 1.718 6230
1.673 2.340 1.745 5445
1.679 2.350 1.741 7724
1.682 2.353 1.733 10122
1.689 2.363 1.728 12637
1.695 2.372 1.724 10046
1.710 2.393 1.727 6388
1.729 2.419 1.734 5356
1.720 2.406 1.714 5243
1.718 2.404 1.702 5709
1.717 2.402 1.689 5591
1.740 2.434 1.700 6621
1.746 2.444 1.695 8362
1.749 2.447 1.686 8816
1.760 2.462 1.685 8512
1.791 2.506 1.701 8213
1.790 2.504 1.689 10083
1.796 2.513 1.684 13497
1.803 2.523 1.678 15351
1.810 2.532 1.673 12066
1.812 2.536 1.664 6496
1.786 2.499 1.631 4413
1.793 2.508 1.625 5576
1.799 2.518 1.620 7888
1.814 2.539 1.621 8536
2.004 2.803 1.767 6368
1.957 2.737 1.716 9134
1.955 2.735 1.703 8715
2.033 2.844 1.754 6938
2.027 2.836 1.737 6330
2.021 2.828 1.720 5994
2.041 2.855 1.723 8169
2.044 2.859 1.713 11122
2.046 2.863 1.703 11130
2.103 2.943 1.735 12623
2.102 2.941 1.722 10604
2.105 2.945 1.711 7637
2.120 2.966 1.710 6920
2.169 3.035 1.734 6877
2.180 3.050 1.730 6561
2.196 3.072 1.729 8321
2.207 3.088 1.724 11804
2.222 3.109 1.722 11937
2.229 3.119 1.714 10234
2.232 3.123 1.703 7646
2.234 3.126 1.692 4556
2.305 3.225 1.729 4076
2.223 3.110 1.658 4038
2.302 3.221 1.700 6888
2.309 3.231 1.691 12419
2.312 3.234 1.680 12784
2.319 3.244 1.671 9082
2.330 3.260 1.666 7727
2.324 3.251 1.648 8785
2.322 3.249 1.634 9883
2.411 3.373 1.678 8191
2.418 3.382 1.669 10146
2.424 3.392 1.660 9066
2.431 3.402 1.651 5129
2.473 3.460 1.663 4354
2.488 3.482 1.659 4631
2.478 3.467 1.638 5441
2.481 3.471 1.626 5829
2.492 3.486 1.619 4677
2.616 3.660 1.679 5137
2.619 3.664 1.666 6671
2.674 3.741 1.684 7118
2.676 3.744 1.671 10158
2.679 3.748 1.657 8622
2.690 3.764 1.649 5102
2.728 3.816 1.655 6449
2.726 3.814 1.639 8668
2.728 3.817 1.626 10830
2.735 3.827 1.615 13118
2.738 3.830 1.601 12249
2.736 3.828 1.585 7788
2.861 4.003 1.637 8948
2.868 4.013 1.625 9015
2.875 4.023 1.613 7069
2.878 4.026 1.599 5309
3.004 4.203 1.647 3817
3.011 4.213 1.634 5880
3.018 4.222 1.621 6005
3.020 4.226 1.606 5476
3.018 4.223 1.589 6551
3.025 4.233 1.576 6444
3.028 4.236 1.561 4248
3.114 4.357 1.586 3291
3.139 4.392 1.581 4250
3.355 4.694 1.663 4115
3.358 4.698 1.646 6866
3.360 4.701 1.630 5912
3.372 4.717 1.617 4223
3.387 4.739 1.606 4016
3.403 4.762 1.595 2734
3.705 5.184 1.706 2926
3.703 5.181 1.685 6474
3.706 5.185 1.667 9073
3.704 5.182 1.647 6562
3.711 5.192 1.630 6138
3.714 5.196 1.611 5922
3.716 5.199 1.593 2957
4.001 5.598 1.685 2066
4.004 5.602 1.665 2425
4.110 5.750 1.684 1997
4.117 5.760 1.665 2603
4.129 5.776 1.648 2513
4.131 5.780 1.627 2725
4.138 5.790 1.608 2608
4.357 6.096 1.664 2887
4.364 6.106 1.644 3315
4.425 6.192 1.642 3108
4.554 6.372 1.663 4821
4.552 6.369 1.638 6717
4.555 6.373 1.616 6965
4.562 6.383 1.594 5067
4.564 6.386 1.572 2071
4.993 6.985 1.681 1638
4.995 6.989 1.656 2307
4.989 6.980 1.629 2436
5.150 7.206 1.651 2434
5.162 7.222 1.628 2234
5.550 7.765 1.712 1713
5.707 7.985 1.727 1434
5.710 7.989 1.699 1702
5.804 8.120 1.695 2077
5.811 8.130 1.667 1818
5.622 7.866 1.588 1957
5.629 7.876 1.561 1960
5.718 8.000 1.555 1733
5.725 8.010 1.527 1508
5.727 8.013 1.499 1666
5.725 8.010 1.469 1904
5.723 8.007 1.439 2296
5.725 8.010 1.411 2093
5.727 8.013 1.382 1283
7.502 10.496 1.731 945
7.184 10.052 1.627 1017
7.182 10.049 1.591 990
7.468 10.449 1.611 1189
7.727 10.811 1.623 1027
7.743 10.834 1.587 702
8.103 11.337 1.613 817
8.101 11.334 1.572 742
8.300 11.613 1.565 637
8.307 11.622 1.524 452
8.011 11.209 1.435 318
4.757 6.655 -0.330 271
4.756 6.654 -0.354 255
1.371 1.906 1.806 4684
1.374 1.910 1.799 9369
1.381 1.919 1.797 9389
1.387 1.928 1.795 7561
1.405 1.953 1.806 6480
1.408 1.957 1.800 8261
1.411 1.961 1.793 10041
1.414 1.965 1.786 10041
1.413 1.964 1.774 12494
1.412 1.962 1.763 15633
1.411 1.961 1.752 15596
1.413 1.965 1.745 15642
1.412 1.963 1.733 12493
1.407 1.956 1.718 10011
1.410 1.960 1.711 8059
1.440 2.001 1.735 6957
1.438 2.000 1.723 6782
1.449 2.014 1.725 5886
1.510 2.099 1.782 6721
1.505 2.092 1.766 6904
1.500 2.085 1.750 7827
1.503 2.089 1.743 6634
1.505 2.092 1.736 5442
1.508 2.096 1.728 4897
1.515 2.105 1.725 4432
1.525 2.120 1.726 4398
1.595 2.217 1.789 5471
1.601 2.226 1.786 6929
1.604 2.230 1.778 8465
1.615 2.245 1.778 6314
1.630 2.265 1.782 5166
1.636 2.275 1.778 4270
1.512 2.102 1.641 4046
1.518 2.111 1.638 4123
1.633 2.270 1.742 4523
1.640 2.279 1.738 5039
1.642 2.283 1.730 5753
1.641 2.281 1.718 5921
1.680 2.335 1.745 5536
1.691 2.350 1.745 7507
1.693 2.354 1.737 9876
1.692 2.352 1.725 12256
1.699 2.361 1.720 9578
1.673 2.326 1.685 6814
1.676 2.329 1.677 6203
1.678 2.333 1.669 5434
1.681 2.336 1.660 4665
1.736 2.414 1.701 5028
1.747 2.429 1.700 7475
1.750 2.432 1.691 9111
1.757 2.442 1.686 9292
1.767 2.457 1.685 8993
1.782 2.478 1.687 8386
1.797 2.498 1.689 9466
1.804 2.508 1.684 11982
1.811 2.517 1.678 13849
1.818 2.527 1.673 10548
1.824 2.536 1.668 5410
1.794 2.494 1.631 3475
1.801 2.503 1.625 4868
1.811 2.518 1.623 7244
1.822 2.533 1.621 8239
2.008 2.791 1.763 6955
1.961 2.726 1.712 7348
1.989 2.764 1.723 6931
2.042 2.838 1.754 5930
2.015 2.801 1.720 6208
2.030 2.822 1.720 5995
2.050 2.849 1.723 7956
2.052 2.853 1.713 10365
2.055 2.857 1.703 10541
2.113 2.937 1.735 10981
2.111 2.934 1.722 9236
2.114 2.938 1.711 6522
2.125 2.954 1.707 5524
2.178 3.028 1.734 5975
2.194 3.050 1.733 6718
2.205 3.065 1.729 9661
2.216 3.081 1.724 13813
2.228 3.096 1.719 13746
2.234 3.106 1.711 11798
2.237 3.110 1.700 10643
2.240 3.113 1.689 9155
2.238 3.111 1.675 7021
2.232 3.103 1.658 6992
2.239 3.112 1.650 7387
2.319 3.223 1.691 10288
2.326 3.233 1.683 11287
2.333 3.243 1.674 8642
2.344 3.258 1.669 9197
2.342 3.256 1.654 10047
2.336 3.248 1.637 9196
2.421 3.365 1.678 9315
2.428 3.375 1.669 11429
2.435 3.385 1.660 9753
2.459 3.418 1.662 5822
2.479 3.446 1.660 5043
2.499 3.474 1.659 4469
2.528 3.514 1.662 6080
2.539 3.530 1.655 6459
2.546 3.539 1.645 5220
2.623 3.646 1.677 5718
2.630 3.656 1.666 6553
2.681 3.726 1.681 7046
2.688 3.736 1.671 9924
2.690 3.740 1.657 8279
2.688 3.737 1.641 5175
2.744 3.814 1.658 5523
2.738 3.805 1.639 8327
2.740 3.809 1.626 10433
2.747 3.818 1.615 11758
2.750 3.822 1.601 10297
2.748 3.819 1.585 6249
2.874 3.995 1.637 8738
2.881 4.004 1.625 8592
2.888 4.014 1.613 6562
2.890 4.017 1.599 5192
3.021 4.200 1.649 4180
3.024 4.203 1.634 5617
3.031 4.213 1.621 5852
3.038 4.223 1.609 5741
3.031 4.214 1.589 6965
3.038 4.223 1.576 7157
3.041 4.227 1.561 4567
3.137 4.360 1.590 4366
3.153 4.382 1.581 6431
3.155 4.386 1.565 4473
3.372 4.687 1.646 5642
3.375 4.691 1.630 5043
3.386 4.707 1.617 3981
3.402 4.729 1.606 4180
3.418 4.751 1.595 2632
3.533 4.910 1.626 3291
3.719 5.170 1.685 6135
3.722 5.174 1.667 8665
3.720 5.171 1.647 6057
3.727 5.181 1.630 4912
3.730 5.184 1.611 4978
3.732 5.188 1.593 2541
4.023 5.592 1.686 2367
4.021 5.590 1.665 2952
4.128 5.738 1.684 2114
4.130 5.741 1.663 2413
4.142 5.757 1.646 2185
4.144 5.761 1.626 2711
4.156 5.777 1.608 2708
4.376 6.083 1.664 2910
4.378 6.086 1.642 3174
4.445 6.178 1.642 2367
4.570 6.352 1.661 3626
4.572 6.355 1.638 4577
4.575 6.359 1.616 4478
4.582 6.369 1.594 3280
4.866 6.764 1.660 1716
4.937 6.862 1.657 1626
5.017 6.974 1.656 2183
5.015 6.971 1.630 2198
5.172 7.190 1.651 2357
5.184 7.206 1.628 2158
5.191 7.216 1.603 1570
5.732 7.968 1.727 1583
5.739 7.978 1.700 1884
5.824 8.096 1.693 1823
5.635 7.833 1.614 1883
5.646 7.849 1.588 1998
5.745 7.986 1.585 1987
5.747 7.989 1.556 1731
5.640 7.840 1.501 1316
5.761 8.008 1.501 1277
5.745 7.986 1.468 1643
5.743 7.983 1.438 2350
5.745 7.986 1.410 2120
6.898 9.589 1.631 1257
7.534 10.473 1.731 906
7.541 10.483 1.695 995
7.686 10.684 1.686 927
7.551 10.496 1.621 1053
7.549 10.493 1.582 927
7.979 11.091 1.624 680
8.138 11.312 1.613 696
7.938 11.034 1.537 728
7.940 11.037 1.497 635
8.352 11.610 1.526 375
8.354 11.613 1.484 307
1.530 2.127 -0.061 300
1.530 2.127 -0.069 334
1.530 2.126 -0.076 367
1.529 2.126 -0.084 397
1.529 2.125 -0.091 427
1.529 2.125 -0.099 427
1.528 2.124 -0.106 398
1.532 2.130 -0.115 373
1.532 2.129 -0.122 301
1.376 1.903 1.806 4662
1.379 1.907 1.799 9325
1.385 1.916 1.797 9389
1.392 1.925 1.795 7442
1.402 1.939 1.797 6075
1.413 1.954 1.800 7068
1.416 1.958 1.793 8243
1.418 1.962 1.786 8243
1.417 1.960 1.774 9858
1.413 1.954 1.759 12159
1.415 1.957 1.752 12491
1.414 1.956 1.740 12964
1.413 1.954 1.729 11582
1.412 1.953 1.718 10303
1.419 1.962 1.715 8474
1.441 1.992 1.730 7111
1.436 1.985 1.714 7057
1.516 2.096 1.794 5331
1.515 2.095 1.782 6908
1.506 2.083 1.762 7354
1.505 2.081 1.750 8441
1.508 2.085 1.743 7102
1.510 2.089 1.736 5764
1.517 2.098 1.733 4772
1.520 2.102 1.725 3826
1.585 2.193 1.785 4381
1.596 2.207 1.785 5916
1.603 2.217 1.781 7324
1.606 2.221 1.774 8856
1.608 2.225 1.766 6529
1.639 2.267 1.786 4867
1.646 2.276 1.782 3968
1.517 2.098 1.641 3708
1.524 2.107 1.638 3755
1.634 2.260 1.738 4882
1.637 2.264 1.730 5539
1.644 2.273 1.726 5911
1.658 2.294 1.730 5709
1.689 2.336 1.749 5486
1.700 2.351 1.749 7219
1.699 2.350 1.737 9327
1.698 2.348 1.725 11544
1.688 2.335 1.705 9400
1.679 2.322 1.685 8467
1.681 2.325 1.677 8054
1.684 2.329 1.669 6962
1.686 2.332 1.660 5869
1.750 2.421 1.708 5571
1.753 2.425 1.700 8869
1.756 2.428 1.691 10366
1.763 2.438 1.686 10207
1.773 2.453 1.685 9943
1.780 2.462 1.680 8846
1.799 2.488 1.685 8549
1.806 2.498 1.680 9901
1.825 2.524 1.686 11834
1.832 2.534 1.680 9134
1.855 2.566 1.689 4752
1.929 2.667 1.739 3569
1.932 2.671 1.730 4568
1.859 2.571 1.658 6649
1.862 2.575 1.649 7850
2.015 2.787 1.763 7096
2.022 2.796 1.757 6990
1.999 2.765 1.726 6027
2.006 2.775 1.720 5426
2.017 2.790 1.717 5966
2.041 2.823 1.724 5672
2.057 2.844 1.723 6902
2.059 2.848 1.713 8441
2.062 2.852 1.703 8806
2.120 2.931 1.735 9477
2.114 2.923 1.718 8601
2.117 2.927 1.708 6023
2.179 3.013 1.742 4611
2.181 3.017 1.731 5929
2.210 3.056 1.739 6642
2.217 3.066 1.732 10502
2.224 3.075 1.724 14916
2.235 3.091 1.719 14756
2.242 3.101 1.711 12679
2.240 3.098 1.697 12921
2.243 3.102 1.686 13119
2.246 3.106 1.675 10806
2.240 3.097 1.658 9559
2.247 3.107 1.650 8926
2.331 3.224 1.694 8475
2.338 3.233 1.686 9927
2.341 3.237 1.674 9186
2.348 3.247 1.666 10886
2.350 3.250 1.654 11446
2.344 3.242 1.637 9065
2.429 3.359 1.678 9288
2.436 3.369 1.669 11610
2.443 3.379 1.660 9617
2.472 3.418 1.664 6499
2.487 3.440 1.660 5746
2.512 3.474 1.661 4273
2.536 3.508 1.662 6810
2.548 3.523 1.655 7845
2.555 3.533 1.645 6173
2.632 3.640 1.677 5607
2.639 3.649 1.666 6413
2.690 3.720 1.681 5900
2.697 3.729 1.671 8114
2.699 3.733 1.657 7081
2.697 3.731 1.641 5306
2.704 3.740 1.631 5457
2.751 3.805 1.642 6312
2.749 3.802 1.626 8210
2.752 3.806 1.612 9144
2.759 3.815 1.601 7502
2.881 3.984 1.651 4406
2.888 3.994 1.639 7514
2.890 3.997 1.625 7397
2.902 4.013 1.615 5738
2.904 4.017 1.601 4650
3.031 4.192 1.649 3789
3.034 4.196 1.634 4440
3.045 4.212 1.624 5057
3.048 4.215 1.609 5325
3.041 4.206 1.589 6004
3.048 4.216 1.576 6258
3.140 4.343 1.604 4102
3.196 4.421 1.613 5426
3.163 4.375 1.581 7990
3.197 4.421 1.579 5049
3.213 4.443 1.570 6383
3.215 4.447 1.554 6526
3.218 4.450 1.538 5107
3.216 4.447 1.520 4221
3.218 4.450 1.504 2775
3.549 4.908 1.627 3495
3.732 5.161 1.685 4753
3.734 5.165 1.667 6810
3.737 5.168 1.648 4889
3.740 5.172 1.630 3662
3.742 5.175 1.611 3753
3.740 5.172 1.591 1987
4.037 5.583 1.686 2591
4.035 5.580 1.665 3297
4.141 5.728 1.684 2046
4.144 5.731 1.663 2077
4.147 5.735 1.643 1696
4.149 5.738 1.622 2430
4.392 6.075 1.687 2499
4.391 6.072 1.664 2600
4.393 6.076 1.642 2528
4.587 6.343 1.685 1675
4.589 6.347 1.663 2893
4.587 6.344 1.638 3267
4.599 6.360 1.619 3122
4.602 6.364 1.596 2313
4.905 6.784 1.667 1775
4.963 6.863 1.660 1601
4.951 6.848 1.631 1944
5.160 7.136 1.668 1865
5.190 7.177 1.651 2317
5.201 7.193 1.628 2081
5.208 7.203 1.603 1560
5.747 7.947 1.726 1612
5.758 7.964 1.700 1946
5.839 8.075 1.692 1502
5.654 7.819 1.614 1884
5.661 7.829 1.587 1901
5.769 7.978 1.586 1957
5.771 7.981 1.557 1682
5.650 7.813 1.499 1413
5.652 7.816 1.471 1346
5.760 7.966 1.467 1472
5.758 7.963 1.437 2406
5.760 7.966 1.409 2142
6.922 9.572 1.631 1294
6.910 9.557 1.594 879
7.567 10.465 1.695 958
6.892 9.532 1.521 929
7.576 10.478 1.621 945
7.948 10.992 1.654 846
7.959 11.008 1.616 721
7.962 11.011 1.576 737
7.964 11.015 1.537 822
7.967 11.018 1.497 693
7.969 11.021 1.458 380
8.392 11.605 1.486 336
8.403 11.621 1.446 275
1.539 2.128 -0.092 253
1.538 2.127 -0.100 253
1.383 1.898 1.806 4827
1.386 1.902 1.799 9655
1.392 1.911 1.797 9810
1.399 1.920 1.795 7810
1.406 1.929 1.793 6226
1.416 1.943 1.795 6059
1.423 1.952 1.793 6307
1.426 1.956 1.786 6307
1.425 1.955 1.774 6936
1.416 1.943 1.754 8294
1.415 1.942 1.743 9049
1.414 1.940 1.731 10124
1.420 1.949 1.729 10007
1.423 1.953 1.722 10000
1.430 1.962 1.720 8231
1.440 1.976 1.721 6800
1.443 1.980 1.714 6790
1.524 2.091 1.794 5416
1.526 2.095 1.787 6997
1.514 2.077 1.762 7176
1.512 2.076 1.750 8167
1.515 2.079 1.743 6973
1.522 2.089 1.740 5789
1.525 2.092 1.733 4419
1.579 2.167 1.780 3262
1.594 2.187 1.785 4674
1.600 2.196 1.781 6537
1.603 2.200 1.773 7932
1.610 2.209 1.770 9427
1.609 2.208 1.758 7240
1.607 2.206 1.746 5165
1.610 2.210 1.738 3953
1.661 2.280 1.778 2971
1.624 2.228 1.730 3795
1.635 2.243 1.730 5243
1.641 2.252 1.726 6008
1.648 2.262 1.722 6160
1.671 2.293 1.734 5814
1.653 2.269 1.706 5715
1.709 2.345 1.749 6956
1.708 2.343 1.737 8507
1.706 2.341 1.725 10347
1.685 2.312 1.693 9741
1.687 2.315 1.685 9964
1.694 2.325 1.681 10129
1.697 2.328 1.672 8782
1.699 2.332 1.664 7434
1.759 2.414 1.708 6704
1.762 2.418 1.700 10527
1.765 2.422 1.691 11918
1.772 2.431 1.686 11502
1.782 2.446 1.685 11037
1.785 2.450 1.676 9553
1.784 2.448 1.664 7466
1.840 2.525 1.702 8305
1.843 2.529 1.693 10536
1.854 2.544 1.691 8530
1.869 2.565 1.692 5611
1.939 2.660 1.739 4748
1.941 2.664 1.730 5345
1.873 2.570 1.662 6187
1.875 2.574 1.652 7884
1.882 2.583 1.647 7146
2.032 2.789 1.757 6352
2.031 2.787 1.743 4928
2.017 2.767 1.720 4895
2.024 2.777 1.714 5369
2.073 2.844 1.740 5205
2.071 2.842 1.727 5572
2.066 2.834 1.710 6054
2.136 2.931 1.752 6773
2.130 2.924 1.735 8018
2.120 2.910 1.715 8568
2.123 2.913 1.705 6113
2.130 2.923 1.698 4259
2.188 3.003 1.728 5180
2.230 3.060 1.746 6496
2.232 3.063 1.735 10610
2.235 3.067 1.724 14973
2.242 3.077 1.716 15196
2.249 3.086 1.708 13297
2.247 3.084 1.694 14917
2.254 3.094 1.686 16395
2.257 3.097 1.675 13414
2.251 3.089 1.658 10970
2.258 3.099 1.650 9373
2.347 3.221 1.697 7107
2.350 3.225 1.686 9140
2.353 3.228 1.674 9943
2.355 3.232 1.663 11917
2.358 3.236 1.651 11452
2.360 3.239 1.640 8206
2.442 3.350 1.678 8187
2.444 3.354 1.666 10538
2.460 3.376 1.663 8653
2.484 3.409 1.664 7031
2.496 3.425 1.658 6229
2.512 3.447 1.653 4132
2.549 3.498 1.662 6680
2.561 3.514 1.655 8407
2.572 3.530 1.648 6919
2.570 3.527 1.633 5193
2.652 3.640 1.666 5974
2.650 3.637 1.651 5342
2.706 3.713 1.668 5400
2.673 3.668 1.635 5199
2.711 3.721 1.641 5289
2.718 3.730 1.631 6061
2.814 3.862 1.669 4813
2.817 3.865 1.655 7469
2.819 3.869 1.641 6951
2.822 3.872 1.627 5015
2.829 3.882 1.616 3865
2.907 3.989 1.641 6338
2.910 3.993 1.627 6083
2.921 4.008 1.617 4691
2.928 4.018 1.605 4044
3.047 4.181 1.649 2677
3.054 4.191 1.636 2788
3.056 4.194 1.621 4024
3.063 4.204 1.609 4343
3.061 4.201 1.591 3987
3.064 4.205 1.576 3910
3.147 4.319 1.599 3839
3.213 4.409 1.613 6345
3.179 4.363 1.581 8607
3.213 4.410 1.579 6594
3.229 4.431 1.570 8525
3.232 4.435 1.554 9138
3.234 4.438 1.538 7229
3.232 4.435 1.520 5845
3.234 4.438 1.504 3906
3.567 4.895 1.627 3597
3.751 5.147 1.685 3072
3.753 5.151 1.667 4419
3.751 5.148 1.647 3516
3.809 5.226 1.650 3401
3.838 5.267 1.642 2407
4.000 5.489 1.685 1980
4.053 5.561 1.685 2696
4.051 5.559 1.663 3334
4.172 5.725 1.687 1993
4.147 5.691 1.657 1701
4.145 5.688 1.635 1903
4.170 5.723 1.622 2337
4.424 6.071 1.690 2558
4.431 6.081 1.670 2460
4.210 5.777 1.572 1871
4.610 6.326 1.685 1765
4.613 6.330 1.663 2538
4.615 6.334 1.640 2705
4.623 6.343 1.619 2499
4.625 6.347 1.596 1876
4.930 6.766 1.667 1720
4.988 6.845 1.660 1332
4.981 6.836 1.633 1515
5.186 7.117 1.668 2215
5.212 7.152 1.649 2246
5.232 7.180 1.629 1863
5.240 7.190 1.604 1403
5.776 7.926 1.726 1523
5.788 7.943 1.700 1784
5.800 7.959 1.674 1408
5.678 7.792 1.613 1743
5.685 7.801 1.586 1612
5.803 7.963 1.587 1854
5.805 7.966 1.558 1673
5.674 7.786 1.497 1528
5.676 7.789 1.469 1465
5.785 7.938 1.466 1456
5.782 7.935 1.436 2433
5.784 7.938 1.408 2165
6.957 9.547 1.631 1410
6.950 9.538 1.595 917
7.610 10.443 1.696 870
6.932 9.512 1.522 928
7.786 10.685 1.654 1042
7.988 10.962 1.654 910
7.995 10.972 1.615 762
8.003 10.982 1.576 780
8.005 10.985 1.537 905
8.003 10.982 1.497 795
8.010 10.992 1.458 394
8.439 11.581 1.487 360
8.446 11.590 1.446 342
8.448 11.593 1.404 252
1.544 2.119 -0.047 306
1.548 2.125 -0.055 393
1.548 2.124 -0.062 486
1.548 2.124 -0.070 545
1.543 2.117 -0.076 611
1.542 2.116 -0.084 636
1.542 2.116 -0.091 661
1.542 2.115 -0.099 661
1.541 2.115 -0.106 606
1.541 2.114 -0.114 550
1.540 2.114 -0.121 455
1.540 2.113 -0.129 359
1.539 2.112 -0.136 286
1.542 2.117 -0.160 272
1.394 1.889 1.806 5127
1.397 1.893 1.799 10254
1.404 1.902 1.797 10530
1.411 1.911 1.795 8560
1.417 1.920 1.793 6843
1.393 1.888 1.754 5498
1.400 1.897 1.752 5035
1.403 1.901 1.745 5035
1.413 1.915 1.747 4605
1.424 1.929 1.750 4665
1.423 1.928 1.738 5998
1.422 1.926 1.727 7534
1.428 1.935 1.725 7918
1.439 1.949 1.727 8782
1.442 1.953 1.720 7250
1.452 1.968 1.721 5981
1.455 1.971 1.714 5974
1.536 2.082 1.794 5401
1.543 2.091 1.791 6944
1.522 2.063 1.758 6704
1.525 2.066 1.750 7588
1.528 2.070 1.743 6654
1.535 2.079 1.740 5749
1.533 2.078 1.728 4000
1.588 2.152 1.776 3647
1.603 2.172 1.780 4902
1.614 2.186 1.781 7038
1.616 2.190 1.773 8400
1.619 2.194 1.765 9763
1.622 2.198 1.758 7657
1.625 2.202 1.750 5551
1.628 2.205 1.742 4211
1.626 2.204 1.730 2911
1.637 2.218 1.730 4168
1.644 2.228 1.726 5719
