3.083 2.212 -0.264 343
3.082 2.211 -0.275 343
1.860 1.326 1.759 4866
1.863 1.329 1.753 9733
1.867 1.332 1.746 9733
1.882 1.342 1.749 9305
1.885 1.345 1.742 9238
1.884 1.344 1.731 10147
1.882 1.343 1.720 11624
1.886 1.345 1.713 11624
1.895 1.352 1.711 11934
1.899 1.354 1.705 12397
1.908 1.361 1.703 12101
1.944 1.386 1.723 12700
1.958 1.397 1.725 12149
1.967 1.403 1.722 12097
1.971 1.406 1.715 10510
1.969 1.405 1.704 9066
1.968 1.403 1.693 9028
1.971 1.406 1.686 8202
1.980 1.412 1.683 7479
1.995 1.423 1.685 7236
2.020 1.441 1.695 8754
2.029 1.447 1.692 7852
2.039 1.454 1.689 7187
2.042 1.457 1.682 4945
2.024 1.444 1.658 3267
2.104 1.501 1.709 3979
2.114 1.507 1.706 5745
2.123 1.514 1.703 6592
2.132 1.521 1.700 7606
2.125 1.515 1.684 7949
2.117 1.510 1.668 8809
2.115 1.509 1.657 8833
2.119 1.511 1.649 8971
2.122 1.514 1.642 9767
2.132 1.520 1.638 9468
2.157 1.539 1.647 8459
2.139 1.525 1.623 9116
2.148 1.532 1.620 9918
2.151 1.534 1.612 8258
2.155 1.537 1.605 6597
2.158 1.539 1.597 6177
2.167 1.546 1.593 4630
2.272 1.621 1.655 4147
2.304 1.643 1.666 4483
2.319 1.654 1.665 5304
2.317 1.653 1.653 4229
2.445 1.744 1.728 3983
2.455 1.751 1.723 4595
2.476 1.766 1.726 6443
2.485 1.772 1.721 8033
2.500 1.783 1.719 6753
2.527 1.802 1.725 5721
2.514 1.793 1.705 5115
2.523 1.799 1.700 4772
2.538 1.810 1.698 4795
2.542 1.813 1.689 5047
2.528 1.803 1.670 6079
2.549 1.818 1.671 8375
2.553 1.821 1.662 9806
2.620 1.869 1.692 8354
2.624 1.871 1.682 10569
2.627 1.874 1.673 12591
2.596 1.852 1.643 15817
2.594 1.850 1.631 18739
2.597 1.853 1.622 10969
2.636 1.880 1.633 6935
2.634 1.878 1.620 9718
2.637 1.881 1.611 11101
2.652 1.892 1.608 8916
2.656 1.894 1.599 8275
2.653 1.893 1.586 7986
2.657 1.895 1.577 6717
2.654 1.893 1.564 7871
2.658 1.896 1.555 11559
2.661 1.898 1.545 14455
2.664 1.900 1.536 15554
2.668 1.903 1.526 13960
2.671 1.905 1.517 9756
2.674 1.907 1.508 6393
2.684 1.914 1.501 8132
2.693 1.920 1.495 12033
2.696 1.923 1.485 10626
2.693 1.921 1.473 8423
2.690 1.919 1.460 13583
2.699 1.925 1.454 18575
2.709 1.932 1.447 19501
2.712 1.934 1.438 18866
2.715 1.936 1.428 16657
2.718 1.938 1.419 11651
2.715 1.936 1.406 8743
2.718 1.938 1.396 11636
2.727 1.945 1.390 16548
2.730 1.947 1.380 20249
2.739 1.953 1.373 18686
2.736 1.951 1.361 12367
2.745 1.957 1.354 9762
2.760 1.968 1.350 10106
2.762 1.970 1.340 8791
2.759 1.968 1.327 8587
2.768 1.974 1.320 6058
2.783 1.985 1.316 3387
2.792 1.991 1.309 4240
2.801 1.998 1.301 7924
2.810 2.004 1.294 12323
2.812 2.006 1.284 14649
2.821 2.012 1.277 13341
2.818 2.010 1.264 11982
2.820 2.012 1.254 9801
2.823 2.013 1.244 8341
2.820 2.011 1.232 10359
2.822 2.013 1.222 6902
2.825 2.015 1.212 4178
2.840 2.025 1.207 5378
2.848 2.031 1.199 6039
2.851 2.033 1.189 5129
2.859 2.039 1.181 7053
2.868 2.046 1.173 9581
2.870 2.047 1.163 7829
2.879 2.053 1.155 6577
2.888 2.060 1.147 8290
2.896 2.066 1.139 8425
2.899 2.067 1.129 6766
2.895 2.065 1.117 5533
2.891 2.062 1.104 6156
2.893 2.063 1.094 8850
2.902 2.069 1.086 9297
2.904 2.071 1.076 8028
4.202 2.997 1.485 6032
4.199 2.995 1.468 9150
4.203 2.997 1.453 6037
2.906 2.073 1.033 4301
4.209 3.002 1.423 4830
4.212 3.004 1.408 4560
4.215 3.006 1.393 4211
4.218 3.008 1.378 3019
4.164 2.970 1.347 5200
4.167 2.972 1.332 7289
4.164 2.970 1.316 7992
4.160 2.967 1.299 8850
4.169 2.973 1.286 8331
4.172 2.975 1.271 6337
4.225 3.013 1.270 5682
4.221 3.011 1.253 6768
4.224 3.013 1.238 8239
4.233 3.019 1.225 7126
4.235 3.021 1.210 4473
4.232 3.018 1.193 3038
4.253 3.033 1.183 2493
5.134 3.662 1.383 3785
5.137 3.664 1.364 6317
5.134 3.661 1.345 9245
5.136 3.663 1.326 9681
5.139 3.665 1.308 6539
5.142 3.667 1.290 6134
5.151 3.674 1.273 9071
5.154 3.676 1.255 9942
5.156 3.678 1.236 6143
5.159 3.679 1.218 2806
5.168 3.686 1.201 3285
5.170 3.688 1.182 3169
5.644 4.025 1.258 3821
5.653 4.032 1.239 3389
5.655 4.033 1.219 2870
6.257 4.462 1.312 2741
6.272 4.473 1.292 3498
6.205 4.425 1.257 3895
6.118 4.363 1.219 3965
6.120 4.365 1.197 5851
6.129 4.372 1.177 4618
6.164 4.396 1.160 4783
6.179 4.407 1.140 4774
6.117 4.363 1.108 4300
6.120 4.365 1.086 4184
6.128 4.371 1.065 4024
6.124 4.368 1.043 5247
6.126 4.369 1.021 7096
6.128 4.371 0.999 8049
6.130 4.372 0.977 6459
6.113 4.360 0.953 3255
6.160 4.393 0.937 2738
6.162 4.395 0.915 3487
6.151 4.387 0.891 2723
6.101 4.351 0.863 2886
6.109 4.357 0.842 3479
6.117 4.363 0.821 4544
6.112 4.359 0.799 3933
6.506 4.640 0.818 2626
6.199 4.421 0.764 2478
6.509 4.642 0.772 2445
6.517 4.648 0.749 3786
6.525 4.653 0.727 3934
6.532 4.659 0.704 3390
6.514 4.646 0.679 2789
6.509 4.642 0.655 2650
6.510 4.643 0.632 2619
6.518 4.649 0.610 2109
6.525 4.654 0.587 1420
6.816 4.861 0.582 1339
6.824 4.867 0.559 1278
6.825 4.867 0.534 1109
6.851 4.886 0.511 1148
6.852 4.887 0.487 1260
6.840 4.878 0.462 999
7.131 5.086 0.450 744
6.880 4.907 0.415 889
6.881 4.907 0.390 829
11.572 8.253 0.521 982
11.579 8.258 0.480 1306
11.580 8.259 0.438 1302
11.587 8.264 0.397 1064
11.594 8.269 0.356 849
11.601 8.274 0.314 767
11.608 8.279 0.273 707
11.608 8.279 0.232 636
11.608 8.279 0.190 565
11.602 8.275 0.149 475
11.737 8.371 0.107 314
7.096 5.061 0.069 286
7.096 5.061 0.044 261
8.365 5.966 -0.451 264
3.433 2.449 -0.162 267
3.432 2.448 -0.174 345
3.432 2.447 -0.186 393
3.431 2.447 -0.199 441
3.430 2.446 -0.211 415
3.429 2.446 -0.223 389
3.428 2.445 -0.235 293
2.925 2.086 -0.211 280
2.918 2.081 -0.220 316
2.923 2.085 -0.231 320
3.089 2.203 -0.264 342
3.088 2.203 -0.275 342
1.871 1.322 1.764 4613
1.875 1.324 1.757 9227
1.878 1.327 1.751 9227
1.888 1.334 1.749 8665
1.897 1.340 1.747 8386
1.890 1.335 1.731 9725
1.888 1.334 1.720 11618
1.892 1.337 1.713 11618
1.901 1.343 1.711 11950
1.905 1.346 1.705 12451
1.914 1.352 1.703 11617
1.950 1.378 1.723 11298
1.964 1.388 1.725 10926
1.973 1.394 1.722 11025
1.977 1.397 1.715 9280
1.981 1.400 1.708 7536
1.979 1.398 1.697 7510
1.983 1.401 1.690 6795
1.987 1.404 1.683 6054
2.001 1.414 1.685 6293
2.027 1.432 1.695 8142
2.041 1.442 1.696 7355
2.050 1.449 1.693 6750
2.054 1.451 1.686 5173
2.080 1.469 1.696 3953
2.094 1.480 1.697 3693
2.120 1.498 1.706 5193
2.129 1.505 1.703 6416
2.133 1.507 1.695 7663
2.137 1.510 1.688 7900
2.135 1.508 1.676 8225
2.128 1.503 1.661 7917
2.126 1.502 1.649 7861
2.135 1.508 1.646 8390
2.138 1.511 1.638 7860
2.170 1.533 1.651 7330
2.213 1.563 1.671 8530
2.216 1.566 1.663 10224
2.226 1.572 1.659 8640
2.229 1.575 1.651 7230
2.233 1.578 1.644 5902
2.174 1.536 1.593 4463
2.279 1.611 1.655 3869
2.306 1.629 1.662 4303
2.321 1.640 1.662 5085
2.324 1.642 1.653 3983
2.453 1.733 1.728 3296
2.468 1.744 1.727 4358
2.484 1.755 1.726 7523
2.493 1.761 1.721 9553
2.508 1.772 1.719 7892
2.523 1.783 1.718 6186
2.521 1.782 1.705 5541
2.531 1.788 1.700 5278
2.546 1.799 1.698 5322
2.538 1.793 1.682 5275
2.536 1.792 1.670 6950
2.551 1.803 1.668 9599
2.561 1.809 1.662 11093
2.634 1.861 1.695 9098
2.638 1.864 1.686 10679
2.578 1.821 1.639 12684
2.593 1.832 1.636 18524
2.596 1.834 1.627 22330
2.600 1.837 1.618 13949
2.615 1.848 1.616 8585
2.624 1.854 1.610 9268
2.634 1.861 1.604 8832
2.649 1.872 1.601 7755
2.653 1.874 1.592 9073
2.650 1.872 1.579 9520
2.654 1.875 1.570 8590
2.657 1.877 1.561 9506
2.666 1.884 1.555 12125
2.670 1.886 1.545 14714
2.673 1.888 1.536 16145
2.676 1.891 1.526 15512
2.680 1.893 1.517 11433
2.677 1.891 1.505 6825
2.686 1.898 1.498 7253
2.695 1.904 1.492 9987
2.704 1.911 1.485 8465
2.702 1.909 1.473 8608
2.699 1.907 1.460 14442
2.708 1.913 1.454 16522
2.717 1.920 1.447 16552
2.720 1.922 1.438 16628
2.723 1.924 1.428 15502
2.726 1.926 1.419 11456
2.723 1.924 1.406 8614
2.726 1.926 1.396 12139
2.735 1.933 1.390 17871
2.738 1.935 1.380 21123
2.741 1.937 1.370 18946
2.744 1.939 1.361 12944
2.741 1.937 1.348 10685
2.750 1.943 1.341 8997
2.759 1.949 1.334 8916
2.762 1.951 1.325 10748
2.759 1.949 1.312 8104
2.749 1.942 1.297 4463
2.801 1.979 1.309 2659
2.810 1.985 1.301 6314
2.818 1.991 1.294 9378
2.821 1.993 1.284 11076
2.824 1.995 1.274 11118
2.821 1.993 1.262 9127
2.823 1.995 1.252 6304
2.826 1.997 1.242 5906
2.828 1.998 1.232 8288
2.831 2.000 1.222 6815
2.834 2.002 1.212 5951
2.842 2.008 1.204 6945
2.845 2.010 1.194 7292
2.847 2.012 1.184 7350
2.862 2.022 1.179 8991
2.871 2.028 1.171 10858
2.880 2.034 1.163 8509
2.888 2.041 1.155 6084
2.903 2.051 1.149 6576
2.912 2.057 1.141 7350
2.914 2.059 1.131 6920
2.898 2.047 1.114 6678
2.906 2.053 1.106 8212
2.908 2.055 1.096 11686
2.911 2.057 1.086 13592
2.913 2.058 1.076 12028
2.915 2.060 1.065 6423
4.219 2.981 1.470 7285
2.913 2.058 1.043 5018
2.915 2.060 1.033 4304
2.911 2.057 1.020 3858
2.913 2.058 1.010 4159
2.915 2.060 1.000 3094
4.162 2.941 1.358 3198
4.177 2.951 1.347 5376
4.180 2.953 1.332 7169
4.177 2.951 1.316 8043
4.173 2.949 1.299 8617
4.182 2.955 1.286 7676
4.191 2.961 1.273 5909
4.238 2.994 1.270 6448
4.235 2.992 1.253 7855
4.237 2.994 1.238 9602
4.246 3.000 1.225 8402
4.255 3.006 1.212 5860
4.258 3.008 1.197 4528
4.266 3.014 1.183 3565
4.282 3.025 1.171 4272
5.153 3.641 1.364 4673
5.156 3.643 1.346 6968
5.159 3.645 1.328 7191
5.162 3.647 1.309 4606
5.165 3.649 1.291 3945
5.167 3.651 1.273 6097
5.170 3.653 1.255 7210
5.173 3.655 1.236 4955
5.182 3.661 1.219 2404
5.191 3.667 1.202 2388
5.652 3.994 1.277 2891
5.655 3.995 1.257 3819
5.670 4.006 1.239 3423
5.552 3.922 1.196 3279
5.554 3.924 1.176 3274
6.222 4.396 1.279 2846
6.224 4.398 1.257 3750
6.137 4.336 1.219 4683
6.140 4.338 1.197 6648
6.149 4.344 1.177 5181
6.177 4.364 1.159 4581
6.141 4.339 1.131 4515
6.137 4.336 1.108 4982
6.139 4.337 1.086 4591
6.141 4.339 1.065 4454
6.143 4.341 1.043 6184
6.146 4.342 1.021 7950
6.148 4.343 0.999 8616
6.143 4.340 0.976 6800
6.132 4.333 0.953 3500
6.108 4.316 0.928 2831
6.104 4.313 0.905 3097
6.106 4.314 0.884 2980
6.120 4.324 0.863 3219
6.128 4.330 0.842 3923
6.130 4.331 0.821 5178
6.132 4.332 0.799 4478
6.127 4.329 0.777 2922
6.212 4.389 0.763 2773
6.529 4.613 0.772 2606
6.537 4.619 0.749 4019
6.539 4.620 0.726 3858
6.540 4.621 0.703 3112
6.529 4.613 0.679 2882
6.523 4.609 0.655 2943
6.531 4.614 0.632 2951
6.539 4.620 0.610 2381
6.546 4.625 0.587 1513
6.838 4.831 0.582 1258
6.845 4.836 0.559 1138
6.846 4.837 0.534 979
6.873 4.856 0.511 1000
6.867 4.852 0.487 1136
6.862 4.848 0.462 979
7.147 5.049 0.450 981
7.154 5.054 0.425 1106
7.148 5.050 0.399 837
11.608 8.202 0.521 792
11.622 8.211 0.480 1088
11.623 8.212 0.438 1077
7.228 5.107 0.299 934
11.644 8.227 0.356 728
11.644 8.227 0.315 760
7.106 5.020 0.221 810
7.106 5.020 0.196 797
7.106 5.021 0.170 676
7.106 5.021 0.145 498
7.106 5.021 0.120 320
7.106 5.021 0.095 295
7.112 5.025 0.069 276
7.112 5.025 0.044 260
8.393 5.930 -0.422 264
8.392 5.929 -0.451 285
8.390 5.928 -0.481 277
8.389 5.927 -0.511 270
3.437 2.429 -0.162 269
3.604 2.547 -0.189 362
3.442 2.432 -0.186 394
3.442 2.432 -0.199 443
3.441 2.431 -0.211 421
3.440 2.430 -0.223 399
3.439 2.430 -0.235 304
2.936 2.074 -0.190 368
2.935 2.074 -0.200 433
2.934 2.073 -0.211 468
2.927 2.068 -0.220 504
2.933 2.072 -0.231 513
2.932 2.071 -0.242 525
2.931 2.071 -0.252 527
2.930 2.070 -0.262 263
1.875 1.316 1.764 4318
1.879 1.318 1.757 8636
1.883 1.321 1.751 8636
1.892 1.328 1.749 8002
1.901 1.334 1.747 7731
1.894 1.329 1.731 9230
1.893 1.328 1.720 11435
1.896 1.331 1.713 11435
1.900 1.333 1.707 11851
1.909 1.340 1.705 12468
1.913 1.342 1.698 11281
1.917 1.345 1.691 10093
1.969 1.382 1.725 9507
1.978 1.388 1.722 9745
1.982 1.391 1.715 7963
1.991 1.397 1.713 6269
1.989 1.396 1.701 6225
1.993 1.398 1.694 5606
1.997 1.401 1.687 4943
2.011 1.411 1.689 5477
2.037 1.429 1.699 7528
2.051 1.440 1.701 6881
2.055 1.442 1.693 6382
2.064 1.449 1.690 5701
2.074 1.455 1.687 5155
2.088 1.465 1.689 4419
2.131 1.495 1.710 4648
2.134 1.498 1.703 5979
2.138 1.500 1.695 7311
2.142 1.503 1.688 7509
2.145 1.505 1.680 7707
2.144 1.504 1.669 7154
2.136 1.499 1.653 6974
2.145 1.505 1.650 7004
2.166 1.520 1.654 6198
2.208 1.550 1.675 6181
2.218 1.556 1.671 8993
2.221 1.559 1.663 10992
2.231 1.565 1.659 9621
2.234 1.568 1.651 8360
2.238 1.570 1.644 6900
2.185 1.533 1.597 4085
2.279 1.599 1.651 3854
2.305 1.618 1.658 4095
2.326 1.632 1.662 4717
2.330 1.635 1.653 3640
2.459 1.725 1.728 3150
2.474 1.736 1.727 4589
2.495 1.751 1.729 8741
2.504 1.757 1.724 11031
2.514 1.764 1.719 8893
2.523 1.771 1.714 6656
2.527 1.773 1.705 6136
2.537 1.780 1.700 5706
2.552 1.791 1.698 5477
2.538 1.781 1.678 5330
2.542 1.784 1.670 7123
2.557 1.794 1.668 9701
2.573 1.805 1.666 11008
2.640 1.853 1.695 10464
2.644 1.855 1.686 11695
2.589 1.817 1.642 15387
2.599 1.824 1.636 21080
2.602 1.826 1.627 25476
2.606 1.829 1.618 17668
2.615 1.835 1.612 11796
2.625 1.842 1.607 10819
2.622 1.840 1.594 9205
2.643 1.855 1.595 8453
2.653 1.861 1.589 10411
2.656 1.864 1.579 10854
2.660 1.866 1.570 10349
2.663 1.869 1.561 10926
2.672 1.875 1.555 12488
2.676 1.878 1.545 15226
2.673 1.876 1.533 17211
2.676 1.878 1.523 16962
2.680 1.880 1.514 13192
2.677 1.878 1.501 8227
2.686 1.885 1.495 7436
2.701 1.896 1.492 7591
2.711 1.902 1.485 6430
2.702 1.896 1.470 9767
2.699 1.894 1.457 16055
2.708 1.900 1.451 15031
2.717 1.907 1.444 13576
2.720 1.909 1.435 13927
2.729 1.915 1.428 13259
2.733 1.917 1.419 10199
2.736 1.920 1.409 7575
2.733 1.917 1.396 11500
2.742 1.924 1.390 17981
2.745 1.926 1.380 20813
2.748 1.928 1.370 17762
2.744 1.926 1.358 13096
2.741 1.924 1.346 13374
2.750 1.930 1.339 11142
2.759 1.936 1.332 10518
2.762 1.938 1.322 13240
2.765 1.940 1.312 11442
2.768 1.942 1.303 6274
2.789 1.957 1.301 2766
2.816 1.976 1.301 4671
2.825 1.982 1.294 6470
2.828 1.984 1.284 7845
2.824 1.982 1.272 10031
2.821 1.979 1.259 8092
2.823 1.981 1.249 4583
2.820 1.979 1.237 4804
2.829 1.985 1.229 6703
2.837 1.991 1.222 6426
2.840 1.993 1.212 7077
2.843 1.995 1.202 8109
2.851 2.001 1.194 9021
2.854 2.003 1.184 10195
2.862 2.009 1.177 11642
2.871 2.015 1.169 11978
2.886 2.025 1.163 8420
2.901 2.036 1.157 5834
2.910 2.042 1.149 5650
2.918 2.048 1.141 5723
2.908 2.041 1.127 6263
2.898 2.034 1.112 7802
2.907 2.040 1.104 9233
2.909 2.041 1.094 13119
2.917 2.047 1.086 14704
2.920 2.049 1.076 12873
2.922 2.050 1.065 7272
4.228 2.967 1.470 4856
2.920 2.049 1.043 4930
2.916 2.046 1.031 5046
2.962 2.078 1.034 3671
2.920 2.049 1.010 3566
2.916 2.046 0.998 3401
4.178 2.932 1.360 2952
4.181 2.934 1.345 4701
4.190 2.940 1.332 6074
4.186 2.938 1.316 7023
4.183 2.935 1.299 7208
4.198 2.946 1.288 6119
4.207 2.952 1.275 4953
4.248 2.981 1.270 6195
4.244 2.978 1.253 7761
4.247 2.980 1.238 9602
4.262 2.991 1.227 8742
4.271 2.997 1.213 6888
4.274 2.999 1.198 5928
4.282 3.005 1.185 4459
4.291 3.011 1.171 4541
4.294 3.013 1.156 3428
5.168 3.626 1.346 4854
5.171 3.628 1.328 5384
5.180 3.635 1.311 4241
5.183 3.637 1.293 4589
5.179 3.634 1.273 6731
5.182 3.636 1.255 8337
5.191 3.642 1.238 7079
5.193 3.644 1.219 4553
5.202 3.651 1.202 3836
5.198 3.648 1.182 3323
5.668 3.977 1.257 3379
5.562 3.903 1.216 3182
5.564 3.905 1.196 4097
5.567 3.906 1.176 4105
5.569 3.908 1.157 3083
6.238 4.378 1.257 3299
6.151 4.316 1.219 4937
6.154 4.318 1.197 6799
6.163 4.324 1.177 5238
6.178 4.335 1.157 4256
6.155 4.319 1.131 4593
6.151 4.316 1.108 5180
6.153 4.318 1.086 4649
6.155 4.319 1.065 4573
6.151 4.316 1.042 6503
6.153 4.318 1.020 8067
6.155 4.319 0.998 8363
6.157 4.321 0.976 6455
6.140 4.308 0.952 3526
6.122 4.296 0.928 3305
6.111 4.288 0.904 3990
6.113 4.290 0.883 3571
6.134 4.305 0.863 3473
6.142 4.310 0.842 4183
6.144 4.311 0.821 5409
6.139 4.308 0.798 4535
6.128 4.300 0.775 2958
6.226 4.369 0.763 2972
6.544 4.592 0.772 2545
6.546 4.593 0.749 3945
6.547 4.594 0.726 3637
6.548 4.595 0.702 2912
6.517 4.573 0.677 2885
6.532 4.583 0.654 2935
6.546 4.593 0.632 2904
6.553 4.599 0.610 2310
6.554 4.599 0.586 1390
6.853 4.809 0.582 1144
6.647 4.664 0.545 1067
6.648 4.665 0.522 921
6.869 4.820 0.510 798
6.876 4.825 0.486 966
6.871 4.821 0.462 908
7.163 5.026 0.450 1043
7.164 5.027 0.425 1247
7.164 5.027 0.399 973
6.692 4.696 0.358 809
11.648 8.174 0.480 793
7.237 5.078 0.325 833
7.244 5.083 0.299 896
11.676 8.194 0.356 730
11.677 8.194 0.315 779
11.677 8.194 0.273 827
7.122 4.998 0.196 879
7.122 4.998 0.170 812
7.122 4.998 0.145 648
7.122 4.998 0.120 485
7.128 5.002 0.095 329
8.413 5.904 -0.392 259
8.412 5.903 -0.422 275
8.411 5.902 -0.451 291
8.409 5.901 -0.481 281
8.408 5.900 -0.511 270
3.620 2.540 -0.177 279
3.619 2.540 -0.190 338
3.450 2.421 -0.186 338
3.449 2.421 -0.199 389
3.449 2.420 -0.211 375
3.448 2.419 -0.223 362
3.447 2.419 -0.235 271
3.525 2.473 -0.319 277
3.524 2.473 -0.331 277
1.879 1.309 1.764 3951
1.883 1.312 1.757 7902
1.887 1.315 1.751 7902
1.901 1.325 1.754 7413
1.905 1.328 1.747 7145
1.893 1.319 1.727 8689
1.897 1.322 1.720 10940
1.901 1.324 1.713 10940
1.905 1.327 1.707 11446
1.914 1.333 1.705 12123
1.917 1.336 1.698 10823
1.921 1.339 1.691 9523
1.973 1.375 1.725 8102
1.983 1.381 1.722 8452
1.986 1.384 1.715 6736
2.001 1.394 1.717 5264
1.999 1.393 1.706 5256
2.003 1.396 1.699 4814
2.007 1.398 1.692 4364
2.021 1.408 1.693 4940
2.047 1.426 1.703 6670
2.056 1.433 1.701 6238
2.071 1.443 1.702 6038
2.075 1.446 1.695 6519
2.078 1.448 1.687 7000
2.082 1.451 1.680 5972
2.097 1.461 1.681 5077
2.106 1.467 1.678 5322
2.143 1.493 1.695 6629
2.152 1.500 1.692 6893
2.156 1.502 1.685 7310
2.160 1.505 1.677 6617
2.147 1.496 1.657 6244
2.156 1.502 1.654 5704
2.182 1.520 1.662 4827
2.214 1.542 1.675 6198
2.223 1.549 1.671 9092
2.226 1.551 1.663 11228
2.236 1.558 1.659 10048
2.239 1.560 1.651 8918
2.243 1.563 1.644 7435
2.247 1.565 1.636 4079
2.284 1.592 1.651 3778
2.413 1.681 1.727 4632
2.417 1.684 1.719 4367
2.426 1.691 1.714 3853
2.459 1.713 1.724 3744
2.485 1.732 1.731 5399
2.501 1.742 1.729 9850
2.510 1.749 1.724 12196
2.514 1.752 1.715 9647
2.529 1.762 1.714 7049
2.527 1.761 1.701 6723
2.537 1.768 1.696 6031
2.552 1.778 1.695 5489
2.544 1.773 1.678 5309
2.548 1.775 1.670 6776
2.563 1.786 1.668 8695
2.637 1.837 1.701 11518
2.646 1.844 1.695 11731
2.650 1.846 1.686 12742
2.595 1.808 1.642 17643
2.599 1.811 1.633 22993
2.602 1.813 1.624 27880
2.612 1.820 1.618 21022
2.621 1.826 1.612 15175
2.625 1.829 1.603 13110
2.628 1.831 1.594 11129
2.643 1.842 1.591 10107
2.659 1.853 1.589 11160
2.656 1.851 1.576 11403
2.666 1.857 1.570 10778
2.669 1.860 1.561 11127
2.678 1.866 1.555 11808
2.682 1.869 1.545 14329
2.679 1.867 1.533 16683
2.683 1.869 1.523 17377
2.686 1.871 1.514 14876
2.683 1.870 1.501 10596
2.686 1.872 1.492 8729
2.696 1.878 1.486 6175
2.711 1.889 1.482 5199
2.702 1.883 1.467 11310
2.699 1.881 1.454 18102
2.708 1.887 1.448 15318
2.718 1.894 1.441 11570
2.727 1.900 1.435 11409
2.730 1.902 1.425 10286
2.739 1.908 1.419 8357
2.730 1.902 1.403 6624
2.733 1.904 1.394 10584
2.742 1.911 1.387 17669
2.751 1.917 1.380 19905
2.754 1.919 1.370 16038
2.745 1.912 1.355 13601
2.748 1.914 1.346 16043
2.750 1.916 1.336 14016
2.759 1.923 1.329 12836
2.768 1.929 1.322 15436
2.771 1.931 1.312 14103
2.780 1.937 1.305 8402
2.795 1.948 1.301 3814
2.823 1.967 1.301 3317
2.825 1.969 1.291 4298
2.822 1.966 1.279 5972
2.818 1.964 1.267 9980
2.821 1.966 1.257 9960
2.824 1.968 1.247 6233
2.826 1.969 1.237 5316
2.829 1.971 1.227 6055
2.838 1.977 1.219 6295
2.840 1.979 1.210 7816
2.849 1.985 1.202 8451
2.858 1.991 1.194 10004
2.860 1.993 1.184 12466
2.863 1.995 1.174 14110
2.872 2.001 1.166 13237
2.880 2.007 1.159 7707
2.908 2.026 1.157 5331
2.916 2.032 1.149 6125
2.912 2.029 1.137 6004
2.909 2.027 1.125 6853
2.905 2.024 1.112 7872
2.913 2.030 1.104 9602
2.916 2.032 1.094 12634
2.924 2.038 1.086 12529
2.926 2.039 1.076 11134
2.929 2.041 1.065 8319
2.931 2.042 1.055 4984
2.927 2.039 1.043 4352
2.923 2.036 1.031 5020
2.918 2.034 1.019 3530
2.927 2.039 1.010 2583
2.929 2.041 1.000 2591
3.777 2.632 1.239 3271
3.792 2.642 1.229 3909
3.801 2.649 1.218 5410
4.196 2.924 1.316 5209
3.794 2.643 1.188 5844
3.802 2.649 1.176 4628
4.230 2.947 1.278 3683
4.258 2.967 1.270 5067
4.260 2.969 1.255 6552
4.263 2.970 1.240 8397
4.278 2.981 1.228 8197
4.281 2.983 1.213 7345
4.283 2.985 1.198 6818
4.292 2.991 1.185 4877
4.301 2.997 1.171 4158
4.501 3.136 1.203 3403
5.180 3.609 1.346 3005
5.183 3.611 1.328 3955
5.192 3.618 1.311 4328
5.195 3.620 1.293 5635
5.191 3.617 1.273 7901
5.200 3.623 1.256 9828
5.203 3.625 1.238 8941
5.205 3.627 1.219 6769
5.214 3.633 1.202 6118
5.211 3.631 1.182 5409
5.219 3.637 1.165 3815
5.575 3.884 1.216 3444
5.577 3.886 1.196 4577
5.580 3.888 1.176 4679
5.582 3.890 1.157 3351
5.559 3.873 1.132 2938
6.165 4.296 1.219 4591
6.168 4.298 1.197 6109
6.177 4.304 1.177 4636
6.186 4.310 1.156 3699
6.163 4.294 1.130 4221
6.165 4.296 1.108 4855
6.167 4.297 1.086 4342
6.169 4.299 1.065 4371
6.165 4.296 1.042 6213
6.167 4.297 1.020 7428
6.169 4.299 0.998 7428
6.165 4.296 0.976 5659
6.148 4.284 0.951 3522
6.130 4.271 0.927 3875
6.125 4.268 0.904 4803
6.127 4.269 0.883 4057
6.142 4.280 0.863 3498
6.150 4.285 0.842 4154
6.152 4.287 0.820 5229
6.147 4.283 0.798 4198
6.136 4.275 0.774 2901
6.241 4.348 0.763 2964
6.145 4.282 0.732 2627
6.561 4.572 0.749 3544
6.556 4.568 0.725 3273
6.486 4.519 0.696 2706
6.500 4.529 0.674 3283
6.501 4.530 0.651 3052
6.554 4.567 0.632 2625
6.497 4.527 0.604 2095
6.505 4.533 0.582 1465
6.532 4.551 0.561 1348
6.539 4.557 0.538 1555
6.540 4.557 0.515 1256
6.645 4.630 0.497 933
6.620 4.613 0.472 960
6.887 4.799 0.462 757
7.180 5.003 0.450 963
7.180 5.003 0.425 1184
7.246 5.049 0.402 1011
7.259 5.058 0.376 907
7.247 5.050 0.350 819
7.247 5.050 0.325 755
7.261 5.059 0.299 766
11.716 8.164 0.356 786
11.710 8.160 0.315 781
11.704 8.155 0.273 794
7.138 4.974 0.196 693
7.145 4.979 0.170 746
7.145 4.979 0.145 665
7.145 4.979 0.120 585
7.151 4.983 0.095 403
3.623 2.525 -0.151 320
3.629 2.529 -0.164 320
3.628 2.528 -0.177 356
3.627 2.528 -0.190 391
3.458 2.410 -0.186 318
3.457 2.409 -0.199 353
3.457 2.409 -0.211 322
3.611 2.516 -0.239 296
3.604 2.511 -0.251 282
2.950 2.055 -0.190 319
2.949 2.055 -0.200 366
2.948 2.054 -0.211 403
2.947 2.053 -0.221 439
2.946 2.053 -0.231 440
3.539 2.466 -0.320 454
3.538 2.465 -0.332 454
1.888 1.308 1.769 3645
1.892 1.310 1.762 7290
1.896 1.313 1.756 7290
1.905 1.320 1.754 7016
1.909 1.322 1.747 6831
1.897 1.314 1.727 8052
1.901 1.316 1.720 10088
1.905 1.319 1.713 10088
1.908 1.322 1.707 10676
1.917 1.328 1.705 11364
1.921 1.331 1.698 10074
1.925 1.333 1.691 8785
1.966 1.362 1.716 6873
1.981 1.372 1.718 7246
1.996 1.382 1.720 5711
2.005 1.389 1.717 4575
2.009 1.391 1.710 4541
2.012 1.394 1.703 4394
2.016 1.396 1.696 4281
2.031 1.407 1.698 4857
2.051 1.420 1.703 6164
2.066 1.431 1.705 6023
2.080 1.441 1.706 6305
2.079 1.440 1.695 7357
2.077 1.438 1.683 8562
2.081 1.441 1.676 7587
2.084 1.444 1.669 6611
2.099 1.454 1.670 6283
2.103 1.456 1.662 6047
2.156 1.494 1.692 6420
2.166 1.500 1.689 7102
2.169 1.503 1.681 6355
2.162 1.497 1.665 5769
2.166 1.500 1.658 4783
2.197 1.522 1.670 4309
2.212 1.532 1.671 5940
2.227 1.543 1.671 8692
2.237 1.549 1.667 10936
2.240 1.552 1.659 10041
2.244 1.554 1.651 9146
2.247 1.557 1.644 7683
2.251 1.559 1.636 4267
2.408 1.668 1.732 4091
2.418 1.675 1.727 5717
2.416 1.673 1.715 5622
2.425 1.680 1.710 5118
2.475 1.714 1.732 4909
2.496 1.729 1.734 6562
2.506 1.735 1.729 10575
2.509 1.738 1.721 12736
2.519 1.745 1.715 10037
2.529 1.751 1.710 7397
2.527 1.750 1.698 7404
2.536 1.756 1.693 6358
2.551 1.767 1.691 5470
2.555 1.770 1.682 5273
2.553 1.768 1.670 5944
2.644 1.831 1.714 8468
2.642 1.830 1.701 12056
2.651 1.836 1.695 12619
2.655 1.839 1.686 13465
2.600 1.801 1.642 19520
2.604 1.803 1.633 24041
2.608 1.806 1.624 28817
2.617 1.812 1.618 23206
2.626 1.819 1.612 17803
2.624 1.817 1.600 15368
2.633 1.824 1.594 13449
2.649 1.834 1.591 11658
2.664 1.845 1.589 11073
2.662 1.843 1.576 10887
2.671 1.850 1.570 10035
2.674 1.852 1.561 10291
2.678 1.855 1.551 10615
2.681 1.857 1.542 12017
2.685 1.859 1.533 13800
2.688 1.862 1.523 15946
2.685 1.860 1.511 16068
2.682 1.858 1.498 12757
2.692 1.864 1.492 10534
2.695 1.866 1.483 7101
2.692 1.865 1.470 5870
2.701 1.871 1.464 12984
2.705 1.873 1.454 20710
2.708 1.875 1.445 18014
2.717 1.882 1.438 12335
2.720 1.884 1.429 10121
2.717 1.882 1.417 8284
2.720 1.884 1.407 8013
2.717 1.882 1.395 9449
2.726 1.888 1.388 12442
2.747 1.903 1.387 17708
2.750 1.905 1.377 18896
2.753 1.907 1.368 15000
2.750 1.905 1.355 14310
2.753 1.907 1.346 17672
2.756 1.909 1.336 15965
2.759 1.911 1.326 14443
2.774 1.921 1.322 16688
2.777 1.923 1.312 15888
2.786 1.929 1.305 10297
2.795 1.935 1.298 5236
2.797 1.937 1.288 3333
2.782 1.926 1.271 3139
2.821 1.954 1.276 4900
2.824 1.956 1.267 9617
2.827 1.958 1.257 11691
2.829 1.960 1.247 8416
2.826 1.957 1.234 5814
2.835 1.963 1.227 5019
2.837 1.965 1.217 6319
2.840 1.967 1.207 8638
2.855 1.977 1.202 7814
2.864 1.983 1.194 9661
2.866 1.985 1.184 13346
2.869 1.987 1.174 15388
2.877 1.993 1.166 13961
2.886 1.999 1.159 7814
2.895 2.005 1.151 4308
2.916 2.019 1.147 5744
2.912 2.017 1.135 6587
2.908 2.014 1.123 7425
2.910 2.016 1.112 7612
2.919 2.022 1.104 9244
2.921 2.023 1.094 9967
2.930 2.029 1.086 8099
2.938 2.035 1.078 8431
2.934 2.032 1.065 8854
2.937 2.034 1.055 6813
2.926 2.027 1.041 3936
2.922 2.024 1.029 3658
3.612 2.502 1.229 3399
3.627 2.512 1.220 2427
3.788 2.624 1.254 2623
3.784 2.621 1.239 3734
3.800 2.632 1.229 3865
3.809 2.638 1.218 4860
3.798 2.631 1.201 5222
3.801 2.633 1.188 6519
3.810 2.639 1.176 5215
3.825 2.649 1.166 3473
3.796 2.629 1.144 3945
4.269 2.956 1.255 4474
4.278 2.963 1.242 6121
4.293 2.973 1.230 6788
4.296 2.975 1.215 6810
4.298 2.977 1.200 6750
4.307 2.983 1.186 4736
4.310 2.985 1.171 3247
4.485 3.106 1.197 3123
4.519 3.130 1.189 3836
4.515 3.127 1.171 3574
5.202 3.603 1.311 3664
5.205 3.605 1.293 5326
5.208 3.607 1.274 7592
5.210 3.609 1.256 9562
5.213 3.610 1.238 9163
5.216 3.612 1.219 7953
5.218 3.614 1.201 7947
5.227 3.620 1.184 7342
5.230 3.622 1.165 5806
5.232 3.624 1.147 3900
5.588 3.870 1.196 4676
5.584 3.868 1.175 4863
5.567 3.856 1.152 3372
5.557 3.849 1.130 3511
6.178 4.279 1.219 3695
6.180 4.280 1.197 4724
6.189 4.287 1.177 3546
6.192 4.288 1.155 2832
6.175 4.276 1.130 3447
6.171 4.274 1.107 4092
6.179 4.280 1.086 3643
6.182 4.281 1.065 3759
6.177 4.278 1.042 5258
6.179 4.280 1.020 6019
6.182 4.281 0.998 5827
6.171 4.274 0.975 4527
6.147 4.257 0.949 3488
6.142 4.254 0.927 4288
6.138 4.251 0.904 5323
6.139 4.252 0.883 4211
6.148 4.258 0.862 3241
6.156 4.263 0.841 3697
6.164 4.269 0.820 4561
6.153 4.261 0.797 3645
6.148 4.258 0.774 2796
6.143 4.254 0.752 3079
6.151 4.260 0.731 2710
6.567 4.548 0.748 2889
6.497 4.500 0.719 3187
6.499 4.501 0.696 3891
6.500 4.502 0.673 4261
6.508 4.507 0.650 3687
6.483 4.490 0.625 2815
6.504 4.504 0.604 2630
6.518 4.514 0.582 1922
6.538 4.528 0.560 1760
6.552 4.538 0.538 2146
6.547 4.534 0.514 1764
6.541 4.530 0.491 966
6.698 4.639 0.476 999
6.718 4.653 0.453 1030
6.719 4.653 0.429 1231
6.720 4.654 0.406 1306
6.720 4.654 0.382 1199
6.734 4.664 0.359 1126
7.268 5.034 0.350 908
7.268 5.034 0.325 699
11.752 8.139 0.398 737
11.740 8.131 0.356 802
11.734 8.126 0.315 740
11.727 8.122 0.273 701
11.734 8.127 0.232 595
11.734 8.127 0.190 498
7.166 4.963 0.145 468
7.166 4.963 0.120 466
7.087 4.909 0.095 426
7.087 4.909 0.070 396
7.081 4.904 0.045 340
7.080 4.904 0.020 252
3.631 2.515 -0.138 282
3.637 2.519 -0.152 334
3.636 2.518 -0.164 338
3.635 2.518 -0.177 379
3.635 2.517 -0.190 420
3.634 2.517 -0.203 358
3.620 2.507 -0.214 313
2.958 2.048 -0.159 269
2.950 2.043 -0.169 333
2.950 2.043 -0.179 333
2.955 2.047 -0.190 360
2.955 2.046 -0.200 387
2.954 2.046 -0.211 404
2.946 2.041 -0.220 421
2.952 2.044 -0.231 425
2.951 2.044 -0.242 424
2.950 2.043 -0.252 418
1.899 1.304 1.773 3380
1.903 1.306 1.767 6760
1.907 1.309 1.760 6760
1.911 1.312 1.754 6794
1.915 1.314 1.747 6827
1.902 1.306 1.727 7233
1.906 1.309 1.720 8731
1.910 1.311 1.713 8731
1.914 1.314 1.707 9342
1.918 1.316 1.700 9953
1.927 1.323 1.698 8856
1.930 1.325 1.691 7765
1.961 1.346 1.707 5928
1.987 1.364 1.718 6242
2.001 1.374 1.720 4912
2.016 1.384 1.721 4052
2.014 1.383 1.710 4051
2.018 1.385 1.703 4224
2.027 1.392 1.700 4496
2.037 1.398 1.698 4957
2.046 1.404 1.695 5673
2.072 1.422 1.705 5841
2.086 1.432 1.706 6447
2.085 1.431 1.695 8142
2.083 1.430 1.683 10050
2.087 1.432 1.676 9117
2.096 1.439 1.673 8200
2.100 1.441 1.666 7487
2.103 1.444 1.658 6775
2.112 1.450 1.655 6391
2.178 1.495 1.693 7077
2.181 1.497 1.685 6255
2.174 1.492 1.669 5498
2.183 1.499 1.666 4453
2.198 1.509 1.666 4425
2.207 1.515 1.663 5794
2.234 1.533 1.671 7774
2.243 1.540 1.667 9870
2.247 1.542 1.659 9187
2.250 1.545 1.651 8505
2.254 1.547 1.644 7298
2.474 1.698 1.782 4610
2.415 1.658 1.732 4855
2.419 1.661 1.723 6612
2.423 1.663 1.715 6501
2.432 1.670 1.710 6124
2.494 1.712 1.739 6602
2.497 1.714 1.731 7816
2.507 1.721 1.726 10654
2.517 1.728 1.721 12308
2.520 1.730 1.712 9924
2.524 1.733 1.703 7821
2.528 1.735 1.694 8104
2.538 1.742 1.689 6839
2.559 1.756 1.691 5486
2.568 1.763 1.686 5360
2.566 1.761 1.673 4956
2.652 1.820 1.714 8505
2.655 1.823 1.704 11808
2.659 1.825 1.695 12680
2.604 1.788 1.651 14588
2.608 1.790 1.642 20282
2.611 1.793 1.633 23521
2.615 1.795 1.624 27603
2.624 1.802 1.618 23727
2.634 1.808 1.612 19332
2.632 1.806 1.600 17114
2.635 1.809 1.591 15570
2.650 1.819 1.588 12561
2.672 1.834 1.589 9804
2.669 1.832 1.576 8980
2.679 1.839 1.570 8019
2.682 1.841 1.561 8451
2.679 1.839 1.548 9411
2.683 1.842 1.539 9813
2.680 1.840 1.526 10663
2.684 1.842 1.517 14181
2.687 1.844 1.508 16637
2.690 1.847 1.498 14128
2.699 1.853 1.492 12038
2.697 1.851 1.480 8959
2.700 1.853 1.470 7273
2.703 1.856 1.461 14336
2.706 1.858 1.451 23631
2.709 1.860 1.442 22422
2.719 1.866 1.435 15767
2.722 1.868 1.426 10930
2.713 1.862 1.411 8966
2.716 1.864 1.401 9858
2.725 1.870 1.395 13427
2.728 1.872 1.385 16603
2.743 1.883 1.381 18372
2.758 1.893 1.377 18072
2.761 1.895 1.368 15487
2.764 1.897 1.358 15598
2.761 1.895 1.346 17832
2.764 1.897 1.336 15951
2.767 1.899 1.326 14302
2.782 1.910 1.322 16539
2.785 1.911 1.312 16547
2.787 1.913 1.303 11584
2.796 1.920 1.296 6921
2.799 1.921 1.286 5375
2.796 1.919 1.274 4401
2.823 1.938 1.274 4733
2.826 1.940 1.264 8581
2.829 1.942 1.254 11389
2.831 1.944 1.244 8744
2.834 1.945 1.234 4805
2.843 1.951 1.227 3700
2.845 1.953 1.217 6541
2.848 1.955 1.207 8707
2.857 1.961 1.200 6113
2.872 1.971 1.194 7692
2.874 1.973 1.184 12306
2.877 1.975 1.174 14817
2.886 1.981 1.166 13432
2.888 1.982 1.156 8136
2.890 1.984 1.146 4748
2.899 1.990 1.138 5463
2.908 1.996 1.131 7042
2.910 1.998 1.120 7747
2.919 2.004 1.112 7138
2.921 2.005 1.102 9006
2.923 2.007 1.092 8840
2.926 2.008 1.082 5986
2.947 2.023 1.078 8614
2.943 2.020 1.065 9460
2.945 2.022 1.055 7419
2.935 2.014 1.041 4336
2.924 2.007 1.027 3385
3.623 2.487 1.229 3841
2.960 2.032 1.016 3580
3.552 2.438 1.181 3026
3.573 2.453 1.174 3721
3.804 2.611 1.227 3158
3.813 2.618 1.216 3536
3.809 2.615 1.201 4618
3.806 2.612 1.186 6311
3.821 2.623 1.176 4997
3.830 2.629 1.164 3840
3.807 2.613 1.144 4743
3.930 2.698 1.163 3248
4.290 2.945 1.242 3589
4.312 2.960 1.232 4971
4.308 2.957 1.215 5495
4.311 2.959 1.200 5666
4.320 2.965 1.186 3966
4.482 3.077 1.210 2587
4.497 3.087 1.197 3380
4.532 3.111 1.189 6083
4.528 3.108 1.171 5109
4.511 3.097 1.151 3149
5.220 3.583 1.293 3876
5.223 3.585 1.274 5971
5.225 3.587 1.256 7830
5.228 3.589 1.238 7635
5.231 3.591 1.219 7099
5.233 3.592 1.201 8137
5.242 3.598 1.184 8418
5.245 3.600 1.165 7373
5.247 3.602 1.147 5553
5.598 3.843 1.195 4310
5.594 3.840 1.174 4497
5.570 3.824 1.149 3610
5.566 3.821 1.129 4192
5.569 3.823 1.109 4541
5.571 3.824 1.090 3943
5.580 3.830 1.071 3133
5.556 3.814 1.047 2571
6.154 4.224 1.124 2708
6.149 4.221 1.101 3547
6.139 4.214 1.077 3515
6.141 4.215 1.056 3252
6.189 4.248 1.041 3915
6.197 4.254 1.020 4272
6.186 4.247 0.996 4136
6.169 4.235 0.972 3615
6.164 4.232 0.949 3419
6.153 4.224 0.926 4510
6.149 4.221 0.904 5456
6.157 4.226 0.883 3994
6.165 4.232 0.862 2801
6.167 4.233 0.840 3086
6.169 4.234 0.819 3694
6.164 4.231 0.796 3107
6.159 4.228 0.774 2691
6.160 4.229 0.752 3077
6.162 4.230 0.730 2585
6.515 4.472 0.742 3274
6.509 4.468 0.718 4330
6.517 4.474 0.696 5151
6.519 4.475 0.673 5246
6.520 4.476 0.650 4177
6.508 4.467 0.626 3124
6.522 4.477 0.604 3000
6.530 4.482 0.581 2300
6.557 4.501 0.560 2104
6.565 4.506 0.537 2611
6.565 4.507 0.514 2186
6.566 4.507 0.491 1197
6.730 4.620 0.476 1097
6.737 4.625 0.453 1382
6.738 4.625 0.429 1712
6.732 4.621 0.405 1756
6.739 4.626 0.382 1494
6.753 4.636 0.359 1367
6.754 4.636 0.335 957
11.798 8.099 0.440 640
11.786 8.090 0.398 724
11.780 8.086 0.357 725
11.774 8.082 0.315 657
11.768 8.078 0.273 605
11.768 8.078 0.232 544
11.768 8.078 0.190 482
6.756 4.637 0.145 357
6.755 4.637 0.121 355
6.755 4.637 0.097 348
6.755 4.637 0.073 340
6.755 4.637 0.050 276
2.967 2.037 -0.138 260
2.967 2.037 -0.149 345
2.966 2.036 -0.159 446
2.965 2.036 -0.169 548
2.965 2.035 -0.180 548
2.964 2.034 -0.190 590
2.963 2.034 -0.200 632
2.962 2.033 -0.211 620
2.961 2.033 -0.221 608
2.960 2.032 -0.231 591
2.960 2.032 -0.242 547
2.959 2.031 -0.252 521
2.958 2.030 -0.262 260
1.903 1.298 1.773 3238
1.907 1.300 1.767 6477
1.911 1.303 1.760 6477
1.915 1.306 1.754 6736
1.919 1.308 1.747 6995
1.917 1.307 1.736 6506
1.905 1.299 1.716 7184
1.909 1.302 1.709 7184
1.918 1.308 1.707 7732
1.922 1.311 1.700 8286
1.931 1.317 1.698 7434
1.934 1.319 1.691 6698
1.965 1.340 1.707 5290
1.991 1.358 1.718 5639
2.006 1.368 1.720 4465
2.020 1.378 1.721 3743
2.019 1.377 1.710 3741
2.028 1.383 1.707 4188
2.032 1.386 1.700 4714
2.041 1.392 1.698 5128
2.050 1.398 1.695 5614
2.076 1.416 1.705 5834
2.085 1.422 1.702 6627
2.083 1.421 1.690 8747
2.087 1.423 1.683 10941
2.091 1.426 1.676 10131
2.100 1.432 1.673 9334
2.104 1.435 1.666 8402
2.108 1.437 1.658 7470
2.117 1.444 1.655 6861
2.182 1.488 1.693 7153
2.186 1.491 1.685 6285
2.190 1.493 1.678 5417
2.188 1.492 1.666 4540
2.197 1.498 1.662 4734
2.206 1.505 1.659 5891
2.238 1.526 1.671 6642
2.248 1.533 1.667 8388
2.251 1.535 1.659 7888
2.255 1.538 1.651 7387
2.259 1.540 1.644 6496
2.479 1.691 1.782 4589
2.420 1.651 1.732 5447
2.430 1.657 1.727 7224
2.434 1.660 1.719 7056
2.437 1.662 1.710 6753
2.499 1.704 1.739 8070
2.503 1.707 1.731 8734
2.512 1.713 1.726 10091
2.516 1.716 1.717 10908
2.514 1.715 1.704 9614
2.529 1.725 1.703 8445
2.533 1.728 1.694 8752
2.537 1.730 1.685 7414
2.581 1.761 1.702 5717
2.579 1.759 1.689 5687
2.589 1.766 1.684 4839
2.657 1.812 1.714 7929
2.661 1.815 1.704 10573
2.665 1.817 1.695 11732
2.610 1.780 1.651 14423
2.613 1.782 1.642 19387
2.617 1.785 1.633 21618
2.620 1.787 1.624 25003
2.630 1.794 1.618 22880
2.639 1.800 1.612 19716
2.637 1.798 1.600 17780
2.641 1.801 1.591 16926
2.650 1.807 1.585 13310
2.671 1.822 1.585 7893
2.675 1.824 1.576 6411
2.678 1.827 1.567 5514
2.682 1.829 1.558 6374
2.679 1.827 1.545 8795
2.670 1.821 1.529 10138
2.674 1.824 1.520 10585
2.683 1.830 1.514 13952
2.692 1.836 1.508 16555
2.696 1.838 1.498 14276
2.699 1.841 1.489 12503
2.702 1.843 1.480 9810
2.705 1.845 1.470 7837
2.709 1.847 1.461 14636
2.706 1.845 1.448 24993
2.715 1.852 1.442 25879
2.718 1.854 1.433 19152
2.721 1.856 1.423 12753
2.712 1.850 1.408 9988
2.721 1.856 1.401 11357
2.724 1.858 1.392 16325
2.733 1.864 1.385 19747
2.749 1.875 1.381 19143
2.758 1.881 1.375 16792
2.767 1.887 1.368 15393
2.770 1.889 1.358 16150
2.773 1.891 1.348 16870
2.770 1.889 1.336 14421
2.772 1.891 1.326 12772
2.788 1.901 1.322 15220
2.790 1.903 1.312 16141
2.793 1.905 1.303 12712
2.802 1.911 1.296 8943
2.805 1.913 1.286 7075
2.814 1.919 1.279 5450
2.817 1.921 1.269 5436
2.826 1.927 1.262 7885
2.834 1.933 1.254 9476
2.837 1.935 1.244 6925
2.834 1.933 1.232 3469
2.842 1.939 1.225 3736
2.851 1.945 1.217 7378
2.854 1.946 1.207 8106
2.856 1.948 1.197 4740
2.865 1.954 1.190 5495
2.880 1.964 1.184 9736
2.883 1.966 1.174 12409
2.892 1.972 1.166 11028
2.894 1.974 1.156 6805
2.890 1.971 1.144 4970
2.886 1.968 1.132 6251
2.908 1.983 1.128 6641
2.916 1.989 1.120 6830
2.925 1.995 1.112 6671
2.927 1.996 1.102 9221
2.923 1.994 1.090 8679
2.925 1.995 1.080 6238
2.947 2.010 1.076 9879
2.949 2.011 1.065 9149
2.945 2.008 1.053 6708
2.941 2.006 1.041 5744
2.930 1.998 1.027 5628
2.939 2.004 1.019 6048
2.953 2.014 1.012 4765
3.572 2.436 1.184 4056
3.587 2.446 1.176 5037
2.991 2.040 0.990 3275
3.815 2.602 1.214 2180
3.811 2.599 1.199 3599
3.813 2.601 1.186 5187
3.829 2.611 1.176 4177
3.838 2.617 1.164 3772
3.815 2.601 1.144 4850
3.817 2.603 1.131 3279
3.934 2.683 1.147 2540
4.327 2.951 1.233 3268
4.323 2.949 1.216 3817
4.326 2.950 1.201 4084
4.329 2.952 1.186 2869
4.498 3.068 1.211 2732
4.513 3.078 1.198 4016
4.541 3.097 1.189 7905
4.538 3.095 1.171 6233
4.514 3.079 1.150 3135
4.517 3.080 1.134 2582
5.234 3.569 1.274 4124
5.236 3.571 1.256 5749
5.239 3.573 1.238 5342
5.242 3.575 1.219 5037
5.251 3.581 1.202 7232
5.253 3.583 1.184 8562
5.256 3.584 1.165 8152
5.265 3.590 1.148 6513
5.260 3.588 1.129 3842
5.605 3.823 1.174 3857
5.576 3.803 1.148 3917
5.572 3.800 1.128 4641
5.574 3.801 1.108 5244
5.576 3.803 1.088 4658
5.578 3.804 1.069 3341
5.561 3.793 1.046 2925
5.550 3.785 1.025 3111
5.553 3.787 1.005 3432
6.152 4.195 1.077 3408
6.154 4.197 1.056 3157
6.175 4.212 1.037 2953
6.139 4.187 1.010 2901
6.180 4.215 0.994 2983
6.182 4.216 0.972 2948
6.177 4.213 0.949 3132
6.166 4.205 0.926 4344
6.161 4.202 0.904 5097
6.163 4.203 0.882 3445
6.178 4.213 0.862 2234
6.180 4.215 0.840 2443
6.175 4.211 0.818 2926
6.170 4.208 0.795 2680
6.165 4.205 0.773 2546
6.167 4.206 0.751 2907
6.168 4.207 0.730 2403
6.528 4.452 0.742 3771
6.523 4.449 0.718 5203
6.531 4.454 0.696 6046
6.532 4.455 0.673 5815
6.533 4.456 0.650 4322
6.522 4.448 0.626 3126
6.536 4.457 0.604 3107
6.537 4.458 0.581 2583
6.564 4.477 0.560 2376
6.572 4.482 0.537 2899
6.579 4.487 0.514 2417
6.580 4.487 0.491 1350
6.751 4.604 0.477 1183
6.751 4.604 0.453 1584
6.746 4.600 0.429 1971
6.746 4.601 0.405 1997
6.753 4.606 0.382 1643
6.761 4.611 0.358 1410
6.761 4.611 0.335 1094
6.761 4.611 0.311 830
6.768 4.616 0.287 897
6.762 4.612 0.263 684
9.889 6.744 0.286 579
9.889 6.744 0.252 651
9.889 6.744 0.217 562
6.861 4.679 0.169 473
6.861 4.679 0.145 389
7.142 4.871 0.120 347
6.776 4.621 0.097 327
6.776 4.621 0.073 340
6.776 4.621 0.050 271
3.648 2.488 -0.151 273
3.654 2.492 -0.164 274
3.653 2.492 -0.177 333
3.653 2.491 -0.190 393
3.645 2.486 -0.202 375
2.973 2.028 -0.149 378
2.972 2.027 -0.159 476
2.972 2.027 -0.169 574
2.971 2.026 -0.180 574
2.970 2.026 -0.190 585
2.969 2.025 -0.200 596
2.968 2.024 -0.211 548
2.967 2.024 -0.221 501
2.967 2.023 -0.231 460
2.966 2.023 -0.242 386
2.965 2.022 -0.252 352
1.902 1.287 1.769 3195
1.906 1.290 1.762 6390
1.910 1.293 1.756 6390
1.919 1.299 1.754 6801
1.923 1.302 1.747 7235
1.927 1.304 1.740 6079
1.910 1.292 1.716 5539
1.913 1.295 1.709 5539
1.917 1.297 1.702 5826
1.926 1.304 1.700 6152
1.930 1.306 1.694 5609
1.939 1.312 1.691 5244
1.976 1.337 1.711 4749
1.996 1.351 1.718 5307
2.010 1.361 1.720 4241
2.020 1.367 1.717 3516
2.024 1.369 1.710 3497
2.038 1.379 1.712 4086
2.042 1.382 1.705 4837
2.046 1.385 1.698 5264
2.050 1.387 1.691 5691
2.075 1.405 1.701 5767
2.090 1.415 1.702 6614
2.089 1.413 1.690 8754
2.092 1.416 1.683 10942
2.096 1.418 1.676 10241
2.100 1.421 1.669 9540
2.109 1.427 1.666 8641
2.113 1.430 1.658 7762
2.122 1.436 1.655 7090
2.193 1.484 1.697 7236
2.197 1.487 1.689 6332
2.195 1.485 1.678 5428
2.193 1.484 1.666 4686
2.202 1.490 1.662 4949
2.206 1.493 1.655 5969
2.221 1.503 1.655 5456
2.247 1.521 1.663 6645
2.257 1.527 1.659 6143
2.260 1.530 1.651 5665
2.264 1.532 1.644 5088
2.480 1.678 1.779 4302
2.426 1.642 1.732 5751
2.436 1.648 1.727 7564
2.440 1.651 1.719 7366
2.501 1.693 1.748 7128
2.505 1.695 1.739 9102
2.509 1.698 1.731 9351
2.513 1.700 1.722 9252
2.516 1.703 1.713 8903
2.526 1.709 1.708 8937
2.536 1.716 1.703 8955
2.539 1.719 1.694 9011
2.543 1.721 1.685 7831
2.594 1.755 1.705 6662
2.592 1.754 1.693 6542
2.613 1.768 1.694 6206
2.664 1.803 1.714 6876
2.667 1.805 1.704 8729
2.671 1.808 1.695 10068
2.616 1.770 1.651 13178
2.620 1.773 1.642 17090
2.623 1.775 1.633 18260
2.627 1.778 1.624 20695
2.636 1.784 1.618 20408
2.640 1.787 1.609 18664
2.643 1.789 1.600 17169
2.647 1.791 1.591 17051
2.650 1.794 1.582 13881
2.660 1.800 1.576 6531
2.657 1.798 1.563 3673
2.673 1.809 1.560 3057
2.676 1.811 1.551 4685
2.674 1.809 1.539 9322
2.671 1.808 1.526 12537
2.674 1.810 1.517 13112
2.684 1.816 1.511 14674
2.693 1.822 1.505 15646
2.702 1.829 1.498 13199
2.712 1.835 1.492 11834
2.709 1.833 1.480 9734
2.712 1.835 1.470 8132
2.709 1.833 1.458 14897
2.712 1.836 1.448 25546
2.716 1.838 1.439 28021
2.725 1.844 1.433 21579
2.728 1.846 1.423 14675
2.725 1.844 1.411 10197
2.728 1.846 1.401 10898
2.731 1.848 1.392 17178
2.740 1.854 1.385 20977
2.755 1.865 1.381 18440
2.765 1.871 1.375 14215
2.774 1.877 1.368 13746
2.777 1.879 1.358 15498
2.780 1.881 1.348 15382
2.776 1.879 1.336 12654
2.779 1.881 1.326 10806
2.794 1.891 1.322 12990
2.797 1.893 1.312 14589
2.800 1.895 1.303 13264
2.803 1.897 1.293 11244
2.812 1.903 1.286 7881
2.821 1.909 1.279 5850
2.824 1.911 1.269 6880
2.826 1.913 1.259 8658
2.835 1.919 1.252 7139
2.844 1.925 1.244 3678
2.828 1.914 1.227 3865
2.843 1.924 1.222 6392
2.852 1.930 1.215 8608
2.855 1.932 1.205 7517
2.857 1.934 1.195 5660
2.860 1.935 1.185 5855
2.881 1.950 1.182 6744
2.890 1.956 1.174 8948
2.892 1.957 1.164 7017
2.907 1.968 1.159 3859
2.897 1.961 1.144 4737
2.900 1.962 1.134 6941
2.908 1.968 1.126 6152
2.923 1.978 1.120 5379
2.938 1.988 1.114 6125
2.941 1.990 1.104 8728
2.937 1.987 1.092 7420
2.939 1.989 1.082 6394
2.960 2.003 1.078 11037
2.962 2.005 1.067 9147
2.958 2.002 1.055 5678
2.948 1.995 1.041 6245
2.937 1.988 1.027 6747
2.946 1.994 1.019 7136
2.967 2.008 1.014 4603
3.587 2.427 1.186 4861
3.596 2.433 1.176 5849
2.999 2.029 0.990 4810
3.001 2.031 0.980 3405
3.699 2.503 1.165 3408
3.823 2.587 1.186 3507
3.838 2.597 1.176 2930
3.847 2.603 1.164 3135
3.830 2.592 1.146 4161
3.820 2.585 1.129 3122
3.944 2.669 1.147 1700
3.780 2.558 1.091 2278
3.776 2.555 1.076 2364
4.337 2.935 1.201 2446
4.513 3.054 1.228 2442
4.509 3.051 1.211 3435
4.524 3.062 1.198 5208
4.553 3.081 1.189 8805
4.549 3.078 1.171 6754
4.525 3.062 1.150 3768
4.534 3.068 1.135 3051
4.524 3.061 1.117 3969
5.255 3.557 1.257 3920
5.258 3.558 1.239 4084
5.267 3.565 1.222 4339
5.270 3.566 1.204 6673
5.272 3.568 1.185 8380
5.275 3.570 1.167 8491
5.277 3.571 1.148 7077
5.280 3.573 1.130 4088
5.613 3.798 1.173 3053
5.583 3.778 1.147 3949
5.585 3.780 1.128 4703
5.588 3.781 1.108 5346
5.583 3.778 1.087 4739
5.579 3.776 1.067 3326
5.568 3.768 1.045 3215
5.558 3.761 1.024 3740
5.560 3.762 1.004 4093
6.167 4.173 1.077 3021
6.162 4.170 1.055 2740
6.158 4.167 1.032 2332
6.147 4.160 1.009 2498
6.136 4.153 0.986 2582
6.125 4.145 0.962 3020
6.121 4.142 0.940 3084
6.181 4.183 0.926 3844
6.177 4.180 0.904 4410
6.178 4.181 0.882 2782
6.115 4.138 0.853 1819
6.188 4.188 0.839 1849
6.184 4.185 0.817 2310
6.107 4.133 0.787 2351
6.102 4.129 0.765 2527
6.175 4.179 0.751 2570
6.144 4.158 0.726 2812
6.544 4.429 0.742 4048
6.539 4.425 0.718 5740
6.547 4.431 0.696 6509
6.548 4.431 0.673 5934
6.549 4.432 0.650 4089
6.446 4.362 0.619 2876
6.552 4.434 0.604 2966
6.553 4.435 0.581 2768
6.574 4.449 0.559 2648
6.588 4.458 0.537 3095
6.595 4.463 0.514 2511
6.596 4.464 0.491 1405
6.774 4.584 0.477 1234
6.768 4.580 0.453 1690
6.762 4.576 0.429 2070
6.756 4.572 0.405 2034
6.763 4.577 0.382 1440
6.790 4.595 0.359 1088
6.804 4.604 0.335 1071
6.798 4.600 0.311 1196
6.798 4.601 0.288 1330
6.785 4.592 0.264 942
6.772 4.583 0.240 646
10.654 7.210 0.260 697
9.913 6.709 0.217 578
9.913 6.709 0.182 491
7.179 4.859 0.145 394
7.173 4.854 0.120 376
6.786 4.592 0.097 318
6.786 4.592 0.073 322
6.792 4.597 0.050 269
3.654 2.473 -0.074 308
3.654 2.473 -0.087 405
3.660 2.477 -0.100 505
3.659 2.476 -0.113 579
3.652 2.471 -0.125 655
3.651 2.471 -0.138 706
3.657 2.475 -0.151 747
3.656 2.475 -0.164 758
3.656 2.474 -0.176 780
3.655 2.473 -0.189 802
3.654 2.473 -0.202 721
3.653 2.472 -0.215 641
3.646 2.467 -0.227 549
3.645 2.467 -0.239 465
2.971 2.011 -0.179 391
2.977 2.015 -0.190 414
2.976 2.014 -0.200 439
2.976 2.014 -0.211 427
2.975 2.013 -0.221 416
2.974 2.013 -0.231 410
2.973 2.012 -0.242 394
2.972 2.011 -0.252 383
1.906 1.282 1.769 3246
1.910 1.285 1.762 6493
1.914 1.288 1.756 6493
1.923 1.294 1.754 6934
1.927 1.296 1.747 7477
1.931 1.299 1.740 5920
1.934 1.302 1.734 4362
1.938 1.304 1.727 4362
1.921 1.292 1.702 4099
1.924 1.295 1.696 4160
1.934 1.301 1.694 3865
1.970 1.325 1.714 4279
1.979 1.332 1.711 4462
1.999 1.345 1.718 5339
2.014 1.355 1.720 4245
2.023 1.361 1.717 3369
2.022 1.360 1.706 3348
2.036 1.370 1.707 3885
2.046 1.377 1.705 4770
2.050 1.379 1.698 5251
2.053 1.382 1.691 5732
2.074 1.395 1.696 5600
2.100 1.413 1.706 6371
2.092 1.408 1.690 8395
2.096 1.410 1.683 10470
2.100 1.413 1.676 9873
2.103 1.415 1.669 9277
2.113 1.422 1.666 8459
2.116 1.424 1.658 7734
2.126 1.430 1.655 7065
2.197 1.478 1.697 7116
2.201 1.481 1.689 6235
2.199 1.480 1.678 5363
2.197 1.478 1.666 4746
2.201 1.481 1.658 4977
2.210 1.487 1.655 5744
2.219 1.493 1.651 4887
2.251 1.515 1.663 4948
2.255 1.517 1.655 4423
2.259 1.520 1.648 3897
2.417 1.626 1.744 3893
2.421 1.629 1.736 3902
2.431 1.635 1.732 5855
2.440 1.642 1.727 7713
2.444 1.645 1.719 7522
2.506 1.686 1.748 7217
2.515 1.692 1.743 9506
2.519 1.695 1.734 9483
2.517 1.694 1.722 8169
2.515 1.692 1.709 6858
2.531 1.703 1.708 7890
2.540 1.709 1.703 9080
2.544 1.712 1.694 8855
2.548 1.714 1.685 7810
2.598 1.748 1.705 7488
2.596 1.747 1.693 7622
2.612 1.757 1.691 7483
2.610 1.756 1.678 6488
2.678 1.802 1.708 6897
2.676 1.801 1.695 8216
2.621 1.763 1.651 10917
2.624 1.766 1.642 13680
2.622 1.764 1.630 14344
2.632 1.771 1.624 16116
2.641 1.777 1.618 17346
2.651 1.784 1.612 16760
2.648 1.782 1.600 15351
2.646 1.780 1.587 15841
2.655 1.787 1.582 13841
2.653 1.785 1.569 7043
2.644 1.779 1.553 4115
2.648 1.782 1.544 3207
2.663 1.792 1.542 4829
2.672 1.798 1.535 10487
2.676 1.800 1.526 14463
2.679 1.803 1.517 15175
2.682 1.805 1.508 15607
2.692 1.811 1.502 14308
2.707 1.822 1.498 11030
2.710 1.824 1.489 10159
2.714 1.826 1.480 9179
2.711 1.824 1.467 8298
2.714 1.826 1.458 14389
2.717 1.828 1.448 24282
2.720 1.831 1.439 28095
2.724 1.833 1.430 22619
2.733 1.839 1.423 15842
2.736 1.841 1.414 9823
2.727 1.835 1.398 9032
2.736 1.841 1.392 15850
2.745 1.847 1.385 20031
2.754 1.853 1.378 16675
2.769 1.864 1.375 10975
2.779 1.870 1.368 10830
2.782 1.872 1.358 13496
2.778 1.870 1.346 14033
2.781 1.871 1.336 12174
2.784 1.873 1.326 9988
2.799 1.884 1.322 10571
2.808 1.890 1.315 11915
2.805 1.887 1.303 12393
2.808 1.889 1.293 12228
2.817 1.895 1.286 8233
2.826 1.901 1.279 6162
2.829 1.903 1.269 8880
2.831 1.905 1.259 11122
2.834 1.907 1.249 7471
2.849 1.917 1.244 3567
2.846 1.915 1.232 5747
2.848 1.917 1.222 9278
2.851 1.918 1.212 10194
2.853 1.920 1.202 8328
2.862 1.926 1.195 7444
2.871 1.932 1.187 7268
2.880 1.938 1.180 5835
2.889 1.944 1.172 6870
2.885 1.941 1.160 6137
2.887 1.943 1.150 4974
2.902 1.953 1.144 6203
2.905 1.955 1.134 7045
2.907 1.956 1.124 6074
2.922 1.966 1.118 4698
2.937 1.976 1.112 5182
2.946 1.982 1.104 7570
2.942 1.980 1.092 7598
2.951 1.985 1.084 7433
2.966 1.995 1.078 10515
2.968 1.997 1.067 9390
2.976 2.003 1.059 5727
3.564 2.398 1.230 5959
2.949 1.984 1.029 6726
2.951 1.986 1.019 6934
2.991 2.013 1.020 5998
3.000 2.019 1.011 5483
3.602 2.424 1.176 5946
3.004 2.021 0.990 5511
3.006 2.023 0.980 4466
3.699 2.489 1.163 3741
3.746 2.521 1.163 2793
3.749 2.523 1.150 2433
3.694 2.485 1.121 2404
3.837 2.582 1.146 3098
3.820 2.571 1.127 2786
3.778 2.542 1.102 1974
3.780 2.544 1.089 2340
3.776 2.541 1.075 2107
3.952 2.659 1.104 2060
4.514 3.038 1.227 2458
4.517 3.039 1.211 3639
4.532 3.050 1.198 5537
4.554 3.064 1.187 8190
4.550 3.062 1.170 6544
4.540 3.055 1.151 4980
4.562 3.069 1.140 4213
4.538 3.054 1.118 3975
4.541 3.055 1.102 3714
5.281 3.553 1.242 4020
5.283 3.555 1.223 5638
5.286 3.557 1.205 7233
5.282 3.554 1.185 8430
5.284 3.556 1.167 8488
5.293 3.562 1.149 7300
5.296 3.563 1.131 4641
5.421 3.648 1.135 2931
5.593 3.763 1.147 3504
5.595 3.765 1.128 4199
5.598 3.766 1.108 4798
5.593 3.764 1.087 4299
5.479 3.686 1.048 3591
5.481 3.688 1.029 3786
5.567 3.746 1.024 4095
5.570 3.748 1.004 4348
5.572 3.749 0.985 2712
5.776 3.886 0.995 2346
5.765 3.879 0.973 2031
5.891 3.964 0.971 2327
6.134 4.128 0.984 2558
6.130 4.124 0.961 3598
6.125 4.121 0.939 4045
6.120 4.118 0.917 2894
6.181 4.159 0.903 3112
6.131 4.125 0.875 2151
6.126 4.122 0.853 2358
6.114 4.114 0.830 2302
6.110 4.111 0.808 3013
