4.048 9.677 1.433 1962
4.050 9.680 1.402 1827
4.048 9.676 1.371 1400
4.025 9.621 1.333 1410
5.065 12.107 1.604 1372
5.060 12.096 1.564 1173
5.025 12.013 1.516 1334
5.027 12.016 1.478 1158
5.141 12.289 1.470 746
5.331 12.743 1.478 693
5.329 12.739 1.438 587
5.465 13.063 1.429 567
5.463 13.059 1.387 543
5.461 13.055 1.345 417
2.067 4.941 0.329 273
2.067 4.942 0.313 559
2.065 4.935 0.298 734
2.068 4.943 0.282 956
2.068 4.943 0.267 1384
2.065 4.936 0.251 1588
2.068 4.944 0.236 1742
2.068 4.944 0.220 1897
2.068 4.944 0.205 1925
2.065 4.937 0.189 1817
2.065 4.937 0.174 1698
2.065 4.937 0.158 1485
2.069 4.945 0.143 1283
2.069 4.945 0.127 1061
2.068 4.945 0.112 644
2.072 4.952 0.096 461
2.071 4.952 0.081 474
2.071 4.951 0.065 486
2.071 4.951 0.050 585
2.071 4.951 0.034 684
2.071 4.951 0.019 724
2.068 4.943 0.004 778
2.068 4.943 -0.012 748
2.068 4.942 -0.027 719
2.067 4.942 -0.043 639
2.070 4.948 -0.059 561
2.067 4.941 -0.074 490
2.067 4.940 -0.089 422
2.066 4.939 -0.105 355
2.066 4.939 -0.120 289
0.408 0.975 0.052 279
0.408 0.975 0.049 285
0.411 0.982 0.046 295
0.411 0.982 0.043 439
0.408 0.974 0.040 590
0.411 0.981 0.037 1047
0.407 0.974 0.035 1749
0.407 0.974 0.032 2134
0.407 0.973 0.029 3209
0.407 0.973 0.026 4168
0.407 0.973 0.023 5488
0.900 2.134 1.783 4390
0.902 2.139 1.776 8780
0.904 2.143 1.769 8780
0.906 2.147 1.763 9599
0.907 2.152 1.756 10418
0.909 2.156 1.749 8994
0.931 2.208 1.779 10123
0.933 2.213 1.772 10123
0.937 2.223 1.770 9778
0.944 2.239 1.772 10064
0.946 2.244 1.765 10417
0.946 2.242 1.754 11034
0.950 2.252 1.751 10361
0.954 2.263 1.749 10043
0.956 2.267 1.742 8304
0.958 2.271 1.735 6701
0.960 2.276 1.727 6874
0.974 2.310 1.742 7407
0.974 2.309 1.731 8636
0.981 2.325 1.732 7939
0.990 2.348 1.738 8236
0.997 2.364 1.739 7660
1.007 2.387 1.744 8344
1.011 2.398 1.741 5953
1.050 2.489 1.792 4008
1.036 2.456 1.760 5606
1.035 2.454 1.748 8232
1.037 2.458 1.740 12186
1.039 2.463 1.732 16141
1.043 2.473 1.729 14656
1.047 2.484 1.725 13564
1.052 2.494 1.722 8816
1.064 2.524 1.730 6118
1.069 2.534 1.726 5762
1.076 2.551 1.726 5995
1.080 2.562 1.722 6965
1.087 2.578 1.722 7666
1.121 2.659 1.762 7562
1.120 2.657 1.749 8868
1.120 2.655 1.737 10539
1.121 2.659 1.729 8985
1.126 2.670 1.725 7516
1.128 2.674 1.716 6669
1.138 2.697 1.719 9055
1.139 2.701 1.711 12314
1.141 2.706 1.703 13259
1.146 2.716 1.698 14219
1.150 2.727 1.693 13259
1.160 2.750 1.696 13230
1.162 2.755 1.687 13696
1.166 2.765 1.682 11736
1.168 2.769 1.674 7223
1.170 2.773 1.665 4448
1.171 2.778 1.656 4033
1.212 2.873 1.698 5129
1.211 2.870 1.686 7310
1.210 2.868 1.673 8463
1.209 2.865 1.661 8385
1.257 2.981 1.711 7590
1.262 2.991 1.706 7060
1.297 3.074 1.738 7021
1.298 3.079 1.728 8573
1.303 3.090 1.722 7931
1.305 3.094 1.712 6356
1.307 3.098 1.703 6706
1.308 3.102 1.693 8098
1.305 3.093 1.677 9261
1.306 3.097 1.667 9957
1.325 3.141 1.677 8357
1.326 3.145 1.667 7355
1.331 3.156 1.661 5161
1.355 3.213 1.677 6480
1.357 3.217 1.667 7349
1.359 3.222 1.657 5161
1.358 3.219 1.644 3620
1.365 3.236 1.640 3277
1.429 3.388 1.699 4942
1.428 3.385 1.685 8102
1.446 3.430 1.693 8172
1.451 3.441 1.685 10430
1.464 3.472 1.687 10156
1.469 3.483 1.679 7975
1.448 3.433 1.644 4653
1.518 3.599 1.705 4839
1.517 3.596 1.691 8455
1.521 3.607 1.682 9004
1.526 3.618 1.674 7804
1.519 3.602 1.654 9975
1.521 3.606 1.643 13608
1.531 3.630 1.640 13890
1.536 3.641 1.631 10503
1.537 3.645 1.620 7178
1.536 3.642 1.606 7520
1.601 3.797 1.655 6399
1.638 3.883 1.676 8837
1.605 3.805 1.632 9309
1.612 3.822 1.625 8697
1.666 3.950 1.661 10675
1.668 3.954 1.649 10131
1.635 3.876 1.605 12599
1.636 3.880 1.593 12225
1.684 3.994 1.622 12341
1.689 4.005 1.612 11825
1.691 4.009 1.600 9306
1.692 4.012 1.587 9978
1.732 4.106 1.607 10683
1.733 4.110 1.594 7854
1.799 4.267 1.636 4475
1.798 4.264 1.620 6443
1.797 4.261 1.604 7438
1.802 4.272 1.593 9178
1.809 4.289 1.584 9411
1.811 4.293 1.571 6217
1.812 4.297 1.558 4827
1.817 4.308 1.546 3530
1.939 4.598 1.627 3779
1.944 4.609 1.614 4766
1.945 4.613 1.600 4140
1.965 4.659 1.599 3821
1.964 4.656 1.582 3829
2.021 4.793 1.609 4433
2.023 4.797 1.594 7340
2.025 4.801 1.579 11615
2.029 4.812 1.566 10773
2.034 4.822 1.553 11280
2.032 4.819 1.535 9155
2.165 5.133 1.610 6194
2.164 5.130 1.592 7736
2.168 5.141 1.578 8407
2.170 5.145 1.562 7380
2.177 5.163 1.549 7343
2.179 5.166 1.533 6918
2.249 5.333 1.561 3836
2.290 5.429 1.569 3380
2.285 5.419 1.548 2658
2.398 5.685 1.599 3126
2.402 5.696 1.583 3737
2.455 5.820 1.595 2236
2.462 5.839 1.581 2328
2.524 5.985 1.597 2049
2.526 5.989 1.578 2993
2.533 6.007 1.563 3284
2.547 6.039 1.551 3582
2.555 6.057 1.535 3717
2.568 6.089 1.523 2888
2.573 6.100 1.505 2553
2.897 6.868 1.656 2790
2.901 6.880 1.636 3826
2.903 6.884 1.614 4084
2.905 6.888 1.593 4203
2.903 6.884 1.569 4379
2.908 6.895 1.549 3993
2.913 6.906 1.529 3985
2.996 7.104 1.546 3285
2.991 7.093 1.521 3352
2.990 7.090 1.497 2258
3.322 7.876 1.623 2831
3.324 7.880 1.598 3712
3.325 7.884 1.574 4102
3.330 7.895 1.550 3263
3.541 8.396 1.613 3569
3.543 8.400 1.586 4086
3.541 8.396 1.559 3334
3.552 8.422 1.536 2737
3.547 8.411 1.507 3377
3.543 8.400 1.478 4042
3.544 8.404 1.452 3832
3.543 8.400 1.424 3268
3.949 9.365 1.542 2419
3.951 9.368 1.513 2907
3.956 9.379 1.484 3560
3.960 9.390 1.456 2948
4.072 9.654 1.462 2125
4.073 9.658 1.432 2175
4.078 9.668 1.402 1740
4.076 9.664 1.371 1294
4.059 9.624 1.335 1184
5.103 12.099 1.605 1093
4.835 11.465 1.491 991
5.060 11.998 1.516 1101
5.062 12.002 1.478 976
5.176 12.274 1.470 854
5.178 12.277 1.431 647
5.372 12.738 1.439 562
5.524 13.098 1.434 652
5.519 13.087 1.391 537
5.508 13.061 1.347 365
2.078 4.928 0.344 262
2.082 4.935 0.329 416
2.079 4.929 0.313 763
2.079 4.929 0.298 956
2.082 4.937 0.282 1139
2.082 4.937 0.267 1435
2.079 4.930 0.251 1540
2.082 4.938 0.236 1532
2.083 4.938 0.220 1528
2.083 4.938 0.205 1448
2.237 5.303 0.193 1205
2.234 5.296 0.176 1357
2.237 5.303 0.160 1411
2.237 5.303 0.143 1484
2.237 5.303 0.127 1450
2.237 5.303 0.110 1307
2.237 5.303 0.093 1196
2.237 5.303 0.077 1042
2.236 5.303 0.060 888
2.236 5.303 0.043 728
2.236 5.302 0.027 568
2.236 5.302 0.010 448
2.082 4.937 0.004 391
2.079 4.929 -0.012 356
2.079 4.929 -0.027 321
2.082 4.936 -0.043 273
1.894 4.491 -0.040 282
1.894 4.490 -0.054 283
1.893 4.489 -0.069 284
0.417 0.989 0.054 319
0.417 0.989 0.051 432
0.417 0.988 0.048 589
0.420 0.995 0.044 748
0.417 0.988 0.042 860
0.413 0.980 0.040 979
0.416 0.987 0.036 1010
0.413 0.980 0.034 1050
0.413 0.980 0.031 1124
0.410 0.972 0.029 1800
0.410 0.972 0.026 2435
0.410 0.971 0.023 2906
0.909 2.130 1.783 5189
0.911 2.135 1.776 10379
0.913 2.139 1.769 10379
0.915 2.143 1.763 11060
0.919 2.154 1.761 11816
0.921 2.158 1.754 10096
0.941 2.204 1.779 10458
0.943 2.208 1.772 10458
0.947 2.219 1.770 9699
0.954 2.235 1.772 9896
0.956 2.240 1.765 9981
0.955 2.238 1.754 10085
0.960 2.248 1.751 9746
0.964 2.259 1.749 9493
0.966 2.263 1.742 7948
0.968 2.267 1.735 6490
0.970 2.271 1.727 6646
0.977 2.288 1.729 7193
0.981 2.298 1.726 8244
0.988 2.315 1.728 7579
1.000 2.344 1.738 8196
1.007 2.360 1.739 7369
1.020 2.389 1.748 8026
1.024 2.399 1.745 5873
1.029 2.410 1.742 4024
1.033 2.420 1.739 5716
1.038 2.431 1.735 7719
1.047 2.454 1.740 10903
1.049 2.458 1.732 14538
1.054 2.469 1.729 13126
1.058 2.479 1.725 12175
1.060 2.483 1.718 8136
1.073 2.513 1.726 5422
1.077 2.523 1.722 5100
1.082 2.534 1.718 5016
1.091 2.557 1.722 6425
1.101 2.580 1.726 8307
1.103 2.584 1.718 8294
1.129 2.645 1.745 10895
1.131 2.650 1.737 14157
1.136 2.660 1.733 13144
1.137 2.665 1.725 12252
1.139 2.669 1.716 11625
1.147 2.686 1.716 13459
1.151 2.696 1.711 16020
1.153 2.701 1.703 18069
1.152 2.698 1.690 20215
1.151 2.696 1.678 18386
1.172 2.745 1.696 15991
1.174 2.749 1.687 16784
1.175 2.754 1.679 14738
1.177 2.758 1.670 9628
1.173 2.749 1.654 6694
1.178 2.759 1.649 6157
1.224 2.867 1.698 6691
1.226 2.871 1.689 8156
1.225 2.869 1.677 8497
1.221 2.860 1.661 8071
1.270 2.975 1.711 8271
1.272 2.979 1.702 7803
1.313 3.075 1.741 7219
1.315 3.080 1.732 8571
1.316 3.084 1.722 8207
1.313 3.075 1.706 6891
1.317 3.086 1.699 6032
1.325 3.103 1.696 6487
1.321 3.094 1.680 6885
1.328 3.111 1.677 8075
1.341 3.142 1.681 8429
1.343 3.146 1.671 7609
1.348 3.157 1.664 5978
1.366 3.201 1.674 6792
1.374 3.218 1.670 7245
1.378 3.229 1.663 4866
1.440 3.373 1.720 4003
1.445 3.384 1.712 3525
1.446 3.388 1.702 5287
1.445 3.386 1.688 8385
1.458 3.417 1.690 9066
1.466 3.434 1.685 11636
1.479 3.465 1.687 11089
1.484 3.476 1.679 8220
1.465 3.433 1.647 4758
1.531 3.586 1.702 4626
1.532 3.590 1.691 8287
1.537 3.601 1.682 8745
1.545 3.618 1.677 7173
1.529 3.582 1.648 7553
1.536 3.599 1.643 9857
1.550 3.631 1.643 10990
1.551 3.635 1.631 9030
1.553 3.639 1.620 6549
1.555 3.642 1.609 6287
1.656 3.878 1.691 7659
1.660 3.889 1.682 11649
1.665 3.900 1.672 9837
1.678 3.932 1.671 11520
1.680 3.936 1.659 13791
1.682 3.940 1.646 13922
1.692 3.965 1.642 15483
1.694 3.969 1.629 16083
1.699 3.979 1.620 16880
1.703 3.990 1.610 16347
1.705 3.994 1.597 13022
1.707 3.998 1.585 14444
1.705 3.995 1.570 12577
1.704 3.992 1.555 8199
1.815 4.252 1.633 5294
1.814 4.249 1.617 7638
1.812 4.246 1.602 8880
1.817 4.257 1.591 9481
1.822 4.268 1.580 8530
1.823 4.271 1.566 5661
1.822 4.268 1.551 4838
1.827 4.279 1.539 3471
1.959 4.590 1.627 3876
1.961 4.594 1.612 4780
1.965 4.604 1.600 4590
1.976 4.629 1.592 4423
1.981 4.640 1.580 4958
1.985 4.651 1.567 4473
2.044 4.788 1.594 6972
2.046 4.792 1.579 11068
2.047 4.796 1.564 10317
2.052 4.807 1.551 10080
2.050 4.803 1.533 9288
2.052 4.807 1.518 7123
2.183 5.113 1.590 7817
2.187 5.124 1.576 8919
2.198 5.149 1.566 6588
2.200 5.153 1.549 7191
2.198 5.150 1.531 5970
2.272 5.323 1.561 3672
2.313 5.419 1.569 3013
2.309 5.409 1.548 2410
2.422 5.674 1.599 2651
2.427 5.685 1.583 3361
2.480 5.810 1.595 2274
2.488 5.828 1.581 2612
2.502 5.860 1.569 2395
2.552 5.978 1.578 2679
2.553 5.981 1.559 2570
2.570 6.021 1.549 2955
2.575 6.032 1.532 3082
2.585 6.057 1.518 2514
2.721 6.374 1.570 2441
2.793 6.542 1.586 3112
2.794 6.546 1.565 3448
2.933 6.871 1.614 3286
2.935 6.875 1.593 3211
2.933 6.872 1.569 3433
2.938 6.883 1.549 3257
2.943 6.894 1.529 3241
3.033 7.105 1.549 2914
3.038 7.116 1.528 2614
3.354 7.858 1.648 2275
3.356 7.862 1.623 2846
3.358 7.866 1.598 3719
3.359 7.870 1.574 4226
3.364 7.881 1.550 3496
3.577 8.380 1.613 2656
3.656 8.564 1.618 3507
3.648 8.546 1.587 3217
3.647 8.543 1.559 3216
3.651 8.554 1.533 4288
3.693 8.651 1.521 3756
3.581 8.388 1.452 3137
3.579 8.385 1.424 2468
3.990 9.347 1.542 2713
3.992 9.351 1.513 3107
3.996 9.362 1.484 3665
4.001 9.373 1.456 2876
4.107 9.622 1.460 2128
4.115 9.640 1.432 2017
4.082 9.564 1.391 1540
4.886 11.447 1.602 1349
4.888 11.451 1.565 1480
4.887 11.447 1.528 1343
4.885 11.444 1.491 1277
4.887 11.447 1.455 1204
4.891 11.458 1.420 1011
5.567 13.041 1.556 830
5.571 13.052 1.515 636
5.576 13.063 1.475 568
5.578 13.066 1.433 694
5.579 13.070 1.392 568
5.571 13.051 1.349 319
2.103 4.927 0.313 306
2.103 4.927 0.298 409
2.103 4.928 0.282 505
2.104 4.928 0.267 660
2.104 4.928 0.251 719
2.104 4.929 0.236 749
2.259 5.293 0.226 932
2.259 5.293 0.210 1148
2.260 5.293 0.193 1310
2.256 5.286 0.176 1484
2.260 5.293 0.160 1608
2.260 5.294 0.143 1744
2.260 5.294 0.127 1769
2.260 5.293 0.110 1691
2.260 5.293 0.093 1589
2.260 5.293 0.077 1413
2.259 5.293 0.060 1236
2.259 5.293 0.043 1026
2.259 5.292 0.027 815
2.259 5.292 0.010 636
2.181 5.110 -0.002 554
2.181 5.109 -0.018 486
2.094 4.905 -0.027 532
2.097 4.912 -0.042 441
2.103 4.926 -0.058 360
2.099 4.918 -0.074 356
2.099 4.918 -0.089 352
2.099 4.917 -0.104 284
1.310 3.069 -0.021 280
1.310 3.069 -0.031 356
1.313 3.076 -0.041 380
1.313 3.075 -0.051 409
1.312 3.075 -0.060 351
1.309 3.067 -0.069 296
0.418 0.979 0.043 276
0.418 0.979 0.040 309
0.421 0.986 0.036 440
0.418 0.978 0.034 602
0.414 0.971 0.032 632
0.414 0.970 0.029 846
0.414 0.970 0.026 1071
0.414 0.970 0.023 1329
0.917 2.120 1.778 6204
0.919 2.124 1.771 12408
0.921 2.129 1.765 12408
0.925 2.139 1.763 12802
0.930 2.149 1.761 13340
0.932 2.154 1.754 11478
0.951 2.200 1.779 10851
0.953 2.204 1.772 10851
0.958 2.214 1.770 9732
0.965 2.231 1.772 9872
0.967 2.235 1.765 9367
0.969 2.239 1.758 8862
0.970 2.244 1.751 8494
0.975 2.254 1.749 8137
0.977 2.258 1.742 7023
0.981 2.269 1.739 6015
0.983 2.273 1.732 6349
0.988 2.283 1.729 6893
0.989 2.287 1.722 7668
0.997 2.304 1.723 7342
1.009 2.333 1.733 8483
1.021 2.361 1.743 7354
1.034 2.390 1.753 7867
1.036 2.395 1.745 6124
1.040 2.405 1.742 4522
1.042 2.409 1.734 6294
1.047 2.420 1.731 8108
1.054 2.436 1.732 9524
1.061 2.453 1.732 12036
1.066 2.464 1.729 10709
1.070 2.474 1.725 9888
1.072 2.478 1.718 7192
1.082 2.501 1.722 4740
1.084 2.505 1.714 5242
1.129 2.610 1.770 6262
1.131 2.614 1.762 7823
1.133 2.619 1.754 9812
1.135 2.623 1.746 10240
1.142 2.640 1.745 14693
1.144 2.644 1.737 19616
1.148 2.655 1.733 18988
1.150 2.659 1.725 18574
1.152 2.663 1.716 18107
1.157 2.674 1.712 19214
1.161 2.685 1.707 20697
1.160 2.682 1.695 24088
1.162 2.686 1.687 27655
1.161 2.684 1.674 25429
1.163 2.688 1.666 19065
1.187 2.744 1.687 20368
1.189 2.748 1.679 18289
1.188 2.746 1.666 12626
1.187 2.743 1.654 9008
1.191 2.754 1.649 8371
1.235 2.855 1.695 8664
1.237 2.859 1.686 9417
1.236 2.857 1.673 8806
1.282 2.965 1.721 8753
1.284 2.969 1.711 10995
1.286 2.973 1.702 10381
1.285 2.971 1.689 8713
1.329 3.073 1.732 8134
1.328 3.071 1.719 8048
1.324 3.062 1.702 8134
1.326 3.066 1.693 7033
1.362 3.149 1.723 8008
1.364 3.154 1.714 8335
1.349 3.118 1.684 6911
1.353 3.129 1.677 5962
1.361 3.146 1.674 5478
1.368 3.164 1.671 5222
1.382 3.194 1.674 6398
1.392 3.218 1.673 6686
1.402 3.242 1.673 5778
1.407 3.253 1.666 5153
1.464 3.384 1.716 4514
1.468 3.395 1.708 5651
1.464 3.385 1.691 7569
1.475 3.410 1.690 9474
1.482 3.427 1.685 11928
1.496 3.458 1.687 10861
1.501 3.469 1.679 7889
1.502 3.473 1.668 5217
1.498 3.464 1.651 5082
1.550 3.582 1.691 7848
1.551 3.586 1.679 7900
1.524 3.523 1.639 6516
1.534 3.547 1.637 6735
1.548 3.578 1.637 6907
1.570 3.630 1.646 7587
1.572 3.634 1.634 6854
1.571 3.631 1.620 5973
1.572 3.635 1.609 5551
1.680 3.884 1.697 9319
1.682 3.888 1.685 14492
1.687 3.899 1.675 13563
1.694 3.917 1.668 14876
1.696 3.921 1.656 16726
1.701 3.932 1.646 18421
1.705 3.943 1.637 20152
1.710 3.954 1.627 20362
1.712 3.958 1.614 20872
1.719 3.975 1.607 19701
1.721 3.979 1.595 16270
1.723 3.983 1.582 18628
1.725 3.987 1.570 18105
1.723 3.984 1.555 12205
1.725 3.988 1.542 6798
1.834 4.240 1.617 7837
1.830 4.230 1.599 9366
1.834 4.241 1.588 8899
1.839 4.252 1.577 6910
1.838 4.249 1.562 5104
1.839 4.253 1.548 4512
1.979 4.576 1.641 3374
1.981 4.580 1.627 4108
1.983 4.584 1.612 4642
1.988 4.595 1.600 5029
2.001 4.627 1.594 5772
2.006 4.638 1.582 6167
2.011 4.648 1.570 5573
2.070 4.785 1.596 5060
2.065 4.775 1.576 7253
2.070 4.786 1.564 8306
2.075 4.797 1.551 8952
2.070 4.786 1.531 7372
2.075 4.797 1.518 6045
2.210 5.110 1.592 8936
2.215 5.121 1.578 9374
2.226 5.146 1.568 6160
2.224 5.143 1.549 6850
2.223 5.139 1.531 4502
2.386 5.517 1.616 3459
2.388 5.521 1.599 3468
2.478 5.729 1.635 2933
2.483 5.740 1.619 3326
2.451 5.667 1.581 3229
2.511 5.805 1.597 2601
2.513 5.809 1.579 2863
2.533 5.855 1.571 2731
2.534 5.859 1.552 2783
2.536 5.863 1.534 2025
2.599 6.008 1.549 2365
2.601 6.012 1.530 2536
2.608 6.030 1.514 2697
2.751 6.361 1.570 2649
2.824 6.529 1.586 3256
2.826 6.532 1.565 3764
2.827 6.536 1.545 2654
3.063 7.082 1.640 1819
3.013 6.965 1.592 2066
3.023 6.990 1.574 2264
3.068 7.094 1.573 2731
3.073 7.105 1.552 3015
3.075 7.108 1.529 3121
3.076 7.112 1.507 2952
3.078 7.116 1.484 2406
3.398 7.857 1.600 3057
3.400 7.861 1.575 3770
3.402 7.865 1.550 3205
3.701 8.557 1.647 3211
3.697 8.546 1.618 3484
3.686 8.522 1.586 2916
3.688 8.526 1.559 3228
3.692 8.536 1.533 4619
3.731 8.626 1.520 3716
3.727 8.616 1.490 2842
4.033 9.324 1.572 2147
4.116 9.515 1.571 2495
4.117 9.519 1.541 2746
4.041 9.343 1.484 3048
4.046 9.353 1.456 2480
4.128 9.544 1.452 2102
4.127 9.541 1.421 1787
4.128 9.544 1.391 1744
4.941 11.423 1.602 1588
4.943 11.427 1.565 1736
4.941 11.424 1.528 1520
4.940 11.420 1.491 1415
4.945 11.431 1.456 1327
4.946 11.435 1.420 1125
5.342 12.349 1.483 939
5.331 12.324 1.441 784
5.332 12.327 1.402 621
5.640 13.039 1.433 632
5.498 12.710 1.360 531
5.496 12.706 1.319 306
4.645 10.739 0.589 263
4.646 10.740 0.555 300
4.643 10.734 0.521 312
4.646 10.742 0.487 342
4.647 10.743 0.453 400
4.647 10.744 0.419 425
4.647 10.744 0.385 430
4.651 10.752 0.351 441
4.651 10.753 0.317 425
4.651 10.753 0.283 377
4.651 10.753 0.249 344
4.655 10.761 0.215 297
4.655 10.761 0.181 254
2.206 5.101 0.143 284
2.206 5.101 0.127 367
2.206 5.101 0.111 527
2.128 4.919 0.096 640
2.128 4.919 0.081 743
2.128 4.919 0.065 847
2.128 4.919 0.050 959
2.127 4.918 0.035 1071
2.127 4.918 0.019 1053
2.127 4.918 0.004 1036
2.127 4.917 -0.012 1012
2.127 4.917 -0.027 988
2.127 4.916 -0.043 889
2.126 4.916 -0.058 791
2.126 4.915 -0.074 686
2.126 4.915 -0.089 582
2.126 4.914 -0.105 445
1.322 3.056 -0.021 325
1.325 3.062 -0.031 429
1.324 3.062 -0.041 531
1.327 3.069 -0.051 639
1.327 3.068 -0.060 641
1.324 3.060 -0.069 650
1.324 3.060 -0.079 572
1.323 3.059 -0.088 488
1.326 3.066 -0.099 402
1.329 3.072 -0.109 321
0.667 1.543 0.003 325
0.664 1.535 -0.001 415
0.664 1.535 -0.006 506
0.664 1.534 -0.011 554
0.663 1.534 -0.016 601
0.663 1.533 -0.020 573
0.663 1.533 -0.025 517
0.663 1.532 -0.030 490
0.419 0.969 0.032 455
0.419 0.968 0.029 433
0.419 0.968 0.026 398
0.428 0.989 0.020 535
0.922 2.118 1.778 6464
0.924 2.122 1.771 12928
0.926 2.126 1.765 12928
0.930 2.137 1.763 13116
0.935 2.147 1.761 13533
0.937 2.151 1.754 11789
0.954 2.191 1.775 10883
0.956 2.196 1.768 10883
0.963 2.212 1.770 9439
0.970 2.228 1.772 9470
0.972 2.233 1.765 8675
0.948 2.177 1.714 8522
0.952 2.187 1.711 7698
0.957 2.197 1.709 6954
0.982 2.256 1.742 5939
0.987 2.266 1.739 5497
0.988 2.271 1.732 5950
0.993 2.281 1.729 6452
0.995 2.285 1.722 7051
1.002 2.302 1.723 7103
1.014 2.330 1.733 8523
1.030 2.365 1.747 7173
1.040 2.388 1.753 7582
1.044 2.398 1.749 6172
1.046 2.403 1.742 4782
1.048 2.407 1.734 6419
1.050 2.411 1.727 8055
1.060 2.434 1.732 8448
1.064 2.444 1.728 9976
1.069 2.455 1.725 8649
1.076 2.472 1.725 7841
1.078 2.476 1.718 6294
1.085 2.492 1.718 4887
1.087 2.497 1.710 5502
1.135 2.607 1.770 6748
1.137 2.612 1.762 8226
1.139 2.616 1.754 10687
1.141 2.620 1.746 11669
1.148 2.637 1.745 16861
1.150 2.642 1.737 22690
1.155 2.652 1.733 22178
1.156 2.656 1.725 22000
1.158 2.661 1.716 21429
1.163 2.671 1.712 22011
1.165 2.675 1.703 22851
1.167 2.680 1.695 27012
1.168 2.684 1.687 31174
1.167 2.681 1.674 28762
1.169 2.686 1.666 21425
1.193 2.741 1.687 21674
1.195 2.745 1.679 19641
1.191 2.736 1.663 13674
1.190 2.734 1.651 9595
1.198 2.751 1.649 8938
1.239 2.846 1.691 9429
1.243 2.856 1.686 9824
1.242 2.854 1.673 8710
1.287 2.955 1.717 10150
1.288 2.960 1.708 12493
1.293 2.970 1.702 11717
1.292 2.968 1.689 9806
1.294 2.972 1.680 8710
1.336 3.068 1.719 7729
1.332 3.059 1.702 8707
1.333 3.063 1.693 8078
1.367 3.140 1.720 8754
1.371 3.150 1.714 9404
1.362 3.128 1.690 8047
1.364 3.132 1.681 6409
1.368 3.143 1.674 5687
1.376 3.160 1.671 5724
1.383 3.178 1.667 6136
1.402 3.222 1.677 6005
1.410 3.239 1.673 6333
1.412 3.243 1.663 6095
1.472 3.380 1.716 5180
1.476 3.391 1.708 5660
1.469 3.375 1.688 7098
1.483 3.406 1.690 9140
1.488 3.417 1.682 10763
1.501 3.448 1.684 9391
1.509 3.465 1.679 6957
1.510 3.470 1.668 5769
1.512 3.474 1.657 6218
1.555 3.572 1.688 6970
1.560 3.583 1.679 6673
1.535 3.526 1.642 7103
1.540 3.537 1.634 7363
1.550 3.561 1.631 6549
1.564 3.592 1.631 5470
1.580 3.630 1.634 5600
1.582 3.634 1.623 5824
1.584 3.638 1.611 5624
1.692 3.887 1.700 9853
1.694 3.891 1.687 14963
1.699 3.902 1.678 14978
1.703 3.913 1.668 15723
1.705 3.917 1.656 16953
1.710 3.928 1.646 19689
1.715 3.939 1.637 21364
1.716 3.943 1.624 20991
1.721 3.954 1.614 21120
1.729 3.971 1.607 18965
1.731 3.975 1.595 16020
1.732 3.979 1.582 18730
1.734 3.983 1.570 19070
1.733 3.980 1.555 12945
1.734 3.984 1.542 6924
1.841 4.229 1.615 6609
1.840 4.226 1.599 8040
1.844 4.237 1.588 7220
1.849 4.248 1.577 5165
1.845 4.238 1.559 4085
1.849 4.248 1.548 3560
1.993 4.578 1.643 2791
1.992 4.575 1.627 3732
1.994 4.579 1.612 4090
2.004 4.604 1.604 4828
2.015 4.629 1.597 5897
2.017 4.633 1.582 6354
2.025 4.651 1.572 6265
2.026 4.655 1.557 3929
2.074 4.763 1.574 4188
2.084 4.788 1.566 5722
2.089 4.799 1.553 7350
2.207 5.069 1.616 5139
2.208 5.073 1.600 4920
2.228 5.119 1.596 8666
2.230 5.123 1.580 8848
2.238 5.141 1.568 5350
2.236 5.137 1.549 5610
2.238 5.141 1.533 3453
2.310 5.307 1.561 2987
2.404 5.522 1.601 3260
2.492 5.724 1.635 3808
2.497 5.735 1.619 4107
2.464 5.661 1.581 3681
2.528 5.806 1.599 3329
2.526 5.803 1.579 2931
2.546 5.849 1.571 2558
2.548 5.853 1.552 3019
2.547 5.850 1.532 2438
2.616 6.009 1.551 1759
2.757 6.333 1.606 1955
2.622 6.024 1.514 2377
2.766 6.355 1.570 2586
2.842 6.529 1.588 2849
2.844 6.533 1.567 3347
2.843 6.530 1.545 2461
3.077 7.067 1.638 1909
3.035 6.972 1.595 2292
3.040 6.983 1.574 2539
3.038 6.979 1.551 2436
3.090 7.097 1.552 2666
3.200 7.351 1.578 3032
3.093 7.105 1.507 2997
3.160 7.259 1.513 2406
3.554 8.164 1.659 2755
3.422 7.860 1.576 3015
3.420 7.857 1.550 2670
3.721 8.548 1.647 3223
3.720 8.545 1.619 3165
3.703 8.506 1.584 2399
3.701 8.502 1.556 2886
3.712 8.528 1.533 3992
3.745 8.603 1.517 3363
3.744 8.600 1.489 2558
4.058 9.322 1.573 1958
4.138 9.506 1.571 2409
4.140 9.509 1.541 2590
4.104 9.427 1.498 2535
4.071 9.351 1.457 2249
4.104 9.427 1.437 2050
4.108 9.437 1.408 2197
4.104 9.426 1.376 1635
4.968 11.412 1.602 1516
4.970 11.416 1.565 1620
4.968 11.412 1.528 1392
4.967 11.409 1.491 1294
4.971 11.419 1.456 1227
4.973 11.423 1.420 1048
5.371 12.336 1.483 1005
5.360 12.311 1.441 835
5.358 12.307 1.401 640
5.532 12.708 1.402 595
5.531 12.704 1.361 499
5.526 12.693 1.319 261
1.357 3.116 0.337 286
1.354 3.109 0.327 285
2.007 4.610 0.404 270
1.412 3.242 0.274 302
1.409 3.236 0.264 323
4.671 10.730 0.521 315
4.672 10.731 0.487 314
4.672 10.732 0.453 299
4.672 10.733 0.419 286
4.673 10.733 0.385 286
4.676 10.741 0.351 288
4.676 10.742 0.317 280
2.218 5.096 0.143 322
2.218 5.096 0.127 411
2.143 4.922 0.112 559
2.143 4.921 0.096 725
2.139 4.914 0.081 1015
2.136 4.907 0.066 1341
2.139 4.914 0.050 1470
2.142 4.921 0.034 1641
2.139 4.913 0.019 1820
2.139 4.913 0.004 2033
2.139 4.912 -0.012 1960
2.138 4.912 -0.027 1888
2.138 4.911 -0.043 1771
2.138 4.911 -0.058 1654
2.138 4.910 -0.074 1405
2.137 4.910 -0.089 1157
2.137 4.909 -0.105 934
2.134 4.901 -0.120 716
2.137 4.908 -0.136 527
1.328 3.052 -0.040 517
1.331 3.058 -0.050 595
1.331 3.058 -0.060 631
1.331 3.057 -0.069 667
1.331 3.057 -0.079 624
1.330 3.056 -0.088 581
1.333 3.063 -0.099 537
1.336 3.069 -0.109 514
0.668 1.534 0.013 456
0.668 1.534 0.008 556
0.668 1.534 0.003 657
0.668 1.533 -0.001 690
0.667 1.533 -0.006 724
0.664 1.525 -0.010 735
0.664 1.525 -0.015 756
0.664 1.525 -0.020 733
0.664 1.524 -0.024 666
0.663 1.524 -0.029 621
0.663 1.523 -0.034 563
0.663 1.523 -0.038 505
0.663 1.522 -0.043 457
0.663 1.522 -0.048 547
0.931 2.114 1.778 6522
0.933 2.118 1.771 13044
0.935 2.122 1.765 13044
0.939 2.133 1.763 13059
0.944 2.143 1.761 13373
0.946 2.147 1.754 11874
0.961 2.181 1.770 11102
0.963 2.186 1.763 11102
0.970 2.202 1.765 9390
0.980 2.224 1.772 9190
0.982 2.228 1.765 8192
0.960 2.179 1.718 8760
0.962 2.183 1.711 7762
0.966 2.193 1.709 6821
0.965 2.191 1.698 4834
0.996 2.262 1.739 4944
1.006 2.284 1.745 5654
1.003 2.277 1.729 6075
1.005 2.281 1.722 6515
1.012 2.297 1.723 6891
1.022 2.320 1.729 8210
1.045 2.373 1.756 6853
1.053 2.389 1.757 7266
1.054 2.394 1.749 6222
1.056 2.398 1.742 5178
1.058 2.402 1.734 6481
1.060 2.407 1.727 7785
1.067 2.423 1.728 7510
1.075 2.440 1.728 7967
1.079 2.450 1.725 6621
1.084 2.461 1.721 5734
1.091 2.477 1.722 5402
1.096 2.488 1.718 5596
1.098 2.492 1.710 5903
1.146 2.602 1.770 6880
1.148 2.607 1.762 8194
1.150 2.611 1.754 11069
1.152 2.615 1.746 12630
1.160 2.632 1.745 18283
1.161 2.637 1.737 24646
1.166 2.647 1.733 24185
1.168 2.651 1.725 24110
1.170 2.656 1.716 23415
1.174 2.666 1.712 23505
1.174 2.664 1.700 24170
1.175 2.668 1.691 28709
1.177 2.672 1.683 33248
1.179 2.676 1.674 30586
1.181 2.680 1.666 22528
1.205 2.736 1.687 21858
1.207 2.740 1.679 19958
1.197 2.718 1.655 13861
1.185 2.690 1.629 9702
1.207 2.739 1.646 8675
1.248 2.834 1.687 9351
1.253 2.844 1.682 9887
1.255 2.848 1.673 8299
1.299 2.950 1.717 11100
1.301 2.954 1.708 13175
1.303 2.958 1.699 12401
1.305 2.962 1.689 10646
1.307 2.966 1.680 9665
1.311 2.977 1.674 7098
1.342 3.047 1.699 8924
1.344 3.051 1.689 9108
1.377 3.127 1.717 8106
1.382 3.138 1.710 9020
1.378 3.129 1.694 7794
1.427 3.238 1.737 5858
1.434 3.256 1.733 5842
1.390 3.154 1.671 4994
1.397 3.172 1.667 5023
1.419 3.222 1.680 5475
1.421 3.226 1.670 6704
1.423 3.230 1.660 6908
1.483 3.367 1.712 5940
1.482 3.365 1.699 6664
1.484 3.369 1.688 7174
1.495 3.393 1.687 8197
1.502 3.410 1.682 8696
1.516 3.441 1.684 7171
1.524 3.459 1.679 5664
1.525 3.463 1.668 6024
1.527 3.467 1.657 6992
1.571 3.565 1.688 5513
1.572 3.569 1.676 5019
1.550 3.519 1.642 6540
1.555 3.530 1.634 7269
1.566 3.554 1.631 6706
1.571 3.565 1.623 5892
1.593 3.616 1.631 5019
1.598 3.627 1.623 5773
1.603 3.638 1.614 5635
1.712 3.886 1.702 9583
1.711 3.884 1.687 13856
1.716 3.895 1.678 14703
1.720 3.905 1.668 14866
1.722 3.910 1.656 15549
1.727 3.920 1.646 18847
1.732 3.931 1.637 19907
1.734 3.935 1.624 18989
1.738 3.946 1.614 18736
1.743 3.957 1.605 15677
1.748 3.968 1.595 13188
1.749 3.971 1.582 16176
1.751 3.975 1.570 17133
1.750 3.972 1.555 11678
1.755 3.983 1.545 6063
1.859 4.221 1.615 4690
1.858 4.218 1.599 5777
1.860 4.222 1.586 5152
1.868 4.240 1.577 3540
1.903 4.319 1.590 2921
1.908 4.330 1.578 2482
2.010 4.563 1.641 2991
2.024 4.594 1.636 3223
2.059 4.675 1.646 3661
2.040 4.630 1.616 5096
2.038 4.627 1.599 5423
2.040 4.631 1.584 5927
2.048 4.649 1.574 6733
2.046 4.646 1.557 3978
2.168 4.922 1.625 2705
2.114 4.800 1.572 3346
2.113 4.797 1.555 4421
2.226 5.052 1.614 4472
2.230 5.063 1.600 4634
2.254 5.116 1.598 6976
2.255 5.120 1.582 7469
2.310 5.243 1.599 4770
2.265 5.142 1.553 4205
2.375 5.391 1.605 3256
2.377 5.395 1.587 3056
2.515 5.709 1.653 2608
2.517 5.713 1.635 4395
2.521 5.724 1.619 4638
2.542 5.770 1.612 3938
2.553 5.795 1.599 4230
2.604 5.912 1.609 2929
2.606 5.916 1.590 3616
2.573 5.842 1.552 2862
2.572 5.839 1.532 2499
2.614 5.934 1.536 2274
2.613 5.931 1.515 2962
2.614 5.935 1.496 2241
2.797 6.350 1.571 2336
2.871 6.517 1.588 2500
2.875 6.528 1.569 3093
2.877 6.531 1.548 2415
3.107 7.054 1.638 1749
3.181 7.222 1.650 2435
3.183 7.226 1.627 2894
3.185 7.230 1.605 3038
3.186 7.234 1.582 3036
3.232 7.337 1.578 3715
3.190 7.241 1.536 3244
3.191 7.245 1.513 3386
3.593 8.155 1.660 3742
3.594 8.159 1.634 4035
3.596 8.163 1.608 2619
3.758 8.532 1.647 2991
3.760 8.536 1.620 2780
3.620 8.218 1.538 3215
3.618 8.214 1.511 2811
3.746 8.504 1.532 2777
3.776 8.573 1.515 3006
3.772 8.562 1.486 2530
4.111 9.333 1.577 1748
4.132 9.380 1.554 2496
4.140 9.398 1.527 3082
4.142 9.402 1.497 3365
4.143 9.405 1.467 2977
4.145 9.409 1.437 2684
4.149 9.419 1.408 2787
4.145 9.408 1.376 2056
4.140 9.397 1.345 1685
5.019 11.394 1.565 1348
5.376 12.204 1.628 1388
5.378 12.208 1.589 1183
5.021 11.398 1.456 1006
5.022 11.401 1.420 846
5.424 12.313 1.483 976
5.416 12.295 1.442 788
5.408 12.277 1.400 535
5.588 12.684 1.402 517
5.586 12.680 1.361 430
1.370 3.110 0.347 336
1.370 3.110 0.337 601
1.370 3.111 0.327 775
1.367 3.104 0.317 818
1.368 3.104 0.307 736
1.422 3.228 0.304 744
1.419 3.221 0.294 747
1.419 3.221 0.283 715
1.419 3.222 0.273 667
1.419 3.222 0.263 650
1.420 3.222 0.253 554
4.957 11.254 0.505 411
4.958 11.255 0.469 387
4.955 11.248 0.433 366
4.959 11.256 0.398 359
1.985 4.506 0.228 384
1.985 4.506 0.214 434
1.985 4.506 0.200 433
1.982 4.499 0.185 392
1.982 4.499 0.171 359
1.982 4.499 0.157 325
2.241 5.086 0.143 386
2.241 5.086 0.127 494
2.240 5.086 0.111 688
2.240 5.086 0.095 775
2.141 4.861 0.082 924
2.141 4.861 0.066 1125
2.138 4.854 0.051 1205
2.138 4.853 0.036 1290
2.141 4.860 0.020 1458
2.141 4.860 0.005 1639
2.138 4.852 -0.010 1555
2.137 4.852 -0.026 1512
2.140 4.859 -0.041 1492
2.143 4.865 -0.057 1521
2.140 4.858 -0.072 1363
2.136 4.850 -0.087 1211
2.136 4.849 -0.102 1015
2.136 4.848 -0.118 818
1.345 3.053 -0.031 772
1.345 3.053 -0.041 765
1.345 3.053 -0.050 757
1.344 3.052 -0.060 728
1.344 3.051 -0.069 699
1.344 3.051 -0.079 668
1.344 3.050 -0.088 635
1.347 3.057 -0.099 506
0.672 1.525 0.018 464
0.672 1.524 0.013 594
0.675 1.531 0.008 717
0.674 1.531 0.003 846
0.674 1.531 -0.001 890
0.671 1.523 -0.005 946
0.671 1.523 -0.010 975
0.671 1.522 -0.015 1005
0.670 1.522 -0.020 978
0.670 1.521 -0.024 897
0.670 1.521 -0.029 843
0.670 1.520 -0.034 799
0.670 1.520 -0.038 756
0.669 1.519 -0.043 722
0.669 1.519 -0.048 898
0.937 2.111 1.778 6186
0.939 2.115 1.771 12373
0.941 2.120 1.765 12373
0.946 2.130 1.763 12292
0.950 2.140 1.761 12566
0.955 2.150 1.759 11457
0.965 2.173 1.765 11284
0.966 2.177 1.759 11284
0.974 2.193 1.761 9393
0.986 2.221 1.772 8881
0.985 2.220 1.761 7932
0.969 2.182 1.723 8815
0.971 2.186 1.716 7567
0.972 2.190 1.709 6319
1.030 2.321 1.794 4742
1.014 2.283 1.756 4519
1.013 2.281 1.745 5700
1.015 2.286 1.738 5979
1.014 2.284 1.726 6262
1.021 2.300 1.728 6867
1.026 2.311 1.725 7801
1.055 2.376 1.760 6391
1.059 2.386 1.757 6662
1.061 2.391 1.749 6120
1.063 2.395 1.742 5579
1.065 2.399 1.734 6344
1.067 2.403 1.727 7108
1.074 2.420 1.728 6553
1.082 2.437 1.728 6518
1.086 2.447 1.725 5174
1.097 2.470 1.729 4094
1.101 2.480 1.726 5032
1.106 2.491 1.722 6101
1.105 2.489 1.710 5964
1.154 2.599 1.770 6346
1.153 2.597 1.758 7415
1.158 2.608 1.754 10525
1.160 2.612 1.746 12703
1.167 2.629 1.745 18332
1.169 2.633 1.737 24696
1.174 2.644 1.733 24172
1.176 2.648 1.725 24012
1.178 2.652 1.716 22955
1.179 2.656 1.708 22574
1.178 2.654 1.696 23373
1.183 2.665 1.691 27887
1.185 2.669 1.683 32526
1.187 2.673 1.674 29693
1.189 2.677 1.666 21392
1.213 2.732 1.687 20403
1.215 2.736 1.679 18763
1.202 2.708 1.652 12783
1.193 2.687 1.629 9328
1.223 2.755 1.656 7567
1.256 2.830 1.687 8406
1.258 2.834 1.678 9638
1.260 2.838 1.670 7896
1.308 2.946 1.717 10970
1.310 2.950 1.708 12480
1.312 2.954 1.699 12031
1.314 2.958 1.689 10903
1.318 2.969 1.683 10312
1.323 2.980 1.678 7740
1.348 3.036 1.695 9136
1.350 3.040 1.686 9962
1.355 3.051 1.680 8658
1.388 3.127 1.707 8133
1.387 3.125 1.694 7741
1.439 3.241 1.740 6490
1.441 3.245 1.730 6596
1.443 3.249 1.720 4758
1.406 3.168 1.667 4101
1.426 3.211 1.677 4777
1.431 3.222 1.670 6462
1.432 3.226 1.660 6928
1.490 3.356 1.709 6348
1.489 3.354 1.696 7434
1.491 3.358 1.685 6698
1.502 3.382 1.684 6339
1.512 3.406 1.682 5958
1.523 3.430 1.681 4699
1.531 3.448 1.676 4040
1.538 3.465 1.671 5258
1.540 3.469 1.660 6432
1.542 3.473 1.649 5641
1.547 3.484 1.641 4038
1.564 3.522 1.645 5030
1.568 3.532 1.637 6393
1.576 3.550 1.631 6806
1.581 3.561 1.623 6177
1.592 3.585 1.620 5204
1.629 3.670 1.643 5778
1.658 3.735 1.656 5390
1.723 3.881 1.702 7994
1.725 3.885 1.690 10885
1.727 3.890 1.678 12356
1.732 3.900 1.668 12196
1.734 3.905 1.656 12691
1.735 3.909 1.644 15831
1.740 3.919 1.634 15890
1.745 3.930 1.624 14732
1.750 3.941 1.614 14510
1.754 3.952 1.605 10851
1.759 3.962 1.595 8803
1.761 3.966 1.582 11941
1.763 3.970 1.570 12803
1.761 3.967 1.555 8583
1.790 4.033 1.564 4785
1.908 4.298 1.644 4171
1.910 4.302 1.631 5676
1.909 4.299 1.615 4989
1.910 4.303 1.601 3485
1.915 4.314 1.590 3696
2.015 4.539 1.651 4008
2.020 4.550 1.639 3390
2.074 4.672 1.663 2922
2.073 4.669 1.646 4022
2.072 4.666 1.629 5269
2.083 4.691 1.621 6158
2.069 4.660 1.595 5787
2.068 4.657 1.578 6312
2.063 4.647 1.559 3323
2.182 4.915 1.625 3134
2.187 4.926 1.612 3548
2.198 4.951 1.603 3978
2.197 4.948 1.585 4027
2.313 5.210 1.645 3915
2.278 5.131 1.604 4963
2.273 5.120 1.584 5547
2.322 5.229 1.597 5436
2.379 5.359 1.616 4770
2.391 5.384 1.605 3653
2.392 5.388 1.587 3754
2.397 5.399 1.572 2538
2.533 5.705 1.635 4133
2.538 5.716 1.619 4470
2.568 5.784 1.617 4827
2.573 5.795 1.601 4864
2.615 5.890 1.605 3936
2.623 5.908 1.590 4586
2.625 5.912 1.571 3802
2.633 5.930 1.556 2091
2.631 5.927 1.536 2723
2.630 5.923 1.515 3922
2.635 5.934 1.498 3350
2.639 5.945 1.481 2260
2.893 6.515 1.589 2213
2.898 6.526 1.570 2527
2.896 6.523 1.548 2231
3.197 7.201 1.672 2166
3.202 7.212 1.650 2969
3.204 7.216 1.627 3520
3.206 7.220 1.605 3902
3.207 7.224 1.582 4149
3.247 7.314 1.576 4325
3.211 7.232 1.536 4053
3.212 7.236 1.513 3962
3.619 8.152 1.661 4720
3.618 8.149 1.634 5580
3.623 8.160 1.610 3973
3.640 8.200 1.590 2498
3.642 8.203 1.564 3127
3.641 8.200 1.537 4497
3.642 8.204 1.511 3542
3.806 8.572 1.545 2152
3.801 8.562 1.515 2533
3.793 8.544 1.485 2476
4.151 9.350 1.582 1920
4.159 9.368 1.554 3065
4.167 9.386 1.527 3816
4.169 9.390 1.497 4145
4.170 9.393 1.467 3699
4.175 9.404 1.438 3174
4.177 9.407 1.408 3139
4.172 9.396 1.376 2340
4.167 9.385 1.345 1915
4.175 9.403 1.317 1229
5.411 12.189 1.628 1310
5.413 12.192 1.589 1184
5.418 12.203 1.551 953
5.464 12.308 1.524 672
5.460 12.297 1.483 843
5.455 12.286 1.442 706
5.747 12.945 1.471 571
5.749 12.949 1.430 541
5.754 12.959 1.389 423
1.379 3.105 0.357 280
1.379 3.106 0.347 456
1.376 3.099 0.337 681
1.379 3.107 0.327 615
1.383 3.114 0.318 496
1.383 3.115 0.308 451
1.425 3.209 0.303 423
1.425 3.210 0.293 489
1.425 3.210 0.283 409
1.422 3.203 0.273 318
1.371 3.088 0.258 325
1.371 3.088 0.248 357
1.426 3.211 0.243 382
1.423 3.204 0.232 367
1.998 4.499 0.256 418
1.998 4.500 0.242 467
1.998 4.500 0.228 478
2.001 4.507 0.214 493
2.001 4.508 0.200 470
1.998 4.501 0.185 423
1.998 4.501 0.171 395
2.001 4.508 0.157 379
2.255 5.080 0.143 381
2.255 5.080 0.127 513
2.255 5.080 0.111 775
2.255 5.079 0.095 905
2.255 5.079 0.079 1001
2.255 5.079 0.063 1097
2.255 5.079 0.047 1131
2.258 5.086 0.030 1178
2.255 5.078 0.015 1184
2.254 5.078 -0.002 1203
2.254 5.078 -0.018 1149
2.254 5.077 -0.034 1096
2.254 5.077 -0.050 987
2.257 5.083 -0.066 881
2.253 5.076 -0.082 732
2.253 5.075 -0.098 587
2.253 5.074 -0.114 456
1.354 3.050 -0.021 546
1.354 3.050 -0.031 679
1.354 3.049 -0.041 740
1.354 3.049 -0.050 801
1.353 3.048 -0.060 824
1.353 3.048 -0.069 846
1.353 3.047 -0.079 724
1.353 3.046 -0.088 597
0.676 1.523 0.023 482
0.676 1.523 0.018 665
0.676 1.522 0.013 849
0.679 1.529 0.008 1020
0.679 1.529 0.003 1203
0.675 1.521 -0.001 1267
0.675 1.521 -0.005 1350
0.675 1.521 -0.010 1343
0.675 1.520 -0.015 1335
0.675 1.520 -0.020 1277
0.671 1.512 -0.023 1141
0.671 1.512 -0.028 1047
0.674 1.518 -0.034 1043
0.674 1.518 -0.038 1043
0.674 1.517 -0.043 994
0.673 1.517 -0.048 1210
0.952 2.097 1.773 5761
0.954 2.102 1.767 11522
0.956 2.106 1.760 11522
0.963 2.122 1.763 11196
0.968 2.132 1.761 11557
0.975 2.148 1.763 11104
0.982 2.165 1.765 11594
0.984 2.169 1.759 11594
0.989 2.179 1.756 9545
1.002 2.207 1.768 8655
0.993 2.188 1.743 8201
0.989 2.180 1.727 8940
0.991 2.184 1.720 7313
0.993 2.188 1.713 5687
1.047 2.307 1.790 5298
1.046 2.305 1.778 4844
1.032 2.273 1.745 5768
1.036 2.283 1.742 6103
1.038 2.288 1.735 6542
1.040 2.292 1.728 6697
1.042 2.296 1.721 6853
1.077 2.373 1.764 6147
1.079 2.378 1.757 6195
1.081 2.382 1.749 6217
1.083 2.386 1.742 6238
1.085 2.390 1.734 6137
1.090 2.401 1.731 6072
1.097 2.417 1.732 5549
1.102 2.428 1.728 5381
1.106 2.438 1.725 4225
1.136 2.504 1.758 4555
1.138 2.508 1.750 5383
1.129 2.488 1.726 6454
1.125 2.480 1.710 5943
1.124 2.478 1.698 5622
1.163 2.563 1.742 6235
1.176 2.592 1.750 8954
1.181 2.602 1.746 11440
1.189 2.619 1.745 16630
1.191 2.624 1.737 22398
1.195 2.634 1.733 21962
1.197 2.638 1.725 21752
1.199 2.642 1.716 20088
1.204 2.653 1.712 19011
1.200 2.644 1.696 19728
1.205 2.655 1.691 24119
1.207 2.659 1.683 28657
1.209 2.663 1.674 25851
1.213 2.674 1.670 17929
1.235 2.722 1.687 17293
1.237 2.726 1.679 16175
1.259 2.775 1.696 11646
1.264 2.786 1.691 10077
1.266 2.790 1.682 8415
1.271 2.800 1.677 8213
1.276 2.811 1.671 10036
1.275 2.809 1.659 8773
1.329 2.929 1.714 10318
1.331 2.933 1.704 10983
1.336 2.944 1.699 10961
1.341 2.954 1.693 10838
1.343 2.958 1.683 10289
1.350 2.975 1.681 7962
1.370 3.018 1.692 9426
1.375 3.029 1.686 10821
1.377 3.033 1.676 9780
1.381 3.044 1.670 7329
1.413 3.113 1.694 6295
1.465 3.229 1.740 6802
1.467 3.233 1.730 6876
1.469 3.237 1.720 5012
1.450 3.195 1.687 3553
1.452 3.200 1.677 4170
1.454 3.204 1.666 5699
1.459 3.214 1.660 6190
1.515 3.337 1.706 6574
1.513 3.335 1.692 7638
1.518 3.346 1.685 5983
1.526 3.363 1.681 4474
1.534 3.380 1.676 3514
1.539 3.391 1.668 2862
1.544 3.402 1.661 3201
1.567 3.452 1.671 3622
1.569 3.457 1.660 5486
1.567 3.454 1.646 5768
1.569 3.458 1.635 3455
1.647 3.629 1.697 4581
1.649 3.634 1.686 5408
1.605 3.537 1.631 6421
1.656 3.648 1.666 5913
1.658 3.652 1.654 5675
1.662 3.663 1.645 6131
1.695 3.735 1.662 6318
1.697 3.739 1.650 6397
1.757 3.871 1.690 6288
1.759 3.875 1.678 8193
1.761 3.879 1.666 8172
1.762 3.883 1.653 8647
1.767 3.894 1.644 10948
1.772 3.905 1.634 9743
1.777 3.916 1.624 9087
1.782 3.926 1.614 9488
1.790 3.944 1.607 5721
1.798 3.962 1.600 5379
1.800 3.965 1.587 8039
1.801 3.969 1.575 7730
1.921 4.233 1.656 5376
1.932 4.258 1.650 3903
1.937 4.269 1.639 3540
1.939 4.273 1.626 5618
1.941 4.277 1.612 5826
1.946 4.287 1.601 3838
1.951 4.298 1.590 3854
2.052 4.522 1.651 5015
2.060 4.540 1.641 3585
2.119 4.668 1.668 2973
2.111 4.652 1.646 3590
2.110 4.649 1.629 5811
2.121 4.673 1.621 7808
2.120 4.670 1.604 6187
2.109 4.647 1.580 5040
2.170 4.782 1.607 2442
2.222 4.897 1.625 3022
2.224 4.901 1.610 3472
2.229 4.912 1.596 2535
2.237 4.930 1.585 3044
2.353 5.184 1.643 3505
2.332 5.140 1.612 4631
2.356 5.192 1.610 4758
2.425 5.343 1.635 5465
2.423 5.340 1.616 4623
2.435 5.365 1.605 3158
2.443 5.383 1.591 3435
2.448 5.393 1.576 2663
2.580 5.684 1.635 3014
2.591 5.709 1.623 3557
2.615 5.762 1.617 4677
2.620 5.773 1.601 4603
2.660 5.862 1.604 4389
2.671 5.887 1.590 4992
2.676 5.897 1.573 4802
2.681 5.908 1.556 2616
2.677 5.898 1.534 3015
2.678 5.902 1.515 4244
2.680 5.905 1.496 3549
2.685 5.916 1.479 2357
2.962 6.527 1.597 2663
2.980 6.566 1.584 3238
2.988 6.584 1.566 2947
2.996 6.602 1.548 3367
2.995 6.598 1.526 3683
3.260 7.183 1.626 3350
3.262 7.187 1.603 4038
3.305 7.283 1.599 4873
3.307 7.287 1.576 5191
3.270 7.205 1.536 4723
3.272 7.209 1.513 4353
3.686 8.122 1.661 5643
3.685 8.119 1.634 7164
3.690 8.130 1.610 5582
3.701 8.155 1.587 4054
3.703 8.159 1.561 4868
3.708 8.170 1.537 5718
3.709 8.174 1.511 4083
3.698 8.149 1.480 1945
3.858 8.502 1.511 1917
3.857 8.498 1.482 2272
4.231 9.322 1.583 1903
4.239 9.341 1.555 3232
4.244 9.351 1.527 4074
4.246 9.355 1.497 4447
4.247 9.359 1.467 4053
4.252 9.369 1.438 3396
4.254 9.373 1.408 3245
4.249 9.362 1.376 2469
4.244 9.351 1.345 2089
4.251 9.368 1.317 1413
5.508 12.137 1.627 1109
5.513 12.148 1.589 1028
5.518 12.159 1.551 848
5.640 12.428 1.543 746
5.638 12.424 1.502 760
5.855 12.901 1.513 590
5.850 12.891 1.470 580
5.855 12.901 1.430 520
5.853 12.897 1.388 387
1.411 3.108 0.358 324
1.401 3.087 0.346 520
1.398 3.080 0.336 731
1.398 3.081 0.327 722
1.395 3.074 0.316 718
1.395 3.075 0.307 775
1.392 3.068 0.297 794
1.392 3.068 0.287 751
1.393 3.069 0.277 742
1.445 3.184 0.272 837
1.445 3.185 0.262 890
1.445 3.185 0.252 806
1.442 3.178 0.242 571
1.439 3.171 0.232 441
1.442 3.178 0.222 393
1.446 3.186 0.212 386
1.446 3.186 0.202 412
2.032 4.476 0.214 360
2.032 4.477 0.199 344
2.032 4.477 0.185 341
2.032 4.477 0.171 354
2.032 4.477 0.157 362
2.297 5.061 0.143 478
2.297 5.061 0.127 682
2.297 5.061 0.111 1103
2.300 5.068 0.095 1326
2.297 5.061 0.079 1485
2.297 5.060 0.063 1648
2.296 5.060 0.047 1715
2.300 5.067 0.030 1794
2.296 5.060 0.015 1784
2.296 5.059 -0.002 1786
2.296 5.059 -0.018 1675
2.296 5.058 -0.034 1564
2.295 5.058 -0.050 1375
2.295 5.057 -0.066 1185
2.295 5.057 -0.082 983
2.295 5.056 -0.098 782
2.294 5.056 -0.114 604
1.376 3.032 -0.021 449
1.372 3.024 -0.030 502
1.379 3.038 -0.041 648
1.382 3.045 -0.051 831
1.381 3.044 -0.060 894
1.381 3.044 -0.070 957
1.381 3.043 -0.079 762
1.377 3.035 -0.088 582
0.689 1.517 0.023 629
0.692 1.524 0.017 951
0.692 1.524 0.013 1266
0.691 1.524 0.008 1537
0.691 1.523 0.003 1808
0.691 1.523 -0.001 1729
0.688 1.515 -0.005 1665
0.688 1.515 -0.010 1400
0.684 1.507 -0.014 1183
0.684 1.507 -0.019 1265
0.687 1.514 -0.024 1360
0.687 1.513 -0.029 1335
0.687 1.513 -0.034 1343
0.686 1.512 -0.038 1351
0.686 1.512 -0.043 1181
0.686 1.511 -0.048 1310
0.956 2.089 1.769 5319
0.958 2.093 1.762 10639
0.960 2.097 1.756 10639
0.967 2.113 1.758 10011
0.977 2.135 1.765 10676
0.982 2.145 1.763 10890
0.989 2.162 1.765 11725
0.991 2.166 1.759 11725
0.996 2.176 1.756 9623
1.008 2.204 1.768 8364
0.999 2.185 1.743 8390
0.999 2.183 1.731 9087
1.001 2.187 1.725 7230
1.003 2.191 1.718 5373
1.054 2.303 1.790 5340
1.053 2.302 1.778 4965
1.041 2.276 1.749 5338
1.043 2.280 1.742 6064
1.045 2.284 1.735 6836
1.047 2.289 1.728 6433
1.085 2.372 1.776 6189
1.084 2.370 1.764 6089
1.081 2.362 1.748 6600
1.085 2.372 1.745 6609
1.090 2.383 1.742 6711
1.092 2.387 1.734 5844
1.100 2.404 1.735 5152
1.107 2.420 1.736 4770
1.112 2.430 1.732 4661
1.142 2.496 1.766 4024
1.144 2.501 1.758 5385
1.146 2.505 1.750 5998
1.148 2.509 1.742 6611
1.164 2.544 1.754 5465
1.169 2.555 1.750 5533
1.174 2.565 1.746 5474
1.184 2.588 1.750 7133
1.192 2.605 1.750 9306
1.197 2.616 1.745 13841
1.199 2.620 1.737 18608
1.203 2.630 1.733 18416
1.205 2.635 1.725 18241
1.210 2.645 1.720 16073
1.212 2.649 1.712 14401
1.214 2.653 1.703 14593
1.216 2.658 1.695 18799
1.218 2.662 1.687 23005
1.217 2.659 1.674 20419
1.222 2.670 1.670 13716
1.244 2.718 1.687 13694
1.246 2.723 1.679 13202
1.268 2.771 1.696 13423
1.273 2.782 1.691 11578
1.272 2.780 1.678 9854
1.277 2.790 1.673 9567
1.278 2.794 1.664 11069
1.280 2.798 1.655 10587
1.338 2.925 1.714 9150
1.337 2.922 1.701 9263
1.348 2.946 1.702 9827
1.350 2.950 1.693 10079
1.355 2.961 1.687 9092
1.362 2.978 1.684 7143
1.379 3.014 1.692 9034
1.384 3.025 1.686 10808
1.389 3.035 1.680 10103
1.391 3.040 1.670 7470
1.473 3.220 1.750 4925
1.475 3.224 1.740 6616
1.477 3.229 1.730 6644
1.476 3.226 1.716 5402
1.463 3.198 1.690 5109
1.465 3.202 1.680 4374
1.464 3.199 1.666 4668
1.469 3.210 1.660 5057
1.525 3.333 1.706 6472
1.521 3.324 1.689 7529
1.526 3.334 1.682 5554
1.533 3.352 1.678 3679
1.535 3.356 1.667 2942
1.586 3.466 1.705 3106
1.554 3.397 1.661 3570
1.611 3.521 1.704 4052
1.567 3.425 1.648 5066
1.572 3.436 1.640 6670
1.659 3.627 1.712 4819
1.664 3.638 1.703 6441
1.663 3.635 1.689 7245
1.668 3.646 1.680 6402
1.673 3.657 1.671 5947
1.669 3.647 1.654 5674
1.674 3.658 1.645 6368
1.706 3.729 1.662 6844
1.711 3.740 1.653 6548
1.710 3.737 1.638 4091
1.764 3.856 1.672 4964
1.766 3.860 1.660 5171
1.768 3.864 1.648 5836
1.773 3.875 1.638 7083
1.784 3.900 1.634 5042
1.795 3.924 1.629 5089
1.794 3.921 1.614 6011
1.802 3.939 1.607 4911
1.813 3.963 1.602 6139
1.815 3.967 1.590 6647
1.926 4.210 1.665 6265
1.934 4.227 1.656 6170
1.942 4.245 1.648 3920
1.931 4.222 1.625 3271
1.943 4.246 1.619 5672
1.951 4.264 1.610 5927
1.956 4.274 1.599 3795
2.061 4.505 1.663 3779
2.066 4.516 1.651 5257
2.074 4.534 1.641 3452
2.133 4.662 1.668 2772
2.119 4.631 1.642 3063
2.124 4.642 1.629 5434
2.135 4.667 1.621 7745
2.134 4.664 1.604 5323
2.126 4.647 1.583 2926
2.185 4.776 1.607 2311
2.241 4.897 1.628 2785
2.233 4.880 1.606 3433
2.327 5.086 1.651 3343
2.329 5.090 1.634 3126
2.330 5.094 1.618 2906
2.335 5.105 1.604 4295
2.337 5.108 1.588 4877
2.336 5.105 1.570 3836
2.440 5.332 1.616 3411
2.413 5.273 1.581 2908
2.459 5.375 1.591 2483
2.467 5.393 1.578 2125
2.604 5.691 1.639 2200
2.615 5.715 1.626 2904
2.623 5.733 1.612 3643
2.638 5.765 1.601 3551
2.672 5.839 1.600 3586
2.689 5.878 1.590 4113
2.698 5.896 1.575 4884
2.703 5.907 1.558 2806
2.791 6.101 1.584 2942
2.696 5.893 1.515 3622
2.698 5.897 1.496 2997
2.980 6.514 1.618 2350
2.998 6.553 1.605 3045
3.000 6.557 1.584 4230
3.008 6.575 1.566 4189
3.016 6.593 1.548 4751
3.015 6.589 1.526 5160
3.013 6.586 1.503 3355
3.284 7.177 1.603 3365
3.324 7.266 1.597 5032
3.326 7.269 1.574 5536
3.292 7.195 1.536 4972
3.294 7.199 1.513 4514
3.708 8.104 1.660 5807
3.709 8.108 1.634 7868
3.714 8.119 1.610 6653
3.723 8.137 1.586 5668
3.728 8.148 1.561 6302
3.729 8.151 1.535 6177
3.731 8.155 1.509 4222
3.726 8.144 1.481 2110
3.874 8.468 1.507 1886
3.876 8.472 1.480 2099
3.881 8.483 1.454 1750
4.271 9.335 1.556 2906
4.272 9.338 1.527 3629
4.274 9.342 1.497 3968
4.276 9.346 1.467 3651
4.284 9.363 1.439 3146
4.282 9.360 1.408 2995
4.277 9.349 1.376 2277
4.269 9.330 1.344 2016
4.280 9.355 1.317 1451
4.321 9.444 1.297 1333
4.325 9.454 1.268 1130
5.519 12.063 1.542 815
5.678 12.410 1.543 740
5.673 12.400 1.501 760
5.652 12.353 1.456 664
4.348 9.504 1.121 575
5.894 12.883 1.430 450
5.893 12.879 1.388 316
1.408 3.077 0.327 271
1.408 3.077 0.317 269
1.408 3.078 0.307 441
1.405 3.071 0.297 688
1.402 3.064 0.287 777
1.402 3.064 0.277 817
1.402 3.065 0.268 987
1.402 3.065 0.258 1117
1.399 3.058 0.248 1071
1.399 3.058 0.238 883
1.396 3.051 0.228 755
1.400 3.059 0.219 632
2.045 4.470 0.242 535
2.048 4.477 0.228 532
2.049 4.477 0.214 538
2.049 4.478 0.200 525
2.045 4.471 0.185 490
2.045 4.471 0.171 458
2.045 4.471 0.157 419
2.049 4.478 0.143 383
2.312 5.054 0.127 370
2.312 5.054 0.111 632
2.315 5.061 0.095 787
2.312 5.054 0.079 892
2.312 5.053 0.063 1004
2.312 5.053 0.047 1053
2.315 5.060 0.030 1113
2.312 5.053 0.015 1102
2.311 5.052 -0.002 1102
2.311 5.052 -0.018 1029
2.311 5.051 -0.034 956
2.311 5.051 -0.050 830
2.311 5.050 -0.066 704
2.310 5.050 -0.082 573
2.350 5.136 -0.102 518
2.349 5.135 -0.118 545
2.346 5.127 -0.134 576
2.349 5.133 -0.151 561
2.348 5.133 -0.167 551
2.348 5.132 -0.184 492
1.391 3.040 -0.060 574
1.391 3.039 -0.070 699
1.390 3.039 -0.079 679
1.390 3.038 -0.089 652
0.697 1.523 0.022 784
0.696 1.522 0.017 1106
0.696 1.522 0.013 1429
0.696 1.522 0.008 1605
0.696 1.521 0.003 1780
0.696 1.521 -0.001 1622
0.692 1.513 -0.005 1512
0.689 1.506 -0.009 1368
0.689 1.505 -0.014 1259
0.689 1.505 -0.019 1345
0.692 1.512 -0.024 1453
0.691 1.511 -0.029 1438
0.691 1.511 -0.034 1422
0.691 1.510 -0.038 1406
0.691 1.510 -0.043 1205
0.691 1.509 -0.048 1269
0.962 2.079 1.764 4893
0.964 2.083 1.757 9786
0.966 2.087 1.751 9786
0.976 2.109 1.758 8891
0.986 2.131 1.765 10068
0.991 2.141 1.763 10596
0.999 2.157 1.765 11611
1.001 2.161 1.759 11611
1.005 2.172 1.756 9715
1.018 2.199 1.768 8284
1.009 2.180 1.743 8777
1.011 2.184 1.736 9537
1.013 2.189 1.729 7503
1.057 2.282 1.788 5785
1.059 2.287 1.781 5785
1.061 2.291 1.774 5566
1.063 2.295 1.767 5320
1.053 2.276 1.742 6156
1.055 2.280 1.735 7145
1.057 2.284 1.728 6243
1.099 2.373 1.780 6570
1.092 2.359 1.760 6462
1.091 2.357 1.748 7793
1.093 2.361 1.741 7287
1.101 2.378 1.742 7021
1.106 2.388 1.739 5595
1.116 2.411 1.744 4660
1.121 2.421 1.740 4336
1.126 2.432 1.737 4064
1.156 2.497 1.770 4389
1.155 2.495 1.758 5687
1.157 2.500 1.750 6010
1.159 2.504 1.742 6334
1.178 2.545 1.758 5470
1.180 2.550 1.750 5620
1.185 2.560 1.746 4908
1.199 2.589 1.754 5396
1.206 2.606 1.754 6817
1.211 2.616 1.749 10345
1.213 2.621 1.741 13903
1.215 2.625 1.733 13878
1.220 2.635 1.728 13861
1.222 2.640 1.720 11647
1.227 2.650 1.716 9275
1.229 2.654 1.707 8970
1.231 2.658 1.699 12282
1.230 2.656 1.687 15741
1.232 2.660 1.678 13706
1.236 2.671 1.674 8692
1.256 2.713 1.687 9693
1.273 2.749 1.697 12305
1.280 2.766 1.696 14325
1.282 2.770 1.687 12342
1.284 2.774 1.678 11213
1.286 2.778 1.669 11370
1.288 2.782 1.661 12656
1.290 2.786 1.652 12520
1.292 2.790 1.643 10309
1.380 2.981 1.736 8832
1.364 2.946 1.706 10104
1.366 2.950 1.696 9657
1.368 2.954 1.687 7668
1.376 2.972 1.684 5745
1.396 3.015 1.695 7861
1.401 3.025 1.689 10348
1.402 3.029 1.680 10189
1.407 3.040 1.673 7529
1.488 3.213 1.750 4812
1.487 3.211 1.737 6303
1.489 3.215 1.726 6269
1.478 3.193 1.703 6547
1.480 3.197 1.693 7234
1.485 3.208 1.686 5311
1.484 3.206 1.673 3798
1.541 3.328 1.720 4490
1.540 3.326 1.706 6423
1.536 3.317 1.689 7436
1.537 3.321 1.679 5232
1.545 3.338 1.674 3216
1.587 3.428 1.704 3447
1.589 3.432 1.693 4442
1.591 3.436 1.682 4293
1.627 3.514 1.704 5157
1.576 3.405 1.642 5885
1.584 3.422 1.637 7040
1.679 3.626 1.715 7156
1.681 3.630 1.703 9228
1.683 3.634 1.692 10097
1.688 3.645 1.683 7777
1.699 3.669 1.680 6415
1.688 3.647 1.657 5368
1.690 3.651 1.645 6644
1.726 3.728 1.664 6511
