1.041 2.139 1.777 9195
1.046 2.149 1.775 10431
1.048 2.153 1.768 10431
1.050 2.157 1.761 9025
1.052 2.162 1.754 7620
1.055 2.166 1.747 6939
1.054 2.164 1.736 6259
1.084 2.227 1.773 8049
1.084 2.226 1.762 10875
1.089 2.236 1.759 10292
1.091 2.240 1.752 9744
1.090 2.238 1.741 9696
1.092 2.243 1.733 9333
1.091 2.241 1.722 9021
1.096 2.251 1.719 9124
1.098 2.255 1.712 9338
1.135 2.331 1.756 9346
1.137 2.335 1.748 10816
1.139 2.340 1.741 8063
1.182 2.428 1.792 7396
1.179 2.421 1.776 6706
1.178 2.419 1.764 6647
1.180 2.423 1.757 5931
1.179 2.421 1.745 5230
1.190 2.444 1.749 4821
1.195 2.454 1.746 4898
1.200 2.464 1.742 4661
1.205 2.475 1.738 4511
1.207 2.479 1.730 5990
1.212 2.489 1.726 7487
1.217 2.500 1.722 7792
1.225 2.516 1.722 8291
1.227 2.520 1.714 8446
1.265 2.598 1.753 6530
1.267 2.603 1.745 7914
1.272 2.613 1.741 8673
1.277 2.624 1.736 9578
1.279 2.628 1.728 9122
1.281 2.632 1.719 7158
1.283 2.636 1.711 5650
1.282 2.634 1.699 4520
1.318 2.707 1.732 3685
1.302 2.673 1.701 4231
1.316 2.703 1.707 5551
1.321 2.713 1.702 6834
1.323 2.717 1.693 7837
1.325 2.721 1.685 7692
1.327 2.725 1.676 6545
1.363 2.799 1.707 5801
1.365 2.803 1.698 6714
1.367 2.807 1.689 7111
1.412 2.900 1.730 7180
1.420 2.917 1.728 8272
1.432 2.940 1.729 8235
1.424 2.925 1.709 8829
1.426 2.930 1.700 9265
1.438 2.953 1.701 8897
1.446 2.970 1.698 9155
1.460 3.000 1.702 9008
1.466 3.010 1.696 8733
1.468 3.014 1.686 7648
1.466 3.012 1.673 5385
1.534 3.151 1.734 6083
1.546 3.175 1.733 6503
1.551 3.186 1.726 5878
1.544 3.170 1.707 4835
1.542 3.168 1.693 5930
1.551 3.185 1.689 6320
1.569 3.222 1.695 6848
1.574 3.232 1.688 7877
1.576 3.236 1.678 7508
1.584 3.253 1.674 5379
1.599 3.284 1.676 5718
1.601 3.288 1.665 11893
1.606 3.298 1.658 15976
1.608 3.302 1.647 15020
1.610 3.306 1.637 13564
1.612 3.310 1.626 14479
1.614 3.314 1.615 13899
1.615 3.318 1.605 11733
1.617 3.322 1.594 10383
1.619 3.325 1.584 8121
1.618 3.323 1.570 4933
1.765 3.625 1.689 3883
1.767 3.629 1.677 5098
1.766 3.626 1.663 6291
1.768 3.630 1.651 6305
1.766 3.627 1.637 4636
1.849 3.798 1.694 3185
1.855 3.809 1.685 5820
1.860 3.820 1.675 8873
1.865 3.830 1.666 8490
1.877 3.854 1.661 8730
1.879 3.858 1.649 9640
1.881 3.862 1.637 9621
1.889 3.880 1.629 9409
1.901 3.904 1.625 6370
1.919 3.941 1.625 8063
1.921 3.945 1.612 10671
1.926 3.956 1.602 9277
1.931 3.966 1.592 6137
2.028 4.166 1.651 7982
2.030 4.170 1.638 13060
2.029 4.167 1.622 13601
2.031 4.171 1.609 10473
2.036 4.182 1.598 5630
2.051 4.213 1.594 3542
2.156 4.427 1.653 4385
2.158 4.431 1.639 3880
2.229 4.578 1.673 3153
2.231 4.582 1.659 3553
2.200 4.518 1.621 3212
2.225 4.569 1.622 3930
2.233 4.587 1.612 3446
2.282 4.687 1.628 3358
2.307 4.738 1.628 5236
2.312 4.749 1.615 4614
2.404 4.938 1.657 3742
2.380 4.887 1.625 3555
2.381 4.891 1.609 3364
2.430 4.991 1.622 4265
2.425 4.981 1.602 6552
2.414 4.958 1.578 7518
2.442 5.016 1.578 7639
2.444 5.020 1.562 7542
2.443 5.017 1.544 5485
2.488 5.110 1.552 3447
2.574 5.287 1.584 2810
2.623 5.387 1.593 1974
2.776 5.702 1.659 2130
2.775 5.699 1.639 1764
2.774 5.696 1.619 1882
2.796 5.742 1.611 2933
2.794 5.739 1.591 3320
2.854 5.861 1.602 2232
2.855 5.864 1.583 2135
2.955 6.070 1.614 2281
2.957 6.074 1.594 2487
3.047 6.258 1.618 2505
3.042 6.248 1.594 3593
3.034 6.231 1.570 3303
3.022 6.207 1.543 2514
3.044 6.253 1.532 2721
3.043 6.249 1.511 4416
3.055 6.274 1.495 3767
3.196 6.564 1.536 4005
3.198 6.567 1.515 5409
3.199 6.571 1.494 4907
3.201 6.575 1.473 3040
3.592 7.377 1.612 2647
3.573 7.338 1.580 5915
3.575 7.342 1.556 8466
3.573 7.339 1.531 5479
3.746 7.693 1.574 2848
3.748 7.697 1.549 2547
3.746 7.694 1.523 2465
3.741 7.683 1.495 2928
4.164 8.552 1.621 3328
4.166 8.556 1.594 3870
4.486 9.214 1.676 3189
4.485 9.211 1.645 3179
4.531 9.306 1.630 2908
4.533 9.310 1.600 3723
4.538 9.321 1.571 2625
4.540 9.325 1.541 1652
4.542 9.328 1.510 1270
4.966 10.200 1.606 1234
4.985 10.239 1.578 1163
5.132 10.540 1.585 1071
5.134 10.543 1.551 1036
5.572 11.445 1.635 1185
5.574 11.449 1.598 1118
5.545 11.389 1.553 1047
5.547 11.393 1.516 993
5.552 11.403 1.480 1004
5.554 11.407 1.443 692
6.024 12.373 1.514 691
5.788 11.888 1.421 600
5.779 11.870 1.380 370
5.898 12.114 1.366 360
6.242 12.819 1.396 320
6.240 12.815 1.354 275
2.252 4.625 -0.289 270
2.251 4.624 -0.304 363
2.251 4.622 -0.319 453
2.250 4.621 -0.334 543
2.249 4.620 -0.349 628
2.249 4.619 -0.363 714
2.248 4.617 -0.378 714
2.247 4.616 -0.393 755
2.247 4.615 -0.408 795
2.246 4.613 -0.423 397
1.026 2.091 1.792 3528
1.028 2.095 1.785 7057
1.030 2.100 1.779 7057
1.038 2.115 1.781 7164
1.043 2.126 1.779 7959
1.050 2.141 1.781 9050
1.053 2.146 1.775 10229
1.055 2.150 1.768 10229
1.057 2.154 1.761 8719
1.059 2.159 1.754 7209
1.061 2.163 1.747 6553
1.092 2.226 1.785 6165
1.091 2.224 1.773 8529
1.093 2.228 1.766 11031
1.095 2.233 1.759 10581
1.097 2.237 1.752 9960
1.096 2.235 1.741 9724
1.098 2.239 1.733 9286
1.098 2.238 1.722 8832
1.103 2.248 1.719 9008
1.105 2.252 1.712 9235
1.142 2.328 1.756 9379
1.144 2.332 1.748 10843
1.184 2.415 1.796 8324
1.187 2.419 1.788 8259
1.186 2.417 1.776 7602
1.185 2.415 1.764 7365
1.187 2.420 1.757 6597
1.189 2.424 1.749 5828
1.194 2.434 1.745 5482
1.202 2.451 1.746 5531
1.207 2.461 1.742 4982
1.212 2.471 1.738 4634
1.214 2.475 1.730 6019
1.216 2.479 1.722 7404
1.224 2.496 1.722 7928
1.232 2.512 1.722 9212
1.234 2.517 1.714 9624
1.239 2.527 1.710 6970
1.275 2.599 1.745 8108
1.280 2.609 1.741 9036
1.285 2.620 1.736 10156
1.287 2.624 1.728 9110
1.289 2.628 1.719 6380
1.316 2.682 1.741 4937
1.290 2.630 1.699 4472
1.292 2.634 1.690 4247
1.306 2.663 1.697 4703
1.324 2.699 1.707 5718
1.329 2.709 1.702 6571
1.328 2.707 1.690 7111
1.330 2.711 1.681 6979
1.332 2.715 1.672 6288
1.371 2.795 1.707 5629
1.373 2.799 1.698 7158
1.372 2.797 1.686 8154
1.377 2.807 1.680 6982
1.426 2.907 1.724 6990
1.440 2.936 1.729 6529
1.433 2.921 1.709 7085
1.438 2.932 1.703 8683
1.446 2.949 1.701 9655
1.455 2.966 1.698 10477
1.466 2.989 1.699 10084
1.478 3.012 1.699 8620
1.480 3.016 1.690 7170
1.497 3.053 1.697 5447
1.544 3.147 1.734 6875
1.555 3.170 1.733 6659
1.560 3.181 1.726 5715
1.559 3.179 1.713 4412
1.549 3.157 1.690 5205
1.560 3.180 1.689 5925
1.575 3.211 1.692 6294
1.580 3.221 1.685 7431
1.585 3.232 1.678 7672
1.597 3.255 1.677 7036
1.608 3.279 1.676 9779
1.610 3.283 1.665 17549
1.616 3.293 1.658 22392
1.617 3.297 1.647 21386
1.619 3.301 1.637 19601
1.621 3.305 1.626 20402
1.623 3.309 1.615 19799
1.625 3.313 1.605 17588
1.627 3.317 1.594 15617
1.629 3.321 1.584 12429
1.627 3.318 1.570 8007
1.633 3.328 1.562 3926
1.774 3.617 1.674 5330
1.776 3.621 1.663 6311
1.781 3.632 1.654 6194
1.783 3.636 1.642 4380
1.867 3.806 1.700 3598
1.869 3.810 1.687 5550
1.874 3.821 1.678 7967
1.883 3.838 1.671 7690
1.888 3.849 1.661 8536
1.887 3.846 1.646 10648
1.892 3.857 1.637 11266
1.900 3.874 1.629 10613
1.912 3.898 1.625 7147
1.960 3.996 1.648 10206
1.932 3.939 1.612 9764
1.934 3.943 1.600 8580
1.936 3.947 1.587 6286
1.974 4.025 1.602 8342
2.043 4.164 1.638 11090
2.041 4.161 1.622 11200
2.043 4.165 1.609 8595
2.048 4.176 1.598 4619
2.063 4.207 1.594 3085
2.169 4.421 1.653 3621
2.170 4.425 1.639 3478
2.242 4.572 1.673 2782
2.251 4.589 1.663 3621
2.256 4.600 1.651 3104
2.248 4.583 1.629 3629
2.250 4.587 1.614 3710
2.326 4.741 1.648 4634
2.324 4.738 1.630 6846
2.330 4.749 1.617 6368
2.342 4.774 1.608 4157
2.390 4.873 1.622 4532
2.392 4.877 1.607 4223
2.425 4.943 1.610 3877
2.426 4.947 1.594 7218
2.425 4.944 1.576 8991
2.423 4.940 1.558 7386
2.456 5.006 1.560 6675
2.454 5.003 1.542 5277
2.503 5.103 1.552 3535
2.508 5.114 1.538 2671
2.639 5.380 1.593 2324
2.797 5.701 1.661 2135
2.792 5.691 1.639 1885
2.790 5.688 1.619 1978
2.809 5.727 1.610 2995
2.811 5.731 1.591 3560
2.871 5.852 1.602 2604
2.873 5.856 1.583 2880
2.874 5.860 1.565 2508
3.023 6.162 1.618 2200
3.059 6.236 1.615 2518
3.057 6.232 1.593 4328
3.049 6.215 1.568 4294
3.044 6.205 1.545 3345
3.059 6.237 1.531 3540
3.058 6.233 1.509 5892
3.066 6.251 1.492 4426
3.082 6.282 1.478 3495
3.217 6.558 1.515 3434
3.222 6.569 1.496 3329
3.244 6.614 1.483 2427
3.617 7.373 1.614 3988
3.605 7.349 1.584 5745
3.600 7.339 1.558 7047
3.595 7.328 1.531 4110
3.772 7.689 1.575 3325
3.770 7.686 1.549 2908
3.772 7.690 1.524 2757
3.763 7.672 1.495 3142
4.189 8.539 1.621 3255
4.191 8.543 1.594 3987
4.513 9.201 1.676 3477
4.512 9.198 1.645 3329
4.562 9.300 1.631 2838
4.564 9.304 1.601 3602
4.566 9.308 1.571 2540
4.567 9.311 1.541 1589
4.991 10.175 1.638 1432
4.993 10.179 1.605 1366
5.015 10.225 1.578 1083
5.166 10.532 1.586 1142
5.483 11.178 1.639 1031
5.606 11.428 1.635 1037
5.587 11.390 1.593 1162
5.582 11.380 1.554 1102
5.584 11.383 1.517 1040
5.585 11.387 1.480 1049
6.191 12.621 1.585 732
6.061 12.356 1.514 751
5.823 11.871 1.421 572
5.929 12.087 1.405 421
5.930 12.090 1.366 423
6.182 12.603 1.377 305
2.268 4.623 -0.215 296
2.267 4.622 -0.230 447
2.267 4.621 -0.245 730
2.266 4.620 -0.259 1014
2.266 4.619 -0.274 1014
2.265 4.618 -0.289 1450
2.265 4.617 -0.304 1886
2.264 4.616 -0.319 2201
2.264 4.615 -0.334 2516
2.263 4.613 -0.349 2720
2.262 4.612 -0.363 2923
2.262 4.611 -0.378 2923
2.261 4.609 -0.393 2982
2.260 4.608 -0.408 3041
2.260 4.606 -0.423 1520
1.033 2.087 1.792 3704
1.035 2.092 1.785 7409
1.037 2.096 1.779 7409
1.045 2.112 1.781 7184
1.053 2.128 1.784 7682
1.058 2.138 1.781 8782
1.060 2.142 1.775 9911
1.062 2.146 1.768 9911
1.064 2.150 1.761 8215
1.067 2.155 1.754 6519
1.098 2.217 1.792 6087
1.100 2.222 1.785 6979
1.102 2.226 1.778 8888
1.101 2.224 1.766 10826
1.106 2.235 1.763 10606
1.105 2.233 1.752 9911
1.104 2.231 1.741 9498
1.106 2.235 1.733 8972
1.109 2.240 1.726 8379
1.111 2.244 1.719 8539
1.116 2.254 1.716 8758
1.150 2.324 1.756 9053
1.152 2.328 1.748 10532
1.193 2.410 1.796 8475
1.195 2.415 1.788 8568
1.194 2.413 1.776 7930
1.193 2.411 1.764 7566
1.196 2.415 1.757 6989
1.198 2.420 1.749 6412
1.206 2.436 1.749 6113
1.211 2.446 1.746 6095
1.216 2.457 1.742 5231
1.224 2.473 1.742 4639
1.223 2.471 1.730 5715
1.225 2.475 1.722 6808
1.233 2.492 1.722 7671
1.241 2.508 1.722 9892
1.243 2.512 1.714 10491
1.249 2.522 1.710 7790
1.281 2.588 1.741 8220
1.289 2.605 1.741 9380
1.291 2.609 1.732 10830
1.297 2.619 1.728 9251
1.295 2.617 1.716 5904
1.331 2.690 1.749 4896
1.300 2.625 1.699 4701
1.302 2.630 1.690 5244
1.310 2.646 1.689 5392
1.321 2.669 1.692 5544
1.335 2.698 1.698 6002
1.334 2.696 1.686 6218
1.336 2.700 1.677 6530
1.341 2.710 1.672 6457
1.384 2.796 1.711 5254
1.380 2.788 1.695 7251
1.379 2.785 1.682 8797
1.381 2.789 1.673 7158
1.433 2.895 1.721 5673
1.454 2.937 1.732 5018
1.459 2.948 1.726 6002
1.458 2.946 1.714 8233
1.460 2.950 1.704 9851
1.465 2.960 1.698 11283
1.477 2.984 1.699 10969
1.488 3.007 1.699 7960
1.513 3.056 1.713 6934
1.515 3.060 1.704 6848
1.555 3.141 1.734 7331
1.563 3.158 1.730 6742
1.572 3.176 1.726 5473
1.571 3.173 1.713 4102
1.560 3.151 1.690 4545
1.571 3.175 1.689 5535
1.586 3.205 1.692 5634
1.595 3.222 1.688 6733
1.600 3.232 1.681 7755
1.612 3.256 1.680 9310
1.620 3.273 1.676 14646
1.625 3.284 1.668 23380
1.627 3.288 1.658 28207
1.629 3.292 1.647 27648
1.631 3.296 1.637 26013
1.633 3.299 1.626 25714
1.635 3.303 1.615 24402
1.637 3.307 1.605 22878
1.639 3.311 1.594 20685
1.641 3.315 1.584 16671
1.639 3.312 1.570 11290
1.644 3.322 1.562 5914
1.787 3.611 1.674 5499
1.789 3.615 1.663 5974
1.827 3.692 1.682 6126
1.836 3.709 1.676 4799
1.841 3.719 1.666 3778
1.883 3.803 1.687 4453
1.891 3.821 1.681 6318
1.900 3.838 1.674 6676
1.898 3.835 1.659 7890
1.900 3.839 1.646 11021
1.902 3.843 1.634 11918
1.914 3.867 1.629 10672
1.926 3.891 1.625 7316
1.975 3.989 1.648 12605
1.980 4.000 1.638 9960
1.948 3.936 1.600 6953
1.994 4.028 1.620 7128
1.989 4.018 1.602 10380
1.994 4.029 1.591 11367
1.999 4.039 1.581 7658
2.058 4.158 1.609 6105
2.067 4.175 1.600 3316
2.139 4.321 1.637 2697
2.141 4.325 1.623 3418
2.186 4.417 1.639 2871
2.192 4.428 1.627 2646
2.271 4.588 1.665 3610
2.276 4.599 1.653 3226
2.271 4.589 1.634 3520
2.344 4.736 1.665 5322
2.346 4.740 1.650 6689
2.341 4.730 1.630 7991
2.350 4.748 1.619 7649
2.355 4.758 1.606 6541
2.357 4.762 1.591 4945
2.410 4.869 1.607 4370
2.439 4.927 1.608 4371
2.441 4.931 1.592 6886
2.436 4.921 1.572 9693
2.438 4.925 1.556 8544
2.453 4.956 1.548 7210
2.465 4.980 1.538 6218
2.474 4.998 1.525 4867
2.469 4.988 1.506 3687
2.467 4.984 1.488 2926
2.660 5.374 1.576 2135
2.816 5.688 1.641 1724
2.814 5.685 1.621 1946
2.891 5.841 1.642 2786
2.832 5.721 1.591 3328
2.892 5.842 1.602 2637
2.894 5.846 1.583 3285
2.895 5.849 1.565 3118
3.052 6.165 1.621 2550
3.074 6.211 1.611 2786
3.076 6.214 1.591 4894
3.071 6.204 1.568 5205
3.069 6.201 1.546 4198
3.078 6.219 1.529 4976
3.080 6.222 1.509 7184
3.085 6.233 1.491 4853
3.283 6.633 1.556 3410
3.289 6.644 1.536 3298
3.253 6.571 1.498 2375
3.648 7.370 1.640 2386
3.646 7.367 1.615 5214
3.635 7.343 1.586 6335
3.629 7.333 1.559 5783
3.631 7.336 1.535 3148
3.799 7.676 1.575 3533
3.801 7.679 1.550 3008
3.800 7.676 1.524 2718
3.798 7.673 1.498 2906
4.219 8.524 1.621 2925
4.221 8.528 1.594 3786
4.546 9.184 1.676 3421
4.548 9.188 1.646 3129
4.540 9.171 1.613 2480
4.597 9.288 1.601 3068
4.602 9.298 1.572 2182
4.604 9.302 1.542 1365
5.024 10.150 1.637 1479
5.026 10.154 1.604 1365
5.317 10.742 1.653 1003
5.204 10.513 1.586 1092
5.526 11.165 1.640 982
5.626 11.366 1.630 1054
5.624 11.363 1.592 1245
5.623 11.360 1.554 1097
5.625 11.363 1.517 1003
5.626 11.367 1.480 1019
6.232 12.591 1.584 728
6.105 12.334 1.514 769
6.110 12.344 1.475 621
5.976 12.072 1.406 432
6.225 12.577 1.418 447
6.227 12.580 1.377 374
2.287 4.621 -0.230 291
2.287 4.620 -0.245 471
2.283 4.612 -0.259 654
2.282 4.611 -0.274 654
2.282 4.610 -0.289 904
2.281 4.609 -0.304 1155
2.281 4.608 -0.319 1302
2.280 4.606 -0.334 1449
2.279 4.605 -0.349 1519
2.279 4.604 -0.363 1588
2.278 4.603 -0.378 1588
2.278 4.601 -0.393 1582
2.277 4.600 -0.408 1577
2.276 4.598 -0.423 788
1.041 2.083 1.792 3877
1.043 2.088 1.785 7755
1.046 2.092 1.779 7755
1.051 2.102 1.777 7223
1.058 2.118 1.779 7289
1.063 2.128 1.777 8341
1.068 2.138 1.775 9475
1.071 2.142 1.768 9475
1.073 2.146 1.761 7588
1.104 2.209 1.799 6704
1.106 2.213 1.792 7165
1.108 2.218 1.785 7627
1.110 2.222 1.778 9028
1.113 2.226 1.771 10430
1.115 2.230 1.763 10413
1.114 2.229 1.752 9684
1.113 2.227 1.741 9188
1.115 2.231 1.733 8570
1.123 2.247 1.735 7959
1.122 2.245 1.723 7972
1.124 2.250 1.716 8001
1.156 2.313 1.752 8500
1.161 2.324 1.748 10030
1.202 2.406 1.796 8205
1.205 2.410 1.788 8211
1.204 2.408 1.776 7692
1.203 2.406 1.764 7332
1.205 2.411 1.757 7062
1.210 2.421 1.753 6918
1.215 2.431 1.749 6558
1.220 2.442 1.746 6353
1.225 2.452 1.742 5208
1.234 2.468 1.742 4512
1.236 2.472 1.734 5162
1.235 2.470 1.722 5863
1.249 2.499 1.730 7263
1.251 2.503 1.722 9996
1.253 2.507 1.714 10625
1.258 2.518 1.710 8029
1.288 2.577 1.737 8128
1.296 2.594 1.737 9398
1.301 2.604 1.732 11211
1.304 2.608 1.724 9505
1.306 2.612 1.716 6097
1.345 2.691 1.753 4930
1.310 2.620 1.699 5406
1.312 2.624 1.690 6419
1.320 2.641 1.689 6170
1.328 2.658 1.688 5257
1.349 2.699 1.702 5035
1.345 2.691 1.686 5072
1.347 2.695 1.677 5614
1.349 2.699 1.669 5923
1.357 2.715 1.667 5206
1.391 2.782 1.695 6951
1.383 2.767 1.675 9162
1.388 2.778 1.670 7428
1.441 2.883 1.717 4609
1.484 2.970 1.753 4112
1.486 2.974 1.744 6396
1.482 2.965 1.727 7819
1.471 2.944 1.704 9446
1.480 2.961 1.702 11420
1.485 2.971 1.695 11069
1.526 3.052 1.726 8513
1.531 3.063 1.720 8416
1.530 3.061 1.707 7816
1.529 3.058 1.694 7517
1.531 3.062 1.684 6291
1.533 3.066 1.674 4857
1.586 3.174 1.716 3874
1.582 3.165 1.700 4216
1.584 3.169 1.689 5382
1.602 3.205 1.695 5216
1.607 3.216 1.688 6436
1.616 3.233 1.684 8148
1.628 3.256 1.683 11441
1.633 3.267 1.676 19013
1.638 3.277 1.668 27565
1.640 3.281 1.658 31746
1.642 3.285 1.647 32466
1.644 3.289 1.637 31613
1.646 3.293 1.626 28999
1.648 3.297 1.615 26231
1.646 3.294 1.602 26176
1.652 3.305 1.594 24037
1.654 3.308 1.584 19470
1.652 3.306 1.570 13706
1.657 3.316 1.562 7453
1.804 3.610 1.677 5424
1.806 3.614 1.665 5326
1.845 3.691 1.685 7707
1.850 3.702 1.676 7069
1.855 3.712 1.666 5640
1.854 3.710 1.652 5081
1.849 3.700 1.634 5304
1.918 3.837 1.676 5367
1.913 3.828 1.659 7555
1.912 3.825 1.644 11253
1.917 3.836 1.634 11934
1.926 3.853 1.627 9925
1.985 3.971 1.658 8757
1.990 3.981 1.648 14023
1.995 3.992 1.638 10744
1.997 3.996 1.625 7580
2.002 4.007 1.615 8123
2.004 4.010 1.602 11283
2.006 4.014 1.589 11170
2.015 4.031 1.581 7302
2.084 4.170 1.616 4072
2.160 4.322 1.655 2381
2.159 4.320 1.639 3029
2.161 4.323 1.625 3838
2.159 4.321 1.609 3087
2.205 4.412 1.625 2526
2.289 4.579 1.665 3386
2.297 4.597 1.655 3170
2.354 4.709 1.676 3740
2.359 4.720 1.663 6886
2.364 4.731 1.650 8048
2.363 4.728 1.633 7906
2.368 4.739 1.619 7523
2.370 4.742 1.604 7470
2.372 4.746 1.589 5923
2.459 4.921 1.626 5111
2.465 4.931 1.612 4806
2.467 4.935 1.596 5342
2.451 4.905 1.570 9013
2.453 4.908 1.554 9219
2.472 4.946 1.548 8990
2.481 4.964 1.536 8770
2.490 4.981 1.524 7854
2.491 4.985 1.507 6316
2.490 4.981 1.489 5191
2.492 4.985 1.473 3690
2.755 5.512 1.597 1665
2.781 5.564 1.592 1817
2.852 5.706 1.610 2425
2.854 5.710 1.591 2650
2.918 5.838 1.604 2268
2.920 5.841 1.585 3077
2.921 5.845 1.566 3103
3.079 6.160 1.623 3065
3.095 6.192 1.610 3120
3.100 6.203 1.591 4916
3.095 6.192 1.568 5581
3.093 6.189 1.546 4823
3.102 6.207 1.529 5784
3.100 6.203 1.508 7413
3.106 6.214 1.489 4697
3.313 6.628 1.557 2945
3.325 6.652 1.540 3185
3.393 6.788 1.546 2399
3.677 7.356 1.640 2487
3.675 7.353 1.615 5686
3.666 7.336 1.587 7200
3.665 7.332 1.562 5599
3.670 7.343 1.539 3714
3.668 7.340 1.514 3899
3.674 7.350 1.492 3282
4.217 8.437 1.665 3842
4.219 8.441 1.638 2658
4.172 8.347 1.593 2427
4.174 8.351 1.566 3349
4.225 8.453 1.555 3953
4.226 8.456 1.528 3001
4.575 9.154 1.613 2237
4.633 9.270 1.601 2303
4.638 9.280 1.572 1740
5.058 10.119 1.668 1224
5.063 10.130 1.637 1496
5.065 10.134 1.604 1320
5.358 10.721 1.653 1049
5.244 10.493 1.586 1096
5.570 11.143 1.640 813
5.663 11.330 1.628 1054
5.668 11.341 1.592 1201
5.913 11.830 1.616 1151
5.911 11.827 1.576 968
5.670 11.345 1.480 924
6.281 12.567 1.584 688
6.153 12.310 1.514 769
6.154 12.314 1.474 665
6.022 12.049 1.406 425
6.274 12.553 1.418 452
6.272 12.549 1.376 386
2.300 4.601 -0.289 306
2.299 4.600 -0.304 400
2.299 4.599 -0.319 464
2.298 4.598 -0.334 528
2.297 4.596 -0.349 574
2.297 4.595 -0.363 620
2.296 4.594 -0.378 620
2.295 4.592 -0.393 616
2.295 4.591 -0.408 611
2.294 4.590 -0.423 305
1.047 2.080 1.792 3869
1.050 2.084 1.785 7739
1.052 2.089 1.779 7739
1.057 2.099 1.777 7004
1.065 2.114 1.779 6651
1.070 2.125 1.777 7603
1.072 2.129 1.770 8684
1.074 2.133 1.763 8684
1.076 2.137 1.756 6930
1.111 2.206 1.799 7786
1.113 2.210 1.792 7917
1.115 2.214 1.785 8048
1.117 2.218 1.778 8865
1.122 2.229 1.775 9684
1.121 2.227 1.763 9831
1.121 2.225 1.752 9205
1.120 2.224 1.741 8717
1.122 2.228 1.733 8124
1.127 2.238 1.731 7635
1.132 2.248 1.728 7478
1.134 2.252 1.721 7332
1.163 2.310 1.752 7697
1.168 2.320 1.748 9190
1.173 2.330 1.745 7621
1.209 2.400 1.784 7025
1.214 2.411 1.780 6922
1.216 2.415 1.773 6822
1.218 2.419 1.765 7074
1.220 2.423 1.757 7326
1.222 2.428 1.749 6949
1.225 2.432 1.742 6571
1.236 2.454 1.746 5177
1.256 2.495 1.762 4912
1.258 2.499 1.754 4924
1.245 2.473 1.726 5278
1.260 2.501 1.734 7204
1.262 2.505 1.726 9832
1.261 2.503 1.714 10182
1.266 2.514 1.710 7700
1.293 2.567 1.733 7880
1.304 2.590 1.737 8982
1.309 2.600 1.732 10851
1.311 2.604 1.724 9398
1.310 2.602 1.712 6474
1.303 2.588 1.692 5512
1.314 2.610 1.695 6172
1.320 2.620 1.690 7354
1.325 2.631 1.686 6845
1.333 2.647 1.685 4856
1.357 2.695 1.702 3777
1.353 2.687 1.686 3731
1.355 2.691 1.677 4309
1.357 2.695 1.669 4710
1.365 2.711 1.667 4493
1.383 2.747 1.677 6664
1.388 2.757 1.671 8852
1.394 2.767 1.666 7192
1.396 2.771 1.657 3708
1.493 2.965 1.753 4233
1.499 2.976 1.747 6713
1.504 2.986 1.741 8057
1.493 2.965 1.718 8441
1.489 2.956 1.702 10387
1.494 2.967 1.695 10167
1.535 3.048 1.726 8723
1.537 3.052 1.717 9041
1.539 3.056 1.707 8079
1.538 3.054 1.694 7146
1.540 3.058 1.684 6056
1.542 3.062 1.674 5053
1.596 3.169 1.716 3757
1.595 3.166 1.703 4935
1.593 3.164 1.689 5740
1.615 3.207 1.698 5444
1.620 3.217 1.691 7109
1.629 3.234 1.687 9153
1.634 3.245 1.680 12979
1.643 3.262 1.676 21187
1.648 3.272 1.668 28055
1.650 3.276 1.658 31331
1.652 3.280 1.647 34217
1.654 3.284 1.637 34725
1.656 3.288 1.626 29326
1.658 3.292 1.615 24766
1.656 3.289 1.602 26406
1.662 3.300 1.594 24156
1.664 3.303 1.584 19522
1.662 3.301 1.570 14073
1.667 3.311 1.562 7749
1.822 3.618 1.683 5118
1.844 3.662 1.688 5595
1.856 3.685 1.685 9054
1.858 3.689 1.673 9067
1.863 3.700 1.664 7360
1.865 3.704 1.652 6298
1.861 3.695 1.634 5520
1.859 3.692 1.620 4744
1.921 3.816 1.656 7532
1.923 3.819 1.644 10856
1.929 3.830 1.634 10967
1.941 3.854 1.629 8635
1.990 3.951 1.653 10002
1.999 3.969 1.646 14132
2.004 3.979 1.635 10198
2.009 3.990 1.625 7634
2.008 3.987 1.610 8534
2.013 3.998 1.599 10717
2.018 4.008 1.589 9702
2.024 4.019 1.578 6002
2.178 4.325 1.674 3932
2.184 4.336 1.663 3195
2.220 4.407 1.672 3735
2.222 4.411 1.658 4371
2.220 4.409 1.641 3535
2.283 4.534 1.669 3026
2.296 4.559 1.661 3617
2.308 4.583 1.653 3132
2.368 4.702 1.676 3737
2.373 4.713 1.663 7430
2.379 4.724 1.650 8089
2.377 4.721 1.633 6660
2.386 4.738 1.622 5982
2.385 4.735 1.604 6345
2.386 4.739 1.589 5338
2.478 4.920 1.628 5690
2.487 4.938 1.616 5994
2.495 4.955 1.604 7620
2.490 4.945 1.584 8417
2.468 4.901 1.554 8640
2.487 4.939 1.548 10046
2.496 4.956 1.536 11066
2.505 4.974 1.524 10364
2.506 4.977 1.507 8549
2.508 4.981 1.491 7381
2.507 4.977 1.473 5503
2.508 4.981 1.457 2895
2.870 5.700 1.630 2131
2.872 5.704 1.611 2280
2.871 5.701 1.591 1871
2.973 5.905 1.623 2023
2.937 5.833 1.585 2451
3.096 6.147 1.643 3618
3.098 6.151 1.623 3796
3.103 6.162 1.605 3419
3.115 6.186 1.590 4195
3.110 6.176 1.566 5167
3.112 6.180 1.546 4867
3.117 6.190 1.528 5649
3.119 6.194 1.508 6601
3.121 6.198 1.488 4160
3.294 6.541 1.541 2653
3.352 6.656 1.543 3293
3.301 6.555 1.500 2373
3.685 7.317 1.635 2162
3.690 7.328 1.612 5508
3.689 7.325 1.587 7478
3.687 7.321 1.562 5787
3.692 7.332 1.539 4732
3.691 7.329 1.514 5515
3.692 7.332 1.490 4383
4.239 8.417 1.664 4444
4.241 8.421 1.636 3153
4.197 8.334 1.593 2661
4.241 8.422 1.580 3644
4.247 8.433 1.554 4391
4.248 8.436 1.527 3310
4.254 8.447 1.500 1775
4.661 9.256 1.601 1552
5.072 10.072 1.697 1249
5.067 10.062 1.662 1188
5.094 10.115 1.637 1371
5.099 10.126 1.605 1207
5.391 10.705 1.653 1007
5.396 10.716 1.620 1055
5.525 10.972 1.619 898
5.686 11.292 1.625 1083
5.699 11.317 1.591 1072
5.949 11.812 1.616 1212
5.947 11.809 1.576 1005
5.701 11.321 1.479 784
6.315 12.541 1.583 636
6.190 12.291 1.514 711
6.192 12.295 1.474 628
6.307 12.524 1.458 394
6.308 12.527 1.417 435
6.310 12.530 1.376 384
2.313 4.593 -0.304 289
2.312 4.592 -0.319 352
2.315 4.598 -0.334 416
2.311 4.589 -0.349 448
2.311 4.588 -0.363 480
2.310 4.587 -0.378 480
2.309 4.585 -0.393 482
2.308 4.584 -0.408 484
1.054 2.077 1.792 3576
1.057 2.081 1.785 7153
1.059 2.085 1.779 7153
1.064 2.095 1.777 6445
1.069 2.105 1.774 5942
1.074 2.115 1.772 6863
1.076 2.119 1.765 7858
1.078 2.124 1.759 7858
1.083 2.134 1.756 6492
1.118 2.202 1.799 8459
1.120 2.206 1.792 8326
1.122 2.210 1.785 8193
1.125 2.215 1.778 8396
1.130 2.225 1.775 8656
1.129 2.223 1.763 8867
1.128 2.222 1.752 8501
1.127 2.220 1.741 8143
1.129 2.224 1.733 7790
1.134 2.234 1.731 7618
1.139 2.244 1.728 7240
1.157 2.278 1.742 7024
1.168 2.300 1.747 6778
1.176 2.316 1.748 7903
1.181 2.326 1.745 6817
1.192 2.348 1.750 6283
1.225 2.413 1.785 6199
1.230 2.423 1.781 6772
1.229 2.421 1.769 7032
1.228 2.419 1.757 7456
1.231 2.424 1.749 7008
1.233 2.428 1.742 6561
1.247 2.456 1.750 5186
1.262 2.485 1.758 5682
1.264 2.489 1.750 5553
1.253 2.469 1.726 5639
1.268 2.497 1.734 7672
1.270 2.501 1.726 9765
1.269 2.499 1.714 9620
1.274 2.509 1.710 7078
1.301 2.563 1.733 7537
1.313 2.585 1.737 8349
1.315 2.589 1.728 10166
1.317 2.594 1.720 9216
1.319 2.598 1.712 6916
1.312 2.583 1.692 5816
1.326 2.612 1.699 6678
1.328 2.616 1.690 7840
1.333 2.626 1.686 7209
1.342 2.643 1.685 4479
1.369 2.697 1.706 2758
1.365 2.688 1.690 2666
1.361 2.680 1.674 3071
1.363 2.684 1.665 3287
1.377 2.713 1.671 3582
1.389 2.736 1.673 6099
1.397 2.752 1.671 7946
1.399 2.756 1.662 6436
1.482 2.918 1.742 3420
1.503 2.960 1.753 4168
1.512 2.977 1.751 6840
1.517 2.988 1.745 8305
1.519 2.992 1.735 8390
1.499 2.952 1.702 8630
1.501 2.956 1.692 8722
1.545 3.043 1.726 8291
1.547 3.047 1.717 8876
1.546 3.044 1.704 7867
1.548 3.048 1.694 6509
1.550 3.053 1.684 5402
1.555 3.063 1.677 4760
1.560 3.073 1.671 3625
1.605 3.161 1.703 5759
1.604 3.159 1.689 6287
1.629 3.208 1.702 5774
1.634 3.218 1.694 8010
1.639 3.229 1.687 9931
1.645 3.239 1.680 13566
1.650 3.250 1.673 21375
1.655 3.260 1.665 25706
1.657 3.264 1.655 28120
1.659 3.268 1.644 34135
1.661 3.272 1.634 36066
1.667 3.283 1.626 27996
1.665 3.280 1.612 21998
1.667 3.284 1.602 24032
1.673 3.294 1.594 21550
1.674 3.298 1.584 17071
1.673 3.295 1.570 12404
1.675 3.299 1.559 6820
1.847 3.638 1.694 4768
1.856 3.656 1.688 6007
1.865 3.673 1.682 9852
1.867 3.677 1.670 10242
1.876 3.694 1.664 8384
1.884 3.711 1.657 7106
1.876 3.695 1.637 5403
1.939 3.818 1.674 4338
1.931 3.803 1.653 7982
1.936 3.813 1.644 10296
1.941 3.824 1.634 9663
1.960 3.861 1.635 7728
2.003 3.945 1.653 10557
2.008 3.955 1.643 13433
2.017 3.973 1.635 8910
2.019 3.977 1.623 7119
2.018 3.974 1.607 8641
2.023 3.984 1.597 9431
2.028 3.995 1.586 7674
2.180 4.294 1.681 4397
2.189 4.311 1.672 4039
2.222 4.376 1.679 3500
2.234 4.400 1.672 4112
2.236 4.404 1.658 4756
2.200 4.334 1.618 3890
2.298 4.527 1.669 3327
2.304 4.537 1.656 4243
2.320 4.568 1.651 3250
2.383 4.694 1.676 3449
2.389 4.705 1.663 6768
2.394 4.716 1.650 7177
2.396 4.720 1.635 5321
2.402 4.730 1.622 4155
2.404 4.734 1.606 4179
2.402 4.731 1.589 3781
2.494 4.912 1.628 5367
2.506 4.936 1.618 6243
2.512 4.947 1.604 8718
2.514 4.951 1.588 10284
2.512 4.948 1.570 9604
2.507 4.938 1.550 9953
2.512 4.948 1.536 12115
2.521 4.965 1.524 11335
2.523 4.969 1.507 9357
2.525 4.972 1.491 8694
2.526 4.976 1.475 6591
2.525 4.973 1.457 3774
2.893 5.697 1.632 2930
2.891 5.694 1.611 2239
2.988 5.884 1.641 1869
2.986 5.881 1.620 2284
3.110 6.126 1.661 3279
3.116 6.137 1.643 4479
3.114 6.134 1.621 4675
3.116 6.138 1.601 4121
3.125 6.155 1.585 3853
3.127 6.159 1.565 4734
3.129 6.163 1.545 4698
3.134 6.173 1.526 5336
3.136 6.177 1.506 5805
3.138 6.180 1.486 3712
3.316 6.530 1.541 2936
3.318 6.534 1.520 3194
3.323 6.544 1.500 2441
3.698 7.284 1.630 3016
3.707 7.302 1.609 5625
3.709 7.305 1.586 7267
3.711 7.309 1.562 5925
3.713 7.313 1.538 5594
3.715 7.316 1.514 6580
3.713 7.313 1.489 5092
4.267 8.403 1.664 4422
4.269 8.407 1.636 3266
4.264 8.397 1.606 2786
4.269 8.408 1.580 3965
4.274 8.419 1.554 4421
4.276 8.422 1.527 3280
4.278 8.426 1.499 1879
4.283 8.436 1.473 1458
4.282 8.433 1.444 1429
5.221 10.283 1.698 1296
5.223 10.287 1.665 1449
5.225 10.291 1.631 1197
5.142 10.127 1.574 955
5.293 10.424 1.582 1024
5.277 10.393 1.543 993
5.720 11.266 1.624 1094
5.986 11.789 1.654 932
5.988 11.793 1.616 1129
5.986 11.789 1.576 947
5.735 11.295 1.479 692
6.357 12.520 1.583 578
6.230 12.271 1.514 611
6.232 12.274 1.474 534
6.348 12.503 1.458 342
6.350 12.506 1.417 338
6.355 12.516 1.377 305
1.006 1.982 0.242 251
1.006 1.982 0.236 255
2.326 4.580 -0.363 274
4.960 9.769 -0.971 276
2.328 4.585 -0.394 298
2.327 4.583 -0.409 324
1.061 2.073 1.792 2921
1.063 2.078 1.785 5842
1.065 2.082 1.779 5842
1.070 2.092 1.777 5396
1.058 2.067 1.747 4985
1.078 2.106 1.768 5803
1.083 2.116 1.765 6698
1.085 2.120 1.759 6698
1.120 2.188 1.801 6402
1.122 2.193 1.794 8710
1.124 2.197 1.787 8407
1.126 2.201 1.780 8105
1.128 2.205 1.773 7694
1.134 2.216 1.771 7350
1.136 2.220 1.763 7669
1.135 2.218 1.752 7642
1.134 2.216 1.741 7509
1.136 2.221 1.733 7484
1.141 2.231 1.731 7687
1.146 2.241 1.728 7131
1.161 2.268 1.738 6875
1.172 2.290 1.743 6049
1.180 2.307 1.744 6155
1.188 2.323 1.745 5505
1.197 2.339 1.746 5406
1.236 2.415 1.789 5454
1.241 2.425 1.785 6724
1.240 2.423 1.773 6752
1.236 2.415 1.757 7248
1.238 2.420 1.749 6915
1.240 2.424 1.742 6582
1.258 2.458 1.754 5477
1.266 2.475 1.754 6378
1.268 2.479 1.746 6499
1.264 2.471 1.730 6988
1.273 2.487 1.730 8552
1.275 2.491 1.722 9803
1.277 2.495 1.714 9122
1.316 2.573 1.753 6674
1.309 2.559 1.733 7004
1.321 2.581 1.737 7860
1.323 2.585 1.728 9391
1.325 2.589 1.720 9022
1.327 2.594 1.712 7276
1.367 2.672 1.749 6108
1.334 2.608 1.699 6921
1.340 2.618 1.694 7903
1.342 2.622 1.686 7260
1.376 2.688 1.714 4558
1.390 2.717 1.721 2915
1.380 2.697 1.697 2804
1.382 2.701 1.688 2717
1.435 2.805 1.738 3472
1.460 2.853 1.754 3638
1.401 2.738 1.677 5270
1.406 2.748 1.671 6584
1.408 2.752 1.662 5306
1.494 2.920 1.745 3755
1.509 2.949 1.750 4075
1.521 2.973 1.751 6578
1.526 2.983 1.745 7519
1.528 2.987 1.735 7022
1.495 2.921 1.688 7059
1.507 2.945 1.689 7187
1.551 3.031 1.723 7535
1.553 3.036 1.713 8519
1.555 3.040 1.704 7500
1.557 3.044 1.694 5715
1.563 3.054 1.687 4397
1.571 3.071 1.684 4150
1.609 3.146 1.710 3954
1.615 3.156 1.703 5996
1.617 3.160 1.693 6544
1.642 3.209 1.705 6054
1.647 3.220 1.698 8807
1.650 3.224 1.687 10580
1.652 3.228 1.677 13283
1.657 3.238 1.669 18871
1.662 3.249 1.662 21074
1.664 3.253 1.652 23863
1.666 3.257 1.641 32274
1.668 3.261 1.631 35242
1.670 3.264 1.620 26406
1.672 3.268 1.609 19295
1.674 3.272 1.599 19714
1.683 3.289 1.594 16674
1.742 3.404 1.633 13712
1.744 3.408 1.622 12178
1.746 3.412 1.611 9833
1.748 3.416 1.600 7140
1.864 3.643 1.685 6398
1.873 3.660 1.679 9974
1.875 3.664 1.667 10315
1.884 3.681 1.661 8593
1.899 3.712 1.660 7284
1.938 3.789 1.678 6344
1.944 3.799 1.668 5890
1.943 3.797 1.653 8382
1.945 3.800 1.641 9636
1.953 3.818 1.634 8495
1.972 3.855 1.635 7379
2.012 3.932 1.651 9964
2.021 3.949 1.643 11836
2.026 3.960 1.633 7204
2.025 3.957 1.618 6547
2.023 3.954 1.602 8639
2.032 3.971 1.594 8013
2.037 3.982 1.584 5616
2.194 4.287 1.681 4174
2.233 4.365 1.693 3782
2.235 4.369 1.679 3326
2.248 4.393 1.672 3891
2.250 4.397 1.658 4439
2.210 4.320 1.616 3994
2.288 4.472 1.652 3612
2.304 4.503 1.647 4497
2.330 4.554 1.648 3292
2.346 4.585 1.642 2974
2.403 4.697 1.663 5370
2.409 4.708 1.650 5933
2.408 4.705 1.633 4536
2.420 4.730 1.624 3081
2.477 4.842 1.642 2646
2.500 4.887 1.639 3813
2.502 4.890 1.623 5412
2.511 4.908 1.612 5777
2.527 4.939 1.604 7730
2.529 4.943 1.588 11181
2.531 4.947 1.572 11069
2.526 4.937 1.552 9032
2.528 4.940 1.536 11593
2.537 4.957 1.524 10558
2.542 4.968 1.509 8747
2.540 4.965 1.491 8675
2.542 4.968 1.475 6529
2.540 4.965 1.457 3831
2.911 5.688 1.632 3330
2.916 5.699 1.615 2479
3.002 5.868 1.639 2407
3.004 5.872 1.620 2469
3.126 6.109 1.659 3542
3.131 6.120 1.641 5073
3.133 6.124 1.621 5196
3.135 6.128 1.601 4342
3.137 6.132 1.581 3850
3.139 6.135 1.561 4540
3.145 6.146 1.543 4592
3.150 6.156 1.525 4877
3.152 6.160 1.505 4865
3.338 6.523 1.564 3277
3.336 6.520 1.541 2812
3.341 6.531 1.521 2992
3.396 6.638 1.522 2194
3.721 7.272 1.630 4013
3.726 7.283 1.608 6039
3.732 7.294 1.586 6800
3.734 7.298 1.562 5928
3.736 7.301 1.538 6259
3.734 7.298 1.513 7135
3.736 7.301 1.489 5459
4.293 8.390 1.664 3704
4.295 8.394 1.636 2884
4.293 8.391 1.608 2772
4.295 8.395 1.580 3794
4.297 8.398 1.553 3892
4.303 8.409 1.527 2812
4.304 8.413 1.499 1805
4.306 8.416 1.472 1618
4.308 8.420 1.444 1597
5.249 10.260 1.697 1410
5.251 10.264 1.664 1576
5.253 10.267 1.630 1380
5.173 10.111 1.574 1151
5.254 10.268 1.562 1095
5.316 10.391 1.545 957
5.755 11.248 1.624 1072
5.940 11.609 1.633 921
6.021 11.767 1.615 1003
6.026 11.778 1.577 855
6.218 12.153 1.583 707
6.220 12.157 1.543 578
6.340 12.392 1.530 644
6.339 12.388 1.488 588
6.337 12.385 1.447 438
6.109 11.939 1.361 436
6.336 12.384 1.366 322
6.342 12.394 1.326 303
1.078 2.086 1.806 2216
1.080 2.090 1.799 4432
1.082 2.095 1.792 4432
1.082 2.093 1.781 4056
1.066 2.063 1.747 4261
1.086 2.102 1.768 4586
1.088 2.106 1.761 5422
1.090 2.110 1.754 5422
1.128 2.184 1.801 6256
1.131 2.188 1.794 8584
1.133 2.192 1.787 8163
1.132 2.191 1.776 7829
1.134 2.195 1.769 7097
1.136 2.199 1.762 6365
1.142 2.209 1.759 6430
1.144 2.214 1.752 6738
1.140 2.206 1.736 7055
1.145 2.216 1.733 7221
1.150 2.226 1.731 7772
1.155 2.236 1.728 7071
1.173 2.270 1.742 6937
1.178 2.280 1.739 5705
1.232 2.385 1.803 4723
1.238 2.395 1.800 4058
1.212 2.346 1.755 4254
1.248 2.416 1.793 4852
1.253 2.426 1.789 6371
1.253 2.424 1.777 6033
1.242 2.405 1.753 6586
1.248 2.415 1.749 6474
1.250 2.419 1.742 6422
1.268 2.453 1.754 5968
1.276 2.470 1.754 6808
1.275 2.468 1.742 7598
1.274 2.466 1.730 8658
1.279 2.476 1.726 9637
1.285 2.486 1.722 9805
1.287 2.490 1.714 8552
1.330 2.574 1.757 6952
1.332 2.578 1.749 6482
1.331 2.576 1.737 7552
1.333 2.580 1.728 8704
1.335 2.584 1.720 8770
1.340 2.594 1.716 7431
1.374 2.660 1.745 6405
1.348 2.609 1.703 6821
1.350 2.613 1.694 7379
1.381 2.673 1.719 7466
1.386 2.683 1.714 5603
1.401 2.712 1.721 3610
1.390 2.691 1.697 3941
1.399 2.708 1.696 4392
1.404 2.718 1.691 4474
1.406 2.722 1.682 4313
1.480 2.864 1.752 5299
1.492 2.887 1.753 5448
1.500 2.904 1.751 5535
1.502 2.908 1.742 4530
1.478 2.861 1.704 4841
1.536 2.973 1.754 5935
1.492 2.888 1.696 6023
1.498 2.899 1.690 7421
1.506 2.916 1.688 6986
1.518 2.939 1.689 6023
1.560 3.019 1.720 6973
1.562 3.023 1.710 8349
1.564 3.027 1.700 7550
1.609 3.114 1.734 5897
1.611 3.118 1.723 5007
1.613 3.122 1.713 5111
1.615 3.126 1.703 4836
1.627 3.150 1.703 5557
1.629 3.154 1.693 6240
1.658 3.209 1.708 5993
1.660 3.213 1.698 9001
1.662 3.217 1.687 10661
1.661 3.215 1.674 12112
1.666 3.225 1.666 14672
1.668 3.229 1.656 15944
1.674 3.240 1.649 20031
1.676 3.244 1.638 29619
1.678 3.247 1.628 33059
1.680 3.251 1.617 25189
1.678 3.249 1.603 17733
1.751 3.389 1.655 16569
1.753 3.393 1.644 17648
1.755 3.397 1.633 18004
1.757 3.401 1.622 16338
1.759 3.405 1.611 13521
1.761 3.409 1.600 9887
1.878 3.636 1.685 6891
1.887 3.653 1.679 9494
1.889 3.657 1.667 9469
1.898 3.674 1.661 8018
1.914 3.704 1.660 6653
1.953 3.781 1.678 7265
1.959 3.791 1.668 7286
1.958 3.789 1.653 8381
1.960 3.793 1.641 8927
1.968 3.810 1.634 7646
1.988 3.847 1.635 6613
2.027 3.924 1.651 8299
2.033 3.934 1.641 9597
2.031 3.932 1.625 6017
2.033 3.935 1.612 6454
2.039 3.946 1.602 7981
2.044 3.956 1.592 6447
2.146 4.154 1.650 4047
2.207 4.272 1.678 3641
2.206 4.269 1.662 3726
2.190 4.239 1.636 3485
2.192 4.243 1.622 3343
2.222 4.301 1.627 3605
2.262 4.379 1.639 3663
2.289 4.430 1.641 3399
2.315 4.481 1.643 4712
2.320 4.491 1.630 3947
2.354 4.556 1.636 2773
2.419 4.681 1.661 3982
2.424 4.692 1.648 4744
2.426 4.696 1.633 4265
2.439 4.720 1.624 3302
2.448 4.737 1.613 3256
2.520 4.877 1.639 3824
2.522 4.881 1.623 6196
2.524 4.884 1.608 6817
2.529 4.895 1.594 6354
2.549 4.933 1.588 10286
2.551 4.936 1.572 11312
2.545 4.927 1.552 8209
2.547 4.930 1.536 9743
2.553 4.941 1.522 8312
2.562 4.958 1.509 6626
2.560 4.954 1.491 7000
2.562 4.958 1.475 5074
2.821 5.461 1.593 3177
2.933 5.677 1.632 3109
2.939 5.688 1.615 2859
3.022 5.849 1.637 2673
3.028 5.860 1.620 2371
3.069 5.939 1.620 3155
3.156 6.108 1.641 4851
3.158 6.112 1.621 4883
3.160 6.115 1.601 3805
3.158 6.112 1.580 3703
3.156 6.109 1.558 4237
3.165 6.127 1.541 4323
3.171 6.137 1.523 4359
3.169 6.134 1.502 3878
3.363 6.510 1.564 3155
3.519 6.811 1.607 3631
3.521 6.814 1.585 3258
3.419 6.618 1.520 2451
3.750 7.258 1.630 4340
3.755 7.268 1.608 5891
3.761 7.279 1.586 5948
3.763 7.283 1.562 5653
3.765 7.286 1.538 6320
3.763 7.283 1.513 6858
3.765 7.287 1.489 5200
3.763 7.283 1.464 2725
4.271 8.266 1.616 2750
4.327 8.374 1.608 2374
4.328 8.378 1.580 3129
4.330 8.381 1.553 3025
4.332 8.385 1.526 2139
4.262 8.249 1.475 1648
4.268 8.260 1.450 1505
5.187 10.040 1.700 1619
5.290 10.239 1.697 1441
5.288 10.236 1.663 1509
5.294 10.247 1.630 1399
5.300 10.257 1.598 1285
5.294 10.247 1.562 1229
5.408 10.467 1.558 957
5.800 11.225 1.624 975
5.535 10.712 1.520 946
5.814 11.254 1.553 857
6.160 11.922 1.598 808
6.172 11.946 1.561 710
6.391 12.370 1.571 752
6.389 12.366 1.530 884
6.388 12.363 1.488 774
6.389 12.366 1.448 547
6.156 11.914 1.361 503
6.161 11.925 1.322 355
6.394 12.376 1.326 287
2.493 4.826 -0.440 336
1.085 2.083 1.806 1772
1.090 2.093 1.804 3596
1.101 2.114 1.811 4250
1.103 2.118 1.804 3262
1.073 2.060 1.747 3257
1.090 2.093 1.763 3710
1.092 2.097 1.756 4552
1.094 2.101 1.750 4552
1.135 2.180 1.801 5889
1.138 2.184 1.794 8061
1.137 2.183 1.783 7641
1.136 2.181 1.771 7343
1.138 2.186 1.764 6782
1.137 2.184 1.753 6301
1.139 2.188 1.746 5903
1.145 2.198 1.743 6220
1.144 2.196 1.732 6870
1.152 2.212 1.733 7058
1.157 2.222 1.731 7784
1.162 2.232 1.728 6962
1.183 2.272 1.746 7362
1.185 2.276 1.739 5780
1.187 2.280 1.731 4197
1.230 2.362 1.779 4127
1.229 2.360 1.767 4404
1.259 2.418 1.797 4474
1.264 2.428 1.793 5732
1.263 2.426 1.781 5185
1.247 2.395 1.749 5954
1.252 2.405 1.745 5913
1.270 2.439 1.758 6209
1.275 2.449 1.754 6678
1.278 2.453 1.746 7205
1.280 2.457 1.738 8597
1.282 2.462 1.730 9989
1.287 2.472 1.726 10535
1.292 2.482 1.722 9701
1.295 2.486 1.714 7929
1.338 2.569 1.757 6705
1.343 2.580 1.753 6315
1.339 2.572 1.737 7149
1.341 2.576 1.728 8139
1.343 2.580 1.720 8379
1.349 2.590 1.716 7311
1.354 2.600 1.711 6296
1.382 2.654 1.733 6750
1.384 2.658 1.724 7274
1.389 2.668 1.719 7726
1.395 2.679 1.714 6279
1.410 2.707 1.721 4282
1.402 2.693 1.701 4977
1.408 2.703 1.696 5858
1.410 2.707 1.687 5911
1.412 2.711 1.678 5204
1.486 2.853 1.748 5766
1.501 2.882 1.753 5651
1.506 2.892 1.748 5601
1.505 2.890 1.735 5261
1.491 2.863 1.708 6414
1.496 2.873 1.702 6305
1.505 2.890 1.700 7171
1.514 2.907 1.697 8312
1.516 2.911 1.688 7283
1.531 2.940 1.692 5619
1.563 3.001 1.713 6764
1.568 3.012 1.707 8421
1.617 3.105 1.744 8050
1.619 3.109 1.734 7836
1.621 3.113 1.723 6660
1.623 3.117 1.713 6452
1.625 3.121 1.703 5295
1.644 3.157 1.709 5002
1.643 3.155 1.696 5460
1.668 3.204 1.708 5816
1.670 3.208 1.698 8556
1.673 3.212 1.687 10208
1.671 3.209 1.674 10797
1.670 3.207 1.660 10822
1.675 3.217 1.653 12391
1.677 3.221 1.642 17976
1.683 3.232 1.635 26457
1.685 3.235 1.624 29614
1.687 3.239 1.614 23931
1.685 3.237 1.600 17536
1.762 3.384 1.655 18437
1.764 3.388 1.644 19476
1.766 3.391 1.633 20011
1.768 3.395 1.622 18282
1.770 3.399 1.611 15285
1.772 3.403 1.600 11186
1.774 3.407 1.589 7344
1.896 3.640 1.676 8398
1.901 3.651 1.667 7785
1.910 3.668 1.661 6823
1.926 3.698 1.660 5485
1.969 3.781 1.681 7386
1.975 3.792 1.671 8091
1.970 3.782 1.653 7760
1.972 3.786 1.641 7969
1.984 3.810 1.637 7207
2.000 3.840 1.635 5662
2.036 3.911 1.648 6699
2.045 3.928 1.641 7173
2.044 3.925 1.625 4777
2.046 3.929 1.612 5586
2.048 3.933 1.600 6373
2.053 3.943 1.589 4743
2.201 4.227 1.680 4499
2.210 4.245 1.671 5200
2.209 4.242 1.655 5984
2.204 4.232 1.636 5633
2.206 4.236 1.622 5448
2.208 4.240 1.609 4184
2.213 4.250 1.597 3552
2.285 4.389 1.629 3162
2.329 4.473 1.643 4212
2.338 4.490 1.632 4224
2.361 4.535 1.631 2958
2.434 4.673 1.661 2874
2.443 4.691 1.650 3824
2.441 4.688 1.633 3975
2.464 4.732 1.630 3623
2.477 4.756 1.621 4632
2.539 4.875 1.641 3286
2.537 4.872 1.623 5988
2.539 4.876 1.608 7356
2.534 4.866 1.588 6447
2.564 4.924 1.588 8381
2.563 4.921 1.570 10190
2.554 4.905 1.548 7850
2.560 4.915 1.534 7813
2.565 4.926 1.520 5856
2.577 4.950 1.509 4237
2.579 4.953 1.493 4659
2.841 5.455 1.613 4118
2.843 5.459 1.595 3696
2.855 5.483 1.583 3244
2.957 5.678 1.615 2971
2.962 5.689 1.598 2759
3.046 5.850 1.620 2103
3.084 5.922 1.618 2829
3.175 6.098 1.641 3848
3.177 6.101 1.621 3819
3.179 6.105 1.601 2696
3.178 6.102 1.580 2884
3.176 6.099 1.558 3326
3.189 6.123 1.543 3448
3.191 6.127 1.523 3474
3.393 6.516 1.590 3424
3.535 6.789 1.628 4031
3.537 6.792 1.605 4960
3.543 6.803 1.585 3878
3.548 6.814 1.564 2247
3.773 7.245 1.630 3862
3.779 7.256 1.608 4939
3.781 7.260 1.584 4842
3.786 7.271 1.562 5065
3.788 7.274 1.538 5720
3.786 7.271 1.513 5747
3.788 7.274 1.489 4279
3.960 7.604 1.525 3241
3.958 7.600 1.499 3083
3.960 7.604 1.474 3023
3.961 7.607 1.449 2284
4.354 8.360 1.552 2083
4.287 8.232 1.502 1742
4.289 8.236 1.475 2040
4.290 8.239 1.449 1716
5.223 10.030 1.701 1564
5.232 10.048 1.670 1475
5.252 10.086 1.643 1439
4.301 8.259 1.342 1393
5.347 10.268 1.602 1416
5.331 10.237 1.563 1417
5.445 10.457 1.559 1084
5.563 10.684 1.554 995
5.565 10.687 1.519 892
5.851 11.235 1.553 837
6.201 11.909 1.599 831
6.218 11.940 1.563 881
6.431 12.349 1.571 875
6.429 12.346 1.530 970
6.427 12.342 1.488 828
6.429 12.346 1.448 601
6.198 11.902 1.361 479
6.436 12.359 1.368 381
6.438 12.362 1.327 316
6.439 12.366 1.287 252
1.061 2.008 1.750 1754
1.063 2.013 1.744 3508
1.116 2.113 1.816 4671
1.118 2.118 1.809 3678
1.124 2.128 1.806 2736
1.099 2.080 1.759 2840
1.104 2.090 1.756 3695
1.106 2.095 1.750 3695
1.148 2.174 1.801 5233
1.150 2.178 1.794 7141
1.149 2.176 1.783 6803
1.146 2.169 1.767 6664
1.145 2.167 1.756 6754
1.144 2.166 1.744 7077
1.143 2.164 1.733 6630
1.148 2.174 1.730 6440
1.153 2.184 1.727 7014
1.165 2.206 1.733 7059
1.170 2.216 1.731 7805
1.206 2.284 1.771 6990
1.202 2.277 1.755 8178
1.205 2.281 1.747 6318
1.216 2.303 1.753 4863
1.243 2.354 1.779 4735
1.246 2.359 1.771 5199
1.251 2.369 1.768 4627
1.278 2.421 1.793 4973
1.259 2.383 1.757 4664
1.261 2.387 1.749 5201
1.288 2.439 1.774 5704
1.291 2.444 1.766 7162
1.290 2.442 1.754 7623
1.292 2.446 1.746 8128
1.294 2.450 1.738 9522
1.296 2.454 1.730 10917
1.302 2.464 1.726 11170
1.307 2.474 1.722 9748
1.309 2.479 1.714 7629
1.353 2.562 1.757 5866
1.358 2.572 1.753 5602
1.357 2.570 1.741 6523
1.356 2.568 1.728 7582
1.358 2.572 1.720 7862
1.364 2.582 1.716 6963
1.369 2.592 1.711 6108
1.397 2.646 1.733 6230
1.403 2.656 1.728 6683
1.411 2.672 1.727 7321
1.414 2.677 1.718 6512
1.426 2.699 1.721 4740
1.418 2.685 1.701 5804
1.423 2.695 1.696 6818
1.425 2.699 1.687 6839
1.428 2.703 1.678 5675
1.502 2.844 1.748 5810
1.517 2.873 1.753 5357
1.523 2.884 1.748 5156
1.509 2.856 1.721 5854
1.511 2.861 1.711 7743
1.516 2.871 1.706 7390
1.538 2.913 1.717 7907
1.540 2.917 1.708 9478
1.546 2.927 1.702 7634
1.571 2.975 1.716 6326
1.577 2.986 1.710 6702
1.586 3.002 1.707 8555
1.635 3.095 1.744 8429
1.637 3.099 1.734 9001
1.639 3.104 1.723 7694
1.641 3.108 1.713 7151
1.640 3.105 1.700 5590
1.669 3.160 1.716 4567
1.661 3.145 1.696 4468
1.690 3.201 1.711 5602
1.692 3.205 1.701 7698
1.695 3.209 1.690 9329
1.690 3.200 1.674 9733
1.692 3.204 1.663 8132
1.694 3.208 1.653 10247
1.696 3.211 1.642 16739
1.702 3.222 1.635 22943
1.704 3.226 1.624 25582
1.702 3.223 1.611 22019
1.780 3.369 1.666 17087
1.782 3.373 1.655 18057
1.784 3.377 1.644 18938
1.786 3.381 1.633 19633
1.788 3.385 1.622 18053
1.790 3.389 1.611 15261
1.792 3.393 1.600 11171
1.794 3.396 1.589 7393
1.913 3.623 1.673 7282
1.926 3.646 1.670 5752
1.931 3.657 1.661 5093
1.951 3.693 1.663 4225
1.994 3.776 1.683 6949
2.000 3.787 1.674 8414
2.002 3.791 1.661 7022
2.001 3.788 1.646 7040
2.006 3.799 1.637 7214
2.019 3.822 1.632 5394
2.059 3.899 1.648 5727
2.068 3.916 1.641 5173
2.126 4.026 1.669 3688
2.069 3.917 1.612 4449
2.071 3.921 1.600 4587
2.220 4.204 1.691 4860
2.226 4.214 1.680 5814
2.231 4.225 1.669 7655
2.233 4.229 1.655 8307
2.228 4.219 1.636 7442
2.231 4.223 1.622 7031
2.229 4.220 1.606 5398
2.242 4.244 1.599 4702
2.247 4.255 1.588 4034
2.362 4.473 1.647 3430
2.371 4.490 1.637 4383
2.381 4.507 1.627 3372
2.418 4.579 1.634 2774
2.424 4.589 1.621 3651
2.468 4.674 1.633 3848
2.506 4.745 1.639 5829
2.512 4.755 1.625 7700
2.517 4.766 1.612 4801
2.562 4.851 1.621 4740
2.568 4.861 1.608 6421
2.555 4.838 1.584 6366
2.589 4.903 1.586 6245
2.588 4.900 1.568 8293
2.579 4.883 1.546 7414
2.581 4.887 1.530 6410
2.554 4.836 1.498 5117
2.850 5.397 1.639 4393
2.856 5.407 1.623 4031
2.872 5.438 1.613 4556
2.874 5.442 1.595 3794
2.883 5.459 1.581 2993
2.990 5.661 1.615 2986
2.995 5.671 1.598 3387
3.087 5.846 1.623 2020
3.107 5.884 1.613 2712
3.102 5.874 1.590 3020
3.097 5.864 1.568 2745
3.247 6.148 1.616 2188
3.170 6.001 1.560 2360
3.248 6.149 1.574 2254
3.434 6.502 1.635 3007
3.440 6.513 1.616 3720
3.435 6.503 1.591 3480
3.574 6.768 1.628 4954
3.576 6.772 1.605 5518
3.582 6.782 1.585 3887
3.591 6.800 1.565 2250
3.819 7.230 1.632 2995
3.821 7.234 1.608 3638
3.823 7.238 1.584 3580
3.828 7.249 1.562 4127
3.943 7.466 1.580 4785
3.828 7.249 1.513 4341
4.002 7.577 1.550 3266
4.004 7.581 1.525 3741
4.002 7.577 1.499 3727
4.004 7.581 1.474 3799
4.005 7.584 1.449 2840
4.333 8.203 1.529 2016
4.334 8.207 1.502 1981
4.336 8.211 1.475 2262
4.338 8.214 1.449 1859
5.285 10.006 1.702 1473
5.294 10.024 1.672 1481
5.311 10.056 1.643 1542
5.309 10.053 1.609 1368
5.410 10.244 1.603 1531
5.390 10.206 1.563 1538
5.506 10.425 1.559 1155
5.625 10.651 1.554 1142
6.145 11.635 1.647 831
6.268 11.869 1.638 735
6.281 11.893 1.601 915
6.287 11.904 1.563 1096
6.502 12.312 1.571 930
6.501 12.308 1.530 956
6.499 12.305 1.488 821
6.504 12.315 1.449 633
6.506 12.319 1.408 517
6.508 12.322 1.368 403
6.509 12.325 1.327 296
1.072 2.017 1.759 2347
1.074 2.021 1.753 4695
1.125 2.116 1.820 5011
1.127 2.120 1.813 4213
1.129 2.125 1.806 3415
1.138 2.140 1.809 2908
1.155 2.173 1.825 3141
1.158 2.178 1.818 3141
1.154 2.170 1.801 4485
1.153 2.169 1.790 6042
1.152 2.167 1.778 5889
1.148 2.160 1.763 6092
1.147 2.158 1.751 6875
1.150 2.163 1.744 7663
1.149 2.161 1.733 7167
1.154 2.171 1.730 6844
1.159 2.181 1.727 7247
1.174 2.208 1.738 7062
1.217 2.289 1.787 7687
1.213 2.281 1.771 7854
1.209 2.274 1.755 8930
1.217 2.289 1.756 7256
1.226 2.305 1.757 6138
1.247 2.345 1.775 5202
1.255 2.361 1.776 5840
1.257 2.365 1.768 5406
1.260 2.370 1.760 4973
1.262 2.374 1.753 4814
1.264 2.378 1.745 4655
1.298 2.442 1.778 6423
1.300 2.446 1.770 8243
1.296 2.438 1.754 8487
1.295 2.436 1.742 9101
1.301 2.447 1.738 10211
1.303 2.451 1.730 11391
1.308 2.461 1.726 11395
1.314 2.471 1.722 9676
1.316 2.475 1.714 7474
1.315 2.473 1.702 5054
1.352 2.544 1.737 4817
1.364 2.566 1.741 5972
1.366 2.570 1.732 7222
1.365 2.568 1.720 7420
1.371 2.579 1.716 6506
1.379 2.595 1.715 5756
1.405 2.642 1.733 5472
1.410 2.652 1.728 5690
1.422 2.675 1.731 6647
1.424 2.679 1.722 6452
1.423 2.677 1.709 5248
1.425 2.681 1.701 6192
1.427 2.685 1.692 7046
1.429 2.689 1.683 6956
1.432 2.693 1.675 5583
1.510 2.840 1.748 5636
1.519 2.857 1.746 4924
1.527 2.873 1.744 4612
1.516 2.852 1.721 6550
1.519 2.856 1.711 8335
1.524 2.867 1.706 7717
1.550 2.915 1.721 8586
1.555 2.925 1.714 10807
1.567 2.948 1.715 9146
1.576 2.965 1.712 7509
1.585 2.981 1.710 6730
1.590 2.992 1.703 8489
1.640 3.085 1.740 8172
1.645 3.095 1.734 9371
1.648 3.099 1.723 7875
1.646 3.097 1.710 6987
1.648 3.101 1.700 5337
1.691 3.181 1.729 4373
1.697 3.192 1.722 4580
1.699 3.196 1.711 5373
1.705 3.206 1.704 6844
1.703 3.204 1.690 8343
1.702 3.202 1.677 8728
1.704 3.205 1.666 7001
1.706 3.209 1.656 9192
1.705 3.207 1.642 14797
1.707 3.211 1.632 19316
1.709 3.215 1.621 21110
1.711 3.218 1.611 18811
1.789 3.365 1.666 15879
1.791 3.369 1.655 16116
1.793 3.372 1.644 16591
1.795 3.376 1.633 17262
1.797 3.380 1.622 15870
1.799 3.384 1.611 13496
1.801 3.388 1.600 9839
1.803 3.391 1.589 6480
1.920 3.611 1.671 6492
1.939 3.648 1.673 4052
1.945 3.658 1.664 3405
2.009 3.780 1.701 3425
2.008 3.777 1.686 6455
2.010 3.781 1.674 8375
2.016 3.792 1.664 6986
2.018 3.796 1.652 7178
2.020 3.800 1.639 7458
2.029 3.817 1.632 6032
2.042 3.840 1.627 5050
2.079 3.910 1.641 3914
2.137 4.020 1.669 5141
2.132 4.011 1.650 5723
2.141 4.028 1.642 4876
2.232 4.198 1.691 4365
2.237 4.208 1.680 5935
2.243 4.219 1.669 8786
2.245 4.223 1.655 9537
2.243 4.220 1.639 8492
2.242 4.217 1.622 7610
2.240 4.214 1.606 5930
2.257 4.245 1.602 5567
2.262 4.255 1.590 4599
2.382 4.480 1.652 3045
2.387 4.490 1.639 4474
2.389 4.494 1.625 3787
2.431 4.572 1.634 3217
2.436 4.582 1.621 4120
2.445 4.600 1.611 3655
2.522 4.745 1.641 8495
2.524 4.749 1.625 11298
2.530 4.759 1.612 7104
2.536 4.770 1.598 4208
2.541 4.780 1.585 7241
2.550 4.797 1.573 8398
2.552 4.801 1.558 8516
2.554 4.805 1.542 10980
2.556 4.808 1.526 10411
2.562 4.819 1.512 7670
2.564 4.822 1.497 7462
2.565 4.826 1.481 5309
2.874 5.406 1.625 4888
2.887 5.430 1.613 4916
2.889 5.434 1.595 3692
2.898 5.452 1.581 2664
3.005 5.653 1.615 3049
3.011 5.663 1.598 3849
3.111 5.851 1.627 2158
3.116 5.862 1.609 3063
3.115 5.859 1.588 3649
3.113 5.856 1.568 3611
3.111 5.852 1.547 2735
3.186 5.993 1.560 2388
3.432 6.455 1.649 2257
3.452 6.493 1.635 2746
3.461 6.511 1.617 3593
