1.391 4.670 1.576 3254
1.433 4.813 1.604 3541
1.437 4.824 1.592 3460
1.479 4.967 1.619 2437
1.482 4.978 1.606 3271
1.488 4.997 1.596 3667
1.489 5.001 1.581 4619
1.486 4.990 1.561 3728
1.516 5.089 1.573 3529
1.589 5.335 1.626 4113
1.597 5.361 1.616 4595
1.596 5.358 1.598 5339
1.597 5.362 1.582 6869
1.602 5.381 1.570 7737
1.606 5.392 1.555 5410
1.638 5.499 1.566 2887
1.632 5.481 1.544 3559
1.631 5.477 1.525 4002
1.681 5.644 1.550 3584
1.682 5.647 1.533 3497
1.683 5.651 1.516 2762
1.682 5.648 1.497 3661
1.685 5.659 1.481 4816
1.686 5.663 1.464 5642
1.687 5.666 1.447 4079
1.766 5.929 1.490 4299
1.765 5.926 1.470 4402
1.766 5.929 1.452 3456
1.942 6.519 1.563 2619
1.945 6.531 1.545 2910
2.015 6.765 1.575 2792
2.018 6.777 1.556 2924
2.017 6.773 1.534 4727
2.018 6.777 1.513 5471
2.090 7.019 1.541 4092
2.025 6.799 1.475 3937
2.030 6.818 1.458 4216
2.029 6.814 1.436 2968
0.756 2.540 0.608 2946
2.232 7.494 1.519 4311
2.228 7.483 1.494 3967
2.229 7.486 1.471 3083
2.233 7.498 1.450 2955
2.234 7.501 1.427 2650
2.237 7.512 1.406 1527
2.502 8.400 1.530 1566
2.505 8.411 1.506 1737
2.510 8.430 1.483 1887
2.804 9.417 1.612 2005
2.803 9.413 1.582 2257
2.807 9.425 1.555 2544
2.808 9.429 1.526 4354
2.809 9.432 1.498 5542
2.808 9.429 1.468 4618
2.809 9.432 1.439 3275
2.812 9.444 1.412 3008
2.813 9.447 1.383 2627
3.122 10.482 1.488 3514
3.118 10.471 1.454 3008
3.420 11.484 1.547 2092
3.423 11.495 1.513 1940
3.427 11.507 1.479 1445
3.423 11.495 1.442 1264
3.472 11.657 1.425 1241
3.430 11.518 1.374 1455
3.435 11.536 1.341 1642
3.479 11.683 1.320 1116
3.478 11.679 1.284 832
3.128 10.503 1.136 747
3.126 10.498 1.104 1098
3.127 10.501 1.072 1394
3.105 10.428 1.034 1832
3.108 10.438 1.003 2126
3.105 10.425 0.970 1936
3.126 10.496 0.943 2142
3.079 10.339 0.900 2961
3.080 10.341 0.869 3977
3.078 10.335 0.837 3430
3.092 10.383 0.808 2761
3.093 10.384 0.777 2848
3.091 10.379 0.745 2529
3.075 10.327 0.710 2579
3.074 10.321 0.679 2538
3.076 10.330 0.648 2678
3.079 10.339 0.617 3154
3.079 10.341 0.586 3344
3.080 10.342 0.554 2304
3.080 10.343 0.523 1157
3.078 10.336 0.491 1067
3.067 10.299 0.459 995
3.056 10.262 0.426 847
3.050 10.240 0.395 974
3.050 10.241 0.364 840
1.478 4.962 0.233 753
1.478 4.962 0.218 786
1.478 4.962 0.203 740
1.030 3.460 0.173 661
1.030 3.460 0.163 604
1.396 4.689 0.157 595
1.396 4.689 0.143 756
1.396 4.689 0.129 905
1.394 4.682 0.114 1059
1.396 4.689 0.100 1154
1.396 4.689 0.086 1242
1.394 4.681 0.072 1237
1.396 4.689 0.058 1158
1.396 4.688 0.044 1084
1.396 4.688 0.030 957
1.396 4.688 0.016 830
1.396 4.687 0.001 690
1.394 4.679 -0.012 552
1.396 4.686 -0.027 428
1.395 4.686 -0.041 307
0.813 2.731 -0.079 281
0.813 2.730 -0.088 271
0.811 2.722 -0.095 262
0.810 2.720 -0.119 414
0.810 2.719 -0.128 599
0.810 2.719 -0.136 599
0.809 2.718 -0.144 803
0.809 2.717 -0.152 1007
0.809 2.716 -0.160 994
0.809 2.715 -0.168 981
0.808 2.715 -0.176 981
0.808 2.714 -0.184 1224
0.663 2.186 1.759 4440
0.664 2.190 1.753 8880
0.665 2.195 1.746 8880
0.667 2.199 1.740 9582
0.666 2.198 1.729 10379
0.669 2.208 1.727 11005
0.673 2.219 1.725 12144
0.674 2.223 1.718 12144
0.677 2.234 1.716 12519
0.682 2.251 1.718 13639
0.688 2.268 1.720 11384
0.698 2.304 1.736 10321
0.692 2.283 1.711 11482
0.693 2.287 1.704 13614
0.697 2.298 1.702 11392
0.700 2.309 1.700 9508
0.701 2.313 1.693 9504
0.718 2.368 1.720 7573
0.721 2.379 1.718 8965
0.722 2.383 1.711 8238
0.726 2.394 1.708 7650
0.725 2.392 1.696 6050
0.752 2.479 1.744 6067
0.755 2.490 1.741 5113
0.756 2.495 1.734 4201
0.748 2.467 1.705 5569
0.749 2.471 1.698 7202
0.751 2.476 1.690 6768
0.773 2.551 1.728 6973
0.777 2.562 1.725 7035
0.780 2.573 1.721 7417
0.783 2.584 1.718 6807
0.799 2.634 1.738 6843
0.796 2.625 1.722 7163
0.797 2.630 1.714 7670
0.799 2.634 1.706 7689
0.824 2.717 1.746 9755
0.825 2.722 1.738 11792
0.827 2.726 1.730 15618
0.828 2.731 1.722 19445
0.831 2.742 1.717 18909
0.833 2.746 1.709 18381
0.832 2.744 1.697 15367
0.833 2.748 1.689 13002
0.836 2.759 1.684 13987
0.838 2.764 1.676 11635
0.839 2.768 1.668 9283
0.842 2.779 1.663 10024
0.844 2.783 1.655 10285
0.845 2.787 1.647 9491
0.881 2.905 1.701 8504
0.884 2.917 1.696 8573
0.879 2.901 1.676 7775
0.891 2.939 1.685 7876
0.890 2.936 1.673 10948
0.889 2.934 1.661 13194
0.895 2.952 1.659 10723
0.927 3.058 1.703 9739
0.928 3.062 1.694 12514
0.930 3.066 1.685 12731
0.962 3.173 1.727 12109
0.965 3.184 1.721 16143
0.967 3.188 1.712 16000
0.968 3.193 1.702 20426
0.969 3.197 1.693 25366
0.973 3.208 1.686 25801
0.974 3.213 1.677 26975
0.975 3.217 1.667 25730
0.974 3.214 1.654 19932
0.976 3.218 1.645 16768
0.977 3.223 1.635 15998
0.978 3.227 1.625 14045
0.982 3.238 1.619 10493
1.048 3.457 1.708 6413
1.051 3.468 1.701 7620
1.051 3.466 1.687 8358
1.050 3.463 1.674 10068
1.049 3.460 1.660 8500
1.074 3.541 1.684 6234
1.081 3.566 1.682 7768
1.085 3.578 1.675 7798
1.094 3.610 1.676 7672
1.098 3.621 1.668 9357
1.101 3.633 1.660 9357
1.105 3.644 1.652 8823
1.114 3.676 1.653 12143
1.114 3.673 1.639 14552
1.111 3.663 1.622 13066
1.112 3.668 1.611 10187
1.111 3.665 1.597 8555
1.114 3.676 1.589 8404
1.122 3.701 1.586 7225
1.168 3.854 1.634 6032
1.193 3.936 1.653 4966
1.208 3.983 1.657 6006
1.181 3.895 1.610 6544
1.208 3.984 1.631 5334
1.207 3.981 1.616 5341
1.210 3.993 1.606 4635
1.244 4.104 1.634 6196
1.248 4.115 1.624 5629
1.284 4.234 1.653 4921
1.280 4.224 1.635 6717
1.284 4.235 1.625 4530
1.309 4.318 1.640 3799
1.313 4.330 1.630 4393
1.314 4.334 1.617 6336
1.346 4.439 1.638 7276
1.345 4.436 1.622 8926
1.344 4.432 1.606 10734
1.345 4.437 1.593 7960
1.348 4.448 1.582 4487
1.378 4.546 1.599 4097
1.382 4.557 1.588 3880
1.383 4.561 1.574 3051
1.439 4.747 1.617 4114
1.440 4.751 1.603 2921
1.457 4.806 1.604 3627
1.458 4.810 1.590 3466
1.506 4.967 1.621 2804
1.507 4.971 1.606 3965
1.513 4.989 1.596 4326
1.514 4.993 1.581 5205
1.511 4.983 1.561 4470
1.507 4.972 1.542 4293
1.511 4.983 1.529 5351
1.510 4.980 1.512 6721
1.511 4.984 1.497 6374
1.623 5.354 1.582 5525
1.629 5.373 1.570 6481
1.634 5.391 1.557 5277
1.625 5.359 1.531 2953
1.659 5.473 1.544 3225
1.656 5.462 1.523 3654
1.659 5.473 1.509 3178
1.710 5.639 1.533 2449
1.773 5.849 1.566 2681
1.775 5.853 1.549 3160
1.713 5.651 1.481 3230
1.714 5.654 1.464 4161
1.792 5.909 1.506 4206
1.795 5.921 1.490 4084
1.794 5.917 1.470 4844
1.795 5.921 1.452 4275
1.974 6.510 1.563 3016
1.975 6.514 1.544 3562
1.978 6.525 1.526 3264
1.982 6.536 1.507 2718
2.050 6.763 1.534 4215
2.052 6.767 1.513 4538
1.983 6.540 1.446 4125
2.061 6.797 1.477 3304
2.064 6.808 1.458 3839
0.768 2.535 0.616 3477
0.769 2.536 0.608 3742
2.266 7.475 1.518 3557
2.265 7.472 1.494 3579
2.307 7.610 1.495 3686
2.308 7.614 1.472 3507
2.273 7.498 1.428 2301
2.324 7.666 1.434 1827
2.545 8.395 1.531 1790
2.546 8.399 1.506 1685
2.550 8.410 1.482 1654
2.851 9.403 1.612 1780
2.850 9.399 1.582 2126
2.853 9.411 1.555 2429
2.854 9.415 1.526 4024
2.855 9.419 1.498 5073
2.854 9.415 1.468 4228
2.855 9.418 1.439 3016
2.859 9.430 1.412 2865
3.172 10.463 1.520 2960
3.171 10.459 1.487 3816
3.167 10.448 1.453 3329
3.166 10.444 1.421 2314
3.482 11.486 1.514 2256
3.483 11.490 1.479 1848
3.480 11.478 1.442 1360
3.524 11.625 1.423 1192
3.487 11.501 1.374 1337
3.488 11.504 1.339 1587
3.491 11.515 1.305 1146
3.611 11.910 1.309 867
3.182 10.495 1.137 808
3.183 10.498 1.105 906
3.183 10.500 1.073 993
3.136 10.345 1.028 1103
3.137 10.347 0.996 1243
3.135 10.342 0.964 1255
3.134 10.336 0.932 1729
3.134 10.339 0.901 2721
3.137 10.348 0.870 3340
3.140 10.358 0.839 3536
3.141 10.360 0.808 4463
3.137 10.346 0.775 5266
3.137 10.348 0.744 5199
3.135 10.342 0.712 4418
3.127 10.314 0.679 3804
3.123 10.300 0.647 4370
3.123 10.301 0.616 4179
3.123 10.303 0.585 3353
3.124 10.304 0.553 2435
3.122 10.297 0.522 1927
3.122 10.298 0.490 2336
3.120 10.292 0.459 1979
3.102 10.232 0.426 1888
3.100 10.225 0.395 2064
3.100 10.226 0.364 1747
3.098 10.219 0.333 1471
3.100 10.227 0.302 1390
3.103 10.235 0.271 1157
3.105 10.243 0.240 968
3.108 10.251 0.209 628
0.726 2.394 0.148 538
0.726 2.394 0.141 537
1.420 4.682 0.129 618
1.417 4.675 0.114 743
1.419 4.682 0.100 802
1.419 4.682 0.086 863
1.419 4.682 0.072 863
1.419 4.682 0.058 800
1.419 4.681 0.044 736
1.419 4.681 0.030 636
1.419 4.681 0.016 537
1.419 4.680 0.001 427
1.125 3.711 0.019 462
1.125 3.710 0.008 435
1.127 3.718 -0.003 397
1.125 3.710 -0.014 330
1.124 3.709 -0.025 263
0.827 2.727 -0.079 307
0.827 2.726 -0.088 291
0.826 2.726 -0.096 276
0.824 2.718 -0.103 418
0.824 2.717 -0.111 560
0.823 2.716 -0.119 754
0.823 2.715 -0.128 948
0.823 2.715 -0.136 948
0.823 2.714 -0.144 959
0.823 2.713 -0.152 971
0.822 2.712 -0.160 936
0.820 2.704 -0.167 908
0.819 2.703 -0.175 908
0.819 2.702 -0.183 1165
0.672 2.183 1.759 4780
0.673 2.188 1.753 9560
0.674 2.192 1.746 9560
0.676 2.197 1.740 9949
0.675 2.195 1.729 10449
0.679 2.206 1.727 10089
0.682 2.216 1.725 9979
0.683 2.221 1.718 9979
0.685 2.225 1.711 9623
0.699 2.273 1.736 11457
0.706 2.296 1.743 10747
0.710 2.307 1.740 10836
0.701 2.280 1.711 10509
0.703 2.284 1.704 12414
0.704 2.289 1.698 10511
0.707 2.299 1.695 8640
0.707 2.297 1.684 8624
0.730 2.371 1.725 6906
0.731 2.376 1.718 7822
0.732 2.380 1.711 6575
0.736 2.391 1.708 5489
0.762 2.478 1.756 4848
0.764 2.483 1.748 6370
0.767 2.494 1.745 5270
0.777 2.524 1.755 4527
0.754 2.451 1.697 4960
0.757 2.462 1.694 6270
0.761 2.473 1.690 5663
0.786 2.555 1.732 7552
0.789 2.565 1.729 8104
0.791 2.570 1.721 8793
0.792 2.574 1.714 9118
0.795 2.585 1.710 9454
0.799 2.596 1.706 8951
0.804 2.613 1.706 8821
0.807 2.624 1.702 8766
0.835 2.714 1.746 9936
0.836 2.718 1.738 11901
0.838 2.723 1.730 15880
0.839 2.727 1.722 19859
0.843 2.738 1.717 18258
0.844 2.743 1.709 16767
0.845 2.747 1.701 12907
0.845 2.745 1.689 10369
0.848 2.756 1.684 11639
0.849 2.760 1.676 9939
0.851 2.764 1.668 8240
0.854 2.775 1.663 9201
0.874 2.840 1.688 9498
0.883 2.871 1.695 9010
0.893 2.902 1.701 8277
0.896 2.913 1.696 7830
0.889 2.890 1.672 7153
0.903 2.935 1.685 7731
0.902 2.933 1.673 11295
0.902 2.930 1.661 13561
0.907 2.948 1.659 11298
0.940 3.054 1.703 10780
0.941 3.058 1.694 13845
0.942 3.062 1.685 14264
0.944 3.067 1.675 12630
0.978 3.180 1.721 15542
0.984 3.198 1.719 15970
0.983 3.196 1.706 19215
0.982 3.193 1.693 22284
0.986 3.204 1.686 22136
0.987 3.209 1.677 24356
0.986 3.206 1.664 24152
0.988 3.210 1.654 18699
0.989 3.214 1.645 15955
0.990 3.219 1.635 14861
0.992 3.223 1.625 12856
0.995 3.234 1.619 9682
1.060 3.446 1.705 5991
1.066 3.464 1.701 6980
1.063 3.454 1.684 7937
1.064 3.459 1.674 9702
1.063 3.456 1.660 7409
1.086 3.530 1.681 5923
1.094 3.555 1.679 7935
1.099 3.573 1.675 8960
1.107 3.598 1.673 8856
1.113 3.617 1.668 9573
1.116 3.628 1.660 8859
1.122 3.646 1.655 8601
1.130 3.672 1.653 11698
1.131 3.676 1.642 13080
1.130 3.673 1.628 9833
1.125 3.656 1.608 6745
1.124 3.653 1.594 7366
1.130 3.671 1.589 8077
1.139 3.703 1.589 7137
1.186 3.856 1.637 6577
1.214 3.945 1.658 5498
1.224 3.978 1.657 6630
1.227 3.989 1.648 6278
1.224 3.979 1.631 5654
1.223 3.976 1.616 6391
1.220 3.966 1.599 4947
1.263 4.106 1.637 5110
1.265 4.110 1.624 5325
1.301 4.229 1.653 5732
1.298 4.218 1.635 7832
1.299 4.223 1.623 5251
1.325 4.306 1.638 4639
1.328 4.317 1.627 5066
1.363 4.429 1.651 6597
1.364 4.433 1.638 8378
1.363 4.430 1.622 10713
1.362 4.427 1.606 12562
1.363 4.431 1.593 9468
1.365 4.435 1.580 5301
1.366 4.439 1.566 4765
1.403 4.559 1.590 3801
1.457 4.736 1.632 3182
1.459 4.741 1.617 4053
1.460 4.745 1.603 2692
1.477 4.800 1.604 2828
1.478 4.804 1.590 2406
1.526 4.960 1.621 3282
1.530 4.972 1.609 4266
1.533 4.983 1.596 4060
1.528 4.965 1.574 4397
1.522 4.947 1.553 5883
1.526 4.959 1.540 6959
1.527 4.962 1.525 8431
1.528 4.966 1.510 11787
1.531 4.977 1.497 11628
1.533 4.981 1.482 9917
1.534 4.985 1.467 7353
1.666 5.414 1.565 5432
1.536 4.992 1.437 3638
1.682 5.466 1.544 3250
1.681 5.462 1.525 3299
1.682 5.466 1.509 2720
1.724 5.603 1.525 2474
1.729 5.621 1.512 3012
1.801 5.853 1.550 3071
1.811 5.887 1.540 2865
1.815 5.898 1.524 4351
1.816 5.902 1.506 4231
1.817 5.906 1.488 3003
1.816 5.902 1.468 4481
1.819 5.913 1.452 4664
2.000 6.502 1.563 3250
2.002 6.506 1.544 3875
2.003 6.509 1.524 3614
2.004 6.513 1.504 2918
2.078 6.755 1.534 2967
2.009 6.528 1.466 4771
2.010 6.532 1.446 6096
2.009 6.528 1.425 4078
2.012 6.539 1.407 4124
2.015 6.550 1.388 3929
2.190 7.119 1.476 3618
2.192 7.123 1.454 3600
2.335 7.589 1.517 3520
2.336 7.593 1.494 5180
2.340 7.604 1.472 5041
2.345 7.623 1.452 3015
2.351 7.641 1.431 2279
2.580 8.384 1.531 1912
2.519 8.186 1.473 1774
2.518 8.183 1.447 1810
2.604 8.463 1.466 1447
2.856 9.283 1.566 2171
2.857 9.287 1.538 2870
2.893 9.403 1.526 3034
2.894 9.407 1.498 3801
2.893 9.403 1.468 3183
2.894 9.407 1.439 2254
3.205 10.416 1.548 2463
3.215 10.450 1.520 3096
3.214 10.446 1.487 3804
3.208 10.427 1.452 3461
3.209 10.431 1.421 2606
3.530 11.472 1.514 2439
3.531 11.475 1.479 2124
3.527 11.464 1.442 1464
3.570 11.603 1.423 1188
3.529 11.471 1.373 1227
3.530 11.474 1.338 1444
3.536 11.493 1.304 1185
3.542 11.511 1.271 1040
3.545 11.522 1.237 950
3.660 11.894 1.236 642
3.220 10.465 1.071 1136
3.221 10.467 1.040 2050
3.219 10.462 1.007 2510
3.217 10.457 0.975 2338
3.181 10.339 0.934 2856
3.177 10.326 0.901 3694
3.175 10.320 0.869 4062
3.176 10.322 0.838 3760
3.174 10.316 0.806 3563
3.172 10.311 0.774 3731
3.173 10.312 0.743 3414
3.173 10.314 0.711 3908
3.172 10.308 0.680 4791
3.174 10.317 0.649 4322
3.170 10.303 0.617 3930
3.168 10.297 0.585 4146
3.171 10.306 0.554 3244
3.171 10.307 0.523 2483
3.169 10.300 0.491 2620
3.169 10.301 0.460 2293
3.142 10.211 0.426 1954
3.140 10.205 0.395 2060
3.140 10.205 0.364 1950
3.142 10.213 0.333 1851
3.143 10.214 0.302 2014
3.145 10.222 0.271 1763
3.145 10.222 0.240 1339
3.145 10.222 0.209 920
0.736 2.391 0.148 1046
0.736 2.391 0.141 1085
0.736 2.391 0.134 1055
0.736 2.391 0.127 1026
0.736 2.391 0.120 956
0.736 2.391 0.113 812
0.736 2.391 0.105 689
1.141 3.707 0.075 508
1.141 3.707 0.064 564
1.143 3.714 0.052 623
1.143 3.714 0.041 633
1.140 3.706 0.030 609
1.140 3.706 0.019 579
1.140 3.706 0.008 510
1.142 3.713 -0.003 445
1.142 3.712 -0.015 359
1.140 3.704 -0.025 278
0.835 2.714 -0.103 388
0.835 2.713 -0.111 608
0.835 2.713 -0.119 846
0.834 2.712 -0.128 1083
0.834 2.711 -0.136 1083
0.834 2.710 -0.144 1056
0.834 2.710 -0.152 1030
0.833 2.709 -0.160 834
0.833 2.708 -0.168 638
0.833 2.707 -0.176 638
0.833 2.706 -0.184 891
0.680 2.181 1.759 5001
0.681 2.185 1.753 10002
0.683 2.190 1.746 10002
0.684 2.194 1.740 10122
0.684 2.192 1.729 10302
0.687 2.203 1.727 9260
0.688 2.207 1.720 8276
0.690 2.212 1.713 8276
0.712 2.285 1.756 8761
0.714 2.289 1.750 11412
0.717 2.300 1.747 11320
0.718 2.304 1.740 11324
0.718 2.302 1.729 9694
0.709 2.275 1.700 10887
0.711 2.280 1.693 9750
0.710 2.278 1.682 8723
0.712 2.282 1.675 8668
0.742 2.381 1.733 6652
0.742 2.379 1.722 6747
0.743 2.384 1.715 5255
0.747 2.394 1.712 3863
0.772 2.475 1.756 4911
0.775 2.486 1.753 6870
0.779 2.497 1.749 6111
0.784 2.514 1.750 5740
0.761 2.442 1.693 4897
0.765 2.453 1.690 5791
0.794 2.547 1.740 5912
0.796 2.552 1.732 8468
0.799 2.562 1.729 8821
0.800 2.567 1.721 9320
0.802 2.571 1.714 9632
0.803 2.576 1.706 9944
0.804 2.580 1.698 9602
0.814 2.610 1.706 9114
0.815 2.615 1.699 8699
0.847 2.717 1.750 9606
0.847 2.715 1.738 11323
0.848 2.720 1.730 14880
0.849 2.724 1.722 18438
0.853 2.735 1.717 16195
0.854 2.740 1.709 14107
0.855 2.744 1.701 10661
0.857 2.748 1.693 8642
0.858 2.753 1.684 10068
0.862 2.763 1.680 8872
0.865 2.774 1.675 8059
0.877 2.812 1.686 8552
0.886 2.843 1.692 9870
0.894 2.867 1.695 10035
0.897 2.878 1.690 8104
0.878 2.816 1.645 7081
0.877 2.813 1.632 6938
0.914 2.932 1.685 6945
0.913 2.929 1.673 10246
0.912 2.927 1.661 12237
0.916 2.938 1.655 10604
0.951 3.050 1.703 11436
0.952 3.054 1.694 14818
0.954 3.059 1.685 15360
0.957 3.070 1.679 14467
0.992 3.183 1.725 15692
0.996 3.194 1.719 16168
0.997 3.199 1.709 16953
0.994 3.189 1.693 17432
0.998 3.200 1.686 16544
0.997 3.198 1.673 19749
0.998 3.202 1.664 20458
1.002 3.213 1.657 15792
1.005 3.224 1.651 13975
1.004 3.222 1.638 11987
1.006 3.226 1.628 9858
1.007 3.230 1.619 7350
1.071 3.435 1.702 4940
1.077 3.453 1.698 5625
1.076 3.450 1.684 6664
1.077 3.455 1.674 8288
1.098 3.521 1.691 7788
1.101 3.533 1.684 7448
1.105 3.544 1.676 8711
1.113 3.569 1.675 9258
1.121 3.594 1.673 9159
1.124 3.606 1.665 9005
1.132 3.631 1.663 8199
1.140 3.656 1.661 8955
1.143 3.667 1.653 11219
1.145 3.672 1.642 12129
1.146 3.676 1.631 10379
1.145 3.673 1.617 6126
1.138 3.649 1.594 5618
1.143 3.667 1.589 6966
1.200 3.848 1.648 7554
1.201 3.852 1.637 6727
1.229 3.941 1.658 6033
1.237 3.966 1.654 7083
1.245 3.992 1.651 6256
1.244 3.989 1.636 5125
1.238 3.972 1.616 6525
1.235 3.962 1.599 5086
1.283 4.115 1.642 4871
1.284 4.119 1.629 5911
1.315 4.216 1.651 6203
1.314 4.214 1.635 8346
1.313 4.211 1.620 5452
1.341 4.301 1.638 5304
1.344 4.312 1.627 5686
1.377 4.416 1.649 6140
1.378 4.421 1.636 8078
1.380 4.425 1.622 10665
1.379 4.422 1.606 12231
1.380 4.426 1.593 9216
1.381 4.430 1.580 5089
1.382 4.434 1.566 4709
1.465 4.698 1.637 3310
1.473 4.724 1.629 3640
1.479 4.742 1.620 3651
1.482 4.754 1.608 2579
1.492 4.787 1.602 1846
1.539 4.936 1.632 2615
1.542 4.947 1.619 3565
1.544 4.951 1.604 3821
1.543 4.948 1.587 3983
1.535 4.923 1.564 4914
1.543 4.949 1.555 7718
1.544 4.953 1.540 9297
1.545 4.957 1.525 11082
1.547 4.961 1.510 16007
1.550 4.972 1.497 15632
1.551 4.975 1.482 14269
1.552 4.979 1.467 11650
1.551 4.976 1.450 7273
1.555 4.986 1.437 5530
1.558 4.997 1.424 3499
1.742 5.588 1.559 3205
1.739 5.577 1.538 3729
1.745 5.596 1.525 3523
1.751 5.615 1.512 3652
1.807 5.795 1.538 3270
1.808 5.799 1.520 3534
1.837 5.891 1.524 4058
1.836 5.888 1.504 4018
1.825 5.855 1.478 2722
1.838 5.895 1.468 3577
1.841 5.906 1.452 4215
2.022 6.487 1.562 3374
2.026 6.498 1.544 3642
2.029 6.509 1.526 3151
2.031 6.513 1.506 3252
2.032 6.517 1.486 3340
2.033 6.521 1.466 6569
2.032 6.517 1.445 7429
2.033 6.521 1.425 5324
2.036 6.532 1.407 5618
2.037 6.535 1.387 4860
2.217 7.111 1.476 3604
2.218 7.115 1.454 3496
0.790 2.532 0.593 4053
2.362 7.576 1.493 6185
2.366 7.588 1.471 5844
2.374 7.614 1.452 3096
2.380 7.632 1.431 2165
2.534 8.128 1.490 1917
2.547 8.169 1.472 2341
2.548 8.173 1.447 2299
2.547 8.169 1.421 1499
2.891 9.272 1.566 2333
2.892 9.276 1.538 2982
2.893 9.280 1.510 2996
2.897 9.291 1.482 2674
2.898 9.295 1.454 2083
3.235 10.377 1.576 2142
3.239 10.389 1.545 2397
3.254 10.437 1.520 2937
3.253 10.434 1.487 3470
3.247 10.415 1.452 3220
3.246 10.411 1.420 2643
3.249 10.422 1.389 2403
3.574 11.462 1.479 2054
3.572 11.458 1.443 1471
3.578 11.477 1.410 1105
3.570 11.450 1.372 1148
3.639 11.672 1.360 1190
3.640 11.675 1.324 1227
3.585 11.498 1.271 1143
3.588 11.508 1.237 1050
3.591 11.519 1.202 696
3.254 10.437 1.070 910
3.257 10.448 1.039 1625
3.258 10.450 1.007 1922
3.256 10.445 0.975 1885
3.257 10.447 0.943 2245
3.258 10.449 0.911 2784
3.256 10.444 0.879 2997
3.200 10.265 0.835 2471
3.199 10.259 0.803 2181
3.197 10.254 0.771 1642
3.226 10.346 0.745 1300
3.224 10.340 0.713 1473
3.224 10.341 0.682 1721
3.199 10.260 0.646 2203
3.204 10.276 0.616 3447
3.204 10.278 0.585 3672
3.202 10.271 0.553 3425
3.193 10.242 0.521 2937
3.189 10.228 0.489 2759
3.192 10.237 0.458 2877
3.194 10.245 0.427 2834
3.194 10.246 0.396 2546
3.183 10.209 0.364 2308
3.181 10.202 0.333 2820
3.181 10.202 0.302 2862
3.181 10.203 0.271 2241
3.181 10.203 0.240 1576
0.745 2.388 0.155 1278
0.745 2.388 0.148 1459
0.745 2.388 0.141 1505
0.745 2.388 0.134 1465
0.745 2.388 0.127 1426
0.745 2.388 0.120 1310
0.745 2.388 0.113 1086
0.745 2.388 0.105 904
0.745 2.388 0.098 656
1.152 3.695 0.064 619
1.154 3.703 0.053 666
1.154 3.702 0.041 566
1.152 3.695 0.031 370
0.848 2.718 -0.104 290
0.847 2.718 -0.112 434
0.845 2.710 -0.119 575
0.845 2.709 -0.128 721
0.844 2.708 -0.136 721
0.844 2.707 -0.144 760
0.841 2.699 -0.151 823
0.839 2.691 -0.158 700
0.839 2.690 -0.166 596
0.838 2.689 -0.175 596
0.838 2.688 -0.183 709
0.689 2.178 1.759 5228
0.690 2.182 1.753 10456
0.691 2.187 1.746 10456
0.693 2.191 1.740 10323
0.694 2.196 1.733 10189
0.696 2.200 1.727 8802
0.697 2.205 1.720 7415
0.698 2.209 1.713 7415
0.721 2.282 1.756 9704
0.725 2.292 1.754 12348
0.726 2.297 1.747 12284
0.730 2.308 1.745 12389
0.731 2.312 1.738 9507
0.719 2.273 1.700 9480
0.718 2.271 1.689 9025
0.719 2.275 1.682 8632
0.721 2.279 1.675 8517
0.752 2.378 1.733 6496
0.753 2.383 1.726 5906
0.757 2.393 1.723 4648
0.766 2.423 1.733 3892
0.784 2.479 1.760 5117
0.785 2.483 1.753 7691
0.791 2.500 1.754 7582
0.794 2.511 1.750 7768
0.798 2.522 1.747 6067
0.773 2.443 1.685 5632
0.802 2.537 1.736 7122
0.806 2.548 1.732 9788
0.807 2.553 1.725 9692
0.811 2.564 1.721 9814
0.812 2.568 1.714 9889
0.813 2.572 1.706 9965
0.813 2.570 1.694 9802
0.824 2.607 1.706 8454
0.826 2.612 1.699 7947
0.858 2.714 1.750 8822
0.860 2.718 1.742 10038
0.859 2.716 1.730 12753
0.860 2.721 1.722 15480
0.864 2.732 1.717 13118
0.865 2.736 1.709 10921
0.869 2.747 1.705 9061
0.870 2.751 1.696 8611
0.869 2.749 1.684 10037
0.875 2.767 1.684 9382
0.880 2.784 1.683 9869
0.890 2.815 1.689 8879
0.902 2.853 1.700 10178
0.906 2.864 1.695 10662
0.892 2.821 1.660 8297
0.889 2.812 1.645 8649
0.888 2.810 1.632 7979
0.958 3.029 1.740 7564
0.923 2.919 1.669 8468
0.924 2.923 1.661 10049
0.928 2.934 1.655 9157
0.965 3.053 1.707 11879
0.967 3.057 1.697 15411
0.966 3.055 1.685 15745
0.969 3.066 1.679 15421
1.007 3.186 1.728 16540
1.011 3.197 1.722 16437
1.010 3.195 1.709 14604
1.007 3.185 1.693 11616
1.006 3.183 1.680 10337
1.008 3.187 1.670 13981
1.011 3.198 1.664 15866
1.017 3.216 1.661 12079
1.023 3.234 1.658 10865
1.022 3.231 1.645 8422
1.062 3.360 1.693 6517
1.064 3.364 1.683 5287
1.067 3.375 1.676 5041
1.069 3.379 1.666 5907
1.072 3.391 1.659 5268
1.102 3.485 1.689 6516
1.114 3.524 1.694 8830
1.116 3.528 1.684 9204
1.119 3.539 1.676 9846
1.125 3.558 1.672 9051
1.133 3.583 1.670 8770
1.139 3.601 1.665 8044
1.149 3.633 1.666 7668
1.157 3.658 1.664 10012
1.160 3.670 1.656 11781
1.159 3.667 1.642 12226
1.159 3.664 1.628 12590
1.160 3.668 1.617 8629
1.159 3.665 1.603 5376
1.207 3.817 1.651 6154
1.215 3.843 1.648 7865
1.216 3.847 1.637 6502
1.245 3.936 1.658 6327
1.253 3.961 1.654 7284
1.263 3.994 1.653 5938
1.278 4.041 1.658 4331
1.254 3.967 1.616 5436
1.251 3.957 1.599 4634
1.302 4.117 1.645 5491
1.303 4.121 1.632 7178
1.300 4.111 1.614 6751
1.331 4.208 1.635 8027
1.330 4.205 1.620 5128
1.360 4.302 1.640 5039
1.359 4.299 1.625 5379
1.390 4.397 1.644 5176
1.394 4.408 1.633 6696
1.397 4.419 1.622 9088
1.396 4.416 1.606 10284
1.398 4.420 1.593 7534
1.429 4.518 1.611 4116
1.430 4.522 1.597 4529
1.484 4.692 1.637 3934
1.487 4.703 1.625 4027
1.500 4.744 1.622 3421
1.504 4.755 1.610 3386
1.509 4.773 1.600 2586
1.557 4.922 1.630 2820
1.560 4.934 1.617 3343
1.525 4.822 1.567 3474
1.556 4.920 1.581 4457
1.559 4.931 1.568 5383
1.565 4.950 1.557 9265
1.569 4.961 1.544 11349
1.565 4.950 1.525 12463
1.564 4.947 1.508 17858
1.570 4.965 1.497 17109
1.574 4.976 1.484 15754
1.572 4.973 1.467 13586
1.571 4.969 1.450 9906
1.575 4.980 1.437 6984
1.578 4.991 1.424 4432
1.760 5.567 1.555 3509
1.764 5.578 1.540 4363
1.767 5.589 1.525 4548
1.773 5.608 1.512 3990
1.830 5.788 1.538 4711
1.831 5.792 1.520 4543
1.835 5.803 1.504 4060
1.841 5.821 1.490 4136
1.844 5.832 1.474 2949
1.864 5.895 1.470 2724
2.038 6.445 1.575 3889
2.046 6.471 1.560 3738
2.052 6.490 1.544 3048
2.063 6.523 1.530 2118
2.055 6.498 1.504 3091
2.056 6.501 1.485 4571
2.059 6.512 1.466 7627
2.058 6.509 1.445 8080
2.059 6.512 1.425 5824
2.063 6.523 1.407 6065
2.064 6.527 1.387 4910
0.797 2.519 0.607 4401
0.797 2.520 0.599 5180
0.797 2.522 0.592 5438
2.390 7.559 1.491 6633
2.392 7.563 1.468 5975
0.801 2.533 0.570 3041
2.507 7.928 1.483 2668
2.508 7.932 1.459 2364
2.580 8.159 1.472 2626
2.581 8.163 1.447 2640
2.773 8.771 1.518 1650
2.928 9.260 1.566 2235
2.929 9.264 1.538 2665
2.933 9.275 1.511 2611
2.934 9.279 1.482 2344
3.226 10.203 1.585 2424
3.081 9.743 1.490 2477
3.084 9.754 1.461 2196
3.296 10.424 1.520 2430
3.295 10.421 1.487 2829
3.291 10.409 1.453 2653
3.290 10.405 1.421 2315
3.289 10.401 1.388 2145
3.620 11.448 1.479 1657
3.621 11.451 1.444 1216
0.781 2.470 0.409 1157
0.781 2.471 0.401 1036
3.686 11.657 1.360 1241
3.685 11.653 1.324 1190
3.633 11.491 1.272 1187
3.637 11.501 1.237 1067
3.690 11.670 1.218 777
3.689 11.665 1.181 713
1.032 3.265 0.418 544
0.968 3.063 0.391 711
0.971 3.071 0.382 897
0.971 3.072 0.373 1083
0.971 3.072 0.364 1374
0.969 3.065 0.354 1489
3.251 10.282 0.837 2279
3.247 10.269 0.804 3201
3.241 10.248 0.772 3594
3.246 10.265 0.741 3867
3.249 10.274 0.710 3895
3.252 10.283 0.680 3522
3.254 10.292 0.649 2581
3.229 10.211 0.613 1916
3.224 10.197 0.582 2110
3.227 10.205 0.551 2672
3.227 10.207 0.520 2837
3.223 10.193 0.488 2451
3.221 10.186 0.457 1905
3.216 10.172 0.425 1634
3.214 10.165 0.394 1872
3.217 10.173 0.363 2188
3.219 10.181 0.333 2528
3.220 10.182 0.301 2878
3.222 10.190 0.271 2898
3.225 10.198 0.240 2571
3.225 10.198 0.209 1864
3.225 10.198 0.177 1157
0.754 2.385 0.141 777
0.754 2.385 0.134 788
0.754 2.385 0.127 799
0.754 2.385 0.120 759
0.754 2.385 0.113 664
0.754 2.385 0.105 564
0.754 2.385 0.098 428
1.169 3.698 0.064 372
1.169 3.698 0.053 330
1.171 3.704 0.008 312
1.171 3.704 -0.003 383
1.171 3.703 -0.015 390
1.169 3.695 -0.025 399
1.168 3.695 -0.037 341
1.168 3.694 -0.048 283
0.856 2.707 -0.111 253
0.856 2.706 -0.119 291
0.858 2.713 -0.128 332
0.858 2.712 -0.137 332
0.855 2.704 -0.144 367
0.855 2.703 -0.152 406
0.852 2.695 -0.159 428
0.849 2.686 -0.166 466
0.849 2.686 -0.175 466
0.849 2.685 -0.183 590
0.697 2.175 1.759 5354
0.699 2.180 1.753 10709
0.700 2.184 1.746 10709
0.702 2.188 1.740 10389
0.703 2.193 1.733 10068
0.705 2.197 1.727 8533
0.726 2.263 1.765 8566
0.727 2.268 1.759 8566
0.731 2.279 1.756 10864
0.734 2.289 1.754 13498
0.736 2.294 1.747 13398
0.739 2.305 1.745 13597
0.744 2.322 1.747 10117
0.752 2.345 1.753 8576
0.727 2.268 1.689 7936
0.729 2.272 1.682 7917
0.762 2.377 1.745 7853
0.762 2.375 1.733 6704
0.765 2.386 1.731 5603
0.768 2.397 1.728 5326
0.772 2.407 1.725 5194
0.777 2.425 1.726 5878
0.795 2.480 1.753 8780
0.799 2.491 1.749 9336
0.802 2.502 1.746 10301
0.808 2.519 1.747 7895
0.809 2.523 1.739 5875
0.813 2.534 1.736 7974
0.814 2.539 1.728 10141
0.817 2.550 1.725 9334
0.819 2.554 1.717 8584
0.820 2.558 1.709 7792
0.822 2.563 1.702 7000
0.821 2.560 1.690 7066
0.835 2.604 1.706 6191
0.866 2.699 1.754 5824
0.869 2.710 1.750 7764
0.871 2.715 1.742 8430
0.872 2.719 1.734 9898
0.871 2.717 1.722 11485
0.875 2.728 1.717 9560
0.876 2.733 1.709 7753
0.880 2.743 1.705 8176
0.887 2.768 1.708 10107
0.882 2.752 1.688 11373
0.890 2.776 1.691 11808
0.892 2.781 1.683 12624
0.906 2.825 1.697 10114
0.914 2.849 1.700 10682
0.917 2.860 1.695 11154
0.899 2.804 1.653 9494
0.898 2.802 1.641 9852
0.900 2.806 1.632 8706
0.968 3.018 1.736 9340
0.971 3.029 1.730 10420
0.971 3.027 1.718 10237
0.974 3.038 1.712 9345
0.978 3.049 1.707 12229
0.979 3.053 1.697 15973
0.980 3.058 1.688 16054
0.982 3.062 1.679 15725
1.020 3.182 1.728 17628
1.024 3.193 1.722 16888
1.025 3.197 1.712 12582
1.027 3.202 1.703 7250
1.015 3.165 1.673 5819
1.029 3.210 1.683 9304
1.035 3.228 1.680 11712
1.043 3.253 1.681 9798
1.044 3.257 1.671 8523
1.072 3.344 1.700 6987
1.078 3.362 1.696 8580
1.079 3.366 1.686 7055
1.079 3.364 1.673 6876
1.080 3.368 1.663 8080
1.084 3.379 1.656 6829
1.125 3.508 1.702 6018
1.128 3.519 1.694 8993
1.132 3.531 1.687 9754
1.131 3.528 1.673 10088
1.139 3.553 1.672 8604
1.145 3.571 1.667 8015
1.151 3.589 1.662 7193
1.163 3.629 1.666 6576
1.172 3.654 1.664 10561
1.177 3.672 1.659 13262
1.177 3.669 1.645 12683
1.173 3.659 1.628 13289
1.175 3.663 1.617 9978
1.176 3.668 1.606 5611
1.220 3.805 1.648 5808
1.231 3.838 1.648 7154
1.255 3.912 1.664 5446
1.260 3.931 1.658 6475
1.269 3.956 1.654 7269
1.272 3.968 1.645 5515
1.253 3.908 1.609 3943
1.259 3.926 1.602 4431
1.262 3.937 1.593 3941
1.321 4.119 1.647 6503
1.320 4.116 1.632 8261
1.321 4.120 1.620 8046
1.350 4.210 1.638 6466
1.315 4.100 1.584 4782
1.380 4.304 1.643 4198
1.372 4.279 1.620 4707
1.403 4.377 1.639 4960
1.407 4.388 1.628 5043
1.415 4.414 1.622 6569
1.414 4.411 1.606 7359
1.445 4.508 1.624 5372
1.449 4.519 1.613 7942
1.450 4.523 1.599 8907
1.452 4.527 1.585 8923
1.455 4.539 1.574 7162
1.457 4.543 1.560 5027
1.523 4.749 1.610 4506
1.524 4.753 1.595 3477
1.542 4.808 1.597 3167
1.545 4.819 1.584 3455
1.572 4.903 1.593 3497
1.578 4.921 1.583 4518
1.582 4.932 1.570 5541
1.585 4.944 1.557 9639
1.589 4.955 1.544 11853
1.588 4.951 1.527 11323
1.587 4.948 1.510 15663
1.590 4.959 1.497 15736
1.594 4.970 1.484 14528
1.592 4.966 1.467 11542
1.591 4.963 1.450 9568
1.600 4.988 1.441 7583
1.601 4.992 1.426 5201
1.780 5.552 1.553 3445
1.786 5.571 1.540 4403
1.790 5.582 1.525 5399
1.796 5.600 1.512 4747
1.853 5.780 1.538 5259
1.855 5.784 1.520 4542
1.858 5.795 1.504 4177
1.942 6.057 1.547 3839
1.941 6.053 1.527 3229
2.060 6.425 1.593 2517
2.064 6.437 1.575 4321
2.070 6.455 1.559 4186
2.074 6.467 1.540 3376
2.075 6.471 1.521 2757
2.076 6.474 1.501 3604
2.080 6.486 1.483 4407
2.083 6.497 1.465 7245
2.084 6.500 1.445 7865
2.085 6.504 1.425 5322
2.089 6.515 1.407 5035
2.090 6.518 1.387 3964
2.408 7.509 1.554 4400
2.406 7.505 1.530 3778
2.415 7.531 1.511 3779
2.418 7.542 1.490 6040
2.420 7.546 1.467 5392
2.414 7.527 1.440 2736
2.541 7.925 1.484 2836
2.540 7.922 1.459 2517
2.613 8.149 1.472 2386
2.614 8.152 1.447 2587
2.794 8.715 1.510 2309
2.965 9.248 1.566 2016
2.967 9.252 1.538 2202
3.116 9.719 1.579 2246
3.264 10.178 1.615 2623
3.265 10.182 1.584 2808
3.120 9.730 1.490 2868
3.124 9.742 1.461 2565
3.264 10.179 1.489 1756
3.291 10.265 1.469 2180
3.338 10.411 1.455 2078
3.335 10.400 1.422 1689
3.331 10.388 1.388 1445
3.603 11.238 1.456 1583
3.607 11.249 1.423 1736
3.608 11.253 1.388 1620
3.609 11.256 1.354 1197
3.731 11.635 1.359 1161
3.734 11.645 1.324 1103
3.682 11.483 1.272 1119
3.683 11.487 1.237 1015
3.735 11.647 1.217 754
3.709 11.568 1.174 609
3.710 11.570 1.139 653
0.981 3.059 0.391 743
0.981 3.060 0.382 904
0.984 3.068 0.373 988
3.287 10.250 0.898 1241
3.285 10.244 0.866 1330
3.288 10.254 0.836 1791
3.288 10.256 0.804 2521
3.289 10.258 0.773 2768
3.290 10.259 0.742 2331
3.293 10.268 0.711 1958
3.293 10.270 0.680 2015
3.296 10.279 0.649 1825
3.277 10.220 0.614 1814
3.275 10.214 0.583 2963
3.275 10.215 0.552 4316
3.276 10.216 0.521 5548
3.274 10.210 0.489 5432
3.272 10.203 0.458 4000
3.262 10.174 0.426 3606
3.262 10.174 0.395 4173
3.263 10.175 0.364 3366
3.265 10.183 0.333 2574
0.764 2.382 0.177 2869
0.764 2.382 0.170 3302
0.764 2.382 0.163 3735
0.764 2.382 0.155 4028
0.764 2.382 0.148 4306
0.761 2.375 0.141 4303
0.764 2.382 0.134 4128
0.764 2.382 0.127 3964
0.764 2.382 0.120 3635
0.764 2.382 0.113 3062
0.764 2.382 0.105 2624
0.764 2.382 0.098 1996
0.764 2.382 0.091 1562
0.764 2.382 0.084 1203
0.764 2.382 0.077 844
0.764 2.381 0.070 599
0.764 2.381 0.063 354
0.853 2.659 -0.180 261
0.706 2.172 1.759 5116
0.708 2.177 1.753 10232
0.709 2.181 1.746 10232
0.711 2.186 1.740 9889
0.712 2.190 1.733 9546
0.711 2.188 1.722 8156
0.735 2.261 1.765 8900
0.736 2.265 1.759 8900
0.740 2.276 1.756 11087
0.743 2.286 1.754 13569
0.745 2.291 1.747 13518
0.748 2.302 1.745 13769
0.754 2.319 1.747 10243
0.763 2.348 1.757 8970
0.767 2.359 1.755 7729
0.770 2.369 1.752 7615
0.772 2.374 1.745 8156
0.771 2.372 1.733 6771
0.775 2.383 1.731 5459
0.778 2.394 1.728 5919
0.782 2.404 1.725 6497
0.787 2.421 1.726 6735
0.803 2.470 1.748 9651
0.809 2.488 1.749 10651
0.812 2.498 1.746 12209
0.818 2.516 1.747 9401
0.819 2.520 1.739 7081
0.823 2.531 1.736 8969
0.824 2.535 1.728 10861
0.826 2.540 1.721 9763
0.827 2.544 1.713 8665
0.829 2.548 1.705 6973
0.855 2.631 1.746 5858
0.831 2.557 1.690 5490
0.833 2.561 1.682 4608
0.876 2.696 1.754 5171
0.880 2.707 1.750 6722
0.881 2.711 1.742 6987
0.883 2.716 1.734 7469
0.882 2.714 1.722 7973
0.886 2.725 1.717 6803
0.898 2.762 1.728 6515
0.899 2.766 1.720 8130
0.901 2.771 1.712 11244
0.902 2.775 1.703 12743
0.904 2.779 1.695 13338
0.905 2.784 1.687 13933
0.906 2.788 1.678 10805
0.925 2.845 1.700 10865
0.929 2.856 1.695 11189
0.908 2.794 1.649 10123
0.910 2.798 1.641 10015
0.976 3.003 1.741 9058
0.980 3.014 1.736 10580
0.981 3.019 1.727 11565
0.983 3.023 1.718 11136
0.986 3.034 1.712 9395
0.990 3.045 1.707 11715
0.991 3.049 1.697 15399
0.993 3.054 1.688 15543
0.994 3.058 1.679 15316
1.033 3.178 1.728 17312
1.037 3.189 1.722 16414
1.038 3.193 1.712 11646
1.044 3.211 1.710 7270
1.048 3.222 1.703 7705
1.049 3.227 1.693 10232
1.053 3.238 1.687 11239
1.056 3.249 1.681 8227
1.060 3.260 1.674 6599
1.086 3.340 1.700 7394
1.092 3.358 1.696 9446
1.093 3.362 1.686 8134
1.092 3.359 1.673 8361
1.094 3.364 1.663 9890
1.095 3.368 1.653 8242
1.141 3.510 1.705 6046
1.109 3.411 1.648 8762
1.112 3.422 1.640 11080
1.145 3.523 1.673 9158
1.151 3.541 1.668 7938
1.157 3.560 1.664 7226
1.163 3.578 1.659 6777
1.167 3.589 1.651 5918
1.189 3.656 1.667 9847
1.192 3.667 1.659 13506
1.194 3.671 1.648 12278
1.188 3.655 1.628 11922
1.189 3.659 1.617 9393
1.193 3.670 1.609 5301
1.236 3.800 1.648 5264
1.244 3.826 1.645 6058
1.273 3.914 1.667 4335
1.276 3.926 1.658 6191
1.282 3.944 1.652 6797
1.286 3.955 1.642 5345
1.273 3.917 1.614 4128
1.279 3.935 1.608 4449
1.334 4.102 1.657 3844
1.337 4.114 1.647 6583
1.339 4.118 1.635 8150
1.340 4.122 1.622 8248
1.339 4.119 1.607 6428
1.331 4.095 1.584 5018
1.402 4.313 1.648 3873
1.387 4.267 1.617 4339
1.421 4.371 1.639 5045
1.390 4.275 1.591 4500
1.433 4.408 1.622 4687
1.432 4.405 1.606 5099
1.466 4.509 1.627 6605
1.470 4.521 1.615 10280
1.469 4.517 1.599 11572
1.470 4.522 1.585 11805
1.474 4.533 1.574 9722
1.475 4.537 1.560 6663
1.542 4.743 1.610 4939
1.541 4.739 1.593 3861
1.561 4.801 1.597 3265
1.565 4.813 1.584 3346
1.599 4.918 1.600 3872
1.602 4.929 1.587 5161
1.604 4.933 1.572 5778
1.605 4.937 1.557 8336
1.609 4.948 1.544 9014
1.608 4.945 1.527 7768
1.606 4.941 1.510 11577
1.612 4.960 1.499 14375
1.616 4.971 1.486 14487
1.615 4.967 1.469 9055
1.611 4.956 1.450 6883
1.622 4.989 1.443 7176
1.621 4.985 1.426 5248
1.620 4.982 1.408 3534
1.806 5.556 1.538 4626
1.812 5.575 1.525 6032
1.821 5.600 1.514 5734
1.822 5.604 1.497 5354
1.823 5.608 1.480 5190
1.824 5.612 1.463 4153
1.966 6.049 1.547 3568
1.968 6.053 1.529 3044
2.089 6.424 1.594 2493
2.090 6.428 1.575 4036
2.094 6.440 1.557 4080
2.100 6.458 1.540 3746
2.101 6.462 1.521 4011
2.100 6.459 1.500 4472
2.103 6.470 1.481 3994
2.109 6.488 1.465 6257
2.111 6.492 1.445 7123
2.109 6.488 1.424 4348
2.245 6.906 1.485 3715
2.340 7.199 1.520 4045
2.438 7.499 1.554 4338
2.439 7.503 1.532 3800
2.366 7.277 1.466 3355
2.449 7.533 1.490 4811
2.448 7.529 1.466 4458
2.442 7.510 1.439 2640
2.573 7.915 1.484 2526
2.572 7.911 1.459 2218
2.825 8.688 1.562 1956
2.826 8.692 1.536 2236
2.827 8.696 1.509 2681
2.826 8.693 1.482 2236
3.152 9.695 1.607 2012
3.301 10.153 1.645 2225
3.305 10.165 1.615 2620
3.306 10.169 1.584 2748
3.159 9.718 1.490 2821
3.160 9.722 1.460 2662
3.305 10.166 1.489 1714
3.386 10.416 1.490 1735
3.387 10.420 1.458 2091
3.386 10.416 1.425 1541
3.645 11.212 1.489 1275
3.649 11.223 1.456 1888
3.652 11.235 1.423 2107
3.653 11.238 1.388 1948
3.655 11.241 1.354 1443
3.770 11.597 1.357 969
3.730 11.473 1.308 1044
3.728 11.469 1.272 1011
3.729 11.472 1.237 904
3.733 11.482 1.203 667
3.753 11.545 1.173 874
0.993 3.054 0.400 1269
0.993 3.055 0.391 2446
0.996 3.063 0.382 3135
0.996 3.064 0.373 3893
0.996 3.064 0.364 5271
0.996 3.065 0.355 6262
0.997 3.066 0.345 6633
0.997 3.066 0.336 6537
0.997 3.067 0.327 6033
0.997 3.067 0.318 4906
0.995 3.060 0.308 4217
0.997 3.068 0.299 3529
0.998 3.069 0.290 2283
3.306 10.169 0.613 1901
3.309 10.178 0.582 2256
3.314 10.194 0.551 2807
3.317 10.203 0.521 3638
3.317 10.204 0.489 3498
3.315 10.197 0.458 2983
3.306 10.168 0.426 2970
3.303 10.161 0.395 3659
3.304 10.162 0.364 3300
3.304 10.162 0.333 2940
3.301 10.155 0.301 2267
3.299 10.148 0.270 1378
3.294 10.134 0.239 1128
0.771 2.372 0.155 963
0.771 2.372 0.148 987
0.771 2.372 0.141 974
0.771 2.372 0.134 929
0.771 2.372 0.127 885
1.099 3.381 0.111 821
1.099 3.380 0.101 801
1.099 3.380 0.091 717
1.099 3.380 0.080 632
1.101 3.388 0.070 564
1.101 3.387 0.060 502
1.101 3.387 0.050 446
1.099 3.379 0.040 391
1.099 3.379 0.029 338
1.098 3.379 0.019 285
0.715 2.169 1.759 4820
0.717 2.174 1.753 9640
0.718 2.178 1.746 9640
0.720 2.183 1.740 9403
0.719 2.181 1.729 9182
0.716 2.173 1.713 8173
0.744 2.257 1.765 9300
0.746 2.262 1.759 9300
0.749 2.273 1.756 11431
0.751 2.277 1.750 13642
0.754 2.288 1.747 13602
0.758 2.298 1.745 13749
0.763 2.315 1.747 10090
0.773 2.345 1.757 9637
0.777 2.356 1.755 8584
0.780 2.366 1.752 8348
0.779 2.364 1.741 8711
0.783 2.375 1.738 7049
0.787 2.386 1.735 5503
0.790 2.397 1.732 6575
0.792 2.401 1.725 7686
0.797 2.418 1.726 7684
0.813 2.467 1.748 10995
0.819 2.484 1.749 12231
0.823 2.495 1.746 14226
0.826 2.506 1.743 10807
0.830 2.517 1.739 8025
0.833 2.528 1.736 9341
0.835 2.532 1.728 10671
0.836 2.536 1.721 9413
0.835 2.534 1.709 8271
0.837 2.539 1.701 6135
0.868 2.633 1.750 5431
0.870 2.638 1.742 4387
0.865 2.623 1.722 3523
0.888 2.692 1.754 4546
0.889 2.697 1.746 5940
0.890 2.701 1.738 5809
0.894 2.712 1.734 5096
0.900 2.730 1.733 4646
0.910 2.760 1.741 5708
0.914 2.771 1.736 7276
0.915 2.776 1.728 8660
0.914 2.773 1.716 11840
0.914 2.771 1.703 13761
0.915 2.776 1.695 13931
0.916 2.780 1.687 14101
0.918 2.784 1.678 10965
0.937 2.842 1.700 10943
0.938 2.846 1.691 11080
0.918 2.784 1.646 9766
0.921 2.794 1.641 9172
0.989 2.999 1.741 10269
0.992 3.010 1.736 11937
0.994 3.014 1.727 12627
0.995 3.019 1.718 11571
0.999 3.030 1.712 9164
1.007 3.054 1.714 11268
1.006 3.052 1.701 14281
1.005 3.050 1.688 14542
1.007 3.054 1.679 14731
1.046 3.173 1.728 16000
1.050 3.184 1.722 15455
1.053 3.196 1.716 11602
1.057 3.207 1.710 10171
1.061 3.218 1.703 12363
1.062 3.222 1.693 13399
1.066 3.233 1.687 11882
1.070 3.244 1.681 7277
1.094 3.317 1.704 5912
1.100 3.335 1.700 7294
1.105 3.353 1.696 9554
1.107 3.358 1.686 9043
1.104 3.348 1.670 10462
1.107 3.359 1.663 12485
1.107 3.356 1.649 10436
1.110 3.368 1.642 6854
1.128 3.420 1.654 9520
1.129 3.424 1.644 11423
1.135 3.442 1.639 7635
1.168 3.544 1.672 7131
1.172 3.555 1.664 6377
1.178 3.573 1.659 6556
1.179 3.577 1.648 6259
1.201 3.644 1.664 8257
1.207 3.662 1.659 12458
1.211 3.673 1.651 10773
1.203 3.650 1.628 8744
1.207 3.661 1.620 6859
1.247 3.784 1.657 4279
1.253 3.802 1.651 4654
1.255 3.806 1.640 4866
1.254 3.804 1.625 3236
1.292 3.920 1.658 6004
1.294 3.925 1.646 6196
1.288 3.908 1.626 5321
1.299 3.940 1.625 5556
1.303 3.951 1.616 5269
1.351 4.097 1.657 3866
1.354 4.108 1.647 6219
1.356 4.112 1.635 7616
1.357 4.116 1.622 7764
1.358 4.121 1.610 6072
1.350 4.096 1.587 4544
1.422 4.314 1.650 4088
1.405 4.261 1.617 3938
1.439 4.365 1.639 4498
1.407 4.269 1.591 3719
1.451 4.402 1.622 3623
1.483 4.499 1.640 3846
1.485 4.503 1.627 6505
1.488 4.514 1.615 10727
1.487 4.511 1.599 12439
1.489 4.515 1.585 12748
1.492 4.527 1.574 10615
1.494 4.531 1.560 7095
1.561 4.736 1.610 5283
1.563 4.740 1.595 4409
1.576 4.780 1.592 3622
1.587 4.813 1.586 3254
1.621 4.918 1.602 4583
1.628 4.937 1.591 6577
1.626 4.934 1.574 6669
1.628 4.938 1.559 5939
1.646 4.992 1.559 5076
1.640 4.975 1.537 4798
1.634 4.957 1.516 7417
1.635 4.960 1.501 13322
1.639 4.971 1.488 16445
1.640 4.975 1.473 10714
1.644 4.986 1.460 6032
1.645 4.990 1.445 5709
1.644 4.986 1.427 4470
1.823 5.530 1.552 3769
1.827 5.541 1.537 5671
1.835 5.567 1.525 6907
1.844 5.593 1.514 6917
1.845 5.597 1.497 6909
1.846 5.600 1.480 7160
1.847 5.604 1.463 5914
1.849 5.608 1.445 4072
1.952 5.920 1.500 2692
2.021 6.129 1.529 3151
2.119 6.427 1.576 3387
2.026 6.144 1.493 4143
2.124 6.442 1.539 3563
2.127 6.453 1.521 4842
2.126 6.450 1.500 5219
2.130 6.461 1.481 4242
2.136 6.479 1.465 5517
2.137 6.483 1.445 6254
2.138 6.487 1.425 3399
2.276 6.904 1.487 3301
2.370 7.189 1.520 4026
2.376 7.207 1.501 3751
2.392 7.256 1.487 3395
2.396 7.267 1.466 3274
2.399 7.278 1.446 3514
2.476 7.511 1.464 3105
2.473 7.500 1.439 2162
2.603 7.897 1.483 1672
2.712 8.227 1.514 1804
2.860 8.677 1.562 1876
2.859 8.673 1.535 2306
2.863 8.685 1.509 2602
2.864 8.688 1.483 2167
3.194 9.689 1.608 1907
3.195 9.693 1.579 2084
2.892 8.774 1.414 2415
1.172 3.554 0.640 2383
1.172 3.556 0.629 2982
1.173 3.557 0.619 3027
1.176 3.566 0.609 2742
1.176 3.567 0.598 2359
3.433 10.413 1.459 2563
3.434 10.417 1.427 2110
3.694 11.205 1.490 1360
3.697 11.216 1.457 2019
3.699 11.219 1.423 2284
3.700 11.223 1.388 2084
3.701 11.226 1.354 1607
3.702 11.230 1.320 1022
3.777 11.457 1.308 934
3.778 11.461 1.273 904
3.779 11.464 1.238 831
3.795 11.512 1.207 754
3.803 11.537 1.174 1114
1.006 3.050 0.400 1128
1.006 3.051 0.391 2168
1.008 3.059 0.382 2779
1.009 3.060 0.373 3506
1.009 3.060 0.364 4882
1.009 3.061 0.355 6014
1.009 3.061 0.345 6498
1.009 3.062 0.336 6607
1.010 3.063 0.327 6436
1.010 3.063 0.318 5534
1.007 3.056 0.308 4922
1.010 3.064 0.299 4280
1.010 3.064 0.290 2999
1.010 3.065 0.281 2352
1.110 3.366 0.284 2156
1.110 3.366 0.274 2387
1.110 3.366 0.264 2529
1.110 3.367 0.254 2575
1.110 3.367 0.244 2482
1.110 3.367 0.234 2377
1.110 3.368 0.223 2155
3.358 10.186 0.365 1753
3.353 10.171 0.333 2306
3.353 10.172 0.302 2460
3.351 10.165 0.271 2025
3.354 10.172 0.240 1399
3.319 10.067 0.208 1122
3.316 10.060 0.177 1045
3.319 10.068 0.146 1049
3.321 10.075 0.115 1081
3.321 10.075 0.085 953
0.783 2.376 0.120 948
0.783 2.376 0.113 1016
0.783 2.376 0.105 973
0.783 2.376 0.098 805
0.783 2.376 0.091 661
0.783 2.376 0.084 515
1.115 3.383 0.050 377
1.115 3.382 0.039 396
1.112 3.374 0.029 369
1.112 3.374 0.019 348
1.112 3.374 0.009 281
4.473 13.569 -1.143 285
0.721 2.161 1.755 4263
0.722 2.165 1.748 8526
0.724 2.170 1.742 8526
0.725 2.174 1.735 8488
0.727 2.178 1.729 8451
0.720 2.158 1.704 7962
0.754 2.261 1.770 9309
0.756 2.266 1.763 9309
0.757 2.270 1.756 11497
0.759 2.275 1.750 13685
0.762 2.285 1.747 13364
0.764 2.290 1.740 13218
0.769 2.306 1.742 9253
0.783 2.348 1.762 9920
0.787 2.359 1.759 9094
0.788 2.364 1.752 8683
0.790 2.368 1.745 8832
0.791 2.372 1.738 6939
0.797 2.389 1.739 5233
0.798 2.394 1.732 6609
0.800 2.398 1.725 7985
0.808 2.422 1.730 8006
0.820 2.458 1.744 11893
0.828 2.481 1.749 13178
0.831 2.492 1.746 15416
0.835 2.503 1.743 11598
0.838 2.514 1.739 8450
0.842 2.525 1.736 8987
0.843 2.529 1.728 9527
0.843 2.527 1.717 8462
0.840 2.518 1.701 7683
0.841 2.523 1.693 6265
0.879 2.637 1.754 5224
0.881 2.641 1.746 4195
0.882 2.646 1.738 3166
0.897 2.689 1.754 4209
0.896 2.687 1.742 5900
0.895 2.685 1.730 5797
0.897 2.689 1.722 4089
0.922 2.766 1.757 3922
0.924 2.770 1.748 6226
0.925 2.775 1.740 8530
0.927 2.779 1.732 9130
0.924 2.770 1.716 11284
0.923 2.768 1.703 13136
0.925 2.772 1.695 12950
0.926 2.777 1.687 12764
0.927 2.781 1.678 10093
0.947 2.838 1.700 10643
0.948 2.843 1.691 10711
0.929 2.787 1.649 8301
1.000 2.998 1.754 8367
1.001 3.002 1.745 10908
1.003 3.007 1.736 12493
1.004 3.011 1.727 12771
1.006 3.015 1.718 11135
1.009 3.026 1.712 8680
1.018 3.051 1.714 10661
1.019 3.055 1.704 12654
1.018 3.053 1.692 13001
1.020 3.057 1.682 13983
1.023 3.068 1.677 14830
1.061 3.181 1.722 13697
1.065 3.192 1.716 11411
1.068 3.203 1.710 12484
1.072 3.214 1.703 15917
1.073 3.219 1.693 16120
1.077 3.230 1.687 13295
1.079 3.234 1.677 8045
1.082 3.245 1.671 6188
1.111 3.331 1.700 6828
1.117 3.349 1.696 8397
1.118 3.354 1.686 8827
1.115 3.344 1.670 11757
1.117 3.348 1.660 14360
1.118 3.353 1.649 12359
1.117 3.350 1.636 8160
1.142 3.423 1.657 9347
1.141 3.420 1.644 10414
1.149 3.445 1.642 7024
1.180 3.540 1.672 6538
1.184 3.551 1.664 5798
1.190 3.569 1.659 6507
1.194 3.580 1.651 6783
1.214 3.640 1.664 7014
1.220 3.658 1.659 10387
1.226 3.676 1.654 8717
1.241 3.722 1.660 6284
1.245 3.734 1.651 5659
1.261 3.780 1.657 3647
1.276 3.826 1.663 4461
1.261 3.781 1.631 4606
1.262 3.785 1.620 3509
1.306 3.916 1.658 6257
1.303 3.906 1.641 6292
1.299 3.896 1.623 5880
1.315 3.943 1.628 6467
1.319 3.954 1.619 6044
1.334 4.000 1.622 4051
1.366 4.096 1.645 5838
1.368 4.101 1.632 7250
1.374 4.119 1.625 6773
1.375 4.123 1.612 4932
1.443 4.326 1.671 3677
1.437 4.309 1.650 4205
1.436 4.306 1.635 3994
1.454 4.360 1.639 3456
1.463 4.386 1.633 3462
1.466 4.397 1.622 3565
1.463 4.387 1.604 3088
1.498 4.491 1.624 4754
1.504 4.509 1.615 8503
1.503 4.506 1.599 10476
1.504 4.510 1.585 10822
1.508 4.521 1.574 9144
1.509 4.525 1.560 5957
1.578 4.731 1.610 5602
1.579 4.735 1.595 4847
1.592 4.775 1.592 3755
1.603 4.808 1.586 3541
1.641 4.920 1.604 4351
1.645 4.931 1.591 7190
1.648 4.943 1.579 7761
1.655 4.961 1.568 7103
1.653 4.958 1.551 7707
1.652 4.954 1.533 7290
1.651 4.951 1.516 6808
1.652 4.955 1.501 11856
1.656 4.966 1.488 16712
1.657 4.969 1.473 12103
1.661 4.980 1.460 5834
1.662 4.984 1.445 3424
1.824 5.469 1.555 3042
1.842 5.524 1.552 4147
1.846 5.535 1.537 6437
1.854 5.561 1.525 7047
1.863 5.586 1.514 6940
1.864 5.590 1.497 6929
1.866 5.594 1.480 7164
1.867 5.598 1.463 6009
1.868 5.601 1.445 4166
1.974 5.920 1.502 3179
2.039 6.115 1.527 3288
2.043 6.126 1.510 3450
2.047 6.137 1.493 4111
2.046 6.133 1.473 3152
2.150 6.446 1.521 4481
2.151 6.450 1.501 5251
2.155 6.461 1.483 4815
2.158 6.472 1.465 5263
2.160 6.476 1.445 5530
0.874 2.620 0.653 3101
2.425 7.273 1.561 2883
2.387 7.158 1.516 4137
2.384 7.147 1.491 4522
2.385 7.151 1.469 3497
2.421 7.258 1.466 2689
2.424 7.269 1.446 2864
2.428 7.280 1.425 2352
2.560 7.677 1.471 1853
2.739 8.214 1.539 1771
2.741 8.218 1.514 2133
2.742 8.222 1.489 1979
2.857 8.567 1.519 2280
2.858 8.571 1.493 2540
2.862 8.582 1.468 2201
2.858 8.571 1.439 2007
3.231 9.689 1.580 2028
2.923 8.764 1.414 2266
1.184 3.550 0.640 2529
1.185 3.552 0.629 2297
3.237 9.705 1.461 2444
3.235 9.701 1.430 2031
3.475 10.420 1.494 2366
3.471 10.409 1.460 2832
3.470 10.405 1.427 2585
3.735 11.199 1.491 1531
3.736 11.203 1.457 1916
3.737 11.207 1.423 2135
3.739 11.210 1.388 1908
3.742 11.221 1.355 1525
3.741 11.217 1.320 1027
3.817 11.444 1.308 774
3.818 11.447 1.273 666
3.879 11.630 1.255 744
3.840 11.513 1.209 748
3.841 11.516 1.173 1137
3.844 11.527 1.139 958
1.016 3.047 0.391 908
1.019 3.055 0.382 1155
1.019 3.056 0.373 1350
1.019 3.057 0.364 1631
1.020 3.057 0.355 1691
1.020 3.058 0.345 1666
1.018 3.051 0.336 1524
3.393 10.174 0.770 1448
3.396 10.183 0.740 1321
3.392 10.169 0.708 1151
1.121 3.361 0.315 1266
1.121 3.361 0.305 1782
1.121 3.361 0.295 2103
1.121 3.362 0.284 2311
1.121 3.362 0.274 2571
1.121 3.363 0.264 2720
1.122 3.363 0.254 2734
1.122 3.363 0.244 2588
3.378 10.128 0.426 2509
3.375 10.121 0.394 2630
3.376 10.121 0.363 2282
3.378 10.130 0.333 1963
3.376 10.123 0.301 1714
3.356 10.063 0.270 1739
3.354 10.056 0.239 1998
3.354 10.056 0.208 1931
3.354 10.056 0.177 1863
3.354 10.056 0.146 1812
3.354 10.056 0.116 1761
3.356 10.064 0.085 1472
3.356 10.063 0.054 946
1.122 3.365 0.101 908
1.122 3.364 0.091 865
1.122 3.364 0.081 823
1.122 3.364 0.070 652
1.124 3.371 0.060 495
1.127 3.379 0.050 364
1.129 3.386 0.039 253
0.730 2.157 1.755 3637
0.732 2.162 1.748 7274
0.733 2.166 1.742 7274
0.735 2.171 1.735 7467
0.732 2.163 1.719 7686
0.730 2.155 1.704 7518
0.764 2.258 1.770 9055
0.766 2.262 1.763 9055
0.767 2.267 1.756 11297
0.769 2.271 1.750 13539
0.770 2.276 1.743 13127
0.774 2.286 1.740 12846
0.775 2.291 1.733 8635
0.796 2.351 1.766 10093
0.797 2.356 1.759 9518
0.801 2.366 1.756 8917
0.800 2.364 1.745 8792
0.802 2.369 1.738 6713
0.808 2.386 1.739 4813
0.809 2.390 1.732 6134
0.811 2.395 1.725 7456
0.825 2.437 1.743 8304
0.831 2.454 1.744 12648
0.839 2.478 1.749 13980
0.842 2.488 1.746 16329
0.846 2.499 1.743 12193
0.852 2.516 1.744 8803
0.853 2.521 1.736 8620
0.855 2.525 1.728 8437
0.852 2.517 1.713 7440
0.849 2.508 1.697 7284
0.853 2.519 1.693 6444
0.856 2.530 1.690 5735
0.893 2.637 1.746 4487
0.888 2.622 1.726 3579
0.902 2.666 1.742 4320
0.904 2.670 1.734 6511
0.903 2.668 1.722 7078
0.902 2.666 1.710 5842
0.904 2.670 1.702 4703
0.936 2.766 1.748 6526
0.938 2.770 1.740 9313
0.939 2.775 1.732 9224
0.936 2.766 1.716 9876
0.933 2.757 1.700 11102
0.937 2.768 1.695 10696
0.939 2.772 1.687 10304
0.951 2.810 1.697 8620
0.959 2.834 1.700 10238
0.961 2.838 1.691 10288
0.958 2.829 1.675 7718
1.016 3.000 1.758 8852
1.015 2.998 1.745 11143
1.016 3.002 1.736 12295
1.020 3.013 1.730 11859
1.021 3.018 1.721 9669
1.028 3.035 1.719 8144
1.034 3.053 1.717 10410
1.033 3.051 1.704 11536
1.034 3.055 1.695 11747
1.036 3.059 1.686 12979
