5.180 6.304 1.726 2657
5.188 6.313 1.704 3026
5.191 6.317 1.681 2146
5.267 6.410 1.679 1380
5.364 6.528 1.682 1738
5.446 6.628 1.680 1811
5.662 6.890 1.714 1671
5.675 6.906 1.691 1795
5.593 6.807 1.643 1828
5.740 6.985 1.655 1585
6.010 7.314 1.699 1653
6.003 7.306 1.669 1822
6.294 7.659 1.714 1382
6.386 7.772 1.707 1259
6.126 7.455 1.614 1500
6.128 7.458 1.586 1400
6.599 8.030 1.667 1340
6.870 8.360 1.698 1502
6.888 8.382 1.670 1439
6.706 8.161 1.598 1533
6.704 8.159 1.566 1661
7.429 9.041 1.687 1727
7.432 9.044 1.653 1634
7.440 9.054 1.620 1110
7.552 9.191 1.607 904
7.590 9.236 1.579 1177
7.592 9.240 1.544 1270
8.539 10.391 1.680 907
8.861 10.784 1.698 822
9.099 11.073 1.697 1022
9.107 11.082 1.657 1033
9.109 11.086 1.615 735
8.917 10.852 1.542 576
8.935 10.873 1.504 652
8.937 10.876 1.463 626
8.940 10.879 1.422 517
8.942 10.882 1.381 383
0.982 1.195 0.258 287
0.982 1.196 0.254 440
0.983 1.196 0.250 522
0.988 1.202 0.246 876
0.988 1.202 0.241 1611
0.988 1.203 0.237 2169
0.988 1.203 0.233 2163
0.984 1.197 0.228 1918
0.984 1.197 0.223 1459
0.979 1.191 0.219 934
0.974 1.185 0.214 818
0.974 1.186 0.210 880
0.979 1.192 0.206 751
0.733 0.892 0.185 511
0.733 0.893 0.182 433
0.734 0.893 0.179 315
0.749 0.911 0.167 366
0.739 0.899 0.163 471
0.739 0.899 0.160 473
0.734 0.893 0.156 439
0.729 0.887 0.153 462
0.809 0.985 0.151 569
0.809 0.985 0.147 753
0.734 0.893 0.143 917
0.719 0.875 0.140 1232
0.724 0.881 0.137 2581
0.734 0.893 0.134 4951
0.729 0.887 0.131 6796
0.729 0.887 0.127 7078
0.729 0.887 0.124 6563
0.734 0.893 0.121 9104
0.734 0.893 0.118 10918
0.734 0.893 0.115 10127
0.809 0.985 0.108 9029
0.809 0.985 0.105 11141
0.809 0.984 0.101 13193
0.809 0.984 0.098 14973
0.809 0.984 0.094 16752
0.809 0.984 0.090 17525
0.804 0.978 0.087 17873
0.803 0.978 0.084 17345
0.803 0.978 0.080 16555
0.803 0.978 0.077 14860
0.808 0.984 0.073 12039
0.803 0.977 0.070 10055
0.803 0.977 0.066 8028
0.803 0.977 0.063 6062
0.803 0.977 0.059 4608
0.802 0.977 0.055 3050
0.802 0.976 0.052 2038
0.797 0.970 0.049 1103
0.797 0.970 0.046 780
0.742 0.903 0.049 745
0.736 0.896 0.046 794
0.736 0.896 0.043 813
0.731 0.890 0.041 861
0.731 0.890 0.038 887
0.731 0.889 0.034 982
0.731 0.889 0.031 1114
0.730 0.889 0.028 1379
0.725 0.882 0.026 1646
0.725 0.882 0.022 2460
0.725 0.882 0.019 3274
0.724 0.882 0.016 3118
0.719 0.875 0.014 4187
1.499 1.807 1.806 4670
1.502 1.811 1.799 9341
1.509 1.820 1.797 9376
1.521 1.833 1.800 9044
1.532 1.847 1.802 9445
1.539 1.856 1.800 10413
1.546 1.865 1.797 11861
1.549 1.868 1.790 11861
1.548 1.867 1.779 10282
1.539 1.856 1.759 9650
1.554 1.874 1.765 9250
1.558 1.878 1.758 9677
1.565 1.887 1.756 7439
1.626 1.961 1.810 6716
1.630 1.965 1.803 6716
1.633 1.969 1.796 8250
1.636 1.972 1.788 9749
1.635 1.971 1.777 11700
1.642 1.980 1.774 13638
1.645 1.983 1.766 12098
1.652 1.992 1.763 10880
1.655 1.996 1.756 9166
1.671 2.015 1.761 7732
1.687 2.034 1.766 10651
1.694 2.043 1.763 14344
1.693 2.041 1.751 13089
1.696 2.045 1.744 11912
1.699 2.048 1.736 11430
1.702 2.052 1.728 10947
1.709 2.061 1.725 12669
1.712 2.064 1.717 14440
1.719 2.073 1.714 13273
1.727 2.082 1.710 12321
1.734 2.091 1.706 10716
1.759 2.121 1.718 11111
1.766 2.129 1.714 11098
1.778 2.143 1.714 8675
1.785 2.152 1.710 5807
1.788 2.156 1.702 7154
1.782 2.149 1.687 8795
1.785 2.152 1.679 9089
1.788 2.156 1.671 9384
1.791 2.159 1.663 7305
1.851 2.232 1.704 4726
1.889 2.278 1.726 4398
1.897 2.287 1.721 4169
1.851 2.232 1.672 4668
1.929 2.326 1.727 4531
1.932 2.330 1.718 5853
1.904 2.296 1.684 6513
1.902 2.294 1.671 8581
1.959 2.362 1.707 13130
1.966 2.371 1.701 15460
1.969 2.374 1.693 15381
1.972 2.378 1.684 12577
1.975 2.381 1.675 9852
1.978 2.385 1.666 14791
1.985 2.394 1.661 19923
1.988 2.397 1.652 20145
2.068 2.494 1.702 18078
2.071 2.497 1.693 26879
2.074 2.501 1.683 30641
2.077 2.504 1.674 31981
2.080 2.507 1.665 31760
2.082 2.511 1.655 27010
2.085 2.514 1.646 23822
2.088 2.518 1.637 21042
2.086 2.515 1.624 15121
2.190 2.641 1.687 12686
2.193 2.644 1.677 12422
2.191 2.642 1.664 10802
2.180 2.629 1.645 9558
2.178 2.627 1.632 8635
2.306 2.780 1.708 11099
2.309 2.784 1.698 12979
2.326 2.804 1.697 13565
2.329 2.808 1.686 14389
2.331 2.811 1.676 16664
2.339 2.820 1.668 20213
2.346 2.829 1.661 17103
2.349 2.833 1.650 11902
2.352 2.836 1.640 10503
2.439 2.941 1.683 15196
2.447 2.950 1.675 17444
2.454 2.959 1.667 14535
2.452 2.957 1.653 9544
2.446 2.949 1.636 7055
2.613 3.151 1.726 5790
2.432 2.933 1.602 5773
2.440 2.942 1.594 5271
2.612 3.150 1.685 6595
2.611 3.148 1.671 14385
2.613 3.151 1.659 17778
2.621 3.160 1.650 13258
2.624 3.164 1.638 12579
2.627 3.167 1.626 14155
2.629 3.170 1.614 9530
2.627 3.168 1.600 6160
2.616 3.154 1.580 6233
2.800 3.376 1.668 6612
2.802 3.379 1.656 8218
2.901 3.497 1.695 10371
2.904 3.501 1.682 11455
2.906 3.504 1.669 11661
2.904 3.502 1.653 11673
2.907 3.505 1.640 9783
2.972 3.584 1.659 7180
2.975 3.587 1.645 6835
3.084 3.718 1.686 6065
2.976 3.588 1.616 4916
3.200 3.859 1.713 3395
3.136 3.781 1.665 4508
3.139 3.784 1.651 5497
3.141 3.788 1.637 2694
3.231 3.896 1.664 3730
3.244 3.911 1.654 7094
3.251 3.920 1.642 10394
3.249 3.918 1.625 8768
3.237 3.904 1.603 6584
3.250 3.919 1.593 5313
3.277 3.951 1.589 5607
3.289 3.966 1.579 6186
3.346 4.034 1.587 5123
3.358 4.049 1.576 5151
3.366 4.058 1.563 4554
3.729 4.497 1.700 5640
3.732 4.500 1.683 6461
3.813 4.598 1.699 8893
3.816 4.601 1.682 7921
3.814 4.599 1.662 8457
3.812 4.596 1.643 9573
3.815 4.600 1.626 9728
3.817 4.603 1.608 9188
3.830 4.618 1.595 8409
3.823 4.609 1.574 7369
4.081 4.921 1.652 5401
4.089 4.930 1.635 4706
4.092 4.934 1.617 3855
4.282 5.163 1.665 2690
4.506 5.433 1.725 2548
4.519 5.449 1.708 3168
4.532 5.464 1.691 2663
4.545 5.480 1.673 2086
4.745 5.721 1.719 1474
4.748 5.725 1.697 1922
4.870 5.872 1.715 2384
4.882 5.887 1.696 1882
4.900 5.908 1.678 1877
5.200 6.270 1.749 1902
5.208 6.280 1.726 2704
5.211 6.284 1.703 2947
5.209 6.281 1.678 1920
5.386 6.494 1.705 1439
5.309 6.402 1.657 1981
5.476 6.603 1.680 1799
5.554 6.696 1.676 1665
5.562 6.706 1.652 1662
5.739 6.919 1.673 1385
5.771 6.959 1.655 1826
6.038 7.281 1.697 1867
6.036 7.278 1.669 2106
6.324 7.625 1.712 1563
6.601 7.959 1.751 1476
6.160 7.427 1.614 1517
6.617 7.979 1.693 1409
6.635 8.000 1.667 1407
6.903 8.323 1.697 1736
6.926 8.351 1.670 1559
6.738 8.125 1.597 1667
6.736 8.122 1.565 1731
7.615 9.182 1.717 1714
7.603 9.168 1.679 1549
7.596 9.159 1.642 1169
7.594 9.156 1.607 862
7.627 9.196 1.578 1119
7.629 9.199 1.543 1222
8.917 10.752 1.740 939
8.915 10.749 1.699 924
9.144 11.025 1.697 911
9.157 11.041 1.657 919
8.954 10.796 1.582 672
8.961 10.805 1.542 568
8.974 10.820 1.502 523
8.986 10.835 1.463 495
8.994 10.844 1.423 389
8.991 10.841 1.381 280
1.008 1.215 0.256 407
1.003 1.210 0.251 626
0.998 1.204 0.246 1006
0.999 1.204 0.242 1821
0.994 1.198 0.237 2358
0.989 1.192 0.232 2249
0.979 1.180 0.227 1719
0.974 1.174 0.222 1188
0.974 1.175 0.218 1158
0.974 1.175 0.214 1321
0.969 1.169 0.209 1114
0.970 1.169 0.205 768
0.980 1.181 0.201 776
0.980 1.181 0.197 1025
0.980 1.182 0.192 1066
0.975 1.176 0.188 759
0.975 1.176 0.183 517
0.975 1.176 0.179 314
0.677 0.816 0.164 267
0.723 0.871 0.162 374
0.738 0.890 0.160 550
0.738 0.890 0.156 606
0.733 0.884 0.153 602
0.728 0.878 0.150 596
0.723 0.872 0.147 968
0.723 0.872 0.143 1795
0.723 0.872 0.140 2494
0.723 0.872 0.137 3697
0.728 0.878 0.134 5193
0.728 0.878 0.131 6541
0.728 0.878 0.128 7849
0.723 0.871 0.124 8327
0.728 0.878 0.121 11749
0.728 0.877 0.118 13616
0.718 0.865 0.115 13049
0.728 0.877 0.112 15620
0.733 0.883 0.108 17659
0.733 0.883 0.105 15557
0.733 0.883 0.102 13454
0.732 0.883 0.099 10662
0.732 0.883 0.096 7902
0.732 0.883 0.092 6934
0.813 0.980 0.083 4586
0.813 0.980 0.080 5105
0.813 0.980 0.076 5127
0.813 0.980 0.073 4651
0.813 0.980 0.069 4295
0.812 0.980 0.066 3652
0.807 0.973 0.063 3002
0.807 0.973 0.059 2396
0.807 0.973 0.055 1705
0.807 0.973 0.052 1197
0.686 0.827 0.063 933
0.696 0.839 0.058 1170
0.700 0.845 0.055 1332
0.715 0.863 0.050 1511
0.735 0.887 0.044 1698
0.720 0.868 0.043 2192
0.715 0.862 0.040 2459
0.715 0.862 0.037 2147
0.735 0.886 0.031 1903
0.724 0.873 0.030 2837
0.724 0.873 0.026 3836
0.724 0.873 0.023 3754
0.724 0.873 0.020 3672
0.718 0.866 0.018 2778
0.708 0.854 0.017 3117
1.506 1.802 1.806 4466
1.509 1.805 1.799 8933
1.516 1.814 1.797 9042
1.528 1.828 1.800 9163
1.539 1.841 1.802 10177
1.546 1.850 1.800 12361
1.549 1.854 1.793 14706
1.552 1.857 1.786 14706
1.551 1.856 1.774 13181
1.550 1.855 1.763 12350
1.557 1.863 1.761 11179
1.560 1.867 1.754 10303
1.568 1.876 1.751 8374
1.625 1.945 1.801 6826
1.629 1.949 1.794 6826
1.636 1.957 1.791 8046
1.643 1.966 1.788 9430
1.642 1.965 1.777 11058
1.649 1.974 1.774 12649
1.652 1.977 1.766 11005
1.660 1.986 1.763 9540
1.663 1.990 1.756 8772
1.674 2.003 1.757 8189
1.690 2.022 1.762 10674
1.698 2.031 1.759 14226
1.701 2.035 1.751 13223
1.695 2.028 1.735 12564
1.702 2.037 1.732 10422
1.710 2.046 1.728 8599
1.717 2.054 1.725 10843
1.724 2.063 1.721 13469
1.727 2.067 1.714 12259
1.735 2.075 1.710 11108
1.742 2.084 1.706 9648
1.767 2.114 1.718 10772
1.774 2.123 1.714 11009
1.786 2.137 1.714 8095
1.762 2.109 1.683 5694
1.796 2.149 1.702 6460
1.795 2.147 1.690 8076
1.797 2.151 1.682 8225
1.800 2.154 1.674 8373
1.848 2.211 1.705 6142
1.855 2.219 1.700 4988
1.898 2.271 1.726 5288
1.901 2.275 1.718 4994
1.864 2.230 1.675 5476
1.867 2.233 1.667 4826
1.946 2.328 1.722 5374
1.908 2.283 1.680 7010
1.911 2.287 1.671 9304
1.968 2.355 1.707 12659
1.975 2.364 1.701 15334
1.978 2.367 1.693 15773
1.981 2.371 1.684 13460
1.984 2.374 1.675 10707
1.987 2.377 1.666 14789
1.990 2.381 1.657 18478
1.997 2.390 1.652 18141
2.073 2.480 1.699 17055
2.080 2.489 1.693 25117
2.083 2.493 1.683 28267
2.086 2.496 1.674 29938
2.089 2.500 1.665 30244
2.092 2.503 1.655 25855
2.095 2.506 1.646 22831
2.097 2.510 1.637 19899
2.096 2.508 1.624 13931
2.200 2.632 1.687 11790
2.198 2.630 1.674 11767
2.201 2.634 1.664 10034
2.190 2.620 1.645 9917
2.188 2.618 1.632 10561
2.186 2.616 1.619 9381
2.198 2.631 1.615 8988
2.336 2.795 1.697 8738
2.339 2.799 1.686 9562
2.347 2.808 1.679 11160
2.354 2.817 1.671 14317
2.362 2.826 1.664 12850
2.374 2.841 1.659 10125
2.447 2.928 1.694 10228
2.450 2.932 1.683 14876
2.453 2.935 1.672 16639
2.465 2.950 1.667 13295
2.468 2.953 1.656 8022
2.622 3.137 1.738 4826
2.625 3.141 1.726 6192
2.434 2.912 1.597 7398
2.446 2.927 1.592 6872
2.624 3.140 1.685 5524
2.622 3.138 1.671 11420
2.625 3.141 1.659 14538
2.628 3.145 1.647 11740
2.631 3.148 1.635 12649
2.638 3.157 1.626 15192
2.646 3.166 1.617 12183
2.644 3.164 1.602 7796
2.805 3.356 1.678 7791
2.807 3.359 1.666 8776
2.815 3.368 1.656 10223
2.914 3.487 1.695 11592
2.917 3.490 1.682 11834
2.920 3.493 1.669 11432
2.922 3.497 1.655 11566
2.925 3.500 1.642 9907
2.923 3.498 1.627 6620
3.085 3.692 1.695 5968
3.103 3.712 1.688 5637
3.178 3.803 1.710 3641
3.210 3.841 1.710 3492
3.155 3.775 1.667 4083
3.153 3.772 1.651 4350
3.224 3.857 1.669 3679
3.241 3.878 1.662 4355
3.254 3.893 1.652 6160
3.261 3.902 1.639 7729
3.259 3.900 1.622 6513
3.242 3.880 1.599 6244
3.265 3.906 1.593 4447
3.292 3.939 1.589 5767
3.304 3.954 1.579 6404
3.307 3.957 1.564 5225
3.310 3.960 1.549 4152
3.743 4.479 1.717 4354
3.746 4.482 1.700 6802
3.749 4.486 1.683 7059
3.830 4.583 1.699 8646
3.828 4.581 1.680 8071
3.831 4.584 1.662 8518
3.829 4.582 1.643 9422
3.832 4.585 1.626 9621
3.835 4.589 1.608 9651
3.847 4.604 1.595 9335
3.835 4.589 1.572 8072
3.843 4.598 1.556 6420
3.860 4.619 1.545 4069
4.110 4.918 1.617 3353
4.301 5.146 1.665 3269
4.522 5.410 1.723 2200
4.535 5.426 1.706 2356
4.562 5.459 1.694 2504
4.560 5.456 1.672 2258
4.791 5.733 1.727 1760
4.770 5.707 1.697 2104
4.897 5.859 1.716 2290
4.815 5.761 1.667 1961
4.808 5.753 1.642 1829
5.224 6.251 1.749 1680
5.232 6.260 1.726 2627
5.230 6.258 1.701 2732
5.228 6.255 1.676 1654
5.390 6.450 1.699 1528
5.333 6.382 1.657 1975
5.501 6.582 1.680 1772
5.574 6.669 1.674 1707
5.587 6.685 1.652 1759
5.910 7.071 1.712 1623
5.798 6.937 1.655 1817
5.815 6.958 1.633 1841
6.064 7.256 1.669 1969
6.628 7.931 1.781 1571
6.631 7.934 1.751 1660
6.634 7.938 1.721 1494
6.647 7.954 1.693 1492
6.665 7.975 1.667 1386
6.929 8.291 1.695 1533
6.766 8.096 1.627 1455
6.769 8.099 1.597 1591
6.767 8.096 1.565 1579
7.650 9.153 1.717 1668
7.633 9.133 1.678 1519
7.631 9.130 1.642 1182
8.097 9.688 1.697 985
7.656 9.161 1.577 965
8.425 10.081 1.683 987
8.958 10.718 1.740 977
8.956 10.716 1.699 1001
9.186 10.991 1.697 821
9.188 10.994 1.655 835
8.994 10.762 1.582 724
9.002 10.771 1.542 591
9.005 10.774 1.501 418
9.032 10.808 1.464 331
9.035 10.810 1.423 252
1.002 1.199 0.264 370
1.002 1.199 0.260 672
1.008 1.206 0.256 1054
1.003 1.200 0.251 1350
0.998 1.194 0.246 1576
0.993 1.188 0.241 2075
0.993 1.188 0.237 3140
0.993 1.189 0.232 3729
0.994 1.189 0.228 3615
0.989 1.183 0.223 4152
0.984 1.177 0.218 4791
0.979 1.171 0.214 4868
0.979 1.171 0.209 4367
0.979 1.171 0.205 3353
0.979 1.172 0.201 2759
0.979 1.172 0.196 2146
0.979 1.172 0.192 1200
0.974 1.166 0.188 670
0.680 0.814 0.170 665
0.680 0.814 0.167 616
0.726 0.869 0.165 616
0.726 0.869 0.162 598
0.721 0.863 0.159 539
0.721 0.863 0.156 503
0.721 0.863 0.153 431
0.751 0.899 0.150 457
0.726 0.869 0.147 1178
0.731 0.875 0.143 2827
0.726 0.869 0.140 4079
0.726 0.869 0.137 5770
0.731 0.875 0.134 7562
0.731 0.875 0.131 9110
0.726 0.869 0.128 10679
0.721 0.863 0.125 11325
0.731 0.875 0.121 13048
0.731 0.875 0.118 13735
0.726 0.869 0.115 12378
0.731 0.875 0.112 12764
0.731 0.875 0.109 13063
0.736 0.881 0.105 12497
0.731 0.874 0.102 11964
0.731 0.874 0.099 9294
0.731 0.874 0.096 6965
0.731 0.874 0.093 6631
0.730 0.874 0.090 4743
0.720 0.862 0.087 3140
0.720 0.862 0.084 2272
0.821 0.983 0.072 2081
0.816 0.977 0.069 2040
0.689 0.825 0.078 3217
0.689 0.825 0.075 4507
0.689 0.825 0.072 5921
0.689 0.824 0.069 7421
0.689 0.824 0.066 8571
0.689 0.824 0.063 9979
0.694 0.830 0.059 10295
0.693 0.830 0.056 10189
0.693 0.830 0.053 9478
0.688 0.823 0.051 8910
0.693 0.829 0.047 8080
0.698 0.835 0.043 7563
0.698 0.835 0.040 5700
0.708 0.847 0.036 3958
0.723 0.865 0.030 4647
0.727 0.870 0.026 5957
0.732 0.876 0.022 5103
0.732 0.876 0.019 4315
0.732 0.876 0.016 3457
0.711 0.851 0.017 3500
1.513 1.796 1.806 4106
1.516 1.800 1.799 8213
1.527 1.813 1.802 8355
1.539 1.827 1.804 8862
1.550 1.840 1.806 10448
1.553 1.844 1.800 13486
1.556 1.848 1.793 16524
1.560 1.851 1.786 16524
1.558 1.850 1.774 15410
1.557 1.849 1.763 14793
1.565 1.857 1.761 13061
1.568 1.861 1.754 11440
1.575 1.870 1.751 9536
1.582 1.878 1.749 8200
1.623 1.927 1.781 7281
1.635 1.941 1.783 7763
1.647 1.955 1.784 8572
1.650 1.958 1.777 9849
1.653 1.962 1.769 11097
1.660 1.971 1.766 9603
1.667 1.979 1.763 8179
1.666 1.978 1.752 7840
1.665 1.976 1.740 7551
1.698 2.016 1.762 9365
1.705 2.025 1.759 12304
1.704 2.023 1.747 11662
1.698 2.016 1.731 11581
1.710 2.030 1.732 8771
1.739 2.065 1.749 6678
1.729 2.053 1.729 9645
1.732 2.056 1.721 13000
1.735 2.060 1.714 11796
1.743 2.069 1.710 10618
1.750 2.077 1.706 8743
1.775 2.107 1.718 9527
1.778 2.111 1.710 10333
1.776 2.109 1.699 8224
1.770 2.102 1.683 6408
1.778 2.110 1.679 6129
1.803 2.140 1.690 7559
1.806 2.144 1.682 7567
1.809 2.147 1.674 7576
1.811 2.151 1.666 5153
1.864 2.212 1.700 5007
1.862 2.210 1.688 5191
1.869 2.219 1.684 6014
1.872 2.223 1.675 6965
1.875 2.226 1.667 6145
1.887 2.240 1.666 5439
1.903 2.260 1.669 7237
1.915 2.274 1.668 9462
1.977 2.347 1.707 11285
1.984 2.356 1.701 14124
1.987 2.359 1.693 15036
1.990 2.363 1.684 13602
2.016 2.393 1.693 11914
1.996 2.370 1.666 14086
1.999 2.373 1.657 16183
2.002 2.376 1.648 15449
2.082 2.472 1.699 14303
2.090 2.481 1.693 21074
2.093 2.485 1.683 23442
2.096 2.488 1.674 25169
2.099 2.491 1.665 25687
2.102 2.495 1.655 21774
2.104 2.498 1.646 19072
2.107 2.502 1.637 16451
2.110 2.505 1.627 11376
2.206 2.618 1.684 10219
2.208 2.622 1.674 10551
2.207 2.620 1.661 8579
2.196 2.606 1.641 10056
2.194 2.604 1.628 12340
2.196 2.608 1.619 11907
2.204 2.616 1.612 11240
2.207 2.620 1.602 8633
2.383 2.829 1.708 8486
2.376 2.821 1.691 9151
2.370 2.813 1.674 10068
2.382 2.828 1.670 10022
2.394 2.843 1.665 10543
2.402 2.852 1.658 9233
2.461 2.922 1.683 12280
2.464 2.926 1.672 13294
2.420 2.873 1.631 11136
2.423 2.876 1.621 9108
2.449 2.908 1.624 5133
2.428 2.883 1.599 6539
2.445 2.903 1.597 9872
2.457 2.917 1.592 9774
2.655 3.153 1.697 5016
2.630 3.122 1.668 6987
2.633 3.125 1.656 9908
2.635 3.129 1.644 9846
2.643 3.138 1.635 11654
2.651 3.147 1.626 14491
2.658 3.156 1.617 13568
2.661 3.159 1.605 8709
2.818 3.345 1.678 8972
2.820 3.348 1.666 10093
2.828 3.357 1.656 10876
2.927 3.475 1.695 10078
2.930 3.479 1.682 9961
2.933 3.482 1.669 9294
2.936 3.486 1.655 9398
2.939 3.489 1.642 8350
3.068 3.642 1.694 5741
3.095 3.674 1.692 5195
3.122 3.706 1.691 4831
3.168 3.762 1.698 4393
3.171 3.765 1.684 4347
3.169 3.763 1.667 3585
3.221 3.824 1.677 4974
3.234 3.839 1.667 5962
3.241 3.848 1.655 5348
3.239 3.846 1.638 5801
3.242 3.849 1.623 6648
3.245 3.852 1.609 6390
3.248 3.856 1.594 6049
3.245 3.853 1.578 5930
3.243 3.850 1.561 5867
3.246 3.853 1.546 6719
3.249 3.857 1.532 7538
3.251 3.860 1.517 4955
3.323 3.945 1.532 4438
3.759 4.462 1.698 6853
3.761 4.466 1.681 6706
3.848 4.568 1.699 7289
3.841 4.560 1.678 6860
3.834 4.552 1.656 7397
3.842 4.561 1.641 7651
3.850 4.570 1.626 8162
3.858 4.580 1.610 9737
3.865 4.589 1.595 9341
3.853 4.574 1.572 7229
3.861 4.583 1.556 6403
3.878 4.604 1.545 4864
3.886 4.613 1.529 2691
4.321 5.130 1.665 2921
4.359 5.174 1.658 2175
4.546 5.396 1.703 2161
4.588 5.447 1.696 2161
4.576 5.433 1.670 2169
4.814 5.715 1.727 2073
4.672 5.546 1.658 2492
4.795 5.692 1.676 1945
4.837 5.743 1.667 1990
4.825 5.728 1.641 1886
5.253 6.236 1.750 1357
5.251 6.234 1.725 2340
5.254 6.238 1.701 2370
5.247 6.229 1.675 1497
5.410 6.423 1.698 1530
5.358 6.361 1.657 1951
5.522 6.555 1.678 1791
5.600 6.648 1.674 1890
5.613 6.663 1.652 1818
5.932 7.042 1.711 1830
6.096 7.237 1.726 1541
5.873 6.972 1.641 1867
6.097 7.238 1.670 1644
6.493 7.708 1.740 1394
6.657 7.903 1.750 1581
6.665 7.912 1.721 1530
6.683 7.934 1.695 1453
6.691 7.943 1.666 1297
6.961 8.264 1.695 1336
6.797 8.070 1.627 1342
6.800 8.073 1.597 1440
6.798 8.070 1.565 1437
7.377 8.758 1.653 1868
7.380 8.761 1.620 1711
7.554 8.968 1.620 1186
8.134 9.657 1.697 1311
8.132 9.654 1.660 1166
8.464 10.048 1.683 899
9.004 10.689 1.741 924
9.002 10.687 1.699 1070
9.005 10.690 1.659 808
9.028 10.718 1.622 792
9.031 10.721 1.581 781
9.064 10.760 1.545 619
9.077 10.776 1.505 372
9.084 10.785 1.465 261
0.986 1.171 0.261 316
0.987 1.171 0.257 591
0.982 1.165 0.252 750
0.982 1.166 0.248 883
0.987 1.172 0.244 975
0.998 1.184 0.241 1419
1.008 1.197 0.238 2039
1.013 1.203 0.234 2127
0.988 1.173 0.227 2442
0.983 1.167 0.222 4392
0.983 1.167 0.218 6092
0.983 1.167 0.214 6674
0.983 1.167 0.209 5501
0.978 1.162 0.205 3841
0.979 1.162 0.200 3173
0.979 1.162 0.196 2455
0.984 1.168 0.192 1368
0.683 0.811 0.172 1215
0.683 0.811 0.170 1296
0.683 0.811 0.167 1226
0.683 0.811 0.164 988
0.683 0.811 0.161 1055
0.734 0.872 0.159 1005
0.729 0.866 0.156 882
0.735 0.872 0.153 744
0.750 0.890 0.150 829
0.740 0.878 0.147 1324
0.735 0.872 0.143 1858
0.729 0.866 0.140 2121
0.729 0.866 0.137 3075
0.735 0.872 0.134 4371
0.729 0.866 0.131 6052
0.729 0.866 0.128 8881
0.729 0.866 0.124 10669
0.729 0.866 0.121 11919
0.734 0.872 0.118 13174
0.734 0.872 0.115 13460
0.729 0.866 0.112 11754
0.729 0.866 0.109 9640
0.734 0.872 0.105 8174
0.734 0.872 0.102 7299
0.739 0.878 0.099 5955
0.739 0.877 0.096 4195
0.821 0.974 0.087 3625
0.815 0.968 0.084 3982
0.820 0.974 0.080 4488
0.693 0.823 0.087 4790
0.693 0.822 0.084 7021
0.693 0.822 0.081 9252
0.693 0.822 0.078 12091
0.692 0.822 0.075 14970
0.692 0.822 0.072 17380
0.692 0.822 0.069 19964
0.692 0.822 0.066 20885
0.692 0.821 0.063 22388
0.697 0.827 0.059 21810
0.697 0.827 0.056 20255
0.697 0.827 0.053 17811
0.691 0.821 0.051 15382
0.696 0.827 0.047 13120
0.696 0.826 0.044 10873
0.696 0.826 0.041 8481
0.696 0.826 0.038 6090
0.695 0.826 0.035 4263
0.746 0.886 0.024 3200
0.746 0.885 0.021 2764
0.756 0.897 0.016 2351
0.740 0.879 0.015 2563
0.745 0.885 0.011 3566
1.520 1.790 1.806 3592
1.523 1.793 1.799 7184
1.535 1.807 1.802 7364
1.546 1.820 1.804 8272
1.558 1.834 1.806 10475
1.561 1.838 1.800 13705
1.564 1.841 1.793 16934
1.567 1.845 1.786 16934
1.566 1.844 1.774 16143
1.569 1.847 1.768 15780
1.572 1.851 1.761 13782
1.575 1.855 1.754 11784
1.582 1.863 1.751 10009
1.594 1.877 1.753 9341
1.623 1.911 1.772 8789
1.634 1.924 1.774 8095
1.637 1.928 1.767 7874
1.649 1.942 1.768 8457
1.656 1.950 1.765 9365
1.659 1.954 1.758 7968
1.658 1.952 1.746 6609
1.678 1.976 1.756 6596
1.690 1.990 1.757 6833
1.702 2.004 1.758 8915
1.714 2.018 1.759 11411
1.708 2.011 1.743 10972
1.707 2.009 1.731 10980
1.714 2.018 1.728 8206
1.752 2.063 1.753 7143
1.738 2.046 1.729 9680
1.741 2.049 1.721 13362
1.744 2.053 1.714 12089
1.751 2.062 1.710 10959
1.763 2.075 1.710 8927
1.775 2.089 1.710 8597
1.782 2.098 1.706 9977
1.780 2.096 1.695 9215
1.779 2.095 1.683 7283
1.786 2.103 1.679 6186
1.816 2.138 1.694 6860
1.819 2.142 1.686 6807
1.822 2.145 1.678 6754
1.820 2.143 1.666 4713
1.868 2.199 1.696 4817
1.871 2.203 1.688 6257
1.878 2.212 1.684 7197
1.881 2.215 1.675 8170
1.884 2.218 1.667 7501
1.905 2.243 1.674 5897
1.922 2.263 1.676 6809
1.929 2.271 1.671 8810
1.991 2.344 1.710 9240
1.994 2.348 1.701 11956
1.992 2.346 1.689 13338
1.995 2.349 1.680 12958
2.030 2.390 1.696 13711
2.006 2.362 1.666 12901
2.009 2.365 1.657 13525
2.011 2.368 1.648 12520
2.088 2.458 1.695 10636
2.095 2.467 1.689 15554
2.103 2.476 1.683 16968
2.106 2.480 1.674 18470
2.169 2.554 1.709 20553
2.177 2.563 1.703 20782
2.184 2.572 1.696 20951
2.182 2.570 1.683 17061
2.181 2.568 1.670 10823
2.207 2.598 1.677 9002
2.214 2.607 1.671 9412
2.208 2.600 1.654 8089
2.206 2.598 1.641 10332
2.204 2.595 1.628 13335
2.207 2.599 1.619 13101
2.215 2.607 1.612 12198
2.213 2.605 1.599 9914
2.394 2.819 1.708 10889
2.397 2.823 1.697 10944
2.400 2.826 1.687 8747
2.403 2.829 1.676 9925
2.420 2.850 1.675 12435
2.428 2.858 1.667 12843
2.431 2.862 1.656 10484
2.424 2.854 1.639 9182
2.427 2.857 1.628 13576
2.439 2.872 1.624 11766
2.461 2.898 1.624 8274
2.440 2.873 1.599 7634
2.457 2.893 1.597 11991
2.469 2.907 1.592 12366
2.472 2.911 1.581 6860
2.499 2.942 1.584 5158
2.641 3.109 1.653 6845
2.648 3.118 1.644 8641
2.656 3.127 1.635 9940
2.663 3.136 1.626 11973
2.671 3.145 1.617 12321
2.828 3.330 1.691 7862
2.836 3.339 1.681 9294
2.834 3.337 1.666 10157
2.842 3.346 1.656 9836
2.845 3.349 1.643 7468
2.944 3.467 1.682 7059
2.947 3.470 1.669 6477
2.950 3.474 1.655 6122
2.953 3.477 1.642 5662
3.082 3.629 1.694 5603
3.105 3.656 1.690 4186
3.147 3.705 1.695 4097
3.179 3.743 1.696 5021
3.182 3.746 1.682 4732
3.238 3.813 1.694 3373
3.236 3.811 1.677 7045
3.244 3.820 1.665 8297
3.257 3.835 1.655 6248
3.255 3.832 1.638 5964
3.258 3.836 1.623 7664
3.261 3.839 1.609 6159
3.258 3.836 1.592 5129
3.261 3.840 1.578 6225
3.259 3.837 1.561 6249
3.266 3.846 1.548 7518
3.264 3.843 1.532 8688
3.267 3.846 1.517 5750
3.339 3.931 1.532 4345
3.772 4.441 1.696 5865
3.775 4.444 1.679 6064
3.787 4.459 1.667 5884
3.845 4.527 1.672 6602
3.838 4.519 1.650 9105
3.841 4.522 1.633 7590
3.868 4.555 1.626 7356
3.886 4.576 1.614 10370
3.889 4.579 1.597 9299
3.877 4.564 1.574 4786
3.879 4.568 1.556 4569
3.892 4.582 1.543 4522
3.905 4.597 1.529 2523
4.566 5.377 1.745 2231
4.565 5.374 1.723 2356
4.567 5.378 1.703 2793
4.575 5.387 1.684 2143
4.809 5.662 1.741 2064
4.842 5.701 1.729 2158
4.694 5.527 1.658 2596
4.692 5.525 1.636 1947
4.856 5.717 1.665 1579
4.843 5.703 1.639 1735
5.188 6.109 1.722 2479
5.191 6.112 1.699 2950
5.194 6.115 1.676 2734
5.197 6.119 1.653 2113
5.200 6.122 1.629 1474
5.379 6.333 1.656 1441
5.538 6.521 1.676 1654
5.632 6.631 1.676 1906
5.640 6.640 1.652 1939
5.961 7.018 1.711 1969
6.125 7.212 1.726 1682
5.901 6.948 1.641 1895
5.904 6.951 1.614 1416
6.524 7.681 1.740 1589
6.319 7.440 1.660 1315
6.621 7.796 1.703 1540
6.720 7.912 1.696 1229
6.880 8.101 1.701 1102
6.990 8.230 1.694 1080
7.358 8.663 1.743 1088
7.366 8.673 1.711 1360
7.410 8.724 1.686 1569
7.412 8.728 1.653 1893
7.410 8.725 1.619 1810
7.591 8.938 1.620 1497
8.173 9.624 1.697 1471
8.171 9.621 1.660 1267
7.609 8.959 1.520 928
9.047 10.653 1.741 813
9.050 10.656 1.700 1062
9.053 10.660 1.660 938
9.066 10.675 1.621 818
9.074 10.684 1.581 764
9.113 10.729 1.545 698
9.120 10.739 1.505 410
9.123 10.742 1.464 272
9.115 10.732 1.422 261
0.986 1.161 0.256 342
0.986 1.161 0.252 514
0.987 1.162 0.248 711
0.987 1.162 0.244 1107
0.992 1.168 0.240 2014
0.992 1.168 0.236 3409
0.993 1.169 0.231 4171
0.988 1.163 0.226 4474
0.983 1.157 0.222 4613
0.983 1.157 0.217 3962
0.978 1.151 0.213 3579
0.983 1.157 0.209 3483
0.983 1.158 0.205 3201
0.983 1.158 0.200 3010
0.989 1.164 0.196 2511
0.989 1.164 0.192 1572
0.687 0.808 0.172 1249
0.687 0.808 0.170 1343
0.687 0.808 0.167 1223
0.687 0.809 0.164 908
0.687 0.809 0.161 981
0.687 0.809 0.158 873
0.728 0.857 0.156 704
0.733 0.863 0.153 695
0.723 0.851 0.149 688
0.728 0.857 0.146 903
0.728 0.857 0.143 1048
0.723 0.851 0.140 1133
0.728 0.857 0.137 1533
0.728 0.857 0.134 1988
0.733 0.863 0.131 2658
0.733 0.863 0.128 4201
0.733 0.863 0.124 5355
0.733 0.863 0.121 6445
0.733 0.863 0.118 7429
0.733 0.863 0.115 7843
0.733 0.863 0.112 8355
0.738 0.869 0.109 8348
0.738 0.869 0.105 7482
0.733 0.863 0.102 6762
0.738 0.869 0.099 5695
0.738 0.868 0.096 4568
0.732 0.862 0.093 3722
0.722 0.850 0.091 2733
0.696 0.820 0.089 3072
0.696 0.820 0.087 3732
0.696 0.820 0.084 4938
0.696 0.820 0.081 6144
0.696 0.819 0.078 7775
0.696 0.819 0.075 9442
0.696 0.819 0.072 10931
0.696 0.819 0.069 12546
0.695 0.819 0.066 13354
0.695 0.819 0.063 14558
0.700 0.824 0.059 14307
0.700 0.824 0.056 13491
0.700 0.824 0.053 12244
0.700 0.824 0.050 10997
0.700 0.824 0.047 9463
0.699 0.823 0.044 7930
0.699 0.823 0.041 6309
0.699 0.823 0.038 4687
0.699 0.823 0.035 3376
0.755 0.889 0.023 2531
0.754 0.888 0.020 2460
0.759 0.894 0.016 2422
1.014 1.194 -0.032 2171
1.013 1.193 -0.037 2947
1.494 1.745 1.769 3379
1.497 1.748 1.762 6758
1.500 1.752 1.756 6758
1.558 1.819 1.809 7489
1.565 1.828 1.806 10057
1.568 1.832 1.800 13049
1.571 1.835 1.793 16040
1.574 1.839 1.786 16040
1.573 1.838 1.774 15332
1.576 1.841 1.768 15121
1.579 1.845 1.761 12989
1.582 1.848 1.754 10858
1.594 1.862 1.756 9564
1.614 1.885 1.766 10281
1.630 1.904 1.772 9795
1.633 1.908 1.765 8685
1.641 1.916 1.762 7764
1.644 1.920 1.755 8153
1.647 1.923 1.748 8551
1.658 1.937 1.749 7166
1.666 1.946 1.746 5877
1.686 1.970 1.756 5755
1.698 1.983 1.757 6105
1.710 1.997 1.758 8592
1.713 2.001 1.750 11199
1.712 1.999 1.739 10913
1.715 2.003 1.731 10721
1.722 2.011 1.728 7984
1.760 2.056 1.753 7914
1.750 2.044 1.733 9936
1.753 2.048 1.725 13455
1.756 2.051 1.718 12494
1.759 2.055 1.710 11534
1.766 2.063 1.706 10214
1.778 2.077 1.706 9397
1.781 2.081 1.699 10738
1.784 2.084 1.691 9959
1.787 2.087 1.683 7841
1.795 2.096 1.679 6154
1.833 2.141 1.702 6390
1.832 2.140 1.690 6320
1.830 2.138 1.678 6360
1.833 2.141 1.670 4598
1.886 2.203 1.704 4983
1.884 2.201 1.692 6561
1.887 2.204 1.684 7437
1.885 2.202 1.672 8378
1.893 2.211 1.667 8068
1.919 2.241 1.677 6647
1.935 2.260 1.680 7139
1.938 2.264 1.671 8610
1.941 2.267 1.663 8662
2.008 2.345 1.705 9171
2.002 2.338 1.689 10664
2.037 2.379 1.705 11397
2.040 2.382 1.696 14375
2.038 2.380 1.684 12439
2.018 2.357 1.657 12049
2.021 2.360 1.648 10803
2.047 2.391 1.657 8845
2.105 2.459 1.689 10278
2.182 2.549 1.735 12930
2.181 2.547 1.722 15979
2.179 2.545 1.709 20134
2.187 2.554 1.703 22800
2.190 2.557 1.693 24744
2.193 2.561 1.683 20929
2.191 2.559 1.670 13431
2.212 2.584 1.674 8465
2.220 2.593 1.667 8687
2.218 2.591 1.654 7925
2.212 2.583 1.638 10311
2.215 2.587 1.628 13093
2.217 2.590 1.619 12752
2.220 2.593 1.609 11729
2.223 2.596 1.599 10115
2.405 2.810 1.708 12394
2.408 2.813 1.697 12132
2.411 2.816 1.687 8941
2.419 2.825 1.679 10180
2.427 2.834 1.672 14645
2.434 2.843 1.664 16371
2.437 2.847 1.653 14028
2.435 2.844 1.639 11405
2.429 2.837 1.623 14446
2.460 2.873 1.629 12794
2.492 2.910 1.636 10877
2.494 2.914 1.625 8723
2.468 2.883 1.597 13157
2.486 2.903 1.594 13801
2.488 2.906 1.583 8994
2.491 2.910 1.572 7470
2.720 3.177 1.692 8155
2.665 3.113 1.647 7658
2.673 3.122 1.638 7919
2.676 3.125 1.626 8817
2.688 3.140 1.620 9557
2.832 3.307 1.685 7890
2.849 3.328 1.681 8964
2.847 3.326 1.666 9363
2.850 3.329 1.653 8009
2.848 3.327 1.638 5354
2.958 3.455 1.682 5172
2.961 3.458 1.669 5176
2.964 3.462 1.655 3851
3.099 3.619 1.710 4709
3.102 3.623 1.696 4922
3.114 3.638 1.687 3095
3.166 3.698 1.698 3523
3.194 3.730 1.696 5318
3.192 3.728 1.679 5052
3.258 3.806 1.696 3821
3.252 3.798 1.677 7566
3.259 3.807 1.665 8372
3.267 3.816 1.652 6463
3.265 3.814 1.636 5671
3.278 3.829 1.626 6882
3.281 3.832 1.611 5044
3.338 3.899 1.621 3421
3.271 3.821 1.575 4221
3.309 3.865 1.576 5648
3.311 3.868 1.561 6949
3.279 3.830 1.532 7153
3.282 3.833 1.517 4788
3.588 4.190 1.630 4106
3.784 4.420 1.694 4929
3.792 4.429 1.679 5831
3.805 4.444 1.667 6298
3.858 4.506 1.670 6741
3.856 4.504 1.650 9761
3.854 4.501 1.631 7753
3.891 4.545 1.628 7069
3.904 4.560 1.614 11908
3.907 4.563 1.597 10005
3.910 4.567 1.579 4575
3.902 4.558 1.558 3944
4.291 5.012 1.681 4374
4.294 5.015 1.662 4519
4.297 5.019 1.642 3823
4.300 5.022 1.623 2438
4.594 5.366 1.704 3065
4.597 5.369 1.684 2162
4.826 5.637 1.739 1909
4.879 5.699 1.734 2059
4.711 5.503 1.657 2272
4.714 5.506 1.636 1848
5.206 6.081 1.769 1769
5.209 6.084 1.746 2922
5.212 6.088 1.722 4352
5.215 6.091 1.699 4795
5.218 6.095 1.676 4303
5.221 6.098 1.653 3292
5.224 6.102 1.629 2273
5.556 6.489 1.699 1571
5.554 6.487 1.673 1758
5.557 6.490 1.648 1809
5.671 6.624 1.653 2039
5.983 6.989 1.710 2097
5.951 6.951 1.674 1765
5.938 6.936 1.643 1781
6.028 7.040 1.638 1327
6.554 7.655 1.740 1566
6.562 7.665 1.712 1381
6.647 7.763 1.702 1414
6.349 7.416 1.602 1188
6.912 8.074 1.701 1322
7.094 8.285 1.710 1058
7.428 8.676 1.751 1008
7.630 8.912 1.760 1526
7.444 8.695 1.686 1631
7.447 8.698 1.653 1655
7.445 8.696 1.619 1633
7.631 8.914 1.621 1706
7.639 8.923 1.588 1545
7.642 8.926 1.554 1351
7.645 8.929 1.520 941
8.276 9.667 1.597 789
9.093 10.620 1.700 1017
9.096 10.624 1.660 1011
9.098 10.627 1.619 841
9.152 10.690 1.586 717
9.155 10.693 1.545 659
9.322 10.888 1.529 485
9.135 10.669 1.460 272
9.147 10.684 1.420 261
0.991 1.157 0.256 613
0.991 1.158 0.252 969
0.991 1.158 0.248 1457
0.991 1.158 0.244 2465
0.992 1.158 0.239 3776
0.992 1.158 0.235 5321
0.992 1.159 0.231 6218
0.992 1.159 0.226 7189
0.992 1.159 0.222 8989
0.992 1.159 0.218 10084
0.993 1.159 0.214 10396
0.993 1.160 0.209 10034
0.993 1.160 0.205 8380
0.993 1.160 0.201 6856
0.993 1.160 0.196 5418
0.993 1.160 0.192 3220
0.993 1.160 0.188 1617
0.690 0.806 0.170 1088
0.690 0.806 0.167 1060
0.690 0.806 0.164 832
0.690 0.806 0.161 912
0.741 0.866 0.159 842
0.741 0.866 0.156 1031
0.741 0.866 0.153 1113
0.742 0.866 0.150 1026
0.742 0.866 0.147 812
0.742 0.866 0.143 957
0.742 0.866 0.140 1394
0.742 0.866 0.137 1988
0.736 0.860 0.134 2334
0.736 0.860 0.131 2357
0.736 0.860 0.128 2656
0.731 0.854 0.125 2880
0.731 0.854 0.121 3310
0.736 0.860 0.118 3685
0.736 0.860 0.115 3915
0.736 0.860 0.112 4290
0.736 0.860 0.109 4329
0.736 0.860 0.106 3930
0.736 0.860 0.102 3642
0.736 0.860 0.099 3220
0.736 0.859 0.096 2761
0.731 0.853 0.093 2441
0.705 0.823 0.092 2596
0.700 0.817 0.089 3419
0.694 0.811 0.087 4379
0.699 0.817 0.084 5349
0.699 0.817 0.081 6423
0.699 0.817 0.078 7349
0.699 0.816 0.075 8269
0.699 0.816 0.072 8792
0.699 0.816 0.069 9383
0.699 0.816 0.066 9273
0.698 0.816 0.063 9499
0.703 0.822 0.059 8753
0.703 0.821 0.056 7712
0.703 0.821 0.053 6577
0.698 0.815 0.051 5493
0.703 0.821 0.047 4438
0.703 0.821 0.044 3436
0.702 0.820 0.041 2577
0.702 0.820 0.038 1719
1.020 1.191 -0.015 2049
1.019 1.191 -0.019 2492
1.019 1.190 -0.023 2865
1.019 1.190 -0.028 3239
1.018 1.190 -0.032 3291
1.018 1.189 -0.037 4437
1.501 1.739 1.769 3604
1.504 1.742 1.762 7208
1.507 1.746 1.756 7208
1.561 1.808 1.804 6753
1.568 1.817 1.802 9631
1.575 1.825 1.800 11980
1.579 1.829 1.793 14495
1.582 1.832 1.786 14495
1.585 1.836 1.779 13592
1.584 1.835 1.768 13209
1.587 1.838 1.761 11030
1.590 1.842 1.754 8852
1.610 1.865 1.764 9027
1.626 1.884 1.771 11278
1.634 1.892 1.768 10570
1.641 1.901 1.765 9516
1.635 1.895 1.749 8834
1.643 1.903 1.746 8705
1.650 1.912 1.744 8972
1.653 1.915 1.736 7145
1.639 1.899 1.712 5735
1.668 1.932 1.730 5146
1.719 1.992 1.770 5400
1.718 1.990 1.758 8096
1.721 1.994 1.750 10843
1.724 1.997 1.743 10104
1.727 2.001 1.735 9365
1.735 2.009 1.732 7265
1.769 2.049 1.753 8630
1.767 2.047 1.741 10635
1.761 2.040 1.725 13800
1.764 2.044 1.718 12909
1.772 2.053 1.714 12100
1.775 2.056 1.706 11373
1.782 2.065 1.702 10650
1.790 2.073 1.699 11439
1.793 2.077 1.691 10198
1.796 2.080 1.683 7832
1.799 2.084 1.675 5917
1.847 2.139 1.706 6223
1.841 2.132 1.690 5993
1.839 2.130 1.678 6103
1.842 2.134 1.670 4408
1.899 2.200 1.708 5681
1.898 2.198 1.696 6386
1.896 2.196 1.684 6859
1.894 2.195 1.672 7673
1.902 2.203 1.667 7669
1.928 2.233 1.677 6945
1.944 2.252 1.680 7362
1.947 2.256 1.671 8161
1.950 2.259 1.663 7881
1.958 2.268 1.658 6902
2.011 2.330 1.689 7781
2.051 2.376 1.709 10798
2.054 2.379 1.700 13837
2.052 2.378 1.687 12067
2.027 2.349 1.657 10643
2.030 2.352 1.648 9466
2.056 2.382 1.657 7775
2.190 2.537 1.745 10439
2.193 2.540 1.735 15225
2.196 2.544 1.726 16667
2.194 2.542 1.712 19221
2.197 2.545 1.703 24613
2.200 2.549 1.693 28652
2.203 2.552 1.683 24748
2.196 2.545 1.667 16150
2.199 2.548 1.657 9012
2.231 2.584 1.667 8431
2.229 2.582 1.654 7883
2.222 2.574 1.638 9709
2.225 2.578 1.628 11623
2.223 2.575 1.615 11066
2.231 2.584 1.609 9994
2.233 2.587 1.599 8997
2.417 2.800 1.708 13195
2.420 2.803 1.697 12883
2.427 2.812 1.690 9150
2.430 2.816 1.679 10015
2.438 2.824 1.672 15816
2.441 2.828 1.661 19049
2.444 2.831 1.650 17516
2.442 2.829 1.636 13707
2.435 2.821 1.620 13549
2.472 2.863 1.629 11425
2.503 2.900 1.636 12041
2.506 2.903 1.625 9765
2.485 2.879 1.600 13203
2.497 2.893 1.594 13709
2.500 2.896 1.583 10537
2.503 2.899 1.572 10116
2.733 3.166 1.692 10761
2.736 3.170 1.680 9546
2.749 3.184 1.674 8198
2.761 3.199 1.667 8070
2.755 3.191 1.649 7022
2.840 3.290 1.683 7838
2.858 3.311 1.678 8123
2.856 3.308 1.663 8315
2.854 3.306 1.648 6800
2.822 3.270 1.617 5624
2.820 3.267 1.602 4709
2.980 3.452 1.671 4554
3.061 3.546 1.698 3642
3.123 3.618 1.715 4214
3.116 3.610 1.696 3936
3.124 3.619 1.685 2770
3.196 3.702 1.705 3532
3.204 3.712 1.693 5809
3.202 3.709 1.677 5444
3.215 3.724 1.667 4118
3.262 3.779 1.674 6298
3.270 3.788 1.662 6516
3.278 3.797 1.650 6358
3.276 3.795 1.633 7134
3.283 3.804 1.621 8328
3.286 3.807 1.607 7336
3.279 3.799 1.588 4416
3.282 3.802 1.573 2997
3.319 3.845 1.574 4468
3.327 3.854 1.561 5618
3.325 3.852 1.545 4598
3.592 4.161 1.641 3753
3.600 4.170 1.628 3219
3.797 4.399 1.692 4573
3.810 4.414 1.679 5462
3.823 4.429 1.667 6087
3.871 4.484 1.668 6327
3.884 4.499 1.654 8888
3.867 4.480 1.629 6009
3.925 4.547 1.633 7656
3.928 4.550 1.616 13017
3.930 4.553 1.599 10497
3.928 4.551 1.579 5873
3.976 4.606 1.579 5456
4.311 4.994 1.681 6938
4.314 4.998 1.662 7619
4.317 5.001 1.642 6846
4.320 5.004 1.623 4531
4.611 5.341 1.703 2658
4.619 5.350 1.684 1865
4.849 5.617 1.739 1525
4.908 5.685 1.736 2158
4.911 5.689 1.714 2224
5.030 5.827 1.729 1946
5.231 6.060 1.769 2497
5.234 6.063 1.746 4270
5.237 6.067 1.722 5883
5.240 6.070 1.699 6247
5.243 6.074 1.676 5455
5.246 6.077 1.653 4180
5.249 6.080 1.629 2920
5.597 6.484 1.703 2488
5.590 6.476 1.676 2243
5.588 6.473 1.649 2129
5.698 6.601 1.653 1988
6.012 6.964 1.710 2066
5.984 6.932 1.675 1926
5.982 6.930 1.647 1736
6.056 7.016 1.638 1392
6.590 7.635 1.741 1565
6.588 7.632 1.711 1454
6.832 7.914 1.738 1331
6.737 7.805 1.685 1231
6.940 8.040 1.700 1269
7.127 8.256 1.710 1130
7.468 8.652 1.752 1155
7.476 8.661 1.720 1871
7.474 8.659 1.685 1755
7.667 8.882 1.691 1519
7.670 8.885 1.657 1695
7.673 8.888 1.622 1813
7.675 8.892 1.588 1623
7.678 8.895 1.554 1317
7.681 8.898 1.520 852
8.316 9.633 1.597 724
8.303 9.618 1.558 980
9.139 10.587 1.660 989
9.136 10.584 1.618 828
9.340 10.820 1.609 747
9.353 10.835 1.569 637
9.366 10.850 1.529 509
9.162 10.614 1.458 295
9.175 10.629 1.418 267
1.001 1.159 0.253 264
0.996 1.154 0.248 471
0.991 1.148 0.243 967
0.991 1.148 0.239 1682
0.991 1.148 0.234 2350
0.992 1.149 0.230 2652
0.992 1.149 0.226 2654
0.992 1.149 0.222 2523
0.992 1.149 0.217 2360
0.992 1.149 0.213 2327
0.992 1.150 0.209 2024
0.992 1.150 0.205 1284
0.987 1.144 0.200 847
0.693 0.803 0.178 676
0.693 0.803 0.175 699
0.693 0.803 0.172 625
0.693 0.803 0.170 771
0.693 0.803 0.167 853
0.693 0.803 0.164 771
0.693 0.803 0.161 827
0.740 0.857 0.159 732
0.740 0.857 0.156 785
0.735 0.851 0.153 834
0.735 0.851 0.150 860
0.740 0.857 0.147 965
0.745 0.863 0.143 885
0.740 0.857 0.140 724
0.740 0.857 0.137 979
0.740 0.857 0.134 1335
0.740 0.857 0.131 1780
0.740 0.857 0.128 2437
0.745 0.863 0.124 2824
0.740 0.857 0.121 2495
0.740 0.857 0.118 2211
0.740 0.857 0.115 2143
0.740 0.857 0.112 1899
0.734 0.851 0.109 1720
0.734 0.851 0.106 1567
0.739 0.857 0.102 1501
0.745 0.863 0.099 1322
0.744 0.862 0.096 1132
0.739 0.856 0.093 860
0.698 0.808 0.093 978
0.698 0.808 0.090 1346
0.698 0.808 0.087 1702
0.703 0.814 0.084 2153
0.703 0.814 0.081 2635
0.702 0.814 0.078 3072
0.702 0.814 0.075 3485
0.697 0.807 0.072 3651
0.697 0.807 0.069 3817
0.702 0.813 0.066 3665
0.702 0.813 0.063 3696
0.702 0.813 0.060 3276
0.701 0.813 0.057 2691
0.701 0.812 0.054 2163
0.701 0.812 0.051 1636
1.026 1.188 0.003 1911
1.025 1.188 -0.001 1926
1.025 1.187 -0.006 2252
1.020 1.181 -0.009 2582
1.019 1.181 -0.014 2607
1.024 1.186 -0.019 2647
1.019 1.180 -0.023 2446
1.018 1.180 -0.027 2259
1.018 1.179 -0.031 2254
1.018 1.179 -0.036 3119
1.507 1.733 1.769 3616
1.511 1.737 1.762 7232
1.514 1.740 1.756 7232
1.521 1.749 1.754 6218
1.571 1.806 1.797 9253
1.578 1.814 1.795 10633
1.586 1.823 1.793 12588
1.589 1.826 1.786 12588
1.592 1.830 1.779 11307
1.591 1.829 1.768 10340
1.594 1.832 1.761 8286
1.614 1.856 1.771 6291
1.622 1.864 1.769 8766
1.629 1.873 1.766 11607
1.636 1.881 1.763 10856
1.640 1.885 1.756 10298
1.638 1.883 1.745 10338
1.646 1.892 1.742 9564
1.657 1.906 1.744 9494
1.656 1.904 1.732 7661
1.642 1.887 1.708 7121
1.671 1.921 1.726 5558
1.678 1.930 1.723 5757
1.717 1.974 1.749 7305
1.724 1.982 1.746 9980
1.727 1.986 1.739 8862
1.730 1.989 1.731 7744
1.769 2.033 1.757 6642
1.776 2.042 1.753 8896
1.775 2.041 1.741 11148
1.769 2.034 1.725 14201
1.777 2.042 1.722 13453
1.780 2.046 1.714 12804
1.783 2.049 1.706 12139
1.790 2.058 1.702 11511
1.793 2.061 1.695 11753
1.801 2.070 1.691 9766
1.803 2.073 1.683 7264
1.861 2.139 1.722 6158
1.859 2.137 1.710 6558
1.853 2.130 1.694 5925
1.847 2.123 1.678 6039
1.909 2.195 1.720 5182
1.912 2.198 1.712 6892
1.920 2.207 1.707 6772
1.913 2.200 1.691 5650
1.898 2.182 1.668 6077
1.915 2.201 1.671 6569
1.945 2.236 1.685 7652
1.953 2.245 1.680 8124
1.956 2.248 1.671 7893
1.959 2.252 1.663 6769
1.962 2.255 1.654 5874
1.974 2.269 1.653 6019
2.060 2.368 1.709 9351
2.063 2.372 1.700 12004
2.061 2.370 1.687 10569
2.036 2.341 1.657 9495
2.039 2.344 1.648 8472
2.182 2.509 1.744 6920
2.199 2.528 1.745 12600
2.202 2.532 1.735 17388
2.210 2.541 1.729 17167
2.208 2.539 1.716 18436
2.207 2.537 1.703 25666
2.210 2.540 1.693 31121
2.213 2.544 1.683 27253
2.206 2.536 1.667 18244
2.209 2.540 1.657 9570
2.240 2.576 1.667 8473
2.238 2.573 1.654 7658
2.237 2.571 1.641 8108
2.235 2.569 1.628 8844
2.233 2.567 1.615 8436
2.236 2.570 1.606 7454
2.420 2.782 1.716 8247
2.427 2.791 1.708 13193
2.430 2.794 1.697 13131
2.438 2.803 1.690 8986
2.441 2.806 1.679 9214
2.439 2.804 1.665 15595
2.442 2.808 1.655 19919
2.450 2.816 1.647 19557
2.453 2.820 1.636 15842
2.451 2.817 1.623 10832
2.449 2.815 1.609 8195
2.509 2.885 1.633 11207
2.512 2.888 1.622 9944
2.496 2.869 1.600 11996
2.508 2.884 1.594 11726
2.511 2.887 1.583 10576
2.514 2.890 1.572 11681
2.740 3.150 1.690 12904
2.743 3.154 1.678 11486
2.751 3.163 1.668 9695
2.759 3.172 1.659 8396
2.762 3.175 1.647 7549
2.823 3.246 1.667 7689
2.797 3.215 1.638 8142
2.868 3.298 1.663 7448
2.861 3.290 1.645 6156
2.948 3.389 1.677 6038
2.960 3.404 1.669 5357
3.003 3.452 1.676 4429
3.020 3.472 1.671 4294
3.023 3.476 1.657 4822
3.031 3.485 1.646 3801
3.143 3.613 1.687 2987
3.215 3.696 1.708 4252
3.218 3.699 1.693 6355
3.216 3.697 1.677 5581
3.229 3.712 1.667 5018
3.246 3.732 1.660 5056
3.279 3.770 1.660 4074
3.287 3.779 1.648 5956
3.290 3.782 1.633 8983
3.293 3.786 1.619 11080
3.296 3.789 1.604 10246
3.293 3.786 1.588 7209
3.301 3.795 1.575 5631
3.304 3.798 1.561 5194
3.317 3.813 1.551 4035
3.605 4.144 1.657 5429
3.602 4.142 1.639 4688
3.796 4.364 1.703 2953
3.864 4.442 1.713 4885
3.832 4.405 1.681 4696
3.850 4.426 1.671 5242
3.883 4.464 1.666 5591
3.896 4.479 1.652 7090
3.884 4.465 1.629 4843
3.942 4.532 1.633 7811
3.945 4.535 1.616 12953
3.948 4.538 1.599 9909
3.950 4.542 1.581 6068
3.988 4.585 1.577 7117
4.335 4.984 1.683 8722
4.333 4.981 1.662 9908
4.336 4.985 1.642 9321
4.339 4.988 1.623 6337
4.342 4.991 1.604 3309
4.344 4.995 1.585 1787
4.774 5.488 1.707 1230
4.934 5.673 1.737 2373
4.937 5.676 1.715 2447
5.057 5.814 1.731 1902
5.254 6.040 1.769 2817
5.257 6.043 1.746 4968
5.260 6.047 1.722 6663
5.263 6.050 1.699 6897
5.266 6.054 1.676 5740
5.269 6.057 1.653 4280
5.272 6.060 1.629 3035
5.627 6.469 1.705 3693
5.625 6.467 1.678 3323
5.623 6.464 1.652 2651
5.631 6.473 1.629 2039
6.038 6.942 1.710 1857
6.010 6.910 1.675 1768
6.008 6.907 1.647 1558
6.539 7.518 1.751 1458
6.537 7.515 1.721 1728
6.622 7.613 1.712 1536
6.861 7.888 1.738 1440
6.767 7.779 1.685 1268
6.970 8.013 1.700 1146
7.158 8.230 1.710 1131
7.501 8.623 1.752 1317
7.504 8.627 1.719 2201
7.702 8.855 1.726 2124
7.700 8.853 1.691 2009
7.703 8.856 1.657 1952
7.706 8.859 1.622 1779
7.709 8.863 1.588 1567
7.712 8.866 1.554 1240
8.308 9.551 1.627 787
9.209 10.587 1.747 749
8.334 9.581 1.557 921
9.173 10.546 1.659 830
9.383 10.787 1.652 834
9.381 10.784 1.609 770
9.389 10.794 1.568 630
9.402 10.809 1.528 466
9.202 10.580 1.458 273
0.990 1.138 0.242 477
0.995 1.144 0.239 1162
1.001 1.151 0.235 2121
1.001 1.151 0.231 2684
0.996 1.145 0.226 3024
0.996 1.145 0.222 3050
0.996 1.145 0.217 2137
0.996 1.146 0.213 1446
0.997 1.146 0.209 1141
1.002 1.152 0.205 1175
1.002 1.152 0.201 1515
1.002 1.152 0.196 1586
1.002 1.152 0.192 1418
0.997 1.146 0.188 1044
0.696 0.800 0.170 801
0.696 0.800 0.167 882
0.696 0.800 0.164 765
0.696 0.800 0.161 832
0.696 0.800 0.158 775
0.696 0.800 0.155 650
0.743 0.854 0.153 675
0.743 0.854 0.150 699
0.738 0.848 0.146 793
0.738 0.848 0.143 913
0.738 0.848 0.140 925
0.743 0.854 0.137 969
0.738 0.848 0.134 1003
0.738 0.848 0.131 1008
0.738 0.848 0.128 1063
0.738 0.848 0.125 1126
0.738 0.848 0.121 1251
0.753 0.866 0.118 1634
0.759 0.872 0.115 2106
0.758 0.872 0.111 1913
0.764 0.878 0.108 1640
0.758 0.872 0.105 1718
0.753 0.866 0.102 1784
0.753 0.866 0.099 1427
0.753 0.866 0.096 1078
0.753 0.866 0.092 983
0.737 0.848 0.090 897
0.737 0.847 0.087 802
0.727 0.835 0.085 659
0.711 0.817 0.083 962
0.711 0.817 0.080 1310
0.711 0.817 0.077 1726
0.705 0.811 0.075 2132
0.705 0.811 0.072 2443
0.705 0.811 0.069 2820
0.705 0.811 0.066 3033
0.705 0.810 0.063 3302
0.710 0.816 0.059 3183
0.912 1.048 0.031 3839
0.917 1.054 0.027 4291
0.916 1.054 0.023 4783
0.911 1.047 0.019 4608
0.911 1.047 0.016 4529
0.911 1.047 0.012 4297
0.910 1.047 0.008 4069
0.910 1.046 0.004 4088
0.910 1.046 -0.000 3644
0.915 1.052 -0.005 3202
0.914 1.051 -0.009 2641
0.914 1.051 -0.013 2081
0.914 1.051 -0.016 2805
1.519 1.732 1.773 3391
1.522 1.735 1.767 6783
1.525 1.739 1.760 6783
1.554 1.771 1.781 6871
1.565 1.785 1.784 9870
1.581 1.803 1.791 9745
1.593 1.816 1.793 10731
1.596 1.820 1.786 10731
1.595 1.819 1.774 8956
1.598 1.822 1.768 7197
1.597 1.821 1.756 6437
1.596 1.819 1.745 6081
1.629 1.858 1.769 8853
1.624 1.851 1.753 12512
1.631 1.860 1.750 11717
1.639 1.868 1.748 11580
1.642 1.872 1.741 12176
1.649 1.880 1.738 10812
1.665 1.899 1.744 10238
1.651 1.882 1.719 9045
1.649 1.881 1.708 8971
1.657 1.889 1.705 6812
1.686 1.923 1.723 6751
1.720 1.961 1.745 6232
1.732 1.975 1.746 8209
1.740 1.984 1.743 7215
1.743 1.987 1.735 6377
1.773 2.021 1.753 6021
1.780 2.030 1.749 8351
1.779 2.028 1.737 10693
1.777 2.027 1.725 13575
1.785 2.035 1.722 13516
1.788 2.039 1.714 13578
1.795 2.047 1.710 12836
1.799 2.051 1.702 12440
1.806 2.059 1.699 11872
1.809 2.063 1.691 8624
1.866 2.128 1.730 7568
1.869 2.131 1.722 7361
1.877 2.140 1.718 7181
1.875 2.138 1.706 6182
1.860 2.121 1.682 5992
1.913 2.182 1.716 6300
1.926 2.196 1.716 8146
1.933 2.204 1.711 7795
1.932 2.202 1.699 5464
1.971 2.248 1.720 5604
1.965 2.241 1.704 6011
1.959 2.234 1.688 7501
1.962 2.237 1.680 8180
1.965 2.240 1.671 7531
1.973 2.249 1.666 5965
1.985 2.263 1.665 5351
1.992 2.272 1.660 6305
2.074 2.365 1.712 6781
2.073 2.363 1.700 8540
2.071 2.361 1.687 7696
2.046 2.333 1.657 8037
2.049 2.336 1.648 7206
2.188 2.494 1.740 8857
2.205 2.514 1.741 14384
2.213 2.523 1.735 18965
2.220 2.532 1.729 17384
2.223 2.535 1.719 17399
2.222 2.533 1.706 24718
2.220 2.531 1.693 30263
2.223 2.535 1.683 26873
2.216 2.527 1.667 18801
2.219 2.530 1.657 9631
2.256 2.572 1.671 8434
2.259 2.575 1.661 7282
2.266 2.584 1.654 6400
2.288 2.609 1.657 6746
2.411 2.748 1.727 7704
2.414 2.752 1.717 8302
2.417 2.755 1.706 8431
2.439 2.781 1.708 12512
2.447 2.789 1.701 13060
2.454 2.798 1.693 9213
2.448 2.791 1.676 8677
2.446 2.789 1.662 14227
2.449 2.792 1.652 17813
2.457 2.801 1.644 17999
2.469 2.815 1.639 15664
2.472 2.818 1.628 9532
2.465 2.811 1.612 7859
2.516 2.869 1.630 9463
2.514 2.867 1.616 9868
2.517 2.870 1.605 9128
2.515 2.868 1.592 7280
2.518 2.871 1.581 8406
2.526 2.880 1.572 11386
2.748 3.133 1.687 13565
2.751 3.137 1.675 12132
2.759 3.146 1.665 10400
2.762 3.149 1.653 8355
2.765 3.152 1.641 7252
2.817 3.212 1.656 7623
2.815 3.209 1.641 8653
2.877 3.280 1.660 6545
2.964 3.379 1.692 7426
2.962 3.377 1.677 9128
2.969 3.386 1.666 7531
2.967 3.383 1.651 5878
3.040 3.466 1.673 4871
3.038 3.463 1.657 5104
3.174 3.619 1.711 4096
3.177 3.623 1.697 3678
3.230 3.683 1.708 5318
3.233 3.686 1.693 6993
3.231 3.684 1.677 5429
3.244 3.699 1.667 5083
3.252 3.708 1.656 5403
3.260 3.717 1.644 3851
3.303 3.765 1.648 5131
3.305 3.769 1.633 8375
3.313 3.778 1.621 10911
3.311 3.775 1.604 9947
3.314 3.778 1.590 7725
3.317 3.782 1.575 6794
3.319 3.785 1.561 6195
3.317 3.782 1.544 4596
3.612 4.118 1.653 5119
3.599 4.104 1.631 5492
3.597 4.101 1.613 4615
3.877 4.421 1.711 5849
3.885 4.430 1.696 6327
3.888 4.433 1.679 5028
3.896 4.442 1.664 5674
3.909 4.457 1.650 7733
3.912 4.460 1.633 6289
3.961 4.516 1.633 6331
3.963 4.519 1.616 10420
3.976 4.534 1.602 8082
4.005 4.566 1.594 7057
4.007 4.569 1.577 6870
4.356 4.966 1.683 8699
4.353 4.964 1.662 10147
4.356 4.967 1.642 10051
4.359 4.970 1.623 6905
4.362 4.973 1.604 3441
4.365 4.977 1.585 1851
4.970 5.666 1.764 1449
4.968 5.664 1.741 3005
4.971 5.667 1.719 3084
5.086 5.799 1.732 1776
5.283 6.024 1.770 2736
5.281 6.022 1.746 4730
5.285 6.025 1.722 6271
5.288 6.029 1.699 6276
5.291 6.032 1.676 4873
5.288 6.030 1.651 3410
5.656 6.448 1.731 3356
5.653 6.446 1.705 4621
5.656 6.449 1.680 4392
5.659 6.453 1.655 3220
5.662 6.456 1.630 2358
5.675 6.471 1.608 1626
5.673 6.468 1.581 1150
6.258 7.135 1.703 1065
6.565 7.485 1.750 1697
6.563 7.483 1.720 2021
6.653 7.586 1.712 1637
6.899 7.866 1.739 1582
6.804 7.757 1.686 1144
7.158 8.161 1.735 1057
7.166 8.171 1.705 1177
7.541 8.598 1.753 1409
7.534 8.590 1.718 2332
7.734 8.818 1.725 2459
7.737 8.821 1.691 2480
7.740 8.824 1.657 2188
7.737 8.822 1.621 1609
7.750 8.837 1.589 1221
8.349 9.519 1.664 886
8.352 9.523 1.628 925
9.247 10.543 1.746 1003
9.255 10.552 1.707 944
9.206 10.497 1.657 700
9.427 10.748 1.652 689
9.425 10.746 1.609 623
9.438 10.761 1.569 491
9.446 10.770 1.528 337
0.994 1.133 0.259 291
0.999 1.139 0.256 584
1.000 1.140 0.252 880
1.000 1.140 0.247 1450
1.000 1.140 0.243 2693
1.000 1.140 0.239 4545
1.000 1.141 0.234 6557
1.001 1.141 0.230 7588
1.001 1.141 0.226 8316
1.001 1.141 0.222 8875
1.001 1.141 0.217 7924
1.001 1.142 0.213 7078
1.001 1.142 0.209 6134
1.001 1.142 0.205 4278
1.002 1.142 0.200 3344
1.002 1.142 0.196 2589
1.007 1.148 0.192 1334
0.699 0.797 0.172 723
0.699 0.797 0.170 1023
