1.118 2.231 1.775 7813
1.118 2.229 1.763 7991
1.120 2.233 1.756 8483
1.119 2.231 1.745 8812
1.118 2.230 1.733 9627
1.120 2.234 1.726 10370
1.125 2.244 1.723 9472
1.127 2.248 1.716 8729
1.162 2.318 1.756 9067
1.164 2.322 1.748 9738
1.206 2.404 1.796 9702
1.205 2.402 1.784 10504
1.207 2.407 1.776 10944
1.206 2.405 1.764 11401
1.211 2.415 1.761 9637
1.213 2.419 1.753 7889
1.224 2.442 1.758 6117
1.236 2.464 1.762 5384
1.253 2.499 1.774 5088
1.258 2.509 1.770 6085
1.260 2.513 1.762 5336
1.238 2.469 1.722 5863
1.249 2.491 1.726 6746
1.254 2.501 1.722 8286
1.256 2.506 1.714 7858
1.258 2.510 1.706 6135
1.279 2.551 1.722 5186
1.284 2.561 1.717 5860
1.289 2.571 1.713 6695
1.301 2.594 1.716 6712
1.315 2.623 1.723 5931
1.324 2.639 1.722 5672
1.329 2.650 1.718 4490
1.331 2.654 1.709 3318
1.330 2.652 1.697 5323
1.335 2.662 1.692 7556
1.340 2.672 1.687 7875
1.355 2.701 1.693 8688
1.360 2.712 1.688 10414
1.359 2.710 1.676 10760
1.361 2.714 1.667 9239
1.394 2.781 1.695 7945
1.399 2.791 1.689 9125
1.443 2.877 1.726 9916
1.448 2.888 1.721 9755
1.469 2.930 1.732 8746
1.458 2.909 1.709 10139
1.461 2.913 1.700 10720
1.466 2.923 1.694 9769
1.481 2.953 1.698 7450
1.495 2.982 1.702 8337
1.530 3.050 1.726 8732
1.535 3.061 1.720 8737
1.540 3.071 1.714 7379
1.571 3.133 1.734 8089
1.580 3.150 1.730 8009
1.588 3.167 1.726 7507
1.590 3.171 1.716 5444
1.622 3.234 1.735 5729
1.624 3.238 1.725 8761
1.622 3.235 1.711 11883
1.628 3.246 1.704 13720
1.633 3.257 1.697 11845
1.638 3.267 1.689 9496
1.637 3.265 1.676 11270
1.639 3.269 1.665 15201
1.641 3.273 1.655 24426
1.643 3.277 1.644 34646
1.648 3.287 1.637 37866
1.650 3.291 1.626 36661
1.652 3.295 1.615 34877
1.651 3.292 1.602 29678
1.656 3.302 1.594 21167
1.658 3.306 1.584 16279
1.656 3.303 1.570 12599
1.658 3.307 1.559 8027
1.803 3.595 1.671 4404
1.811 3.612 1.665 5232
1.816 3.622 1.657 6321
1.818 3.626 1.645 5169
1.894 3.776 1.694 6357
1.899 3.787 1.685 5064
1.898 3.784 1.670 3529
1.910 3.808 1.666 5618
1.922 3.832 1.661 8689
1.924 3.836 1.649 6797
1.926 3.840 1.637 4967
1.934 3.857 1.629 6435
1.940 3.868 1.620 7672
1.948 3.885 1.612 7119
1.953 3.896 1.602 5400
2.016 4.020 1.635 7725
2.021 4.031 1.625 9678
2.023 4.035 1.612 5242
2.082 4.153 1.641 5946
2.084 4.157 1.627 6992
2.083 4.154 1.611 4329
2.125 4.239 1.627 3510
2.215 4.418 1.675 3933
2.214 4.415 1.658 3617
2.213 4.412 1.641 3347
2.215 4.416 1.627 2778
2.278 4.542 1.654 3506
2.273 4.532 1.635 2429
2.363 4.713 1.678 3179
2.369 4.724 1.665 5278
2.371 4.728 1.650 7840
2.369 4.725 1.633 9225
2.375 4.735 1.619 7782
2.380 4.746 1.606 6059
2.382 4.750 1.591 4414
2.456 4.897 1.619 5618
2.447 4.880 1.597 6085
2.449 4.884 1.581 7438
2.468 4.922 1.576 10479
2.460 4.905 1.554 8808
2.451 4.888 1.532 6282
2.453 4.892 1.516 5113
0.514 1.024 0.413 5230
0.514 1.025 0.410 4389
0.514 1.026 0.407 3786
0.515 1.027 0.404 3215
2.911 5.804 1.676 2312
2.916 5.815 1.659 3270
0.875 1.745 0.581 4460
2.920 5.823 1.621 6178
2.922 5.827 1.602 6103
2.924 5.831 1.583 5413
2.926 5.834 1.565 4943
2.927 5.838 1.546 3651
3.085 6.153 1.601 2559
3.087 6.157 1.581 3605
3.093 6.168 1.563 5155
3.098 6.178 1.545 4569
3.103 6.189 1.526 3906
3.109 6.199 1.508 4346
0.533 1.064 0.362 3534
0.534 1.064 0.358 5916
0.534 1.065 0.355 6866
0.538 1.072 0.353 4913
0.538 1.073 0.350 4669
0.535 1.066 0.345 6407
0.535 1.067 0.342 4694
3.678 7.335 1.563 5355
3.676 7.331 1.538 5136
0.651 1.299 0.375 4685
0.648 1.292 0.370 5101
0.648 1.293 0.366 4799
0.649 1.294 0.362 3876
4.158 8.293 1.584 4119
4.160 8.296 1.557 3292
4.159 8.293 1.529 3100
4.160 8.297 1.502 2562
4.159 8.293 1.474 2012
4.164 8.304 1.449 1546
4.243 8.461 1.445 1228
5.166 10.302 1.697 1147
0.880 1.754 0.393 1444
0.880 1.755 0.387 2163
0.880 1.756 0.382 2632
0.881 1.756 0.376 2623
0.881 1.757 0.371 2256
0.518 1.034 0.269 2773
0.518 1.034 0.266 2821
0.519 1.034 0.263 2069
0.628 1.253 0.286 1392
0.625 1.246 0.282 1319
0.576 1.148 0.266 1395
0.572 1.141 0.262 1572
0.569 1.134 0.258 1472
0.573 1.142 0.255 1002
0.576 1.149 0.252 952
0.576 1.149 0.248 1448
0.573 1.143 0.244 1798
0.577 1.150 0.241 1898
0.849 1.693 0.286 1962
0.846 1.687 0.280 2302
0.842 1.680 0.274 2294
0.843 1.680 0.269 2431
0.846 1.688 0.264 2220
0.846 1.688 0.259 1858
0.850 1.695 0.254 1735
0.857 1.710 0.249 1730
0.861 1.717 0.244 1482
0.865 1.725 0.239 973
0.868 1.732 0.234 792
0.865 1.725 0.228 679
0.738 1.471 0.210 550
0.603 1.202 0.193 394
0.610 1.217 0.190 967
0.610 1.217 0.186 1366
0.610 1.217 0.182 1978
0.610 1.217 0.179 2918
0.610 1.217 0.175 3294
0.610 1.217 0.171 3217
0.610 1.217 0.167 3809
0.610 1.217 0.163 4478
0.610 1.217 0.159 4821
0.607 1.210 0.156 4415
0.607 1.210 0.152 3436
0.610 1.217 0.148 2910
0.610 1.217 0.144 2126
0.614 1.224 0.140 1740
0.603 1.203 0.137 1447
0.593 1.182 0.133 1612
0.593 1.182 0.129 1815
0.593 1.182 0.126 2062
0.593 1.182 0.122 2093
0.593 1.182 0.118 1706
0.525 1.047 0.117 1724
0.525 1.047 0.114 2101
0.522 1.040 0.111 2977
0.522 1.040 0.108 3820
0.522 1.040 0.105 4297
0.518 1.033 0.102 4813
0.518 1.033 0.098 4832
0.518 1.033 0.095 4445
0.518 1.032 0.092 3957
0.514 1.025 0.089 3150
0.514 1.025 0.086 2344
0.514 1.025 0.083 1550
0.514 1.025 0.080 823
0.514 1.025 0.076 588
0.517 1.032 0.073 403
0.514 1.024 0.070 400
0.514 1.024 0.067 399
0.513 1.024 0.064 311
1.541 3.073 -0.175 261
0.767 1.529 -0.019 341
0.767 1.529 -0.024 434
0.766 1.528 -0.029 528
0.766 1.528 -0.034 528
0.766 1.527 -0.039 573
0.766 1.527 -0.044 617
0.765 1.526 -0.048 610
0.765 1.526 -0.053 816
1.030 2.039 1.759 5308
1.032 2.043 1.753 10616
1.034 2.047 1.746 10616
1.036 2.051 1.740 9234
1.039 2.055 1.733 7852
1.038 2.054 1.722 7261
1.037 2.052 1.711 7119
1.039 2.056 1.704 7119
1.044 2.066 1.702 6317
1.111 2.198 1.794 6357
1.116 2.208 1.792 6279
1.121 2.219 1.789 6355
1.123 2.223 1.782 7527
1.125 2.227 1.775 8698
1.127 2.231 1.768 8859
1.127 2.230 1.756 8938
1.126 2.228 1.745 8917
1.125 2.226 1.733 9939
1.127 2.230 1.726 10834
1.129 2.235 1.719 9820
1.134 2.245 1.716 8990
1.169 2.314 1.756 8466
1.171 2.318 1.748 9139
1.213 2.400 1.796 9743
1.212 2.399 1.784 10633
1.214 2.403 1.776 11226
1.216 2.407 1.768 11820
1.218 2.411 1.761 10015
1.224 2.422 1.757 8314
1.232 2.438 1.758 6564
1.243 2.460 1.762 5997
1.258 2.489 1.770 5894
1.263 2.499 1.766 6788
1.265 2.503 1.758 5779
1.245 2.465 1.722 4898
1.263 2.500 1.734 6243
1.262 2.498 1.722 7588
1.264 2.502 1.714 7101
1.269 2.512 1.710 5694
1.287 2.547 1.722 5601
1.292 2.557 1.717 6659
1.294 2.561 1.709 7752
1.302 2.578 1.709 6710
1.320 2.613 1.719 6291
1.328 2.629 1.719 6067
1.334 2.639 1.714 4548
1.323 2.619 1.690 3207
1.328 2.629 1.686 4944
1.337 2.645 1.685 6976
1.342 2.656 1.680 7009
1.360 2.691 1.690 7408
1.365 2.701 1.685 10271
1.367 2.705 1.676 11255
1.369 2.709 1.667 9651
1.403 2.776 1.695 8686
1.405 2.780 1.686 9845
1.413 2.797 1.684 9091
1.418 2.807 1.678 8575
1.420 2.811 1.669 8010
1.464 2.898 1.706 8465
1.469 2.908 1.700 8749
1.475 2.919 1.694 8087
1.490 2.948 1.698 6446
1.501 2.971 1.699 7572
1.539 3.046 1.726 9377
1.541 3.050 1.717 9855
1.546 3.060 1.710 8213
1.584 3.135 1.737 7911
1.589 3.145 1.730 7322
1.598 3.162 1.726 6795
1.600 3.167 1.716 4961
1.599 3.164 1.703 5103
1.604 3.175 1.696 8224
1.632 3.231 1.711 11748
1.634 3.235 1.701 13756
1.646 3.258 1.700 12298
1.648 3.262 1.689 11062
1.647 3.260 1.676 13818
1.649 3.264 1.665 17413
1.651 3.268 1.655 26671
1.656 3.278 1.647 37772
1.658 3.282 1.637 41579
1.660 3.286 1.626 41736
1.662 3.290 1.615 41254
1.661 3.287 1.602 34760
1.666 3.297 1.594 24433
1.668 3.301 1.584 18955
1.667 3.298 1.570 14709
1.668 3.302 1.559 9489
1.670 3.306 1.549 4876
1.829 3.620 1.671 4624
1.831 3.624 1.659 5386
1.900 3.760 1.703 4529
1.905 3.770 1.694 6159
1.907 3.774 1.682 4778
1.909 3.778 1.670 3696
1.915 3.789 1.660 5175
1.937 3.833 1.664 6853
1.939 3.837 1.652 5854
1.941 3.841 1.639 4343
1.949 3.858 1.632 5930
1.951 3.862 1.620 6673
1.963 3.886 1.615 5650
2.013 3.983 1.638 4676
2.028 4.014 1.635 7262
2.033 4.025 1.625 9633
2.032 4.022 1.609 5481
2.098 4.153 1.643 3813
2.097 4.150 1.627 4815
2.099 4.154 1.614 3407
2.223 4.400 1.686 3704
2.225 4.404 1.672 4345
2.227 4.408 1.658 4309
2.226 4.406 1.641 3752
2.286 4.524 1.666 3030
2.288 4.528 1.652 4158
2.293 4.539 1.639 3229
2.378 4.706 1.678 3612
2.383 4.716 1.665 6490
2.385 4.720 1.650 9124
2.384 4.717 1.633 9604
2.389 4.728 1.619 7868
2.391 4.732 1.604 7013
2.393 4.736 1.589 5350
2.464 4.876 1.615 5926
2.462 4.873 1.597 7790
2.467 4.883 1.584 10084
2.476 4.901 1.572 13176
2.471 4.891 1.552 10872
2.466 4.881 1.532 7989
0.516 1.022 0.416 8650
0.517 1.023 0.413 10430
0.517 1.024 0.410 7097
0.518 1.024 0.407 4718
0.518 1.025 0.404 4204
0.518 1.026 0.400 3134
0.880 1.742 0.586 3453
0.877 1.736 0.579 3938
2.938 5.814 1.621 5256
2.940 5.818 1.602 4777
2.942 5.822 1.583 4095
2.943 5.825 1.565 3874
2.945 5.829 1.546 2857
3.104 6.144 1.601 4456
3.106 6.147 1.581 4914
3.112 6.158 1.563 6148
3.117 6.169 1.545 5447
3.122 6.179 1.526 4828
3.124 6.183 1.506 5084
0.537 1.062 0.362 4610
0.540 1.070 0.360 6058
0.541 1.070 0.357 7690
0.545 1.078 0.355 7944
0.545 1.078 0.351 6891
0.545 1.079 0.348 6798
0.545 1.079 0.345 6954
3.704 7.330 1.565 5553
3.702 7.327 1.539 4589
3.820 7.561 1.559 2727
0.656 1.297 0.371 2809
3.824 7.568 1.510 2763
4.182 8.276 1.611 3455
4.184 8.280 1.584 3586
4.186 8.284 1.557 2623
4.187 8.287 1.531 2454
4.260 8.431 1.527 2256
4.258 8.427 1.498 2036
4.263 8.438 1.472 1977
4.265 8.441 1.444 1669
5.197 10.286 1.697 1395
0.528 1.044 0.288 2288
0.524 1.038 0.283 3982
0.524 1.038 0.280 5215
0.525 1.038 0.277 5618
0.525 1.039 0.274 4822
0.525 1.039 0.270 3264
0.529 1.046 0.268 2097
0.525 1.040 0.264 1282
0.515 1.019 0.258 906
0.519 1.026 0.256 869
0.586 1.160 0.268 638
0.586 1.161 0.264 822
0.587 1.161 0.261 977
0.590 1.168 0.258 879
0.587 1.161 0.253 826
0.580 1.148 0.248 1196
0.854 1.690 0.297 1686
0.858 1.697 0.292 1859
0.858 1.698 0.287 1973
0.858 1.698 0.281 2277
0.855 1.692 0.275 2383
0.851 1.685 0.269 2056
0.855 1.692 0.265 1662
0.859 1.700 0.260 1569
0.866 1.714 0.255 1374
0.866 1.714 0.250 1453
0.866 1.715 0.244 1601
0.863 1.708 0.238 1440
0.867 1.715 0.233 1179
0.867 1.715 0.228 842
0.867 1.716 0.223 412
0.610 1.207 0.193 490
0.614 1.215 0.190 1080
0.614 1.215 0.186 1570
0.610 1.208 0.182 2225
0.610 1.208 0.178 3129
0.610 1.208 0.174 3410
0.610 1.208 0.171 3056
0.610 1.208 0.167 2407
0.611 1.208 0.163 2119
0.607 1.201 0.159 2669
0.607 1.201 0.155 3079
0.603 1.194 0.152 2868
0.603 1.194 0.148 2030
0.603 1.194 0.144 1138
0.528 1.046 0.140 1385
0.528 1.046 0.137 2080
0.528 1.046 0.134 3169
0.525 1.039 0.131 3667
0.525 1.039 0.127 3824
0.521 1.032 0.124 3880
0.521 1.032 0.121 3681
0.521 1.032 0.118 3385
0.518 1.025 0.115 3340
0.521 1.031 0.111 3510
0.521 1.031 0.108 3597
0.521 1.031 0.105 3234
0.521 1.031 0.102 2845
0.521 1.031 0.098 2120
0.525 1.038 0.095 1226
0.521 1.031 0.092 774
0.528 1.045 0.088 555
0.524 1.038 0.085 580
0.524 1.038 0.082 523
0.524 1.037 0.079 455
0.524 1.037 0.076 333
1.756 3.476 -0.218 273
1.756 3.475 -0.229 307
1.755 3.474 -0.240 276
0.771 1.526 -0.029 295
0.771 1.525 -0.034 295
0.771 1.525 -0.039 336
0.770 1.524 -0.044 376
0.770 1.524 -0.048 376
0.770 1.523 -0.053 501
1.038 2.035 1.759 5463
1.040 2.039 1.753 10927
1.042 2.043 1.746 10927
1.044 2.047 1.740 9512
1.046 2.051 1.733 8097
1.046 2.050 1.722 7162
1.045 2.048 1.711 6586
1.047 2.052 1.704 6586
1.049 2.056 1.698 6036
1.119 2.194 1.794 6730
1.124 2.204 1.792 6754
1.129 2.214 1.789 6899
1.132 2.219 1.782 7933
1.134 2.223 1.775 8968
1.136 2.227 1.768 9140
1.135 2.225 1.756 8993
1.131 2.218 1.741 8789
1.133 2.222 1.733 10020
1.135 2.226 1.726 11138
1.138 2.230 1.719 10018
1.143 2.240 1.716 8946
1.178 2.310 1.756 7642
1.220 2.391 1.803 8890
1.222 2.396 1.796 9340
1.221 2.394 1.784 9970
1.223 2.398 1.776 10672
1.225 2.403 1.768 11374
1.228 2.407 1.761 9818
1.233 2.417 1.757 8432
1.241 2.433 1.758 6595
1.253 2.456 1.762 6055
1.264 2.478 1.766 6288
1.269 2.488 1.762 7134
1.274 2.499 1.758 5967
1.277 2.503 1.750 4853
1.273 2.495 1.734 6042
1.272 2.493 1.722 7010
1.274 2.497 1.714 6462
1.279 2.507 1.710 5286
1.303 2.554 1.729 6298
1.305 2.558 1.721 7592
1.304 2.556 1.709 8953
1.309 2.566 1.705 7475
1.330 2.608 1.719 6840
1.335 2.618 1.715 6604
1.334 2.616 1.703 4968
1.333 2.614 1.690 3565
1.338 2.624 1.686 5064
1.340 2.628 1.677 6482
1.342 2.632 1.669 6307
1.367 2.680 1.686 6153
1.375 2.696 1.685 9411
1.377 2.700 1.676 10552
1.379 2.704 1.667 8966
1.413 2.771 1.695 8379
1.415 2.775 1.686 9417
1.424 2.792 1.684 8547
1.429 2.802 1.678 8122
1.431 2.806 1.669 7703
1.475 2.892 1.706 6699
1.481 2.903 1.700 6628
1.486 2.913 1.694 6052
1.504 2.949 1.702 5118
1.552 3.042 1.740 7345
1.550 3.040 1.726 9497
1.553 3.044 1.717 10462
1.558 3.054 1.710 8359
1.596 3.129 1.737 7433
1.601 3.139 1.730 6180
1.610 3.156 1.726 5532
1.612 3.160 1.716 4160
1.608 3.152 1.700 5257
1.613 3.162 1.693 8465
1.641 3.218 1.708 11450
1.647 3.228 1.701 13531
1.659 3.252 1.700 12438
1.664 3.262 1.692 12148
1.659 3.253 1.676 14710
1.661 3.257 1.665 16983
1.664 3.261 1.655 24924
1.669 3.272 1.647 36210
1.671 3.276 1.637 40495
1.673 3.280 1.626 42125
1.675 3.283 1.615 43099
1.673 3.281 1.602 35944
1.679 3.291 1.594 24786
1.681 3.295 1.584 19377
1.679 3.292 1.570 14937
1.681 3.296 1.559 9459
1.867 3.661 1.706 5209
1.866 3.659 1.691 4544
1.848 3.623 1.662 4580
1.914 3.752 1.703 4418
1.919 3.763 1.694 5338
1.922 3.767 1.682 4064
1.924 3.771 1.670 4388
1.926 3.775 1.658 5787
1.955 3.832 1.667 4467
1.957 3.836 1.654 4743
1.969 3.860 1.650 5057
1.971 3.864 1.637 6294
2.014 3.948 1.656 6574
2.005 3.932 1.635 5610
1.994 3.909 1.612 4319
2.043 4.006 1.635 5818
2.049 4.017 1.625 8218
2.047 4.014 1.609 5179
2.125 4.165 1.650 4515
2.192 4.297 1.683 4372
2.194 4.301 1.669 3826
2.240 4.392 1.686 3999
2.242 4.396 1.672 4369
2.241 4.393 1.656 4656
2.243 4.397 1.641 3475
2.303 4.516 1.666 3634
2.309 4.526 1.654 4828
2.314 4.537 1.642 3876
2.392 4.690 1.676 3557
2.401 4.707 1.665 6779
2.403 4.711 1.650 8923
2.405 4.715 1.635 8475
2.404 4.712 1.617 6417
2.409 4.723 1.604 6396
2.407 4.720 1.587 5058
2.479 4.860 1.613 5458
2.481 4.863 1.597 7654
2.486 4.874 1.584 10285
2.492 4.885 1.570 14141
2.490 4.881 1.552 11528
2.488 4.878 1.534 8052
2.497 4.896 1.522 7050
0.524 1.028 0.415 5426
0.525 1.028 0.412 4226
0.525 1.029 0.409 3693
0.525 1.030 0.406 3765
0.522 1.024 0.400 2955
2.956 5.795 1.659 1830
2.954 5.792 1.638 2734
2.960 5.803 1.621 3536
2.962 5.807 1.602 2944
2.964 5.810 1.583 2438
2.966 5.814 1.565 2426
3.126 6.128 1.621 4043
3.128 6.132 1.601 5764
3.130 6.136 1.581 5463
3.135 6.146 1.563 6308
3.140 6.157 1.545 5784
3.142 6.160 1.525 5167
3.144 6.164 1.505 5093
0.541 1.060 0.362 4244
0.541 1.061 0.358 6457
0.545 1.068 0.357 6264
0.545 1.069 0.353 6455
0.545 1.069 0.350 7463
0.546 1.070 0.346 6989
0.546 1.070 0.343 5776
0.546 1.071 0.340 5473
0.546 1.071 0.336 4127
3.845 7.539 1.558 2348
3.851 7.550 1.534 2381
3.853 7.553 1.510 2555
4.284 8.399 1.636 3329
4.286 8.403 1.609 3769
4.285 8.400 1.580 3051
4.287 8.404 1.553 2905
4.292 8.414 1.527 2789
4.290 8.411 1.498 2485
4.296 8.421 1.472 2317
0.531 1.041 0.294 2145
0.531 1.042 0.291 2653
0.535 1.049 0.289 2603
0.535 1.050 0.285 2726
0.532 1.043 0.281 3091
0.532 1.043 0.278 3305
0.532 1.044 0.275 3290
0.533 1.044 0.271 3566
0.533 1.044 0.268 3506
0.533 1.045 0.265 2551
0.533 1.045 0.261 1835
0.533 1.045 0.258 1437
0.630 1.235 0.277 873
0.634 1.242 0.274 803
0.634 1.243 0.270 730
0.638 1.250 0.267 630
0.581 1.138 0.251 686
0.581 1.138 0.248 908
0.864 1.694 0.297 1301
0.864 1.694 0.292 1760
0.868 1.702 0.287 1787
0.868 1.702 0.282 1869
0.865 1.695 0.276 1999
0.861 1.689 0.270 1683
0.858 1.682 0.264 1091
0.862 1.689 0.259 642
0.862 1.690 0.254 441
0.866 1.697 0.249 361
0.873 1.711 0.244 312
0.873 1.712 0.239 268
0.597 1.170 0.195 265
0.608 1.191 0.193 518
0.615 1.205 0.190 886
0.618 1.212 0.186 1053
0.622 1.220 0.183 1116
0.622 1.220 0.179 1705
0.622 1.220 0.175 2201
0.619 1.213 0.171 3454
0.619 1.213 0.167 5507
0.619 1.213 0.163 6299
0.619 1.213 0.159 6384
0.619 1.213 0.156 7239
0.619 1.213 0.152 8008
0.619 1.213 0.148 7552
0.619 1.213 0.144 6512
0.619 1.213 0.140 5589
0.619 1.213 0.137 4185
0.619 1.213 0.133 3120
0.615 1.206 0.129 2608
0.529 1.037 0.127 2736
0.529 1.037 0.124 3399
0.532 1.044 0.121 3676
0.532 1.044 0.117 3697
0.529 1.037 0.114 3632
0.529 1.037 0.111 3297
0.529 1.036 0.108 2912
0.529 1.036 0.105 2479
0.529 1.036 0.101 2033
0.529 1.036 0.098 1687
2.167 4.249 -0.050 1481
2.167 4.249 -0.064 1453
2.167 4.248 -0.078 1343
2.167 4.248 -0.092 1233
2.166 4.247 -0.105 1065
2.166 4.246 -0.119 897
2.166 4.246 -0.133 712
2.165 4.245 -0.147 526
2.165 4.244 -0.160 390
2.164 4.243 -0.174 253
1.771 3.472 -0.184 311
1.770 3.471 -0.195 402
1.770 3.470 -0.207 402
1.558 3.055 -0.175 469
1.558 3.054 -0.184 587
1.557 3.053 -0.194 767
1.557 3.052 -0.204 946
1.556 3.051 -0.214 946
1.556 3.051 -0.224 1070
1.559 3.057 -0.234 1194
1.559 3.056 -0.244 597
0.772 1.514 -0.052 256
1.045 2.031 1.759 5458
1.047 2.035 1.753 10916
1.049 2.039 1.746 10916
1.051 2.044 1.740 9367
1.051 2.042 1.729 7879
1.053 2.046 1.722 6681
1.049 2.039 1.706 5744
1.051 2.043 1.700 5744
1.056 2.053 1.698 5495
1.127 2.190 1.794 6806
1.132 2.200 1.792 6729
1.137 2.210 1.789 6855
1.139 2.215 1.782 7609
1.142 2.219 1.775 8363
1.144 2.223 1.768 8563
1.143 2.221 1.756 8512
1.139 2.214 1.741 8375
1.141 2.218 1.733 9892
1.143 2.222 1.726 11341
1.145 2.226 1.719 10095
1.148 2.230 1.712 8849
1.186 2.306 1.756 6597
1.228 2.387 1.803 8443
1.230 2.391 1.796 8534
1.230 2.390 1.784 8673
1.232 2.394 1.776 9430
1.234 2.398 1.768 10188
1.239 2.408 1.765 9060
1.241 2.413 1.757 8071
1.250 2.429 1.758 6212
1.261 2.451 1.762 5533
1.273 2.474 1.766 5986
1.275 2.478 1.758 6949
1.280 2.488 1.754 5951
1.282 2.492 1.746 4983
1.284 2.496 1.738 6269
1.283 2.494 1.726 6825
1.282 2.492 1.714 6028
1.316 2.558 1.745 5807
1.321 2.568 1.741 8001
1.314 2.554 1.721 8602
1.316 2.558 1.713 9890
1.318 2.562 1.705 8162
1.336 2.597 1.716 7703
1.341 2.607 1.711 7545
1.343 2.611 1.703 5729
1.342 2.609 1.690 3986
1.344 2.613 1.682 5296
1.347 2.617 1.674 6221
1.352 2.627 1.669 5868
1.373 2.668 1.682 4911
1.385 2.691 1.685 7622
1.387 2.695 1.676 8599
1.389 2.699 1.667 7311
1.423 2.766 1.695 7933
1.425 2.770 1.686 8900
1.434 2.787 1.684 8210
1.439 2.797 1.678 7851
1.441 2.801 1.669 7355
1.443 2.805 1.660 5995
1.491 2.897 1.700 4779
1.496 2.908 1.694 4100
1.554 3.020 1.743 4156
1.559 3.030 1.736 6967
1.561 3.034 1.726 9479
1.560 3.032 1.713 11090
1.562 3.036 1.704 8484
1.607 3.123 1.737 7024
1.612 3.134 1.730 4969
1.572 3.055 1.677 5298
1.577 3.065 1.671 3968
1.612 3.133 1.693 5602
1.624 3.156 1.693 8382
1.653 3.212 1.708 11181
1.655 3.216 1.698 13386
1.670 3.246 1.700 12494
1.679 3.263 1.696 12745
1.674 3.254 1.679 13789
1.670 3.245 1.662 14306
1.675 3.255 1.655 20149
1.680 3.266 1.647 30523
1.682 3.270 1.637 35119
1.684 3.274 1.626 37925
1.686 3.277 1.615 40066
1.685 3.275 1.602 33096
1.687 3.279 1.591 22311
1.689 3.282 1.581 17469
1.691 3.286 1.570 13280
1.693 3.290 1.559 8012
1.880 3.655 1.706 5640
1.879 3.652 1.691 4621
1.864 3.623 1.665 4090
1.931 3.752 1.706 4229
1.929 3.750 1.691 4037
1.931 3.754 1.679 3556
1.937 3.764 1.670 5740
1.942 3.775 1.660 6767
1.944 3.779 1.648 4293
1.987 3.862 1.668 4282
1.983 3.853 1.650 6218
1.985 3.857 1.637 7326
2.021 3.927 1.651 7561
2.016 3.918 1.633 7746
2.014 3.915 1.618 5684
2.054 3.992 1.633 3938
2.063 4.009 1.625 5962
2.062 4.007 1.609 4380
2.143 4.164 1.653 5216
2.207 4.289 1.683 4939
2.205 4.286 1.667 4264
2.256 4.384 1.686 3740
2.258 4.388 1.672 4060
2.256 4.385 1.656 4464
2.258 4.389 1.641 3001
2.323 4.514 1.669 3937
2.328 4.525 1.656 5515
2.337 4.542 1.646 4288
2.346 4.560 1.636 3358
2.414 4.692 1.663 6245
2.420 4.703 1.650 7594
2.425 4.713 1.637 6555
2.427 4.717 1.622 4608
2.426 4.714 1.604 4739
2.424 4.711 1.587 3630
2.496 4.851 1.613 4262
2.501 4.861 1.599 5683
2.510 4.879 1.588 8276
2.512 4.883 1.572 12694
2.511 4.879 1.554 10424
2.530 4.917 1.548 7456
2.532 4.921 1.532 7031
0.524 1.019 0.413 10222
0.525 1.020 0.410 10628
0.525 1.020 0.407 10123
0.525 1.021 0.404 8519
0.526 1.022 0.400 4991
0.526 1.022 0.397 2914
2.922 5.679 1.611 2706
2.927 5.689 1.595 2490
0.527 1.024 0.388 2472
0.527 1.025 0.384 2091
3.071 5.969 1.605 2491
3.144 6.110 1.620 4782
3.146 6.114 1.600 6507
3.148 6.118 1.580 5402
3.157 6.135 1.563 5612
3.162 6.146 1.545 5477
3.164 6.149 1.525 5127
3.166 6.153 1.505 4738
3.367 6.543 1.570 3526
0.545 1.059 0.358 3169
0.545 1.059 0.355 4170
3.743 7.274 1.657 5083
3.745 7.278 1.633 4983
3.750 7.288 1.611 4292
3.756 7.299 1.588 4848
3.761 7.310 1.566 4344
3.767 7.320 1.543 2908
3.761 7.310 1.517 2008
3.874 7.529 1.533 1996
3.879 7.540 1.510 2064
4.314 8.384 1.636 3354
4.312 8.381 1.608 3874
4.314 8.385 1.580 3412
4.316 8.389 1.553 3265
4.318 8.392 1.526 3115
4.320 8.396 1.498 2726
4.325 8.406 1.472 2472
4.327 8.410 1.444 2147
5.273 10.248 1.697 1719
0.898 1.745 0.393 2017
0.898 1.746 0.387 1920
0.633 1.230 0.308 2493
0.633 1.230 0.304 3369
0.633 1.231 0.300 4083
0.633 1.231 0.296 4029
0.634 1.231 0.292 3859
0.634 1.232 0.289 3693
0.638 1.239 0.286 3170
0.638 1.239 0.282 2525
0.638 1.240 0.278 1751
0.642 1.247 0.275 1030
0.534 1.037 0.248 692
0.534 1.038 0.244 796
0.538 1.045 0.242 742
0.581 1.129 0.247 803
0.870 1.691 0.297 739
0.874 1.698 0.293 1320
0.874 1.699 0.287 1616
0.874 1.699 0.282 1525
0.874 1.699 0.276 1404
0.875 1.700 0.271 1172
0.867 1.686 0.265 767
0.868 1.686 0.259 574
0.871 1.694 0.254 571
0.875 1.701 0.249 475
0.879 1.708 0.244 335
0.539 1.048 0.189 251
0.619 1.203 0.193 412
0.623 1.210 0.190 845
0.623 1.210 0.186 1142
0.623 1.210 0.182 1530
0.623 1.210 0.179 2155
0.627 1.218 0.175 2442
0.623 1.211 0.171 3117
0.623 1.211 0.167 4880
0.623 1.211 0.163 5952
0.623 1.211 0.159 6505
0.623 1.211 0.156 7377
0.623 1.211 0.152 7697
0.619 1.204 0.148 6908
0.616 1.197 0.144 5404
0.616 1.197 0.140 3631
0.619 1.204 0.137 2586
0.616 1.197 0.133 2542
0.612 1.190 0.129 2274
0.609 1.183 0.125 1813
0.605 1.176 0.122 1251
2.184 4.244 0.060 845
2.187 4.251 0.046 1017
2.184 4.244 0.032 1173
2.184 4.244 0.019 1336
2.183 4.243 0.005 1443
2.183 4.243 -0.009 1551
2.183 4.243 -0.023 1593
2.183 4.242 -0.037 1634
2.182 4.242 -0.050 1598
2.182 4.241 -0.064 1561
2.182 4.241 -0.078 1436
2.182 4.240 -0.092 1311
2.181 4.239 -0.105 1148
2.181 4.239 -0.119 986
2.181 4.238 -0.133 794
2.180 4.237 -0.147 601
2.180 4.237 -0.160 453
2.179 4.236 -0.174 303
1.784 3.466 -0.173 258
1.783 3.466 -0.184 350
1.783 3.465 -0.195 443
1.782 3.464 -0.207 443
1.782 3.463 -0.218 440
1.781 3.462 -0.229 437
1.777 3.454 -0.239 373
1.777 3.453 -0.251 313
1.773 3.445 -0.261 278
1.567 3.045 -0.224 272
1.566 3.044 -0.234 318
1.051 2.028 1.759 5429
1.054 2.032 1.753 10858
1.056 2.036 1.746 10858
1.058 2.040 1.740 9043
1.057 2.039 1.729 7457
1.059 2.043 1.722 6058
1.055 2.035 1.706 4836
1.057 2.039 1.700 4836
1.129 2.176 1.797 4984
1.134 2.186 1.794 6614
1.139 2.197 1.792 6269
1.144 2.207 1.789 6276
1.146 2.211 1.782 6738
1.149 2.215 1.775 7200
1.151 2.219 1.768 7417
1.150 2.218 1.756 7597
1.146 2.210 1.741 7648
1.145 2.208 1.729 9535
1.147 2.213 1.722 11441
1.152 2.223 1.719 10070
1.155 2.227 1.712 8825
1.230 2.373 1.807 6039
1.236 2.383 1.803 7880
1.238 2.388 1.796 7551
1.240 2.392 1.788 7222
1.242 2.396 1.780 7637
1.242 2.394 1.768 8069
1.247 2.405 1.765 7607
1.249 2.409 1.757 7162
1.254 2.419 1.753 5471
1.269 2.447 1.762 4626
1.274 2.457 1.758 5258
1.280 2.468 1.754 6321
1.285 2.478 1.750 5760
1.287 2.482 1.742 5223
1.292 2.492 1.738 6659
1.291 2.490 1.726 6923
1.293 2.494 1.718 5801
1.330 2.566 1.753 7153
1.329 2.564 1.741 9439
1.325 2.556 1.725 9418
1.324 2.554 1.713 10288
1.329 2.564 1.709 8758
1.344 2.593 1.716 8800
1.346 2.597 1.707 8795
1.349 2.601 1.699 6720
1.351 2.605 1.690 4646
1.353 2.609 1.682 5685
1.355 2.613 1.674 6074
1.357 2.617 1.665 5424
1.365 2.633 1.664 3994
1.390 2.681 1.681 5306
1.395 2.691 1.676 5907
1.397 2.695 1.667 5006
1.432 2.761 1.695 6446
1.434 2.765 1.686 7147
1.446 2.788 1.687 6897
1.448 2.792 1.678 7008
1.450 2.796 1.669 6725
1.452 2.800 1.660 5417
1.542 2.975 1.745 4482
1.545 2.979 1.735 3422
1.560 3.008 1.739 3950
1.569 3.025 1.736 6270
1.564 3.017 1.720 8946
1.563 3.014 1.707 11004
1.565 3.018 1.697 8965
1.617 3.118 1.737 6849
1.579 3.046 1.687 4613
1.581 3.050 1.677 4672
1.597 3.079 1.680 3880
1.619 3.122 1.690 5806
1.634 3.151 1.693 7766
1.663 3.207 1.708 11253
1.665 3.211 1.698 13957
1.680 3.241 1.700 12641
1.689 3.258 1.696 12654
1.688 3.255 1.682 11851
1.683 3.246 1.665 9996
1.685 3.250 1.655 13260
1.691 3.261 1.647 21877
1.693 3.264 1.637 26758
1.695 3.268 1.626 30296
1.697 3.272 1.615 33133
1.695 3.269 1.602 27105
1.697 3.273 1.591 17833
1.699 3.277 1.581 14028
1.701 3.281 1.570 10476
1.703 3.284 1.559 5847
1.892 3.649 1.706 5627
1.887 3.640 1.688 4490
1.879 3.624 1.668 4050
1.946 3.753 1.709 4039
1.948 3.757 1.697 3324
1.960 3.781 1.693 3820
1.952 3.765 1.672 7252
1.958 3.775 1.663 8032
1.963 3.786 1.653 5921
1.979 3.816 1.652 5899
1.991 3.840 1.647 7734
1.997 3.851 1.637 8213
2.030 3.914 1.648 8499
2.028 3.911 1.633 9642
2.027 3.909 1.618 7286
2.022 3.899 1.600 4224
2.072 3.996 1.622 3747
2.154 4.154 1.666 4547
2.156 4.158 1.653 5570
2.220 4.282 1.683 5402
2.222 4.286 1.669 4568
2.214 4.270 1.648 3218
2.272 4.381 1.672 3504
2.270 4.378 1.656 3724
2.321 4.476 1.674 2761
2.337 4.507 1.669 3872
2.346 4.524 1.659 5748
2.355 4.542 1.648 4370
2.367 4.566 1.640 3153
2.429 4.684 1.663 5242
2.438 4.702 1.652 5780
2.444 4.712 1.639 4801
2.449 4.723 1.626 3767
2.444 4.713 1.606 3289
2.495 4.812 1.620 2302
2.511 4.843 1.613 2605
2.524 4.867 1.603 3822
2.533 4.884 1.592 6223
2.531 4.881 1.574 9517
2.530 4.878 1.556 7687
2.553 4.923 1.552 6455
0.527 1.017 0.416 7323
0.524 1.011 0.411 8273
0.528 1.018 0.410 7208
0.528 1.019 0.407 6862
0.529 1.019 0.404 4628
2.837 5.470 1.597 2583
2.941 5.673 1.632 3120
2.940 5.670 1.611 2537
2.949 5.687 1.596 2041
3.029 5.842 1.616 2329
3.091 5.962 1.627 2144
3.090 5.959 1.605 2714
3.163 6.100 1.620 4587
3.165 6.104 1.600 6167
3.163 6.101 1.578 4990
3.172 6.118 1.561 4709
3.182 6.136 1.545 5099
3.183 6.139 1.525 5270
3.182 6.136 1.503 4392
3.394 6.546 1.573 3715
3.400 6.557 1.553 2869
3.760 7.251 1.679 4312
3.766 7.262 1.657 6154
3.764 7.259 1.632 6257
3.770 7.270 1.609 5386
3.775 7.280 1.587 5003
3.784 7.298 1.566 3487
3.790 7.309 1.543 3088
3.784 7.298 1.517 3271
3.779 7.288 1.490 2839
3.777 7.285 1.465 1915
4.340 8.371 1.636 3016
4.339 8.367 1.608 3608
4.341 8.371 1.580 3397
4.343 8.375 1.553 3230
4.345 8.379 1.526 3052
4.346 8.382 1.498 2603
4.348 8.386 1.471 2297
4.354 8.396 1.444 2017
5.305 10.231 1.697 1709
5.307 10.235 1.664 1745
0.640 1.234 0.313 3302
0.637 1.228 0.308 5325
0.637 1.228 0.304 8192
0.637 1.229 0.300 11377
0.637 1.229 0.296 12596
0.637 1.229 0.292 12964
0.638 1.230 0.289 12465
0.638 1.230 0.285 10038
0.638 1.230 0.281 7097
0.638 1.231 0.277 4465
0.642 1.238 0.274 2571
0.642 1.239 0.270 1342
0.646 1.246 0.267 652
0.537 1.036 0.241 477
0.585 1.127 0.247 491
0.879 1.695 0.298 529
0.879 1.695 0.293 1088
0.879 1.696 0.287 1381
0.879 1.696 0.282 1182
0.880 1.697 0.276 961
0.880 1.697 0.271 817
0.880 1.697 0.266 493
0.589 1.136 0.219 343
0.873 1.684 0.254 311
0.550 1.060 0.194 305
0.550 1.060 0.190 347
0.546 1.054 0.187 335
0.619 1.194 0.189 343
0.623 1.201 0.186 486
0.623 1.201 0.182 691
0.623 1.201 0.178 1112
0.623 1.202 0.174 1375
0.619 1.195 0.170 1684
0.619 1.195 0.167 2275
0.623 1.202 0.163 2590
0.623 1.202 0.159 2828
0.623 1.202 0.156 3119
0.623 1.202 0.152 3193
0.623 1.202 0.148 2654
0.620 1.195 0.144 2157
0.620 1.195 0.140 2666
0.616 1.188 0.137 3224
0.612 1.181 0.133 3394
0.609 1.174 0.129 2822
0.609 1.174 0.126 2369
0.609 1.174 0.122 2030
0.612 1.181 0.118 1284
0.612 1.181 0.114 907
2.201 4.244 0.032 606
2.201 4.244 0.018 706
2.197 4.236 0.005 793
2.197 4.236 -0.009 880
2.200 4.243 -0.023 928
2.200 4.242 -0.037 989
2.199 4.242 -0.051 985
2.199 4.241 -0.064 981
2.195 4.234 -0.078 933
2.195 4.233 -0.092 886
2.195 4.232 -0.105 790
2.198 4.239 -0.120 701
2.198 4.238 -0.133 582
2.194 4.230 -0.147 466
2.193 4.230 -0.160 359
1.794 3.460 -0.184 281
1.794 3.459 -0.195 353
1.793 3.458 -0.207 353
1.793 3.457 -0.218 387
1.792 3.456 -0.229 421
1.792 3.455 -0.240 363
1.788 3.447 -0.251 315
1.064 2.029 1.764 5283
1.066 2.033 1.757 10567
1.068 2.037 1.751 10567
1.067 2.035 1.740 8421
1.066 2.034 1.729 6675
1.068 2.038 1.722 5287
1.074 2.048 1.720 3960
1.076 2.052 1.713 3960
1.135 2.165 1.792 4797
1.141 2.176 1.790 6313
1.146 2.186 1.787 5636
1.157 2.207 1.794 5368
1.156 2.206 1.782 5480
1.156 2.204 1.771 5668
1.158 2.208 1.763 5972
1.157 2.207 1.752 6383
1.156 2.205 1.741 6659
1.155 2.203 1.729 8937
1.157 2.207 1.722 11198
1.162 2.217 1.719 9830
1.165 2.221 1.712 8655
1.238 2.361 1.803 5853
1.243 2.372 1.799 7485
1.249 2.382 1.796 6546
1.254 2.392 1.792 5929
1.253 2.390 1.780 5677
1.252 2.389 1.768 5615
1.255 2.393 1.761 5818
1.257 2.397 1.753 6020
1.259 2.401 1.745 4996
1.277 2.435 1.758 4493
1.282 2.446 1.754 5147
1.288 2.456 1.750 6026
1.290 2.460 1.742 5785
1.289 2.458 1.730 5641
1.300 2.480 1.734 6767
1.303 2.484 1.726 6903
1.305 2.489 1.718 5682
1.342 2.560 1.753 7753
1.344 2.564 1.745 10033
1.340 2.556 1.729 9892
1.339 2.554 1.717 10493
1.344 2.564 1.712 9333
1.356 2.586 1.716 9838
1.358 2.590 1.707 9963
1.360 2.595 1.699 7540
1.388 2.648 1.720 5292
1.364 2.603 1.682 5898
1.367 2.607 1.674 5761
1.369 2.610 1.665 4844
1.374 2.621 1.660 3583
1.396 2.662 1.674 3283
1.463 2.790 1.738 3331
1.485 2.832 1.750 4215
1.497 2.855 1.752 5473
1.502 2.865 1.746 5687
1.462 2.788 1.691 5730
1.464 2.792 1.682 6203
1.463 2.790 1.669 6064
1.468 2.800 1.664 4939
1.506 2.873 1.693 3985
1.508 2.877 1.683 3065
1.577 3.008 1.743 3662
1.582 3.018 1.736 5487
1.574 3.003 1.716 8524
1.573 3.001 1.703 10884
1.579 3.011 1.697 9607
1.628 3.104 1.734 7053
1.626 3.102 1.720 4767
1.608 3.068 1.690 3993
1.617 3.085 1.687 4156
1.633 3.114 1.690 5671
1.652 3.150 1.696 6952
1.674 3.193 1.705 11608
1.679 3.203 1.698 14722
1.695 3.233 1.700 12715
1.707 3.256 1.699 11804
1.706 3.254 1.685 10879
1.701 3.245 1.668 7988
1.693 3.230 1.649 8646
1.709 3.259 1.650 13215
1.711 3.263 1.640 17637
1.713 3.267 1.629 20861
1.711 3.264 1.615 23132
1.710 3.262 1.602 18850
1.709 3.259 1.588 12114
1.711 3.263 1.578 9461
1.716 3.273 1.570 7040
1.906 3.636 1.717 4260
1.908 3.640 1.706 5386
1.897 3.618 1.682 4698
1.895 3.615 1.668 4366
1.963 3.744 1.709 3967
1.968 3.755 1.700 4446
1.981 3.778 1.696 6076
1.973 3.763 1.675 8233
1.978 3.773 1.666 8640
1.991 3.797 1.661 7229
1.993 3.801 1.649 7704
2.002 3.818 1.642 8966
2.007 3.828 1.632 7816
2.047 3.905 1.648 8698
2.046 3.902 1.633 10446
2.041 3.893 1.615 8077
2.039 3.890 1.600 4780
2.052 3.914 1.595 3998
2.173 4.144 1.666 4179
2.175 4.148 1.653 5249
2.240 4.272 1.683 5136
2.235 4.262 1.664 4700
2.226 4.246 1.643 5290
2.225 4.243 1.627 4931
2.227 4.247 1.613 4375
2.229 4.251 1.599 3509
2.322 4.429 1.646 3932
2.370 4.520 1.661 5370
2.375 4.531 1.648 4180
2.388 4.555 1.640 2876
2.454 4.680 1.665 4221
2.459 4.691 1.652 4295
2.475 4.722 1.646 3737
2.474 4.719 1.628 3536
2.469 4.709 1.608 2838
2.506 4.780 1.614 2344
2.508 4.784 1.598 3141
2.549 4.862 1.606 4221
2.555 4.873 1.592 5812
2.557 4.877 1.576 6742
2.559 4.880 1.560 4921
2.582 4.925 1.556 4735
2.570 4.901 1.532 3707
2.803 5.347 1.641 2962
2.812 5.364 1.627 3007
2.850 5.436 1.629 2556
2.852 5.440 1.611 3625
2.854 5.444 1.593 3009
2.967 5.659 1.632 3403
0.534 1.019 0.394 2605
3.053 5.824 1.635 2270
3.052 5.821 1.615 2483
3.122 5.955 1.628 2230
3.120 5.952 1.607 2607
3.191 6.086 1.620 3839
3.193 6.090 1.600 5051
3.191 6.086 1.578 3584
3.200 6.104 1.561 3503
3.206 6.114 1.543 4252
3.211 6.125 1.525 4426
3.411 6.507 1.590 3447
3.428 6.538 1.574 3838
3.563 6.796 1.608 3004
3.793 7.234 1.679 4771
3.798 7.245 1.657 6601
3.797 7.242 1.632 6777
3.802 7.253 1.609 6131
3.808 7.263 1.587 5525
3.810 7.267 1.563 3810
3.819 7.284 1.542 3735
3.817 7.281 1.517 4043
3.812 7.271 1.490 3186
3.977 7.586 1.524 2584
4.378 8.351 1.636 2413
4.380 8.355 1.609 2941
4.379 8.352 1.580 2921
4.380 8.355 1.553 2768
4.382 8.359 1.526 2556
4.384 8.362 1.498 2079
4.386 8.366 1.471 1727
0.641 1.223 0.323 1517
0.641 1.223 0.320 3376
0.642 1.224 0.316 5144
0.642 1.224 0.312 6748
0.638 1.218 0.307 7572
0.639 1.218 0.303 7766
0.639 1.219 0.299 7883
0.643 1.226 0.296 7290
0.643 1.226 0.292 6769
0.643 1.227 0.289 6085
0.647 1.234 0.286 4839
0.647 1.235 0.282 3571
0.647 1.235 0.278 2494
0.648 1.235 0.274 1691
0.648 1.236 0.270 1021
6.467 12.335 1.449 690
6.469 12.338 1.408 534
0.890 1.698 0.304 360
0.887 1.691 0.298 542
0.887 1.691 0.293 779
0.887 1.692 0.287 796
0.887 1.692 0.282 548
0.887 1.693 0.276 375
0.891 1.700 0.272 280
0.891 1.700 0.266 254
0.888 1.694 0.260 330
0.888 1.694 0.255 344
0.888 1.694 0.249 256
0.595 1.134 0.208 266
0.591 1.128 0.204 271
0.588 1.121 0.200 268
0.558 1.065 0.191 266
0.558 1.065 0.187 336
0.558 1.065 0.184 338
0.555 1.058 0.180 290
0.628 1.199 0.182 506
0.628 1.199 0.178 934
0.632 1.206 0.175 1168
0.629 1.199 0.171 1445
0.629 1.199 0.167 1963
0.629 1.199 0.163 2196
0.629 1.199 0.159 1989
0.625 1.192 0.155 1400
0.625 1.192 0.152 879
0.551 1.052 0.147 679
0.551 1.052 0.144 827
0.551 1.052 0.140 1043
0.551 1.052 0.137 1264
0.548 1.045 0.134 1596
0.548 1.045 0.130 1802
0.548 1.045 0.127 1832
0.548 1.045 0.124 1810
0.548 1.045 0.121 1615
0.548 1.045 0.117 1173
0.544 1.038 0.114 902
0.544 1.038 0.111 740
2.216 4.226 0.005 716
2.216 4.226 -0.009 851
2.219 4.233 -0.023 952
2.219 4.232 -0.037 1065
2.219 4.232 -0.051 1112
2.215 4.224 -0.064 1162
2.214 4.224 -0.078 1135
2.214 4.223 -0.092 1108
2.214 4.222 -0.105 996
2.213 4.222 -0.119 884
2.213 4.221 -0.133 727
2.213 4.220 -0.147 571
2.212 4.220 -0.160 434
2.212 4.219 -0.174 295
1.810 3.452 -0.184 286
1.809 3.451 -0.195 360
1.809 3.450 -0.207 360
1.808 3.449 -0.218 350
1.808 3.448 -0.229 341
1.807 3.447 -0.240 268
1.071 2.025 1.764 4953
1.073 2.029 1.757 9907
1.076 2.033 1.751 9907
1.075 2.031 1.740 7528
1.074 2.030 1.729 5666
1.076 2.034 1.722 4408
1.103 2.084 1.752 3607
1.105 2.088 1.745 3607
1.140 2.155 1.788 4732
1.146 2.165 1.785 6106
1.151 2.175 1.783 5260
1.153 2.180 1.776 4509
1.156 2.184 1.769 4632
1.158 2.188 1.762 4755
1.163 2.198 1.759 4667
1.165 2.202 1.752 5099
1.201 2.271 1.793 6117
1.163 2.199 1.729 8102
1.166 2.203 1.722 10622
1.171 2.213 1.719 9400
1.173 2.217 1.712 8354
1.244 2.351 1.798 5923
1.249 2.361 1.795 7264
1.255 2.371 1.792 5892
1.266 2.393 1.796 4954
1.259 2.380 1.776 4208
1.217 2.301 1.710 3913
1.260 2.382 1.757 4604
1.259 2.380 1.745 5396
1.268 2.396 1.745 4675
1.289 2.437 1.762 5759
1.291 2.441 1.754 6183
1.294 2.445 1.746 6607
1.296 2.449 1.738 6434
1.298 2.453 1.730 6260
1.310 2.475 1.734 7123
1.312 2.480 1.726 7339
1.314 2.484 1.718 6075
1.352 2.555 1.753 7567
1.354 2.559 1.745 9883
1.350 2.551 1.729 9882
1.348 2.549 1.717 10516
1.357 2.565 1.716 9650
1.366 2.581 1.716 10318
1.368 2.585 1.707 10483
1.373 2.596 1.703 7894
1.398 2.643 1.720 5879
1.417 2.678 1.731 6309
1.376 2.601 1.674 5283
1.378 2.605 1.665 4249
1.381 2.609 1.657 3340
1.471 2.781 1.747 2731
1.473 2.785 1.738 3982
1.486 2.808 1.740 4450
1.508 2.849 1.752 5332
1.513 2.860 1.746 5570
1.475 2.789 1.694 4979
1.474 2.786 1.682 5606
1.473 2.784 1.669 5563
1.518 2.870 1.706 5142
1.521 2.874 1.696 4592
1.523 2.878 1.687 3590
1.528 2.888 1.681 3642
1.577 2.980 1.719 5077
1.582 2.991 1.713 8209
1.585 2.995 1.703 10812
1.590 3.005 1.697 10355
1.592 3.009 1.687 7746
1.638 3.096 1.720 5614
1.640 3.100 1.710 4119
1.639 3.098 1.697 4184
1.644 3.108 1.690 4997
1.680 3.176 1.712 6922
1.686 3.186 1.705 12012
1.691 3.197 1.698 15144
1.704 3.220 1.697 12545
1.720 3.250 1.699 10706
1.718 3.247 1.685 10999
1.710 3.232 1.665 11184
1.699 3.210 1.642 10549
1.701 3.214 1.632 10390
1.716 3.244 1.634 10980
1.725 3.261 1.629 12715
1.724 3.258 1.615 13370
1.719 3.249 1.599 11141
1.786 3.376 1.644 8475
1.788 3.380 1.633 8034
1.790 3.384 1.622 6257
1.792 3.387 1.611 4235
1.919 3.626 1.703 5423
1.910 3.611 1.682 5068
1.909 3.608 1.668 4589
1.980 3.743 1.712 3976
1.983 3.747 1.700 5560
1.995 3.771 1.696 7682
1.997 3.775 1.683 8760
1.996 3.772 1.668 8517
2.005 3.789 1.661 7847
2.007 3.793 1.649 8364
2.013 3.804 1.639 9247
2.018 3.814 1.629 7935
2.059 3.891 1.646 8372
2.057 3.888 1.630 10280
2.056 3.885 1.615 7784
2.054 3.882 1.600 4477
2.067 3.906 1.595 3712
2.188 4.136 1.666 3614
2.190 4.140 1.653 4415
2.238 4.230 1.671 5172
2.240 4.234 1.657 6251
2.242 4.238 1.643 7998
2.241 4.235 1.627 7151
2.239 4.232 1.611 5914
2.241 4.236 1.597 4828
2.335 4.414 1.643 4132
2.387 4.511 1.661 4547
2.393 4.522 1.648 3757
2.395 4.526 1.634 2865
2.471 4.671 1.665 3275
2.477 4.681 1.652 3418
2.500 4.726 1.650 3594
2.499 4.723 1.632 3935
2.494 4.713 1.613 3725
2.531 4.784 1.618 3506
2.530 4.781 1.601 4669
2.568 4.853 1.606 4359
2.570 4.856 1.590 6004
2.539 4.799 1.556 5671
2.541 4.803 1.540 5530
2.550 4.820 1.528 4315
2.581 4.878 1.528 3573
0.540 1.020 0.415 4760
0.536 1.014 0.410 4888
0.537 1.014 0.407 4618
0.533 1.008 0.402 3538
2.875 5.433 1.593 3365
2.895 5.471 1.585 3519
3.001 5.672 1.619 2720
3.075 5.812 1.635 2385
3.074 5.809 1.615 2626
3.112 5.881 1.613 2419
3.150 5.954 1.611 2459
3.214 6.074 1.620 2907
3.216 6.077 1.600 3852
3.214 6.074 1.578 2553
3.223 6.092 1.561 2354
3.232 6.109 1.545 2898
3.430 6.483 1.609 3470
3.439 6.501 1.591 3197
3.449 6.518 1.573 3709
3.589 6.783 1.608 3157
3.820 7.220 1.679 4576
3.822 7.224 1.655 6382
3.824 7.227 1.632 6713
3.830 7.238 1.609 6521
3.832 7.242 1.586 6095
3.834 7.246 1.562 4462
3.847 7.270 1.542 4025
3.845 7.267 1.517 4086
4.004 7.567 1.549 3144
4.006 7.571 1.524 3767
4.011 7.581 1.500 2932
4.445 8.400 1.620 2347
4.015 7.588 1.450 2492
4.009 7.577 1.423 2133
0.755 1.427 0.370 1941
0.755 1.427 0.365 1775
4.465 8.439 1.485 1296
5.384 10.176 1.730 1191
0.646 1.221 0.320 1871
0.646 1.221 0.316 3328
0.647 1.222 0.312 5781
0.647 1.222 0.308 9315
0.647 1.223 0.304 14426
0.647 1.223 0.300 20103
0.647 1.224 0.296 21984
0.648 1.224 0.292 21448
0.648 1.224 0.289 18878
0.652 1.232 0.286 13368
0.652 1.232 0.282 7716
0.652 1.232 0.278 3265
0.656 1.240 0.275 1299
0.656 1.240 0.271 939
6.513 12.310 1.449 740
6.515 12.314 1.408 584
6.521 12.324 1.368 410
0.657 1.241 0.255 312
5.535 10.461 1.113 328
5.536 10.464 1.078 331
0.595 1.124 0.233 385
0.591 1.117 0.229 403
0.591 1.117 0.225 317
0.592 1.118 0.211 252
0.562 1.063 0.187 331
0.559 1.056 0.184 413
0.559 1.056 0.180 393
0.559 1.056 0.177 321
0.629 1.189 0.178 272
0.629 1.189 0.174 403
0.629 1.189 0.170 529
0.629 1.190 0.167 799
0.629 1.190 0.163 954
0.629 1.190 0.159 1232
0.629 1.190 0.155 1801
0.633 1.197 0.152 2103
0.630 1.190 0.148 2215
0.630 1.190 0.144 2322
0.630 1.190 0.140 2227
0.559 1.057 0.137 1966
0.555 1.050 0.134 2833
0.555 1.050 0.130 3372
0.552 1.043 0.127 3462
0.552 1.043 0.124 3503
0.552 1.043 0.121 3132
0.552 1.043 0.117 2265
0.552 1.043 0.114 1658
0.552 1.043 0.111 1119
2.232 4.218 0.005 838
2.232 4.218 -0.009 921
2.231 4.217 -0.023 938
2.235 4.224 -0.037 956
2.231 4.216 -0.050 910
2.231 4.216 -0.064 867
2.230 4.215 -0.078 762
2.230 4.215 -0.092 657
2.230 4.214 -0.105 534
2.233 4.220 -0.120 417
2.233 4.220 -0.133 316
1.822 3.444 -0.195 275
1.822 3.443 -0.207 275
1.821 3.442 -0.218 274
1.821 3.441 -0.229 272
1.819 3.437 -0.274 254
1.818 3.436 -0.285 254
1.079 2.021 1.764 4496
1.081 2.025 1.757 8992
1.083 2.029 1.751 8992
1.086 2.033 1.744 6662
1.079 2.020 1.724 4784
1.087 2.036 1.727 3672
1.110 2.080 1.752 3904
1.113 2.084 1.745 3904
1.149 2.151 1.788 4631
1.151 2.155 1.781 5896
1.153 2.160 1.774 5203
1.155 2.164 1.767 4510
1.154 2.162 1.756 4846
1.154 2.161 1.744 5247
1.156 2.165 1.737 4726
1.161 2.175 1.735 4459
1.210 2.266 1.793 5716
1.172 2.194 1.729 7251
1.174 2.199 1.722 9858
1.179 2.208 1.719 8809
1.181 2.213 1.712 7864
1.250 2.340 1.794 5961
1.252 2.345 1.787 7285
1.257 2.355 1.783 5743
1.212 2.270 1.713 4879
1.221 2.286 1.714 4892
1.226 2.296 1.710 5375
1.225 2.294 1.699 4381
1.265 2.370 1.741 5115
1.299 2.433 1.774 5683
1.298 2.432 1.762 7943
1.301 2.436 1.754 7864
1.303 2.440 1.746 7785
1.305 2.444 1.738 7399
1.307 2.448 1.730 7012
1.316 2.464 1.730 7926
1.321 2.475 1.726 8288
1.323 2.479 1.718 7022
1.361 2.549 1.753 6865
1.363 2.554 1.745 9191
1.359 2.546 1.729 9426
1.358 2.544 1.717 10132
1.367 2.560 1.716 9512
1.375 2.576 1.716 10111
1.378 2.580 1.707 10268
1.383 2.590 1.703 7834
1.408 2.637 1.720 6022
1.427 2.672 1.731 6585
1.432 2.682 1.726 5036
1.388 2.600 1.665 3909
1.394 2.610 1.660 3257
1.482 2.775 1.747 3072
1.484 2.779 1.738 4509
1.493 2.796 1.736 5052
1.498 2.806 1.730 5157
1.527 2.860 1.750 5330
1.533 2.870 1.744 5017
1.491 2.793 1.689 4861
1.524 2.854 1.711 5790
1.529 2.864 1.706 6029
1.531 2.868 1.696 5028
1.560 2.922 1.714 4801
1.569 2.939 1.712 4669
1.575 2.949 1.706 5434
1.590 2.979 1.710 8068
1.596 2.989 1.703 10769
1.601 2.999 1.697 10923
1.604 3.003 1.687 8629
1.653 3.096 1.723 6125
1.655 3.100 1.713 4705
1.651 3.091 1.697 4058
1.707 3.197 1.738 4733
1.706 3.195 1.725 7398
1.698 3.180 1.705 11774
1.704 3.190 1.698 14469
1.709 3.201 1.690 11668
1.732 3.243 1.699 9612
1.727 3.235 1.682 11756
1.722 3.226 1.665 14388
1.714 3.210 1.645 13296
1.709 3.201 1.629 12189
1.711 3.205 1.618 11098
1.717 3.215 1.611 8773
1.726 3.232 1.606 7628
1.797 3.365 1.655 7407
1.799 3.369 1.644 8056
1.801 3.373 1.633 7923
1.803 3.377 1.622 6236
1.805 3.381 1.611 4381
1.932 3.619 1.703 5397
1.924 3.603 1.682 5483
1.919 3.594 1.665 4860
1.995 3.735 1.712 3776
1.993 3.733 1.697 5965
2.002 3.750 1.690 8242
2.015 3.774 1.686 8850
2.014 3.771 1.671 7974
2.019 3.782 1.661 7807
2.021 3.786 1.649 8535
2.023 3.789 1.637 9341
2.029 3.800 1.627 7466
2.073 3.883 1.646 7454
2.072 3.880 1.630 9440
2.070 3.877 1.615 6868
2.139 4.007 1.650 5741
2.142 4.011 1.637 4503
2.218 4.154 1.676 3231
2.241 4.198 1.677 4385
2.247 4.208 1.666 6163
2.253 4.219 1.655 7629
2.255 4.223 1.641 9633
2.257 4.226 1.627 8370
2.255 4.224 1.611 6656
2.257 4.227 1.597 5702
2.263 4.238 1.586 4926
2.358 4.415 1.631 4018
2.363 4.426 1.619 3950
2.372 4.443 1.609 3167
2.399 4.494 1.610 3585
2.430 4.551 1.613 3238
2.515 4.709 1.648 3471
2.517 4.713 1.632 4871
2.519 4.717 1.617 5262
2.546 4.768 1.616 4583
2.548 4.772 1.601 5704
2.550 4.776 1.585 5797
2.566 4.806 1.577 5951
2.561 4.796 1.558 8819
2.559 4.793 1.540 9785
2.561 4.797 1.524 7419
2.567 4.807 1.510 5000
2.576 4.824 1.498 2903
0.537 1.005 0.408 3255
0.533 0.999 0.403 2808
2.897 5.425 1.613 3654
2.895 5.422 1.593 3423
2.912 5.453 1.583 3445
3.023 5.661 1.619 2905
3.028 5.671 1.602 2693
3.092 5.791 1.613 2832
3.130 5.863 1.611 3133
3.125 5.853 1.588 2934
3.127 5.857 1.569 2504
3.242 6.072 1.601 2789
3.244 6.076 1.581 1742
3.275 6.134 1.574 1993
3.453 6.466 1.630 2043
3.458 6.477 1.611 3049
3.468 6.494 1.593 2995
3.473 6.505 1.573 3332
3.611 6.762 1.607 3033
3.847 7.205 1.679 3762
3.849 7.209 1.655 5575
3.851 7.213 1.632 6193
3.857 7.224 1.609 6374
3.859 7.227 1.586 6176
3.861 7.231 1.562 4680
3.870 7.249 1.541 3831
3.872 7.252 1.517 3562
4.032 7.552 1.549 4134
4.034 7.555 1.524 4679
4.040 7.566 1.500 3574
4.045 7.576 1.477 2848
4.043 7.573 1.450 2994
4.042 7.569 1.424 2569
4.040 7.566 1.398 1942
0.761 1.424 0.365 1552
4.501 8.429 1.486 1375
5.426 10.162 1.731 1060
0.654 1.225 0.321 1371
0.655 1.226 0.317 2194
0.655 1.226 0.313 2986
0.655 1.227 0.309 3287
0.655 1.227 0.305 3167
0.656 1.228 0.301 4269
0.656 1.228 0.297 6358
0.652 1.222 0.292 8653
0.652 1.222 0.289 9806
0.653 1.222 0.285 8624
0.653 1.223 0.281 6272
0.653 1.223 0.277 4154
0.653 1.223 0.273 2782
0.653 1.224 0.269 1795
0.661 1.238 0.267 1056
6.565 12.296 1.409 615
6.571 12.306 1.369 452
5.569 10.431 1.146 330
5.574 10.440 1.113 378
5.576 10.443 1.078 387
5.577 10.445 1.044 378
5.578 10.447 1.009 332
5.579 10.449 0.975 258
0.563 1.054 0.180 257
0.563 1.054 0.177 294
0.559 1.047 0.173 313
0.556 1.040 0.170 290
0.556 1.040 0.167 252
0.638 1.194 0.167 501
0.638 1.194 0.163 750
0.634 1.187 0.159 1085
0.634 1.187 0.155 1544
0.634 1.187 0.152 1643
0.638 1.194 0.148 1462
0.559 1.048 0.144 1684
0.559 1.048 0.140 1941
0.559 1.048 0.137 1878
0.563 1.055 0.134 1583
0.563 1.055 0.130 1423
0.559 1.048 0.127 1635
0.559 1.048 0.124 2079
0.559 1.048 0.120 2460
0.559 1.048 0.117 2637
0.556 1.040 0.114 2668
0.556 1.040 0.111 2284
0.555 1.040 0.107 1846
0.552 1.033 0.104 1378
0.552 1.033 0.101 894
0.552 1.033 0.098 655
2.247 4.208 -0.050 646
2.247 4.207 -0.064 677
2.246 4.207 -0.078 648
2.246 4.206 -0.092 618
2.246 4.206 -0.105 531
2.245 4.205 -0.119 443
2.245 4.204 -0.133 341
2.311 4.329 -0.155 255
2.311 4.328 -0.169 308
2.314 4.334 -0.184 360
2.318 4.341 -0.199 360
2.317 4.340 -0.213 362
2.317 4.339 -0.227 362
2.316 4.338 -0.241 299
1.838 3.442 -0.219 266
1.838 3.441 -0.230 298
1.833 3.434 -0.240 250
1.088 2.023 1.769 3859
1.091 2.027 1.762 7718
1.093 2.031 1.756 7718
1.095 2.035 1.749 5652
1.122 2.085 1.779 3950
1.121 2.083 1.768 4073
1.123 2.088 1.761 4218
1.125 2.092 1.754 4218
1.152 2.142 1.783 4620
1.158 2.152 1.781 5734
1.157 2.150 1.770 5308
1.153 2.143 1.754 5240
1.158 2.153 1.751 5684
1.160 2.157 1.744 6250
1.163 2.161 1.737 5274
1.165 2.165 1.730 4414
1.217 2.262 1.793 5255
1.185 2.202 1.738 6608
1.181 2.195 1.722 9011
1.186 2.205 1.719 8121
1.188 2.209 1.712 7238
1.248 2.319 1.781 6257
1.256 2.335 1.782 7657
1.255 2.333 1.771 5980
1.219 2.266 1.713 5175
1.228 2.282 1.714 5170
1.233 2.292 1.710 5701
1.271 2.361 1.748 4555
1.308 2.431 1.786 5223
1.307 2.429 1.774 7680
1.309 2.434 1.766 10216
1.312 2.438 1.758 9702
1.314 2.442 1.750 9189
1.313 2.440 1.738 8380
1.312 2.438 1.726 7686
1.324 2.460 1.730 8534
1.329 2.470 1.726 8944
1.331 2.474 1.718 7745
1.373 2.551 1.757 6071
1.372 2.549 1.745 8206
1.371 2.547 1.733 8688
1.370 2.545 1.721 9463
1.375 2.555 1.716 8998
1.384 2.572 1.716 9370
1.389 2.582 1.711 9544
1.391 2.586 1.703 7453
1.433 2.664 1.739 6009
1.439 2.674 1.734 6700
1.441 2.678 1.726 5112
1.400 2.602 1.669 3704
1.415 2.630 1.675 3501
1.494 2.777 1.750 3387
1.496 2.781 1.741 4840
1.498 2.785 1.732 5522
1.501 2.789 1.723 5595
1.536 2.855 1.750 4942
1.502 2.791 1.702 4916
1.527 2.838 1.717 5292
1.533 2.849 1.711 6434
1.535 2.853 1.702 6464
1.571 2.919 1.727 5374
1.576 2.930 1.721 6138
1.582 2.940 1.715 6041
1.588 2.951 1.709 6409
1.596 2.967 1.706 8490
1.602 2.977 1.700 10770
1.608 2.988 1.693 11196
1.613 2.998 1.687 9039
1.663 3.091 1.723 6073
1.669 3.101 1.717 4756
1.664 3.093 1.700 3582
1.714 3.186 1.735 5024
1.716 3.190 1.725 7702
1.708 3.175 1.705 10940
1.714 3.185 1.698 12886
1.716 3.189 1.687 10278
1.739 3.231 1.696 8725
1.734 3.223 1.679 12402
1.729 3.214 1.662 15770
1.724 3.205 1.645 14162
1.723 3.202 1.632 12471
1.725 3.206 1.621 11004
1.727 3.210 1.611 8654
1.729 3.214 1.600 7149
1.731 3.217 1.590 6617
1.810 3.363 1.644 6985
1.815 3.374 1.636 7354
1.894 3.520 1.689 5673
1.896 3.524 1.677 4415
1.940 3.606 1.700 5579
1.936 3.597 1.682 5847
1.927 3.582 1.662 5006
1.929 3.586 1.651 3382
2.005 3.727 1.697 5719
2.014 3.744 1.690 8017
2.027 3.767 1.686 8323
2.029 3.771 1.674 7295
2.035 3.782 1.664 7571
2.033 3.779 1.649 8017
2.032 3.776 1.634 8604
2.041 3.793 1.627 6742
2.086 3.876 1.646 6482
2.084 3.873 1.630 8364
2.083 3.871 1.615 5720
2.149 3.993 1.648 7399
2.154 4.004 1.637 5954
2.167 4.028 1.632 3978
2.251 4.184 1.675 4804
2.257 4.194 1.664 6391
2.266 4.212 1.655 7777
2.268 4.215 1.641 9648
2.270 4.219 1.627 8260
2.269 4.216 1.611 6468
2.271 4.220 1.597 5697
2.276 4.231 1.586 5359
2.278 4.234 1.572 4575
2.377 4.418 1.619 4738
2.383 4.429 1.607 3852
2.414 4.486 1.610 3782
2.445 4.543 1.613 3044
2.457 4.567 1.604 3412
2.535 4.712 1.634 5361
2.537 4.716 1.619 6277
0.518 0.963 0.426 5518
2.560 4.757 1.598 5414
2.565 4.767 1.585 7424
2.571 4.778 1.571 8318
2.576 4.788 1.558 11440
2.575 4.785 1.540 13633
2.577 4.789 1.524 10437
2.582 4.799 1.510 6991
2.588 4.809 1.497 3851
2.888 5.368 1.637 3214
2.905 5.399 1.627 3770
2.914 5.416 1.613 4250
2.912 5.413 1.593 3493
2.925 5.437 1.581 2997
3.041 5.651 1.619 2807
3.043 5.655 1.600 2887
3.107 5.774 1.611 2803
3.146 5.846 1.609 3453
3.144 5.843 1.588 3564
3.142 5.840 1.568 3443
3.144 5.844 1.548 2398
3.220 5.984 1.562 1629
3.218 5.980 1.540 1767
3.620 6.728 1.694 1806
3.479 6.466 1.611 2443
3.488 6.483 1.593 2549
3.733 6.938 1.672 3282
3.735 6.942 1.649 3398
