0.700 0.828 0.092 376
0.700 0.827 0.089 426
0.694 0.821 0.087 484
0.694 0.821 0.084 463
0.704 0.833 0.080 473
0.709 0.839 0.076 719
0.709 0.839 0.073 976
0.704 0.833 0.071 1269
0.704 0.833 0.068 1543
0.704 0.832 0.065 1551
0.704 0.832 0.062 1490
0.709 0.838 0.058 1187
0.708 0.838 0.055 894
0.708 0.838 0.052 952
0.708 0.837 0.049 1030
0.708 0.837 0.046 1054
0.708 0.837 0.043 1078
0.708 0.837 0.040 813
0.702 0.831 0.037 562
0.702 0.830 0.034 337
1.493 1.746 1.769 2841
1.496 1.749 1.762 5682
1.499 1.753 1.756 5682
1.556 1.820 1.809 7587
1.564 1.829 1.806 9878
1.567 1.833 1.800 11890
1.570 1.836 1.793 13903
1.573 1.840 1.786 13903
1.572 1.839 1.774 14797
1.575 1.842 1.768 15743
1.578 1.846 1.761 14443
1.585 1.854 1.758 13359
1.589 1.858 1.751 13870
1.596 1.867 1.749 14578
1.599 1.870 1.742 12540
1.602 1.874 1.735 9939
1.596 1.867 1.719 9438
1.599 1.871 1.712 7384
1.607 1.879 1.709 5285
1.696 1.984 1.788 3616
1.699 1.987 1.780 4516
1.698 1.986 1.769 4529
1.692 1.979 1.753 4909
1.695 1.983 1.745 8002
1.698 1.987 1.738 11096
1.706 1.995 1.734 9923
1.713 2.004 1.731 9025
1.747 2.043 1.753 7005
1.759 2.057 1.753 9483
1.757 2.056 1.741 11408
1.752 2.049 1.725 14013
1.755 2.052 1.718 13010
1.762 2.061 1.714 12036
1.765 2.065 1.706 10442
1.772 2.073 1.702 8978
1.775 2.077 1.695 9943
1.783 2.085 1.691 9785
1.781 2.083 1.679 8417
1.847 2.160 1.726 7895
1.850 2.164 1.718 9001
1.848 2.162 1.706 8522
1.833 2.144 1.682 8324
1.859 2.174 1.693 10101
1.880 2.199 1.700 11581
1.892 2.213 1.700 13120
1.895 2.216 1.691 10840
1.902 2.225 1.687 8781
1.919 2.244 1.689 6581
1.931 2.258 1.688 7221
1.934 2.262 1.680 7880
1.936 2.265 1.671 8237
1.939 2.268 1.663 7245
1.993 2.331 1.694 6230
2.000 2.339 1.689 8293
2.008 2.348 1.684 8876
2.024 2.368 1.686 7129
2.027 2.371 1.677 9159
2.039 2.385 1.675 13491
2.047 2.394 1.669 16608
2.054 2.403 1.664 14551
2.164 2.531 1.734 11118
2.162 2.529 1.721 11026
2.170 2.538 1.715 13754
2.182 2.552 1.712 14488
2.194 2.566 1.710 10874
2.202 2.575 1.703 9283
2.191 2.562 1.683 9735
2.189 2.560 1.670 9115
2.197 2.569 1.664 6588
2.195 2.567 1.651 6113
2.202 2.576 1.645 6584
2.210 2.585 1.638 9419
2.213 2.588 1.628 12456
2.216 2.591 1.619 11514
2.218 2.595 1.609 9618
2.396 2.802 1.716 9921
2.399 2.806 1.705 11939
2.406 2.815 1.697 15396
2.414 2.824 1.690 20969
2.412 2.822 1.676 20382
2.410 2.819 1.662 16493
2.413 2.823 1.652 15087
2.416 2.826 1.641 12834
2.433 2.846 1.639 10228
2.436 2.849 1.628 10481
2.458 2.875 1.629 11673
2.461 2.878 1.619 14130
2.440 2.854 1.593 11345
2.442 2.857 1.582 11640
2.445 2.860 1.572 10903
2.458 2.874 1.566 6834
2.710 3.170 1.702 7345
2.713 3.174 1.690 9327
2.731 3.194 1.686 7729
2.738 3.203 1.676 7794
2.756 3.223 1.672 8103
2.793 3.266 1.679 7187
2.825 3.304 1.683 7879
2.847 3.330 1.681 8187
2.840 3.322 1.663 8841
2.828 3.308 1.643 8097
2.812 3.289 1.620 5395
2.946 3.446 1.677 4266
2.959 3.461 1.669 4469
2.966 3.470 1.658 3420
3.106 3.633 1.715 4203
3.104 3.631 1.699 3823
3.190 3.731 1.727 3296
3.178 3.718 1.705 4759
3.181 3.721 1.691 4908
3.243 3.793 1.706 3685
3.266 3.820 1.701 2851
3.264 3.817 1.684 3746
3.267 3.821 1.669 5477
3.269 3.824 1.655 5852
3.267 3.822 1.638 5108
3.270 3.825 1.623 4390
3.268 3.823 1.607 6602
3.266 3.820 1.590 8504
3.269 3.823 1.575 8288
3.271 3.826 1.561 8720
3.279 3.835 1.548 6887
3.277 3.833 1.532 3564
3.765 4.404 1.724 2545
3.793 4.437 1.717 2320
3.796 4.440 1.700 6309
3.794 4.438 1.681 7998
3.817 4.464 1.673 4946
3.840 4.491 1.664 7116
3.838 4.489 1.644 8102
3.850 4.504 1.631 7786
3.878 4.536 1.624 10979
3.886 4.545 1.608 13037
3.909 4.572 1.599 10744
3.931 4.599 1.589 8039
3.944 4.613 1.575 6764
3.942 4.611 1.555 5341
3.950 4.620 1.540 4925
3.952 4.623 1.522 4531
3.965 4.638 1.508 3073
4.439 5.193 1.652 1620
4.603 5.384 1.687 1496
4.817 5.634 1.737 1336
4.881 5.709 1.736 2232
4.702 5.500 1.655 1957
5.007 5.857 1.731 2623
5.025 5.878 1.713 2843
5.210 6.094 1.747 3967
5.213 6.097 1.724 5695
5.211 6.095 1.699 5179
5.214 6.098 1.676 4668
5.222 6.108 1.654 4300
5.225 6.111 1.631 3187
5.227 6.114 1.607 1989
1.282 1.499 0.486 1552
5.557 6.500 1.649 1611
1.283 1.500 0.475 1500
1.283 1.501 0.469 1776
1.279 1.496 0.462 3664
1.280 1.497 0.457 6018
1.280 1.497 0.451 6661
1.286 1.504 0.447 4989
1.286 1.505 0.441 3361
1.282 1.499 0.434 3000
1.282 1.500 0.429 2956
1.283 1.501 0.423 2794
1.284 1.501 0.417 2250
1.289 1.508 0.413 1443
7.624 8.917 1.760 1441
7.433 8.694 1.685 1471
7.431 8.691 1.651 1482
7.439 8.701 1.619 1453
8.202 9.593 1.734 1128
8.205 9.597 1.697 1461
7.646 8.943 1.556 1281
1.308 1.530 0.371 1062
1.304 1.525 0.364 1356
1.299 1.519 0.357 1419
1.299 1.520 0.352 1248
1.300 1.520 0.346 1328
1.300 1.521 0.340 1644
1.301 1.521 0.335 1668
1.296 1.516 0.328 1317
1.737 2.031 0.386 1140
1.737 2.032 0.379 980
1.743 2.038 0.372 632
1.748 2.045 0.365 493
1.754 2.051 0.358 553
1.759 2.058 0.351 481
1.775 2.076 0.345 505
1.775 2.077 0.337 618
1.776 2.077 0.329 644
0.986 1.153 0.239 973
0.991 1.159 0.235 1693
0.991 1.159 0.231 2061
0.986 1.154 0.226 2219
0.986 1.154 0.222 2106
0.987 1.154 0.217 2343
0.987 1.154 0.213 2969
0.992 1.160 0.209 4872
0.992 1.160 0.205 8439
0.992 1.161 0.201 10572
0.992 1.161 0.196 11559
0.992 1.161 0.192 11903
0.987 1.155 0.188 11245
0.993 1.161 0.183 10215
0.988 1.155 0.179 8518
0.988 1.155 0.175 6201
0.988 1.155 0.170 4894
0.993 1.161 0.166 3610
0.988 1.155 0.162 2072
0.988 1.155 0.158 1299
0.993 1.161 0.153 642
0.689 0.806 0.146 476
2.073 2.425 0.151 437
2.079 2.431 0.142 461
0.998 1.168 0.136 519
2.089 2.443 0.123 601
2.089 2.443 0.114 698
2.084 2.437 0.105 733
2.078 2.431 0.096 695
2.073 2.425 0.087 634
2.078 2.431 0.077 570
2.088 2.443 0.068 570
2.088 2.442 0.059 503
2.083 2.436 0.050 446
2.078 2.430 0.041 322
0.689 0.805 0.087 309
0.689 0.805 0.084 428
0.688 0.805 0.081 546
0.714 0.835 0.076 632
0.714 0.835 0.073 820
0.714 0.835 0.070 1170
0.708 0.829 0.068 1557
0.708 0.828 0.065 1840
0.708 0.828 0.062 2042
0.708 0.828 0.058 1738
0.708 0.828 0.055 1424
0.708 0.828 0.052 1177
0.943 1.103 0.018 1199
0.943 1.103 0.014 1122
0.938 1.097 0.010 1054
0.937 1.096 0.006 927
0.937 1.096 0.002 801
0.937 1.096 -0.002 616
0.937 1.096 -0.006 422
0.936 1.095 -0.010 412
0.936 1.095 -0.014 258
1.499 1.741 1.769 2904
1.502 1.744 1.762 5809
1.505 1.748 1.756 5809
1.563 1.815 1.809 6560
1.566 1.818 1.802 8648
1.573 1.827 1.800 9734
1.576 1.831 1.793 10903
1.580 1.834 1.786 10903
1.578 1.833 1.774 11932
1.582 1.837 1.768 13190
1.589 1.845 1.765 12659
1.592 1.849 1.758 12370
1.595 1.852 1.751 13049
1.602 1.861 1.749 13831
1.606 1.864 1.742 12031
1.609 1.868 1.735 9878
1.607 1.867 1.723 9493
1.610 1.870 1.716 7322
1.613 1.873 1.709 5120
1.621 1.882 1.706 4098
1.706 1.981 1.780 4482
1.705 1.980 1.769 4654
1.704 1.979 1.757 5223
1.707 1.982 1.749 8016
1.710 1.986 1.742 10809
1.717 1.994 1.739 9532
1.720 1.998 1.731 8429
1.754 2.037 1.753 7432
1.762 2.046 1.749 9876
1.765 2.049 1.741 11553
1.759 2.043 1.725 13615
1.766 2.051 1.722 12959
1.769 2.055 1.714 12305
1.772 2.058 1.706 11173
1.780 2.067 1.702 10280
1.783 2.070 1.695 10674
1.790 2.079 1.691 9570
1.789 2.077 1.679 8034
1.850 2.148 1.722 7351
1.857 2.157 1.718 8161
1.860 2.161 1.710 7777
1.859 2.159 1.698 7454
1.871 2.173 1.697 9835
1.887 2.192 1.700 11775
1.899 2.206 1.700 12228
1.902 2.209 1.691 9420
1.910 2.218 1.687 6857
1.945 2.258 1.704 7056
1.943 2.257 1.692 7757
1.942 2.255 1.680 7598
1.945 2.258 1.671 7400
1.952 2.267 1.666 6380
1.959 2.276 1.661 5504
2.004 2.327 1.685 7293
2.011 2.336 1.680 7766
2.037 2.366 1.689 6294
2.040 2.369 1.680 7948
2.052 2.383 1.678 12719
2.055 2.387 1.669 16154
2.063 2.396 1.664 14068
2.173 2.523 1.734 11145
2.171 2.521 1.721 11170
2.179 2.530 1.715 14478
2.191 2.544 1.712 15995
2.199 2.553 1.706 11909
2.206 2.562 1.700 9959
2.200 2.555 1.683 10618
2.198 2.553 1.670 9074
2.248 2.611 1.694 6338
2.256 2.619 1.687 7697
2.254 2.617 1.674 8143
2.219 2.577 1.638 9493
2.222 2.580 1.628 11591
2.225 2.584 1.619 9983
2.228 2.587 1.609 8039
2.401 2.788 1.712 11467
2.409 2.797 1.705 11887
2.416 2.806 1.697 14854
2.419 2.810 1.687 19126
2.422 2.813 1.676 18593
2.420 2.811 1.662 16358
2.419 2.809 1.649 15693
2.421 2.812 1.638 13294
2.448 2.843 1.642 9816
2.456 2.852 1.634 11945
2.468 2.866 1.629 13590
2.471 2.870 1.619 14081
2.498 2.901 1.622 9652
2.448 2.843 1.579 9828
2.465 2.863 1.577 10779
2.473 2.871 1.569 7437
2.722 3.161 1.702 8332
2.725 3.164 1.690 10235
2.737 3.179 1.683 8373
2.745 3.188 1.674 7957
2.753 3.197 1.664 7500
2.824 3.279 1.690 6495
2.778 3.226 1.651 8336
2.786 3.235 1.641 9251
2.847 3.306 1.660 7988
2.835 3.292 1.640 7412
2.926 3.398 1.674 6147
2.943 3.418 1.669 5206
2.951 3.427 1.658 4171
2.993 3.476 1.666 3504
3.124 3.627 1.717 4450
3.122 3.625 1.701 3608
3.203 3.720 1.727 3987
3.196 3.712 1.708 5577
3.199 3.715 1.693 4852
3.261 3.787 1.708 3475
3.269 3.797 1.696 3428
3.277 3.806 1.684 4678
3.285 3.815 1.672 5958
3.283 3.813 1.655 5958
3.276 3.804 1.636 5438
3.284 3.813 1.623 4875
3.277 3.805 1.604 7679
3.279 3.808 1.590 9530
3.282 3.812 1.575 9277
3.285 3.815 1.561 8968
3.288 3.818 1.546 6061
3.290 3.821 1.532 2864
3.771 4.379 1.719 2545
3.809 4.423 1.717 3040
3.812 4.427 1.700 5409
3.815 4.430 1.683 5007
3.843 4.463 1.677 3463
3.856 4.478 1.664 5531
3.854 4.475 1.644 7686
3.861 4.484 1.629 6631
3.909 4.540 1.630 10339
3.902 4.531 1.608 11651
3.930 4.564 1.601 10799
3.943 4.579 1.587 8171
3.956 4.594 1.573 6520
3.958 4.597 1.555 6141
3.966 4.606 1.540 6189
3.974 4.615 1.524 5651
3.976 4.618 1.506 3973
4.322 5.019 1.606 1902
4.637 5.385 1.692 1409
4.691 5.447 1.688 1215
4.906 5.697 1.737 2367
4.914 5.706 1.717 2176
5.028 5.839 1.731 3326
5.046 5.860 1.713 3317
5.232 6.075 1.747 4290
5.235 6.079 1.724 6292
5.233 6.077 1.699 5561
5.235 6.080 1.676 5040
5.243 6.089 1.654 4593
5.246 6.093 1.631 3343
5.590 6.491 1.703 2571
5.593 6.495 1.678 2380
5.595 6.498 1.653 2183
1.288 1.496 0.475 2887
1.284 1.491 0.468 4480
1.284 1.491 0.462 5096
1.285 1.492 0.457 4438
1.286 1.493 0.451 5940
1.286 1.494 0.445 8816
1.287 1.494 0.440 9202
1.282 1.489 0.433 8059
1.288 1.496 0.429 6079
1.283 1.490 0.422 3891
1.284 1.491 0.416 2144
1.284 1.491 0.411 1183
7.450 8.652 1.716 1644
7.448 8.650 1.682 1672
7.446 8.647 1.648 1504
7.454 8.656 1.616 1221
7.698 8.939 1.629 1176
7.701 8.943 1.595 1463
8.262 9.595 1.664 1215
8.265 9.598 1.628 871
8.273 9.607 1.592 766
9.159 10.636 1.707 846
1.741 2.022 0.425 1072
1.305 1.516 0.346 1564
1.306 1.516 0.340 1852
1.306 1.517 0.335 1804
1.301 1.511 0.328 1278
1.739 2.019 0.386 998
1.744 2.026 0.379 1088
1.750 2.032 0.372 1052
0.989 1.148 0.264 1020
0.989 1.148 0.260 890
0.989 1.148 0.256 650
1.370 1.591 0.296 893
0.995 1.155 0.248 1525
0.990 1.149 0.243 3999
0.995 1.155 0.239 8798
0.995 1.156 0.235 15650
1.000 1.162 0.231 19738
0.995 1.156 0.226 24746
0.996 1.156 0.222 33445
0.996 1.156 0.218 39108
0.996 1.157 0.214 41273
0.996 1.157 0.209 40722
0.996 1.157 0.205 36315
0.996 1.157 0.201 32499
0.996 1.157 0.196 28402
0.997 1.157 0.192 20754
0.997 1.157 0.188 14092
0.997 1.157 0.183 10737
0.997 1.158 0.179 7685
0.997 1.158 0.175 3918
0.997 1.158 0.171 2421
1.002 1.164 0.166 1674
1.007 1.170 0.162 820
1.007 1.170 0.158 648
1.007 1.170 0.154 565
1.007 1.170 0.149 497
1.007 1.170 0.145 554
1.002 1.164 0.140 638
1.002 1.164 0.136 673
2.092 2.430 0.123 643
2.097 2.436 0.114 682
2.097 2.436 0.105 728
2.092 2.430 0.096 689
2.087 2.423 0.086 629
2.087 2.423 0.077 542
2.097 2.435 0.068 478
2.097 2.435 0.059 465
2.097 2.435 0.049 452
2.091 2.429 0.040 357
2.081 2.416 0.032 284
0.692 0.804 0.102 250
0.692 0.803 0.099 344
0.692 0.803 0.096 394
0.692 0.803 0.093 350
0.712 0.827 0.083 265
0.934 1.084 0.060 423
0.707 0.821 0.077 647
0.933 1.084 0.052 935
0.938 1.090 0.047 1277
0.938 1.089 0.043 1539
0.943 1.095 0.039 1856
0.943 1.095 0.035 2068
0.943 1.095 0.031 2222
0.942 1.095 0.027 2369
0.942 1.094 0.023 2353
0.947 1.100 0.018 2344
0.942 1.094 0.014 2083
0.942 1.093 0.010 1829
0.941 1.093 0.006 1512
0.941 1.093 0.002 1195
0.941 1.093 -0.002 906
0.941 1.092 -0.006 595
0.945 1.098 -0.011 586
0.945 1.098 -0.015 386
0.955 1.109 -0.025 275
1.506 1.734 1.769 2761
1.509 1.738 1.762 5523
1.512 1.742 1.756 5523
1.562 1.799 1.800 5838
1.569 1.807 1.797 7670
1.577 1.816 1.795 7225
1.588 1.829 1.797 7115
1.591 1.833 1.790 7115
1.590 1.831 1.779 8559
1.589 1.830 1.768 10180
1.597 1.839 1.765 10817
1.600 1.842 1.758 11594
1.603 1.846 1.751 12418
1.606 1.849 1.744 13242
1.613 1.858 1.742 11728
1.616 1.861 1.735 10189
1.619 1.865 1.727 10088
1.618 1.863 1.716 7770
1.621 1.867 1.709 5437
1.624 1.870 1.702 5221
1.631 1.879 1.699 5107
1.634 1.882 1.692 4675
1.707 1.966 1.753 5178
1.715 1.975 1.749 7471
1.718 1.979 1.742 9813
1.725 1.987 1.739 8489
1.733 1.996 1.735 7284
1.763 2.030 1.753 7352
1.770 2.039 1.749 9704
1.769 2.037 1.737 11137
1.772 2.040 1.729 12805
1.775 2.044 1.722 12608
1.778 2.047 1.714 12411
1.785 2.056 1.710 11762
1.793 2.065 1.706 11400
1.796 2.068 1.699 10996
1.794 2.066 1.687 8660
1.797 2.070 1.679 6858
1.854 2.135 1.718 6622
1.862 2.144 1.714 6775
1.869 2.153 1.710 7044
1.872 2.156 1.701 7331
1.880 2.165 1.697 10012
1.892 2.179 1.696 11979
1.904 2.193 1.696 11362
1.912 2.201 1.691 7805
1.956 2.252 1.717 5988
1.954 2.250 1.704 7492
1.952 2.249 1.692 8224
1.955 2.252 1.684 7537
1.958 2.255 1.675 6655
1.966 2.264 1.670 5554
1.978 2.278 1.669 5809
1.986 2.287 1.664 7185
1.998 2.301 1.662 6897
2.047 2.357 1.689 5212
2.055 2.366 1.684 6280
2.062 2.375 1.678 10700
2.065 2.378 1.669 14035
2.068 2.382 1.660 12463
2.178 2.509 1.731 10506
2.181 2.512 1.721 10367
2.189 2.521 1.715 14224
2.197 2.530 1.709 16709
2.204 2.539 1.703 11414
2.207 2.542 1.693 8090
2.201 2.535 1.677 9312
2.204 2.538 1.667 8040
2.259 2.601 1.694 9729
2.266 2.610 1.687 11415
2.269 2.614 1.677 11631
2.263 2.606 1.661 9199
2.233 2.571 1.628 9451
2.392 2.755 1.724 7958
2.400 2.764 1.717 10114
2.412 2.778 1.712 12522
2.420 2.787 1.705 10898
2.423 2.791 1.694 13098
2.431 2.800 1.687 15550
2.429 2.797 1.673 13982
2.427 2.795 1.659 14393
2.425 2.793 1.646 14924
2.433 2.802 1.638 13389
2.455 2.827 1.639 11501
2.463 2.836 1.631 14241
2.475 2.851 1.626 14698
2.488 2.865 1.621 12384
2.505 2.885 1.619 8058
2.503 2.883 1.605 10027
2.501 2.880 1.592 11992
2.489 2.867 1.572 7444
2.735 3.149 1.702 8094
2.738 3.153 1.690 9642
2.527 2.910 1.556 8587
2.748 3.165 1.668 7693
2.756 3.174 1.659 7222
2.759 3.177 1.647 6080
2.791 3.214 1.651 8753
2.799 3.223 1.641 9627
2.856 3.289 1.658 6701
2.947 3.394 1.692 7930
2.945 3.391 1.677 8993
2.948 3.395 1.664 6952
2.956 3.404 1.653 4727
3.017 3.475 1.671 4025
3.143 3.620 1.720 4795
3.146 3.624 1.706 3681
3.214 3.701 1.724 4675
3.212 3.699 1.708 6706
3.215 3.702 1.693 5179
3.277 3.774 1.708 5022
3.270 3.766 1.689 5242
3.288 3.787 1.681 5926
3.301 3.801 1.672 6669
3.294 3.793 1.652 6113
3.287 3.785 1.633 5194
3.295 3.794 1.621 4886
3.292 3.792 1.604 8026
3.295 3.795 1.590 9526
3.298 3.798 1.575 8581
3.301 3.801 1.561 7753
3.303 3.804 1.546 5469
3.626 4.176 1.668 4152
3.784 4.358 1.717 4114
3.817 4.396 1.713 3686
3.835 4.417 1.702 3684
3.848 4.432 1.690 3332
3.811 4.389 1.656 3695
3.869 4.456 1.662 3997
3.872 4.459 1.644 6678
3.935 4.532 1.651 5268
3.953 4.553 1.639 10290
3.966 4.568 1.626 12954
3.964 4.565 1.606 11516
3.962 4.562 1.587 8344
3.974 4.577 1.573 6407
3.982 4.586 1.557 6845
3.985 4.589 1.540 6806
3.988 4.592 1.522 5740
3.995 4.601 1.506 3854
4.342 5.001 1.606 2423
4.472 5.150 1.629 1472
4.718 5.434 1.690 1323
4.934 5.683 1.739 2765
4.937 5.686 1.717 2867
5.052 5.818 1.731 3784
5.065 5.834 1.712 3569
5.262 6.060 1.749 4573
5.260 6.057 1.724 6121
5.258 6.055 1.699 5309
5.261 6.058 1.676 4666
5.263 6.062 1.653 4092
5.271 6.071 1.631 2912
5.616 6.468 1.703 3169
5.624 6.477 1.680 3304
5.627 6.481 1.655 3009
5.635 6.490 1.631 2696
1.290 1.485 0.468 2870
1.290 1.486 0.462 3750
1.286 1.481 0.455 4233
1.281 1.476 0.448 4031
1.287 1.482 0.444 4101
1.288 1.483 0.439 4644
1.288 1.484 0.433 4618
1.294 1.490 0.429 3807
1.294 1.491 0.423 2439
7.146 8.230 1.709 1330
7.298 8.405 1.710 1206
7.486 8.621 1.716 1930
7.484 8.619 1.682 1932
7.487 8.622 1.649 1603
8.030 9.248 1.723 1210
7.740 8.913 1.630 1186
7.737 8.911 1.595 1352
8.302 9.561 1.664 1203
8.300 9.558 1.627 1006
9.200 10.595 1.747 888
9.203 10.598 1.707 1069
1.306 1.504 0.351 1016
1.306 1.504 0.345 1442
1.307 1.505 0.339 1697
1.307 1.505 0.334 1685
1.752 2.017 0.394 1189
1.752 2.018 0.386 1042
1.753 2.018 0.379 683
1.303 1.501 0.310 420
1.376 1.585 0.314 470
1.376 1.585 0.308 631
1.527 1.758 0.321 833
1.377 1.586 0.296 1196
1.377 1.586 0.290 1509
1.383 1.592 0.285 1702
1.383 1.593 0.279 1753
1.005 1.157 0.236 2548
1.005 1.158 0.231 3067
1.005 1.158 0.227 3585
1.006 1.158 0.223 4450
1.006 1.158 0.218 4798
1.006 1.158 0.214 4790
1.006 1.159 0.210 4440
1.011 1.165 0.206 3841
1.011 1.165 0.201 3565
1.012 1.165 0.197 3465
1.012 1.165 0.193 3206
1.007 1.159 0.188 2883
1.007 1.159 0.184 2626
1.007 1.159 0.179 2293
1.007 1.160 0.175 1686
1.012 1.166 0.171 1414
1.012 1.166 0.167 1182
1.007 1.160 0.162 788
1.007 1.160 0.158 577
1.012 1.166 0.154 404
1.007 1.160 0.149 251
2.097 2.415 0.151 380
2.102 2.421 0.142 495
2.102 2.421 0.132 615
2.102 2.421 0.123 640
2.102 2.421 0.114 665
2.107 2.427 0.105 710
2.107 2.427 0.095 681
2.102 2.421 0.086 616
2.102 2.421 0.077 492
2.097 2.415 0.068 373
2.102 2.420 0.059 360
2.107 2.426 0.049 363
0.695 0.801 0.108 334
0.695 0.801 0.105 298
0.695 0.801 0.102 284
0.695 0.801 0.099 376
0.695 0.800 0.096 439
0.695 0.800 0.093 416
0.695 0.800 0.090 389
0.695 0.800 0.087 381
0.695 0.800 0.084 423
0.943 1.086 0.060 746
0.938 1.080 0.056 1201
0.938 1.080 0.052 1755
0.943 1.086 0.047 2376
0.943 1.086 0.043 2771
0.942 1.085 0.039 3219
0.942 1.085 0.035 3510
0.942 1.085 0.031 3572
0.942 1.085 0.027 3647
0.947 1.090 0.023 3456
0.947 1.090 0.018 3317
0.946 1.090 0.014 2837
0.946 1.090 0.010 2357
0.946 1.089 0.006 1869
0.946 1.089 0.002 1381
0.945 1.089 -0.002 1010
0.945 1.088 -0.006 609
0.950 1.094 -0.011 608
0.950 1.094 -0.015 404
1.521 1.738 1.778 2353
1.524 1.742 1.771 4706
1.527 1.746 1.765 4706
1.560 1.783 1.790 6265
1.559 1.782 1.779 8019
1.575 1.800 1.786 6372
1.582 1.808 1.784 5237
1.585 1.812 1.777 5237
1.593 1.821 1.774 6575
1.596 1.824 1.768 8076
1.603 1.833 1.765 9812
1.607 1.836 1.758 11600
1.610 1.840 1.751 12332
1.613 1.843 1.744 13064
1.616 1.847 1.737 11709
1.623 1.855 1.735 10500
1.626 1.859 1.727 10571
1.625 1.857 1.716 8326
1.624 1.856 1.705 6064
1.631 1.864 1.702 6225
1.638 1.873 1.699 6410
1.641 1.876 1.692 5844
1.644 1.879 1.685 5279
1.718 1.964 1.745 6462
1.725 1.972 1.742 8347
1.733 1.981 1.739 7050
1.740 1.989 1.735 5949
1.766 2.018 1.748 6588
1.778 2.032 1.749 8674
1.776 2.030 1.737 10008
1.779 2.034 1.729 11444
1.782 2.037 1.722 11752
1.785 2.041 1.714 12059
1.793 2.049 1.710 11620
1.800 2.058 1.706 11557
1.803 2.061 1.699 10399
1.806 2.065 1.691 7159
1.855 2.120 1.722 6745
1.858 2.123 1.714 5801
1.870 2.137 1.714 5294
1.873 2.141 1.706 6413
1.880 2.149 1.701 7667
1.893 2.163 1.701 10423
1.900 2.172 1.696 12185
1.908 2.180 1.692 10972
1.915 2.189 1.687 7544
1.978 2.261 1.728 6052
1.962 2.243 1.704 7212
1.961 2.241 1.692 8027
1.964 2.245 1.684 7361
1.967 2.248 1.675 6208
1.979 2.262 1.674 5577
1.991 2.276 1.672 6832
1.999 2.285 1.667 8023
2.006 2.293 1.662 7253
2.009 2.297 1.653 5146
2.068 2.364 1.687 4676
2.071 2.367 1.678 8148
2.074 2.371 1.669 11026
2.077 2.374 1.660 10440
2.192 2.506 1.734 9429
2.195 2.509 1.725 8978
2.203 2.518 1.719 12987
2.206 2.522 1.709 15930
2.209 2.525 1.699 10300
2.217 2.534 1.693 6177
2.220 2.537 1.683 7292
2.256 2.579 1.697 11749
2.268 2.593 1.694 13262
2.276 2.602 1.687 15345
2.279 2.605 1.677 15159
2.287 2.614 1.670 11030
2.275 2.601 1.651 7610
2.398 2.740 1.721 9582
2.405 2.749 1.713 11410
2.418 2.764 1.709 12265
2.426 2.773 1.702 10249
2.429 2.776 1.691 12374
2.432 2.779 1.681 12379
2.435 2.783 1.670 9965
2.433 2.781 1.656 11825
2.436 2.784 1.646 13219
2.443 2.793 1.638 12695
2.466 2.818 1.639 13218
2.473 2.827 1.631 14850
2.481 2.836 1.624 14598
2.494 2.850 1.619 10450
2.511 2.870 1.616 6932
2.509 2.868 1.602 12080
2.517 2.876 1.594 14725
2.524 2.885 1.586 8712
2.542 2.905 1.584 6360
2.535 2.897 1.567 10627
2.537 2.900 1.556 9403
2.755 3.149 1.665 7555
2.763 3.158 1.656 7105
2.771 3.167 1.647 5638
2.808 3.210 1.653 7647
2.811 3.213 1.641 7718
2.961 3.385 1.708 5904
2.959 3.383 1.692 9709
2.957 3.380 1.677 10444
2.955 3.378 1.661 7558
2.958 3.381 1.648 5475
2.961 3.385 1.635 5044
3.157 3.608 1.720 4874
3.165 3.618 1.709 3652
3.222 3.683 1.722 4768
3.225 3.687 1.708 7281
3.288 3.758 1.722 7775
3.286 3.756 1.706 7445
3.284 3.754 1.689 6704
3.297 3.769 1.679 6670
3.315 3.789 1.672 6556
3.303 3.775 1.650 4752
3.296 3.767 1.631 3424
1.470 1.681 0.789 3604
3.307 3.779 1.604 6670
3.309 3.783 1.590 7973
3.312 3.786 1.575 6567
3.540 4.047 1.659 6013
3.644 4.165 1.686 5052
3.652 4.174 1.672 5693
3.805 4.349 1.719 5487
3.823 4.370 1.709 5471
3.816 4.362 1.688 5026
3.824 4.371 1.673 5742
3.822 4.369 1.654 6174
3.820 4.366 1.636 5372
3.894 4.450 1.646 5400
3.962 4.529 1.655 4993
3.975 4.544 1.641 9479
3.983 4.553 1.626 12998
3.986 4.556 1.608 10823
3.984 4.553 1.589 7523
3.992 4.562 1.573 6008
3.999 4.571 1.557 6259
4.479 5.120 1.708 6137
4.487 5.129 1.690 4805
4.358 4.981 1.625 3106
4.361 4.985 1.606 2253
4.761 5.442 1.720 1880
4.764 5.445 1.699 1552
4.961 5.670 1.741 2921
4.964 5.673 1.719 3223
5.069 5.794 1.729 3619
5.082 5.809 1.710 3332
5.284 6.040 1.749 4269
5.287 6.043 1.725 5108
5.285 6.041 1.701 4314
5.283 6.039 1.676 3569
5.639 6.446 1.754 3100
5.637 6.444 1.728 2543
5.666 6.476 1.710 2960
5.659 6.468 1.683 3443
5.662 6.471 1.658 3338
1.290 1.474 0.472 3559
1.290 1.475 0.466 4286
1.286 1.470 0.460 5389
1.291 1.476 0.455 6504
1.292 1.477 0.450 7403
1.293 1.477 0.444 7117
1.288 1.472 0.437 5826
1.294 1.479 0.433 4704
1.294 1.479 0.427 3643
1.295 1.480 0.422 2481
1.295 1.481 0.416 1507
7.185 8.212 1.679 1171
7.518 8.593 1.716 1944
7.521 8.597 1.683 1915
7.519 8.594 1.649 1533
8.070 9.224 1.724 1212
7.773 8.884 1.630 1094
7.771 8.882 1.595 1185
8.337 9.530 1.664 1077
8.340 9.533 1.628 1015
9.234 10.554 1.746 983
9.242 10.564 1.707 1146
9.188 10.502 1.656 789
9.191 10.505 1.616 859
1.312 1.500 0.339 717
1.313 1.500 0.334 1011
1.313 1.501 0.328 979
1.308 1.495 0.322 700
1.516 1.733 0.345 448
1.522 1.739 0.339 470
1.522 1.740 0.333 675
1.528 1.746 0.327 1104
1.528 1.746 0.320 1423
1.383 1.581 0.296 1700
1.383 1.581 0.290 2216
1.389 1.587 0.285 2538
1.389 1.587 0.279 2650
1.389 1.588 0.273 2514
1.389 1.588 0.267 2143
1.390 1.588 0.261 1537
1.010 1.154 0.223 1356
1.010 1.154 0.218 1601
1.010 1.155 0.214 1660
1.010 1.155 0.210 1580
1.010 1.155 0.205 1374
1.011 1.155 0.201 1219
1.011 1.155 0.197 1074
1.011 1.155 0.192 820
1.011 1.155 0.188 559
1.011 1.156 0.184 426
1.011 1.156 0.179 339
2.111 2.413 0.151 250
2.117 2.419 0.142 361
2.117 2.419 0.132 478
2.111 2.413 0.123 473
2.111 2.413 0.114 474
2.111 2.413 0.105 468
2.116 2.419 0.095 456
2.116 2.419 0.086 448
2.111 2.413 0.077 375
2.111 2.413 0.068 304
2.111 2.412 0.059 279
2.116 2.418 0.049 258
0.698 0.798 0.099 256
0.698 0.798 0.096 316
0.698 0.798 0.093 329
0.698 0.798 0.090 401
0.948 1.083 0.068 558
0.942 1.077 0.064 891
0.942 1.077 0.060 1404
0.942 1.077 0.056 1970
0.942 1.077 0.052 2538
0.942 1.076 0.048 3027
0.941 1.076 0.044 3218
0.946 1.082 0.039 3383
0.946 1.082 0.035 3524
0.946 1.081 0.031 3347
0.946 1.081 0.027 3202
0.946 1.081 0.023 2922
0.951 1.087 0.018 2716
0.950 1.086 0.014 2260
0.950 1.086 0.010 1804
0.950 1.086 0.006 1407
0.955 1.091 0.002 1037
0.955 1.091 -0.003 832
0.959 1.097 -0.007 630
0.954 1.090 -0.011 628
0.954 1.090 -0.015 460
0.953 1.090 -0.019 293
0.958 1.095 -0.024 370
1.555 1.760 1.806 2573
1.558 1.763 1.799 5147
1.566 1.772 1.797 5191
1.564 1.770 1.786 6971
1.568 1.774 1.779 8795
1.575 1.782 1.777 6842
1.587 1.796 1.779 5327
1.590 1.799 1.772 5327
1.597 1.808 1.770 6011
1.609 1.821 1.772 7369
1.612 1.825 1.765 10002
1.616 1.828 1.758 12636
1.619 1.832 1.751 13072
1.622 1.835 1.744 13508
1.625 1.839 1.737 12077
1.632 1.847 1.735 10783
1.635 1.851 1.727 10925
1.634 1.849 1.716 8871
1.637 1.853 1.709 6750
1.640 1.856 1.702 6955
1.643 1.860 1.695 7159
1.646 1.863 1.688 6549
1.654 1.871 1.685 6036
1.723 1.950 1.741 5087
1.731 1.959 1.738 6586
1.743 1.972 1.739 5501
1.750 1.981 1.735 4746
1.776 2.009 1.748 5397
1.788 2.023 1.749 7111
1.786 2.022 1.737 8446
1.785 2.020 1.725 9885
1.792 2.028 1.722 10727
1.800 2.037 1.718 11666
1.808 2.046 1.714 11122
1.815 2.054 1.710 11008
1.818 2.058 1.702 9248
1.858 2.102 1.726 6011
1.861 2.106 1.718 6264
1.864 2.109 1.710 5086
1.862 2.107 1.698 3922
1.883 2.131 1.706 5904
1.891 2.140 1.701 8054
1.899 2.149 1.697 10669
1.906 2.157 1.693 12299
1.914 2.166 1.688 10927
1.917 2.169 1.680 8473
1.924 2.178 1.675 6025
1.974 2.233 1.704 6571
1.972 2.232 1.692 7473
1.975 2.235 1.684 6962
1.978 2.238 1.675 5925
2.009 2.273 1.688 6723
2.002 2.266 1.672 8373
2.010 2.275 1.667 9064
2.013 2.278 1.659 7795
2.025 2.292 1.657 5964
2.033 2.301 1.652 4854
2.083 2.357 1.678 5354
2.081 2.355 1.666 7225
2.202 2.491 1.744 8092
2.205 2.495 1.734 8165
2.213 2.504 1.728 7620
2.216 2.507 1.719 11063
2.219 2.511 1.709 13739
2.226 2.519 1.703 9560
2.253 2.550 1.710 8888
2.261 2.559 1.704 12502
2.269 2.567 1.697 16752
2.281 2.582 1.694 17522
2.289 2.590 1.687 20058
2.297 2.599 1.680 19353
2.304 2.608 1.674 14043
2.408 2.725 1.731 7935
2.411 2.729 1.721 10562
2.419 2.737 1.713 11888
2.427 2.746 1.706 11303
2.435 2.755 1.699 10424
2.438 2.759 1.688 13353
2.436 2.756 1.674 11353
2.468 2.793 1.682 8406
2.451 2.774 1.659 9914
2.454 2.777 1.649 11436
2.467 2.792 1.644 11837
2.480 2.806 1.639 13572
2.487 2.815 1.631 14341
2.495 2.823 1.624 14517
2.498 2.827 1.613 10068
2.510 2.841 1.608 6809
2.523 2.855 1.602 13650
2.531 2.864 1.594 16644
2.543 2.878 1.589 10103
2.556 2.892 1.584 6864
2.549 2.885 1.567 10538
2.552 2.888 1.556 9213
2.835 3.208 1.701 7157
2.779 3.144 1.656 6859
2.821 3.192 1.666 4837
2.829 3.201 1.656 6261
2.847 3.221 1.652 4940
2.978 3.370 1.708 7046
2.981 3.373 1.695 11023
2.979 3.371 1.679 10762
2.982 3.375 1.666 7932
2.985 3.378 1.653 7263
2.983 3.376 1.638 6701
2.986 3.379 1.625 5039
3.183 3.602 1.709 3498
3.241 3.667 1.722 4430
3.244 3.671 1.708 7360
3.307 3.742 1.722 9461
3.305 3.740 1.706 8642
3.303 3.737 1.689 6620
3.316 3.752 1.679 6474
3.349 3.790 1.679 5735
3.357 3.799 1.666 3837
3.460 3.915 1.697 3186
3.342 3.782 1.628 3410
3.330 3.769 1.607 4438
3.328 3.766 1.590 5144
3.562 4.031 1.676 4857
3.616 4.092 1.683 5879
3.669 4.152 1.688 5714
3.677 4.161 1.674 6598
3.827 4.331 1.719 5866
3.840 4.345 1.707 6385
3.843 4.349 1.690 7202
3.846 4.352 1.673 8744
3.849 4.356 1.656 8170
3.852 4.359 1.640 7705
3.850 4.356 1.621 9155
3.847 4.354 1.602 6454
3.998 4.524 1.641 7712
4.006 4.533 1.626 10206
4.008 4.536 1.608 8195
4.011 4.539 1.591 6012
4.249 4.808 1.658 5011
4.022 4.551 1.557 4809
4.505 5.098 1.708 5703
4.513 5.107 1.690 4528
4.383 4.960 1.625 2456
4.693 5.310 1.709 2077
4.788 5.418 1.720 2049
4.791 5.422 1.699 1781
4.989 5.645 1.741 2724
4.992 5.649 1.719 3138
5.097 5.768 1.729 2985
5.034 5.696 1.686 2793
5.314 6.014 1.749 3502
5.317 6.017 1.725 3480
5.315 6.015 1.701 2910
5.668 6.414 1.779 3748
5.671 6.418 1.754 4172
5.669 6.416 1.728 2740
5.713 6.466 1.715 3056
5.701 6.452 1.685 3310
5.694 6.443 1.658 3663
5.697 6.447 1.633 3783
5.694 6.444 1.606 2875
1.293 1.463 0.460 3120
1.299 1.470 0.455 4413
1.299 1.470 0.450 6232
1.300 1.471 0.444 7469
1.301 1.472 0.439 7274
1.301 1.472 0.433 6427
1.302 1.473 0.427 5190
1.302 1.474 0.422 3812
1.303 1.474 0.416 2539
1.308 1.481 0.412 1491
7.555 8.550 1.715 1677
7.564 8.559 1.683 1662
7.561 8.557 1.649 1305
7.570 8.566 1.617 1122
1.498 1.695 0.420 1210
1.499 1.696 0.413 1316
8.457 9.571 1.678 1295
8.460 9.574 1.641 1188
8.588 9.719 1.625 1036
9.294 10.518 1.707 1034
9.110 10.309 1.635 773
9.243 10.460 1.616 862
9.240 10.457 1.574 690
9.108 10.307 1.513 420
1.529 1.730 0.359 358
1.529 1.731 0.352 485
1.530 1.731 0.346 555
1.384 1.566 0.320 796
1.390 1.573 0.314 1212
1.390 1.573 0.308 1393
1.390 1.573 0.302 1478
1.391 1.574 0.296 1521
1.532 1.734 0.306 1532
1.543 1.746 0.301 1834
1.543 1.746 0.294 1954
1.543 1.747 0.287 1762
1.544 1.747 0.281 1388
1.397 1.581 0.261 821
1.398 1.582 0.255 884
1.398 1.582 0.249 856
1.398 1.582 0.243 708
1.021 1.156 0.210 603
1.021 1.156 0.206 546
1.022 1.156 0.201 488
1.022 1.156 0.197 419
1.022 1.156 0.193 313
2.144 2.426 0.151 260
2.144 2.426 0.142 330
2.144 2.426 0.132 400
2.139 2.421 0.123 388
2.134 2.415 0.114 389
2.134 2.414 0.105 375
2.139 2.420 0.095 422
2.133 2.414 0.086 482
2.133 2.414 0.077 405
0.702 0.795 0.117 443
0.702 0.795 0.114 420
0.702 0.795 0.111 606
0.702 0.795 0.108 760
0.702 0.795 0.105 708
0.702 0.795 0.102 672
0.702 0.794 0.099 632
0.702 0.794 0.096 590
0.702 0.794 0.093 592
0.702 0.794 0.090 572
0.948 1.073 0.068 711
0.948 1.072 0.064 1082
0.947 1.072 0.060 1550
0.942 1.066 0.056 1996
0.942 1.066 0.052 2376
0.947 1.072 0.048 2553
0.947 1.071 0.044 2508
0.947 1.071 0.040 2330
0.946 1.071 0.036 2239
0.946 1.071 0.032 1987
0.946 1.071 0.028 1736
0.951 1.076 0.023 1541
0.956 1.082 0.018 1407
0.956 1.082 0.014 1194
0.956 1.081 0.010 981
0.960 1.087 0.006 915
0.960 1.087 0.002 851
0.960 1.086 -0.003 738
0.960 1.086 -0.007 624
0.959 1.086 -0.011 624
0.959 1.085 -0.015 466
0.959 1.085 -0.019 307
0.958 1.085 -0.023 420
1.561 1.754 1.806 3077
1.565 1.758 1.799 6154
1.568 1.761 1.792 6154
1.571 1.765 1.786 7736
1.574 1.768 1.779 9319
1.577 1.772 1.772 7549
1.589 1.785 1.775 5918
1.592 1.789 1.768 5918
1.604 1.802 1.770 6279
1.616 1.815 1.772 7896
1.619 1.819 1.765 11111
1.622 1.822 1.758 14326
1.625 1.826 1.751 14176
1.628 1.829 1.744 14027
1.632 1.833 1.737 12230
1.639 1.841 1.735 10526
1.642 1.845 1.727 10599
1.641 1.843 1.716 8926
1.644 1.847 1.709 7139
1.647 1.850 1.702 7167
1.650 1.854 1.695 7195
1.653 1.857 1.688 6707
1.660 1.865 1.685 6295
1.668 1.874 1.682 4358
1.733 1.947 1.734 5452
1.745 1.961 1.734 4504
1.753 1.969 1.731 3996
1.783 2.003 1.748 4090
1.795 2.017 1.749 5181
1.789 2.010 1.733 6603
1.788 2.008 1.721 8457
1.800 2.022 1.722 9636
1.807 2.030 1.718 11442
1.815 2.039 1.714 10513
1.823 2.047 1.710 10062
1.826 2.051 1.702 7932
1.856 2.085 1.718 5477
1.859 2.088 1.710 5576
1.862 2.092 1.702 4598
1.870 2.100 1.698 3642
1.891 2.124 1.706 5844
1.894 2.128 1.698 8620
1.906 2.142 1.697 11129
1.914 2.150 1.693 12715
1.917 2.154 1.684 11306
1.925 2.162 1.680 9351
1.928 2.165 1.672 7531
1.931 2.169 1.663 6137
1.980 2.224 1.692 6453
1.978 2.222 1.680 6482
1.991 2.236 1.679 5757
2.017 2.266 1.688 8363
2.015 2.264 1.676 9391
2.018 2.267 1.667 9579
2.026 2.276 1.662 8002
2.038 2.290 1.661 6786
2.046 2.298 1.655 5015
2.087 2.344 1.675 3643
2.203 2.475 1.750 4270
2.211 2.483 1.744 6763
2.214 2.487 1.734 7295
2.231 2.506 1.735 7566
2.225 2.499 1.719 8797
2.223 2.497 1.706 10574
2.288 2.570 1.740 11238
2.262 2.541 1.710 14969
2.270 2.550 1.704 17979
2.278 2.559 1.697 20628
2.295 2.579 1.697 22057
2.303 2.587 1.690 25355
2.306 2.591 1.680 23908
2.319 2.605 1.677 17569
2.322 2.608 1.667 9191
2.416 2.714 1.718 10756
2.424 2.723 1.710 11676
2.422 2.721 1.697 10684
2.445 2.746 1.699 11018
2.448 2.750 1.688 14588
2.441 2.742 1.671 11251
2.483 2.789 1.685 9591
2.481 2.787 1.672 10502
2.479 2.785 1.658 10384
2.482 2.788 1.647 10544
2.490 2.797 1.639 11812
2.493 2.800 1.628 13189
2.500 2.809 1.621 14861
2.503 2.812 1.610 10743
2.521 2.832 1.608 7077
2.533 2.846 1.602 13832
2.546 2.860 1.597 16854
2.554 2.869 1.589 10167
2.571 2.889 1.586 6232
2.555 2.870 1.564 8983
2.833 3.183 1.708 9228
2.846 3.197 1.701 9162
2.849 3.201 1.689 5687
2.843 3.193 1.671 5672
2.855 3.208 1.664 8091
2.868 3.222 1.657 7376
2.990 3.359 1.708 7774
2.993 3.363 1.695 11799
2.991 3.360 1.679 10096
2.994 3.364 1.666 8832
3.002 3.373 1.656 10793
3.005 3.376 1.643 8358
3.188 3.581 1.720 4293
3.196 3.590 1.709 3585
3.249 3.650 1.719 4243
3.257 3.659 1.708 6830
3.320 3.730 1.722 9104
3.323 3.733 1.708 8008
3.326 3.737 1.694 5394
3.329 3.740 1.679 5451
3.373 3.789 1.683 5203
3.376 3.792 1.669 4678
3.353 3.767 1.643 3795
3.351 3.765 1.626 4008
3.500 3.932 1.676 3403
3.625 4.072 1.714 4863
3.628 4.075 1.698 5944
3.631 4.079 1.683 6258
3.689 4.145 1.690 5604
3.692 4.148 1.674 6322
3.731 4.191 1.673 5804
3.744 4.206 1.661 8095
3.859 4.335 1.690 7635
3.862 4.338 1.673 9090
3.865 4.341 1.656 8484
3.868 4.345 1.640 9293
3.865 4.342 1.621 11321
3.868 4.346 1.604 7725
4.009 4.504 1.639 5139
4.027 4.524 1.627 6140
4.030 4.527 1.610 5101
4.023 4.519 1.589 4163
4.266 4.792 1.658 3862
4.269 4.796 1.639 3860
4.523 5.081 1.708 4192
4.531 5.090 1.690 3521
4.699 5.278 1.726 2236
4.707 5.287 1.708 2281
4.808 5.401 1.720 2022
4.821 5.416 1.702 2003
5.009 5.627 1.741 2025
5.012 5.631 1.719 2461
5.041 5.663 1.705 2361
5.049 5.672 1.685 3147
5.047 5.670 1.661 3550
5.391 6.056 1.741 2517
5.389 6.053 1.716 3003
5.692 6.394 1.779 4543
5.695 6.397 1.754 5675
5.693 6.395 1.728 3757
5.742 6.451 1.716 3596
5.756 6.466 1.694 2971
5.717 6.422 1.658 3888
5.720 6.426 1.633 4599
5.718 6.423 1.606 3404
6.385 7.173 1.750 3225
1.299 1.459 0.454 4284
1.300 1.460 0.448 5466
1.305 1.466 0.444 6040
1.306 1.467 0.439 5475
1.301 1.462 0.432 4387
1.307 1.468 0.427 3263
1.308 1.469 0.422 2415
1.308 1.469 0.416 1698
1.314 1.476 0.412 1048
1.497 1.682 0.444 1369
1.497 1.682 0.438 2024
1.498 1.683 0.431 2665
1.499 1.683 0.425 3237
1.499 1.684 0.419 3526
1.500 1.685 0.412 3498
1.500 1.685 0.406 3303
1.501 1.686 0.399 3003
1.501 1.686 0.393 2510
1.502 1.687 0.386 1847
1.502 1.687 0.380 1223
9.281 10.426 1.616 791
9.273 10.417 1.573 632
9.150 10.279 1.514 419
1.378 1.548 0.336 293
9.575 10.756 1.493 285
1.526 1.714 0.344 317
1.531 1.720 0.338 444
1.532 1.721 0.332 700
1.537 1.727 0.326 1099
1.538 1.727 0.319 1436
1.538 1.728 0.313 1521
1.538 1.728 0.306 1345
1.402 1.575 0.285 1575
1.402 1.575 0.279 1775
1.403 1.576 0.273 1727
1.403 1.576 0.267 1484
1.403 1.576 0.261 1006
1.403 1.577 0.255 725
1.409 1.583 0.249 543
1.677 1.884 0.264 321
0.705 0.793 0.143 263
0.706 0.793 0.140 256
1.863 2.093 0.117 291
1.869 2.099 0.109 309
1.869 2.099 0.101 332
1.869 2.099 0.093 323
0.705 0.792 0.120 420
0.705 0.792 0.117 494
0.705 0.792 0.114 401
0.705 0.792 0.111 436
0.705 0.792 0.108 481
0.705 0.792 0.105 448
0.705 0.792 0.102 414
0.705 0.792 0.099 374
0.705 0.792 0.096 394
0.705 0.792 0.093 475
0.705 0.792 0.090 615
0.705 0.792 0.087 738
0.704 0.791 0.084 713
0.704 0.791 0.081 689
0.946 1.063 0.056 842
0.946 1.062 0.052 999
0.946 1.062 0.048 1120
0.945 1.062 0.044 1214
0.945 1.062 0.040 1333
0.950 1.068 0.036 1460
0.950 1.067 0.032 1689
0.950 1.067 0.028 1919
0.955 1.073 0.023 1903
0.955 1.072 0.019 1928
0.949 1.066 0.016 1553
0.949 1.066 0.012 1218
0.949 1.066 0.008 928
0.943 1.060 0.005 643
0.948 1.065 -0.000 573
0.953 1.071 -0.005 448
0.953 1.070 -0.009 403
0.958 1.076 -0.014 308
0.962 1.081 -0.023 294
1.570 1.746 1.806 3339
1.573 1.750 1.799 6679
1.576 1.754 1.792 6679
1.579 1.757 1.786 7914
1.583 1.761 1.779 9149
1.586 1.764 1.772 7592
1.589 1.768 1.765 6036
1.592 1.771 1.759 6036
1.617 1.799 1.774 6340
1.629 1.812 1.776 8648
1.632 1.816 1.770 11983
1.635 1.819 1.763 15318
1.634 1.818 1.751 14632
1.637 1.822 1.744 13968
1.640 1.825 1.737 11636
1.648 1.833 1.735 9387
1.647 1.832 1.723 9280
1.650 1.835 1.716 8128
1.653 1.839 1.709 6882
1.656 1.842 1.702 6783
1.654 1.841 1.691 6717
1.662 1.849 1.688 6306
1.669 1.857 1.685 5973
1.677 1.866 1.682 4235
1.743 1.939 1.734 5460
1.755 1.952 1.734 4974
1.762 1.961 1.731 4743
1.756 1.954 1.715 3728
1.746 1.942 1.695 3516
1.763 1.961 1.700 5375
1.770 1.969 1.697 7785
1.805 2.008 1.718 8417
1.822 2.027 1.722 11002
1.829 2.035 1.718 9818
1.837 2.044 1.714 9142
1.840 2.047 1.706 6826
1.857 2.066 1.710 4876
1.865 2.074 1.706 5080
1.868 2.078 1.698 4262
1.857 2.066 1.679 3505
1.897 2.110 1.702 5686
1.900 2.114 1.694 8564
1.912 2.127 1.693 11144
1.920 2.136 1.689 12583
1.927 2.144 1.684 10972
1.930 2.148 1.676 9023
1.938 2.156 1.672 7218
1.936 2.154 1.660 6712
1.925 2.142 1.640 6052
1.989 2.213 1.680 6333
2.016 2.242 1.690 6265
2.028 2.256 1.688 9208
2.036 2.265 1.683 9608
2.039 2.268 1.675 9695
2.051 2.282 1.673 8998
2.054 2.285 1.664 8404
2.062 2.294 1.659 5982
2.074 2.308 1.657 4688
2.077 2.311 1.648 5337
2.265 2.520 1.775 6862
2.254 2.508 1.755 7222
2.253 2.506 1.742 7491
2.237 2.488 1.719 7014
2.307 2.566 1.757 11317
2.300 2.559 1.740 15354
2.275 2.531 1.710 17952
2.311 2.571 1.724 20088
2.300 2.559 1.704 21588
2.313 2.573 1.700 24356
2.316 2.576 1.690 28529
2.323 2.585 1.684 26526
2.331 2.594 1.677 20049
2.339 2.602 1.670 11155
2.429 2.703 1.718 9778
2.437 2.711 1.710 10484
2.435 2.709 1.697 11313
2.458 2.734 1.699 11147
2.461 2.738 1.688 13763
2.449 2.725 1.668 11045
2.447 2.723 1.655 10460
2.494 2.775 1.672 12275
2.497 2.778 1.661 11679
2.500 2.782 1.650 10057
2.498 2.779 1.636 10130
2.506 2.788 1.628 12683
2.514 2.797 1.621 15626
2.517 2.800 1.610 11784
2.534 2.820 1.608 7032
2.547 2.834 1.602 12341
2.555 2.842 1.594 14933
2.563 2.851 1.586 9051
2.566 2.854 1.575 4968
2.568 2.857 1.564 6852
2.849 3.169 1.708 10593
2.857 3.178 1.698 10210
2.860 3.182 1.686 6930
2.863 3.185 1.674 7180
2.876 3.199 1.667 10958
2.889 3.214 1.660 11095
2.917 3.245 1.660 10135
2.920 3.248 1.648 13362
2.922 3.251 1.635 13536
3.026 3.366 1.674 10270
3.023 3.364 1.658 13704
3.026 3.367 1.645 9507
3.034 3.376 1.635 4616
3.027 3.368 1.617 3994
3.226 3.589 1.700 3750
3.275 3.643 1.708 5595
3.333 3.708 1.720 6629
3.336 3.712 1.706 6028
3.344 3.721 1.694 4069
3.393 3.775 1.700 4896
3.401 3.784 1.688 5241
3.399 3.781 1.671 5030
3.498 3.892 1.700 4088
3.511 3.906 1.689 4622
3.519 3.915 1.676 3440
3.644 4.054 1.714 4887
3.652 4.063 1.701 6024
3.650 4.061 1.683 5804
3.709 4.127 1.690 4436
3.717 4.136 1.676 4882
3.756 4.179 1.675 7894
3.764 4.188 1.661 13564
3.767 4.191 1.645 12013
3.893 4.331 1.677 7859
3.891 4.329 1.658 6576
3.889 4.326 1.640 7722
3.891 4.329 1.623 9282
3.889 4.327 1.604 6798
4.082 4.541 1.658 3602
4.064 4.522 1.633 4337
4.072 4.531 1.617 3605
4.106 4.568 1.611 2996
4.099 4.560 1.590 2399
4.292 4.775 1.639 2258
4.553 5.065 1.710 2436
4.561 5.074 1.692 2107
4.729 5.261 1.728 1989
4.712 5.242 1.701 2305
1.453 1.617 0.606 2794
1.454 1.618 0.600 2576
1.450 1.613 0.592 1892
5.034 5.601 1.717 1906
5.068 5.639 1.705 2011
5.076 5.648 1.685 2988
5.074 5.645 1.661 3322
5.233 5.822 1.685 3384
5.418 6.027 1.716 3006
5.722 6.366 1.779 4665
5.725 6.370 1.754 6374
5.728 6.373 1.730 4538
5.773 6.423 1.716 3476
5.724 6.368 1.677 2905
5.743 6.389 1.656 3919
5.751 6.398 1.633 5150
5.754 6.401 1.608 3700
6.414 7.136 1.749 3739
6.417 7.139 1.721 4628
6.415 7.137 1.692 4799
6.423 7.146 1.665 4387
6.426 7.150 1.637 3437
6.429 7.153 1.609 2613
6.432 7.156 1.581 2099
6.435 7.159 1.553 1375
6.857 7.628 1.616 1178
1.504 1.674 0.451 1075
1.505 1.674 0.444 1885
1.506 1.675 0.438 3014
1.506 1.676 0.431 4357
1.507 1.676 0.425 5640
1.507 1.677 0.419 6467
1.508 1.677 0.412 6591
1.508 1.678 0.406 6160
1.509 1.679 0.399 5523
1.509 1.679 0.393 4635
1.510 1.680 0.386 3421
1.510 1.680 0.380 2217
1.511 1.681 0.374 1264
1.516 1.687 0.368 620
9.579 10.657 1.571 443
1.380 1.536 0.335 371
1.386 1.542 0.330 511
1.386 1.542 0.324 544
1.403 1.560 0.320 539
1.403 1.561 0.314 1276
1.398 1.555 0.308 1864
1.404 1.562 0.302 2554
1.404 1.562 0.296 3676
1.404 1.562 0.290 4686
1.404 1.563 0.284 5891
1.410 1.569 0.279 6514
1.410 1.569 0.273 6564
1.411 1.569 0.267 5901
1.411 1.570 0.261 3889
1.411 1.570 0.255 2636
1.411 1.570 0.249 1689
1.422 1.582 0.244 806
1.417 1.576 0.237 818
1.422 1.582 0.232 731
1.423 1.583 0.226 511
1.423 1.583 0.220 301
1.990 2.214 0.141 287
1.990 2.214 0.133 342
1.990 2.214 0.124 359
1.990 2.214 0.116 376
1.990 2.214 0.107 313
0.709 0.789 0.125 377
0.709 0.789 0.123 433
1.879 2.090 0.085 423
0.709 0.789 0.117 458
0.709 0.789 0.114 495
0.709 0.789 0.111 687
0.709 0.789 0.108 895
0.709 0.789 0.105 854
0.709 0.789 0.102 828
0.709 0.789 0.099 843
0.709 0.788 0.096 854
0.709 0.788 0.093 864
0.708 0.788 0.090 668
0.708 0.788 0.087 483
0.708 0.788 0.084 436
0.962 1.070 0.060 529
0.956 1.064 0.056 827
0.956 1.064 0.052 1117
0.956 1.064 0.048 1397
0.956 1.063 0.044 1495
0.961 1.069 0.039 1435
0.961 1.069 0.035 1416
0.955 1.063 0.032 1054
0.960 1.068 0.027 702
0.960 1.068 0.023 600
0.960 1.068 0.019 498
0.960 1.068 0.015 578
0.959 1.067 0.011 658
0.959 1.067 0.007 683
0.959 1.067 0.003 708
0.959 1.066 -0.001 640
0.964 1.072 -0.006 552
0.963 1.072 -0.010 539
0.963 1.071 -0.014 403
0.957 1.065 -0.017 270
0.957 1.065 -0.021 357
1.576 1.741 1.806 3462
1.579 1.744 1.799 6924
1.583 1.748 1.792 6924
1.586 1.751 1.786 7739
1.589 1.755 1.779 8553
1.592 1.758 1.772 7273
1.591 1.757 1.761 6150
1.594 1.761 1.754 6150
1.624 1.793 1.774 6403
1.636 1.806 1.776 9539
1.639 1.810 1.770 12569
1.642 1.813 1.763 15598
1.641 1.812 1.751 14315
1.644 1.816 1.744 13201
1.647 1.819 1.737 10526
1.655 1.827 1.735 7891
1.653 1.826 1.723 7631
1.656 1.829 1.716 6963
1.664 1.838 1.713 6310
1.663 1.836 1.702 5995
1.661 1.835 1.691 5841
1.669 1.843 1.688 5495
1.676 1.851 1.685 5287
1.747 1.929 1.741 4187
1.754 1.937 1.738 5943
1.762 1.946 1.734 5630
1.770 1.954 1.731 5527
1.764 1.948 1.715 4610
1.753 1.936 1.695 4996
1.765 1.950 1.696 6757
1.773 1.958 1.693 9237
1.780 1.966 1.689 8691
1.829 2.020 1.722 10590
1.837 2.029 1.718 9339
1.849 2.042 1.718 8533
1.802 1.990 1.667 6312
1.864 2.059 1.710 4483
1.868 2.062 1.702 4951
1.871 2.066 1.695 4626
1.883 2.079 1.694 4374
1.900 2.098 1.698 6056
1.908 2.107 1.694 8407
1.915 2.115 1.689 10945
1.923 2.124 1.685 11952
1.931 2.132 1.681 10179
1.934 2.135 1.672 8218
1.932 2.134 1.660 6287
1.930 2.132 1.648 6888
1.928 2.130 1.636 7329
1.927 2.128 1.624 7512
1.930 2.131 1.616 7142
2.041 2.254 1.692 9053
2.053 2.268 1.691 9303
2.056 2.271 1.682 10074
2.064 2.280 1.677 10288
2.067 2.283 1.668 9679
2.075 2.291 1.662 7252
2.087 2.305 1.661 6957
2.086 2.303 1.648 8060
2.093 2.312 1.643 8624
2.101 2.320 1.637 8099
2.276 2.514 1.752 7587
2.308 2.549 1.763 7209
2.316 2.558 1.757 12745
2.310 2.551 1.740 17400
2.313 2.554 1.730 19454
2.325 2.568 1.727 22089
2.324 2.566 1.714 21255
2.322 2.564 1.700 24235
2.325 2.568 1.690 28406
2.333 2.576 1.684 26476
2.346 2.590 1.680 20530
2.353 2.599 1.673 12420
2.425 2.678 1.708 8715
2.447 2.703 1.710 9000
2.445 2.701 1.697 11173
2.453 2.709 1.689 10826
2.471 2.729 1.688 11502
2.454 2.711 1.665 10919
2.452 2.708 1.652 11713
2.504 2.766 1.672 14095
2.507 2.769 1.661 13585
2.505 2.767 1.647 11324
2.503 2.765 1.633 10610
2.516 2.779 1.628 12405
2.524 2.788 1.621 15870
2.522 2.785 1.607 12355
2.520 2.783 1.593 7076
2.557 2.824 1.602 10390
2.565 2.833 1.594 12134
2.573 2.842 1.586 7432
2.775 3.064 1.688 4243
2.852 3.150 1.717 6299
2.860 3.159 1.708 10350
2.868 3.168 1.698 9860
2.871 3.171 1.686 7487
2.879 3.180 1.676 7834
2.892 3.194 1.669 12053
2.910 3.214 1.665 13342
2.928 3.234 1.660 13029
2.931 3.237 1.648 15967
2.934 3.241 1.635 15537
3.043 3.360 1.677 12108
3.041 3.358 1.661 14356
3.044 3.361 1.648 9351
3.047 3.365 1.635 5476
3.045 3.362 1.619 4771
3.239 3.578 1.700 4351
3.268 3.609 1.698 4596
3.342 3.690 1.718 4395
3.350 3.699 1.706 4429
3.414 3.770 1.720 3827
3.412 3.768 1.703 4956
3.415 3.771 1.688 4842
3.418 3.774 1.673 4607
3.502 3.868 1.695 3876
3.525 3.894 1.689 4692
3.534 3.902 1.676 3287
3.659 4.041 1.714 3949
3.764 4.157 1.742 5333
3.767 4.161 1.726 6736
3.770 4.164 1.710 5293
3.763 4.156 1.689 4262
3.771 4.165 1.675 9744
3.780 4.174 1.661 15955
3.782 4.177 1.645 13936
3.780 4.175 1.626 8081
3.922 4.331 1.665 5319
3.915 4.323 1.644 6011
3.912 4.321 1.625 7250
3.998 4.415 1.639 6448
4.001 4.418 1.622 4281
4.003 4.421 1.605 3644
4.006 4.425 1.587 3622
4.128 4.559 1.613 3000
4.110 4.539 1.588 2656
4.449 4.914 1.688 2961
4.447 4.911 1.667 2807
4.455 4.920 1.650 2648
1.452 1.604 0.617 3043
1.458 1.611 0.612 2921
1.459 1.612 0.606 3594
1.460 1.613 0.600 3730
1.461 1.614 0.594 2559
5.231 5.777 1.773 2543
5.469 6.039 1.823 1892
5.092 5.623 1.683 2506
5.246 5.794 1.706 4436
5.249 5.797 1.684 5862
5.257 5.806 1.663 4587
5.745 6.345 1.779 4136
5.749 6.349 1.754 6054
5.741 6.341 1.727 4557
5.729 6.327 1.698 3275
5.747 6.347 1.677 3056
5.766 6.368 1.656 3813
5.774 6.377 1.633 4945
5.782 6.386 1.609 3482
6.440 7.113 1.749 3570
6.443 7.116 1.721 4453
6.441 7.114 1.692 4616
6.449 7.123 1.665 4104
6.452 7.126 1.637 3148
6.455 7.129 1.609 2426
6.458 7.132 1.581 1983
6.939 7.664 1.659 1383
1.510 1.667 0.457 1535
1.510 1.668 0.451 2604
1.511 1.669 0.444 4060
1.512 1.669 0.438 5731
1.512 1.670 0.431 7398
1.513 1.671 0.425 8762
1.513 1.671 0.419 9362
1.514 1.672 0.412 9060
1.514 1.673 0.406 8172
1.515 1.673 0.399 7169
1.515 1.674 0.393 5832
1.516 1.674 0.386 4072
1.516 1.675 0.380 2519
1.517 1.675 0.374 1341
1.517 1.676 0.367 559
9.612 10.616 1.570 471
1.386 1.531 0.335 402
1.392 1.537 0.330 485
1.408 1.555 0.326 684
1.408 1.555 0.320 933
1.403 1.550 0.314 1513
1.404 1.550 0.308 1934
1.409 1.556 0.302 2455
1.410 1.557 0.296 3619
1.410 1.557 0.290 4359
1.410 1.557 0.284 4140
1.410 1.558 0.278 3663
1.411 1.558 0.272 2887
1.406 1.552 0.266 2073
1.411 1.559 0.261 1793
1.411 1.559 0.255 1623
1.417 1.565 0.249 1244
1.417 1.565 0.243 559
1.998 2.207 0.141 406
2.003 2.213 0.133 486
1.998 2.207 0.124 539
1.998 2.207 0.116 596
1.998 2.207 0.107 612
1.998 2.206 0.099 628
1.998 2.206 0.090 662
0.712 0.786 0.120 1068
0.712 0.786 0.117 1923
0.712 0.786 0.114 2569
0.712 0.786 0.111 3459
0.712 0.786 0.108 4084
0.712 0.786 0.105 3058
0.712 0.786 0.102 2214
0.712 0.786 0.099 2396
0.712 0.786 0.096 2261
0.711 0.786 0.093 2088
0.711 0.786 0.090 1549
0.711 0.786 0.087 1013
0.711 0.785 0.084 1117
0.711 0.785 0.081 1221
0.711 0.785 0.079 955
0.711 0.785 0.076 690
0.960 1.060 0.048 673
0.965 1.066 0.043 785
0.965 1.066 0.039 847
0.970 1.071 0.035 880
0.970 1.071 0.031 856
0.969 1.071 0.027 838
0.969 1.070 0.023 824
0.969 1.070 0.018 809
0.969 1.070 0.014 741
0.969 1.070 0.010 673
0.963 1.064 0.007 633
0.963 1.063 0.003 593
0.962 1.063 -0.001 551
0.962 1.063 -0.005 499
0.962 1.062 -0.009 488
0.962 1.062 -0.013 404
0.956 1.056 -0.016 333
0.956 1.055 -0.020 462
1.579 1.729 1.801 3401
1.583 1.732 1.795 6803
1.586 1.736 1.788 6803
1.594 1.744 1.786 7372
1.597 1.748 1.779 8015
1.600 1.751 1.772 7350
1.599 1.750 1.761 6948
1.602 1.754 1.754 6948
1.632 1.786 1.774 6926
1.644 1.799 1.776 10592
1.647 1.803 1.770 12911
1.650 1.806 1.763 15231
1.649 1.805 1.751 13403
1.647 1.803 1.740 12042
1.655 1.812 1.737 9111
1.663 1.820 1.735 6182
1.657 1.814 1.719 5876
1.664 1.822 1.716 5663
1.672 1.830 1.713 5644
1.671 1.829 1.702 5124
1.669 1.827 1.691 4837
1.677 1.835 1.688 4600
1.684 1.844 1.685 4495
1.760 1.926 1.745 4984
1.763 1.930 1.738 6841
1.771 1.938 1.734 6353
1.778 1.946 1.731 6131
1.763 1.930 1.707 5595
1.762 1.928 1.695 6597
1.774 1.942 1.696 8344
1.781 1.950 1.693 10872
1.789 1.958 1.689 10019
1.843 2.017 1.726 10130
1.800 1.970 1.678 9169
1.803 1.973 1.670 8811
1.810 1.982 1.667 8839
1.813 1.985 1.659 6409
1.881 2.059 1.706 5053
1.889 2.068 1.702 5647
1.897 2.076 1.698 6520
1.904 2.085 1.694 7495
1.912 2.093 1.690 8736
1.920 2.102 1.686 10922
1.932 2.115 1.685 11163
1.940 2.124 1.681 9078
1.938 2.122 1.669 7487
1.937 2.120 1.657 6265
1.940 2.123 1.648 7243
1.938 2.121 1.636 8186
1.931 2.114 1.621 8699
1.939 2.122 1.616 8249
2.056 2.250 1.696 7899
2.082 2.279 1.705 9427
2.081 2.278 1.693 10583
2.074 2.270 1.677 11332
2.077 2.274 1.668 10737
2.090 2.288 1.666 8534
2.102 2.301 1.664 9227
2.101 2.299 1.652 10697
2.104 2.303 1.643 10946
2.106 2.306 1.634 9537
2.109 2.309 1.625 7878
2.314 2.533 1.760 6314
2.327 2.548 1.757 12328
2.326 2.546 1.743 17433
2.329 2.549 1.733 19840
2.342 2.563 1.730 22440
2.350 2.572 1.724 20734
2.338 2.559 1.704 22359
2.341 2.563 1.694 26164
2.344 2.566 1.684 24385
2.357 2.580 1.680 19481
2.365 2.589 1.673 12469
2.378 2.603 1.670 8114
2.400 2.627 1.672 9629
2.442 2.674 1.687 10172
2.441 2.672 1.674 10703
2.463 2.696 1.676 9455
2.456 2.689 1.659 10949
2.459 2.692 1.649 12423
2.517 2.755 1.672 15402
2.520 2.758 1.661 15358
2.518 2.756 1.647 13150
2.516 2.754 1.633 11796
2.529 2.768 1.628 11898
2.536 2.776 1.621 15512
2.529 2.769 1.604 13532
2.527 2.766 1.590 8101
2.565 2.808 1.600 8309
2.573 2.816 1.592 8874
2.581 2.825 1.583 5605
