1.562 3.842 1.652 3916
1.563 3.846 1.640 6933
1.571 3.864 1.633 10396
1.581 3.889 1.629 10209
1.588 3.906 1.622 11057
1.595 3.924 1.616 13515
1.585 3.901 1.593 9686
1.579 3.884 1.573 6750
1.682 4.137 1.653 5975
1.678 4.127 1.635 7985
1.679 4.131 1.623 6425
1.735 4.268 1.657 8310
1.734 4.265 1.641 7465
1.730 4.255 1.623 5721
1.728 4.252 1.608 4821
1.784 4.389 1.640 5105
1.825 4.490 1.660 3894
1.824 4.488 1.644 3021
1.817 4.471 1.623 3861
1.830 4.503 1.618 4253
1.843 4.535 1.613 4014
1.862 4.581 1.613 3228
1.886 4.641 1.617 2514
1.940 4.772 1.642 2251
1.950 4.797 1.634 2703
1.960 4.822 1.626 2923
1.964 4.833 1.613 2887
1.978 4.865 1.607 4944
1.973 4.855 1.587 8001
1.975 4.859 1.572 5518
1.994 4.905 1.569 3992
2.082 5.121 1.616 4010
2.086 5.132 1.602 6431
2.091 5.144 1.588 5457
2.098 5.162 1.576 5018
2.100 5.165 1.560 5084
2.101 5.169 1.544 3991
2.094 5.152 1.522 3506
2.226 5.476 1.591 3594
2.242 5.515 1.584 3786
2.246 5.526 1.568 4170
2.303 5.666 1.586 5548
2.307 5.677 1.570 6412
2.309 5.681 1.552 7226
2.313 5.691 1.536 8235
2.318 5.702 1.520 6281
2.415 5.942 1.559 3860
2.423 5.960 1.544 4841
2.424 5.964 1.526 4487
2.438 5.997 1.514 3578
2.454 6.036 1.503 2945
2.508 6.169 1.513 2807
2.661 6.546 1.576 2545
2.657 6.536 1.553 3169
2.766 6.806 1.590 3129
2.788 6.860 1.579 3271
2.893 7.116 1.610 3090
2.894 7.120 1.588 3938
2.896 7.124 1.565 4935
2.897 7.128 1.543 4415
2.899 7.131 1.521 3109
2.971 7.308 1.532 3507
2.969 7.305 1.507 3147
3.250 7.995 1.612 2234
3.060 7.529 1.501 1968
3.065 7.540 1.479 2739
3.446 8.477 1.619 3850
3.448 8.481 1.593 3174
3.449 8.485 1.566 2466
3.454 8.496 1.541 2686
3.455 8.500 1.514 2375
3.619 8.903 1.551 2272
3.614 8.892 1.521 2409
3.613 8.889 1.492 2387
3.615 8.892 1.464 2201
3.616 8.896 1.436 1506
3.632 8.936 1.413 1121
3.642 8.961 1.388 757
3.644 8.964 1.360 744
4.645 11.427 1.661 927
4.833 11.890 1.685 1530
4.832 11.887 1.647 1798
4.833 11.891 1.610 1573
4.835 11.895 1.573 1240
4.866 11.972 1.544 1606
4.868 11.976 1.506 1766
4.869 11.979 1.469 1314
4.856 11.946 1.427 676
4.896 12.045 1.399 484
4.912 12.084 1.365 475
4.907 12.073 1.326 501
4.900 12.054 1.286 378
4.940 12.152 1.257 323
0.599 1.474 0.163 323
0.599 1.474 0.158 378
0.599 1.474 0.154 399
0.599 1.474 0.149 386
0.602 1.482 0.145 359
0.602 1.482 0.141 295
3.807 9.365 -0.560 275
3.806 9.363 -0.589 275
3.796 9.339 -0.617 507
3.795 9.337 -0.646 780
3.789 9.320 -0.674 1177
3.788 9.318 -0.703 1620
3.784 9.309 -0.732 1674
3.780 9.299 -0.760 1744
3.779 9.296 -0.789 1744
3.775 9.286 -0.818 1401
3.771 9.277 -0.846 1169
3.767 9.267 -0.874 890
3.763 9.256 -0.903 674
3.755 9.239 -0.930 467
1.063 2.616 -0.183 286
0.869 2.119 1.764 4046
0.871 2.124 1.757 8093
0.872 2.128 1.751 8093
0.877 2.138 1.749 8705
0.881 2.149 1.747 9543
0.880 2.147 1.736 8254
0.882 2.151 1.729 6984
0.884 2.156 1.723 6984
0.922 2.250 1.783 7585
0.924 2.255 1.776 8469
0.919 2.241 1.756 8235
0.918 2.239 1.745 8689
0.925 2.256 1.747 6529
0.929 2.266 1.744 4917
0.931 2.271 1.737 3973
0.950 2.318 1.761 3590
0.967 2.359 1.780 5021
0.951 2.320 1.742 5050
0.950 2.318 1.731 5325
0.965 2.353 1.745 6249
0.969 2.364 1.742 7819
0.973 2.374 1.739 8032
0.980 2.391 1.740 9127
0.982 2.395 1.733 7596
0.979 2.387 1.717 6312
1.008 2.460 1.755 7223
1.013 2.471 1.752 9876
1.015 2.475 1.744 11561
1.016 2.479 1.737 13247
1.018 2.484 1.729 12266
1.022 2.494 1.725 11368
1.024 2.498 1.718 7745
1.057 2.578 1.758 6109
1.059 2.583 1.750 9114
1.063 2.593 1.746 12189
1.062 2.591 1.734 11183
1.059 2.583 1.718 6771
1.089 2.657 1.754 3991
1.088 2.655 1.742 4778
1.085 2.647 1.726 6305
1.084 2.645 1.713 5820
1.083 2.642 1.701 5410
1.088 2.653 1.697 4622
1.113 2.715 1.723 7600
1.117 2.726 1.719 8796
1.122 2.736 1.714 9745
1.126 2.747 1.709 10782
1.130 2.758 1.704 11873
1.137 2.775 1.703 11371
1.147 2.799 1.706 9914
1.144 2.790 1.690 9565
1.143 2.787 1.677 9227
1.142 2.785 1.665 8857
1.205 2.939 1.740 7925
1.150 2.806 1.655 7412
1.155 2.817 1.650 7579
1.226 2.991 1.733 7704
1.228 2.996 1.724 13087
1.230 3.000 1.715 15674
1.237 3.017 1.713 14466
1.241 3.028 1.707 11815
1.235 3.012 1.687 9252
1.250 3.050 1.695 7415
1.257 3.067 1.692 6658
1.264 3.084 1.689 9918
1.266 3.089 1.680 12694
1.271 3.099 1.673 13903
1.272 3.104 1.664 11494
1.274 3.108 1.654 5201
1.333 3.252 1.713 6162
1.335 3.256 1.703 5370
1.336 3.260 1.693 5504
1.344 3.278 1.689 6830
1.345 3.282 1.679 6057
1.358 3.313 1.682 5038
1.349 3.290 1.659 6404
1.350 3.294 1.649 7957
1.388 3.386 1.679 6177
1.392 3.397 1.671 6874
1.394 3.401 1.661 6084
1.396 3.405 1.650 5768
1.398 3.409 1.640 5164
1.469 3.583 1.704 4386
1.473 3.594 1.696 7607
1.478 3.605 1.688 8540
1.482 3.616 1.679 7676
1.481 3.613 1.665 7115
1.480 3.610 1.651 11629
1.479 3.607 1.637 15826
1.478 3.605 1.623 14501
1.479 3.609 1.612 11130
1.487 3.626 1.606 9750
1.488 3.630 1.595 7265
1.563 3.813 1.655 3946
1.565 3.817 1.643 3915
1.575 3.841 1.640 7431
1.582 3.859 1.633 12228
1.592 3.884 1.629 11293
1.597 3.895 1.620 10886
1.604 3.913 1.613 12631
1.597 3.896 1.593 10339
1.596 3.893 1.578 7074
1.694 4.132 1.653 6528
1.690 4.122 1.635 8838
1.692 4.126 1.623 8116
1.685 4.110 1.602 8836
1.686 4.114 1.589 9235
1.691 4.124 1.579 6517
1.738 4.240 1.605 5683
1.740 4.244 1.592 4891
1.770 4.317 1.603 3481
1.771 4.321 1.589 4113
1.770 4.318 1.573 3959
1.829 4.462 1.606 3089
1.874 4.571 1.627 3429
1.878 4.582 1.615 2995
1.897 4.628 1.614 2866
1.951 4.759 1.640 2861
1.958 4.777 1.630 2591
1.971 4.809 1.624 2695
1.979 4.827 1.613 2805
1.995 4.866 1.609 4942
1.991 4.856 1.589 7423
1.989 4.853 1.572 5532
1.988 4.850 1.555 3105
2.108 5.144 1.624 4926
2.107 5.140 1.606 7234
2.115 5.159 1.594 7285
2.116 5.162 1.578 6726
2.115 5.159 1.560 5551
2.119 5.170 1.546 4175
2.235 5.451 1.605 3378
2.242 5.469 1.591 3483
2.255 5.502 1.582 3434
2.321 5.662 1.605 4618
2.323 5.666 1.588 6046
2.327 5.677 1.572 6932
2.329 5.681 1.554 8943
2.330 5.685 1.536 10914
2.335 5.696 1.520 8480
2.333 5.692 1.501 5183
2.440 5.953 1.544 5155
2.439 5.950 1.524 4983
2.458 5.997 1.515 4093
2.471 6.029 1.503 3812
2.526 6.162 1.513 3162
2.677 6.531 1.575 2668
2.676 6.528 1.553 3513
2.784 6.790 1.588 3409
2.797 6.823 1.573 2979
2.914 7.107 1.610 3826
2.915 7.111 1.588 4931
2.917 7.115 1.565 5885
2.918 7.119 1.543 5426
2.920 7.123 1.521 4215
2.989 7.292 1.530 3958
2.988 7.289 1.506 3570
2.987 7.285 1.482 1906
3.397 8.286 1.641 1704
3.457 8.434 1.641 2645
3.459 8.438 1.614 4047
3.455 8.428 1.585 2948
3.456 8.432 1.559 2644
3.455 8.428 1.531 3297
3.454 8.425 1.503 2939
3.458 8.436 1.478 2437
3.644 8.889 1.522 1787
3.636 8.871 1.491 2028
3.641 8.881 1.464 1969
3.648 8.900 1.438 1581
3.659 8.925 1.413 1233
4.232 10.323 1.581 759
3.673 8.961 1.361 658
4.718 11.508 1.674 879
4.686 11.432 1.627 1225
4.685 11.429 1.591 1404
4.869 11.877 1.610 1212
4.909 11.975 1.584 1121
4.905 11.965 1.545 1313
4.900 11.954 1.505 1368
4.902 11.957 1.468 975
4.975 12.136 1.449 884
4.976 12.139 1.411 588
4.975 12.135 1.372 357
5.368 13.094 1.428 423
5.366 13.090 1.386 402
5.362 13.079 1.344 303
0.507 1.238 0.099 360
0.507 1.237 0.095 407
0.507 1.237 0.092 420
0.507 1.237 0.088 420
0.504 1.230 0.085 385
0.504 1.230 0.081 343
0.504 1.229 0.077 285
0.678 1.653 0.039 282
0.678 1.653 0.034 312
0.680 1.660 0.029 342
0.677 1.652 0.024 297
0.677 1.652 0.019 252
3.827 9.335 -0.617 269
3.823 9.326 -0.646 401
3.816 9.309 -0.674 630
3.812 9.300 -0.703 890
3.811 9.297 -0.732 985
3.807 9.288 -0.760 1100
3.806 9.285 -0.789 1100
3.802 9.275 -0.818 990
3.801 9.273 -0.847 914
3.797 9.263 -0.875 734
3.790 9.245 -0.903 619
3.771 9.199 -0.926 468
1.071 2.613 -0.183 287
0.880 2.122 1.769 3831
0.881 2.126 1.762 7662
0.883 2.131 1.756 7662
0.887 2.141 1.754 8642
0.889 2.145 1.747 9710
0.891 2.150 1.740 7959
0.925 2.232 1.793 7672
0.927 2.236 1.786 7672
0.931 2.247 1.783 8260
0.933 2.251 1.776 8956
0.927 2.237 1.756 8624
0.927 2.236 1.745 9252
0.934 2.252 1.747 7611
0.938 2.263 1.744 6840
0.942 2.273 1.742 5475
0.959 2.314 1.761 4502
0.963 2.324 1.758 5901
0.960 2.316 1.742 6312
0.957 2.308 1.726 7001
0.971 2.343 1.741 6845
0.976 2.354 1.738 7601
0.983 2.371 1.739 7358
0.992 2.393 1.744 8512
0.994 2.398 1.737 6930
0.998 2.408 1.734 5458
1.018 2.456 1.755 6925
1.022 2.467 1.752 9838
1.024 2.471 1.744 12481
1.023 2.469 1.732 15160
1.028 2.480 1.729 14295
1.030 2.484 1.721 13465
1.034 2.494 1.718 9161
1.064 2.568 1.754 6047
1.069 2.578 1.750 9409
1.073 2.589 1.746 13004
1.075 2.593 1.738 11913
1.069 2.579 1.718 7088
1.063 2.564 1.699 4559
1.062 2.562 1.687 4062
1.098 2.649 1.729 4487
1.097 2.647 1.717 3601
1.096 2.644 1.705 2943
1.114 2.687 1.720 3511
1.124 2.711 1.723 5735
1.131 2.728 1.722 6806
1.132 2.732 1.714 9342
1.134 2.736 1.705 11878
1.141 2.753 1.704 12796
1.148 2.770 1.703 11483
1.158 2.794 1.706 9338
1.160 2.798 1.697 8955
1.156 2.789 1.681 7185
1.212 2.924 1.745 7058
1.216 2.934 1.740 6854
1.229 2.965 1.745 6199
1.168 2.819 1.653 6310
1.238 2.986 1.733 7240
1.237 2.984 1.721 12064
1.241 2.995 1.715 14191
1.246 3.006 1.709 12479
1.256 3.030 1.710 9265
1.277 3.080 1.725 8801
1.281 3.091 1.719 6967
1.283 3.095 1.709 5120
1.279 3.086 1.693 8500
1.284 3.097 1.686 11769
1.285 3.101 1.677 13550
1.284 3.099 1.664 11815
1.286 3.103 1.654 5816
1.307 3.153 1.667 4847
1.342 3.237 1.697 3940
1.341 3.235 1.683 4973
1.359 3.279 1.693 6258
1.367 3.297 1.689 5904
1.374 3.314 1.685 5357
1.362 3.285 1.659 5351
1.363 3.289 1.649 7003
1.401 3.381 1.679 7091
1.409 3.398 1.674 7335
1.430 3.449 1.685 8348
1.440 3.474 1.684 8162
1.444 3.485 1.676 7279
1.424 3.435 1.641 5111
1.484 3.581 1.693 6287
1.492 3.599 1.688 6195
1.499 3.617 1.682 6691
1.498 3.614 1.668 7448
1.494 3.604 1.651 11938
1.496 3.608 1.640 14425
1.492 3.599 1.623 13055
1.496 3.610 1.614 11353
1.501 3.620 1.606 9709
1.502 3.624 1.595 7383
1.575 3.800 1.653 5323
1.577 3.804 1.641 4401
1.581 3.815 1.632 7223
1.597 3.853 1.633 12918
1.604 3.871 1.627 11761
1.612 3.889 1.620 10677
1.616 3.899 1.610 12317
1.615 3.896 1.595 10833
1.617 3.900 1.583 7451
1.658 4.001 1.607 7544
1.706 4.116 1.635 9004
1.708 4.120 1.623 9448
1.704 4.110 1.605 12123
1.705 4.114 1.592 12842
1.707 4.118 1.579 9354
1.703 4.108 1.561 7820
1.701 4.105 1.546 5640
1.784 4.304 1.600 4771
1.788 4.314 1.589 5403
1.787 4.311 1.573 5295
1.789 4.315 1.560 3090
1.895 4.571 1.629 2973
1.896 4.575 1.615 2929
1.913 4.614 1.612 3375
1.914 4.618 1.598 3312
1.971 4.755 1.625 3288
1.946 4.696 1.591 3196
1.989 4.798 1.606 2685
2.014 4.858 1.609 3728
2.016 4.862 1.593 5493
2.008 4.845 1.572 4866
2.004 4.835 1.553 5200
2.132 5.142 1.626 6494
2.130 5.139 1.608 9194
2.138 5.157 1.596 9620
2.136 5.154 1.578 8103
2.135 5.151 1.560 6387
2.143 5.169 1.547 5543
2.153 5.194 1.537 5475
2.210 5.333 1.557 3160
2.342 5.649 1.623 3096
2.343 5.653 1.605 4962
2.345 5.657 1.588 5681
2.349 5.668 1.572 6297
2.351 5.672 1.554 8661
2.353 5.675 1.536 10741
2.354 5.679 1.518 8531
2.356 5.683 1.501 5402
2.481 5.987 1.554 4707
2.462 5.940 1.524 4178
2.485 5.994 1.517 3736
2.498 6.026 1.505 4105
2.520 6.080 1.497 3196
2.700 6.514 1.573 2489
2.702 6.517 1.553 3246
2.807 6.772 1.586 3189
2.943 7.099 1.634 2747
2.941 7.096 1.610 4001
2.943 7.100 1.588 5237
2.945 7.104 1.565 6227
2.946 7.108 1.543 5958
2.948 7.111 1.521 4827
3.015 7.273 1.529 4206
3.013 7.270 1.505 4010
3.015 7.274 1.482 2059
3.483 8.402 1.664 2033
3.487 8.413 1.639 3916
3.486 8.410 1.612 5085
3.488 8.414 1.585 3927
3.489 8.418 1.559 4265
3.488 8.415 1.531 5066
3.487 8.411 1.503 3863
3.491 8.422 1.478 2894
3.493 8.426 1.452 2193
3.491 8.422 1.424 1767
3.492 8.425 1.398 1961
3.494 8.429 1.371 1573
4.270 10.302 1.614 1226
4.269 10.299 1.580 1147
4.271 10.303 1.548 890
4.020 9.697 1.434 1033
4.021 9.700 1.403 1117
4.730 11.411 1.591 955
4.903 11.829 1.606 930
4.899 11.818 1.567 1004
4.954 11.953 1.545 957
4.992 12.044 1.518 890
4.994 12.047 1.480 755
5.104 12.313 1.470 593
5.286 12.753 1.478 550
5.282 12.742 1.436 534
5.419 13.073 1.428 548
5.417 13.069 1.386 498
5.416 13.065 1.345 377
0.515 1.243 0.103 281
0.515 1.243 0.099 498
0.515 1.243 0.095 674
0.512 1.235 0.092 849
0.512 1.235 0.088 965
0.509 1.228 0.085 939
0.509 1.228 0.081 905
0.509 1.227 0.077 750
0.509 1.227 0.073 596
0.684 1.651 0.044 510
0.684 1.650 0.039 629
0.684 1.650 0.034 641
0.687 1.657 0.029 660
0.687 1.657 0.024 562
0.684 1.649 0.019 466
0.686 1.656 0.014 336
3.849 9.285 -0.703 385
3.845 9.275 -0.731 505
3.844 9.273 -0.760 626
3.843 9.270 -0.789 626
3.839 9.260 -0.818 619
3.837 9.258 -0.847 621
3.830 9.240 -0.874 563
3.811 9.194 -0.898 658
3.810 9.191 -0.927 590
3.803 9.174 -0.954 271
1.078 2.601 -0.183 258
0.891 2.131 1.778 3915
0.893 2.135 1.771 7830
0.895 2.140 1.765 7830
0.897 2.144 1.758 8839
0.899 2.148 1.752 9847
0.901 2.153 1.745 7812
0.930 2.223 1.788 8179
0.932 2.227 1.781 8179
0.939 2.244 1.783 8157
0.943 2.254 1.781 8533
0.932 2.228 1.752 8459
0.934 2.233 1.745 9238
0.941 2.249 1.747 7780
0.948 2.265 1.749 7477
0.950 2.270 1.742 6104
0.967 2.311 1.761 5241
0.969 2.315 1.754 6933
0.968 2.313 1.742 7425
0.965 2.305 1.726 8256
0.974 2.328 1.732 7369
0.981 2.345 1.733 7304
0.998 2.386 1.752 6921
1.000 2.390 1.744 8139
1.004 2.401 1.741 6506
1.009 2.411 1.738 4963
1.026 2.453 1.755 6161
1.031 2.463 1.752 8873
1.030 2.461 1.740 12035
1.032 2.466 1.732 15255
1.036 2.476 1.729 14323
1.038 2.480 1.721 13615
1.042 2.491 1.718 9253
1.057 2.527 1.730 6259
1.080 2.581 1.754 9330
1.082 2.586 1.746 13196
1.084 2.590 1.738 12288
1.085 2.594 1.730 7343
1.074 2.567 1.702 3835
1.110 2.653 1.745 3424
1.112 2.658 1.737 3361
1.116 2.668 1.733 2810
1.153 2.756 1.775 2569
1.133 2.709 1.735 3434
1.138 2.720 1.731 5549
1.140 2.724 1.722 6675
1.141 2.728 1.714 9415
1.143 2.732 1.705 12156
1.148 2.743 1.701 12690
1.158 2.767 1.703 11184
1.165 2.784 1.702 9004
1.169 2.794 1.697 7979
1.171 2.799 1.688 5870
1.221 2.919 1.745 5497
1.229 2.937 1.743 5891
1.236 2.954 1.741 5554
1.197 2.861 1.678 6716
1.199 2.865 1.670 6649
1.247 2.980 1.721 10992
1.251 2.991 1.715 13004
1.256 3.002 1.709 11181
1.266 3.026 1.710 7700
1.287 3.076 1.725 8548
1.291 3.087 1.719 6795
1.296 3.097 1.712 4672
1.295 3.095 1.699 7308
1.297 3.099 1.690 10468
1.296 3.097 1.677 12056
1.297 3.101 1.667 11030
1.316 3.145 1.677 6445
1.320 3.156 1.671 6071
1.339 3.200 1.680 4249
1.346 3.217 1.677 4533
1.373 3.281 1.696 5132
1.380 3.299 1.692 5270
1.385 3.310 1.685 4891
1.373 3.280 1.659 4396
1.371 3.278 1.645 6037
1.415 3.383 1.682 7732
1.434 3.427 1.690 8072
1.444 3.451 1.688 10265
1.451 3.469 1.684 10734
1.456 3.480 1.676 9360
1.455 3.477 1.662 5874
1.440 3.441 1.633 4994
1.464 3.499 1.646 6021
1.511 3.612 1.682 6548
1.510 3.609 1.668 8172
1.509 3.606 1.654 10856
1.513 3.617 1.646 12507
1.515 3.621 1.634 11456
1.511 3.612 1.617 10431
1.513 3.615 1.606 8807
1.517 3.626 1.598 7027
1.588 3.794 1.653 5793
1.586 3.792 1.638 5038
1.591 3.802 1.629 7133
1.607 3.841 1.631 12183
1.617 3.865 1.627 11141
1.625 3.883 1.620 10142
1.629 3.894 1.610 12258
1.628 3.891 1.595 10883
1.667 3.985 1.617 7737
1.672 3.996 1.607 9333
1.720 4.110 1.635 8223
1.721 4.114 1.623 9391
1.717 4.104 1.605 13428
1.719 4.108 1.592 14570
1.720 4.112 1.579 10691
1.798 4.297 1.630 8668
1.794 4.287 1.611 6521
1.795 4.291 1.598 6205
1.803 4.308 1.589 5864
1.798 4.298 1.571 5843
1.800 4.302 1.558 3541
1.910 4.565 1.629 2328
1.952 4.666 1.647 2912
1.925 4.601 1.610 3504
1.929 4.611 1.598 3442
1.966 4.699 1.610 4440
1.962 4.689 1.591 4326
2.002 4.785 1.604 3951
2.015 4.817 1.598 2917
2.032 4.856 1.593 3677
2.030 4.853 1.576 3360
2.017 4.821 1.551 5441
2.022 4.832 1.537 7690
2.150 5.139 1.610 10053
2.155 5.150 1.596 9691
2.156 5.154 1.580 8414
2.155 5.151 1.562 7315
2.160 5.162 1.547 6664
2.167 5.180 1.535 6754
2.172 5.191 1.521 3475
2.357 5.634 1.621 2833
2.362 5.645 1.605 4283
2.366 5.656 1.590 4365
2.368 5.660 1.572 4587
2.370 5.664 1.554 6421
2.371 5.668 1.536 7961
2.373 5.671 1.518 6663
2.374 5.675 1.501 4458
2.507 5.993 1.558 4321
2.542 6.075 1.557 3301
2.537 6.064 1.535 3101
2.533 6.054 1.513 4095
2.540 6.072 1.497 4042
2.695 6.440 1.559 2668
2.822 6.745 1.605 2897
2.881 6.885 1.613 3460
2.885 6.896 1.593 3984
2.887 6.900 1.571 4237
2.966 7.090 1.588 4648
2.968 7.094 1.565 5625
2.970 7.098 1.543 5465
2.971 7.102 1.521 4451
3.036 7.256 1.527 4013
3.035 7.253 1.503 4095
3.039 7.264 1.482 2476
3.514 8.398 1.666 2600
3.515 8.402 1.639 4833
3.514 8.399 1.612 5815
3.516 8.403 1.585 4597
3.517 8.406 1.559 5203
3.516 8.403 1.531 5778
3.514 8.400 1.503 3969
3.519 8.410 1.478 2805
3.520 8.414 1.452 2332
3.519 8.410 1.424 2205
3.520 8.414 1.398 2380
3.522 8.417 1.371 1771
4.304 10.288 1.614 1484
4.303 10.285 1.580 1369
4.035 9.644 1.459 1171
4.042 9.662 1.431 1352
4.050 9.680 1.402 1319
4.051 9.683 1.372 1027
5.070 12.117 1.644 991
5.062 12.099 1.603 1156
5.061 12.096 1.564 1108
5.062 12.100 1.526 933
5.031 12.023 1.479 840
5.461 13.052 1.553 704
5.353 12.794 1.484 622
5.321 12.717 1.435 616
5.465 13.062 1.429 579
5.461 13.051 1.386 509
5.459 13.047 1.345 396
0.513 1.227 0.114 266
0.516 1.234 0.110 279
0.516 1.234 0.107 293
0.516 1.234 0.103 254
0.525 1.256 0.098 336
0.519 1.241 0.095 549
0.516 1.234 0.092 874
0.516 1.233 0.088 1126
0.516 1.233 0.084 1222
0.513 1.226 0.081 1305
0.516 1.233 0.077 1173
0.516 1.233 0.073 1047
0.693 1.656 0.044 826
0.693 1.655 0.039 1025
0.692 1.655 0.034 1081
0.692 1.655 0.029 1137
0.692 1.654 0.024 1020
0.689 1.647 0.019 904
0.692 1.654 0.014 720
0.692 1.653 0.009 537
0.692 1.653 0.003 417
0.691 1.653 -0.002 254
3.872 9.255 -0.730 267
3.871 9.253 -0.759 326
3.870 9.250 -0.789 326
3.866 9.240 -0.817 376
3.862 9.230 -0.845 446
3.858 9.220 -0.874 497
3.854 9.210 -0.902 582
3.840 9.179 -0.927 460
0.902 2.133 1.783 4425
0.904 2.138 1.776 8850
0.906 2.142 1.769 8850
0.908 2.146 1.763 9595
0.907 2.145 1.752 10376
0.911 2.155 1.749 8308
0.933 2.207 1.779 8669
0.935 2.212 1.772 8669
0.939 2.222 1.770 7957
0.951 2.250 1.781 7751
0.943 2.231 1.756 7663
0.942 2.229 1.745 8125
0.949 2.245 1.747 7685
0.956 2.262 1.749 8175
0.958 2.266 1.742 6809
0.965 2.283 1.743 5966
0.977 2.311 1.754 7846
0.976 2.310 1.742 8169
0.973 2.302 1.726 8875
0.980 2.318 1.728 7729
0.990 2.341 1.733 7127
1.010 2.388 1.756 6910
1.012 2.393 1.748 8017
1.016 2.403 1.745 6291
1.018 2.407 1.738 4741
1.035 2.449 1.755 5622
1.037 2.453 1.748 8130
1.039 2.457 1.740 11927
1.041 2.462 1.732 15725
1.043 2.466 1.725 14896
1.047 2.477 1.721 14447
1.049 2.481 1.714 9915
1.064 2.516 1.726 6164
1.090 2.577 1.754 8458
1.091 2.581 1.746 12248
1.093 2.586 1.738 11816
1.092 2.584 1.726 7884
1.086 2.569 1.706 4967
1.123 2.656 1.749 4874
1.125 2.660 1.741 5097
1.126 2.664 1.733 4487
1.131 2.675 1.728 3991
1.135 2.686 1.724 4465
1.145 2.709 1.727 7430
1.147 2.713 1.719 9320
1.149 2.717 1.710 11190
1.151 2.722 1.702 13060
1.158 2.739 1.701 12136
1.168 2.762 1.703 10572
1.175 2.779 1.702 9062
1.177 2.783 1.693 6730
1.179 2.788 1.685 4921
1.180 2.792 1.676 5443
1.240 2.932 1.743 4969
1.209 2.859 1.691 7328
1.208 2.856 1.678 9654
1.209 2.860 1.670 9531
1.258 2.975 1.721 9154
1.263 2.986 1.715 10650
1.264 2.990 1.706 9376
1.272 3.008 1.703 7291
1.298 3.071 1.725 8283
1.303 3.082 1.719 6832
1.308 3.093 1.712 5139
1.307 3.090 1.699 6935
1.311 3.101 1.693 9108
1.310 3.099 1.680 10014
1.309 3.096 1.667 9567
1.328 3.140 1.677 7174
1.332 3.151 1.671 7097
1.337 3.161 1.664 5158
1.358 3.212 1.677 4318
1.363 3.223 1.670 4471
1.398 3.307 1.698 4432
1.408 3.331 1.698 4329
1.385 3.275 1.659 4006
1.435 3.393 1.702 5756
1.431 3.384 1.685 7915
1.447 3.422 1.690 8947
1.457 3.446 1.688 11983
1.467 3.470 1.687 12728
1.469 3.474 1.676 10460
1.468 3.472 1.662 6183
1.470 3.476 1.651 5164
1.474 3.487 1.643 6271
1.522 3.599 1.679 7212
1.523 3.603 1.668 8248
1.525 3.607 1.657 9161
1.536 3.632 1.654 12619
1.537 3.636 1.643 12848
1.530 3.619 1.623 9275
1.529 3.617 1.609 7157
1.531 3.621 1.598 6325
1.535 3.631 1.589 5627
1.598 3.779 1.635 6499
1.599 3.783 1.623 8018
1.618 3.828 1.628 10326
1.632 3.859 1.627 10103
1.639 3.877 1.620 10061
1.644 3.888 1.610 12487
1.643 3.885 1.595 10461
1.682 3.978 1.617 9929
1.687 3.989 1.607 12660
1.688 3.993 1.595 8112
1.737 4.108 1.623 8146
1.733 4.098 1.605 12542
1.734 4.102 1.592 13974
1.800 4.258 1.633 10345
1.808 4.276 1.625 10006
1.810 4.280 1.611 7672
1.811 4.284 1.598 6837
1.816 4.295 1.587 5148
1.814 4.292 1.571 5223
1.816 4.295 1.558 3402
1.956 4.627 1.652 2835
1.967 4.652 1.645 4107
1.972 4.663 1.632 3460
1.970 4.660 1.616 3604
1.984 4.692 1.610 5096
1.974 4.668 1.586 5258
2.020 4.777 1.604 5547
2.030 4.802 1.596 5178
2.035 4.813 1.583 3663
2.170 5.133 1.663 2886
2.059 4.870 1.567 4948
2.040 4.824 1.537 8449
2.169 5.131 1.610 8873
2.171 5.135 1.594 6861
2.173 5.139 1.578 7201
2.174 5.143 1.562 8362
2.179 5.154 1.547 7472
2.187 5.172 1.535 7437
2.191 5.182 1.521 3974
2.285 5.406 1.563 2521
2.386 5.643 1.607 3031
2.388 5.647 1.590 2740
2.434 5.758 1.599 2473
2.388 5.648 1.552 3226
2.392 5.659 1.536 4060
2.394 5.662 1.518 3733
2.543 6.015 1.585 3125
2.545 6.019 1.566 3434
2.561 6.058 1.556 3203
2.560 6.055 1.535 3419
2.562 6.059 1.516 4120
2.563 6.062 1.497 4480
2.565 6.066 1.478 3195
2.908 6.877 1.636 3470
2.906 6.874 1.613 4694
2.911 6.885 1.593 5326
2.913 6.889 1.571 5174
2.914 6.893 1.549 4555
2.995 7.083 1.565 4187
2.996 7.087 1.543 3989
3.001 7.098 1.522 3313
3.063 7.245 1.527 3451
3.059 7.234 1.502 3709
3.063 7.245 1.480 2528
3.545 8.385 1.666 2964
3.547 8.389 1.639 5408
3.545 8.386 1.612 6289
3.547 8.389 1.585 4963
3.549 8.393 1.559 5446
3.547 8.390 1.531 5544
3.546 8.386 1.503 3396
3.617 8.556 1.504 2697
3.616 8.552 1.475 2177
3.553 8.404 1.425 2385
3.552 8.400 1.398 2478
4.066 9.618 1.550 1942
4.068 9.621 1.520 1735
4.066 9.618 1.488 1627
4.068 9.621 1.458 1782
4.066 9.618 1.427 1688
4.046 9.570 1.390 1587
4.048 9.574 1.360 1156
4.842 11.453 1.564 1371
4.847 11.464 1.528 1153
5.363 12.686 1.637 823
5.074 12.001 1.517 926
5.072 11.997 1.478 940
5.513 13.038 1.553 838
5.401 12.774 1.484 685
5.368 12.697 1.435 658
5.517 13.049 1.430 590
5.516 13.045 1.388 478
5.508 13.027 1.345 321
0.518 1.225 0.118 275
0.521 1.232 0.114 385
0.521 1.232 0.110 475
0.521 1.232 0.107 566
0.521 1.232 0.103 512
0.521 1.232 0.099 515
0.527 1.246 0.095 536
0.524 1.239 0.091 794
0.524 1.239 0.088 1102
0.521 1.231 0.084 1351
0.521 1.231 0.080 1606
0.520 1.231 0.077 1583
0.520 1.231 0.073 1560
0.520 1.231 0.069 1284
0.696 1.645 0.039 1158
0.699 1.652 0.034 1292
0.699 1.652 0.029 1436
0.698 1.652 0.024 1460
0.695 1.644 0.019 1489
0.698 1.651 0.014 1353
0.698 1.651 0.009 1220
0.698 1.651 0.003 1040
0.701 1.657 -0.002 797
0.704 1.664 -0.008 735
0.703 1.664 -0.013 513
0.703 1.663 -0.018 292
3.894 9.211 -0.815 265
3.890 9.201 -0.844 391
3.883 9.184 -0.871 511
3.879 9.174 -0.899 679
3.878 9.171 -0.928 565
3.867 9.147 -0.954 251
1.096 2.593 -0.183 266
0.909 2.130 1.783 4802
0.911 2.135 1.776 9604
0.913 2.139 1.769 9604
0.915 2.143 1.763 10040
0.916 2.148 1.756 10475
0.921 2.158 1.754 8503
0.941 2.204 1.779 9295
0.942 2.209 1.772 9295
0.944 2.213 1.765 7786
0.956 2.241 1.776 6655
0.948 2.222 1.752 6551
0.950 2.226 1.745 6825
0.959 2.248 1.751 7047
0.964 2.259 1.749 8142
0.966 2.263 1.742 7037
0.970 2.273 1.739 6323
0.985 2.308 1.754 8016
0.984 2.306 1.742 8079
0.978 2.292 1.722 8718
0.985 2.309 1.723 7513
0.995 2.331 1.729 6847
1.018 2.385 1.756 6779
1.019 2.389 1.748 7749
1.024 2.400 1.745 6157
1.028 2.410 1.742 4715
1.036 2.427 1.743 5885
1.040 2.437 1.739 7856
1.044 2.448 1.736 11617
1.046 2.452 1.728 15398
1.051 2.463 1.725 14602
1.055 2.473 1.721 14246
1.060 2.484 1.718 9957
1.072 2.513 1.726 6790
1.098 2.574 1.754 7296
1.103 2.584 1.750 10466
1.102 2.582 1.738 9910
1.104 2.586 1.730 7831
1.127 2.641 1.754 7189
1.132 2.652 1.749 7847
1.133 2.656 1.741 8586
1.135 2.661 1.733 7492
1.137 2.665 1.725 6398
1.142 2.675 1.720 7607
1.146 2.686 1.716 11323
1.148 2.690 1.707 13666
1.152 2.701 1.703 14900
1.154 2.705 1.694 16138
1.153 2.703 1.682 13362
1.177 2.758 1.703 10846
1.149 2.692 1.654 10724
1.181 2.767 1.686 8577
1.177 2.758 1.670 8177
1.181 2.768 1.665 8468
1.186 2.779 1.660 7536
1.215 2.848 1.687 9175
1.217 2.852 1.678 12247
1.219 2.856 1.670 11928
1.218 2.854 1.657 8507
1.272 2.982 1.715 8623
1.274 2.986 1.706 8071
1.276 2.990 1.696 7088
1.309 3.067 1.725 8287
1.313 3.077 1.719 7244
1.318 3.088 1.712 6025
1.317 3.086 1.699 6743
1.319 3.090 1.690 7819
1.320 3.094 1.680 7891
1.319 3.092 1.667 7607
1.341 3.142 1.681 7448
1.345 3.153 1.674 7634
1.350 3.164 1.667 5994
1.366 3.201 1.674 4965
1.373 3.218 1.670 5115
1.429 3.349 1.721 4547
1.434 3.360 1.713 4861
1.441 3.378 1.709 4722
1.449 3.395 1.705 6891
1.450 3.399 1.694 7769
1.458 3.417 1.690 9152
1.468 3.441 1.688 12730
1.479 3.465 1.687 13305
1.480 3.470 1.676 10214
1.465 3.433 1.647 5686
1.478 3.464 1.648 5028
1.483 3.475 1.640 5898
1.531 3.587 1.676 7336
1.532 3.591 1.665 7664
1.540 3.609 1.660 7493
1.548 3.627 1.654 12143
1.546 3.624 1.640 12656
1.548 3.628 1.629 8028
1.547 3.625 1.614 5228
1.543 3.615 1.598 4804
1.655 3.879 1.691 5574
1.610 3.773 1.635 7118
1.612 3.777 1.623 8950
1.628 3.816 1.625 8505
1.642 3.847 1.624 9176
1.655 3.878 1.622 10224
1.660 3.889 1.613 12343
1.655 3.880 1.595 9212
1.695 3.973 1.617 12880
1.697 3.977 1.605 16872
1.702 3.988 1.595 11389
1.706 3.998 1.585 8996
1.746 4.092 1.605 9423
1.748 4.096 1.592 10734
1.811 4.245 1.631 12319
1.819 4.263 1.622 10086
1.824 4.274 1.611 7341
1.825 4.278 1.598 6256
1.827 4.282 1.584 3857
1.823 4.272 1.566 3827
1.827 4.283 1.555 2679
1.972 4.621 1.652 3023
1.982 4.646 1.645 4325
1.984 4.650 1.630 3870
1.959 4.591 1.595 3689
1.996 4.679 1.608 4753
1.986 4.654 1.584 5646
2.038 4.777 1.606 5406
2.046 4.795 1.596 6528
2.048 4.799 1.581 5377
2.049 4.803 1.566 3284
2.072 4.856 1.565 5042
2.053 4.811 1.535 8156
2.051 4.807 1.518 8587
2.185 5.121 1.592 6362
2.193 5.139 1.580 7910
2.197 5.150 1.566 8219
2.196 5.146 1.547 7324
2.201 5.157 1.533 6915
2.205 5.168 1.519 3542
2.306 5.405 1.565 2504
2.305 5.402 1.546 2584
2.440 5.717 1.610 1944
2.444 5.728 1.594 2729
2.449 5.739 1.577 2424
2.499 5.857 1.588 1981
2.561 6.003 1.604 2526
2.566 6.014 1.587 3078
2.571 6.025 1.570 2537
2.581 6.050 1.556 2553
2.583 6.053 1.537 3121
2.585 6.057 1.518 3858
2.586 6.061 1.499 4389
2.585 6.057 1.478 3107
2.927 6.860 1.634 3341
2.929 6.864 1.613 4921
2.931 6.868 1.591 5658
2.935 6.879 1.571 5085
2.937 6.883 1.549 4382
2.942 6.894 1.529 3449
2.943 6.898 1.507 2705
2.945 6.901 1.485 2368
3.084 7.228 1.526 2601
3.082 7.224 1.502 2857
3.354 7.859 1.597 2387
3.573 8.373 1.666 2801
3.574 8.377 1.639 5062
3.573 8.374 1.612 5850
3.575 8.378 1.585 4650
3.576 8.381 1.559 4740
3.639 8.529 1.556 4526
3.641 8.533 1.529 4840
3.643 8.537 1.502 3970
3.641 8.533 1.474 3141
3.643 8.537 1.447 2603
3.583 8.396 1.399 2021
4.095 9.597 1.549 2054
4.097 9.601 1.519 1932
4.095 9.597 1.487 1996
4.094 9.594 1.456 2181
4.083 9.568 1.422 2280
4.081 9.564 1.391 2369
4.879 11.433 1.600 1668
4.883 11.444 1.565 2082
4.885 11.448 1.528 1872
4.886 11.452 1.492 1079
5.413 12.686 1.598 958
5.415 12.690 1.558 877
5.565 13.042 1.556 901
5.440 12.748 1.483 721
5.423 12.708 1.438 552
5.591 13.103 1.437 511
5.580 13.078 1.393 385
0.522 1.223 0.125 295
0.522 1.223 0.122 336
0.522 1.223 0.118 392
0.522 1.223 0.114 413
0.525 1.230 0.110 585
0.525 1.230 0.107 767
0.525 1.230 0.103 762
0.525 1.230 0.099 751
0.525 1.230 0.095 649
0.528 1.237 0.091 811
0.528 1.237 0.088 1063
0.525 1.230 0.084 1385
0.525 1.230 0.080 1740
0.525 1.229 0.077 1803
0.524 1.229 0.073 1867
0.524 1.229 0.069 1625
0.524 1.229 0.065 1383
0.521 1.221 0.062 1042
0.704 1.650 0.029 1170
0.704 1.650 0.024 1375
0.704 1.649 0.019 1581
0.704 1.649 0.014 1466
0.707 1.656 0.008 1368
0.706 1.655 0.003 1175
0.706 1.655 -0.002 919
0.709 1.662 -0.008 869
0.709 1.662 -0.013 651
0.709 1.661 -0.018 433
0.709 1.661 -0.023 365
0.708 1.660 -0.028 296
3.920 9.186 -0.873 300
3.915 9.176 -0.901 379
3.905 9.151 -0.927 294
0.919 2.133 1.787 5295
0.921 2.137 1.781 10590
0.923 2.142 1.774 10590
0.922 2.140 1.763 10674
0.924 2.145 1.756 10779
0.928 2.155 1.754 9080
0.946 2.195 1.775 9979
0.948 2.199 1.768 9979
0.949 2.204 1.761 7894
0.936 2.172 1.727 6418
0.938 2.176 1.720 5938
0.945 2.193 1.723 5527
0.967 2.245 1.751 5855
0.974 2.261 1.753 7171
0.974 2.260 1.742 6460
0.978 2.270 1.739 6043
0.996 2.311 1.758 7821
0.995 2.309 1.746 7671
0.986 2.289 1.722 8364
0.991 2.299 1.719 7243
1.006 2.334 1.733 6789
1.026 2.381 1.756 6687
1.030 2.392 1.753 7513
1.035 2.402 1.749 6059
1.039 2.413 1.746 4796
1.041 2.417 1.739 6396
1.046 2.427 1.735 8192
1.050 2.438 1.732 10918
1.055 2.448 1.728 14084
1.059 2.459 1.725 13077
1.064 2.469 1.721 12730
1.068 2.480 1.718 9348
1.081 2.509 1.726 7306
1.080 2.507 1.714 6217
1.114 2.587 1.754 8685
1.113 2.585 1.742 7806
1.132 2.627 1.758 7840
1.136 2.637 1.754 9866
1.138 2.642 1.745 10920
1.143 2.652 1.741 12218
1.144 2.657 1.733 10964
1.146 2.661 1.725 9710
1.151 2.671 1.720 12056
1.150 2.669 1.708 17101
1.152 2.673 1.700 19974
1.154 2.678 1.691 20782
1.155 2.682 1.683 21590
1.157 2.686 1.674 19779
1.156 2.684 1.662 16702
1.158 2.688 1.654 15486
1.182 2.743 1.675 13560
1.186 2.754 1.670 13706
1.188 2.758 1.661 13091
1.193 2.768 1.656 11736
1.225 2.844 1.687 10684
1.227 2.848 1.678 14144
1.229 2.852 1.670 13612
1.228 2.850 1.657 9160
1.280 2.971 1.711 8376
1.282 2.975 1.702 8357
1.284 2.979 1.693 7741
1.319 3.062 1.725 8165
1.324 3.073 1.719 7393
1.328 3.084 1.712 6123
1.325 3.075 1.696 5979
1.326 3.079 1.686 6219
1.328 3.083 1.677 5714
1.341 3.114 1.680 5988
1.352 3.137 1.681 7255
1.356 3.148 1.674 7583
1.361 3.159 1.667 6327
1.377 3.196 1.674 5674
1.387 3.220 1.673 5884
1.398 3.244 1.673 5573
1.402 3.255 1.666 5648
1.456 3.379 1.712 5420
1.463 3.397 1.708 7177
1.465 3.401 1.697 7316
1.470 3.412 1.690 8940
1.480 3.436 1.688 12683
1.491 3.460 1.687 12731
1.493 3.464 1.676 9138
1.480 3.435 1.650 5157
1.487 3.452 1.645 5326
1.489 3.456 1.634 5517
1.546 3.589 1.679 6543
1.542 3.579 1.662 6891
1.538 3.570 1.645 7519
1.560 3.621 1.654 10466
1.559 3.619 1.640 10995
1.564 3.629 1.631 6460
1.577 3.661 1.631 5639
1.585 3.678 1.625 5941
1.671 3.880 1.694 7423
1.673 3.884 1.682 8851
1.622 3.765 1.621 8861
1.686 3.913 1.666 9096
1.687 3.917 1.653 8850
1.683 3.907 1.636 10113
1.679 3.897 1.618 12426
1.704 3.956 1.627 8145
1.709 3.967 1.617 15985
1.711 3.971 1.605 20553
1.712 3.975 1.592 14576
1.717 3.986 1.582 11869
1.719 3.989 1.570 10251
1.819 4.221 1.639 10154
1.823 4.232 1.628 12178
1.828 4.243 1.617 8899
1.827 4.240 1.602 6272
1.837 4.265 1.595 4996
1.908 4.428 1.637 2909
1.909 4.432 1.623 3899
1.920 4.457 1.616 3356
1.988 4.614 1.652 2678
1.995 4.632 1.643 3915
1.982 4.601 1.617 3866
1.975 4.584 1.595 3753
2.004 4.651 1.601 4417
2.002 4.648 1.584 5738
2.061 4.784 1.611 4317
2.066 4.795 1.598 6038
2.061 4.785 1.579 6271
2.063 4.789 1.564 5110
2.071 4.807 1.553 4978
2.066 4.796 1.533 7753
2.068 4.800 1.518 7977
2.203 5.113 1.592 8822
2.211 5.131 1.580 10173
2.218 5.149 1.568 8262
2.217 5.146 1.549 6828
2.215 5.143 1.531 5080
2.290 5.316 1.561 2550
2.328 5.404 1.567 2228
2.327 5.401 1.548 2552
2.462 5.716 1.612 2380
2.461 5.713 1.592 2880
2.463 5.716 1.574 2270
2.513 5.834 1.584 1753
2.579 5.986 1.602 2223
2.590 6.012 1.589 2956
2.595 6.023 1.571 1988
2.599 6.034 1.554 1979
2.604 6.044 1.537 2547
2.606 6.048 1.518 3161
2.604 6.045 1.497 3701
2.817 6.540 1.588 2867
2.822 6.551 1.569 2889
2.953 6.854 1.613 4122
2.955 6.858 1.591 4916
2.959 6.869 1.571 3902
2.961 6.873 1.549 3096
3.061 7.105 1.574 2576
3.063 7.109 1.552 2326
3.064 7.113 1.529 2435
3.066 7.117 1.507 2619
3.068 7.120 1.484 2149
3.378 7.840 1.596 2172
3.602 8.360 1.666 2304
3.604 8.364 1.639 4152
3.605 8.368 1.613 4922
3.666 8.509 1.610 4292
3.667 8.513 1.583 5332
3.669 8.516 1.556 6266
3.671 8.520 1.529 6246
3.672 8.524 1.502 4753
3.671 8.520 1.474 3758
3.672 8.524 1.447 3297
3.677 8.535 1.422 2619
4.113 9.547 1.544 2082
4.114 9.550 1.514 1967
4.125 9.576 1.486 2111
4.124 9.572 1.455 2349
4.116 9.554 1.422 2768
4.114 9.550 1.391 2943
4.918 11.416 1.600 2178
4.923 11.427 1.565 2610
4.925 11.431 1.528 2343
4.926 11.435 1.492 1350
5.460 12.675 1.599 1000
5.459 12.671 1.558 913
5.610 13.022 1.556 958
5.481 12.722 1.482 721
5.482 12.726 1.442 566
5.631 13.069 1.436 514
5.629 13.066 1.393 386
0.529 1.229 0.125 361
0.526 1.222 0.122 431
0.526 1.222 0.118 468
0.523 1.214 0.114 467
0.523 1.214 0.111 479
0.526 1.221 0.107 493
0.529 1.228 0.103 561
0.529 1.228 0.099 600
0.529 1.228 0.095 483
0.529 1.228 0.092 499
0.529 1.228 0.088 597
0.529 1.228 0.084 991
0.529 1.228 0.080 1380
0.529 1.228 0.077 1577
0.529 1.227 0.073 1775
0.529 1.227 0.069 1642
0.529 1.227 0.065 1508
0.710 1.648 0.034 1956
0.710 1.647 0.029 2420
0.710 1.647 0.024 2622
0.709 1.647 0.019 2825
0.709 1.646 0.014 2621
0.709 1.646 0.009 2417
0.709 1.646 0.003 2174
0.712 1.653 -0.002 1819
0.712 1.652 -0.007 1716
0.712 1.652 -0.012 1322
0.711 1.651 -0.018 927
0.711 1.651 -0.023 646
0.711 1.651 -0.028 365
3.941 9.148 -0.899 275
0.926 2.130 1.787 5478
0.928 2.134 1.781 10956
0.930 2.139 1.774 10956
0.930 2.137 1.763 10653
0.931 2.141 1.756 10451
0.944 2.169 1.768 9401
0.951 2.186 1.770 10747
0.953 2.190 1.763 10747
0.952 2.188 1.752 8544
0.943 2.169 1.727 7275
0.945 2.173 1.720 7332
0.947 2.177 1.714 7389
0.951 2.187 1.711 6807
0.956 2.198 1.709 6267
0.984 2.262 1.746 5884
1.002 2.303 1.765 5853
1.004 2.307 1.758 7529
1.003 2.306 1.746 7135
0.991 2.279 1.718 7921
0.996 2.290 1.715 6927
1.016 2.337 1.738 6815
1.034 2.378 1.756 6680
1.039 2.388 1.753 7256
1.043 2.399 1.749 6016
1.048 2.409 1.746 5040
1.050 2.413 1.739 6712
1.054 2.424 1.735 8434
1.059 2.434 1.732 10159
1.063 2.445 1.728 12186
1.068 2.455 1.725 10998
1.072 2.466 1.721 10530
1.077 2.476 1.718 8059
1.090 2.505 1.726 7009
1.089 2.503 1.714 6503
1.126 2.589 1.758 7767
1.122 2.581 1.742 6584
1.141 2.623 1.758 8847
1.143 2.627 1.750 12103
1.147 2.638 1.745 13634
1.152 2.648 1.741 15383
1.154 2.653 1.733 13771
1.158 2.663 1.728 12247
1.160 2.667 1.720 15669
1.159 2.665 1.708 21200
1.158 2.663 1.696 23783
1.160 2.667 1.687 24753
1.162 2.671 1.679 25723
1.166 2.682 1.674 25184
1.165 2.680 1.662 22580
1.167 2.684 1.654 20625
1.189 2.733 1.671 18198
1.196 2.750 1.670 18901
1.195 2.747 1.658 17823
1.200 2.758 1.653 15744
1.235 2.839 1.687 11450
1.237 2.844 1.678 14935
1.239 2.848 1.670 14277
1.240 2.852 1.661 9403
1.290 2.967 1.711 9678
1.292 2.971 1.702 9571
1.291 2.968 1.689 8498
1.330 3.057 1.725 8075
1.335 3.068 1.719 7436
1.336 3.072 1.709 6001
1.332 3.064 1.693 5306
1.369 3.147 1.723 5578
1.370 3.151 1.714 5192
1.355 3.115 1.684 5684
1.363 3.133 1.681 6987
1.367 3.143 1.674 7300
1.375 3.161 1.671 6293
1.385 3.185 1.670 5764
1.401 3.222 1.677 6289
1.409 3.239 1.673 6866
1.414 3.250 1.666 6773
1.470 3.381 1.716 5912
1.475 3.392 1.708 6874
1.477 3.396 1.697 6328
1.485 3.413 1.693 8427
1.489 3.424 1.685 11993
1.503 3.455 1.687 11624
1.508 3.466 1.679 8036
1.495 3.436 1.653 4814
1.499 3.447 1.645 5526
1.548 3.559 1.682 4914
1.559 3.583 1.679 5586
1.549 3.560 1.656 6719
1.542 3.544 1.637 8934
1.573 3.616 1.654 8412
1.572 3.613 1.640 8656
1.579 3.631 1.634 5523
1.593 3.662 1.634 6006
1.600 3.679 1.628 7019
1.688 3.881 1.697 8736
1.690 3.885 1.685 10267
1.691 3.889 1.672 10266
1.699 3.907 1.666 12593
1.701 3.911 1.653 11864
1.700 3.908 1.638 12660
1.696 3.898 1.621 13602
1.718 3.950 1.627 9835
1.723 3.961 1.617 16739
1.725 3.965 1.605 21563
1.726 3.969 1.592 16444
1.731 3.980 1.582 13225
1.730 3.977 1.567 12349
1.833 4.215 1.639 10052
1.838 4.226 1.628 9821
1.840 4.230 1.615 6470
1.838 4.227 1.599 5020
1.843 4.237 1.588 4072
1.920 4.414 1.634 2581
1.928 4.432 1.625 3583
1.939 4.457 1.618 3608
1.952 4.489 1.613 2713
2.009 4.618 1.640 3530
1.998 4.594 1.617 3829
1.994 4.584 1.598 3508
2.023 4.651 1.603 4737
2.018 4.641 1.584 5516
2.081 4.784 1.613 3249
2.083 4.788 1.598 4329
2.081 4.785 1.581 5637
2.083 4.789 1.566 5340
2.081 4.785 1.548 4838
2.080 4.782 1.531 6216
2.085 4.793 1.518 5753
2.221 5.105 1.592 10213
2.228 5.123 1.580 10539
2.236 5.141 1.568 7870
2.235 5.138 1.549 6195
2.230 5.128 1.529 3288
2.309 5.308 1.561 3016
2.396 5.509 1.597 2676
2.346 5.393 1.548 2877
2.492 5.728 1.617 3072
2.478 5.697 1.590 2934
2.483 5.708 1.574 2184
2.524 5.804 1.579 1680
2.600 5.977 1.602 2259
2.602 5.981 1.583 2755
2.616 6.014 1.571 1865
2.620 6.024 1.554 1893
2.625 6.035 1.537 2156
2.766 6.359 1.591 2497
2.625 6.036 1.497 2747
2.843 6.537 1.589 2786
2.845 6.541 1.569 3029
2.977 6.844 1.613 2803
2.982 6.855 1.593 3686
3.027 6.958 1.592 2727
3.084 7.091 1.596 2263
3.086 7.095 1.574 2644
3.084 7.091 1.550 2555
3.089 7.102 1.529 2695
3.091 7.106 1.507 2826
3.092 7.109 1.484 2398
3.200 7.356 1.507 2029
3.207 7.374 1.487 1704
3.633 8.352 1.639 3032
3.634 8.356 1.613 3711
3.695 8.496 1.610 4205
3.697 8.500 1.583 5643
3.699 8.504 1.556 6818
3.700 8.507 1.529 6507
3.699 8.504 1.501 4726
3.697 8.500 1.473 3788
3.702 8.511 1.447 3449
3.707 8.522 1.422 2825
4.140 9.518 1.542 2097
4.141 9.522 1.511 1900
4.159 9.561 1.486 1860
4.154 9.550 1.454 2243
4.149 9.539 1.422 3001
4.148 9.536 1.391 3240
4.961 11.406 1.601 2310
4.963 11.410 1.565 2699
4.964 11.414 1.528 2404
4.963 11.410 1.491 1388
5.505 12.656 1.599 908
4.963 11.410 1.418 915
5.656 13.003 1.556 914
5.663 13.021 1.516 701
5.527 12.706 1.442 636
5.535 12.724 1.403 623
5.536 12.728 1.363 471
0.534 1.227 0.122 316
0.534 1.227 0.118 472
0.537 1.234 0.114 566
0.540 1.241 0.110 875
0.540 1.241 0.106 1213
0.537 1.234 0.103 2055
0.537 1.234 0.099 3123
0.533 1.226 0.095 3512
0.533 1.226 0.092 3141
0.530 1.219 0.088 2655
0.527 1.211 0.085 2100
0.524 1.204 0.082 1579
0.527 1.211 0.077 1372
0.530 1.218 0.073 1221
0.530 1.218 0.070 917
0.716 1.645 0.039 1080
0.716 1.645 0.034 1353
0.715 1.645 0.029 1627
0.715 1.645 0.024 1835
0.715 1.644 0.019 2043
0.715 1.644 0.014 2053
0.718 1.651 0.008 2065
0.718 1.651 0.003 1955
0.718 1.650 -0.002 1784
0.718 1.650 -0.007 1723
0.717 1.649 -0.012 1365
0.714 1.642 -0.017 1012
0.714 1.641 -0.022 729
0.714 1.641 -0.027 447
0.717 1.648 -0.033 293
0.941 2.124 1.787 5699
0.943 2.128 1.781 11398
0.945 2.132 1.774 11398
0.946 2.137 1.767 10753
0.946 2.135 1.756 10226
0.958 2.163 1.768 9959
0.963 2.173 1.765 11398
0.965 2.178 1.759 11398
0.967 2.182 1.752 9333
0.958 2.162 1.727 7791
0.960 2.167 1.720 8460
0.964 2.177 1.718 9298
0.966 2.181 1.711 8167
0.968 2.185 1.704 7036
0.970 2.189 1.698 5211
1.020 2.302 1.769 5757
1.019 2.300 1.758 6993
1.018 2.299 1.746 6250
1.007 2.273 1.718 6660
1.014 2.289 1.719 6052
1.043 2.354 1.755 7015
1.050 2.371 1.756 6759
1.055 2.381 1.753 6814
1.059 2.392 1.749 5909
1.067 2.408 1.750 5346
1.069 2.412 1.743 6872
1.071 2.417 1.735 8398
1.075 2.427 1.732 9183
1.077 2.431 1.724 10209
1.082 2.442 1.721 8771
1.089 2.458 1.721 8168
1.096 2.475 1.722 6933
1.104 2.492 1.722 6968
1.106 2.496 1.714 6432
1.146 2.588 1.762 7655
1.154 2.604 1.762 6379
1.158 2.615 1.758 9747
1.160 2.619 1.750 13630
1.165 2.630 1.745 15402
1.170 2.640 1.741 17534
1.172 2.645 1.733 15952
1.176 2.655 1.728 14497
1.178 2.660 1.720 18794
1.177 2.657 1.708 24916
1.176 2.655 1.696 27479
1.178 2.659 1.687 28458
1.180 2.663 1.679 29436
1.184 2.674 1.674 29915
1.186 2.678 1.666 26923
1.185 2.676 1.654 23660
1.210 2.731 1.675 22006
1.214 2.742 1.670 23566
1.216 2.746 1.661 22412
1.218 2.750 1.653 19601
1.220 2.754 1.644 13285
1.256 2.835 1.678 15024
1.258 2.839 1.670 14278
1.305 2.947 1.717 9790
1.307 2.951 1.708 12028
1.309 2.955 1.699 11222
1.311 2.960 1.689 9002
1.350 3.048 1.725 8010
1.355 3.059 1.719 7135
1.348 3.044 1.699 5624
1.350 3.048 1.689 5042
1.390 3.137 1.723 4999
1.394 3.148 1.717 5197
1.411 3.185 1.724 5873
1.384 3.124 1.681 6886
1.388 3.134 1.674 6898
1.393 3.145 1.667 5962
1.404 3.169 1.667 5405
1.426 3.219 1.680 6368
1.431 3.230 1.673 7568
1.433 3.234 1.663 7559
1.493 3.371 1.716 6495
1.489 3.362 1.699 7232
1.482 3.346 1.679 6709
1.510 3.410 1.696 8050
1.515 3.421 1.688 10864
1.526 3.445 1.687 9852
1.531 3.456 1.679 6728
1.530 3.453 1.665 4320
1.525 3.444 1.648 5520
1.527 3.448 1.637 4004
1.586 3.579 1.682 4810
1.570 3.543 1.654 6627
1.565 3.534 1.637 9060
1.570 3.544 1.628 6765
1.605 3.623 1.649 6514
1.627 3.674 1.657 5487
1.623 3.665 1.640 6594
1.628 3.675 1.631 7478
1.717 3.876 1.700 9193
1.716 3.873 1.685 10925
1.721 3.884 1.675 12275
1.725 3.895 1.666 15723
1.730 3.906 1.656 14297
1.732 3.910 1.644 13966
1.737 3.921 1.634 12859
1.745 3.938 1.627 10161
1.749 3.949 1.617 15378
1.751 3.953 1.605 20060
1.753 3.957 1.592 17044
1.755 3.961 1.580 13219
1.756 3.965 1.567 12727
1.761 3.975 1.557 9229
1.866 4.213 1.628 6107
1.953 4.410 1.683 3249
1.861 4.200 1.594 3897
1.865 4.211 1.583 3409
1.962 4.429 1.644 2321
1.973 4.454 1.637 3179
1.972 4.451 1.620 3537
1.979 4.469 1.611 2661
2.046 4.618 1.645 3396
2.044 4.615 1.628 3456
2.065 4.661 1.627 3672
2.063 4.658 1.610 6021
2.053 4.634 1.586 5329
2.048 4.624 1.567 3092
2.081 4.697 1.574 2922
2.116 4.778 1.583 4033
2.115 4.775 1.566 4168
2.194 4.953 1.603 4653
2.239 5.055 1.616 4200
2.244 5.066 1.602 5729
2.252 5.083 1.590 9028
2.263 5.108 1.580 8910
2.271 5.126 1.568 6631
2.269 5.123 1.549 4976
2.339 5.281 1.576 3309
2.344 5.292 1.561 3242
2.386 5.387 1.569 3127
2.382 5.377 1.548 3059
2.530 5.711 1.617 3810
2.507 5.659 1.585 3728
2.508 5.663 1.567 2422
2.560 5.780 1.577 1824
2.634 5.946 1.599 2687
2.635 5.950 1.580 3081
2.631 5.939 1.558 2064
2.623 5.922 1.534 1613
2.666 6.018 1.537 1615
2.808 6.340 1.591 1828
2.810 6.344 1.571 1815
2.884 6.511 1.588 2555
2.889 6.522 1.569 2803
2.982 6.731 1.593 1807
3.072 6.934 1.614 2664
3.076 6.945 1.593 2947
3.198 7.219 1.627 2823
3.200 7.223 1.605 3833
3.201 7.227 1.582 4414
3.203 7.231 1.559 4547
3.205 7.235 1.536 4476
3.206 7.238 1.513 4013
3.208 7.242 1.490 2829
3.254 7.345 1.485 1838
3.777 8.527 1.676 1949
3.690 8.331 1.613 2301
3.787 8.550 1.624 3747
3.757 8.482 1.584 5098
3.756 8.479 1.556 6132
3.757 8.482 1.529 5582
3.759 8.486 1.502 4017
3.754 8.475 1.473 3286
3.762 8.493 1.449 3155
4.151 9.371 1.554 2671
4.150 9.368 1.523 2179
4.148 9.364 1.493 1988
4.137 9.339 1.459 1618
4.215 9.515 1.453 1820
4.210 9.504 1.421 2498
4.208 9.500 1.390 2863
5.035 11.365 1.600 2039
5.039 11.376 1.565 2367
5.041 11.380 1.528 2112
5.040 11.377 1.491 1247
5.038 11.373 1.454 856
5.039 11.377 1.418 864
5.746 12.972 1.557 868
5.744 12.968 1.515 715
5.615 12.676 1.443 669
5.620 12.687 1.403 658
5.621 12.690 1.363 484
0.884 1.997 0.222 285
0.884 1.997 0.216 322
0.885 1.997 0.209 330
0.885 1.997 0.203 315
0.885 1.997 0.197 293
0.885 1.997 0.191 255
0.552 1.245 0.121 345
0.548 1.238 0.118 429
0.548 1.238 0.114 491
0.548 1.238 0.110 594
0.548 1.238 0.106 698
0.545 1.230 0.103 1085
0.542 1.223 0.099 1385
0.538 1.216 0.096 1367
0.538 1.215 0.092 1335
0.535 1.208 0.089 1274
0.535 1.208 0.085 1300
0.535 1.208 0.081 1275
0.532 1.200 0.078 1118
0.532 1.200 0.074 957
0.727 1.641 0.044 950
0.727 1.641 0.039 1235
0.730 1.648 0.033 1353
0.730 1.647 0.028 1473
0.730 1.647 0.023 1378
0.729 1.647 0.018 1283
0.729 1.646 0.013 1105
0.729 1.646 0.008 927
0.729 1.646 0.003 853
0.729 1.645 -0.002 756
0.732 1.652 -0.008 741
0.732 1.652 -0.013 654
0.728 1.644 -0.018 573
0.728 1.644 -0.023 482
0.731 1.650 -0.028 390
0.731 1.650 -0.034 293
0.947 2.121 1.787 5587
0.949 2.125 1.781 11175
0.951 2.129 1.774 11175
0.953 2.134 1.767 10400
0.952 2.132 1.756 9764
0.962 2.154 1.763 10056
0.969 2.170 1.765 11598
0.971 2.175 1.759 11598
0.971 2.173 1.747 9706
0.964 2.159 1.727 7990
0.972 2.176 1.729 9086
0.971 2.174 1.718 10342
0.975 2.184 1.716 8823
0.977 2.188 1.709 7320
1.036 2.319 1.794 5734
1.032 2.311 1.778 5940
1.029 2.303 1.762 6447
1.028 2.302 1.751 5336
1.014 2.270 1.718 5163
1.051 2.353 1.766 5579
1.053 2.357 1.759 6996
1.057 2.367 1.756 6482
1.062 2.378 1.753 6044
1.067 2.388 1.749 5622
1.077 2.411 1.755 5566
1.076 2.409 1.743 6698
1.078 2.413 1.735 7834
1.083 2.424 1.732 8136
1.084 2.428 1.724 8570
1.089 2.438 1.721 7128
1.096 2.455 1.721 6429
1.107 2.478 1.726 6443
1.111 2.488 1.722 7252
1.110 2.486 1.710 6441
1.154 2.584 1.762 7752
1.162 2.601 1.762 6527
1.166 2.611 1.758 9484
1.168 2.616 1.750 13124
1.173 2.626 1.745 15094
1.178 2.637 1.741 17548
1.180 2.641 1.733 16381
1.184 2.652 1.728 15334
1.186 2.656 1.720 19944
1.185 2.654 1.708 25679
1.184 2.652 1.696 27648
1.186 2.656 1.687 28586
1.185 2.654 1.675 29772
1.193 2.670 1.674 30735
1.194 2.674 1.666 27864
1.193 2.672 1.654 23939
1.221 2.734 1.679 22676
1.223 2.738 1.670 24931
1.225 2.742 1.661 24333
1.226 2.746 1.653 20573
1.228 2.750 1.644 13527
1.262 2.825 1.675 13635
1.263 2.829 1.666 13090
1.314 2.943 1.717 10761
1.316 2.947 1.708 12405
1.318 2.951 1.699 11413
1.320 2.956 1.689 9171
1.325 2.966 1.683 8003
1.364 3.055 1.719 6430
1.355 3.033 1.695 5821
1.359 3.044 1.689 5345
1.361 3.048 1.680 4508
1.416 3.170 1.730 4752
1.421 3.181 1.724 6247
1.396 3.126 1.684 6960
1.398 3.130 1.674 6689
1.403 3.141 1.667 5573
1.413 3.164 1.667 4822
1.433 3.208 1.677 5921
1.438 3.219 1.670 7432
1.439 3.223 1.660 7520
1.500 3.360 1.712 7034
1.493 3.344 1.692 8694
1.489 3.335 1.676 7346
1.527 3.419 1.702 8085
1.526 3.416 1.688 9477
1.536 3.440 1.687 7755
1.541 3.451 1.679 5391
1.543 3.455 1.668 3889
1.539 3.446 1.651 5248
1.547 3.463 1.646 4365
1.599 3.581 1.685 4493
1.580 3.538 1.654 5682
1.576 3.529 1.637 7767
1.617 3.621 1.663 6057
1.634 3.658 1.666 6693
1.639 3.669 1.657 7162
1.640 3.673 1.645 7009
1.642 3.677 1.634 7305
1.729 3.871 1.700 8459
1.731 3.875 1.687 9942
1.732 3.879 1.675 12006
1.737 3.890 1.666 15767
1.742 3.901 1.656 13889
1.744 3.905 1.644 12318
1.749 3.916 1.634 11138
1.754 3.926 1.624 8873
1.761 3.944 1.617 12405
1.763 3.948 1.605 16513
1.765 3.952 1.592 15532
1.770 3.962 1.582 11832
1.774 3.973 1.572 11241
1.776 3.977 1.560 8496
1.882 4.214 1.631 4639
1.792 4.012 1.544 3116
1.876 4.202 1.597 3620
1.878 4.205 1.583 2810
1.917 4.292 1.599 3015
1.989 4.455 1.639 2580
2.025 4.535 1.651 3134
2.030 4.546 1.639 2509
2.072 4.639 1.654 3542
2.065 4.623 1.632 3267
2.079 4.654 1.627 4301
2.077 4.651 1.610 6858
2.085 4.669 1.600 5303
2.096 4.694 1.591 3374
2.095 4.691 1.574 3566
2.100 4.702 1.562 3415
2.204 4.935 1.616 4352
2.209 4.946 1.603 5137
2.267 5.076 1.624 4125
2.259 5.059 1.602 5332
2.267 5.077 1.590 6389
2.278 5.101 1.580 6384
2.333 5.224 1.597 5823
2.288 5.123 1.551 4311
2.352 5.267 1.574 3727
2.357 5.278 1.559 2883
2.403 5.380 1.569 3161
2.546 5.700 1.635 3389
2.547 5.704 1.617 3956
2.521 5.644 1.583 4121
2.519 5.641 1.563 2521
2.638 5.906 1.611 2316
2.642 5.917 1.594 3746
2.647 5.927 1.577 3721
2.643 5.917 1.554 2817
2.644 5.921 1.536 2162
2.779 6.221 1.586 1462
2.777 6.218 1.565 1631
3.032 6.788 1.674 1317
2.901 6.495 1.586 2305
2.909 6.513 1.569 2422
2.914 6.524 1.549 1865
3.096 6.932 1.615 2668
3.215 7.198 1.649 3325
3.220 7.209 1.627 4052
3.222 7.213 1.605 5232
3.223 7.217 1.582 5965
3.225 7.221 1.559 6004
3.227 7.225 1.536 5818
3.228 7.228 1.513 5255
3.233 7.239 1.491 3800
3.235 7.243 1.468 2101
3.803 8.516 1.676 1816
3.658 8.192 1.590 2194
3.813 8.538 1.624 3598
3.786 8.478 1.586 3999
3.782 8.467 1.556 4578
3.783 8.471 1.529 4010
3.785 8.475 1.502 3038
3.815 8.543 1.486 3041
3.791 8.489 1.450 2747
4.180 9.359 1.554 2613
4.181 9.362 1.525 2076
4.177 9.352 1.493 2087
4.175 9.348 1.462 1797
4.212 9.430 1.443 1545
4.239 9.491 1.421 1834
4.234 9.480 1.389 2293
4.232 9.476 1.358 1663
5.074 11.361 1.565 1803
5.076 11.365 1.528 1588
5.074 11.361 1.491 956
5.072 11.358 1.454 714
5.485 12.282 1.522 753
5.785 12.954 1.557 786
5.784 12.951 1.515 701
5.776 12.933 1.471 660
5.781 12.943 1.431 659
5.779 12.939 1.389 477
0.890 1.993 0.240 270
0.890 1.993 0.234 340
0.890 1.994 0.228 375
0.890 1.994 0.222 412
0.891 1.994 0.216 417
0.891 1.994 0.209 414
0.891 1.994 0.203 387
0.891 1.995 0.197 364
0.888 1.987 0.190 322
0.888 1.988 0.184 250
0.555 1.243 0.125 275
0.555 1.243 0.121 350
0.555 1.243 0.117 453
0.552 1.236 0.114 565
0.552 1.236 0.110 578
0.552 1.236 0.106 611
0.552 1.236 0.102 961
0.552 1.236 0.099 1356
0.552 1.236 0.095 1403
0.555 1.243 0.091 1215
0.555 1.243 0.087 1065
0.552 1.235 0.083 1033
0.548 1.228 0.080 1066
0.548 1.228 0.076 833
0.548 1.227 0.073 599
0.732 1.639 0.044 505
0.729 1.631 0.039 508
0.732 1.638 0.034 420
0.731 1.638 0.029 334
0.731 1.638 0.024 481
0.731 1.637 0.019 629
0.731 1.637 0.014 685
0.731 1.637 0.009 742
0.731 1.636 0.003 693
0.731 1.636 -0.002 620
0.730 1.635 -0.007 595
0.730 1.635 -0.012 466
0.727 1.627 -0.016 338
0.730 1.634 -0.022 286
