1.197 2.448 1.753 7321
1.202 2.458 1.750 8350
1.201 2.456 1.738 7211
1.203 2.460 1.730 6249
1.205 2.464 1.722 5502
1.210 2.475 1.718 4866
1.228 2.510 1.730 6064
1.230 2.514 1.722 7006
1.229 2.512 1.710 6630
1.264 2.584 1.745 6564
1.266 2.588 1.737 9179
1.268 2.592 1.729 9007
1.273 2.603 1.725 8881
1.278 2.613 1.720 8174
1.283 2.623 1.716 7586
1.288 2.634 1.711 7329
1.318 2.694 1.737 5291
1.326 2.711 1.735 4811
1.325 2.709 1.723 5508
1.324 2.707 1.711 6459
1.329 2.717 1.706 6697
1.331 2.721 1.697 8074
1.336 2.731 1.692 9533
1.338 2.735 1.683 9545
1.359 2.777 1.696 7846
1.364 2.788 1.691 9657
1.369 2.798 1.686 10874
1.371 2.802 1.677 8962
1.419 2.902 1.721 8779
1.421 2.906 1.711 9891
1.427 2.916 1.706 12076
1.432 2.927 1.700 11287
1.446 2.957 1.704 9073
1.458 2.980 1.705 8719
1.466 2.997 1.702 9401
1.471 3.007 1.696 9619
1.476 3.018 1.690 9736
1.478 3.022 1.680 7137
1.534 3.136 1.727 7141
1.548 3.166 1.730 8081
1.554 3.176 1.723 7708
1.556 3.181 1.713 6974
1.551 3.172 1.696 6455
1.560 3.189 1.693 6939
1.565 3.199 1.686 6926
1.589 3.249 1.698 7227
1.598 3.266 1.693 7519
1.603 3.277 1.686 10105
1.605 3.281 1.676 15463
1.610 3.291 1.668 20769
1.612 3.295 1.658 18815
1.614 3.299 1.647 18205
1.613 3.297 1.634 21501
1.618 3.307 1.626 21318
1.620 3.311 1.615 18223
1.621 3.315 1.605 13413
1.623 3.319 1.594 11692
1.625 3.322 1.584 10070
1.627 3.326 1.573 6409
1.765 3.608 1.683 5267
1.773 3.626 1.677 6126
1.772 3.623 1.663 8191
1.774 3.627 1.651 8645
1.770 3.618 1.634 5698
1.876 3.835 1.711 4191
1.881 3.845 1.701 6719
1.880 3.843 1.686 7739
1.872 3.827 1.666 10190
1.877 3.838 1.656 13781
1.882 3.848 1.646 13432
1.888 3.859 1.637 10100
1.916 3.916 1.645 7908
1.921 3.927 1.635 8629
1.926 3.938 1.625 7887
1.935 3.955 1.618 8923
1.936 3.959 1.605 7724
1.968 4.024 1.615 9687
1.967 4.021 1.599 7279
2.048 4.187 1.645 5647
2.046 4.184 1.630 3610
2.038 4.167 1.609 2747
2.077 4.246 1.622 3066
2.075 4.243 1.606 2944
2.170 4.437 1.658 3382
2.172 4.441 1.644 4120
2.234 4.567 1.671 3479
2.239 4.578 1.659 3658
2.241 4.582 1.644 2609
2.230 4.559 1.620 3887
2.228 4.556 1.603 3522
2.300 4.703 1.635 3539
2.319 4.741 1.630 6287
2.328 4.759 1.619 6437
2.336 4.776 1.608 4446
2.419 4.945 1.644 5563
2.420 4.948 1.628 8806
2.422 4.952 1.612 7460
2.411 4.929 1.588 5630
2.429 4.967 1.582 6740
2.435 4.978 1.568 7936
2.447 5.002 1.558 6038
2.455 5.019 1.546 4887
2.494 5.099 1.551 3454
2.584 5.282 1.584 3198
2.656 5.431 1.606 2735
2.753 5.628 1.641 2547
2.785 5.694 1.639 2131
2.787 5.698 1.621 2303
2.857 5.841 1.638 3257
2.801 5.727 1.589 3538
2.864 5.855 1.602 3038
2.951 6.033 1.627 3663
2.956 6.044 1.609 3323
2.961 6.054 1.591 3547
2.963 6.058 1.572 3388
3.047 6.229 1.591 3053
3.038 6.212 1.566 4286
3.064 6.264 1.557 4945
3.063 6.261 1.536 6243
3.057 6.251 1.512 7041
3.059 6.254 1.492 4593
3.218 6.579 1.541 4992
3.210 6.562 1.515 6547
3.215 6.572 1.496 5797
3.227 6.597 1.479 4003
3.615 7.391 1.616 4253
3.614 7.388 1.591 6204
3.616 7.392 1.567 5466
3.607 7.374 1.539 5053
3.602 7.364 1.513 5839
3.744 7.655 1.542 4269
3.750 7.666 1.519 4618
3.755 7.676 1.495 3497
4.495 9.191 1.734 3140
4.178 8.541 1.592 3995
4.183 8.552 1.566 4252
4.185 8.555 1.538 3322
4.503 9.207 1.615 1984
4.550 9.302 1.600 2455
4.548 9.299 1.568 2145
4.543 9.288 1.536 1676
4.962 10.145 1.632 1492
4.968 10.156 1.601 1506
4.976 10.174 1.570 1643
4.978 10.178 1.537 1363
5.529 11.304 1.655 1223
5.521 11.286 1.616 940
5.685 11.622 1.622 954
5.562 11.372 1.552 1243
5.713 11.679 1.552 1200
5.576 11.400 1.481 1173
6.173 12.620 1.584 860
5.815 11.888 1.461 817
5.813 11.884 1.422 874
6.192 12.660 1.464 540
6.194 12.663 1.423 623
6.196 12.666 1.382 463
0.672 1.373 -0.011 251
0.671 1.373 -0.015 325
0.671 1.372 -0.019 372
0.668 1.365 -0.023 422
0.667 1.364 -0.027 422
0.667 1.364 -0.031 538
1.031 2.088 1.792 3330
1.033 2.093 1.785 6661
1.035 2.097 1.779 6661
1.037 2.101 1.772 6816
1.057 2.140 1.793 7400
1.056 2.139 1.781 8749
1.058 2.143 1.775 10269
1.060 2.147 1.768 10269
1.062 2.152 1.761 8195
1.067 2.162 1.759 6236
1.095 2.219 1.792 6988
1.098 2.223 1.785 8357
1.100 2.227 1.778 10572
1.102 2.231 1.771 12787
1.104 2.236 1.763 12588
1.103 2.234 1.752 11162
1.102 2.232 1.741 10210
1.098 2.225 1.725 9227
1.100 2.229 1.718 8364
1.102 2.233 1.711 8583
1.107 2.243 1.708 8895
1.151 2.331 1.760 9880
1.153 2.335 1.753 11174
1.191 2.411 1.796 9572
1.193 2.416 1.788 9085
1.192 2.414 1.776 8531
1.188 2.406 1.760 8610
1.190 2.411 1.753 8627
1.192 2.415 1.745 8643
1.203 2.437 1.749 7879
1.211 2.454 1.750 8631
1.210 2.452 1.738 7249
1.209 2.450 1.726 6178
1.215 2.460 1.722 5615
1.223 2.476 1.722 5522
1.234 2.499 1.726 6139
1.236 2.503 1.718 7545
1.238 2.507 1.710 7486
1.273 2.579 1.745 5810
1.275 2.583 1.737 8536
1.278 2.587 1.729 8705
1.283 2.598 1.725 8986
1.288 2.608 1.720 8102
1.293 2.619 1.716 7700
1.295 2.623 1.707 7911
1.294 2.621 1.695 6425
1.336 2.706 1.735 5424
1.338 2.710 1.727 5840
1.334 2.702 1.711 5817
1.333 2.699 1.698 5525
1.341 2.716 1.697 6658
1.346 2.726 1.692 7967
1.348 2.730 1.683 7960
1.375 2.785 1.703 7300
1.377 2.789 1.695 9582
1.379 2.793 1.686 11354
1.381 2.797 1.677 9341
1.430 2.897 1.721 7173
1.432 2.901 1.711 8124
1.434 2.905 1.702 10249
1.443 2.922 1.700 10303
1.460 2.958 1.708 9708
1.465 2.968 1.702 10033
1.474 2.985 1.699 10157
1.482 3.002 1.696 8919
1.491 3.019 1.693 8870
1.499 3.036 1.690 6827
1.549 3.136 1.730 7926
1.557 3.154 1.727 8704
1.562 3.164 1.720 8025
1.567 3.175 1.713 6836
1.573 3.185 1.706 6197
1.572 3.183 1.693 7050
1.580 3.200 1.689 7014
1.601 3.243 1.698 8139
1.610 3.260 1.693 8886
1.615 3.271 1.686 12972
1.617 3.275 1.676 18649
1.622 3.285 1.668 24202
1.624 3.289 1.658 23238
1.626 3.293 1.647 25758
1.625 3.291 1.634 31561
1.630 3.301 1.626 31336
1.632 3.305 1.615 27221
1.634 3.309 1.605 20637
1.636 3.313 1.594 18154
1.637 3.316 1.584 15835
1.639 3.320 1.573 10542
1.641 3.324 1.562 5755
1.787 3.619 1.677 5883
1.789 3.623 1.665 7512
1.791 3.627 1.654 7906
1.783 3.611 1.634 5447
1.887 3.821 1.708 3365
1.889 3.825 1.696 5752
1.884 3.816 1.678 7733
1.889 3.827 1.668 9516
1.895 3.837 1.659 12955
1.897 3.841 1.646 13212
1.902 3.852 1.637 9930
1.950 3.950 1.661 8180
1.949 3.947 1.646 9516
1.947 3.944 1.630 8267
1.949 3.948 1.618 9263
1.954 3.959 1.607 8015
1.983 4.016 1.615 12072
1.982 4.013 1.599 8876
2.067 4.186 1.648 4907
1.992 4.034 1.578 4326
1.990 4.031 1.563 3397
2.099 4.252 1.627 3236
2.104 4.262 1.615 2498
2.193 4.442 1.663 2353
2.182 4.419 1.639 3257
2.251 4.559 1.671 2837
2.260 4.576 1.661 3335
2.268 4.594 1.651 2461
2.250 4.557 1.622 3251
2.339 4.738 1.665 4071
2.335 4.729 1.646 5320
2.337 4.732 1.630 7868
2.345 4.750 1.619 8161
2.351 4.761 1.606 6604
2.433 4.929 1.641 5423
2.439 4.939 1.628 9932
2.437 4.937 1.610 7689
2.422 4.906 1.584 5809
2.431 4.924 1.572 7932
2.433 4.927 1.556 9744
2.421 4.903 1.532 9851
2.426 4.914 1.518 6812
2.442 4.945 1.510 4785
2.423 4.907 1.483 3192
2.673 5.414 1.604 2753
2.811 5.694 1.661 2677
2.806 5.684 1.639 2225
2.812 5.695 1.623 2385
2.820 5.713 1.608 3471
2.822 5.716 1.589 3977
2.882 5.838 1.601 3842
2.973 6.022 1.627 3423
2.979 6.033 1.609 2982
2.984 6.043 1.591 2770
2.982 6.040 1.570 2524
3.063 6.204 1.588 4038
3.061 6.200 1.566 5673
3.087 6.253 1.557 5591
3.082 6.243 1.534 7127
3.077 6.232 1.511 8784
3.079 6.236 1.491 5775
3.253 6.588 1.545 4018
3.248 6.578 1.521 4436
3.253 6.588 1.501 4234
3.268 6.620 1.486 3489
3.643 7.378 1.616 4580
3.644 7.381 1.593 6453
3.643 7.378 1.567 5936
3.641 7.375 1.542 5439
3.636 7.365 1.516 5797
3.773 7.641 1.542 4861
3.778 7.652 1.519 5124
3.787 7.670 1.496 3891
4.121 8.346 1.589 3493
4.531 9.178 1.704 4008
4.215 8.536 1.566 3846
4.216 8.540 1.538 3043
4.537 9.190 1.615 2123
4.588 9.292 1.601 2286
4.586 9.289 1.570 1938
4.578 9.271 1.536 1433
5.003 10.134 1.633 1313
5.009 10.144 1.602 1449
5.014 10.155 1.570 1763
5.016 10.159 1.537 1538
5.567 11.276 1.654 1102
5.374 10.885 1.566 1016
5.606 11.354 1.590 1029
5.604 11.351 1.552 1210
5.613 11.369 1.517 1180
5.618 11.379 1.481 1170
6.220 12.597 1.584 985
6.215 12.587 1.542 759
5.857 11.863 1.422 757
6.239 12.637 1.464 553
6.241 12.640 1.423 626
6.239 12.636 1.382 451
0.677 1.371 -0.006 294
0.680 1.378 -0.011 392
0.680 1.377 -0.016 495
0.680 1.377 -0.020 623
0.680 1.376 -0.024 751
0.679 1.376 -0.029 751
0.679 1.375 -0.033 1046
1.039 2.084 1.792 3493
1.041 2.089 1.785 6987
1.043 2.093 1.779 6987
1.046 2.097 1.772 6751
1.068 2.142 1.797 7367
1.067 2.140 1.786 8607
1.066 2.139 1.775 10045
1.069 2.143 1.768 10045
1.071 2.147 1.761 8031
1.102 2.210 1.799 7283
1.104 2.214 1.792 8166
1.106 2.219 1.785 9048
1.108 2.223 1.778 11035
1.110 2.227 1.771 13023
1.113 2.231 1.763 13020
1.109 2.224 1.748 11674
1.108 2.222 1.736 10884
1.107 2.220 1.725 9385
1.109 2.225 1.718 7898
1.114 2.235 1.715 8142
1.116 2.239 1.708 8545
1.160 2.326 1.760 8840
1.198 2.402 1.803 10241
1.200 2.407 1.796 10138
1.202 2.411 1.788 10036
1.198 2.403 1.772 9430
1.197 2.402 1.760 9206
1.203 2.412 1.757 9094
1.205 2.416 1.749 9065
1.213 2.432 1.749 8227
1.221 2.449 1.750 8691
1.223 2.453 1.742 7011
1.219 2.445 1.726 5596
1.230 2.467 1.730 5561
1.232 2.472 1.722 5859
1.243 2.494 1.726 6333
1.249 2.504 1.722 7921
1.248 2.502 1.710 7889
1.253 2.513 1.706 5883
1.295 2.597 1.749 7191
1.294 2.595 1.737 8011
1.296 2.599 1.728 8833
1.301 2.609 1.724 7641
1.303 2.613 1.716 7442
1.302 2.611 1.703 8425
1.304 2.615 1.695 8051
1.306 2.620 1.687 7676
1.308 2.624 1.678 6142
1.351 2.709 1.718 5154
1.312 2.632 1.661 4993
1.352 2.711 1.697 5397
1.357 2.721 1.692 6319
1.359 2.725 1.683 6073
1.386 2.780 1.703 6459
1.388 2.784 1.695 9075
1.387 2.781 1.682 11352
1.392 2.792 1.677 9314
1.397 2.802 1.671 6702
1.402 2.813 1.666 6170
1.445 2.899 1.702 7864
1.470 2.948 1.717 9581
1.472 2.952 1.708 10399
1.477 2.962 1.702 11391
1.482 2.973 1.695 10970
1.523 3.054 1.726 9358
1.525 3.058 1.717 10895
1.533 3.075 1.714 9720
1.561 3.130 1.730 8381
1.569 3.147 1.727 8797
1.575 3.158 1.720 7893
1.580 3.169 1.713 6363
1.598 3.205 1.719 6395
1.584 3.177 1.693 7252
1.592 3.194 1.689 6920
1.614 3.237 1.698 9520
1.622 3.254 1.693 11181
1.628 3.264 1.686 16879
1.633 3.275 1.679 21689
1.635 3.279 1.668 26528
1.637 3.283 1.658 27332
1.639 3.287 1.647 33307
1.637 3.284 1.634 41285
1.643 3.295 1.626 41480
1.645 3.299 1.615 36355
1.647 3.302 1.605 27804
1.648 3.306 1.594 24693
1.650 3.310 1.584 21682
1.652 3.314 1.573 14935
1.654 3.318 1.562 8420
1.804 3.619 1.680 5607
1.806 3.623 1.668 6183
1.835 3.680 1.679 6459
1.797 3.604 1.634 5139
1.845 3.701 1.661 4232
1.900 3.811 1.693 4649
1.896 3.802 1.675 6806
1.904 3.819 1.668 7615
1.913 3.837 1.661 11595
1.915 3.841 1.649 12603
1.913 3.838 1.634 9277
1.972 3.955 1.666 8907
1.974 3.959 1.653 11717
1.986 3.983 1.648 11245
1.988 3.987 1.635 9639
1.993 3.998 1.625 9097
1.999 4.008 1.615 13438
2.000 4.012 1.602 9912
2.006 4.023 1.591 5104
2.008 4.027 1.578 5336
2.006 4.024 1.563 4121
2.119 4.250 1.629 3559
2.128 4.268 1.620 2497
2.200 4.413 1.656 2518
2.196 4.404 1.637 2975
2.262 4.537 1.666 2503
2.271 4.554 1.656 2532
2.222 4.456 1.608 2456
2.352 4.718 1.678 3929
2.358 4.729 1.665 6093
2.356 4.726 1.648 7617
2.355 4.723 1.630 9115
2.364 4.741 1.619 8970
2.369 4.752 1.606 8403
2.371 4.755 1.591 5906
2.451 4.916 1.623 9019
2.439 4.893 1.599 8045
2.435 4.883 1.579 7174
2.450 4.914 1.572 9111
2.448 4.911 1.554 12841
2.440 4.894 1.532 14062
2.445 4.904 1.518 9650
2.474 4.963 1.518 7445
2.445 4.905 1.485 4854
2.485 4.984 1.489 3242
2.490 4.994 1.475 2699
2.829 5.673 1.639 1920
2.834 5.684 1.623 2102
2.843 5.702 1.608 3692
2.845 5.705 1.589 4156
2.905 5.827 1.601 3769
2.910 5.837 1.583 2821
3.064 6.146 1.640 2467
2.914 5.845 1.546 2560
2.916 5.848 1.527 2308
3.084 6.185 1.586 5113
3.085 6.189 1.566 6974
3.105 6.227 1.554 6197
3.106 6.231 1.534 7888
3.098 6.213 1.509 9895
3.100 6.217 1.489 6768
3.282 6.582 1.547 3662
3.284 6.586 1.526 3076
3.285 6.589 1.504 3027
3.294 6.607 1.486 3086
3.671 7.363 1.616 4359
3.673 7.367 1.593 5542
3.675 7.371 1.569 5441
3.673 7.368 1.543 5949
3.668 7.357 1.517 6257
3.802 7.627 1.542 5063
3.808 7.637 1.519 4992
4.158 8.340 1.619 3964
4.157 8.337 1.591 4068
4.169 8.362 1.567 3868
4.251 8.527 1.567 3281
4.253 8.530 1.539 2597
4.570 9.165 1.614 2108
4.571 9.169 1.584 1925
4.622 9.271 1.570 1589
5.195 10.419 1.713 1442
5.193 10.416 1.678 1457
5.052 10.132 1.603 1269
5.053 10.136 1.570 1530
5.055 10.139 1.537 1424
5.408 10.846 1.599 1160
5.417 10.864 1.566 1152
5.650 11.332 1.590 1140
5.898 11.829 1.615 1232
5.657 11.347 1.517 1109
5.663 11.358 1.481 1108
6.265 12.566 1.583 956
6.264 12.563 1.542 845
5.903 11.840 1.422 621
6.288 12.612 1.464 545
6.286 12.609 1.423 596
6.277 12.591 1.380 436
0.686 1.376 -0.003 253
0.682 1.368 -0.006 367
0.685 1.375 -0.011 563
0.685 1.374 -0.016 760
0.685 1.374 -0.020 963
0.685 1.374 -0.024 1165
0.685 1.373 -0.029 1165
0.684 1.373 -0.033 1554
1.047 2.080 1.792 3280
1.050 2.084 1.785 6560
1.052 2.089 1.779 6560
1.054 2.093 1.772 6255
1.076 2.138 1.797 6871
1.076 2.136 1.786 8118
1.075 2.135 1.775 9599
1.077 2.139 1.768 9599
1.082 2.149 1.765 7957
1.111 2.206 1.799 8656
1.113 2.210 1.792 9067
1.115 2.214 1.785 9478
1.117 2.218 1.778 11075
1.119 2.223 1.771 12672
1.121 2.227 1.763 12886
1.118 2.219 1.748 12076
1.114 2.212 1.732 11559
1.116 2.216 1.725 9533
1.118 2.220 1.718 7411
1.123 2.230 1.715 7662
1.128 2.240 1.712 8078
1.205 2.393 1.811 7897
1.207 2.398 1.803 9878
1.210 2.402 1.796 9897
1.209 2.400 1.784 10020
1.208 2.399 1.772 9245
1.210 2.403 1.764 8618
1.212 2.407 1.757 8572
1.214 2.411 1.749 8527
1.219 2.422 1.745 7894
1.231 2.444 1.750 8162
1.236 2.454 1.746 6498
1.238 2.458 1.738 4924
1.243 2.469 1.734 5411
1.245 2.473 1.726 5921
1.253 2.489 1.726 6602
1.259 2.499 1.722 8271
1.261 2.503 1.714 8259
1.263 2.508 1.706 5973
1.311 2.604 1.757 7010
1.310 2.602 1.744 7580
1.309 2.600 1.732 8259
1.311 2.604 1.724 7337
1.313 2.608 1.716 8031
1.312 2.606 1.703 9749
1.314 2.610 1.695 10285
1.316 2.614 1.687 10821
1.318 2.618 1.678 9492
1.321 2.622 1.670 8143
1.323 2.626 1.661 8122
1.328 2.637 1.657 7930
1.330 2.640 1.648 6292
1.395 2.770 1.712 5178
1.372 2.724 1.675 5721
1.377 2.734 1.669 8625
1.388 2.757 1.671 10950
1.397 2.774 1.670 8789
1.405 2.790 1.668 5483
1.487 2.953 1.746 5649
1.492 2.963 1.740 8147
1.491 2.961 1.727 9104
1.487 2.952 1.711 10183
1.489 2.957 1.702 11568
1.494 2.967 1.695 10816
1.535 3.048 1.726 11025
1.540 3.058 1.720 12768
1.545 3.069 1.714 11244
1.573 3.124 1.730 7625
1.582 3.141 1.727 7635
1.587 3.152 1.720 6582
1.596 3.169 1.716 5351
1.614 3.205 1.722 6492
1.597 3.170 1.693 7609
1.608 3.194 1.692 6968
1.627 3.230 1.698 10502
1.635 3.247 1.693 12764
1.641 3.258 1.686 19525
1.643 3.262 1.676 23093
1.648 3.272 1.668 26214
1.650 3.276 1.658 28790
1.652 3.280 1.647 36900
1.651 3.278 1.634 45375
1.656 3.288 1.626 46621
1.658 3.292 1.615 40964
1.660 3.296 1.605 31110
1.662 3.300 1.594 27883
1.663 3.303 1.584 24328
1.665 3.307 1.573 17032
1.667 3.311 1.562 9737
1.822 3.618 1.683 5622
1.847 3.668 1.691 6471
1.853 3.679 1.682 8381
1.855 3.683 1.670 6805
1.863 3.700 1.664 5690
1.875 3.724 1.660 5390
1.914 3.801 1.678 5232
1.923 3.818 1.671 5964
1.928 3.829 1.661 10867
1.930 3.833 1.649 12650
1.929 3.830 1.634 8828
1.988 3.947 1.666 8921
1.993 3.958 1.656 12753
2.002 3.975 1.648 13414
2.004 3.979 1.635 10736
2.006 3.983 1.623 9567
2.014 4.000 1.615 12682
2.020 4.011 1.604 9556
2.025 4.022 1.594 5593
2.024 4.019 1.578 5279
2.175 4.319 1.672 4197
2.139 4.248 1.631 3351
2.219 4.407 1.672 3523
2.218 4.405 1.656 4667
2.217 4.402 1.639 3974
2.273 4.514 1.662 2978
2.234 4.437 1.620 2718
2.240 4.447 1.608 2246
2.371 4.709 1.678 4106
2.377 4.720 1.665 7204
2.379 4.724 1.650 8523
2.377 4.721 1.633 8440
2.383 4.731 1.619 7911
2.384 4.735 1.604 8229
2.386 4.739 1.589 6369
2.450 4.866 1.611 6065
2.455 4.876 1.597 7957
2.457 4.880 1.581 7622
2.487 4.938 1.582 10064
2.468 4.901 1.554 12977
2.460 4.884 1.532 14576
2.465 4.895 1.518 10261
2.498 4.960 1.520 10321
2.503 4.970 1.506 8079
2.505 4.974 1.489 6545
2.510 4.984 1.475 5615
2.512 4.988 1.459 3170
2.867 5.693 1.628 1824
2.869 5.697 1.610 3349
2.867 5.694 1.589 3604
2.932 5.822 1.602 2697
2.982 5.922 1.608 2217
3.092 6.140 1.641 2886
3.090 6.137 1.620 2753
3.096 6.148 1.601 3271
3.105 6.166 1.585 5351
3.110 6.176 1.566 7367
3.108 6.173 1.545 7435
3.128 6.211 1.532 8017
3.123 6.201 1.509 9509
3.121 6.198 1.488 6889
3.308 6.569 1.547 3412
3.128 6.211 1.449 3120
3.417 6.785 1.548 2404
3.681 7.310 1.633 2555
3.701 7.349 1.616 4482
3.702 7.353 1.593 4445
3.708 7.363 1.570 4242
3.703 7.353 1.543 5824
3.701 7.350 1.518 6616
3.703 7.353 1.494 4996
4.197 8.334 1.648 5098
4.195 8.331 1.620 4320
4.246 8.432 1.610 5059
4.202 8.345 1.567 4084
4.289 8.517 1.568 3039
4.291 8.520 1.541 2352
4.606 9.147 1.614 1747
4.255 8.451 1.473 1894
4.257 8.454 1.445 1613
5.229 10.384 1.711 1383
5.231 10.388 1.677 1434
4.771 9.474 1.510 1156
4.772 9.477 1.479 1389
5.096 10.119 1.537 1218
5.447 10.818 1.598 1205
5.453 10.829 1.564 1118
5.946 11.809 1.654 1068
5.948 11.813 1.616 1327
5.947 11.809 1.576 1069
5.704 11.328 1.480 942
6.315 12.541 1.583 826
6.310 12.531 1.541 871
6.312 12.534 1.500 687
6.317 12.545 1.460 533
6.333 12.576 1.422 522
6.320 12.551 1.378 413
0.688 1.365 -0.006 378
0.691 1.372 -0.011 501
0.691 1.372 -0.016 632
0.694 1.378 -0.021 720
0.694 1.378 -0.025 819
0.694 1.378 -0.030 819
0.693 1.377 -0.034 1173
1.052 2.071 1.787 2795
1.054 2.075 1.781 5591
1.056 2.079 1.774 5591
1.061 2.089 1.772 5387
1.084 2.134 1.797 6025
1.083 2.132 1.786 7223
1.080 2.125 1.770 8765
1.082 2.129 1.763 8765
1.093 2.151 1.770 7733
1.116 2.196 1.794 9609
1.118 2.200 1.787 9765
1.117 2.198 1.776 9982
1.119 2.203 1.769 11007
1.121 2.207 1.762 12032
1.126 2.217 1.759 12349
1.123 2.210 1.743 12275
1.122 2.208 1.732 12284
1.124 2.212 1.725 9677
1.141 2.246 1.739 7356
1.137 2.238 1.723 7363
1.139 2.242 1.716 7657
1.214 2.389 1.811 6954
1.216 2.393 1.803 9038
1.215 2.392 1.792 9068
1.214 2.390 1.780 9117
1.216 2.394 1.772 8280
1.219 2.398 1.764 7443
1.224 2.409 1.761 7594
1.226 2.413 1.753 7762
1.231 2.423 1.749 7418
1.239 2.439 1.750 7554
1.245 2.450 1.746 6246
1.250 2.460 1.742 5081
1.252 2.464 1.734 5870
1.254 2.468 1.726 6660
1.262 2.485 1.726 7484
1.271 2.501 1.726 8993
1.273 2.505 1.718 8805
1.275 2.509 1.710 6247
1.321 2.599 1.757 7654
1.320 2.597 1.744 7729
1.322 2.601 1.736 7855
1.324 2.606 1.728 7534
1.323 2.604 1.716 9132
1.325 2.608 1.707 11110
1.324 2.605 1.695 11684
1.323 2.603 1.683 12358
1.328 2.614 1.678 11514
1.330 2.618 1.670 10530
1.332 2.622 1.661 10340
1.337 2.632 1.657 9741
1.339 2.636 1.648 7320
1.341 2.640 1.640 5351
1.385 2.725 1.678 5728
1.387 2.729 1.669 8935
1.392 2.739 1.664 10524
1.397 2.750 1.659 8317
1.402 2.760 1.654 4297
1.501 2.954 1.750 5631
1.506 2.964 1.744 8093
1.508 2.968 1.734 8701
1.497 2.947 1.711 9189
1.499 2.951 1.702 10674
1.502 2.955 1.692 9928
1.546 3.042 1.726 11150
1.548 3.046 1.717 12947
1.553 3.057 1.710 11014
1.588 3.125 1.734 6210
1.596 3.142 1.730 5677
1.602 3.152 1.723 4447
1.620 3.189 1.729 4368
1.609 3.167 1.706 6025
1.608 3.165 1.693 7924
1.623 3.195 1.695 7101
1.638 3.224 1.698 10806
1.647 3.241 1.693 12843
1.649 3.245 1.683 19827
1.651 3.249 1.673 23149
1.656 3.260 1.665 24424
1.662 3.270 1.658 28305
1.664 3.274 1.647 36887
1.666 3.278 1.637 43585
1.668 3.282 1.626 45900
1.670 3.286 1.615 40101
1.672 3.290 1.605 29981
1.670 3.287 1.591 27380
1.675 3.297 1.584 23350
1.677 3.301 1.573 16345
1.679 3.305 1.562 9295
1.838 3.618 1.686 5542
1.857 3.655 1.688 7691
1.866 3.672 1.682 9189
1.868 3.676 1.670 7168
1.880 3.700 1.666 6692
1.892 3.724 1.663 7243
1.894 3.728 1.651 5204
1.930 3.798 1.666 5825
1.942 3.822 1.661 11138
1.944 3.826 1.649 13429
1.946 3.830 1.637 9044
2.002 3.940 1.666 7807
2.007 3.951 1.656 11465
2.016 3.968 1.648 12428
2.018 3.972 1.635 9897
2.017 3.969 1.620 9130
2.029 3.993 1.615 10302
2.034 4.004 1.604 8131
2.118 4.169 1.650 5776
2.185 4.300 1.683 6318
2.194 4.317 1.674 4856
2.220 4.369 1.677 3317
2.235 4.399 1.672 4246
2.234 4.397 1.656 5730
2.232 4.394 1.639 4521
2.296 4.519 1.666 3557
2.305 4.537 1.656 3992
2.317 4.561 1.648 2681
2.323 4.572 1.636 3792
2.394 4.711 1.665 7067
2.396 4.715 1.650 7633
2.398 4.719 1.635 6559
2.400 4.723 1.619 6015
2.402 4.727 1.604 6604
2.403 4.730 1.589 5296
2.464 4.850 1.609 3689
2.473 4.867 1.597 5438
2.475 4.871 1.581 5992
2.508 4.936 1.584 9792
2.489 4.899 1.556 10271
2.481 4.882 1.534 11859
2.514 4.947 1.536 11625
2.519 4.958 1.522 12100
2.521 4.961 1.506 10651
2.523 4.965 1.489 9612
2.528 4.975 1.475 8121
2.526 4.972 1.457 5180
2.531 4.982 1.443 2472
2.893 5.694 1.611 2917
2.891 5.691 1.591 2520
2.991 5.887 1.622 2429
3.109 6.118 1.659 2347
3.114 6.129 1.641 3375
3.113 6.126 1.620 3939
3.114 6.130 1.600 4383
3.127 6.154 1.585 4868
3.129 6.158 1.565 7200
3.127 6.155 1.543 8429
3.136 6.172 1.526 6814
3.141 6.183 1.508 7686
3.143 6.186 1.488 5853
3.328 6.550 1.545 3499
3.150 6.200 1.449 2738
3.339 6.571 1.506 2145
3.714 7.311 1.636 3075
3.720 7.321 1.614 5399
3.722 7.325 1.590 5142
3.724 7.329 1.566 3743
3.729 7.340 1.543 5102
3.727 7.336 1.518 6335
3.729 7.340 1.494 5021
4.227 8.319 1.648 5400
4.229 8.323 1.621 4162
4.277 8.417 1.610 5352
4.232 8.330 1.567 3686
4.319 8.501 1.568 3054
4.321 8.505 1.541 2301
4.281 8.425 1.499 1794
4.286 8.435 1.473 1984
4.288 8.439 1.445 1714
5.263 10.358 1.710 1382
5.265 10.362 1.676 1446
4.801 9.449 1.509 1308
4.807 9.460 1.479 1472
5.556 10.934 1.653 1105
5.486 10.798 1.598 1042
5.727 11.271 1.625 1114
5.989 11.787 1.654 1060
5.987 11.784 1.615 1379
5.993 11.795 1.577 1159
5.998 11.805 1.540 914
6.000 11.809 1.501 784
6.355 12.508 1.541 852
6.357 12.511 1.500 709
6.359 12.515 1.459 484
6.357 12.511 1.418 419
6.362 12.522 1.377 332
0.693 1.363 -0.006 314
0.692 1.363 -0.011 356
0.692 1.362 -0.015 399
0.692 1.362 -0.019 330
0.692 1.361 -0.023 262
0.691 1.361 -0.028 262
0.698 1.375 -0.034 337
1.057 2.061 1.783 2248
1.059 2.065 1.776 4496
1.061 2.070 1.769 4496
1.069 2.085 1.772 4423
1.092 2.130 1.797 5115
1.082 2.111 1.772 6446
1.085 2.115 1.765 8263
1.087 2.119 1.759 8263
1.104 2.153 1.774 7781
1.124 2.192 1.794 10091
1.123 2.190 1.783 10235
1.122 2.189 1.771 10705
1.124 2.193 1.764 11454
1.127 2.197 1.757 12204
1.129 2.201 1.750 12258
1.128 2.199 1.739 12716
1.127 2.198 1.727 13123
1.129 2.202 1.720 9947
1.149 2.241 1.739 7801
1.148 2.240 1.728 7465
1.147 2.238 1.716 7385
1.220 2.379 1.807 6022
1.222 2.383 1.799 8112
1.221 2.381 1.787 7975
1.220 2.380 1.776 8066
1.225 2.390 1.772 6897
1.234 2.406 1.773 6091
1.233 2.404 1.761 6380
1.235 2.408 1.753 6827
1.240 2.419 1.749 6757
1.245 2.429 1.746 6903
1.254 2.445 1.746 6208
1.259 2.455 1.742 5731
1.261 2.459 1.734 6811
1.266 2.470 1.730 8035
1.272 2.480 1.726 9006
1.280 2.496 1.726 10132
1.285 2.506 1.722 9707
1.284 2.504 1.710 6595
1.327 2.588 1.753 8499
1.329 2.592 1.744 7730
1.331 2.597 1.736 6961
1.334 2.601 1.728 7502
1.332 2.599 1.716 9919
1.335 2.603 1.707 11798
1.333 2.601 1.695 11914
1.332 2.598 1.683 12422
1.338 2.609 1.678 12203
1.340 2.613 1.670 11853
1.342 2.617 1.661 11382
1.347 2.627 1.657 10487
1.349 2.631 1.648 7708
1.402 2.735 1.698 5632
1.398 2.726 1.682 6410
1.397 2.724 1.669 8669
1.402 2.734 1.664 9630
1.404 2.738 1.655 7643
1.497 2.919 1.745 4066
1.512 2.948 1.750 5341
1.520 2.965 1.747 7670
1.526 2.975 1.741 7942
1.531 2.986 1.735 7360
1.504 2.933 1.695 9042
1.512 2.950 1.692 8845
1.557 3.036 1.726 10373
1.559 3.041 1.717 12134
1.564 3.051 1.710 9830
1.599 3.119 1.734 5574
1.601 3.123 1.723 4209
1.564 3.050 1.674 3572
1.606 3.131 1.703 3283
1.618 3.155 1.703 5931
1.616 3.152 1.689 7902
1.638 3.195 1.698 7190
1.650 3.218 1.698 10376
1.656 3.229 1.690 11340
1.661 3.239 1.683 17913
1.660 3.237 1.669 22312
1.662 3.241 1.659 23160
1.670 3.258 1.655 26996
1.676 3.268 1.647 33883
1.678 3.272 1.637 37324
1.680 3.276 1.626 40199
1.682 3.280 1.615 34762
1.680 3.277 1.602 25606
1.682 3.281 1.591 23893
1.688 3.291 1.584 19529
1.689 3.295 1.573 13424
1.691 3.299 1.562 7489
1.855 3.618 1.688 5524
1.871 3.648 1.688 8831
1.879 3.665 1.682 9451
1.885 3.676 1.673 6844
1.897 3.700 1.669 7352
1.906 3.717 1.663 8297
1.908 3.721 1.651 5858
1.944 3.791 1.666 6590
1.949 3.801 1.656 12432
1.955 3.812 1.646 14454
1.960 3.823 1.637 9717
1.972 3.846 1.632 6751
2.022 3.943 1.656 8440
2.031 3.961 1.648 9337
2.026 3.951 1.630 7907
2.025 3.948 1.615 8368
2.033 3.966 1.607 7192
2.049 3.996 1.604 5696
2.133 4.161 1.650 5945
2.197 4.285 1.681 6251
2.210 4.309 1.674 4873
2.232 4.354 1.674 3522
2.252 4.391 1.672 4395
2.250 4.388 1.656 5879
2.252 4.392 1.641 4599
2.316 4.517 1.669 3937
2.322 4.528 1.656 5334
2.324 4.532 1.642 3460
2.343 4.570 1.638 3907
2.411 4.702 1.665 5869
2.413 4.706 1.650 5906
2.415 4.710 1.635 5611
2.421 4.721 1.622 5192
2.426 4.731 1.608 4475
2.424 4.728 1.591 3601
2.510 4.895 1.626 3839
2.522 4.919 1.616 3925
2.535 4.944 1.606 5687
2.530 4.934 1.586 7365
2.532 4.937 1.570 8274
2.534 4.941 1.554 9223
2.532 4.938 1.536 11704
2.537 4.948 1.522 12265
2.539 4.952 1.506 11481
2.541 4.956 1.489 11051
2.546 4.966 1.475 9160
2.545 4.962 1.457 6138
2.550 4.973 1.443 2930
2.914 5.683 1.611 2442
3.004 5.858 1.637 2964
3.006 5.862 1.618 2513
3.050 5.949 1.620 2546
3.140 6.124 1.643 3515
3.139 6.121 1.621 4712
3.137 6.118 1.600 5066
3.143 6.129 1.581 4176
3.148 6.140 1.563 6761
3.150 6.143 1.543 8380
3.155 6.154 1.525 5745
3.161 6.164 1.506 5365
3.347 6.527 1.565 5615
3.356 6.545 1.547 3850
3.372 6.576 1.531 2966
3.402 6.635 1.522 2697
3.741 7.297 1.636 3641
3.747 7.308 1.614 6219
3.745 7.304 1.588 6672
3.737 7.287 1.560 4227
3.756 7.326 1.543 3996
3.755 7.322 1.518 5549
3.756 7.326 1.494 4668
4.257 8.303 1.648 4925
4.302 8.390 1.636 3533
4.304 8.394 1.609 4951
4.306 8.398 1.582 3506
4.347 8.478 1.567 3309
4.353 8.489 1.541 2464
4.365 8.513 1.516 2029
4.360 8.503 1.486 1982
4.362 8.506 1.459 1453
5.151 10.046 1.665 1343
5.264 10.266 1.665 1418
5.273 10.284 1.633 1437
4.838 9.435 1.478 1300
5.600 10.921 1.654 1343
5.598 10.918 1.617 1039
5.769 11.250 1.625 1147
5.778 11.268 1.590 955
6.031 11.762 1.615 1184
6.040 11.780 1.578 1075
6.045 11.790 1.540 1008
6.047 11.794 1.502 911
6.401 12.484 1.541 799
6.403 12.488 1.500 722
6.347 12.379 1.447 570
6.349 12.382 1.407 412
6.351 12.386 1.366 355
6.349 12.382 1.325 279
3.851 7.511 -0.740 284
0.693 1.352 -0.018 330
0.693 1.352 -0.023 488
0.693 1.351 -0.027 488
0.689 1.344 -0.030 594
1.064 2.043 1.773 1867
1.066 2.047 1.767 3734
1.068 2.051 1.760 3734
1.071 2.055 1.754 3408
1.106 2.123 1.797 3793
1.093 2.098 1.768 5325
1.098 2.108 1.765 7147
1.100 2.112 1.759 7147
1.117 2.145 1.774 7312
1.138 2.184 1.794 9863
1.131 2.171 1.774 10380
1.133 2.175 1.767 11287
1.132 2.174 1.756 12393
1.134 2.178 1.749 13526
1.137 2.182 1.742 13239
1.139 2.186 1.735 13542
1.141 2.190 1.727 14064
1.143 2.195 1.720 10359
1.164 2.234 1.739 8066
1.163 2.232 1.728 7542
1.162 2.230 1.716 7214
1.232 2.365 1.803 5305
1.234 2.369 1.795 7263
1.233 2.367 1.783 7255
1.232 2.366 1.771 7522
1.238 2.376 1.768 5628
1.255 2.410 1.781 4874
1.248 2.396 1.761 5131
1.250 2.400 1.753 6054
1.252 2.405 1.745 6303
1.258 2.415 1.742 6586
1.269 2.437 1.746 6540
1.272 2.441 1.738 6817
1.280 2.457 1.738 8190
1.282 2.462 1.730 9943
1.287 2.472 1.726 10791
1.296 2.488 1.726 11135
1.301 2.498 1.722 10422
1.322 2.539 1.738 7589
1.337 2.567 1.745 8925
1.343 2.578 1.741 7486
1.345 2.582 1.732 6113
1.347 2.586 1.724 7857
1.349 2.590 1.716 11453
1.351 2.594 1.707 13305
1.350 2.592 1.695 12778
1.349 2.590 1.683 12742
1.354 2.600 1.678 12423
1.356 2.604 1.670 11565
1.358 2.608 1.661 10586
1.360 2.612 1.653 9527
1.366 2.622 1.648 7039
1.416 2.719 1.694 6899
1.415 2.717 1.682 7281
1.417 2.721 1.673 8066
1.416 2.719 1.661 8394
1.422 2.729 1.655 6646
1.512 2.903 1.742 4609
1.530 2.938 1.750 5020
1.543 2.961 1.751 6968
1.489 2.858 1.682 6628
1.501 2.881 1.683 7171
1.516 2.911 1.688 7651
1.528 2.934 1.689 7438
1.573 3.020 1.723 9107
1.575 3.024 1.713 10831
1.581 3.035 1.707 8464
1.619 3.109 1.734 6636
1.618 3.106 1.720 5108
1.610 3.091 1.700 3971
1.619 3.108 1.697 4075
1.634 3.138 1.700 5365
1.637 3.142 1.689 7312
1.659 3.184 1.698 7085
1.667 3.201 1.694 9317
1.673 3.212 1.687 9020
1.675 3.216 1.677 14192
1.677 3.220 1.666 20341
1.676 3.217 1.653 22785
1.685 3.234 1.649 26573
1.693 3.251 1.644 28564
1.702 3.268 1.640 27685
1.697 3.259 1.623 30597
1.699 3.262 1.612 26695
1.698 3.260 1.599 19987
1.700 3.264 1.588 18587
1.709 3.280 1.584 14216
1.711 3.284 1.573 9297
1.712 3.288 1.562 4957
1.882 3.612 1.691 5575
1.894 3.636 1.688 9144
1.899 3.647 1.679 8860
1.912 3.670 1.676 6285
1.921 3.687 1.669 7486
1.930 3.705 1.663 8448
1.932 3.708 1.651 5896
1.968 3.778 1.666 7316
1.974 3.789 1.656 14092
1.979 3.799 1.646 15131
1.984 3.810 1.637 10183
1.997 3.834 1.632 7461
2.047 3.930 1.656 5839
2.049 3.934 1.643 6461
2.048 3.932 1.628 6084
2.046 3.929 1.612 7332
2.048 3.933 1.600 5768
2.158 4.143 1.664 4594
2.160 4.147 1.650 5547
2.159 4.144 1.634 5169
2.234 4.288 1.672 4176
2.236 4.292 1.658 3585
2.280 4.377 1.672 3745
2.282 4.381 1.658 4822
2.280 4.378 1.641 4160
2.342 4.496 1.666 3797
2.351 4.513 1.656 5446
2.349 4.510 1.639 3483
2.372 4.555 1.638 3562
2.374 4.559 1.623 5295
2.443 4.691 1.650 4355
2.445 4.694 1.635 5083
2.454 4.712 1.624 4930
2.463 4.729 1.613 3505
2.532 4.862 1.637 3416
2.538 4.872 1.623 5944
2.547 4.890 1.612 5228
2.570 4.934 1.608 5334
2.568 4.931 1.590 4432
2.567 4.928 1.572 5122
2.569 4.932 1.556 6586
2.567 4.929 1.538 9218
2.569 4.932 1.522 10715
2.571 4.936 1.506 10095
2.573 4.939 1.489 10018
2.578 4.949 1.475 8185
2.576 4.946 1.457 5419
2.948 5.660 1.630 2890
2.961 5.685 1.617 2168
3.038 5.832 1.635 4190
3.040 5.836 1.616 2810
3.088 5.929 1.620 3082
3.179 6.104 1.643 3213
3.178 6.101 1.621 4720
3.176 6.098 1.600 5003
3.175 6.095 1.578 3710
3.184 6.112 1.561 5988
3.189 6.123 1.543 7228
3.191 6.127 1.523 4300
3.387 6.502 1.586 4051
3.389 6.506 1.565 5395
3.405 6.537 1.550 4351
3.547 6.810 1.586 3958
3.549 6.813 1.564 3733
3.788 7.273 1.636 3499
3.790 7.277 1.612 6003
3.789 7.273 1.587 7111
3.783 7.263 1.560 4709
3.785 7.267 1.537 3015
3.798 7.291 1.517 4425
3.800 7.295 1.493 3890
4.307 8.269 1.647 3940
4.352 8.356 1.635 2854
4.354 8.359 1.608 3943
4.400 8.447 1.595 3263
4.391 8.429 1.564 3940
4.382 8.412 1.532 3249
4.416 8.478 1.515 2623
4.414 8.475 1.486 2815
4.409 8.464 1.456 2106
4.389 8.426 1.422 2129
4.387 8.422 1.394 1668
5.339 10.250 1.633 1474
5.344 10.261 1.601 1598
5.669 10.885 1.654 1450
5.668 10.881 1.617 1143
5.844 11.220 1.626 1097
5.853 11.238 1.591 1036
5.855 11.241 1.554 1192
5.854 11.238 1.516 1025
6.121 11.751 1.540 948
6.126 11.762 1.503 938
6.430 12.345 1.530 936
6.428 12.342 1.488 855
6.430 12.345 1.448 659
6.432 12.349 1.407 483
6.430 12.345 1.366 398
6.432 12.348 1.326 311
0.702 1.349 -0.010 264
0.702 1.348 -0.014 395
0.702 1.348 -0.018 573
0.702 1.347 -0.023 751
0.702 1.347 -0.027 751
0.701 1.347 -0.031 984
1.069 2.033 1.769 1753
1.071 2.037 1.762 3507
1.073 2.041 1.756 3507
1.076 2.046 1.749 3070
1.093 2.078 1.765 2813
1.098 2.088 1.763 4419
1.103 2.098 1.761 6211
1.105 2.102 1.754 6211
1.126 2.141 1.774 6560
1.143 2.174 1.790 8983
1.133 2.155 1.765 10258
1.136 2.159 1.758 11665
1.138 2.164 1.751 13336
1.140 2.168 1.744 15006
1.142 2.172 1.737 14413
1.144 2.176 1.730 14126
1.146 2.180 1.723 14556
1.152 2.190 1.720 10509
1.169 2.224 1.735 8175
1.171 2.228 1.728 7444
1.170 2.226 1.716 6905
1.173 2.230 1.709 5025
1.237 2.352 1.787 6936
1.239 2.357 1.779 7174
1.241 2.361 1.771 7413
1.244 2.365 1.764 5269
1.271 2.417 1.789 4003
1.254 2.385 1.757 4567
1.257 2.390 1.749 5612
1.259 2.394 1.741 6062
1.261 2.398 1.733 6511
1.279 2.432 1.746 6674
1.281 2.436 1.738 7413
1.290 2.452 1.738 9069
1.292 2.456 1.730 11324
1.297 2.467 1.726 12126
1.306 2.483 1.726 11789
1.311 2.493 1.722 10683
1.332 2.534 1.738 8299
1.344 2.556 1.741 9353
1.349 2.566 1.737 7848
1.352 2.570 1.728 6344
1.354 2.575 1.720 8510
1.359 2.585 1.716 12538
1.361 2.589 1.707 14278
1.360 2.587 1.695 12598
1.359 2.585 1.683 11642
1.361 2.589 1.674 10803
1.366 2.599 1.670 9572
1.369 2.603 1.661 8603
1.371 2.607 1.653 7863
1.425 2.710 1.703 6558
1.424 2.708 1.691 7443
1.426 2.712 1.682 7405
1.428 2.716 1.673 7153
1.430 2.720 1.664 6937
1.518 2.886 1.748 6647
1.520 2.891 1.738 5407
1.502 2.857 1.708 5615
1.554 2.955 1.751 6210
1.500 2.852 1.682 7088
1.512 2.875 1.683 7584
1.524 2.898 1.684 7062
1.546 2.940 1.695 6350
1.585 3.014 1.723 7868
1.587 3.018 1.713 9692
1.629 3.098 1.744 7796
1.631 3.102 1.734 8420
1.630 3.100 1.720 6797
1.629 3.098 1.707 5853
1.628 3.095 1.693 4996
1.640 3.119 1.693 4492
1.649 3.135 1.689 6174
1.668 3.172 1.695 6811
1.673 3.182 1.688 8405
1.679 3.192 1.681 7593
1.684 3.203 1.674 11062
1.686 3.207 1.663 18111
1.685 3.204 1.650 23177
1.694 3.221 1.645 26388
1.699 3.231 1.638 23894
1.718 3.268 1.643 19853
1.703 3.239 1.617 21877
1.705 3.243 1.606 20522
1.704 3.240 1.593 15642
1.709 3.250 1.585 13803
1.718 3.267 1.581 9740
1.723 3.277 1.573 5842
1.880 3.575 1.692 4641
1.896 3.605 1.691 5541
1.905 3.622 1.685 8718
1.907 3.626 1.673 8423
1.926 3.663 1.676 6111
1.935 3.680 1.669 7024
1.944 3.697 1.663 7131
1.991 3.786 1.686 4860
1.986 3.777 1.668 7808
1.988 3.781 1.656 15131
1.994 3.792 1.646 14860
1.999 3.802 1.637 9705
2.012 3.826 1.632 7291
2.017 3.836 1.622 5605
2.061 3.920 1.641 4884
2.060 3.917 1.625 4761
2.058 3.914 1.610 5814
2.060 3.918 1.597 4447
2.178 4.141 1.666 3756
2.173 4.132 1.648 4921
2.168 4.122 1.630 4823
2.243 4.266 1.667 3541
2.249 4.277 1.655 3448
2.237 4.254 1.632 3698
2.239 4.258 1.618 4652
2.241 4.262 1.604 3476
2.359 4.487 1.666 3474
2.368 4.504 1.656 4300
2.367 4.501 1.639 2964
2.397 4.559 1.642 2972
2.396 4.556 1.625 4570
2.394 4.553 1.608 3572
2.460 4.678 1.633 4124
2.473 4.702 1.624 4486
2.492 4.740 1.619 4144
2.516 4.784 1.616 4802
2.557 4.862 1.623 6246
2.534 4.819 1.593 6199
2.529 4.809 1.573 4853
2.566 4.880 1.578 4402
2.533 4.816 1.542 5121
2.531 4.813 1.524 6061
2.586 4.918 1.538 6271
2.588 4.922 1.522 8314
2.590 4.926 1.506 7192
2.592 4.929 1.489 6808
2.597 4.939 1.475 5555
2.596 4.936 1.457 3380
2.902 5.519 1.595 2561
3.058 5.816 1.654 2858
3.060 5.820 1.635 5079
3.062 5.824 1.616 3296
3.108 5.910 1.618 2895
3.120 5.934 1.604 2529
3.205 6.095 1.623 3889
3.200 6.086 1.600 4193
3.198 6.082 1.578 3230
3.208 6.100 1.561 4903
3.213 6.110 1.543 5426
3.215 6.114 1.523 2876
3.408 6.482 1.585 3347
3.414 6.492 1.565 4721
3.430 6.524 1.550 4249
3.573 6.796 1.586 4893
3.575 6.799 1.564 4683
3.581 6.810 1.543 3487
3.818 7.262 1.612 4515
3.813 7.252 1.586 5701
3.808 7.242 1.559 4076
3.813 7.252 1.537 2466
3.826 7.276 1.517 3096
3.828 7.280 1.493 2838
3.990 7.588 1.525 3465
3.988 7.584 1.499 3042
4.387 8.342 1.608 2812
4.425 8.415 1.592 3256
4.420 8.405 1.562 4634
4.414 8.395 1.532 4191
4.416 8.399 1.505 3283
4.429 8.423 1.481 3337
4.424 8.413 1.451 3567
4.422 8.409 1.422 3519
4.420 8.405 1.394 2548
4.421 8.408 1.366 1614
5.384 10.240 1.601 1761
5.368 10.209 1.562 1668
5.370 10.212 1.529 1279
5.891 11.204 1.627 1085
5.897 11.215 1.591 1057
5.899 11.219 1.554 1151
5.901 11.222 1.517 963
6.474 12.313 1.611 849
6.476 12.316 1.570 1003
6.478 12.320 1.530 1063
6.476 12.317 1.488 955
6.478 12.320 1.448 762
6.484 12.330 1.408 588
6.482 12.327 1.367 451
6.483 12.330 1.326 321
0.932 1.772 -0.053 298
0.931 1.771 -0.059 416
0.931 1.771 -0.064 474
0.707 1.345 -0.018 549
0.707 1.345 -0.023 697
0.707 1.344 -0.027 697
0.707 1.344 -0.031 926
1.080 2.034 1.773 2213
1.082 2.039 1.767 4426
1.084 2.043 1.760 4426
1.084 2.041 1.749 3695
1.098 2.068 1.761 3028
1.103 2.078 1.759 4175
1.108 2.088 1.756 5569
1.111 2.092 1.750 5569
1.131 2.131 1.770 5831
1.139 2.147 1.772 8063
1.139 2.145 1.761 9763
1.141 2.149 1.754 11484
1.146 2.159 1.751 13550
1.148 2.163 1.744 15716
1.151 2.167 1.737 14870
1.153 2.172 1.730 14280
1.155 2.176 1.723 14591
1.160 2.186 1.720 10408
1.178 2.219 1.735 8332
1.180 2.223 1.728 7307
1.179 2.221 1.716 6486
1.231 2.320 1.777 6075
1.240 2.336 1.778 7597
1.245 2.346 1.775 7572
1.251 2.356 1.771 7834
1.253 2.360 1.764 5753
1.261 2.376 1.764 3991
1.260 2.375 1.753 4658
1.256 2.367 1.737 5547
1.262 2.377 1.733 5973
1.264 2.381 1.725 6418
1.285 2.421 1.742 6579
1.291 2.431 1.738 7798
1.296 2.441 1.734 9568
1.301 2.451 1.730 12131
1.307 2.462 1.726 12882
1.312 2.472 1.722 12051
1.321 2.488 1.722 10489
1.342 2.528 1.738 8301
1.354 2.551 1.741 9412
1.356 2.555 1.733 8175
1.352 2.547 1.717 6971
1.364 2.569 1.720 9039
1.369 2.579 1.716 12718
1.371 2.583 1.707 14118
1.370 2.581 1.695 11701
1.366 2.573 1.679 10077
1.371 2.583 1.674 9227
1.377 2.593 1.670 7918
1.379 2.597 1.661 6878
1.381 2.601 1.653 6105
1.432 2.698 1.699 6074
1.434 2.702 1.691 7178
1.436 2.706 1.682 6913
1.439 2.710 1.673 6093
1.520 2.864 1.750 5937
1.526 2.874 1.744 6625
1.525 2.872 1.731 6341
1.517 2.857 1.711 7246
1.519 2.861 1.702 7026
1.521 2.865 1.693 7046
1.526 2.876 1.687 7331
1.532 2.886 1.681 6599
1.574 2.966 1.712 6560
1.586 2.989 1.713 7349
1.592 2.999 1.707 9238
1.641 3.092 1.744 8516
1.643 3.096 1.734 9847
1.642 3.094 1.720 8276
1.641 3.091 1.707 7449
1.640 3.089 1.693 6009
1.642 3.093 1.683 4254
1.661 3.129 1.689 4752
1.680 3.165 1.695 6453
1.682 3.169 1.685 8146
1.688 3.179 1.678 8140
1.690 3.183 1.667 9867
1.695 3.194 1.660 15294
1.697 3.198 1.650 22288
1.703 3.208 1.642 25519
1.708 3.218 1.635 20986
1.710 3.222 1.624 15277
1.712 3.226 1.614 17205
1.711 3.223 1.600 17086
1.713 3.227 1.590 13439
1.718 3.237 1.582 10668
1.789 3.371 1.630 8488
1.878 3.537 1.692 5602
1.890 3.561 1.689 5130
1.903 3.585 1.686 5574
1.919 3.615 1.685 7694
1.917 3.612 1.671 7261
1.944 3.662 1.678 5070
1.953 3.679 1.672 5316
1.958 3.689 1.663 5249
2.009 3.785 1.689 4425
2.004 3.776 1.671 8259
2.003 3.773 1.656 15206
2.009 3.784 1.646 13472
2.014 3.794 1.637 8150
2.027 3.818 1.632 6264
2.032 3.828 1.622 5404
2.073 3.905 1.638 3727
2.075 3.909 1.625 3466
2.073 3.906 1.610 4092
2.142 4.036 1.645 3720
2.194 4.133 1.666 3336
2.185 4.117 1.645 4764
2.237 4.214 1.666 4983
2.246 4.231 1.657 3463
2.220 4.181 1.624 3632
2.236 4.212 1.620 4367
2.252 4.242 1.616 5498
2.254 4.246 1.602 4395
2.260 4.257 1.590 3155
2.382 4.488 1.654 2964
2.381 4.485 1.637 2551
2.419 4.556 1.645 2353
2.417 4.553 1.628 3737
2.430 4.577 1.619 3596
2.442 4.601 1.611 3092
2.494 4.699 1.626 3893
2.511 4.730 1.619 4880
2.534 4.774 1.616 6013
2.543 4.792 1.605 7228
2.545 4.795 1.589 7023
2.544 4.792 1.571 6927
2.546 4.796 1.556 7489
2.551 4.806 1.542 7918
2.550 4.803 1.524 11382
2.551 4.807 1.508 11073
2.561 4.824 1.497 7534
2.562 4.827 1.481 6284
2.874 5.415 1.627 4265
2.884 5.432 1.613 3899
2.886 5.436 1.595 2857
3.032 5.712 1.650 2461
3.012 5.675 1.620 3112
3.083 5.808 1.635 4976
3.085 5.812 1.616 3322
3.131 5.898 1.618 2166
3.093 5.826 1.580 2171
3.098 5.837 1.562 2695
3.108 5.854 1.547 3112
3.226 6.077 1.580 2454
3.231 6.087 1.561 3653
3.241 6.105 1.545 3810
3.239 6.101 1.523 1826
3.430 6.462 1.583 2641
3.439 6.479 1.565 3676
3.456 6.510 1.550 3558
3.596 6.775 1.585 5079
3.602 6.785 1.564 4884
3.604 6.789 1.542 3431
3.967 7.474 1.659 3930
3.962 7.464 1.631 4127
3.964 7.468 1.607 3058
4.003 7.540 1.596 3410
4.001 7.537 1.570 3812
4.014 7.562 1.549 3308
4.019 7.572 1.525 4408
4.018 7.569 1.499 4371
4.016 7.565 1.473 3149
4.443 8.370 1.588 3366
4.449 8.381 1.561 4785
4.447 8.378 1.532 4419
4.449 8.381 1.505 4031
4.455 8.392 1.479 4472
4.456 8.395 1.451 4896
4.454 8.392 1.422 4669
4.453 8.388 1.394 3227
4.454 8.391 1.366 2035
5.428 10.226 1.602 1726
5.408 10.188 1.562 1957
5.410 10.191 1.529 1572
5.648 10.639 1.554 1170
5.937 11.185 1.590 952
6.183 11.647 1.611 963
6.310 11.887 1.602 865
6.312 11.891 1.563 1086
6.524 12.291 1.570 986
6.526 12.295 1.530 1011
6.524 12.291 1.488 956
6.530 12.302 1.449 816
6.535 12.312 1.409 675
6.537 12.315 1.368 496
6.535 12.311 1.327 312
0.950 1.790 -0.038 266
0.946 1.783 -0.043 353
0.946 1.782 -0.049 353
0.946 1.782 -0.055 344
0.949 1.788 -0.061 337
0.945 1.781 -0.066 390
0.945 1.780 -0.072 444
0.945 1.780 -0.078 643
0.944 1.779 -0.083 843
0.944 1.779 -0.089 1053
1.088 2.030 1.773 3021
1.090 2.034 1.767 6042
1.092 2.039 1.760 6042
1.098 2.048 1.758 5000
1.103 2.058 1.756 4019
1.108 2.068 1.754 4468
1.113 2.078 1.752 5116
1.116 2.082 1.745 5116
1.133 2.115 1.761 5340
1.142 2.131 1.763 7112
1.147 2.141 1.761 8827
1.149 2.145 1.754 10589
1.155 2.155 1.751 12839
1.157 2.159 1.744 15365
1.159 2.163 1.737 14516
1.161 2.167 1.730 13877
1.163 2.171 1.723 14102
1.166 2.175 1.716 10049
1.190 2.220 1.739 8428
1.223 2.283 1.775 7209
1.222 2.281 1.763 7518
1.231 2.297 1.764 7853
1.239 2.313 1.765 8946
1.251 2.335 1.771 8063
1.260 2.351 1.771 8497
1.262 2.355 1.764 6510
1.271 2.371 1.764 4880
1.263 2.358 1.744 5052
1.262 2.356 1.732 5880
1.268 2.366 1.729 5987
1.270 2.370 1.721 6242
1.295 2.416 1.742 6330
1.297 2.420 1.734 7969
1.305 2.436 1.734 9616
1.311 2.446 1.730 12146
1.316 2.456 1.726 12823
1.322 2.467 1.722 11827
1.330 2.483 1.722 10007
1.352 2.523 1.738 7967
1.364 2.546 1.741 9015
1.363 2.544 1.729 8174
1.362 2.542 1.717 7606
1.371 2.558 1.716 8635
1.376 2.568 1.712 11315
1.381 2.578 1.707 12446
1.380 2.576 1.695 10203
1.376 2.568 1.679 8550
1.385 2.584 1.678 8173
1.387 2.588 1.670 6770
1.389 2.592 1.661 5244
1.394 2.602 1.657 4523
1.443 2.693 1.699 5069
1.442 2.690 1.687 6336
1.447 2.700 1.682 6022
1.519 2.835 1.748 5141
1.531 2.858 1.750 5141
1.537 2.868 1.744 6265
1.526 2.847 1.721 7226
1.528 2.851 1.711 8125
1.530 2.855 1.702 7470
1.562 2.916 1.724 6959
1.571 2.933 1.721 8613
1.580 2.949 1.719 8726
1.586 2.960 1.712 8033
1.591 2.970 1.706 7503
1.600 2.987 1.703 9127
1.650 3.079 1.740 8060
1.655 3.090 1.734 10049
1.658 3.094 1.723 8715
1.653 3.085 1.707 8013
1.652 3.083 1.693 6472
1.651 3.080 1.680 4222
1.670 3.116 1.686 3684
1.689 3.152 1.692 6072
1.695 3.162 1.685 8135
1.700 3.173 1.678 8711
1.706 3.183 1.671 9295
1.711 3.193 1.663 12759
1.713 3.197 1.653 20331
1.715 3.201 1.642 23227
1.721 3.212 1.635 18059
1.719 3.209 1.621 12885
1.721 3.213 1.611 13752
1.724 3.217 1.600 14021
1.726 3.220 1.590 11043
1.731 3.230 1.582 8165
1.802 3.364 1.630 7321
1.892 3.530 1.692 5856
1.904 3.554 1.689 5173
1.913 3.571 1.683 5773
1.929 3.601 1.682 6934
1.928 3.598 1.668 6747
1.958 3.654 1.678 4584
1.995 3.724 1.694 4483
2.025 3.780 1.704 4411
2.024 3.777 1.689 4427
2.023 3.775 1.674 8423
2.021 3.772 1.659 14055
2.023 3.776 1.646 11041
2.029 3.786 1.637 5646
2.102 3.922 1.677 4821
2.100 3.919 1.661 4611
2.049 3.824 1.610 3166
2.154 4.020 1.671 4850
2.152 4.017 1.655 5606
2.158 4.027 1.645 5295
2.164 4.038 1.634 4539
2.247 4.194 1.677 5080
2.246 4.192 1.661 7396
2.245 4.189 1.645 6264
2.239 4.179 1.627 5570
2.245 4.190 1.615 5662
2.258 4.214 1.609 5956
2.256 4.211 1.592 4878
2.273 4.241 1.588 3404
2.357 4.399 1.627 3010
2.355 4.396 1.610 2548
2.443 4.560 1.649 2315
2.445 4.564 1.634 3686
2.451 4.574 1.621 4310
2.457 4.585 1.609 3154
2.524 4.710 1.632 4054
2.529 4.720 1.619 5432
2.553 4.764 1.616 6408
2.558 4.775 1.603 7212
2.560 4.779 1.587 6718
2.562 4.782 1.571 8709
2.564 4.786 1.556 10753
2.570 4.796 1.542 9997
2.572 4.800 1.526 15491
2.570 4.797 1.508 16297
2.576 4.807 1.495 10003
2.581 4.817 1.481 7479
2.892 5.397 1.625 5629
2.901 5.414 1.611 4866
2.907 5.425 1.595 2823
3.058 5.707 1.652 2549
3.031 5.656 1.619 3129
3.106 5.796 1.635 3975
3.108 5.800 1.616 2871
3.033 5.661 1.561 2096
3.112 5.808 1.578 1740
3.125 5.832 1.564 3110
3.134 5.849 1.548 4407
3.136 5.853 1.529 3308
3.259 6.082 1.563 2459
3.268 6.099 1.546 2595
3.471 6.479 1.612 1514
3.620 6.756 1.653 2186
3.475 6.486 1.570 2712
3.617 6.750 1.605 2814
3.623 6.761 1.585 4578
3.628 6.771 1.564 4542
3.991 7.448 1.682 3689
3.996 7.458 1.659 6038
3.995 7.455 1.633 6242
3.993 7.452 1.607 4611
4.032 7.525 1.596 4972
4.030 7.522 1.570 4960
4.043 7.546 1.549 3834
4.049 7.556 1.525 4875
4.043 7.546 1.498 5337
4.045 7.550 1.473 4222
4.476 8.353 1.588 3097
4.481 8.364 1.561 4321
4.480 8.360 1.532 4150
4.482 8.364 1.505 4228
4.487 8.374 1.479 5006
4.489 8.378 1.451 5493
4.487 8.374 1.422 5123
4.485 8.371 1.394 3400
4.487 8.374 1.366 2164
5.449 10.170 1.597 1632
5.448 10.167 1.562 2109
5.449 10.170 1.529 1774
5.693 10.624 1.555 1276
5.851 10.919 1.558 1057
6.224 11.616 1.610 1047
6.360 11.869 1.603 1062
6.358 11.866 1.563 1285
6.360 11.870 1.524 1013
6.570 12.262 1.529 905
6.572 12.266 1.488 854
6.582 12.283 1.449 766
6.591 12.300 1.410 710
6.593 12.303 1.370 534
6.590 12.300 1.328 307
0.961 1.793 -0.039 318
0.961 1.793 -0.045 410
0.960 1.793 -0.050 410
0.960 1.792 -0.056 444
0.960 1.792 -0.062 479
0.956 1.784 -0.067 416
0.956 1.784 -0.073 358
0.718 1.339 -0.023 290
0.717 1.339 -0.027 290
0.717 1.338 -0.031 395
1.096 2.026 1.773 3907
1.098 2.030 1.767 7815
1.100 2.034 1.760 7815
1.106 2.044 1.758 6532
1.108 2.048 1.752 5269
1.113 2.058 1.749 4924
1.119 2.068 1.747 4811
1.121 2.072 1.741 4811
1.142 2.110 1.761 4976
1.147 2.120 1.759 6334
1.152 2.130 1.756 7317
1.158 2.140 1.754 8770
1.163 2.150 1.751 11200
1.165 2.154 1.744 13930
1.168 2.158 1.737 13303
1.170 2.162 1.730 12842
1.172 2.166 1.723 13018
1.174 2.171 1.716 9305
1.199 2.215 1.739 8408
1.232 2.278 1.775 8678
1.231 2.276 1.763 9541
1.237 2.286 1.760 9840
1.246 2.302 1.761 10546
1.257 2.324 1.766 8445
1.269 2.346 1.771 9048
1.275 2.356 1.768 7166
1.280 2.366 1.764 5753
1.273 2.353 1.744 5272
1.269 2.345 1.728 6028
1.274 2.355 1.725 5927
1.279 2.365 1.721 6039
1.301 2.405 1.738 5974
1.306 2.415 1.734 8139
1.315 2.431 1.734 9371
1.321 2.441 1.730 11630
1.326 2.451 1.726 12157
1.332 2.461 1.722 11063
1.337 2.471 1.718 9137
1.362 2.518 1.738 7473
1.374 2.540 1.741 8585
1.373 2.538 1.729 8196
1.375 2.542 1.721 7952
1.381 2.552 1.716 7955
1.386 2.562 1.712 9050
1.392 2.573 1.707 9797
1.391 2.570 1.695 8170
1.389 2.568 1.683 6597
1.395 2.578 1.678 6760
1.404 2.595 1.677 5315
1.469 2.716 1.739 3743
1.415 2.615 1.668 3334
1.453 2.687 1.699 3867
1.499 2.771 1.738 5340
1.508 2.788 1.736 5083
1.527 2.823 1.745 4902
1.536 2.839 1.743 4614
1.548 2.862 1.744 5782
1.534 2.835 1.717 7478
1.536 2.839 1.708 7901
1.545 2.856 1.706 6910
1.581 2.922 1.731 7701
1.590 2.939 1.728 10329
1.595 2.949 1.722 10717
1.598 2.953 1.712 9270
1.600 2.957 1.703 7879
1.609 2.974 1.700 8936
1.611 2.978 1.690 7766
1.668 3.083 1.734 9267
1.670 3.087 1.723 7969
1.662 3.072 1.704 7338
1.664 3.076 1.693 6212
1.663 3.074 1.680 4403
1.668 3.084 1.673 3616
1.698 3.139 1.689 5492
1.707 3.156 1.685 7784
1.716 3.172 1.681 8862
1.722 3.183 1.674 9478
1.727 3.193 1.666 11235
1.729 3.197 1.656 17118
1.732 3.201 1.645 19634
1.734 3.205 1.635 14260
1.732 3.202 1.621 9759
1.734 3.206 1.611 10070
1.736 3.210 1.600 10241
1.738 3.213 1.590 8113
1.744 3.224 1.582 5949
1.760 3.253 1.584 5689
1.902 3.516 1.689 5958
1.901 3.514 1.674 5516
1.927 3.563 1.683 6223
1.937 3.580 1.677 6743
1.939 3.584 1.665 6314
1.937 3.581 1.651 3683
2.006 3.709 1.691 4691
2.009 3.713 1.679 5101
2.039 3.769 1.689 4726
2.038 3.767 1.674 7929
2.040 3.771 1.661 11768
2.042 3.774 1.649 8189
2.080 3.844 1.663 3469
2.121 3.920 1.679 4331
2.119 3.918 1.664 4480
2.189 4.047 1.700 3342
2.170 4.011 1.671 6286
2.168 4.008 1.655 7036
2.174 4.019 1.645 6467
2.180 4.029 1.634 5513
2.261 4.179 1.675 6149
2.263 4.183 1.661 10179
2.261 4.180 1.645 9590
2.256 4.170 1.627 7669
2.262 4.181 1.615 6593
2.271 4.198 1.606 6281
2.273 4.202 1.592 5449
2.282 4.219 1.583 3372
2.371 4.382 1.624 3940
2.376 4.393 1.612 3457
2.462 4.550 1.649 2369
2.464 4.554 1.634 4040
2.469 4.565 1.621 4940
2.471 4.568 1.606 3516
2.546 4.706 1.634 4307
2.548 4.710 1.619 5444
2.572 4.754 1.616 6322
2.578 4.765 1.603 6537
2.576 4.762 1.585 5803
2.582 4.772 1.571 8688
2.587 4.782 1.558 12192
2.589 4.786 1.542 10366
2.591 4.790 1.526 16893
2.589 4.786 1.508 19274
2.595 4.797 1.495 11268
2.597 4.800 1.479 7035
2.917 5.392 1.627 5928
2.923 5.402 1.611 5274
2.840 5.250 1.551 2892
3.081 5.695 1.652 2256
3.042 5.624 1.613 3218
3.052 5.641 1.598 3360
3.065 5.665 1.585 2687
3.056 5.649 1.561 2040
3.061 5.659 1.544 1187
3.152 5.826 1.566 3314
3.157 5.836 1.548 5348
3.159 5.840 1.529 4297
3.161 5.844 1.510 2288
3.488 6.447 1.630 2242
3.494 6.458 1.611 2051
3.643 6.735 1.651 2000
3.742 6.916 1.669 2673
3.736 6.907 1.643 3022
3.646 6.739 1.583 3809
3.652 6.750 1.562 3835
4.020 7.432 1.682 4645
4.026 7.442 1.659 7646
4.025 7.439 1.633 7847
4.023 7.436 1.607 5780
4.066 7.516 1.597 6259
4.060 7.505 1.570 5734
