-3.817 9.222 1.218 3473
-3.818 9.225 1.189 2488
-3.804 9.192 1.156 2096
-3.808 9.202 1.128 1817
-4.087 9.874 1.169 2644
-4.088 9.877 1.138 3526
-4.095 9.894 1.108 2704
-4.165 10.064 1.093 3649
-4.166 10.067 1.061 4173
-4.167 10.069 1.030 3760
-4.168 10.072 0.998 3690
-4.230 10.220 0.978 3658
-4.234 10.229 0.947 3280
-4.228 10.217 0.914 2727
-4.972 12.014 1.013 2560
-4.970 12.009 0.974 2505
-4.968 12.004 0.936 2324
-4.972 12.013 0.899 2452
-4.976 12.023 0.861 2476
-4.977 12.025 0.823 2288
-4.977 12.026 0.786 1663
-1.210 2.924 0.285 1452
-1.210 2.924 0.276 1459
-1.210 2.925 0.267 1299
-1.211 2.925 0.258 1178
-7.410 17.904 0.820 1125
-7.414 17.913 0.764 1276
-7.411 17.908 0.707 1261
-7.409 17.902 0.651 1164
-7.410 17.903 0.594 1056
-7.407 17.897 0.538 912
-7.407 17.898 0.481 772
-7.408 17.899 0.425 600
-7.390 17.855 0.368 450
-7.429 17.951 0.313 385
-7.418 17.922 0.256 353
-7.406 17.893 0.199 403
-7.409 17.901 0.143 348
-1.111 2.685 0.073 339
-1.111 2.685 0.065 451
-1.114 2.692 0.056 552
-1.114 2.692 0.048 719
-1.114 2.691 0.040 782
-1.111 2.684 0.032 780
-1.446 3.495 -0.013 1169
-1.446 3.494 -0.023 1458
-1.446 3.494 -0.034 1747
-1.446 3.493 -0.045 2036
-1.443 3.486 -0.056 2219
-1.442 3.485 -0.066 2418
-1.442 3.484 -0.077 2439
-1.445 3.491 -0.089 2445
-1.445 3.490 -0.100 2419
-1.444 3.490 -0.110 2242
-1.444 3.489 -0.121 2065
-1.444 3.488 -0.132 1776
-1.443 3.488 -0.143 1487
-1.443 3.487 -0.154 1198
-1.446 3.493 -0.165 932
-1.445 3.493 -0.176 687
-1.442 3.484 -0.186 445
-1.442 3.484 -0.197 299
-1.001 2.419 -0.176 302
-0.813 1.973 1.630 3118
-0.815 1.977 1.624 6236
-0.817 1.981 1.617 6236
-0.823 1.997 1.620 5395
-0.842 2.043 1.646 5787
-0.834 2.023 1.622 7565
-0.836 2.027 1.615 9584
-0.837 2.031 1.609 9064
-0.839 2.035 1.603 8544
-0.841 2.039 1.597 8544
-0.845 2.049 1.595 7001
-0.851 2.065 1.597 5748
-0.858 2.081 1.600 7054
-0.862 2.091 1.598 9045
-0.866 2.101 1.596 8164
-0.870 2.111 1.593 7529
-0.872 2.115 1.587 7447
-0.874 2.119 1.580 7364
-0.883 2.142 1.587 7043
-0.884 2.146 1.580 7499
-0.889 2.156 1.578 7918
-0.895 2.172 1.579 8500
-0.905 2.194 1.585 9998
-0.914 2.217 1.591 9003
-0.918 2.227 1.588 8751
-0.933 2.262 1.602 7931
-0.939 2.279 1.603 9863
-0.941 2.283 1.596 9165
-0.979 2.374 1.646 8621
-0.983 2.385 1.643 9628
-0.987 2.395 1.640 11270
-0.992 2.405 1.636 11256
-0.993 2.409 1.629 11441
-0.997 2.420 1.625 8845
-1.028 2.494 1.661 7203
-1.027 2.491 1.650 6693
-1.002 2.432 1.603 6517
-1.004 2.436 1.595 7490
-1.008 2.446 1.592 5901
-1.010 2.450 1.584 4337
-1.077 2.614 1.672 3432
-1.071 2.599 1.653 3949
-1.076 2.609 1.649 5107
-1.053 2.555 1.607 6575
-1.055 2.559 1.599 8261
-1.057 2.563 1.591 6990
-1.066 2.587 1.594 4431
-1.081 2.623 1.604 3693
-1.088 2.640 1.604 5056
-1.090 2.644 1.595 6269
-1.094 2.654 1.591 6698
-1.104 2.678 1.593 8278
-1.108 2.688 1.589 9037
-1.112 2.698 1.584 7201
-1.163 2.820 1.639 9355
-1.164 2.824 1.631 11639
-1.158 2.809 1.611 13761
-1.159 2.812 1.603 15295
-1.164 2.823 1.597 14086
-1.165 2.827 1.589 11246
-1.181 2.864 1.597 7637
-1.185 2.874 1.592 6984
-1.173 2.845 1.566 5224
-1.218 2.955 1.611 5261
-1.233 2.992 1.618 10993
-1.232 2.990 1.606 15721
-1.228 2.980 1.590 16384
-1.227 2.977 1.577 13884
-1.234 2.995 1.574 8496
-1.264 3.065 1.597 8780
-1.268 3.076 1.591 8731
-1.278 3.100 1.591 6736
-1.291 3.131 1.594 5264
-1.292 3.135 1.584 5782
-1.288 3.125 1.568 7877
-1.290 3.129 1.559 9135
-1.291 3.133 1.549 8358
-1.296 3.143 1.542 8060
-1.300 3.154 1.536 8796
-1.316 3.191 1.541 8310
-1.323 3.209 1.537 5754
-1.358 3.294 1.563 6815
-1.359 3.298 1.553 7515
-1.367 3.315 1.548 6872
-1.376 3.339 1.547 8891
-1.381 3.350 1.539 10524
-1.382 3.354 1.529 8320
-1.390 3.371 1.524 8324
-1.391 3.375 1.513 11382
-1.393 3.378 1.503 11124
-1.439 3.492 1.537 6309
-1.441 3.495 1.526 7171
-1.465 3.554 1.537 6430
-1.467 3.558 1.526 6435
-1.471 3.569 1.518 5151
-1.453 3.524 1.488 4966
-1.511 3.666 1.530 3613
-1.513 3.669 1.519 6367
-1.520 3.687 1.512 6365
-1.498 3.635 1.480 6431
-1.503 3.646 1.471 6231
-1.561 3.788 1.511 4889
-1.566 3.799 1.502 5746
-1.567 3.802 1.490 5558
-1.563 3.792 1.473 4677
-1.599 3.879 1.491 3609
-1.606 3.897 1.483 4525
-1.602 3.886 1.466 4425
-1.641 3.980 1.485 4049
-1.642 3.984 1.473 5987
-1.641 3.981 1.458 5056
-1.648 3.998 1.450 3568
-1.690 4.100 1.470 3800
-1.700 4.124 1.464 4677
-1.702 4.128 1.451 5725
-1.703 4.131 1.439 4719
-1.733 4.205 1.448 3188
-1.735 4.209 1.435 3502
-1.742 4.226 1.426 5349
-1.744 4.230 1.413 5286
-1.757 4.261 1.408 3826
-1.813 4.399 1.435 6327
-1.815 4.402 1.421 5080
-1.813 4.399 1.405 4583
-1.899 4.607 1.450 4580
-1.901 4.611 1.436 4149
-1.896 4.600 1.418 6322
-1.898 4.604 1.403 8245
-1.902 4.614 1.391 7411
-1.912 4.639 1.382 5598
-1.969 4.777 1.404 4405
-1.988 4.823 1.400 4264
-2.019 4.898 1.404 4714
-2.023 4.908 1.390 5128
-2.069 5.018 1.402 4171
-2.076 5.036 1.390 5004
-2.086 5.061 1.379 5231
-2.088 5.064 1.364 6080
-2.089 5.067 1.348 3698
-2.152 5.221 1.368 2856
-2.153 5.224 1.351 2201
-2.273 5.514 1.401 2903
-2.271 5.510 1.382 4378
-2.273 5.513 1.365 4728
-2.274 5.516 1.348 3678
-2.314 5.613 1.351 2465
-2.312 5.609 1.332 2428
-2.322 5.634 1.319 2185
-2.383 5.781 1.331 3364
-2.384 5.784 1.313 3766
-2.380 5.773 1.292 3241
-2.378 5.768 1.272 2579
-2.474 6.002 1.299 2587
-2.481 6.020 1.283 2758
-2.492 6.044 1.268 2422
-2.656 6.444 1.323 2817
-2.655 6.440 1.301 3527
-2.647 6.421 1.277 3308
-2.645 6.417 1.256 2841
-2.673 6.485 1.247 2379
-2.728 6.618 1.249 2292
-2.732 6.629 1.229 1985
-2.814 6.827 1.240 1881
-2.815 6.830 1.219 2301
-3.106 7.535 1.307 2790
-3.108 7.539 1.283 4432
-3.106 7.534 1.259 6290
-3.104 7.530 1.234 7655
-3.105 7.533 1.210 8871
-3.109 7.543 1.188 8713
-3.111 7.546 1.164 6674
-3.109 7.541 1.139 4147
-3.116 7.559 1.118 3407
-3.114 7.554 1.093 3414
-3.166 7.680 1.085 3238
-3.167 7.683 1.061 2966
-3.804 9.228 1.218 3384
-3.808 9.238 1.190 2524
-3.794 9.204 1.157 1996
-3.798 9.214 1.128 1696
-4.073 9.880 1.169 2586
-4.074 9.883 1.138 3361
-4.138 10.038 1.122 2740
-4.148 10.063 1.092 3583
-4.152 10.073 1.061 3983
-4.153 10.075 1.030 3671
-4.154 10.077 0.998 3742
-4.215 10.226 0.978 3709
-4.219 10.235 0.947 3315
-4.214 10.223 0.914 2751
-4.955 12.021 1.013 2514
-4.953 12.016 0.974 2570
-4.951 12.011 0.936 2540
-4.955 12.021 0.899 2634
-4.959 12.030 0.861 2546
-4.960 12.032 0.823 2305
-4.960 12.034 0.786 1671
-1.206 2.926 0.285 1368
-1.206 2.926 0.276 1629
-1.203 2.919 0.267 1683
-1.203 2.919 0.258 1673
-1.204 2.920 0.249 1560
-1.204 2.920 0.239 1341
-1.204 2.920 0.230 1235
-7.384 17.912 0.651 1174
-7.384 17.913 0.594 1143
-7.385 17.915 0.538 1028
-7.385 17.916 0.482 913
-7.382 17.909 0.425 644
-7.365 17.866 0.368 591
-7.362 17.859 0.312 514
-7.365 17.867 0.255 470
-7.368 17.874 0.199 435
-7.377 17.896 0.143 373
-7.383 17.911 0.087 278
-1.107 2.686 0.065 270
-1.107 2.686 0.057 335
-1.110 2.693 0.048 463
-1.107 2.686 0.040 523
-1.107 2.685 0.032 562
-1.107 2.685 0.023 601
-1.441 3.496 -0.023 686
-1.441 3.496 -0.034 867
-1.441 3.495 -0.045 1047
-1.441 3.495 -0.056 1176
-1.440 3.494 -0.067 1305
-1.440 3.494 -0.078 1328
-1.440 3.493 -0.089 1339
-1.440 3.493 -0.100 1327
-1.439 3.492 -0.110 1226
-1.439 3.491 -0.121 1125
-1.439 3.490 -0.132 964
-1.439 3.490 -0.143 803
-1.438 3.489 -0.154 646
-1.441 3.495 -0.165 498
-1.441 3.495 -0.176 366
-0.768 1.874 1.551 3124
-0.770 1.877 1.545 6248
-0.764 1.863 1.526 5372
-0.829 2.023 1.639 4944
-0.836 2.039 1.642 5731
-0.832 2.031 1.626 7564
-0.834 2.035 1.620 9644
-0.833 2.033 1.609 9250
-0.835 2.037 1.603 8904
-0.837 2.041 1.597 8904
-0.838 2.045 1.590 7449
-0.837 2.042 1.580 6097
-0.849 2.071 1.591 5869
-0.858 2.093 1.598 7120
-0.860 2.097 1.591 6656
-0.866 2.113 1.593 6340
-0.865 2.111 1.583 7400
-0.867 2.115 1.576 8471
-0.871 2.125 1.574 7934
-0.875 2.135 1.572 8406
-0.877 2.139 1.565 9083
-0.894 2.180 1.584 8882
-0.900 2.196 1.585 10387
-0.909 2.219 1.591 9212
-0.911 2.223 1.584 8829
-0.928 2.264 1.602 7920
-0.935 2.280 1.603 10267
-0.936 2.284 1.596 9706
-0.941 2.295 1.593 9145
-0.978 2.387 1.643 9097
-0.983 2.397 1.640 10476
-0.987 2.407 1.636 10244
-0.988 2.411 1.629 10170
-0.993 2.422 1.625 7903
-1.023 2.496 1.661 7278
-1.019 2.487 1.646 6991
-1.000 2.440 1.607 7312
-1.002 2.444 1.599 8300
-1.003 2.448 1.592 6624
-1.005 2.452 1.584 4947
-1.007 2.456 1.577 3260
-1.048 2.556 1.626 4109
-1.041 2.541 1.607 5103
-1.046 2.551 1.603 6750
-1.050 2.561 1.599 8513
-1.052 2.565 1.591 7092
-1.058 2.582 1.590 4093
-1.079 2.631 1.608 3790
-1.086 2.648 1.607 5602
-1.085 2.646 1.595 6848
-1.089 2.656 1.591 6965
-1.096 2.673 1.590 7245
-1.138 2.775 1.635 8159
-1.142 2.786 1.630 6380
-1.157 2.822 1.639 9296
-1.156 2.820 1.627 12496
-1.155 2.817 1.615 14458
-1.156 2.821 1.606 15434
-1.158 2.825 1.597 14316
-1.160 2.829 1.589 11647
-1.169 2.853 1.590 7961
-1.174 2.863 1.585 7000
-1.167 2.848 1.566 5419
-1.212 2.957 1.611 6135
-1.225 2.988 1.615 11249
-1.226 2.992 1.606 15771
-1.223 2.983 1.590 16728
-1.221 2.980 1.577 14675
-1.229 2.997 1.574 9523
-1.252 3.054 1.591 8280
-1.262 3.078 1.591 7833
-1.272 3.102 1.591 5782
-1.284 3.133 1.594 4843
-1.286 3.137 1.584 6004
-1.282 3.128 1.568 8305
-1.281 3.125 1.556 9248
-1.282 3.128 1.546 8492
-1.287 3.139 1.539 8092
-1.294 3.156 1.536 8910
-1.306 3.187 1.538 9156
-1.316 3.211 1.537 6233
-1.348 3.290 1.560 7416
-1.350 3.294 1.550 8954
-1.357 3.311 1.545 8429
-1.370 3.342 1.547 10763
-1.374 3.353 1.539 12249
-1.376 3.356 1.529 9368
-1.383 3.374 1.524 8116
-1.384 3.377 1.513 10341
-1.386 3.381 1.503 9823
-1.430 3.488 1.534 6037
-1.431 3.491 1.523 6954
-1.455 3.550 1.534 5689
-1.460 3.561 1.526 5127
-1.441 3.516 1.496 4219
-1.446 3.527 1.488 4419
-1.501 3.662 1.527 3509
-1.505 3.672 1.519 6730
-1.510 3.683 1.510 6509
-1.491 3.638 1.480 6539
-1.496 3.649 1.471 6508
-1.557 3.798 1.513 5360
-1.558 3.802 1.502 5732
-1.560 3.805 1.490 5003
-1.553 3.788 1.471 4428
-1.557 3.799 1.461 3436
-1.604 3.914 1.488 4197
-1.603 3.910 1.474 3864
-1.644 4.012 1.495 3414
-1.634 3.987 1.473 5068
-1.633 3.984 1.458 4687
-1.640 4.001 1.450 3606
-1.679 4.096 1.468 4479
-1.689 4.121 1.462 5138
-1.693 4.131 1.451 5950
-1.698 4.142 1.441 4608
-1.725 4.209 1.448 2978
-1.729 4.219 1.437 3276
-1.731 4.223 1.424 5307
-1.735 4.233 1.413 5379
-1.766 4.307 1.421 4059
-1.807 4.410 1.437 6005
-1.806 4.406 1.421 4943
-1.805 4.402 1.405 4405
-1.890 4.611 1.450 3936
-1.894 4.622 1.438 3184
-1.890 4.611 1.420 5260
-1.889 4.607 1.403 7553
-1.893 4.618 1.391 7120
-1.903 4.642 1.382 5366
-1.913 4.667 1.373 4388
-1.979 4.827 1.400 4277
-2.006 4.894 1.402 4234
-2.013 4.912 1.390 4666
-2.059 5.022 1.402 4001
-2.066 5.040 1.390 5112
-2.076 5.065 1.379 4786
-2.077 5.068 1.364 5318
-2.146 5.236 1.387 3301
-2.139 5.218 1.366 3148
-2.140 5.221 1.350 2137
-2.262 5.518 1.401 2685
-2.257 5.507 1.381 4083
-2.259 5.510 1.363 4370
-2.263 5.521 1.348 3395
-2.267 5.531 1.332 2411
-2.301 5.614 1.332 2468
-2.382 5.811 1.355 2422
-2.368 5.778 1.329 3965
-2.373 5.789 1.313 4349
-2.371 5.784 1.293 3654
-2.372 5.788 1.275 2676
-2.465 6.014 1.301 2732
-2.469 6.024 1.283 2960
-2.477 6.042 1.267 2485
-2.644 6.449 1.323 2525
-2.642 6.445 1.301 3458
-2.634 6.427 1.277 3406
-2.633 6.422 1.256 2812
-2.830 6.903 1.318 2186
-2.715 6.624 1.249 2318
-2.799 6.830 1.262 1933
-2.801 6.833 1.240 1991
-2.858 6.973 1.241 2414
-3.011 7.346 1.277 2568
-3.093 7.545 1.283 3910
-3.091 7.541 1.259 5978
-3.089 7.536 1.234 7275
-3.090 7.539 1.210 7975
-3.095 7.549 1.188 7542
-3.096 7.552 1.164 5979
-3.094 7.548 1.139 3969
-3.098 7.558 1.117 3381
-3.099 7.560 1.093 3317
-3.151 7.686 1.085 3100
-3.152 7.689 1.061 2807
-3.786 9.235 1.218 3123
-3.790 9.245 1.190 2442
-3.776 9.212 1.157 1827
-3.780 9.222 1.128 1525
-4.053 9.888 1.169 2450
-4.054 9.891 1.138 3136
-4.118 10.046 1.122 2871
-4.128 10.071 1.092 3386
-4.132 10.081 1.061 3650
-4.136 10.091 1.030 3482
-4.134 10.086 0.998 3642
-4.195 10.234 0.978 3621
-4.199 10.244 0.947 3240
-4.194 10.231 0.914 2691
-4.932 12.031 1.013 2364
-4.930 12.026 0.974 2481
-4.927 12.021 0.936 2597
-4.931 12.030 0.899 2686
-4.935 12.040 0.861 2620
-4.936 12.042 0.823 2374
-4.937 12.043 0.786 1715
-5.990 14.613 0.878 832
-1.197 2.921 0.276 937
-1.200 2.929 0.267 1526
-1.198 2.922 0.258 1807
-1.201 2.929 0.249 1909
-1.201 2.930 0.240 1933
-1.198 2.923 0.230 1867
-1.198 2.923 0.221 1650
-7.346 17.921 0.594 1249
-7.346 17.922 0.538 1155
-7.347 17.923 0.481 1061
-7.344 17.916 0.425 838
-7.329 17.880 0.368 814
-7.327 17.874 0.312 761
-7.327 17.874 0.255 625
-7.327 17.874 0.199 489
-7.345 17.918 0.143 361
-7.351 17.933 0.087 257
-1.174 2.865 0.122 309
-1.174 2.865 0.113 344
-1.174 2.865 0.104 334
-1.174 2.865 0.095 324
-1.174 2.865 0.086 261
-1.375 3.355 0.056 293
-1.375 3.355 0.046 447
-1.375 3.355 0.036 602
-1.375 3.354 0.025 776
-1.375 3.354 0.015 950
-1.375 3.354 0.004 1100
-1.371 3.346 -0.006 1250
-1.374 3.353 -0.016 1338
-1.374 3.352 -0.027 1427
-1.374 3.352 -0.037 1402
-1.374 3.351 -0.048 1377
-1.374 3.351 -0.058 1256
-1.373 3.350 -0.069 1135
-1.373 3.350 -0.079 1002
-1.376 3.356 -0.090 869
-1.373 3.349 -0.100 733
-1.372 3.348 -0.110 597
-1.432 3.493 -0.132 523
-1.432 3.493 -0.143 507
-1.434 3.499 -0.154 456
-1.434 3.498 -0.165 408
-1.434 3.497 -0.176 316
-1.317 3.212 -0.160 302
-1.316 3.211 -0.170 297
-0.772 1.893 1.565 3759
-0.773 1.897 1.559 7518
-0.775 1.901 1.553 6067
-0.828 2.030 1.643 4884
-0.829 2.034 1.637 5930
-0.831 2.038 1.631 7812
-0.833 2.042 1.624 9693
-0.829 2.034 1.609 8779
-0.829 2.032 1.599 8510
-0.830 2.036 1.592 8510
-0.834 2.046 1.590 7524
-0.836 2.050 1.584 6619
-0.840 2.060 1.582 5539
-0.792 1.942 1.489 5243
-0.851 2.086 1.583 4486
-0.897 2.201 1.654 5417
-0.864 2.119 1.587 6540
-0.865 2.123 1.580 8515
-0.867 2.127 1.574 8827
-0.868 2.130 1.567 10192
-0.870 2.134 1.561 11244
-0.889 2.182 1.584 10292
-0.896 2.198 1.585 11565
-0.903 2.214 1.587 10082
-0.907 2.224 1.584 9680
-0.924 2.266 1.602 8220
-0.930 2.282 1.603 10978
-0.932 2.286 1.596 10576
-0.934 2.290 1.589 10175
-0.974 2.389 1.643 8547
-0.978 2.399 1.640 9600
-0.982 2.409 1.636 9117
-0.984 2.413 1.629 8819
-0.985 2.417 1.621 7182
-1.016 2.491 1.657 7553
-0.994 2.438 1.614 7852
-0.996 2.442 1.607 8662
-0.997 2.446 1.599 9473
-0.999 2.450 1.592 7658
-1.000 2.454 1.584 5843
-1.005 2.464 1.580 3962
-1.035 2.539 1.615 4875
-1.034 2.536 1.603 5980
-1.038 2.547 1.599 7620
-1.042 2.557 1.595 9442
-1.044 2.561 1.587 7685
-1.046 2.565 1.579 4223
-1.084 2.660 1.623 4420
-1.083 2.657 1.611 6153
-1.082 2.654 1.599 7299
-1.084 2.658 1.591 7003
-1.128 2.767 1.640 7429
-1.130 2.771 1.632 9304
-1.129 2.768 1.620 8105
-1.146 2.812 1.632 9575
-1.148 2.816 1.624 13416
-1.149 2.820 1.615 15036
-1.151 2.824 1.606 15329
-1.153 2.828 1.597 14002
-1.154 2.831 1.589 11761
-1.159 2.842 1.583 8554
-1.166 2.859 1.581 7311
-1.164 2.856 1.569 5715
-1.204 2.953 1.607 6873
-1.219 2.990 1.615 11767
-1.221 2.994 1.606 16243
-1.217 2.985 1.590 17677
-1.216 2.982 1.577 15877
-1.225 3.006 1.578 10663
-1.233 3.023 1.575 8967
-1.248 3.061 1.582 6850
-1.266 3.105 1.591 4900
-1.278 3.136 1.594 4309
-1.277 3.133 1.581 6093
-1.273 3.123 1.565 8640
-1.275 3.127 1.556 9323
-1.276 3.131 1.546 8662
-1.278 3.135 1.536 8410
-1.285 3.152 1.533 9315
-1.300 3.190 1.538 9834
-1.310 3.214 1.537 6692
-1.339 3.285 1.557 8346
-1.341 3.289 1.547 10721
-1.351 3.314 1.545 9995
-1.361 3.338 1.544 12433
-1.365 3.348 1.536 13920
-1.369 3.359 1.529 10259
-1.376 3.376 1.524 7505
-1.375 3.373 1.511 8948
-1.374 3.370 1.497 8475
-1.417 3.477 1.529 5983
-1.422 3.487 1.521 7194
-1.432 3.512 1.518 5402
-1.436 3.522 1.510 4138
-1.435 3.519 1.496 4214
-1.439 3.530 1.488 4080
-1.471 3.609 1.506 4335
-1.498 3.675 1.519 6366
-1.503 3.686 1.510 6129
-1.484 3.641 1.480 6804
-1.489 3.652 1.471 7103
-1.550 3.801 1.513 6051
-1.548 3.798 1.499 5842
-1.524 3.739 1.465 4245
-1.540 3.777 1.466 3906
-1.533 3.760 1.446 3706
-1.602 3.931 1.493 3854
-1.612 3.955 1.488 3939
-1.642 4.029 1.500 3113
-1.641 4.025 1.485 3846
-1.623 3.980 1.456 3821
-1.635 4.012 1.453 3566
-1.668 4.092 1.466 5161
-1.675 4.110 1.457 5268
-1.686 4.135 1.451 5700
-1.690 4.145 1.441 4314
-1.720 4.219 1.450 2789
-1.721 4.223 1.437 2851
-1.723 4.226 1.424 5034
-1.727 4.237 1.413 5612
-1.752 4.296 1.416 4326
-1.799 4.413 1.437 5262
-1.798 4.409 1.421 4815
-1.793 4.399 1.403 4353
-1.847 4.530 1.426 3381
-1.822 4.469 1.394 3464
-1.896 4.650 1.430 4062
-1.885 4.625 1.407 6465
-1.890 4.636 1.395 6803
-1.903 4.667 1.388 5915
-1.907 4.678 1.375 5243
-1.952 4.788 1.389 4657
-1.979 4.856 1.391 4036
-2.001 4.909 1.388 4264
-2.049 5.026 1.402 4007
-2.053 5.037 1.388 5619
-2.069 5.076 1.381 4284
-2.071 5.079 1.365 4345
-2.119 5.197 1.377 3226
-2.117 5.193 1.359 3652
-2.165 5.311 1.370 2209
-2.251 5.522 1.401 2574
-2.247 5.511 1.381 3844
-2.248 5.515 1.363 3893
-2.296 5.633 1.372 3143
-2.254 5.528 1.330 2537
-2.290 5.618 1.332 2636
-2.377 5.830 1.358 3171
-2.360 5.790 1.331 4594
-2.362 5.793 1.313 4881
-2.363 5.796 1.295 4141
-2.364 5.799 1.277 2991
-2.454 6.019 1.301 2994
-2.458 6.029 1.283 3059
-2.465 6.047 1.267 2234
-2.587 6.346 1.303 2433
-2.627 6.443 1.300 3466
-2.622 6.432 1.277 3561
-2.724 6.681 1.300 2787
-2.816 6.908 1.318 2205
-2.782 6.825 1.282 2325
-2.780 6.820 1.259 2238
-2.844 6.976 1.263 2329
-2.845 6.979 1.241 3073
-2.852 6.996 1.221 2740
-3.075 7.543 1.282 3355
-3.076 7.546 1.259 5545
-3.075 7.542 1.234 6650
-3.073 7.538 1.209 6788
-3.080 7.555 1.188 5846
-3.081 7.558 1.164 4827
-3.079 7.554 1.139 3493
-3.083 7.563 1.117 3083
-3.084 7.566 1.093 2953
-3.136 7.692 1.085 2760
-3.137 7.695 1.061 2483
-3.768 9.242 1.218 2681
-3.772 9.253 1.190 2260
-3.764 9.234 1.158 1657
-3.950 9.689 1.178 1371
-4.034 9.896 1.169 2183
-4.035 9.898 1.138 2791
-4.099 10.054 1.122 2943
-4.106 10.072 1.092 3069
-4.113 10.089 1.061 3148
-4.117 10.098 1.030 3164
-4.115 10.094 0.998 3413
-4.175 10.242 0.978 3366
-4.179 10.252 0.947 3015
-4.174 10.239 0.914 2525
-4.908 12.040 1.013 2102
-4.906 12.035 0.974 2247
-4.904 12.030 0.936 2597
-4.908 12.040 0.899 2719
-4.912 12.049 0.861 2688
-4.916 12.058 0.824 2400
-4.914 12.053 0.786 1716
-5.965 14.632 0.878 978
-5.849 14.348 0.819 818
-5.850 14.350 0.774 934
-5.851 14.352 0.729 739
-6.942 17.027 0.785 1031
-6.942 17.029 0.732 1253
-6.943 17.031 0.678 1113
-7.314 17.941 0.651 1122
-7.311 17.935 0.594 1280
-7.312 17.936 0.538 1262
-7.309 17.930 0.481 1252
-7.307 17.923 0.425 1027
-7.295 17.894 0.368 877
-7.292 17.888 0.312 797
-7.292 17.888 0.255 657
-7.293 17.888 0.199 517
-7.310 17.932 0.143 415
-7.313 17.940 0.087 333
-1.229 3.014 0.084 278
-1.228 3.013 0.074 390
-1.228 3.013 0.065 438
-1.369 3.357 0.046 620
-1.369 3.357 0.036 825
-1.368 3.357 0.025 1057
-1.365 3.349 0.015 1296
-1.365 3.349 0.005 1500
-1.365 3.349 -0.006 1704
-1.365 3.348 -0.016 1803
-1.365 3.348 -0.027 1903
-1.365 3.347 -0.037 1910
-1.364 3.347 -0.047 1917
-1.364 3.346 -0.058 1875
-1.364 3.346 -0.068 1834
-1.364 3.345 -0.078 1728
-1.363 3.344 -0.089 1622
-1.363 3.344 -0.099 1460
-1.363 3.343 -0.110 1298
-1.366 3.350 -0.121 1079
-1.365 3.349 -0.131 874
-1.314 3.224 -0.131 733
-1.317 3.231 -0.141 663
-1.314 3.223 -0.151 521
-1.310 3.214 -0.160 386
-1.310 3.214 -0.170 375
-1.307 3.206 -0.179 269
-0.770 1.894 1.565 4399
-0.771 1.898 1.559 8799
-0.773 1.902 1.553 6724
-0.784 1.929 1.566 4629
-0.827 2.035 1.637 5817
-0.831 2.045 1.635 7681
-0.835 2.055 1.633 9711
-0.832 2.047 1.618 8083
-0.826 2.033 1.599 7814
-0.828 2.037 1.592 7814
-0.832 2.047 1.590 7200
-0.836 2.057 1.589 6881
-0.835 2.055 1.578 5463
-0.790 1.943 1.489 5035
-0.888 2.185 1.652 4718
-0.892 2.196 1.650 5995
-0.889 2.187 1.634 6655
-0.863 2.124 1.580 8531
-0.865 2.127 1.574 8593
-0.869 2.137 1.572 9912
-0.870 2.141 1.565 11075
-0.890 2.189 1.588 11061
-0.894 2.199 1.585 12047
-0.900 2.215 1.587 10587
-0.904 2.225 1.584 10254
-0.921 2.267 1.602 8287
-0.928 2.283 1.603 11157
-0.930 2.287 1.596 10972
-0.931 2.291 1.589 10787
-0.935 2.301 1.586 7814
-0.975 2.400 1.640 8547
-0.977 2.404 1.632 7893
-0.981 2.414 1.629 7421
-0.983 2.418 1.621 6545
-1.013 2.492 1.657 7787
-0.991 2.439 1.614 9096
-0.993 2.443 1.607 9648
-0.995 2.447 1.599 10201
-0.996 2.451 1.592 8349
-0.998 2.455 1.584 6498
-1.031 2.536 1.623 5184
-1.030 2.533 1.611 6040
-1.029 2.531 1.599 6685
-1.033 2.541 1.595 8337
-1.037 2.552 1.591 10175
-1.039 2.556 1.583 8194
-1.040 2.559 1.575 4536
-1.081 2.661 1.623 4846
-1.080 2.658 1.611 6451
-1.079 2.656 1.599 7337
-1.081 2.660 1.591 6848
-1.122 2.761 1.637 8121
-1.124 2.765 1.628 10592
-1.126 2.769 1.620 10002
-1.141 2.806 1.629 9989
-1.145 2.817 1.624 13572
-1.146 2.821 1.615 14647
-1.148 2.825 1.606 14269
-1.150 2.829 1.597 12815
-1.151 2.833 1.589 11171
-1.156 2.843 1.583 8715
-1.163 2.860 1.581 7386
-1.161 2.858 1.569 5749
-1.201 2.954 1.607 7838
-1.216 2.992 1.615 12262
-1.220 3.002 1.609 16255
-1.216 2.993 1.593 17520
-1.213 2.983 1.577 16085
-1.222 3.007 1.578 11432
-1.229 3.025 1.575 9566
-1.231 3.029 1.565 6639
-1.265 3.113 1.594 4240
-1.275 3.137 1.594 3874
-1.274 3.134 1.581 6157
-1.270 3.125 1.565 8782
-1.271 3.128 1.556 9229
-1.273 3.132 1.546 8531
-1.275 3.136 1.536 8361
-1.282 3.153 1.533 9219
-1.297 3.191 1.538 9602
-1.307 3.215 1.537 6345
-1.336 3.287 1.557 8722
-1.340 3.298 1.550 11427
-1.347 3.315 1.545 10731
-1.357 3.339 1.544 12816
-1.364 3.357 1.539 13994
-1.366 3.360 1.529 9938
-1.387 3.412 1.538 6646
-1.372 3.375 1.511 7404
-1.368 3.365 1.495 7786
-1.408 3.464 1.523 5890
-1.415 3.482 1.518 7332
-1.431 3.520 1.521 5742
-1.435 3.531 1.512 4759
-1.436 3.534 1.502 4830
-1.463 3.600 1.515 4427
-1.468 3.611 1.506 5509
-1.494 3.677 1.519 5841
-1.499 3.687 1.510 5515
-1.480 3.643 1.480 6605
-1.485 3.653 1.471 7407
-1.548 3.809 1.516 6248
-1.538 3.785 1.494 6061
-1.520 3.740 1.465 4784
-1.522 3.744 1.453 4129
-1.529 3.761 1.446 3804
-1.610 3.960 1.503 3715
-1.608 3.957 1.488 4091
-1.644 4.045 1.505 3039
-1.645 4.048 1.492 3531
-1.621 3.989 1.458 3163
-1.631 4.013 1.453 3635
-1.661 4.087 1.463 5113
-1.665 4.098 1.453 5122
-1.681 4.136 1.451 4950
-1.683 4.140 1.439 3664
-1.721 4.235 1.454 2819
-1.754 4.316 1.465 2821
-1.718 4.228 1.424 4660
-1.723 4.238 1.413 5396
-1.753 4.312 1.421 4341
-1.763 4.337 1.414 5098
-1.793 4.411 1.421 4688
-1.789 4.401 1.403 4320
-1.804 4.439 1.400 3197
-1.817 4.471 1.394 3903
-1.899 4.673 1.436 5376
-1.892 4.656 1.415 7082
-1.896 4.666 1.403 7973
-1.901 4.677 1.390 6638
-1.908 4.694 1.379 4869
-1.947 4.790 1.389 5033
-1.974 4.858 1.391 4396
-1.996 4.911 1.388 3867
-2.041 5.021 1.400 4302
-2.045 5.032 1.386 6041
-2.087 5.135 1.395 3647
-2.065 5.082 1.365 3326
-2.110 5.192 1.375 3799
-2.114 5.203 1.361 4018
-2.162 5.321 1.371 2509
-2.245 5.525 1.401 2494
-2.241 5.514 1.381 3745
-2.239 5.510 1.362 3585
-2.287 5.628 1.370 2859
-2.262 5.567 1.338 2577
-2.372 5.836 1.378 2802
-2.370 5.832 1.358 3567
-2.354 5.792 1.331 4848
-2.355 5.796 1.313 5168
-2.357 5.799 1.295 4321
-2.358 5.802 1.277 3022
-2.447 6.021 1.301 2925
-2.454 6.039 1.285 3052
-2.459 6.049 1.267 2150
-2.701 6.645 1.358 2503
-2.620 6.446 1.300 3277
-2.615 6.434 1.277 3474
-2.716 6.684 1.300 3120
-2.718 6.687 1.279 2196
-2.775 6.828 1.282 2130
-2.770 6.816 1.258 2343
-2.836 6.979 1.263 2673
-2.838 6.982 1.241 3489
-2.845 6.999 1.221 2861
-3.067 7.547 1.282 2908
-3.068 7.550 1.259 5019
-3.067 7.545 1.234 5954
-3.065 7.541 1.209 5673
-3.072 7.559 1.188 4416
-3.073 7.561 1.164 3752
-3.376 8.307 1.239 3007
-3.078 7.574 1.118 2584
-3.079 7.577 1.094 2450
-3.128 7.696 1.085 2290
-3.129 7.698 1.061 2035
-3.758 9.247 1.218 2203
-3.762 9.257 1.190 1988
-3.799 9.347 1.170 1730
-3.942 9.700 1.179 1389
-4.024 9.900 1.169 1822
-4.084 10.049 1.153 2609
-4.088 10.059 1.122 2842
-4.095 10.076 1.092 2770
-4.102 10.093 1.061 2664
-4.106 10.103 1.030 2780
-4.104 10.098 0.998 3030
-4.164 10.246 0.978 3005
-4.168 10.256 0.947 2704
-4.163 10.244 0.914 2254
-4.896 12.046 1.013 1766
-4.891 12.033 0.974 2039
-4.892 12.036 0.936 2503
-4.895 12.045 0.899 2605
-4.902 12.062 0.862 2556
-4.903 12.064 0.824 2268
-4.901 12.058 0.786 1607
-5.949 14.638 0.878 1030
-5.950 14.640 0.833 825
-5.835 14.356 0.774 952
-1.192 2.933 0.258 975
-6.923 17.035 0.785 1103
-6.924 17.037 0.732 1303
-6.925 17.038 0.678 1212
-7.292 17.941 0.651 1069
-7.292 17.943 0.594 1355
-7.293 17.944 0.538 1378
-7.290 17.937 0.481 1418
-7.291 17.938 0.425 1123
-7.279 17.910 0.368 775
-7.276 17.903 0.312 715
-7.276 17.903 0.255 589
-7.276 17.903 0.199 462
-7.279 17.911 0.143 323
-1.225 3.015 0.102 285
-1.225 3.015 0.093 378
-1.225 3.015 0.084 453
-1.225 3.015 0.074 541
-1.222 3.007 0.065 562
-1.365 3.359 0.046 734
-1.365 3.359 0.036 971
-1.365 3.358 0.025 1240
-1.362 3.351 0.015 1515
-1.362 3.350 0.005 1780
-1.362 3.350 -0.006 2045
-1.361 3.350 -0.016 2195
-1.364 3.356 -0.027 2366
-1.361 3.349 -0.037 2377
-1.361 3.348 -0.047 2408
-1.361 3.348 -0.058 2259
-1.360 3.347 -0.068 2110
-1.360 3.347 -0.078 1869
-1.360 3.346 -0.089 1628
-1.360 3.345 -0.099 1360
-1.359 3.345 -0.110 1092
-1.359 3.344 -0.120 867
-1.311 3.226 -0.121 698
-1.311 3.226 -0.131 671
-1.311 3.225 -0.141 633
-1.310 3.224 -0.151 501
-1.307 3.216 -0.160 383
-1.307 3.215 -0.170 378
-1.303 3.207 -0.179 294
-1.505 3.702 -0.241 261
-0.984 2.421 -0.153 261
-0.986 2.427 -0.161 278
-0.986 2.426 -0.169 278
-0.983 2.418 -0.175 367
-0.766 1.895 1.565 4767
-0.768 1.899 1.559 9535
-0.771 1.909 1.558 7083
-0.780 1.931 1.566 5094
-0.826 2.043 1.642 5603
-0.832 2.059 1.644 7570
-0.836 2.069 1.642 9915
-0.845 2.091 1.650 8387
-0.847 2.095 1.643 7466
-0.851 2.106 1.641 7342
-0.833 2.061 1.599 6882
-0.834 2.065 1.593 7287
-0.834 2.063 1.582 5501
-0.786 1.944 1.489 4593
-0.884 2.187 1.652 4907
-0.888 2.197 1.650 6475
-0.885 2.189 1.634 7199
-0.859 2.125 1.580 8908
-0.863 2.135 1.578 8638
-0.867 2.145 1.576 9717
-0.879 2.174 1.586 11165
-0.888 2.197 1.592 11527
-0.889 2.201 1.585 12058
-0.896 2.217 1.587 10627
-0.900 2.227 1.584 10433
-0.917 2.269 1.602 8456
-0.923 2.285 1.603 11345
-0.925 2.289 1.596 11306
-0.927 2.293 1.589 11268
-0.928 2.297 1.582 8156
-0.968 2.396 1.636 7511
-0.972 2.406 1.632 6865
-0.976 2.416 1.629 6274
-0.973 2.408 1.614 6351
-1.005 2.488 1.654 8197
-0.986 2.441 1.614 10400
-0.988 2.445 1.607 10572
-0.990 2.449 1.599 10744
-0.991 2.453 1.592 8863
-0.993 2.457 1.584 6982
-1.023 2.531 1.619 7017
-1.025 2.535 1.611 7233
-1.024 2.533 1.599 7544
-1.028 2.543 1.595 9127
-1.032 2.554 1.591 10886
-1.034 2.558 1.583 8733
-1.035 2.562 1.575 4794
-1.073 2.656 1.619 5067
-1.075 2.660 1.611 6491
-1.074 2.658 1.599 7060
-1.076 2.662 1.591 6416
-1.117 2.764 1.637 8863
-1.118 2.768 1.628 12011
-1.120 2.772 1.620 11848
-1.135 2.808 1.629 10665
-1.139 2.819 1.624 13431
-1.141 2.823 1.615 13965
-1.142 2.827 1.606 13014
-1.144 2.831 1.597 11528
-1.146 2.835 1.589 10500
-1.150 2.845 1.583 8793
-1.157 2.863 1.581 7493
-1.185 2.933 1.606 6086
-1.195 2.957 1.607 8563
-1.210 2.994 1.615 12814
-1.214 3.005 1.609 16541
-1.213 3.002 1.596 17375
-1.209 2.993 1.580 15925
-1.216 3.010 1.578 11786
-1.223 3.027 1.575 9751
-1.225 3.031 1.565 6639
-1.259 3.115 1.594 3657
-1.269 3.140 1.594 3604
-1.268 3.137 1.581 6213
-1.264 3.127 1.565 8794
-1.263 3.124 1.553 9077
-1.267 3.135 1.546 8294
-1.268 3.139 1.536 8119
-1.275 3.156 1.533 9047
-1.291 3.194 1.538 9305
-1.300 3.218 1.537 6192
-1.329 3.290 1.557 8639
-1.334 3.300 1.550 11345
-1.341 3.318 1.545 10524
-1.351 3.342 1.544 12156
-1.358 3.359 1.539 12997
-1.359 3.363 1.529 8802
-1.394 3.449 1.552 6822
-1.359 3.364 1.505 6330
-1.358 3.361 1.492 7338
-1.398 3.460 1.520 5881
-1.408 3.485 1.518 7529
-1.424 3.523 1.521 6143
-1.428 3.534 1.512 4926
-1.432 3.544 1.504 4915
-1.456 3.603 1.515 5240
-1.460 3.614 1.506 6425
-1.484 3.673 1.516 4905
-1.491 3.690 1.510 4530
-1.473 3.645 1.480 6477
-1.477 3.656 1.471 7568
-1.546 3.826 1.521 6229
-1.520 3.761 1.484 6293
-1.516 3.750 1.467 5089
-1.514 3.747 1.453 4293
-1.521 3.764 1.446 3869
-1.605 3.970 1.505 3685
-1.598 3.953 1.486 3834
-1.636 4.048 1.505 3072
-1.640 4.058 1.494 3969
-1.642 4.062 1.482 3101
-1.623 4.017 1.453 3892
-1.650 4.083 1.461 5071
-1.654 4.094 1.451 4975
-1.670 4.133 1.449 4031
-1.711 4.235 1.468 3064
-1.713 4.238 1.454 2936
-1.677 4.150 1.413 3336
-1.710 4.231 1.424 4240
-1.714 4.242 1.413 4938
-1.750 4.330 1.425 4503
-1.754 4.341 1.414 5785
-1.784 4.415 1.421 4475
-1.783 4.411 1.405 4069
-1.804 4.464 1.406 3210
-1.808 4.475 1.394 4025
-1.887 4.670 1.434 7397
-1.886 4.666 1.417 9170
-1.887 4.670 1.403 10639
-1.891 4.680 1.390 7826
-1.904 4.712 1.383 4804
-1.926 4.765 1.381 5072
-1.962 4.854 1.389 4630
-1.969 4.872 1.377 4151
-2.025 5.011 1.397 5241
-2.032 5.029 1.385 6782
-2.042 5.054 1.374 3314
-2.096 5.186 1.390 3095
-2.100 5.196 1.375 4157
-2.107 5.214 1.363 4190
-2.149 5.318 1.370 2557
-2.232 5.522 1.399 2272
-2.227 5.511 1.379 3651
-2.226 5.507 1.360 3319
-2.230 5.518 1.345 2657
-2.237 5.535 1.330 2640
-2.360 5.841 1.378 2923
-2.359 5.837 1.358 3857
-2.343 5.797 1.331 4896
-2.341 5.793 1.311 5087
-2.342 5.796 1.293 4358
-2.349 5.814 1.278 3181
-2.435 6.026 1.301 2881
-2.442 6.044 1.285 3162
-2.473 6.119 1.279 2350
-2.688 6.650 1.358 2509
-2.604 6.444 1.299 3022
-2.602 6.440 1.277 3186
-2.706 6.696 1.302 3105
-2.646 6.547 1.255 2318
-2.644 6.543 1.233 2077
-2.754 6.814 1.257 2339
-2.822 6.984 1.263 2733
-2.824 6.987 1.241 3654
-2.831 7.005 1.221 2983
-3.049 7.545 1.281 2538
-3.053 7.556 1.259 4472
-3.052 7.552 1.234 5238
-3.047 7.540 1.208 4669
-3.060 7.572 1.189 3243
-3.055 7.560 1.163 2772
-3.360 8.313 1.239 2786
-3.367 8.331 1.215 2298
-3.064 7.583 1.094 1897
-3.115 7.709 1.086 1790
-3.780 9.353 1.259 1657
-3.781 9.356 1.230 2086
-3.773 9.337 1.198 1893
-3.783 9.362 1.171 1770
-3.787 9.372 1.143 1453
-4.063 10.054 1.184 1670
-4.064 10.057 1.153 2487
-4.065 10.059 1.121 2650
-4.072 10.077 1.091 2465
-4.079 10.094 1.061 2224
-4.083 10.104 1.030 2352
-4.084 10.106 0.998 2572
-4.141 10.247 0.978 2574
-4.148 10.264 0.947 2310
-4.143 10.252 0.914 1936
-4.869 12.048 1.012 1497
-4.867 12.043 0.974 1809
-4.865 12.038 0.936 2314
-4.869 12.047 0.898 2367
-4.878 12.071 0.862 2343
-4.879 12.073 0.824 2101
-4.877 12.068 0.786 1483
-5.920 14.650 0.878 1106
-5.924 14.659 0.833 918
-5.806 14.368 0.774 884
-6.892 17.054 0.839 782
-6.890 17.049 0.785 1130
-6.890 17.050 0.732 1297
-6.891 17.052 0.678 1275
-7.256 17.956 0.651 1020
-7.257 17.957 0.594 1323
-7.257 17.958 0.538 1355
-7.255 17.952 0.481 1406
-7.255 17.953 0.425 1111
-7.240 17.917 0.368 812
-7.241 17.917 0.312 762
-7.241 17.918 0.255 598
-7.238 17.910 0.199 436
-7.259 17.962 0.143 383
-7.259 17.962 0.087 324
-1.219 3.017 0.084 257
-1.219 3.017 0.074 399
-1.219 3.017 0.065 460
-1.358 3.362 0.046 533
-1.358 3.361 0.036 728
-1.358 3.361 0.025 963
-1.358 3.361 0.015 1199
-1.355 3.353 0.005 1415
-1.355 3.353 -0.006 1636
-1.355 3.352 -0.016 1734
-1.357 3.359 -0.027 1841
-1.354 3.351 -0.037 1822
-1.354 3.351 -0.047 1813
-1.354 3.350 -0.058 1644
-1.354 3.350 -0.068 1476
-1.353 3.349 -0.078 1290
-1.353 3.349 -0.089 1105
-1.353 3.348 -0.099 970
-1.353 3.347 -0.110 835
-1.352 3.347 -0.120 732
-1.352 3.346 -0.130 629
-1.355 3.352 -0.141 528
-1.357 3.359 -0.152 434
-1.502 3.717 -0.196 395
-1.502 3.716 -0.207 415
-1.498 3.707 -0.218 397
-1.498 3.706 -0.229 382
-1.497 3.705 -0.241 352
-1.497 3.704 -0.252 283
-0.981 2.427 -0.176 278
-0.763 1.896 1.565 4869
-0.765 1.900 1.559 9738
-0.766 1.904 1.553 7213
-0.777 1.932 1.566 5229
-0.777 1.930 1.555 5217
-0.834 2.072 1.653 7448
-0.836 2.076 1.647 10035
-0.840 2.087 1.645 9221
-0.844 2.097 1.643 8456
-0.845 2.101 1.637 8181
-0.835 2.074 1.608 7347
-0.834 2.072 1.597 7782
-0.838 2.082 1.595 6041
-0.849 2.111 1.606 4651
-0.851 2.115 1.600 5758
-0.885 2.199 1.650 6929
-0.854 2.123 1.587 8530
-0.856 2.127 1.580 10194
-0.860 2.137 1.578 9614
-0.881 2.190 1.606 10664
-0.885 2.200 1.603 12121
-0.884 2.198 1.592 12154
-0.884 2.196 1.581 12245
-0.893 2.218 1.587 10335
-0.899 2.235 1.588 10135
-0.913 2.270 1.602 8678
-0.918 2.280 1.599 11572
-0.919 2.284 1.592 11619
-0.921 2.288 1.585 11665
-0.925 2.298 1.582 8615
-0.965 2.397 1.636 6622
-0.966 2.401 1.628 6073
-0.970 2.411 1.625 5547
-0.969 2.409 1.614 6964
-0.976 2.426 1.614 9254
-0.983 2.442 1.614 11812
-0.984 2.446 1.607 11524
-0.986 2.450 1.599 11236
-0.988 2.454 1.592 9412
-1.018 2.529 1.627 9120
-1.019 2.533 1.619 8970
-1.018 2.530 1.607 8644
-1.017 2.528 1.596 8548
-1.021 2.538 1.592 9910
-1.026 2.549 1.587 11652
-1.027 2.553 1.580 9348
-1.029 2.557 1.572 5153
-1.070 2.658 1.619 4656
-1.071 2.662 1.611 5529
-1.070 2.659 1.599 5650
-1.072 2.663 1.591 5106
-1.110 2.759 1.633 9677
-1.112 2.763 1.625 13460
-1.116 2.773 1.620 13612
-1.128 2.804 1.625 11339
-1.135 2.821 1.624 12935
-1.137 2.825 1.615 12939
-1.138 2.829 1.606 11495
-1.140 2.833 1.597 10048
-1.141 2.837 1.589 9672
-1.148 2.854 1.587 8767
-1.155 2.871 1.585 7661
-1.178 2.928 1.603 6982
-1.191 2.959 1.607 9352
-1.208 3.002 1.618 13229
-1.210 3.006 1.609 16607
-1.211 3.010 1.600 17164
-1.208 3.001 1.584 15428
-1.215 3.018 1.581 11739
-1.219 3.029 1.575 9671
-1.220 3.033 1.565 6475
-1.222 3.037 1.556 3619
-1.264 3.141 1.594 3384
-1.260 3.132 1.578 6514
-1.259 3.129 1.565 9377
-1.261 3.133 1.556 9556
-1.262 3.137 1.546 8167
-1.266 3.147 1.539 7516
-1.271 3.158 1.533 8343
-1.283 3.189 1.535 8168
-1.298 3.226 1.540 5896
-1.330 3.305 1.563 8176
-1.332 3.309 1.553 10527
-1.336 3.320 1.545 9583
-1.346 3.344 1.544 10953
-1.350 3.355 1.536 11573
-1.354 3.365 1.529 7162
-1.386 3.444 1.550 6819
-1.390 3.455 1.542 6007
-1.353 3.363 1.492 7008
-1.396 3.469 1.523 6028
-1.403 3.487 1.518 8278
-1.418 3.525 1.521 7057
-1.423 3.536 1.512 5706
-1.430 3.553 1.507 6063
-1.448 3.598 1.512 5866
-1.455 3.616 1.506 7001
-1.465 3.640 1.503 4631
-1.469 3.651 1.494 3478
-1.468 3.648 1.480 6080
-1.472 3.658 1.471 7513
-1.541 3.829 1.521 5809
-1.517 3.770 1.487 6576
-1.518 3.773 1.475 5724
-1.548 3.847 1.488 4808
-1.549 3.850 1.476 4194
-1.601 3.980 1.508 3508
-1.592 3.956 1.486 3273
-1.633 4.057 1.507 3025
-1.634 4.061 1.494 4494
-1.630 4.050 1.477 3471
-1.617 4.019 1.453 4091
-1.641 4.079 1.459 5186
-1.646 4.089 1.448 4784
-1.650 4.100 1.438 3383
-1.705 4.237 1.468 3265
-1.709 4.248 1.457 3163
-1.671 4.153 1.413 3452
-1.704 4.234 1.424 3831
-1.711 4.251 1.415 4567
-1.746 4.340 1.427 4618
-1.748 4.343 1.414 6105
-1.780 4.425 1.423 4381
-1.776 4.414 1.405 3805
-1.829 4.545 1.428 3379
-1.879 4.669 1.448 5196
-1.880 4.673 1.434 9717
-1.879 4.669 1.417 11953
-1.880 4.673 1.403 13622
-1.884 4.683 1.390 9027
-1.900 4.722 1.385 4662
-1.919 4.768 1.381 5082
-1.955 4.857 1.389 4444
-1.959 4.868 1.376 4152
-2.018 5.014 1.397 5721
-2.025 5.032 1.385 7311
-2.029 5.042 1.371 3316
-2.088 5.189 1.390 3469
-2.095 5.207 1.377 4274
-2.105 5.231 1.366 4200
-2.135 5.307 1.366 2699
-2.221 5.518 1.398 2170
-2.216 5.507 1.377 3644
-2.215 5.503 1.359 3159
-2.213 5.499 1.340 2566
-2.229 5.539 1.330 2640
-2.352 5.844 1.378 3012
-2.350 5.840 1.358 3999
-2.334 5.801 1.331 4904
-2.330 5.789 1.310 5206
-2.331 5.792 1.292 4468
-2.344 5.824 1.279 3205
-2.464 6.124 1.319 3074
-2.434 6.047 1.285 3076
-2.464 6.123 1.279 2596
-2.678 6.654 1.358 2538
-2.595 6.448 1.299 3069
-2.631 6.538 1.294 3000
-2.635 6.548 1.275 3377
-2.636 6.551 1.255 2440
-2.751 6.837 1.282 2032
-2.744 6.818 1.257 2312
-2.809 6.981 1.261 2789
-2.813 6.991 1.241 3676
-2.820 7.009 1.221 2900
-3.035 7.543 1.280 2292
-3.042 7.560 1.259 3907
-3.041 7.556 1.234 4460
-3.036 7.544 1.208 3740
-3.066 7.620 1.195 2561
-3.343 8.308 1.264 2331
-3.347 8.318 1.239 2472
-3.357 8.343 1.216 2187
-3.361 8.353 1.191 1475
-3.333 8.283 1.156 1474
-3.540 8.797 1.191 1610
-3.770 9.369 1.231 1899
-3.771 9.372 1.201 1933
-3.775 9.382 1.173 2143
-3.776 9.385 1.143 1740
-3.910 9.716 1.148 1600
-4.049 10.063 1.153 2278
-4.050 10.065 1.121 2385
-3.910 9.717 1.056 2278
-3.911 9.719 1.026 1854
-4.068 10.110 1.030 1916
-4.066 10.105 0.997 2057
-4.126 10.253 0.978 2076
-4.133 10.270 0.947 1839
-4.128 10.258 0.914 1551
-4.686 11.645 0.982 1570
-4.846 12.043 0.973 1615
-4.847 12.045 0.936 2085
-4.851 12.054 0.898 2122
-4.860 12.078 0.862 2177
-4.861 12.080 0.824 1973
-4.859 12.075 0.786 1364
-5.899 14.659 0.878 1100
-5.900 14.661 0.833 965
-5.785 14.376 0.774 905
-6.867 17.064 0.839 838
-6.864 17.059 0.785 1131
-6.865 17.060 0.732 1267
-6.866 17.062 0.678 1301
-6.866 17.063 0.625 1054
-7.230 17.968 0.594 1331
-7.231 17.969 0.538 1366
-7.228 17.962 0.481 1410
-7.228 17.963 0.425 1092
-7.217 17.935 0.368 834
-7.220 17.943 0.312 869
-7.217 17.936 0.256 646
-1.153 2.865 0.149 481
-1.153 2.865 0.140 480
-1.150 2.858 0.131 404
-1.215 3.019 0.121 313
-1.215 3.019 0.112 435
-1.215 3.019 0.102 611
-1.212 3.012 0.093 788
-1.215 3.019 0.084 942
-1.215 3.019 0.074 1151
-1.212 3.011 0.065 1215
-1.215 3.019 0.056 1193
-1.215 3.018 0.046 1179
-1.214 3.018 0.037 1091
-1.211 3.010 0.028 1010
-1.353 3.362 0.004 1057
-1.350 3.355 -0.006 1317
-1.353 3.362 -0.016 1548
-1.353 3.361 -0.027 1786
-1.352 3.361 -0.037 1916
-1.352 3.360 -0.048 2046
-1.349 3.352 -0.058 1975
-1.349 3.352 -0.068 1923
-1.351 3.359 -0.079 1682
-1.351 3.358 -0.089 1462
-1.351 3.357 -0.100 1157
-1.351 3.357 -0.110 852
-1.409 3.502 -0.132 717
-1.409 3.502 -0.143 646
-1.409 3.501 -0.154 550
-1.297 3.222 -0.140 504
-1.296 3.221 -0.150 444
-1.493 3.711 -0.206 401
-1.493 3.710 -0.218 399
-1.492 3.709 -0.229 398
-1.492 3.708 -0.241 378
-1.492 3.707 -0.252 332
-1.491 3.706 -0.264 306
-1.491 3.704 -0.275 269
-0.974 2.421 -0.175 274
-0.769 1.894 1.565 4884
-0.771 1.898 1.559 9768
-0.772 1.902 1.553 7296
-0.781 1.924 1.561 5316
-0.782 1.927 1.555 5313
-0.840 2.070 1.653 7495
-0.844 2.080 1.651 10188
-0.846 2.084 1.645 9769
-0.848 2.088 1.639 9081
-0.849 2.092 1.632 8811
-0.846 2.084 1.617 7869
-0.843 2.076 1.602 7933
-0.849 2.092 1.604 6945
-0.858 2.114 1.611 6624
-0.857 2.112 1.600 8103
-0.859 2.116 1.593 9586
-0.861 2.120 1.587 11073
-0.862 2.124 1.580 12561
-0.866 2.134 1.578 11480
-0.888 2.187 1.606 12011
-0.892 2.197 1.603 13641
-0.891 2.195 1.592 13143
-0.890 2.193 1.581 13016
-0.899 2.216 1.587 10152
-0.906 2.232 1.588 9801
-0.918 2.261 1.598 8964
-0.925 2.277 1.599 11849
-0.926 2.281 1.592 12098
-0.928 2.285 1.585 12346
-0.929 2.289 1.578 9358
-0.933 2.299 1.575 6559
-0.971 2.392 1.624 5589
-0.975 2.402 1.621 5483
-0.977 2.406 1.614 7840
-0.981 2.416 1.610 10527
-0.990 2.439 1.614 12667
-0.992 2.443 1.607 11836
-0.994 2.447 1.599 11004
-1.021 2.515 1.630 9652
-1.025 2.526 1.627 11039
-1.024 2.523 1.615 10707
-1.023 2.521 1.603 9987
-1.022 2.518 1.592 9655
-1.029 2.535 1.592 10659
-1.033 2.546 1.587 12173
-1.035 2.549 1.580 9792
-1.037 2.553 1.572 5368
-1.075 2.648 1.615 4150
-1.077 2.652 1.607 4300
-1.081 2.663 1.603 3930
-1.114 2.745 1.638 4067
-1.119 2.755 1.633 10351
-1.120 2.759 1.625 14806
-1.122 2.763 1.616 15153
-1.126 2.774 1.611 12033
-1.144 2.817 1.624 12189
-1.145 2.821 1.615 11801
-1.147 2.825 1.606 10084
-1.146 2.823 1.594 8954
-1.148 2.827 1.585 8909
-1.157 2.850 1.587 8651
-1.178 2.901 1.602 8641
-1.187 2.924 1.603 7854
-1.200 2.955 1.607 10356
-1.217 2.999 1.618 14537
-1.222 3.009 1.612 17604
-1.221 3.007 1.600 17773
-1.220 3.004 1.587 15019
-1.224 3.015 1.581 11315
-1.228 3.025 1.575 9085
-1.230 3.029 1.565 5944
-1.231 3.033 1.556 3438
-1.244 3.064 1.559 3700
-1.270 3.128 1.578 7124
-1.269 3.125 1.565 10255
-1.270 3.129 1.556 10415
-1.269 3.126 1.543 8312
-1.276 3.143 1.539 6819
-1.283 3.161 1.536 7584
-1.293 3.185 1.535 7296
-1.311 3.229 1.543 5959
-1.346 3.315 1.569 7791
-1.344 3.312 1.555 9470
-1.349 3.322 1.548 8590
-1.353 3.333 1.541 9844
-1.360 3.350 1.536 10124
-1.378 3.395 1.543 6144
-1.397 3.440 1.550 6736
-1.401 3.451 1.542 5900
-1.363 3.358 1.492 6014
-1.407 3.465 1.523 6212
-1.414 3.483 1.518 8369
-1.426 3.514 1.518 7310
-1.434 3.531 1.512 5804
-1.443 3.556 1.510 6402
-1.451 3.573 1.504 6399
-1.466 3.611 1.506 7197
-1.473 3.629 1.500 4832
-1.469 3.619 1.484 3289
-1.479 3.643 1.480 5767
-1.480 3.647 1.469 7288
-1.552 3.824 1.521 5195
-1.529 3.765 1.487 6942
-1.533 3.776 1.477 6534
-1.560 3.842 1.488 5806
-1.561 3.846 1.476 5222
-1.625 4.003 1.518 3213
-1.604 3.951 1.486 2936
-1.642 4.045 1.505 2924
-1.644 4.049 1.492 4958
-1.637 4.031 1.472 4192
-1.632 4.021 1.455 4385
-1.651 4.067 1.456 5204
-1.658 4.084 1.448 4636
-1.711 4.214 1.476 3300
-1.718 4.232 1.468 3542
-1.722 4.243 1.457 3391
-1.684 4.148 1.413 3640
-1.717 4.229 1.424 3295
-1.724 4.246 1.415 4086
-1.760 4.334 1.427 4713
-1.761 4.338 1.414 6230
-1.794 4.419 1.423 4307
-1.833 4.515 1.436 3804
-1.843 4.539 1.428 3646
-1.890 4.656 1.446 6673
-1.895 4.667 1.434 12084
-1.893 4.663 1.417 15199
-1.895 4.667 1.403 17025
-1.899 4.677 1.390 10219
-1.920 4.730 1.389 4500
-1.933 4.762 1.381 5034
-1.969 4.851 1.389 4071
-1.974 4.862 1.376 3710
-2.033 5.008 1.397 6130
-2.037 5.018 1.383 7769
-2.039 5.022 1.367 3632
-2.107 5.190 1.392 3542
-2.111 5.200 1.377 4135
-2.124 5.232 1.368 4361
-2.149 5.293 1.365 2860
-2.226 5.483 1.391 2500
-2.230 5.493 1.376 3782
-2.229 5.489 1.357 3097
-2.227 5.485 1.338 2625
-2.246 5.532 1.330 2808
-2.370 5.837 1.378 3054
-2.365 5.826 1.357 4114
-2.349 5.786 1.329 4742
-2.344 5.775 1.308 5196
-2.346 5.778 1.290 4349
-2.362 5.817 1.279 3119
-2.483 6.116 1.319 3088
-2.481 6.112 1.298 3116
-2.477 6.101 1.277 2939
-2.701 6.653 1.359 2635
-2.614 6.440 1.299 3056
-2.651 6.530 1.294 3162
-2.652 6.533 1.274 3574
-2.659 6.550 1.256 2498
-2.737 6.742 1.267 2119
-2.762 6.803 1.256 2376
-2.828 6.965 1.260 2876
-2.835 6.983 1.241 3736
-2.842 7.000 1.221 2852
-3.055 7.526 1.279 2234
-3.063 7.544 1.258 3449
-3.064 7.547 1.234 3829
-3.056 7.528 1.207 3090
-3.090 7.611 1.195 2244
-3.369 8.298 1.264 2014
-3.373 8.308 1.239 2171
-3.383 8.333 1.216 2125
-3.564 8.780 1.246 1744
-3.569 8.790 1.220 1914
-3.567 8.786 1.191 2187
-3.568 8.789 1.164 2126
-3.806 9.375 1.203 2053
-3.804 9.370 1.173 2322
-3.805 9.373 1.143 1901
-3.940 9.704 1.148 1590
-4.080 10.050 1.153 2002
-4.081 10.053 1.121 2041
-3.940 9.705 1.056 2297
-3.941 9.707 1.026 1843
-4.102 10.104 1.030 1528
-4.148 10.216 1.008 1655
-4.157 10.241 0.978 1631
-4.426 10.901 0.998 1551
-4.427 10.904 0.964 1247
-4.722 11.630 0.982 1626
-4.726 11.640 0.946 1561
-4.884 12.030 0.936 1825
-4.888 12.040 0.898 1828
-4.900 12.071 0.862 1923
-4.898 12.065 0.824 1774
-4.899 12.067 0.786 1234
-5.944 14.641 0.878 1062
-1.190 2.932 0.276 1024
-1.191 2.933 0.267 1008
-1.191 2.933 0.258 963
-6.917 17.038 0.785 1115
-6.917 17.039 0.732 1221
-6.918 17.041 0.678 1303
-6.922 17.049 0.625 1111
-7.282 17.938 0.594 1204
-7.283 17.939 0.538 1229
-7.283 17.940 0.481 1254
-7.281 17.934 0.425 1001
-7.272 17.912 0.368 851
-7.272 17.913 0.312 805
-7.272 17.913 0.256 592
-7.269 17.906 0.199 382
-7.284 17.943 0.143 313
-1.221 3.008 0.121 308
-1.221 3.008 0.112 422
-1.221 3.008 0.103 584
-1.221 3.008 0.093 746
-1.221 3.008 0.084 933
-1.221 3.008 0.075 1285
-1.221 3.008 0.065 1450
-1.224 3.015 0.056 1496
-1.224 3.015 0.046 1559
-1.224 3.014 0.037 1523
-1.224 3.014 0.028 1488
-1.221 3.006 0.019 1368
-1.220 3.006 0.009 1250
-1.220 3.006 0.000 1069
-1.363 3.357 -0.027 970
-1.363 3.357 -0.037 1196
-1.362 3.356 -0.048 1422
-1.362 3.355 -0.058 1572
-1.362 3.355 -0.069 1723
-1.362 3.354 -0.079 1693
-1.362 3.354 -0.089 1663
-1.361 3.353 -0.100 1482
-1.361 3.352 -0.110 1301
-1.361 3.352 -0.121 1058
-1.360 3.351 -0.131 815
-1.363 3.358 -0.142 626
-1.363 3.357 -0.152 439
-1.306 3.217 -0.150 315
-1.306 3.216 -0.160 285
-1.504 3.705 -0.218 297
-1.504 3.704 -0.229 322
-1.503 3.703 -0.241 328
-1.503 3.702 -0.252 328
-1.502 3.701 -0.264 320
-1.502 3.700 -0.275 298
-1.502 3.699 -0.287 277
-0.982 2.418 -0.175 312
-0.766 1.895 1.565 4871
-0.768 1.899 1.559 9743
-0.772 1.909 1.558 7299
-0.778 1.925 1.561 5279
-0.780 1.929 1.555 5231
-0.837 2.071 1.653 7506
-0.841 2.081 1.651 10288
-0.843 2.085 1.645 10063
-0.845 2.089 1.639 9562
-0.846 2.093 1.632 9285
-0.845 2.091 1.621 8095
-0.842 2.083 1.606 7621
-0.846 2.093 1.604 7092
-0.855 2.116 1.611 7423
-0.854 2.113 1.600 9156
-0.856 2.117 1.593 11005
-0.858 2.121 1.587 12661
-0.859 2.125 1.580 14316
-0.863 2.135 1.578 13171
-0.885 2.189 1.606 12854
-0.891 2.205 1.607 14878
-0.888 2.197 1.592 13910
-0.887 2.194 1.581 13736
-0.896 2.217 1.587 10429
-0.903 2.233 1.588 9892
-0.915 2.262 1.598 9341
-0.921 2.279 1.599 12240
-0.923 2.283 1.592 12797
-0.924 2.287 1.585 13354
-0.926 2.290 1.578 10411
-0.933 2.307 1.579 7816
-0.934 2.311 1.572 5419
-0.969 2.397 1.617 5776
-0.971 2.401 1.610 8915
-0.977 2.418 1.610 11909
-0.987 2.441 1.614 13553
-0.988 2.445 1.607 12169
-0.987 2.442 1.595 10827
-1.017 2.517 1.630 11040
-1.022 2.527 1.627 12492
-1.021 2.525 1.615 12002
-1.020 2.522 1.603 11171
-1.019 2.520 1.592 10810
-1.025 2.537 1.592 11420
-1.030 2.547 1.587 12699
-1.031 2.551 1.580 10236
-1.033 2.555 1.572 5589
-1.069 2.643 1.612 3837
-1.044 2.582 1.567 3565
-1.048 2.592 1.563 3825
-1.110 2.746 1.638 3902
-1.115 2.757 1.633 10859
-1.116 2.761 1.625 15866
-1.118 2.765 1.616 16366
-1.122 2.776 1.611 12705
-1.140 2.819 1.624 11439
-1.141 2.823 1.615 10850
-1.140 2.820 1.603 9219
-1.139 2.818 1.591 8378
-1.143 2.828 1.585 8441
-1.153 2.852 1.587 8439
-1.176 2.909 1.605 9768
-1.183 2.926 1.603 8679
-1.198 2.963 1.611 11216
-1.213 3.001 1.618 15726
-1.217 3.011 1.612 18481
-1.216 3.009 1.600 17943
-1.218 3.012 1.590 14454
-1.222 3.023 1.584 10783
-1.226 3.034 1.578 8389
-1.228 3.038 1.569 5347
-1.230 3.041 1.559 3286
-1.242 3.072 1.563 4553
-1.263 3.123 1.575 7561
-1.264 3.127 1.565 10767
-1.266 3.131 1.556 10917
-1.267 3.135 1.546 8303
-1.274 3.152 1.542 6236
-1.278 3.163 1.536 6943
-1.285 3.180 1.532 6647
-1.309 3.238 1.546 6276
-1.341 3.317 1.569 7489
-1.342 3.320 1.558 8668
-1.344 3.324 1.548 7981
-1.345 3.328 1.538 8914
-1.355 3.352 1.536 8759
-1.379 3.411 1.549 6194
-1.391 3.442 1.550 6527
-1.396 3.453 1.542 5579
-1.358 3.360 1.492 5345
-1.402 3.467 1.523 6476
-1.409 3.485 1.518 8748
-1.421 3.516 1.518 8101
-1.428 3.533 1.512 5898
-1.441 3.565 1.512 6314
-1.445 3.575 1.504 6564
-1.461 3.614 1.506 6990
-1.434 3.548 1.469 5362
-1.436 3.552 1.458 3425
-1.474 3.645 1.480 5583
-1.475 3.649 1.469 7036
-1.477 3.653 1.457 4944
-1.523 3.767 1.487 7044
-1.527 3.778 1.477 7171
-1.554 3.844 1.488 6394
-1.556 3.848 1.476 5693
-1.619 4.005 1.518 3196
-1.598 3.953 1.486 2847
-1.628 4.027 1.497 3261
-1.635 4.044 1.490 5453
-1.631 4.034 1.472 4879
-1.626 4.023 1.455 4649
-1.642 4.062 1.454 5184
-1.652 4.087 1.448 4591
-1.705 4.217 1.476 3256
-1.712 4.235 1.468 3578
-1.713 4.238 1.454 3470
-1.678 4.150 1.413 3887
-1.679 4.153 1.400 2900
-1.720 4.256 1.417 3584
-1.750 4.330 1.425 4657
-1.755 4.340 1.414 6100
-1.790 4.429 1.425 4403
-1.826 4.517 1.436 4315
-1.833 4.535 1.426 4250
-1.883 4.659 1.446 8384
-1.885 4.663 1.432 14223
-1.886 4.666 1.417 17398
-1.888 4.670 1.403 19131
-1.892 4.680 1.390 11198
-1.919 4.748 1.392 4302
-1.926 4.765 1.381 4940
-1.928 4.769 1.367 4162
-2.010 4.972 1.403 3151
-2.026 5.011 1.397 6147
-2.030 5.021 1.383 7847
-2.031 5.025 1.367 3836
-2.099 5.193 1.392 3086
-2.103 5.203 1.377 3663
-2.119 5.242 1.369 4439
-2.141 5.296 1.365 2999
-2.218 5.486 1.391 2944
-2.222 5.496 1.376 3922
-2.220 5.493 1.357 3083
-2.219 5.489 1.338 2630
-2.240 5.542 1.332 2903
-2.361 5.841 1.378 2945
-2.351 5.815 1.354 4171
-2.343 5.797 1.331 4963
-2.336 5.778 1.308 5239
-2.337 5.781 1.290 4241
-2.353 5.821 1.279 3042
-2.474 6.120 1.319 2951
-2.472 6.116 1.298 3033
-2.465 6.097 1.275 3198
-2.609 6.455 1.322 2816
-2.608 6.451 1.300 3148
-2.638 6.526 1.293 3340
-2.642 6.537 1.274 3715
-2.650 6.554 1.256 2530
-2.662 6.586 1.240 2197
-2.731 6.756 1.247 2349
-2.814 6.962 1.259 2775
-2.822 6.980 1.240 3498
-2.829 6.997 1.220 2616
-3.044 7.531 1.279 2238
-3.051 7.548 1.258 3095
-3.053 7.551 1.234 3356
-3.042 7.525 1.206 2664
-3.078 7.615 1.195 1995
-3.356 8.302 1.264 1663
-3.360 8.313 1.239 1830
-3.373 8.345 1.217 1896
-3.554 8.792 1.247 2060
-3.556 8.795 1.220 2380
-3.554 8.791 1.191 2797
-3.555 8.794 1.164 2714
-3.559 8.804 1.137 2369
-3.790 9.376 1.173 2224
-3.791 9.379 1.143 1804
-3.925 9.710 1.148 1527
-4.065 10.056 1.153 1745
-3.928 9.715 1.087 1952
-3.926 9.711 1.056 2283
-3.924 9.706 1.025 1796
-4.111 10.169 1.036 1437
-4.112 10.171 1.004 1487
-4.409 10.906 1.032 1469
-4.410 10.908 0.998 1624
-4.576 11.320 0.995 1365
-4.704 11.637 0.982 1682
-4.708 11.647 0.946 1647
-4.863 12.030 0.935 1655
-4.867 12.039 0.898 1558
-4.883 12.078 0.862 1608
-4.880 12.073 0.824 1533
-4.878 12.067 0.786 1101
-5.922 14.649 0.878 1057
-5.923 14.651 0.833 1019
-5.746 14.213 0.767 997
-6.894 17.053 0.839 917
