0.959 2.136 1.761 10865
0.966 2.152 1.763 11195
0.971 2.163 1.761 12120
0.973 2.167 1.754 12120
0.977 2.177 1.752 9645
0.995 2.217 1.772 8972
0.987 2.198 1.747 8759
0.986 2.196 1.736 9726
0.985 2.194 1.725 7553
0.984 2.192 1.713 5525
1.037 2.311 1.790 5442
1.037 2.309 1.778 5000
1.028 2.289 1.754 5011
1.027 2.288 1.742 5708
1.026 2.286 1.731 6406
1.063 2.369 1.779 5934
1.065 2.373 1.772 6386
1.067 2.378 1.764 6397
1.067 2.376 1.753 6635
1.068 2.380 1.745 6407
1.070 2.384 1.738 6179
1.072 2.389 1.730 5504
1.082 2.411 1.735 4948
1.090 2.428 1.736 4710
1.097 2.444 1.737 5133
1.102 2.455 1.733 4254
1.126 2.509 1.758 3938
1.111 2.476 1.726 4648
1.113 2.480 1.718 5593
1.115 2.484 1.710 5206
1.156 2.576 1.758 5216
1.164 2.592 1.758 5383
1.168 2.603 1.754 8872
1.173 2.614 1.750 12192
1.178 2.624 1.745 17222
1.183 2.635 1.741 22588
1.185 2.639 1.733 21462
1.187 2.643 1.725 20336
1.191 2.654 1.720 20579
1.190 2.652 1.708 19785
1.189 2.649 1.696 19810
1.191 2.653 1.687 23127
1.193 2.658 1.679 26444
1.198 2.668 1.674 25862
1.202 2.679 1.670 19660
1.224 2.727 1.687 14755
1.229 2.738 1.682 15569
1.237 2.755 1.681 15178
1.238 2.759 1.672 12332
1.255 2.795 1.682 13253
1.259 2.806 1.677 18906
1.261 2.810 1.668 21346
1.263 2.814 1.659 17177
1.317 2.934 1.714 9368
1.319 2.938 1.704 9320
1.324 2.949 1.699 9266
1.329 2.960 1.693 8955
1.330 2.964 1.683 8164
1.338 2.981 1.681 6317
1.358 3.024 1.692 8648
1.362 3.035 1.686 9999
1.367 3.045 1.680 8986
1.369 3.049 1.670 6304
1.427 3.178 1.724 6532
1.449 3.228 1.737 6689
1.454 3.239 1.730 7134
1.468 3.270 1.733 5862
1.437 3.201 1.687 4574
1.439 3.205 1.677 4772
1.441 3.210 1.666 5442
1.493 3.326 1.710 5837
1.501 3.343 1.706 7577
1.500 3.341 1.692 7114
1.525 3.398 1.707 5396
1.527 3.402 1.696 7900
1.526 3.400 1.682 8347
1.531 3.411 1.675 5915
1.536 3.421 1.667 4103
1.544 3.439 1.662 4129
1.549 3.450 1.654 6930
1.550 3.454 1.643 7089
1.627 3.625 1.706 5969
1.632 3.636 1.697 5993
1.631 3.634 1.683 4520
1.594 3.550 1.634 4439
1.644 3.662 1.669 4420
1.643 3.659 1.654 4736
1.641 3.656 1.640 5314
1.680 3.742 1.662 6585
1.684 3.752 1.653 6237
1.744 3.885 1.693 5419
1.740 3.876 1.675 7658
1.742 3.880 1.663 7932
1.747 3.891 1.653 7089
1.751 3.901 1.644 8868
1.756 3.912 1.634 10723
1.767 3.937 1.629 9470
1.772 3.947 1.620 9249
1.771 3.944 1.605 8265
1.776 3.955 1.595 7730
1.777 3.959 1.582 5479
1.896 4.223 1.665 5444
1.901 4.234 1.654 4853
1.893 4.218 1.633 3823
1.911 4.256 1.632 4087
1.915 4.267 1.621 5984
1.926 4.291 1.615 5288
1.931 4.302 1.603 3260
2.029 4.520 1.663 3056
2.037 4.538 1.653 4864
2.042 4.549 1.641 3382
2.093 4.663 1.663 3238
2.101 4.681 1.653 2555
2.094 4.664 1.631 4194
2.099 4.675 1.619 5235
2.100 4.679 1.604 3789
2.090 4.655 1.580 3407
2.088 4.652 1.563 2544
2.237 4.983 1.649 2326
2.204 4.910 1.610 3088
2.218 4.942 1.603 3307
2.295 5.113 1.636 4035
2.294 5.110 1.618 3431
2.315 5.156 1.614 4456
2.304 5.132 1.590 4766
2.299 5.122 1.570 4847
2.339 5.210 1.577 3893
2.378 5.297 1.583 3147
2.424 5.399 1.593 3356
2.432 5.417 1.580 3216
2.560 5.702 1.637 2444
2.571 5.727 1.624 3131
2.582 5.752 1.612 4037
2.634 5.868 1.622 4265
2.639 5.879 1.605 5321
2.647 5.897 1.590 5545
2.655 5.915 1.575 4412
2.743 6.110 1.602 2495
2.748 6.120 1.584 3058
2.654 5.912 1.515 4242
2.656 5.916 1.496 3741
2.661 5.927 1.479 2607
2.942 6.553 1.600 2573
2.956 6.585 1.586 3326
2.961 6.596 1.566 3908
2.966 6.607 1.547 3790
2.968 6.611 1.526 3933
2.969 6.614 1.505 2978
3.232 7.200 1.603 2320
3.272 7.289 1.597 2678
3.274 7.293 1.574 3022
3.276 7.297 1.551 2725
3.277 7.301 1.528 2528
0.566 1.261 0.367 4375
0.569 1.269 0.365 7775
0.570 1.269 0.361 12134
0.570 1.270 0.357 17192
0.570 1.270 0.353 20548
0.571 1.271 0.349 20564
0.571 1.271 0.345 18814
0.571 1.272 0.341 15330
0.571 1.273 0.337 11385
0.623 1.387 0.352 8054
0.623 1.388 0.347 5432
0.623 1.389 0.343 3407
4.209 9.376 1.528 2412
0.431 0.960 0.272 2608
0.431 0.960 0.269 2726
0.431 0.961 0.266 2626
4.212 9.383 1.407 2242
0.432 0.961 0.260 1549
1.607 3.580 0.596 1260
1.607 3.581 0.585 1525
1.608 3.582 0.573 1619
1.609 3.583 0.562 1466
0.432 0.963 0.246 1235
0.436 0.970 0.244 1385
0.439 0.978 0.241 1251
0.462 1.028 0.244 1806
0.462 1.029 0.241 2799
0.462 1.029 0.238 3641
0.465 1.036 0.235 4315
0.465 1.037 0.232 4938
0.462 1.030 0.228 5365
0.462 1.030 0.225 5247
0.459 1.023 0.221 4815
0.459 1.023 0.218 3804
0.456 1.016 0.214 3044
0.456 1.016 0.211 3601
0.456 1.017 0.208 3903
0.456 1.017 0.205 3661
0.453 1.010 0.202 2936
0.453 1.010 0.199 1922
0.457 1.017 0.196 1415
0.797 1.775 0.235 1347
0.794 1.768 0.229 1431
2.031 4.524 0.358 1418
2.031 4.525 0.343 1404
2.031 4.525 0.329 1362
2.032 4.526 0.315 1244
0.788 1.754 0.201 1412
0.788 1.754 0.195 1667
0.791 1.762 0.190 2133
0.791 1.762 0.185 2508
0.791 1.762 0.179 2532
0.791 1.762 0.174 2255
0.791 1.762 0.168 1921
0.561 1.250 0.156 1541
0.561 1.250 0.152 1686
0.561 1.250 0.148 1756
0.561 1.250 0.144 1813
2.001 4.456 0.143 1815
2.000 4.456 0.129 1985
2.000 4.456 0.114 2155
2.000 4.456 0.100 2190
2.000 4.456 0.086 2153
2.000 4.456 0.072 2080
2.000 4.456 0.058 1889
2.003 4.463 0.044 1707
2.000 4.455 0.030 1466
2.000 4.455 0.016 1234
2.000 4.455 0.002 1012
2.217 4.938 -0.029 920
2.216 4.937 -0.045 798
2.219 4.944 -0.061 685
2.255 5.023 -0.080 578
2.255 5.022 -0.096 588
2.254 5.022 -0.112 564
2.254 5.021 -0.128 541
0.544 1.212 0.073 567
0.544 1.212 0.070 750
0.544 1.212 0.066 934
0.544 1.211 0.062 1112
0.544 1.211 0.059 1290
0.544 1.211 0.055 1126
0.544 1.211 0.051 962
0.540 1.203 0.048 717
0.540 1.203 0.044 482
0.543 1.210 0.040 346
3.993 8.896 -0.677 261
3.992 8.893 -0.706 260
3.991 8.891 -0.734 260
3.990 8.889 -0.762 260
1.433 3.192 -0.191 298
1.433 3.192 -0.201 267
3.990 8.888 -0.848 254
3.989 8.886 -0.876 252
3.988 8.883 -0.904 252
0.950 2.091 1.769 5868
0.951 2.096 1.762 11736
0.953 2.100 1.756 11736
0.961 2.116 1.758 10299
0.971 2.138 1.765 10087
0.975 2.148 1.763 10787
0.980 2.158 1.761 11805
0.982 2.163 1.754 11805
0.987 2.173 1.752 9551
1.005 2.213 1.772 9023
0.996 2.193 1.747 9121
0.998 2.198 1.740 10246
1.000 2.202 1.733 7869
1.040 2.290 1.788 5638
1.042 2.294 1.781 5638
1.044 2.299 1.774 5322
1.035 2.279 1.749 5082
1.034 2.277 1.738 5980
1.036 2.281 1.731 6873
1.073 2.364 1.779 6152
1.078 2.375 1.776 6618
1.077 2.373 1.764 6679
1.074 2.365 1.748 7426
1.079 2.376 1.745 6939
1.080 2.380 1.738 6533
1.085 2.390 1.734 5261
1.095 2.413 1.739 4446
1.106 2.436 1.744 4426
1.108 2.440 1.737 4821
1.115 2.456 1.737 3969
1.137 2.504 1.758 4796
1.136 2.502 1.746 4597
1.124 2.475 1.718 5095
1.126 2.479 1.710 4661
1.164 2.564 1.754 4946
1.169 2.575 1.750 4287
1.179 2.598 1.754 7035
1.184 2.609 1.750 10222
1.189 2.619 1.745 14758
1.194 2.630 1.741 19533
1.196 2.634 1.733 18317
1.198 2.638 1.725 17101
1.202 2.649 1.720 16466
1.204 2.653 1.712 14459
1.198 2.638 1.692 14053
1.202 2.648 1.687 16785
1.207 2.659 1.683 20139
1.212 2.669 1.678 19633
1.217 2.680 1.674 14988
1.236 2.722 1.687 11803
1.246 2.745 1.690 13747
1.251 2.756 1.685 15999
1.253 2.760 1.676 13777
1.266 2.790 1.682 14431
1.271 2.800 1.677 18724
1.270 2.798 1.664 21040
1.272 2.802 1.655 17212
1.274 2.806 1.647 9423
1.361 2.997 1.739 8638
1.339 2.950 1.702 8917
1.344 2.960 1.696 8995
1.346 2.965 1.687 7831
1.351 2.975 1.681 6185
1.370 3.018 1.692 8435
1.375 3.029 1.686 10032
1.380 3.040 1.680 9325
1.382 3.044 1.670 6699
1.440 3.172 1.724 5462
1.463 3.222 1.737 6530
1.468 3.233 1.730 6936
1.476 3.250 1.726 6064
1.454 3.202 1.690 5898
1.455 3.206 1.680 4808
1.505 3.316 1.721 4664
1.510 3.326 1.713 5775
1.512 3.330 1.703 7330
1.511 3.328 1.689 6849
1.507 3.319 1.673 5693
1.539 3.389 1.693 7237
1.541 3.393 1.682 7783
1.548 3.411 1.678 6264
1.553 3.422 1.670 4499
1.598 3.519 1.701 4719
1.557 3.430 1.648 6251
1.562 3.440 1.640 6987
1.646 3.625 1.709 7019
1.648 3.629 1.697 6976
1.653 3.640 1.689 5554
1.660 3.658 1.683 5037
1.659 3.655 1.669 5602
1.661 3.659 1.657 5638
1.660 3.656 1.643 5887
1.698 3.741 1.664 6961
1.700 3.745 1.653 6308
1.748 3.851 1.682 4069
1.750 3.855 1.670 6628
1.752 3.859 1.658 6639
1.757 3.870 1.648 5194
1.765 3.887 1.641 5754
1.770 3.898 1.631 6623
1.787 3.936 1.632 6344
1.792 3.947 1.622 5641
1.787 3.937 1.605 4140
1.792 3.948 1.595 4374
1.906 4.197 1.673 3557
1.914 4.215 1.665 4867
1.919 4.226 1.654 4335
1.908 4.203 1.631 3136
1.932 4.255 1.634 3694
1.930 4.252 1.619 6150
1.938 4.269 1.610 5184
1.946 4.287 1.601 3047
2.048 4.511 1.663 3375
2.056 4.529 1.653 5037
2.105 4.636 1.673 3679
2.107 4.640 1.659 4950
2.121 4.672 1.653 2714
2.114 4.655 1.631 3592
2.118 4.666 1.619 5029
2.120 4.670 1.604 3096
2.109 4.646 1.580 2167
2.225 4.900 1.643 2331
2.226 4.904 1.628 2805
2.219 4.887 1.606 3144
2.315 5.099 1.653 3488
2.317 5.103 1.636 4321
2.319 5.107 1.620 3072
2.305 5.076 1.594 4542
2.313 5.094 1.582 4914
2.321 5.112 1.570 4259
2.326 5.123 1.555 3861
2.404 5.294 1.585 3088
2.383 5.249 1.555 1833
2.471 5.442 1.589 2468
2.593 5.712 1.643 2313
2.595 5.716 1.624 2743
2.600 5.727 1.608 3014
2.656 5.850 1.620 3678
2.661 5.861 1.604 3774
2.672 5.886 1.590 4400
2.684 5.911 1.577 4265
2.695 5.936 1.563 2323
2.770 6.102 1.583 2786
2.679 5.901 1.515 3103
2.684 5.912 1.498 2808
2.977 6.558 1.626 2232
2.973 6.548 1.602 2892
2.984 6.573 1.586 4212
2.989 6.583 1.566 5051
2.994 6.594 1.547 4622
2.999 6.605 1.527 4977
3.010 6.630 1.511 4686
3.018 6.648 1.493 3428
3.303 7.275 1.597 2715
3.308 7.286 1.576 3147
3.306 7.283 1.551 2936
3.373 7.429 1.555 3000
3.381 7.447 1.534 3068
0.575 1.266 0.365 3162
0.575 1.267 0.361 5385
0.575 1.267 0.357 8328
0.576 1.268 0.353 10609
0.576 1.268 0.349 10954
0.576 1.269 0.345 10071
0.628 1.384 0.360 8909
0.628 1.384 0.356 8119
0.629 1.385 0.352 6469
0.629 1.385 0.347 4440
0.629 1.386 0.343 2761
1.226 2.701 0.535 2444
1.227 2.702 0.526 2946
1.227 2.703 0.518 3278
1.227 2.704 0.509 3404
1.228 2.705 0.501 3270
1.228 2.706 0.492 2873
1.229 2.707 0.484 2385
1.229 2.708 0.475 2110
1.230 2.708 0.467 1770
0.436 0.961 0.249 1251
0.436 0.961 0.246 1257
0.440 0.968 0.244 1206
0.466 1.026 0.247 1556
0.469 1.034 0.245 2178
0.469 1.034 0.241 2684
0.469 1.034 0.238 3276
0.470 1.034 0.235 3927
0.470 1.035 0.232 3985
0.470 1.035 0.229 3351
0.470 1.035 0.226 2662
0.470 1.035 0.222 2537
0.470 1.036 0.219 3226
0.467 1.029 0.216 3751
0.464 1.022 0.212 3247
0.461 1.015 0.208 2358
0.457 1.008 0.205 1936
0.458 1.008 0.202 1678
0.461 1.015 0.199 1326
0.801 1.764 0.240 868
0.801 1.764 0.234 1145
0.801 1.764 0.229 1354
0.798 1.757 0.223 1567
0.798 1.758 0.217 1318
0.791 1.743 0.211 1101
0.559 1.232 0.186 1317
0.559 1.232 0.182 1793
0.563 1.240 0.179 2779
0.563 1.240 0.175 3362
0.563 1.240 0.171 3950
0.563 1.240 0.167 5159
0.563 1.240 0.163 5781
0.563 1.240 0.159 6239
0.563 1.240 0.156 6862
0.563 1.240 0.152 7027
0.563 1.240 0.148 6726
0.563 1.240 0.144 5989
0.563 1.240 0.140 5226
0.566 1.247 0.137 4136
0.563 1.240 0.133 3370
0.563 1.240 0.129 2633
2.019 4.448 0.086 1955
2.019 4.447 0.072 1848
2.019 4.447 0.058 1664
2.022 4.454 0.044 1503
2.022 4.454 0.030 1275
2.019 4.446 0.016 1067
2.018 4.446 0.002 841
2.018 4.446 -0.012 614
2.018 4.445 -0.027 463
2.276 5.014 -0.064 519
2.276 5.013 -0.080 600
2.276 5.013 -0.096 680
2.275 5.012 -0.112 699
2.272 5.004 -0.127 721
2.275 5.011 -0.144 679
2.274 5.010 -0.159 640
2.274 5.009 -0.175 544
0.549 1.209 0.062 557
0.546 1.202 0.059 608
0.545 1.201 0.055 530
0.549 1.208 0.051 457
0.549 1.208 0.047 338
5.242 11.546 -0.887 303
5.237 11.536 -0.923 374
5.236 11.534 -0.960 383
5.235 11.531 -0.997 393
5.233 11.528 -1.034 382
5.232 11.524 -1.070 371
5.230 11.521 -1.107 371
5.229 11.518 -1.144 358
1.439 3.169 -0.220 353
1.438 3.168 -0.230 352
1.441 3.174 -0.241 354
0.965 2.085 1.769 5640
0.967 2.089 1.762 11281
0.969 2.093 1.756 11281
0.973 2.103 1.754 9404
0.989 2.137 1.770 9473
0.993 2.147 1.768 10329
0.995 2.151 1.761 11385
0.997 2.156 1.754 11385
1.002 2.166 1.752 9416
1.018 2.200 1.768 8674
1.012 2.186 1.747 9248
1.014 2.190 1.740 10537
1.018 2.201 1.738 8431
1.034 2.235 1.753 8180
1.039 2.245 1.750 7371
1.044 2.255 1.748 6451
1.046 2.259 1.741 6195
1.045 2.258 1.729 6981
1.047 2.262 1.722 7746
1.046 2.260 1.711 6705
1.095 2.367 1.776 7057
1.092 2.359 1.760 7702
1.091 2.357 1.748 8968
1.093 2.362 1.741 7933
1.098 2.372 1.738 7018
1.100 2.376 1.730 5011
1.116 2.411 1.744 3608
1.126 2.434 1.748 4302
1.128 2.438 1.741 5067
1.153 2.491 1.766 4774
1.155 2.496 1.758 5883
1.154 2.494 1.746 5181
1.153 2.492 1.734 4496
1.178 2.546 1.758 4020
1.180 2.550 1.750 4453
1.182 2.554 1.742 3789
1.210 2.614 1.770 5189
1.212 2.619 1.762 7945
1.211 2.617 1.749 11406
1.213 2.621 1.741 14941
1.215 2.625 1.733 13749
1.217 2.629 1.725 12557
1.222 2.640 1.720 11015
1.226 2.650 1.716 8337
1.249 2.699 1.734 7232
1.227 2.652 1.695 9833
1.229 2.656 1.687 12625
1.234 2.667 1.682 12439
1.239 2.677 1.677 9575
1.261 2.726 1.695 8837
1.272 2.749 1.697 13496
1.274 2.753 1.688 16942
1.273 2.751 1.676 15262
1.284 2.774 1.678 15053
1.288 2.785 1.673 17954
1.290 2.789 1.664 19455
1.292 2.793 1.655 16158
1.294 2.797 1.647 9418
1.379 2.981 1.736 10277
1.363 2.946 1.706 10790
1.365 2.951 1.696 9823
1.367 2.955 1.687 7206
1.372 2.965 1.681 5642
1.395 3.015 1.695 7511
1.400 3.025 1.689 9412
1.402 3.029 1.680 9138
1.407 3.040 1.673 6763
1.481 3.201 1.744 4666
1.486 3.211 1.737 6300
1.491 3.222 1.730 6606
1.478 3.194 1.703 6881
1.480 3.198 1.693 7704
1.485 3.208 1.686 5670
1.532 3.311 1.724 4004
1.537 3.322 1.717 5106
1.536 3.319 1.703 6427
1.529 3.304 1.683 7245
1.531 3.308 1.673 8030
1.536 3.319 1.665 7075
1.568 3.389 1.685 7404
1.579 3.413 1.684 6958
1.587 3.430 1.679 5454
1.626 3.514 1.704 6024
1.579 3.412 1.645 6268
1.580 3.416 1.634 7601
1.678 3.626 1.715 8680
1.677 3.624 1.700 8952
1.682 3.635 1.692 8322
1.687 3.645 1.683 7839
1.689 3.650 1.671 6804
1.687 3.647 1.657 6436
1.689 3.651 1.645 6652
1.691 3.655 1.634 6590
1.727 3.733 1.653 5100
1.773 3.831 1.679 5791
1.775 3.835 1.667 6291
1.780 3.846 1.658 6443
1.782 3.850 1.645 5551
1.812 3.915 1.657 5122
1.810 3.912 1.642 4929
1.818 3.930 1.635 5384
1.820 3.934 1.622 4028
1.847 3.992 1.630 3189
1.868 4.037 1.633 4002
1.920 4.150 1.660 4140
1.919 4.147 1.645 4056
1.955 4.226 1.659 3572
1.948 4.209 1.638 3621
1.953 4.220 1.627 5072
1.958 4.231 1.616 7112
1.960 4.235 1.603 5633
1.971 4.259 1.596 2909
2.081 4.496 1.663 3434
2.086 4.507 1.651 4459
2.132 4.607 1.669 4675
2.134 4.611 1.654 6685
2.132 4.609 1.637 3864
2.141 4.626 1.627 3895
2.146 4.637 1.614 4719
2.154 4.655 1.604 2571
2.242 4.845 1.648 2153
2.250 4.863 1.637 3154
2.258 4.881 1.625 3960
2.254 4.871 1.606 4405
2.252 4.868 1.588 3754
2.354 5.087 1.636 4082
2.356 5.091 1.620 3622
2.354 5.088 1.602 5015
2.356 5.091 1.586 4402
2.358 5.095 1.570 3382
2.363 5.106 1.555 3978
2.406 5.200 1.564 2951
2.527 5.462 1.618 2236
2.532 5.473 1.602 2644
2.638 5.700 1.644 2702
2.691 5.816 1.656 2437
2.693 5.820 1.637 3197
2.695 5.824 1.619 2738
2.680 5.793 1.591 2378
2.721 5.881 1.594 3019
2.723 5.885 1.575 3024
2.734 5.909 1.561 1546
2.824 6.103 1.588 2127
2.822 6.099 1.567 2775
2.866 6.195 1.568 2176
3.021 6.529 1.624 1886
3.023 6.533 1.603 2576
3.034 6.558 1.587 4723
3.040 6.569 1.568 5878
3.058 6.608 1.555 4937
3.059 6.611 1.533 6233
3.064 6.622 1.514 8232
3.069 6.633 1.494 6834
3.071 6.636 1.473 4074
3.436 7.425 1.608 2712
3.437 7.429 1.584 2928
3.426 7.404 1.555 4245
3.428 7.408 1.531 4353
0.584 1.262 0.365 5402
0.584 1.263 0.361 7458
0.584 1.263 0.357 9210
0.585 1.264 0.353 10039
0.585 1.264 0.349 9284
0.585 1.265 0.345 7709
0.586 1.265 0.341 5644
0.586 1.266 0.337 3759
0.586 1.266 0.333 2298
4.260 9.206 1.570 2300
1.245 2.691 0.543 2876
1.246 2.692 0.535 3863
1.246 2.693 0.526 4904
1.247 2.694 0.518 5803
1.247 2.695 0.509 6396
1.247 2.696 0.501 6462
1.248 2.697 0.492 5946
1.248 2.698 0.484 5104
1.249 2.699 0.475 4581
1.249 2.699 0.467 3951
1.249 2.700 0.458 2748
1.650 3.566 0.551 1726
1.650 3.567 0.539 1265
0.473 1.023 0.247 1171
0.477 1.030 0.245 1475
0.477 1.030 0.241 1529
0.477 1.031 0.238 2069
0.477 1.031 0.235 3341
0.477 1.031 0.232 4156
0.474 1.024 0.228 4039
0.474 1.025 0.225 3345
0.471 1.018 0.221 2375
0.474 1.025 0.219 1249
0.478 1.032 0.216 560
0.478 1.033 0.213 561
0.478 1.033 0.210 695
0.478 1.033 0.207 761
0.475 1.026 0.203 895
0.475 1.026 0.200 1029
0.571 1.234 0.209 1060
0.475 1.026 0.194 980
0.814 1.759 0.229 884
0.814 1.759 0.223 1406
0.814 1.759 0.218 1517
0.811 1.752 0.212 1476
0.572 1.235 0.186 1821
0.568 1.228 0.182 2851
0.572 1.235 0.179 5274
0.572 1.236 0.175 6765
0.572 1.236 0.171 8482
0.572 1.236 0.167 11337
0.575 1.243 0.163 12535
0.572 1.236 0.159 12341
0.572 1.236 0.156 10808
0.572 1.236 0.152 9410
0.572 1.236 0.148 7711
0.569 1.229 0.144 5341
0.569 1.229 0.140 4115
0.738 1.595 0.136 3794
0.735 1.588 0.131 4470
0.735 1.588 0.126 3839
0.731 1.581 0.121 2460
0.728 1.574 0.116 1462
0.728 1.573 0.111 1179
0.725 1.566 0.106 1209
0.725 1.566 0.102 1027
0.721 1.559 0.097 858
0.721 1.559 0.092 690
0.724 1.566 0.087 531
2.313 4.998 -0.048 435
2.316 5.005 -0.064 498
2.312 4.997 -0.080 558
2.312 4.996 -0.096 619
2.312 4.996 -0.112 636
2.311 4.995 -0.128 653
2.311 4.994 -0.144 608
2.311 4.993 -0.159 564
2.310 4.993 -0.175 480
2.310 4.992 -0.191 397
2.309 4.991 -0.207 317
1.851 4.001 -0.150 350
1.851 4.000 -0.163 353
1.850 3.999 -0.176 441
1.850 3.998 -0.189 530
1.850 3.997 -0.201 506
1.849 3.996 -0.214 482
1.845 3.988 -0.226 379
1.845 3.987 -0.239 277
1.470 3.177 -0.181 270
1.466 3.169 -0.190 375
1.463 3.161 -0.200 404
1.462 3.160 -0.210 446
1.462 3.159 -0.220 446
1.458 3.151 -0.229 369
1.454 3.143 -0.238 301
0.967 2.076 1.764 4967
0.969 2.080 1.757 9934
0.971 2.085 1.751 9934
0.976 2.095 1.749 8230
0.997 2.140 1.774 8774
0.999 2.144 1.768 9746
1.004 2.155 1.765 10776
1.006 2.159 1.759 10776
1.011 2.169 1.756 9049
1.021 2.191 1.763 8050
1.017 2.184 1.747 8960
1.019 2.188 1.740 10228
1.032 2.216 1.751 8667
1.043 2.238 1.757 10550
1.045 2.242 1.750 9664
1.050 2.252 1.748 8278
1.049 2.251 1.736 7674
1.048 2.249 1.725 7697
1.050 2.253 1.718 7759
1.052 2.257 1.711 7127
1.099 2.358 1.772 7413
1.098 2.356 1.760 8552
1.097 2.355 1.748 10027
1.099 2.359 1.741 8422
1.104 2.369 1.738 6959
1.106 2.373 1.730 4762
1.128 2.420 1.752 3582
1.133 2.431 1.748 4155
1.137 2.441 1.745 4864
1.157 2.482 1.762 5071
1.159 2.486 1.754 6264
1.161 2.491 1.746 5306
1.160 2.489 1.734 4375
1.164 2.499 1.730 3926
1.184 2.540 1.746 4035
1.180 2.532 1.730 4008
1.220 2.617 1.774 4861
1.222 2.622 1.765 6906
1.221 2.620 1.753 9049
1.223 2.624 1.745 11239
1.225 2.628 1.737 10240
1.227 2.632 1.728 9242
1.229 2.637 1.720 7933
1.233 2.647 1.716 6019
1.235 2.651 1.707 5195
1.237 2.655 1.699 6849
1.242 2.666 1.694 8526
1.247 2.676 1.689 8659
1.255 2.693 1.688 7066
1.280 2.748 1.709 9072
1.282 2.752 1.701 13365
1.281 2.750 1.688 16138
1.280 2.747 1.676 14896
1.294 2.777 1.682 14177
1.296 2.781 1.673 16254
1.298 2.785 1.664 16984
1.300 2.789 1.655 14155
1.367 2.935 1.724 10152
1.384 2.971 1.732 11126
1.374 2.949 1.709 12397
1.373 2.947 1.696 10600
1.372 2.945 1.683 7112
1.377 2.955 1.678 5514
1.406 3.018 1.699 6819
1.408 3.022 1.689 9004
1.413 3.032 1.683 8997
1.415 3.036 1.673 6790
1.453 3.119 1.704 4396
1.495 3.207 1.737 5946
1.497 3.212 1.726 6135
1.489 3.196 1.707 7049
1.488 3.194 1.693 8160
1.496 3.211 1.689 6363
1.507 3.235 1.689 5427
1.506 3.232 1.675 4820
1.545 3.315 1.703 5497
1.538 3.300 1.683 6750
1.539 3.304 1.673 8521
1.544 3.314 1.665 8041
1.577 3.385 1.685 6397
1.591 3.415 1.687 6501
1.596 3.426 1.679 5519
1.635 3.510 1.704 6422
1.640 3.520 1.696 6157
1.590 3.411 1.634 6795
1.688 3.622 1.715 9221
1.690 3.626 1.703 10017
1.695 3.637 1.695 9820
1.697 3.641 1.683 8933
1.698 3.645 1.671 6756
1.697 3.642 1.657 6296
1.699 3.646 1.645 6867
1.701 3.650 1.634 6533
1.781 3.822 1.691 5705
1.783 3.826 1.679 5893
1.782 3.824 1.664 5978
1.790 3.841 1.658 6635
1.798 3.859 1.651 6469
1.822 3.910 1.657 6540
1.824 3.914 1.645 6218
1.829 3.925 1.635 6993
1.831 3.929 1.622 5159
1.858 3.987 1.630 4288
1.872 4.018 1.628 4462
1.880 4.036 1.620 4690
1.885 4.046 1.610 4493
1.951 4.186 1.646 4448
1.959 4.204 1.638 5847
1.961 4.208 1.625 7905
1.966 4.219 1.614 8263
1.971 4.230 1.603 5211
1.976 4.240 1.592 2388
2.089 4.484 1.660 3495
2.091 4.488 1.646 4023
2.141 4.595 1.666 4862
2.143 4.599 1.652 6895
2.142 4.596 1.635 4906
2.150 4.614 1.625 4550
2.152 4.618 1.610 4296
2.169 4.656 1.606 2413
2.220 4.763 1.624 2327
2.263 4.857 1.637 2774
2.265 4.861 1.621 4339
2.267 4.865 1.606 5342
2.269 4.869 1.590 4469
2.364 5.073 1.634 3522
2.366 5.077 1.618 4384
2.364 5.074 1.600 5961
2.366 5.078 1.584 5240
2.368 5.082 1.568 3973
2.370 5.086 1.551 3347
2.482 5.326 1.601 2994
2.490 5.344 1.587 3868
2.550 5.473 1.604 2375
2.650 5.686 1.643 2834
2.707 5.809 1.656 2347
2.712 5.820 1.639 3160
2.710 5.817 1.619 2508
2.696 5.786 1.591 1961
2.743 5.887 1.597 2567
2.735 5.870 1.573 2198
2.855 6.126 1.616 1577
2.847 6.109 1.591 2586
2.842 6.099 1.568 3415
2.876 6.173 1.565 2329
2.872 6.163 1.542 1871
3.073 6.595 1.619 1941
3.068 6.585 1.595 4795
3.073 6.596 1.576 6323
3.082 6.614 1.558 5632
3.080 6.610 1.535 7272
3.082 6.614 1.514 10102
3.087 6.625 1.494 8716
3.089 6.628 1.473 5240
3.452 7.409 1.607 3267
3.454 7.412 1.583 3591
3.442 7.388 1.554 4938
3.444 7.392 1.530 5036
3.449 7.402 1.508 4609
0.588 1.261 0.361 5465
0.585 1.255 0.356 7381
0.588 1.262 0.353 8830
0.588 1.263 0.349 8726
0.589 1.263 0.345 7762
0.589 1.264 0.341 6215
0.589 1.264 0.337 4531
0.589 1.265 0.333 3029
0.646 1.386 0.348 2015
1.252 2.687 0.543 2925
1.253 2.688 0.535 4094
1.253 2.690 0.526 5367
1.254 2.691 0.518 6521
1.254 2.692 0.509 7318
1.258 2.700 0.502 7474
1.258 2.701 0.493 6891
1.255 2.694 0.484 5900
1.256 2.695 0.475 5278
1.256 2.696 0.467 4576
1.257 2.697 0.458 3198
1.260 2.705 0.450 1917
1.660 3.562 0.539 1033
0.483 1.036 0.249 1449
0.483 1.036 0.245 2494
0.480 1.029 0.241 3632
0.480 1.029 0.238 4153
0.480 1.030 0.235 3554
0.483 1.037 0.233 2258
0.483 1.037 0.229 1460
0.483 1.038 0.226 1268
0.480 1.031 0.222 1191
0.480 1.031 0.219 919
0.480 1.031 0.216 566
0.481 1.031 0.213 497
1.682 3.609 0.395 531
1.679 3.603 0.383 594
1.682 3.611 0.372 563
0.481 1.032 0.200 471
0.481 1.032 0.197 527
0.481 1.032 0.194 520
0.822 1.764 0.229 523
0.822 1.764 0.224 748
0.822 1.764 0.218 829
0.819 1.757 0.212 909
0.815 1.750 0.206 961
0.816 1.750 0.201 819
0.582 1.248 0.179 1751
0.582 1.248 0.175 2463
0.578 1.241 0.171 3455
0.578 1.241 0.167 5237
0.578 1.241 0.163 5968
0.578 1.241 0.160 5813
0.579 1.242 0.156 4615
0.579 1.242 0.152 3570
0.579 1.242 0.148 2502
0.579 1.242 0.144 1580
0.582 1.249 0.140 1720
0.579 1.242 0.137 1751
0.579 1.242 0.133 1774
0.575 1.234 0.129 1489
0.732 1.572 0.121 994
0.732 1.572 0.116 1220
0.732 1.572 0.111 1299
0.732 1.571 0.106 1246
0.732 1.571 0.101 976
0.732 1.571 0.096 707
0.732 1.571 0.092 443
2.090 4.485 -0.143 278
2.089 4.484 -0.158 349
2.089 4.483 -0.172 365
2.089 4.482 -0.186 385
2.092 4.489 -0.201 372
2.091 4.488 -0.215 363
2.091 4.487 -0.230 363
2.090 4.486 -0.244 301
5.782 12.410 -0.969 252
5.781 12.407 -1.009 316
1.859 3.989 -0.239 313
5.778 12.400 -1.089 304
5.777 12.397 -1.128 287
1.857 3.986 -0.277 279
1.471 3.157 -0.200 341
1.471 3.156 -0.210 428
1.470 3.155 -0.220 428
1.466 3.147 -0.229 404
1.466 3.146 -0.239 384
0.976 2.072 1.764 3855
0.978 2.077 1.757 7711
0.980 2.081 1.751 7711
0.985 2.091 1.749 7058
1.006 2.136 1.774 8397
1.011 2.146 1.772 9513
1.015 2.156 1.770 10801
1.017 2.161 1.763 10801
1.019 2.165 1.756 9201
1.027 2.181 1.759 7864
1.026 2.179 1.747 8617
1.028 2.184 1.740 9473
1.047 2.223 1.760 9580
1.052 2.234 1.757 12688
1.057 2.244 1.755 11855
1.059 2.248 1.748 10320
1.058 2.246 1.736 9522
1.057 2.245 1.725 8650
1.056 2.243 1.713 7902
1.061 2.253 1.711 7545
1.105 2.348 1.768 8463
1.105 2.346 1.756 9907
1.107 2.350 1.748 11512
1.111 2.360 1.745 9170
1.113 2.365 1.738 7051
1.118 2.375 1.734 5001
1.140 2.422 1.756 4584
1.145 2.432 1.753 4952
1.150 2.443 1.749 5516
1.164 2.471 1.758 5680
1.169 2.482 1.754 6898
1.168 2.480 1.742 5865
1.164 2.472 1.726 5003
1.175 2.494 1.730 4763
1.182 2.511 1.730 5040
1.187 2.521 1.726 5345
1.189 2.526 1.718 5878
1.229 2.610 1.762 6779
1.231 2.615 1.753 7740
1.233 2.619 1.745 8701
1.235 2.623 1.737 7835
1.237 2.627 1.728 6968
1.242 2.638 1.724 6966
1.244 2.642 1.716 6202
1.243 2.640 1.703 5455
1.257 2.669 1.710 5650
1.265 2.686 1.709 6837
1.264 2.684 1.697 7290
1.287 2.732 1.714 7066
1.289 2.736 1.706 9296
1.293 2.747 1.701 12145
1.292 2.745 1.688 14123
1.291 2.742 1.676 13422
1.305 2.772 1.682 11921
1.310 2.782 1.677 13481
1.312 2.786 1.668 13230
1.311 2.784 1.655 10946
1.379 2.929 1.724 10813
1.384 2.940 1.718 11769
1.383 2.937 1.706 13555
1.385 2.941 1.696 11391
1.381 2.933 1.680 7585
1.383 2.937 1.671 5815
1.421 3.018 1.702 7180
1.423 3.022 1.693 9121
1.425 3.027 1.683 9228
1.430 3.037 1.677 7164
1.438 3.054 1.674 4173
1.508 3.201 1.737 5655
1.510 3.206 1.726 5615
1.502 3.190 1.707 6415
1.504 3.194 1.696 7796
1.512 3.212 1.693 6929
1.517 3.222 1.686 6932
1.519 3.226 1.675 6487
1.527 3.243 1.671 4700
1.548 3.287 1.680 5717
1.553 3.298 1.673 7850
1.564 3.321 1.671 8570
1.566 3.325 1.661 7133
1.565 3.323 1.647 6085
1.570 3.333 1.640 5911
1.653 3.510 1.707 6079
1.655 3.514 1.696 6071
1.703 3.618 1.729 5763
1.702 3.615 1.715 9055
1.704 3.619 1.703 10187
1.709 3.630 1.695 9613
1.711 3.634 1.683 8408
1.713 3.638 1.671 5934
1.712 3.635 1.657 5948
1.714 3.639 1.645 7004
1.716 3.643 1.634 6140
1.797 3.815 1.691 5329
1.802 3.826 1.682 4944
1.800 3.823 1.667 5782
1.812 3.847 1.663 7499
1.826 3.878 1.661 8910
1.838 3.903 1.657 7867
1.840 3.907 1.645 7858
1.842 3.911 1.632 10085
1.840 3.908 1.617 7489
1.871 3.973 1.628 6368
1.860 3.949 1.605 5712
1.970 4.184 1.678 5104
1.966 4.175 1.660 5564
1.971 4.185 1.649 7019
1.976 4.196 1.638 8631
1.978 4.200 1.625 10529
1.980 4.204 1.611 9110
1.985 4.215 1.600 4183
2.102 4.465 1.672 2383
2.104 4.469 1.658 4076
2.106 4.473 1.644 4473
2.160 4.586 1.666 4398
2.158 4.583 1.649 6016
2.160 4.587 1.635 5160
2.168 4.605 1.625 5030
2.170 4.609 1.610 3906
2.192 4.654 1.608 2280
2.239 4.754 1.624 3174
2.241 4.758 1.609 3185
2.278 4.838 1.617 4635
2.283 4.849 1.604 5174
2.292 4.866 1.592 3931
2.378 5.050 1.630 3358
2.380 5.054 1.614 5173
2.378 5.051 1.596 7147
2.380 5.055 1.580 6906
2.382 5.058 1.564 5224
2.426 5.152 1.573 3790
2.425 5.149 1.554 4104
2.512 5.334 1.587 4850
2.517 5.344 1.572 2753
2.669 5.668 1.641 2811
2.733 5.805 1.658 2151
2.735 5.809 1.639 2956
2.734 5.806 1.619 2546
2.778 5.900 1.623 2915
2.774 5.890 1.601 2811
2.861 6.076 1.627 2552
2.863 6.080 1.607 2161
2.868 6.091 1.589 3204
2.867 6.087 1.568 3874
2.868 6.091 1.549 2693
2.972 6.312 1.579 2246
3.100 6.583 1.619 2472
3.098 6.580 1.597 4992
3.103 6.590 1.577 6462
3.112 6.608 1.559 5986
3.110 6.605 1.536 7279
3.109 6.601 1.514 10031
3.114 6.612 1.494 9011
3.115 6.616 1.473 5602
3.479 7.387 1.605 3949
3.484 7.398 1.583 4700
3.472 7.374 1.554 5385
3.474 7.378 1.530 5457
3.476 7.381 1.506 5326
3.487 7.406 1.487 4816
3.815 8.102 1.587 3398
3.820 8.113 1.563 3467
3.819 8.110 1.535 2766
0.710 1.509 0.387 2744
0.707 1.502 0.381 3012
0.708 1.503 0.377 2636
0.708 1.503 0.372 1849
1.263 2.681 0.552 2033
1.263 2.682 0.543 3284
1.264 2.683 0.535 4766
1.267 2.692 0.527 6296
1.265 2.685 0.518 7542
1.265 2.686 0.509 8215
1.269 2.694 0.502 8108
1.269 2.695 0.493 7093
1.266 2.689 0.484 5673
1.270 2.697 0.476 4914
1.271 2.698 0.468 4133
1.268 2.692 0.458 2699
0.487 1.033 0.255 2921
0.487 1.034 0.252 3235
0.487 1.034 0.249 3398
0.487 1.034 0.245 3430
0.487 1.034 0.242 3259
0.484 1.027 0.238 3170
0.487 1.035 0.236 2692
0.487 1.035 0.233 1824
0.488 1.035 0.229 1029
0.488 1.036 0.226 687
0.488 1.036 0.223 749
0.488 1.036 0.220 948
0.488 1.036 0.217 989
0.488 1.036 0.214 807
0.488 1.037 0.210 523
0.488 1.037 0.207 369
0.485 1.030 0.204 424
0.488 1.037 0.201 649
0.488 1.037 0.198 868
0.489 1.037 0.194 857
0.489 1.038 0.191 764
0.485 1.031 0.188 565
0.832 1.768 0.218 535
0.833 1.768 0.213 581
0.583 1.239 0.186 653
0.587 1.246 0.183 1198
0.587 1.246 0.179 2560
0.587 1.246 0.175 3370
0.587 1.246 0.171 4011
0.587 1.246 0.167 4650
0.587 1.246 0.164 4602
0.587 1.246 0.160 3806
0.587 1.246 0.156 2333
2.152 4.570 0.187 1671
0.587 1.246 0.148 2057
0.587 1.246 0.144 2611
0.587 1.246 0.140 2718
0.587 1.246 0.137 2443
0.584 1.239 0.133 2129
0.584 1.239 0.129 1739
0.739 1.569 0.121 1721
0.739 1.569 0.116 2002
0.735 1.561 0.111 1843
0.735 1.561 0.106 1616
0.735 1.561 0.102 1421
0.735 1.561 0.097 1227
0.738 1.568 0.092 1010
0.738 1.568 0.087 810
0.738 1.568 0.082 597
0.735 1.561 0.077 352
2.109 4.478 -0.115 273
2.108 4.477 -0.129 370
2.108 4.476 -0.143 446
2.108 4.476 -0.158 523
2.107 4.475 -0.172 498
2.107 4.474 -0.186 472
2.110 4.480 -0.201 412
2.113 4.486 -0.216 358
2.112 4.486 -0.230 358
2.108 4.477 -0.244 293
0.635 1.348 0.002 254
1.480 3.144 -0.199 318
1.483 3.150 -0.210 402
1.483 3.149 -0.220 402
1.482 3.148 -0.230 421
1.482 3.147 -0.240 440
0.637 1.353 -0.024 414
0.637 1.352 -0.028 564
0.987 2.074 1.769 3085
0.989 2.078 1.762 6171
0.991 2.083 1.756 6171
1.010 2.122 1.777 6640
1.015 2.132 1.774 8194
1.022 2.148 1.777 9457
1.027 2.158 1.775 11132
1.029 2.162 1.768 11132
1.031 2.167 1.761 9511
1.033 2.171 1.754 7889
1.035 2.175 1.747 8160
1.037 2.179 1.740 8431
1.062 2.231 1.769 10036
1.064 2.235 1.762 13542
1.066 2.240 1.755 12861
1.068 2.244 1.748 11367
1.067 2.242 1.736 10502
1.066 2.240 1.725 8989
1.065 2.238 1.713 7585
1.070 2.249 1.711 7516
1.115 2.343 1.768 8960
1.114 2.341 1.756 10436
1.116 2.345 1.748 11964
1.121 2.356 1.745 9282
1.123 2.360 1.738 6769
1.128 2.370 1.734 4837
1.150 2.417 1.756 5559
1.155 2.427 1.753 6031
1.160 2.438 1.749 6613
1.171 2.460 1.753 6511
1.176 2.471 1.750 7645
1.178 2.475 1.742 6581
1.174 2.467 1.726 5785
1.185 2.490 1.730 5791
1.193 2.506 1.730 6415
1.195 2.510 1.722 6603
1.200 2.521 1.718 7144
1.205 2.531 1.714 7387
1.242 2.610 1.753 7193
1.247 2.620 1.749 7650
1.249 2.624 1.741 7039
1.257 2.641 1.740 6619
1.256 2.639 1.728 6848
1.255 2.637 1.716 6149
1.254 2.635 1.703 5119
1.271 2.670 1.714 4965
1.276 2.681 1.709 5686
1.278 2.685 1.701 6551
1.292 2.714 1.707 7229
1.300 2.731 1.706 8686
1.302 2.735 1.697 10585
1.304 2.739 1.688 12051
1.303 2.737 1.676 11828
1.308 2.747 1.671 9663
1.328 2.790 1.684 11322
1.330 2.794 1.675 10675
1.332 2.798 1.666 8605
1.391 2.923 1.724 10143
1.393 2.927 1.715 10742
1.395 2.932 1.706 12647
1.397 2.936 1.696 10978
1.390 2.920 1.677 7709
1.392 2.924 1.667 6121
1.434 3.012 1.702 8031
1.436 3.017 1.693 9332
1.441 3.027 1.686 9484
1.443 3.031 1.677 7430
1.448 3.042 1.670 4680
1.521 3.195 1.737 5340
1.523 3.199 1.726 5073
1.515 3.184 1.707 5373
1.514 3.182 1.693 7032
1.526 3.205 1.693 7190
1.531 3.216 1.686 7605
1.533 3.220 1.675 7175
1.547 3.250 1.678 5759
1.558 3.274 1.677 5722
1.570 3.298 1.676 7403
1.575 3.308 1.668 9944
1.577 3.312 1.658 10954
1.578 3.316 1.647 10925
1.583 3.327 1.640 10683
1.585 3.331 1.629 10517
1.584 3.328 1.615 8946
1.589 3.339 1.608 5455
1.717 3.608 1.715 8059
1.719 3.612 1.703 8944
1.721 3.616 1.692 7847
1.726 3.627 1.683 6790
1.728 3.631 1.671 5085
1.730 3.635 1.660 5827
1.732 3.639 1.648 7098
1.731 3.636 1.634 5817
1.812 3.808 1.691 3976
1.821 3.825 1.685 4222
1.819 3.823 1.670 6006
1.834 3.853 1.668 8668
1.842 3.871 1.661 10990
1.851 3.888 1.654 8717
1.853 3.892 1.642 8492
1.854 3.896 1.629 11791
1.856 3.900 1.617 8708
1.877 3.945 1.620 7759
1.876 3.942 1.605 7171
1.988 4.176 1.678 6449
1.989 4.180 1.665 6693
1.988 4.177 1.649 7740
1.993 4.188 1.638 9087
1.995 4.192 1.625 10316
1.997 4.196 1.611 8338
2.002 4.206 1.600 3605
2.118 4.449 1.670 2688
2.119 4.453 1.656 4361
2.125 4.464 1.644 4716
2.182 4.584 1.669 3978
2.184 4.588 1.654 4577
2.179 4.578 1.635 4087
2.184 4.589 1.622 4728
2.189 4.600 1.610 3617
2.250 4.727 1.635 2359
2.262 4.752 1.626 4180
2.270 4.769 1.615 4107
2.295 4.822 1.615 4459
2.303 4.839 1.604 4539
2.308 4.850 1.590 2979
2.432 5.109 1.651 3836
2.397 5.037 1.612 5063
2.396 5.034 1.594 7094
2.398 5.038 1.578 7307
2.439 5.125 1.585 6365
2.441 5.128 1.569 6122
2.443 5.132 1.552 6201
2.444 5.136 1.536 4913
2.539 5.334 1.572 2808
2.689 5.650 1.639 2588
2.688 5.647 1.619 2117
2.759 5.797 1.639 2512
2.794 5.871 1.638 2835
2.800 5.882 1.621 4630
2.801 5.886 1.602 3875
2.886 6.064 1.627 3047
2.888 6.068 1.607 2547
2.893 6.079 1.589 3253
2.895 6.083 1.570 3856
2.893 6.079 1.549 2744
2.998 6.300 1.579 2852
2.997 6.297 1.557 3079
3.129 6.574 1.598 4115
3.131 6.577 1.577 5405
3.142 6.602 1.561 5268
3.137 6.592 1.536 5983
3.139 6.596 1.515 8301
3.141 6.599 1.494 7632
3.497 7.348 1.625 5232
3.509 7.373 1.605 4087
3.514 7.384 1.583 5411
3.509 7.374 1.556 5213
3.505 7.363 1.530 4974
3.506 7.367 1.506 5022
3.521 7.399 1.488 4202
3.533 7.423 1.468 3065
4.082 8.577 1.648 2476
4.084 8.581 1.620 2927
4.090 8.592 1.594 2540
4.397 9.239 1.673 2133
4.393 9.229 1.641 2524
4.398 9.240 1.613 1811
4.454 9.357 1.601 1788
1.274 2.677 0.543 1915
1.275 2.678 0.535 2827
1.275 2.679 0.526 3814
1.276 2.680 0.518 4677
1.276 2.681 0.509 5240
1.280 2.689 0.502 5344
1.280 2.690 0.493 4867
1.277 2.684 0.484 4049
1.281 2.692 0.476 3581
1.282 2.693 0.468 3022
1.279 2.687 0.458 1975
0.491 1.031 0.255 2506
0.491 1.031 0.252 3036
0.491 1.032 0.249 3255
0.488 1.025 0.245 3173
0.488 1.025 0.241 2433
0.488 1.025 0.238 1393
0.495 1.040 0.237 602
1.526 3.205 0.438 376
1.526 3.206 0.428 293
0.492 1.034 0.226 298
0.492 1.034 0.223 456
0.492 1.034 0.220 598
0.492 1.034 0.217 667
0.492 1.034 0.214 641
0.492 1.035 0.210 520
0.493 1.035 0.207 404
1.124 2.362 0.291 356
1.121 2.356 0.283 434
1.121 2.356 0.276 583
1.121 2.356 0.268 656
1.122 2.357 0.261 708
1.125 2.364 0.254 765
1.122 2.357 0.246 770
1.125 2.365 0.239 702
1.122 2.358 0.231 525
0.595 1.251 0.183 836
0.595 1.251 0.179 1689
0.595 1.251 0.175 2186
0.595 1.251 0.171 2724
0.592 1.244 0.167 3668
0.592 1.244 0.164 3985
0.592 1.244 0.160 3850
0.592 1.244 0.156 3221
0.595 1.251 0.152 2694
0.592 1.244 0.148 2162
2.174 4.568 0.157 1664
0.749 1.573 0.141 1915
2.174 4.568 0.128 1684
2.174 4.568 0.114 1655
0.745 1.566 0.126 1567
0.745 1.566 0.121 1991
0.745 1.566 0.116 2451
0.745 1.565 0.111 2325
0.745 1.565 0.106 2030
0.745 1.565 0.101 1388
0.738 1.551 0.097 768
0.741 1.558 0.092 543
0.745 1.565 0.087 320
0.745 1.565 0.082 267
2.127 4.468 -0.129 293
2.126 4.468 -0.143 315
2.129 4.474 -0.158 339
2.129 4.473 -0.172 319
2.132 4.480 -0.187 302
2.135 4.486 -0.202 361
2.131 4.478 -0.216 419
2.131 4.477 -0.230 419
2.130 4.476 -0.245 424
0.648 1.361 0.021 504
0.648 1.361 0.017 637
0.648 1.361 0.013 676
0.644 1.353 0.009 816
0.644 1.353 0.005 958
0.644 1.352 0.001 1065
0.643 1.352 -0.003 1171
0.643 1.352 -0.007 1123
0.643 1.351 -0.012 1074
0.643 1.351 -0.016 964
0.639 1.343 -0.019 827
0.643 1.350 -0.024 799
0.642 1.350 -0.028 1084
1.004 2.094 1.787 3199
1.006 2.099 1.781 6399
1.008 2.103 1.774 6399
1.013 2.113 1.772 7139
1.021 2.129 1.774 8366
1.031 2.151 1.781 9894
1.033 2.155 1.775 12105
1.035 2.159 1.768 12105
1.037 2.164 1.761 10263
1.039 2.168 1.754 8422
1.041 2.172 1.747 7892
1.072 2.236 1.785 7872
1.071 2.234 1.773 10935
1.070 2.232 1.762 14285
1.075 2.243 1.759 13805
1.074 2.241 1.748 12419
1.073 2.239 1.736 11493
1.075 2.243 1.729 9298
1.074 2.241 1.718 7200
1.076 2.246 1.711 7341
1.119 2.334 1.763 9383
1.121 2.338 1.756 10817
1.123 2.342 1.748 12252
1.128 2.353 1.745 9438
1.167 2.436 1.792 6935
1.161 2.422 1.772 6339
1.160 2.420 1.760 6753
1.165 2.430 1.757 7153
1.167 2.435 1.749 7762
1.175 2.451 1.749 7429
1.183 2.467 1.750 8282
1.182 2.466 1.738 7192
1.181 2.464 1.726 6419
1.195 2.492 1.734 6568
1.200 2.503 1.730 7392
1.202 2.507 1.722 7511
1.210 2.523 1.722 8473
1.212 2.528 1.714 9246
1.214 2.532 1.706 6996
1.254 2.617 1.749 7182
1.256 2.621 1.741 7002
1.264 2.638 1.740 7239
1.263 2.635 1.728 7068
1.265 2.640 1.719 5548
1.294 2.700 1.745 5078
1.296 2.704 1.737 4637
1.283 2.677 1.709 4374
1.285 2.681 1.701 5842
1.296 2.704 1.703 7427
1.301 2.715 1.698 7907
1.306 2.725 1.693 8902
1.308 2.729 1.685 10271
1.310 2.733 1.676 10591
1.315 2.744 1.671 8137
1.341 2.799 1.691 10071
1.346 2.809 1.686 9933
1.348 2.813 1.677 8178
1.399 2.919 1.724 8912
1.401 2.924 1.715 9112
1.403 2.928 1.706 11159
1.405 2.932 1.696 10322
1.426 2.974 1.708 8036
1.434 2.991 1.705 7879
1.442 3.008 1.702 9001
1.447 3.019 1.696 9279
1.449 3.023 1.686 9307
1.451 3.027 1.677 7144
1.462 3.051 1.677 5125
1.526 3.184 1.733 5422
1.532 3.195 1.726 4798
1.521 3.173 1.703 4714
1.523 3.177 1.693 6284
1.534 3.201 1.693 7296
1.539 3.212 1.686 7676
1.541 3.216 1.675 7057
1.559 3.252 1.681 6824
1.567 3.270 1.677 6818
1.582 3.300 1.679 8723
1.584 3.304 1.668 13699
1.586 3.308 1.658 17367
1.588 3.312 1.647 18033
1.589 3.316 1.637 17658
1.591 3.320 1.626 19247
1.593 3.324 1.615 18440
1.595 3.328 1.605 12778
1.597 3.331 1.594 8379
1.726 3.601 1.700 6716
1.731 3.611 1.692 5340
1.736 3.622 1.683 5003
1.738 3.626 1.671 4489
1.743 3.637 1.663 5821
1.745 3.641 1.651 7095
1.750 3.652 1.642 5716
1.759 3.669 1.636 4108
1.841 3.840 1.693 4458
1.840 3.838 1.678 6763
1.845 3.848 1.668 9292
1.853 3.866 1.661 12178
1.858 3.876 1.652 9530
1.863 3.887 1.642 8671
1.865 3.891 1.629 12144
1.867 3.895 1.617 8969
1.888 3.939 1.620 8496
1.887 3.937 1.605 7535
1.999 4.170 1.678 6977
1.998 4.168 1.662 7145
2.003 4.178 1.651 7526
2.005 4.182 1.638 8312
2.007 4.186 1.625 8544
2.009 4.190 1.611 6478
2.014 4.201 1.600 2995
2.087 4.355 1.639 2786
2.132 4.447 1.656 3771
2.134 4.451 1.641 4549
2.198 4.585 1.671 3579
2.203 4.596 1.659 4045
2.208 4.606 1.646 3525
2.197 4.583 1.622 4357
2.209 4.607 1.614 3756
2.276 4.749 1.643 3228
2.278 4.752 1.628 5943
2.286 4.770 1.617 5822
2.302 4.801 1.610 5003
2.376 4.957 1.641 4328
2.381 4.968 1.628 5627
2.390 4.985 1.616 4878
2.378 4.961 1.592 4844
2.390 4.986 1.582 6080
2.405 5.017 1.574 6308
2.453 5.118 1.585 8181
2.455 5.122 1.569 8007
2.457 5.125 1.552 7532
2.459 5.129 1.536 5940
2.460 5.133 1.520 3212
2.745 5.726 1.661 2388
2.703 5.640 1.619 1939
2.705 5.644 1.601 2011
2.810 5.863 1.638 4184
2.816 5.874 1.621 6693
2.814 5.871 1.601 5551
2.816 5.875 1.582 3616
2.821 5.886 1.565 2824
2.823 5.889 1.546 3139
2.912 6.075 1.570 3385
2.910 6.071 1.549 2451
2.989 6.236 1.566 4431
2.991 6.239 1.546 5141
2.999 6.257 1.529 4947
2.998 6.254 1.508 4476
3.174 6.622 1.567 4203
3.169 6.611 1.542 4571
3.161 6.594 1.517 5594
3.159 6.591 1.494 5211
3.518 7.338 1.625 4375
3.530 7.363 1.605 3789
3.538 7.381 1.584 6060
3.533 7.371 1.558 5334
3.532 7.368 1.533 4274
3.564 7.435 1.521 4327
3.562 7.431 1.496 4495
3.560 7.428 1.470 3687
4.018 8.383 1.615 2683
4.108 8.570 1.620 3232
0.717 1.497 0.386 3947
0.718 1.497 0.381 4763
0.718 1.498 0.377 5246
0.718 1.499 0.372 5314
0.719 1.499 0.367 5011
0.719 1.500 0.363 4347
0.719 1.500 0.358 3420
0.719 1.501 0.353 2372
0.720 1.501 0.349 1417
1.287 2.685 0.510 1122
0.754 1.573 0.349 1198
0.754 1.574 0.344 1645
0.755 1.574 0.339 1900
0.755 1.575 0.334 2056
0.493 1.029 0.261 2150
0.493 1.030 0.258 3092
0.494 1.030 0.255 3884
0.494 1.030 0.252 3870
0.494 1.030 0.249 3511
0.494 1.031 0.245 2942
0.494 1.031 0.242 2025
0.498 1.038 0.240 1279
0.498 1.039 0.237 1014
0.498 1.039 0.233 918
0.495 1.032 0.229 665
0.495 1.032 0.226 435
1.341 2.798 0.373 436
0.495 1.033 0.220 424
0.495 1.033 0.217 547
0.492 1.026 0.213 573
0.492 1.026 0.210 494
0.489 1.019 0.206 413
1.134 2.366 0.291 347
1.134 2.367 0.284 265
0.595 1.241 0.194 256
0.595 1.241 0.191 585
0.595 1.242 0.187 876
0.595 1.242 0.183 1391
0.595 1.242 0.179 2337
0.599 1.249 0.175 2814
0.599 1.249 0.171 3090
0.599 1.249 0.168 3599
0.599 1.249 0.164 3768
0.599 1.249 0.160 3960
0.599 1.249 0.156 4130
0.599 1.249 0.152 4028
0.596 1.242 0.148 3487
0.596 1.242 0.144 2390
0.596 1.242 0.140 1740
0.596 1.242 0.137 1316
0.760 1.585 0.131 1081
0.756 1.578 0.126 1160
0.756 1.578 0.121 1165
0.753 1.571 0.116 1071
0.753 1.571 0.111 860
0.753 1.570 0.106 643
0.753 1.570 0.101 442
0.749 1.563 0.096 253
2.142 4.469 -0.144 301
2.142 4.468 -0.158 353
2.141 4.467 -0.172 393
2.141 4.466 -0.187 434
2.144 4.473 -0.202 451
2.144 4.472 -0.216 470
2.143 4.471 -0.230 470
2.139 4.463 -0.244 425
0.645 1.345 0.023 427
0.648 1.352 0.018 557
0.648 1.352 0.014 609
0.648 1.351 0.009 794
0.648 1.351 0.005 980
0.647 1.351 0.001 1177
0.651 1.357 -0.004 1382
0.650 1.357 -0.008 1362
0.650 1.357 -0.012 1341
0.650 1.356 -0.017 1190
0.646 1.349 -0.020 1039
0.650 1.355 -0.025 1030
0.649 1.355 -0.029 1488
1.013 2.090 1.787 3308
1.015 2.095 1.781 6616
1.017 2.099 1.774 6616
1.022 2.109 1.772 7078
1.029 2.125 1.774 8238
1.040 2.147 1.781 10099
1.042 2.151 1.775 12526
1.044 2.155 1.768 12526
1.046 2.159 1.761 10501
1.048 2.164 1.754 8477
1.079 2.227 1.792 7719
1.081 2.231 1.785 8506
1.083 2.235 1.778 11281
1.082 2.234 1.766 14356
1.084 2.238 1.759 14135
1.083 2.236 1.748 12872
1.083 2.235 1.736 11971
1.085 2.239 1.729 9399
1.084 2.237 1.718 6798
1.089 2.247 1.715 7000
1.128 2.329 1.763 9487
1.130 2.333 1.756 10786
1.132 2.338 1.748 12085
1.137 2.348 1.745 9351
1.175 2.425 1.788 7804
1.171 2.417 1.772 7509
1.170 2.415 1.760 7783
1.175 2.425 1.757 8021
1.177 2.430 1.749 8412
1.185 2.446 1.749 8007
1.193 2.463 1.750 8505
1.192 2.461 1.738 7426
1.191 2.459 1.726 6577
1.205 2.487 1.734 6677
1.210 2.498 1.730 7303
1.215 2.508 1.726 7642
1.220 2.518 1.722 9559
1.222 2.523 1.714 10773
1.224 2.527 1.706 8212
1.265 2.611 1.749 6766
1.270 2.622 1.744 7334
1.275 2.632 1.740 8113
1.274 2.630 1.728 7385
1.288 2.659 1.735 5133
1.305 2.695 1.745 5692
1.311 2.705 1.740 5026
1.276 2.634 1.687 4456
1.312 2.707 1.719 5415
1.307 2.699 1.703 7091
1.309 2.703 1.695 7167
1.314 2.713 1.690 7626
1.319 2.724 1.685 8990
1.321 2.728 1.676 9739
1.357 2.802 1.707 7762
1.356 2.799 1.695 9620
1.361 2.810 1.689 10155
1.363 2.814 1.680 8345
1.408 2.907 1.721 7521
1.410 2.911 1.711 7342
1.412 2.915 1.702 9434
1.417 2.926 1.696 9421
1.441 2.975 1.711 8947
1.446 2.985 1.705 9714
1.454 3.002 1.702 9864
1.460 3.013 1.696 8985
1.462 3.017 1.686 8666
1.498 3.092 1.714 6477
1.528 3.154 1.734 6121
1.533 3.165 1.727 5850
1.545 3.189 1.726 4675
1.534 3.167 1.703 4301
1.533 3.165 1.690 5570
1.548 3.195 1.693 7132
1.553 3.205 1.686 7190
1.567 3.235 1.688 6503
1.576 3.253 1.684 7238
1.584 3.270 1.680 7925
1.595 3.293 1.679 10984
1.597 3.297 1.668 17508
1.599 3.301 1.658 22644
1.601 3.305 1.647 23937
1.603 3.309 1.637 23996
1.605 3.313 1.626 27275
1.607 3.317 1.615 27805
1.609 3.321 1.605 20570
1.611 3.325 1.594 14240
1.612 3.329 1.584 11075
1.614 3.332 1.573 7662
1.616 3.336 1.562 4394
1.789 3.692 1.703 4997
1.762 3.636 1.665 5835
1.763 3.640 1.654 6715
1.769 3.651 1.645 5540
1.777 3.668 1.639 4324
1.853 3.826 1.690 5100
1.855 3.830 1.678 6828
1.864 3.847 1.671 8735
1.869 3.858 1.661 11858
1.871 3.862 1.649 9900
1.876 3.873 1.639 8514
1.881 3.883 1.629 11081
1.883 3.887 1.617 8327
1.924 3.972 1.635 8718
1.923 3.969 1.620 7473
1.957 4.041 1.633 7734
1.959 4.045 1.620 7590
1.958 4.042 1.604 6488
2.025 4.181 1.641 6438
2.024 4.178 1.625 6017
2.026 4.182 1.611 4519
2.103 4.342 1.653 2818
2.109 4.353 1.641 3095
2.150 4.438 1.656 2701
2.149 4.435 1.639 3508
2.217 4.576 1.671 3042
2.222 4.587 1.659 3840
2.234 4.611 1.651 3467
2.229 4.601 1.631 3965
2.231 4.605 1.617 3930
2.299 4.746 1.646 5215
2.301 4.750 1.630 7753
2.309 4.767 1.619 7690
2.315 4.778 1.606 6780
2.396 4.947 1.641 5354
2.402 4.958 1.628 7206
2.400 4.955 1.610 5998
2.389 4.931 1.586 6555
2.391 4.935 1.570 8158
2.409 4.973 1.564 6991
2.408 4.970 1.546 9075
2.409 4.973 1.530 8614
2.478 5.115 1.552 7002
2.480 5.119 1.536 5543
2.478 5.116 1.518 3054
2.768 5.715 1.661 2549
2.760 5.698 1.637 2078
2.836 5.855 1.659 2038
2.838 5.859 1.640 4598
2.840 5.862 1.621 7456
2.838 5.859 1.601 6447
2.840 5.863 1.582 4287
2.845 5.874 1.565 3393
2.847 5.878 1.546 3718
2.849 5.881 1.527 3679
3.013 6.220 1.586 2383
3.015 6.223 1.566 5983
3.017 6.227 1.546 7453
3.022 6.238 1.528 6435
3.020 6.234 1.506 5887
3.022 6.238 1.486 4011
3.213 6.633 1.550 4086
3.195 6.595 1.520 3869
3.200 6.605 1.500 3516
3.219 6.644 1.486 3515
3.577 7.384 1.612 4375
3.572 7.374 1.586 6695
3.574 7.377 1.562 5634
3.589 7.409 1.543 4967
3.591 7.413 1.520 5498
3.593 7.416 1.496 5072
3.591 7.413 1.470 3994
3.739 7.719 1.500 3370
4.143 8.553 1.620 3257
4.145 8.557 1.592 3146
0.724 1.494 0.381 3193
0.724 1.495 0.377 3773
0.724 1.496 0.372 3813
0.725 1.496 0.367 3469
0.725 1.497 0.363 2808
0.725 1.497 0.358 2009
4.523 9.337 1.510 1365
4.936 10.189 1.603 1057
4.938 10.193 1.570 1000
5.231 10.797 1.620 932
0.761 1.571 0.344 903
0.761 1.571 0.339 1463
0.765 1.579 0.335 2005
0.765 1.579 0.330 2103
0.762 1.573 0.324 1709
0.501 1.035 0.256 1546
0.501 1.035 0.253 1694
0.498 1.028 0.249 1783
0.498 1.029 0.245 1762
0.502 1.036 0.243 1423
0.502 1.036 0.240 1049
0.506 1.044 0.237 976
0.502 1.037 0.233 1144
0.499 1.030 0.229 1179
0.499 1.030 0.226 986
0.496 1.023 0.222 776
1.356 2.800 0.365 680
1.357 2.800 0.356 475
0.496 1.024 0.213 253
0.500 1.031 0.210 263
1.141 2.354 0.291 300
1.141 2.355 0.283 374
1.141 2.355 0.276 473
1.141 2.356 0.268 497
1.141 2.356 0.261 419
0.590 1.217 0.197 286
0.593 1.225 0.194 318
0.600 1.239 0.191 691
0.600 1.239 0.187 1016
0.600 1.239 0.183 1416
0.604 1.246 0.179 2277
0.604 1.247 0.175 2774
0.600 1.240 0.171 3334
0.601 1.240 0.167 4475
0.601 1.240 0.164 4978
0.601 1.240 0.160 5085
0.601 1.240 0.156 4697
0.601 1.240 0.152 4161
0.601 1.240 0.148 3344
2.206 4.553 0.157 2331
2.206 4.553 0.143 2490
2.206 4.553 0.128 2532
2.206 4.553 0.114 2574
2.205 4.553 0.099 2469
2.205 4.553 0.084 2130
2.205 4.552 0.070 1895
2.205 4.552 0.055 1604
2.209 4.559 0.040 1316
2.205 4.552 0.026 1056
2.205 4.551 0.011 800
2.205 4.551 -0.003 589
2.204 4.551 -0.018 379
2.204 4.550 -0.033 254
0.658 1.358 0.034 381
0.658 1.357 0.030 651
0.657 1.357 0.026 924
0.657 1.357 0.021 1242
0.657 1.356 0.017 1688
0.657 1.356 0.013 1812
0.657 1.356 0.009 2325
0.653 1.348 0.005 2872
0.653 1.348 0.001 3408
0.653 1.348 -0.003 3944
0.653 1.347 -0.007 3920
0.652 1.347 -0.012 3896
0.652 1.346 -0.016 3473
0.652 1.346 -0.020 2959
0.652 1.346 -0.024 2866
0.652 1.345 -0.028 3848
1.021 2.086 1.787 3378
1.023 2.090 1.781 6757
1.026 2.095 1.774 6757
1.031 2.105 1.772 7018
1.041 2.126 1.779 8383
1.049 2.142 1.781 10737
1.051 2.146 1.775 13543
1.053 2.151 1.768 13543
1.055 2.155 1.761 10879
1.086 2.218 1.799 8800
1.091 2.228 1.796 8889
1.093 2.232 1.789 9068
1.092 2.231 1.778 11601
1.092 2.229 1.766 14299
1.094 2.233 1.759 14423
1.093 2.232 1.748 13542
1.092 2.230 1.736 12797
1.094 2.234 1.729 9839
1.096 2.238 1.722 6822
1.110 2.266 1.732 6993
1.135 2.318 1.759 8830
1.140 2.329 1.756 9938
1.142 2.333 1.748 11074
1.183 2.415 1.796 8842
1.182 2.414 1.784 8539
1.181 2.412 1.772 8529
1.180 2.410 1.760 8653
1.185 2.420 1.757 8897
1.190 2.431 1.753 9247
1.195 2.441 1.749 8660
1.200 2.451 1.746 8666
1.202 2.456 1.738 7377
1.201 2.454 1.726 6250
1.212 2.476 1.730 6089
1.218 2.486 1.726 6295
1.232 2.515 1.734 8058
1.234 2.519 1.726 11622
1.236 2.524 1.718 12816
1.238 2.528 1.710 9580
1.240 2.532 1.702 6343
1.281 2.616 1.744 7716
1.283 2.621 1.736 9284
1.285 2.625 1.728 7878
1.287 2.629 1.719 5443
1.320 2.696 1.749 5870
1.288 2.631 1.699 5566
1.287 2.629 1.687 6757
1.295 2.645 1.686 6001
1.313 2.681 1.696 6191
1.318 2.691 1.691 5916
1.323 2.702 1.686 6166
1.328 2.712 1.681 7634
1.330 2.716 1.672 8684
1.332 2.720 1.664 7381
1.371 2.800 1.698 8929
1.370 2.798 1.686 10209
1.372 2.802 1.677 8364
1.377 2.812 1.671 6178
1.379 2.816 1.662 5812
1.462 2.986 1.744 7275
1.458 2.977 1.727 8929
1.457 2.975 1.714 10593
1.462 2.986 1.708 11725
1.464 2.990 1.699 10892
1.504 3.071 1.730 9895
1.506 3.075 1.720 10874
1.511 3.086 1.714 9499
1.541 3.148 1.734 6955
1.550 3.165 1.730 6109
1.558 3.182 1.726 4547
1.506 3.076 1.661 3849
1.553 3.171 1.696 4513
1.561 3.188 1.693 6890
1.579 3.225 1.698 6269
1.591 3.248 1.698 6486
1.593 3.252 1.687 7219
1.601 3.269 1.683 9896
1.609 3.287 1.679 15749
1.611 3.291 1.668 22893
1.613 3.295 1.658 28136
1.615 3.299 1.647 30084
1.614 3.296 1.634 30835
1.619 3.306 1.626 36738
1.621 3.310 1.615 39768
1.623 3.314 1.605 30779
1.625 3.318 1.594 22072
1.627 3.322 1.584 17308
1.628 3.326 1.573 12063
1.630 3.329 1.562 6991
1.804 3.685 1.703 6679
1.809 3.695 1.694 6405
1.818 3.713 1.688 6307
1.778 3.630 1.639 5008
1.789 3.654 1.636 4165
1.807 3.691 1.638 4595
1.813 3.702 1.629 5622
1.880 3.839 1.671 6849
1.885 3.850 1.661 10181
1.884 3.847 1.646 9822
1.886 3.851 1.634 8177
1.953 3.990 1.674 9485
