4.760 5.197 1.701 2548
4.774 5.212 1.684 2208
4.949 5.404 1.719 2514
4.958 5.413 1.699 1963
5.269 5.753 1.774 4037
5.273 5.757 1.752 7381
5.281 5.766 1.731 8343
5.284 5.769 1.708 7802
5.282 5.767 1.684 5435
5.526 6.034 1.731 6556
5.529 6.037 1.707 7931
5.527 6.035 1.682 5533
5.530 6.038 1.658 3369
5.744 6.271 1.692 4576
5.747 6.274 1.667 4168
5.797 6.329 1.655 3001
5.853 6.390 1.644 2043
6.488 7.084 1.779 1967
6.491 7.087 1.751 2389
6.489 7.085 1.722 1866
6.957 7.595 1.806 1679
6.960 7.599 1.776 1458
6.583 7.187 1.658 1300
7.109 7.762 1.749 1371
7.101 7.754 1.716 1183
7.607 8.306 1.795 1424
7.616 8.315 1.764 1379
7.635 8.336 1.734 1408
7.876 8.599 1.750 1851
7.874 8.597 1.715 1623
7.877 8.600 1.681 1278
8.447 9.223 1.757 1053
8.451 9.227 1.720 972
8.236 8.992 1.644 1024
8.239 8.996 1.608 1057
8.221 8.975 1.569 870
8.771 9.576 1.627 711
8.779 9.585 1.590 857
1.143 1.248 0.318 1210
1.144 1.249 0.313 1334
1.144 1.249 0.309 1260
1.150 1.255 0.305 1158
1.150 1.255 0.300 1342
1.150 1.256 0.295 1645
1.150 1.256 0.290 1483
1.151 1.256 0.285 1080
1.151 1.257 0.281 701
1.146 1.251 0.275 531
1.146 1.252 0.270 398
1.153 1.258 0.252 274
1.833 2.002 0.227 270
1.833 2.002 0.219 338
1.828 1.996 0.211 444
1.828 1.996 0.203 581
1.828 1.996 0.195 631
1.823 1.991 0.188 544
1.823 1.991 0.180 431
1.823 1.991 0.172 395
1.829 1.997 0.164 429
1.823 1.991 0.157 494
1.823 1.991 0.149 418
1.818 1.985 0.141 343
1.075 1.174 0.123 275
1.069 1.168 0.118 272
1.069 1.168 0.114 273
1.069 1.168 0.109 254
1.069 1.167 0.100 253
1.069 1.167 0.096 285
1.069 1.167 0.091 305
1.069 1.167 0.087 303
1.069 1.167 0.083 302
1.074 1.173 0.078 340
1.074 1.173 0.073 381
1.074 1.172 0.069 375
1.079 1.178 0.064 370
1.079 1.178 0.059 294
3.273 3.574 -0.123 332
3.272 3.573 -0.137 370
3.272 3.572 -0.151 407
3.271 3.572 -0.165 418
3.276 3.577 -0.180 424
3.281 3.582 -0.194 408
3.280 3.581 -0.209 396
3.279 3.581 -0.223 396
3.279 3.580 -0.237 338
3.273 3.573 -0.250 283
1.587 1.722 1.801 3332
1.590 1.726 1.795 6665
1.593 1.729 1.788 6665
1.596 1.733 1.781 6654
1.604 1.741 1.779 6806
1.603 1.740 1.768 6519
1.606 1.743 1.761 6395
1.609 1.747 1.754 6395
1.648 1.789 1.783 5949
1.656 1.797 1.781 9270
1.659 1.801 1.774 10650
1.662 1.804 1.767 12030
1.652 1.793 1.747 10642
1.651 1.792 1.735 10564
1.654 1.795 1.728 7633
1.684 1.828 1.748 5070
1.691 1.836 1.745 5662
1.704 1.849 1.746 4990
1.711 1.857 1.744 4810
1.714 1.861 1.736 5202
1.708 1.854 1.721 5767
1.757 1.907 1.756 6187
1.760 1.910 1.748 8911
1.768 1.919 1.745 10342
1.771 1.922 1.738 11985
1.774 1.926 1.730 10742
1.768 1.919 1.714 9692
1.780 1.932 1.715 11749
1.783 1.936 1.708 13999
1.787 1.939 1.700 16162
1.794 1.948 1.697 18415
1.797 1.951 1.689 17814
1.800 1.954 1.682 17213
1.803 1.957 1.674 14245
1.806 1.961 1.666 8168
1.800 1.954 1.651 5236
1.812 1.967 1.651 5120
1.857 2.016 1.679 5799
1.870 2.029 1.679 5105
1.882 2.043 1.679 5155
1.890 2.051 1.675 4423
1.921 2.085 1.690 5293
1.947 2.114 1.701 5428
1.951 2.117 1.693 7285
1.944 2.110 1.677 8204
1.947 2.114 1.669 9235
1.945 2.112 1.657 10691
1.948 2.115 1.648 11491
1.961 2.128 1.648 10376
1.959 2.127 1.636 8096
1.953 2.119 1.620 8702
1.946 2.112 1.604 9223
1.944 2.110 1.592 9112
2.085 2.264 1.689 11139
2.088 2.267 1.680 11805
2.096 2.275 1.675 10562
2.099 2.279 1.666 10134
2.107 2.287 1.661 8998
2.120 2.301 1.659 9064
2.123 2.304 1.650 7741
2.280 2.475 1.752 6588
2.293 2.489 1.749 7984
2.325 2.524 1.760 10555
2.333 2.532 1.753 15326
2.336 2.536 1.743 14950
2.339 2.539 1.733 12658
2.347 2.548 1.727 14973
2.355 2.557 1.720 21346
2.359 2.560 1.710 19703
2.371 2.574 1.707 16582
2.375 2.577 1.697 12695
2.363 2.565 1.677 11172
2.366 2.568 1.667 9795
2.448 2.657 1.708 9624
2.451 2.660 1.698 9705
2.449 2.658 1.684 10479
2.452 2.661 1.674 12827
2.455 2.665 1.663 12370
2.463 2.673 1.656 15070
2.476 2.687 1.652 18405
2.484 2.696 1.644 12660
2.467 2.678 1.621 7793
2.475 2.686 1.614 8875
2.547 2.765 1.645 11747
2.550 2.768 1.634 18085
2.548 2.766 1.621 15599
2.541 2.758 1.604 12401
2.544 2.761 1.593 10355
2.562 2.781 1.591 8870
2.580 2.800 1.589 8499
2.763 2.999 1.680 5700
2.766 3.002 1.668 5441
2.779 3.016 1.662 5482
2.792 3.030 1.655 5428
2.891 3.137 1.696 5270
2.894 3.141 1.683 5845
2.902 3.150 1.674 7210
2.935 3.186 1.677 10491
2.948 3.200 1.670 13606
2.956 3.209 1.660 12329
2.959 3.212 1.648 10544
2.967 3.221 1.638 7849
3.077 3.340 1.679 8414
3.080 3.343 1.666 8771
3.083 3.346 1.653 6447
3.091 3.355 1.642 6350
3.277 3.557 1.718 6177
3.290 3.572 1.709 8617
3.299 3.581 1.698 10819
3.297 3.578 1.681 10496
3.295 3.576 1.665 9694
3.298 3.579 1.651 6842
3.301 3.583 1.637 3492
3.298 3.580 1.620 2321
3.460 3.756 1.678 2167
3.463 3.759 1.663 3195
3.477 3.774 1.653 2967
3.577 3.883 1.681 2865
3.596 3.903 1.672 2597
3.810 4.136 1.747 2755
3.813 4.139 1.730 2716
3.718 4.036 1.673 2443
3.814 4.140 1.696 5769
3.812 4.138 1.677 7731
3.815 4.141 1.661 6308
3.818 4.145 1.645 3857
3.946 4.283 1.677 4993
3.964 4.303 1.667 8912
3.967 4.306 1.650 9350
4.027 4.372 1.654 6556
3.984 4.324 1.620 7738
4.117 4.468 1.651 9101
4.120 4.472 1.633 7573
4.133 4.486 1.619 5769
4.475 4.857 1.723 5544
4.473 4.855 1.702 6012
4.486 4.869 1.686 5913
4.489 4.873 1.667 4981
4.492 4.876 1.648 3720
4.490 4.874 1.627 2828
4.765 5.172 1.697 2183
4.967 5.392 1.742 2667
4.965 5.389 1.719 3047
4.973 5.398 1.699 2737
5.286 5.738 1.774 3999
5.289 5.741 1.752 7454
5.298 5.750 1.731 8779
5.301 5.754 1.708 8244
5.299 5.751 1.684 5627
5.549 6.023 1.733 6640
5.547 6.021 1.707 8186
5.545 6.019 1.682 5617
5.548 6.022 1.658 3220
5.762 6.254 1.692 4485
5.765 6.258 1.667 3892
5.800 6.295 1.651 2632
5.803 6.298 1.626 1890
6.509 7.065 1.779 2205
6.517 7.074 1.753 2506
6.515 7.072 1.723 1565
6.979 7.575 1.806 1588
6.574 7.136 1.680 1582
6.598 7.162 1.657 1346
6.919 7.511 1.701 1341
7.633 8.285 1.829 1296
7.637 8.289 1.796 1742
7.640 8.293 1.764 1699
7.659 8.313 1.734 1759
7.896 8.570 1.749 2119
7.899 8.574 1.715 1928
7.902 8.577 1.681 1561
8.474 9.198 1.757 1164
8.477 9.202 1.720 1015
8.262 8.968 1.644 933
8.265 8.971 1.608 987
8.236 8.940 1.567 949
1.141 1.238 0.327 655
1.146 1.244 0.323 702
1.152 1.251 0.319 1019
1.147 1.245 0.313 1387
1.148 1.246 0.309 1541
1.148 1.246 0.304 1453
1.543 1.675 0.356 931
1.148 1.247 0.294 773
1.149 1.247 0.289 1026
1.149 1.247 0.285 932
1.545 1.677 0.330 628
1.540 1.671 0.323 477
1.540 1.672 0.316 310
1.829 1.985 0.211 259
1.823 1.979 0.203 301
1.824 1.979 0.195 302
1.824 1.979 0.187 263
1.824 1.980 0.172 272
1.829 1.986 0.164 396
1.835 1.991 0.157 470
1.835 1.991 0.149 428
1.835 1.991 0.141 387
1.835 1.991 0.133 298
1.078 1.170 0.096 330
1.078 1.170 0.091 394
1.078 1.170 0.087 409
1.078 1.170 0.082 424
1.077 1.170 0.078 422
1.072 1.164 0.074 423
1.077 1.169 0.069 383
1.077 1.169 0.064 345
1.077 1.169 0.060 271
3.288 3.569 -0.138 256
3.293 3.574 -0.152 321
3.287 3.568 -0.166 367
3.286 3.567 -0.180 413
3.291 3.572 -0.194 408
3.291 3.572 -0.209 405
3.290 3.571 -0.223 405
3.289 3.570 -0.237 354
3.283 3.563 -0.250 309
3.282 3.563 -0.264 256
1.590 1.710 1.797 2190
1.593 1.714 1.790 4380
1.597 1.717 1.783 4380
1.600 1.721 1.777 4466
1.608 1.729 1.774 4644
1.611 1.733 1.768 5477
1.619 1.741 1.765 6335
1.622 1.744 1.759 6335
1.638 1.762 1.765 6577
1.659 1.785 1.776 9240
1.667 1.793 1.774 9669
1.675 1.801 1.771 10282
1.673 1.800 1.760 8218
1.654 1.779 1.731 8514
1.657 1.783 1.724 6449
1.697 1.825 1.752 5771
1.704 1.833 1.749 6897
1.712 1.841 1.746 6335
1.720 1.850 1.744 6120
1.718 1.848 1.732 5679
1.717 1.847 1.721 5465
1.770 1.904 1.760 5780
1.769 1.902 1.748 8760
1.777 1.911 1.745 11122
1.780 1.914 1.738 13550
1.778 1.913 1.726 12275
1.777 1.911 1.714 11176
1.785 1.919 1.711 12201
1.792 1.928 1.708 13558
1.795 1.931 1.700 15731
1.799 1.934 1.693 17903
1.806 1.943 1.689 17765
1.809 1.946 1.682 17977
1.812 1.949 1.674 14928
1.815 1.952 1.666 8339
1.856 1.996 1.691 5262
1.877 2.019 1.699 7007
1.876 2.018 1.687 8920
1.888 2.031 1.687 7807
1.896 2.039 1.683 7431
1.899 2.043 1.675 6654
1.907 2.051 1.671 5908
1.905 2.049 1.659 7419
1.913 2.057 1.654 8086
1.925 2.071 1.654 7423
1.947 2.094 1.661 7717
1.950 2.098 1.653 9125
1.958 2.106 1.648 10473
1.966 2.114 1.644 9962
1.964 2.112 1.632 7855
1.962 2.110 1.620 8718
1.951 2.098 1.601 9989
1.954 2.101 1.592 10512
2.096 2.254 1.689 9447
2.099 2.257 1.680 9846
2.107 2.266 1.675 8567
2.110 2.269 1.666 9090
2.118 2.278 1.661 9487
2.130 2.291 1.659 10099
2.138 2.300 1.653 8469
2.141 2.303 1.644 5702
2.319 2.494 1.759 7516
2.332 2.508 1.756 8835
2.345 2.522 1.753 10921
2.348 2.525 1.743 10058
2.351 2.529 1.733 8091
2.359 2.537 1.727 10413
2.367 2.546 1.720 16483
2.375 2.555 1.714 15176
2.388 2.568 1.710 12369
2.391 2.572 1.700 9479
2.370 2.549 1.674 7396
2.373 2.552 1.664 6404
2.460 2.645 1.708 6939
2.473 2.659 1.704 7542
2.461 2.647 1.684 7568
2.464 2.650 1.674 9584
2.467 2.653 1.663 9461
2.490 2.678 1.665 11900
2.498 2.687 1.658 15567
2.511 2.700 1.653 11263
2.514 2.704 1.643 7336
2.547 2.739 1.650 7773
2.560 2.753 1.645 11881
2.563 2.756 1.634 14612
2.561 2.754 1.621 11842
2.549 2.741 1.601 9856
2.551 2.744 1.590 6720
2.740 2.947 1.686 6067
2.753 2.961 1.680 5665
2.771 2.981 1.677 4919
2.780 2.989 1.668 4408
2.813 3.025 1.673 6122
2.816 3.029 1.661 6786
2.824 3.037 1.652 5829
2.832 3.046 1.642 4814
2.911 3.131 1.671 5359
2.955 3.178 1.680 7862
2.963 3.186 1.670 9986
2.971 3.195 1.660 8309
2.984 3.209 1.653 6593
2.992 3.218 1.643 5648
3.036 3.265 1.651 6014
3.039 3.268 1.638 7262
3.042 3.272 1.625 7709
3.050 3.280 1.615 6893
3.293 3.542 1.718 6232
3.307 3.557 1.709 8758
3.315 3.565 1.698 11397
3.318 3.569 1.684 11061
3.311 3.561 1.665 9633
3.314 3.564 1.651 6733
3.317 3.567 1.637 3460
3.567 3.837 1.734 2450
3.565 3.834 1.717 2988
3.558 3.827 1.697 2804
3.499 3.763 1.655 2435
3.678 3.956 1.716 2962
3.691 3.970 1.705 3925
3.694 3.973 1.690 3468
3.687 3.966 1.669 3066
3.752 4.036 1.680 3180
3.849 4.140 1.702 6777
3.847 4.137 1.684 6870
3.839 4.129 1.663 6319
3.853 4.144 1.651 5629
3.991 4.293 1.688 3587
3.989 4.290 1.669 7177
3.987 4.288 1.650 7227
4.047 4.353 1.654 5198
4.061 4.367 1.641 6269
4.137 4.449 1.651 7484
4.140 4.453 1.633 6325
4.159 4.473 1.621 5395
4.167 4.481 1.605 5252
4.500 4.840 1.703 5103
4.508 4.849 1.686 4855
4.511 4.852 1.667 4310
4.514 4.855 1.648 3422
4.512 4.853 1.627 2606
4.978 5.354 1.759 2926
4.981 5.357 1.738 3270
4.984 5.361 1.717 3561
4.993 5.370 1.697 3788
5.312 5.714 1.774 3085
5.316 5.717 1.752 6017
5.324 5.726 1.731 7290
5.327 5.730 1.708 6742
5.325 5.727 1.684 4559
5.577 5.998 1.733 5520
5.575 5.996 1.707 6978
5.572 5.993 1.682 5038
5.793 6.230 1.718 2929
5.790 6.228 1.692 3308
5.804 6.242 1.670 2590
5.823 6.263 1.649 2183
5.826 6.266 1.625 1856
6.552 7.046 1.782 2114
6.555 7.050 1.754 2445
6.569 7.065 1.729 1532
7.013 7.543 1.806 1354
6.601 7.100 1.679 1547
6.983 7.510 1.738 1491
6.959 7.485 1.702 1555
7.671 8.250 1.829 1538
7.674 8.254 1.796 2010
7.683 8.263 1.765 1934
7.697 8.278 1.734 1990
7.935 8.534 1.749 2287
7.938 8.538 1.715 2170
7.941 8.541 1.681 1807
8.516 9.159 1.757 1313
8.519 9.163 1.720 1079
8.153 8.769 1.617 875
8.151 8.767 1.581 1021
8.277 8.902 1.567 951
8.922 9.596 1.641 1054
8.925 9.599 1.602 833
1.544 1.660 0.381 854
1.544 1.661 0.374 1605
1.545 1.661 0.368 2214
1.154 1.241 0.304 2368
1.154 1.241 0.299 3268
1.154 1.241 0.294 3534
1.154 1.242 0.289 2882
1.160 1.248 0.285 1858
1.160 1.248 0.281 1102
1.548 1.664 0.323 818
1.166 1.254 0.272 695
1.161 1.249 0.266 465
1.549 1.666 0.303 305
1.183 1.273 0.259 255
1.210 1.302 0.256 297
1.216 1.308 0.252 355
1.216 1.308 0.247 390
1.211 1.302 0.241 451
1.211 1.303 0.236 448
1.211 1.303 0.231 427
1.212 1.303 0.226 376
1.212 1.303 0.221 272
1.838 1.977 0.157 279
1.838 1.977 0.149 262
1.084 1.165 0.114 265
1.083 1.165 0.109 265
1.083 1.165 0.105 257
1.083 1.165 0.100 255
1.083 1.165 0.096 252
3.300 3.549 -0.109 264
3.305 3.555 -0.124 318
3.305 3.554 -0.138 354
3.304 3.554 -0.152 390
3.303 3.553 -0.166 392
3.303 3.552 -0.180 392
3.308 3.557 -0.194 380
3.307 3.557 -0.209 367
3.306 3.556 -0.223 367
3.305 3.555 -0.237 309
3.299 3.548 -0.250 252
1.532 1.633 1.727 2045
1.535 1.636 1.720 4091
1.539 1.640 1.714 4091
1.542 1.643 1.708 2755
1.607 1.712 1.765 3166
1.623 1.730 1.772 4538
1.627 1.733 1.765 6052
1.630 1.737 1.759 6052
1.646 1.755 1.765 6778
1.659 1.767 1.768 8803
1.675 1.785 1.774 8374
1.683 1.793 1.771 8671
1.686 1.797 1.764 7153
1.662 1.772 1.731 6378
1.697 1.809 1.755 5489
1.705 1.817 1.752 6518
1.713 1.825 1.749 7690
1.720 1.833 1.746 7206
1.728 1.842 1.744 7119
1.727 1.840 1.732 6285
1.725 1.839 1.721 5590
1.779 1.896 1.760 5172
1.777 1.894 1.748 8171
1.781 1.898 1.741 11060
1.784 1.901 1.734 13950
1.787 1.904 1.726 12729
1.786 1.903 1.714 11617
1.793 1.911 1.711 11830
1.801 1.919 1.708 12239
1.804 1.923 1.700 14259
1.807 1.926 1.693 16278
1.810 1.929 1.685 16598
1.818 1.938 1.682 17343
1.821 1.941 1.674 14343
1.834 1.954 1.674 8169
1.888 2.012 1.710 6226
1.891 2.016 1.703 9057
1.890 2.014 1.691 11339
1.898 2.022 1.687 10198
1.910 2.036 1.687 9783
1.913 2.039 1.679 8986
1.916 2.042 1.671 8189
1.919 2.045 1.663 9608
1.922 2.049 1.654 9831
1.930 2.057 1.650 8696
1.943 2.070 1.650 7262
1.955 2.084 1.649 7622
1.968 2.097 1.648 9127
1.976 2.105 1.644 8885
1.974 2.103 1.632 6912
1.972 2.101 1.620 7743
1.960 2.089 1.601 10009
1.963 2.092 1.592 10933
1.966 2.095 1.584 9388
2.109 2.248 1.680 7428
2.112 2.251 1.671 5970
2.120 2.259 1.666 7238
2.133 2.273 1.664 9238
2.141 2.281 1.659 10322
2.149 2.290 1.653 8684
2.337 2.490 1.776 6326
2.335 2.489 1.763 8316
2.343 2.497 1.756 8139
2.351 2.506 1.750 7208
2.355 2.509 1.740 5964
2.377 2.534 1.744 5217
2.381 2.537 1.734 8643
2.379 2.535 1.720 13652
2.387 2.544 1.714 11933
2.400 2.558 1.710 9519
2.408 2.566 1.703 7651
2.426 2.585 1.703 4469
2.389 2.546 1.667 4516
2.417 2.576 1.673 4872
2.430 2.590 1.669 5886
2.498 2.662 1.700 5448
2.476 2.639 1.674 6061
2.479 2.642 1.663 6448
2.507 2.672 1.668 9206
2.520 2.686 1.664 12791
2.528 2.694 1.656 9890
2.546 2.713 1.655 6961
2.559 2.727 1.650 7855
2.572 2.741 1.645 10434
2.580 2.750 1.637 10980
2.568 2.737 1.618 8558
2.561 2.729 1.601 8185
2.746 2.926 1.695 6279
2.754 2.935 1.686 6030
2.762 2.943 1.677 5195
2.780 2.963 1.674 4578
2.824 3.009 1.685 4501
2.827 3.012 1.673 7804
2.830 3.016 1.661 8686
2.833 3.019 1.649 6872
2.836 3.022 1.637 4870
2.920 3.112 1.668 4048
2.979 3.175 1.685 6020
2.977 3.173 1.670 6789
2.970 3.165 1.652 5383
3.004 3.201 1.656 5679
3.017 3.215 1.648 5688
3.046 3.246 1.648 5755
3.049 3.249 1.635 10137
3.057 3.258 1.625 11845
3.065 3.266 1.615 9928
3.227 3.439 1.679 7229
3.323 3.541 1.709 7236
3.331 3.550 1.698 9696
3.334 3.553 1.684 9801
3.327 3.546 1.665 8224
3.330 3.549 1.651 5685
3.333 3.552 1.637 2862
3.585 3.820 1.734 2481
3.583 3.818 1.717 3729
3.581 3.816 1.700 3629
3.682 3.924 1.727 2706
3.696 3.939 1.716 3639
3.704 3.948 1.703 4766
3.713 3.956 1.690 3870
3.705 3.949 1.669 3153
3.870 4.124 1.721 3786
3.873 4.127 1.704 7995
3.881 4.136 1.690 6995
3.874 4.129 1.669 6117
3.882 4.137 1.655 7125
4.011 4.274 1.688 4747
4.014 4.278 1.671 6336
4.012 4.275 1.652 5290
4.067 4.334 1.654 2956
4.081 4.349 1.641 4139
4.157 4.430 1.651 5088
4.171 4.445 1.637 4632
4.368 4.655 1.689 4831
4.377 4.664 1.672 6119
4.375 4.662 1.652 5540
4.383 4.671 1.635 3541
4.534 4.831 1.667 3007
4.531 4.829 1.646 2522
4.534 4.832 1.627 1863
5.003 5.331 1.759 3379
5.000 5.329 1.737 3286
5.009 5.338 1.717 3509
5.012 5.341 1.696 4391
5.015 5.345 1.675 3903
5.342 5.693 1.752 4113
5.350 5.702 1.731 5048
5.348 5.699 1.706 4550
5.346 5.697 1.682 3056
5.604 5.972 1.733 3820
5.607 5.976 1.709 4998
5.600 5.968 1.682 3865
5.821 6.204 1.718 2686
5.824 6.207 1.693 2121
5.849 6.233 1.674 1715
5.852 6.236 1.649 1805
5.849 6.234 1.623 1756
6.584 7.016 1.782 1807
6.592 7.025 1.755 2278
6.601 7.035 1.729 1578
7.048 7.511 1.806 1183
7.019 7.480 1.769 1460
7.012 7.472 1.736 1531
6.993 7.453 1.702 1421
7.709 8.215 1.829 1535
7.712 8.219 1.796 1913
7.721 8.228 1.765 1853
7.735 8.243 1.734 1915
7.974 8.498 1.749 2073
7.977 8.501 1.715 2000
8.168 8.705 1.718 1732
8.177 8.714 1.684 1372
8.561 9.124 1.720 1069
8.199 8.738 1.618 917
8.186 8.723 1.580 1073
8.969 9.558 1.680 1053
8.972 9.561 1.642 1256
8.969 9.558 1.602 1005
1.153 1.229 0.317 2042
1.153 1.229 0.313 3066
1.153 1.229 0.308 3895
1.154 1.230 0.303 4619
1.160 1.236 0.299 4735
1.160 1.236 0.294 4189
1.160 1.236 0.289 3052
1.160 1.237 0.285 1805
1.155 1.231 0.279 895
1.145 1.220 0.273 501
1.156 1.232 0.270 331
1.210 1.290 0.266 388
1.211 1.290 0.261 598
1.211 1.290 0.256 677
1.217 1.296 0.251 702
1.217 1.297 0.246 731
1.217 1.297 0.241 791
1.217 1.297 0.236 879
1.217 1.297 0.231 938
1.218 1.298 0.226 811
1.218 1.298 0.221 529
1.212 1.292 0.216 382
1.218 1.298 0.211 300
3.120 3.325 0.063 282
3.120 3.325 0.050 307
3.120 3.325 0.037 296
3.119 3.324 0.024 285
1.089 1.160 0.096 335
1.088 1.160 0.091 374
1.088 1.160 0.087 402
1.094 1.166 0.082 430
1.088 1.160 0.078 437
1.088 1.160 0.073 443
1.093 1.165 0.068 445
1.093 1.165 0.064 457
1.093 1.165 0.059 451
1.087 1.159 0.055 452
1.087 1.159 0.051 420
3.320 3.538 -0.152 407
3.314 3.532 -0.165 394
3.314 3.531 -0.179 378
3.318 3.536 -0.194 341
3.323 3.541 -0.209 310
3.322 3.541 -0.223 310
1.533 1.624 1.722 2507
1.536 1.627 1.716 5015
1.539 1.630 1.709 5015
1.547 1.638 1.708 3627
1.603 1.698 1.756 2499
1.629 1.725 1.772 3999
1.636 1.733 1.770 5706
1.640 1.736 1.763 5706
1.652 1.749 1.765 6672
1.660 1.758 1.763 8337
1.676 1.775 1.770 7064
1.693 1.793 1.776 7245
1.696 1.796 1.769 6677
1.704 1.805 1.766 6151
1.707 1.808 1.759 6272
1.715 1.816 1.756 7321
1.718 1.820 1.749 8298
1.726 1.828 1.746 7984
1.734 1.836 1.744 8222
1.733 1.835 1.732 7323
1.736 1.838 1.725 6522
1.743 1.846 1.722 4836
1.783 1.889 1.748 7332
1.787 1.892 1.741 10502
1.790 1.895 1.734 13672
1.788 1.894 1.722 12600
1.792 1.897 1.714 11577
1.799 1.906 1.711 10888
1.807 1.914 1.708 10388
1.806 1.912 1.696 12321
1.809 1.916 1.689 14288
1.816 1.924 1.685 14891
1.824 1.932 1.682 15935
1.832 1.940 1.678 12954
1.859 1.968 1.690 8270
1.895 2.006 1.710 7254
1.898 2.010 1.703 10726
1.901 2.013 1.695 13603
1.909 2.021 1.691 12765
1.916 2.030 1.687 12639
1.924 2.038 1.682 11884
1.927 2.041 1.674 11215
1.926 2.039 1.663 11667
1.929 2.043 1.654 10659
1.937 2.051 1.650 9062
1.940 2.054 1.642 6893
1.962 2.078 1.649 5942
1.974 2.091 1.648 7425
1.982 2.099 1.644 7399
1.980 2.097 1.632 5623
1.954 2.070 1.602 6732
1.962 2.078 1.597 9228
1.965 2.081 1.589 10437
1.973 2.089 1.584 9204
1.971 2.087 1.572 5947
2.231 2.363 1.753 5056
2.224 2.356 1.737 5429
2.145 2.271 1.668 8366
2.148 2.275 1.659 9747
2.156 2.283 1.653 8413
2.349 2.488 1.779 7645
2.348 2.486 1.766 9410
2.356 2.495 1.760 7836
2.281 2.415 1.695 5450
2.348 2.486 1.730 3033
2.395 2.537 1.750 4111
2.388 2.530 1.734 8838
2.392 2.533 1.724 12521
2.400 2.541 1.717 10173
2.413 2.555 1.713 8253
2.421 2.564 1.707 8240
2.424 2.567 1.696 7144
2.422 2.565 1.683 6353
2.430 2.574 1.676 7639
2.438 2.582 1.669 8992
2.441 2.586 1.659 7629
2.454 2.599 1.655 4450
2.462 2.608 1.648 5547
2.455 2.600 1.631 9804
2.539 2.688 1.670 10222
2.547 2.697 1.662 8295
2.469 2.615 1.603 7520
2.482 2.629 1.599 9347
2.485 2.632 1.589 10195
2.483 2.630 1.575 7459
2.567 2.718 1.612 6285
2.570 2.721 1.601 6885
2.755 2.917 1.695 6591
2.763 2.926 1.686 6148
2.771 2.935 1.677 5127
2.789 2.954 1.674 4482
2.833 3.000 1.685 5797
2.836 3.004 1.673 9672
2.839 3.007 1.661 10782
2.842 3.010 1.649 8089
2.845 3.013 1.637 4980
3.001 3.179 1.706 4515
3.005 3.182 1.694 5711
3.018 3.196 1.686 4012
2.965 3.140 1.645 5840
3.009 3.186 1.653 7223
3.017 3.195 1.643 6399
3.046 3.225 1.643 6199
3.059 3.239 1.635 13755
3.067 3.248 1.625 16806
3.075 3.257 1.615 12793
3.233 3.424 1.676 9127
3.236 3.427 1.663 8930
3.073 3.255 1.571 8014
3.345 3.543 1.684 7516
3.343 3.541 1.667 5803
3.336 3.533 1.648 3781
3.531 3.740 1.721 2480
3.534 3.743 1.707 2420
3.595 3.807 1.717 4099
3.593 3.805 1.700 4484
3.663 3.880 1.714 3299
3.708 3.927 1.716 3582
3.717 3.936 1.703 4881
3.725 3.945 1.690 4298
3.718 3.937 1.669 3835
3.815 4.040 1.693 3876
3.891 4.121 1.706 7929
3.899 4.130 1.692 7366
3.897 4.128 1.673 6365
3.895 4.125 1.655 7356
4.024 4.262 1.688 5327
4.027 4.265 1.671 5670
4.015 4.252 1.648 4465
4.018 4.255 1.631 3748
4.305 4.559 1.719 3376
4.045 4.283 1.605 3648
4.380 4.639 1.707 4482
4.383 4.642 1.689 5643
4.386 4.645 1.671 6733
4.389 4.648 1.652 6381
4.397 4.657 1.635 4684
4.400 4.660 1.617 3027
4.700 4.978 1.697 2069
5.021 5.318 1.782 1747
5.024 5.321 1.761 3074
5.022 5.319 1.738 2629
5.020 5.317 1.715 2855
5.023 5.320 1.694 4529
5.032 5.329 1.675 4442
5.051 5.349 1.658 2759
5.368 5.685 1.731 2676
5.669 6.004 1.796 3033
5.667 6.002 1.770 3199
5.660 5.994 1.743 2820
5.626 5.958 1.709 2946
1.250 1.324 0.475 2846
5.840 6.185 1.718 2122
5.860 6.206 1.698 1414
6.317 6.690 1.792 1550
5.978 6.331 1.677 1520
5.981 6.334 1.652 1580
6.611 7.001 1.783 1369
6.620 7.011 1.757 2033
6.623 7.014 1.729 1543
6.883 7.290 1.762 1291
7.032 7.447 1.766 1604
7.035 7.450 1.736 1588
7.371 7.806 1.781 1252
7.734 8.191 1.829 1391
7.738 8.195 1.796 1606
7.746 8.204 1.765 1554
7.760 8.219 1.734 1616
8.000 8.473 1.749 1669
8.187 8.670 1.751 1770
8.195 8.679 1.718 1764
8.198 8.683 1.683 1412
8.595 9.103 1.721 1001
8.242 8.729 1.620 879
8.207 8.692 1.579 976
8.998 9.530 1.680 1168
9.001 9.533 1.642 1235
1.151 1.219 0.321 2341
1.157 1.225 0.317 4749
1.157 1.225 0.313 6505
1.157 1.226 0.308 7517
1.158 1.226 0.303 7908
1.158 1.226 0.298 6711
1.164 1.232 0.294 4665
1.159 1.227 0.289 2787
1.159 1.227 0.284 1661
1.159 1.228 0.279 1265
1.159 1.228 0.274 1129
1.160 1.228 0.270 897
1.165 1.234 0.265 560
1.214 1.286 0.266 609
1.215 1.286 0.261 948
1.215 1.287 0.256 1183
1.221 1.293 0.251 1241
1.221 1.293 0.246 1396
1.221 1.293 0.241 1597
1.221 1.293 0.236 1633
1.216 1.288 0.231 1624
1.216 1.288 0.226 1485
1.216 1.288 0.221 1071
1.216 1.288 0.216 807
1.217 1.288 0.211 617
2.346 2.485 0.269 341
2.341 2.480 0.259 290
3.125 3.310 0.077 260
3.130 3.315 0.063 320
3.130 3.315 0.050 337
3.130 3.315 0.037 318
3.130 3.315 0.024 299
3.135 3.320 0.011 263
1.097 1.162 0.086 256
1.092 1.156 0.082 271
1.092 1.156 0.078 283
1.092 1.156 0.073 295
1.091 1.156 0.069 289
1.091 1.156 0.064 282
2.800 2.965 -0.105 303
2.799 2.964 -0.117 303
2.799 2.964 -0.128 337
2.803 2.969 -0.141 377
2.803 2.968 -0.152 380
2.808 2.974 -0.165 395
2.807 2.973 -0.177 345
2.801 2.966 -0.188 296
1.546 1.620 1.727 3099
1.549 1.623 1.720 6199
1.552 1.627 1.714 6199
1.555 1.630 1.708 4444
1.563 1.638 1.706 2780
1.642 1.721 1.777 3871
1.645 1.724 1.770 5122
1.649 1.728 1.763 5122
1.661 1.741 1.765 6099
1.669 1.749 1.763 7469
1.681 1.762 1.765 5983
1.711 1.794 1.785 6520
1.715 1.797 1.778 6612
1.718 1.800 1.771 6704
1.721 1.804 1.763 6808
1.725 1.807 1.756 7628
1.728 1.811 1.749 8278
1.736 1.819 1.746 8297
1.743 1.827 1.744 9030
1.747 1.831 1.736 8457
1.750 1.834 1.729 7885
1.758 1.842 1.726 5915
1.789 1.874 1.744 6438
1.792 1.878 1.737 9576
1.795 1.881 1.729 12714
1.798 1.885 1.722 11774
1.801 1.888 1.714 10833
1.805 1.891 1.707 9243
1.812 1.899 1.704 7810
1.816 1.903 1.696 9844
1.814 1.901 1.685 11889
1.822 1.909 1.681 12529
1.830 1.917 1.678 13629
1.842 1.931 1.678 10638
1.888 1.978 1.706 8100
1.905 1.996 1.710 7969
1.913 2.005 1.706 11505
1.916 2.008 1.699 14727
1.924 2.016 1.695 14392
1.932 2.025 1.690 14864
1.935 2.028 1.682 14254
1.938 2.031 1.674 13644
1.936 2.029 1.663 12611
1.939 2.032 1.654 9971
1.942 2.036 1.646 8104
1.941 2.034 1.635 5956
1.934 2.027 1.619 4665
1.995 2.091 1.656 5796
1.993 2.089 1.644 5892
2.093 2.193 1.709 5779
1.960 2.054 1.598 5604
1.973 2.068 1.597 7518
1.981 2.076 1.592 8819
1.984 2.079 1.584 7924
2.245 2.352 1.766 6203
2.243 2.351 1.753 6002
2.237 2.344 1.737 5631
2.157 2.260 1.668 7421
2.160 2.263 1.659 8795
2.173 2.277 1.657 7679
2.367 2.481 1.783 8167
2.366 2.479 1.770 9747
2.374 2.488 1.763 7693
2.293 2.403 1.695 5465
2.326 2.438 1.706 2943
2.408 2.524 1.750 4406
2.402 2.517 1.734 9600
2.405 2.520 1.724 12809
2.413 2.529 1.717 10264
2.426 2.543 1.713 8792
2.434 2.551 1.707 9831
2.437 2.554 1.696 10379
2.436 2.552 1.683 9570
2.444 2.561 1.676 11011
2.452 2.569 1.669 12971
2.455 2.573 1.659 10888
2.458 2.576 1.649 6955
2.471 2.590 1.645 8607
2.469 2.587 1.631 13720
2.472 2.591 1.621 14215
2.475 2.594 1.611 12034
2.478 2.597 1.600 10874
2.491 2.610 1.596 12560
2.499 2.619 1.589 13076
2.497 2.617 1.575 9793
2.500 2.620 1.565 6331
2.584 2.708 1.601 5330
2.775 2.908 1.697 6060
2.778 2.911 1.686 5714
2.786 2.920 1.677 4972
2.800 2.934 1.671 4429
2.849 2.985 1.685 6331
2.852 2.989 1.673 10096
2.855 2.992 1.661 11308
2.863 3.000 1.652 8445
2.892 3.030 1.653 5320
3.013 3.157 1.703 5226
3.026 3.172 1.696 6008
3.035 3.180 1.686 5329
3.002 3.146 1.655 6622
3.020 3.165 1.650 8217
3.044 3.190 1.648 7639
3.062 3.209 1.643 9165
3.076 3.223 1.635 15976
3.079 3.226 1.623 20336
3.087 3.235 1.612 15284
3.085 3.233 1.597 10010
3.088 3.236 1.584 11761
3.091 3.239 1.571 11891
3.088 3.236 1.556 6895
3.258 3.414 1.619 4486
3.521 3.690 1.724 2887
3.545 3.716 1.719 2786
3.549 3.719 1.704 2811
3.609 3.782 1.715 4003
3.607 3.780 1.697 4720
3.684 3.860 1.714 5465
3.687 3.864 1.698 4062
3.737 3.916 1.703 4331
3.740 3.920 1.687 4644
3.738 3.917 1.669 5027
3.741 3.921 1.654 4419
3.913 4.100 1.706 6209
3.921 4.109 1.692 6077
3.924 4.112 1.676 5272
3.922 4.110 1.657 5771
4.036 4.230 1.683 5275
4.039 4.233 1.667 5248
4.058 4.253 1.656 3430
4.019 4.211 1.623 2577
4.329 4.537 1.719 4280
4.327 4.534 1.699 3622
4.240 4.443 1.648 4065
4.407 4.619 1.689 4988
4.410 4.622 1.671 5847
4.413 4.625 1.652 5656
4.422 4.634 1.635 4629
4.425 4.637 1.617 2890
4.726 4.953 1.697 1735
4.815 5.045 1.705 2064
4.823 5.054 1.687 2433
5.045 5.287 1.737 1919
5.037 5.279 1.712 2210
5.051 5.294 1.694 3887
5.060 5.302 1.675 4257
5.074 5.317 1.657 2517
5.692 5.965 1.818 2585
5.701 5.974 1.796 3213
5.699 5.972 1.770 3230
5.702 5.976 1.746 2642
1.257 1.317 0.480 3836
1.257 1.318 0.475 4860
1.258 1.318 0.469 3792
1.253 1.313 0.463 1632
5.997 6.285 1.699 1488
6.011 6.300 1.677 1486
6.370 6.675 1.742 1748
6.384 6.690 1.718 1804
6.656 6.976 1.757 1720
6.654 6.973 1.727 1448
6.922 7.254 1.762 1415
7.071 7.410 1.766 1638
7.074 7.413 1.736 1561
7.412 7.768 1.781 1154
7.777 8.150 1.829 1188
7.781 8.154 1.796 1187
7.903 8.282 1.788 1131
7.901 8.280 1.754 1193
7.823 8.198 1.704 1375
8.232 8.627 1.751 1618
8.235 8.630 1.717 1608
8.239 8.634 1.682 1330
8.231 8.626 1.645 1058
8.228 8.623 1.610 907
9.051 9.485 1.719 892
9.048 9.482 1.680 1026
1.157 1.212 0.326 2221
1.157 1.213 0.321 4656
1.163 1.219 0.317 7437
1.163 1.219 0.313 8980
1.158 1.214 0.307 9581
1.164 1.220 0.303 9402
1.164 1.220 0.298 7293
1.165 1.221 0.293 4461
1.165 1.221 0.289 2243
1.165 1.221 0.284 1230
1.166 1.222 0.279 1013
1.166 1.222 0.274 961
1.166 1.222 0.270 846
1.194 1.251 0.268 607
1.221 1.280 0.266 1034
1.221 1.280 0.261 1579
1.222 1.280 0.256 1900
1.222 1.280 0.251 1959
1.228 1.286 0.246 1976
1.228 1.287 0.241 1930
1.228 1.287 0.236 1848
1.228 1.287 0.231 1838
1.223 1.282 0.226 1783
1.223 1.282 0.221 1428
1.223 1.282 0.216 1133
1.223 1.282 0.211 867
1.223 1.282 0.206 443
2.354 2.467 0.259 387
2.354 2.467 0.249 311
1.093 1.146 0.123 273
1.093 1.146 0.118 274
1.093 1.145 0.114 275
1.093 1.145 0.109 270
1.098 1.151 0.105 261
3.147 3.298 0.024 267
3.147 3.298 0.011 250
2.810 2.945 -0.093 304
2.815 2.950 -0.105 377
2.815 2.950 -0.117 377
2.814 2.949 -0.128 411
2.819 2.954 -0.141 454
2.824 2.959 -0.153 421
2.823 2.959 -0.165 398
2.823 2.958 -0.177 336
2.817 2.952 -0.188 277
1.553 1.613 1.727 3561
1.556 1.616 1.720 7122
1.560 1.620 1.714 7122
1.563 1.623 1.708 4950
1.642 1.705 1.779 3690
1.650 1.713 1.777 4111
1.653 1.717 1.770 4617
1.657 1.720 1.763 4617
1.669 1.733 1.765 5327
1.677 1.741 1.763 6319
1.684 1.749 1.761 5052
1.720 1.786 1.785 6351
1.723 1.789 1.778 6653
1.726 1.793 1.771 6954
1.729 1.796 1.763 6998
1.733 1.800 1.756 7289
1.736 1.803 1.749 7450
1.744 1.811 1.746 8009
1.752 1.819 1.744 9404
1.755 1.823 1.736 9458
1.758 1.826 1.729 9511
1.766 1.834 1.726 7155
1.792 1.861 1.740 5858
1.796 1.865 1.733 8436
1.804 1.873 1.729 11101
1.807 1.876 1.722 10352
1.805 1.875 1.710 9605
1.813 1.883 1.707 7454
1.816 1.886 1.700 5305
1.819 1.890 1.692 7526
1.823 1.893 1.685 9748
1.826 1.896 1.677 10126
1.834 1.904 1.674 10804
1.841 1.912 1.670 7764
1.906 1.980 1.714 9116
1.914 1.988 1.710 8481
1.922 1.996 1.706 11485
1.925 1.999 1.699 14894
1.933 2.008 1.695 15350
1.941 2.016 1.690 16566
1.944 2.019 1.682 15949
1.947 2.022 1.674 15332
1.946 2.020 1.663 12490
1.949 2.024 1.654 7911
1.952 2.027 1.646 5916
1.950 2.025 1.635 4526
1.943 2.018 1.619 4498
1.951 2.026 1.615 5387
2.100 2.180 1.718 5487
2.103 2.184 1.709 7543
2.106 2.187 1.701 7223
1.982 2.059 1.597 5439
1.995 2.072 1.596 6523
1.998 2.075 1.588 5945
2.255 2.342 1.766 6870
2.254 2.341 1.753 6670
2.252 2.339 1.741 5747
2.162 2.245 1.664 6486
2.165 2.248 1.655 7839
2.178 2.262 1.653 6642
2.379 2.470 1.783 7846
2.382 2.474 1.773 9122
2.390 2.482 1.767 7499
2.309 2.398 1.699 5250
2.397 2.489 1.747 3111
2.405 2.497 1.740 4422
2.413 2.506 1.734 9732
2.416 2.509 1.724 13443
2.424 2.518 1.717 11667
2.433 2.526 1.710 10460
2.441 2.535 1.703 11215
2.449 2.543 1.696 12268
2.447 2.541 1.683 11942
2.455 2.550 1.676 14093
2.463 2.558 1.669 16584
2.461 2.556 1.656 14148
2.470 2.565 1.649 9503
2.478 2.573 1.641 11271
2.481 2.576 1.631 16553
2.484 2.579 1.621 16712
2.482 2.577 1.608 14850
2.485 2.580 1.597 13764
2.498 2.594 1.593 14580
2.506 2.602 1.586 14215
2.509 2.605 1.575 10393
2.512 2.608 1.565 7687
2.520 2.617 1.557 4345
2.788 2.896 1.697 4654
2.791 2.899 1.686 4788
2.800 2.907 1.677 4829
2.818 2.927 1.674 4297
2.872 2.983 1.690 5968
2.865 2.976 1.673 8980
2.868 2.979 1.661 10162
2.877 2.987 1.652 7767
2.905 3.017 1.653 6334
2.914 3.026 1.644 5756
3.025 3.142 1.688 6325
3.002 3.118 1.662 6550
3.016 3.132 1.655 7628
3.029 3.146 1.648 7962
3.058 3.176 1.648 8695
3.067 3.185 1.638 11703
3.085 3.204 1.633 15794
3.093 3.213 1.623 21047
3.096 3.216 1.610 17230
3.099 3.219 1.597 12354
3.102 3.222 1.584 14446
3.105 3.225 1.571 13992
3.098 3.217 1.553 7993
3.273 3.399 1.619 3894
3.538 3.674 1.724 3371
3.562 3.699 1.719 3266
3.560 3.697 1.702 3693
3.616 3.755 1.710 3446
3.698 3.840 1.729 5132
3.701 3.844 1.714 7221
3.699 3.841 1.696 5632
3.702 3.845 1.681 3820
3.737 3.881 1.679 5340
3.745 3.890 1.665 6066
3.754 3.898 1.652 5451
3.762 3.907 1.638 5738
3.776 3.921 1.627 4746
4.022 4.177 1.707 7005
4.025 4.180 1.690 10910
4.029 4.184 1.673 11331
4.037 4.192 1.658 6084
4.072 4.229 1.654 2814
4.256 4.420 1.704 3021
4.349 4.517 1.719 4295
4.257 4.421 1.666 4485
4.260 4.424 1.648 4951
4.354 4.521 1.663 3835
4.431 4.602 1.671 3634
4.434 4.605 1.652 3551
4.443 4.614 1.635 3186
4.440 4.611 1.615 2006
4.861 5.048 1.735 1591
4.843 5.029 1.707 2440
4.846 5.032 1.687 3149
4.849 5.036 1.667 2467
5.051 5.245 1.709 2553
5.070 5.265 1.693 2466
5.084 5.279 1.675 3286
5.506 5.718 1.779 2495
5.520 5.733 1.759 2437
5.534 5.747 1.739 3580
5.537 5.751 1.716 3691
5.541 5.754 1.693 2844
5.544 5.757 1.670 2936
1.263 1.312 0.475 4164
1.264 1.313 0.469 4770
1.265 1.313 0.464 3598
1.271 1.320 0.461 2077
6.386 6.632 1.766 1468
6.394 6.641 1.740 2152
6.409 6.655 1.716 2230
6.417 6.664 1.691 1776
6.989 7.258 1.800 1519
6.954 7.222 1.762 1416
7.104 7.378 1.766 1438
7.113 7.387 1.738 1361
7.116 7.390 1.708 919
7.820 8.121 1.830 939
6.324 6.567 1.478 994
7.940 8.246 1.788 1266
7.944 8.250 1.755 1394
7.947 8.253 1.722 1027
8.266 8.584 1.750 1326
8.269 8.587 1.716 1358
8.272 8.591 1.681 1246
8.270 8.588 1.645 1100
8.267 8.586 1.610 907
9.404 9.766 1.773 888
1.157 1.201 0.330 1625
1.162 1.207 0.326 3596
1.163 1.208 0.321 6600
1.163 1.208 0.316 9674
1.163 1.208 0.312 10961
1.164 1.209 0.307 11457
1.164 1.209 0.302 11345
1.164 1.209 0.297 9325
1.165 1.210 0.293 6619
1.165 1.210 0.288 3968
1.165 1.210 0.283 1837
1.166 1.211 0.279 874
1.166 1.211 0.274 663
1.172 1.217 0.270 599
1.227 1.274 0.271 703
1.221 1.269 0.265 1409
1.222 1.269 0.260 2253
1.227 1.275 0.256 2899
1.228 1.275 0.251 3112
1.228 1.275 0.246 2969
1.228 1.275 0.241 2387
1.234 1.281 0.236 1727
1.234 1.282 0.231 1506
1.234 1.282 0.226 1530
1.229 1.276 0.221 1430
1.229 1.276 0.216 1315
1.229 1.276 0.211 1096
1.229 1.277 0.206 670
2.371 2.462 0.260 570
2.371 2.462 0.250 463
2.371 2.463 0.240 264
3.229 3.353 0.062 270
3.228 3.353 0.048 270
2.829 2.938 -0.093 273
2.828 2.937 -0.105 345
2.828 2.937 -0.117 345
2.833 2.942 -0.129 399
2.832 2.941 -0.141 461
2.832 2.941 -0.152 440
2.837 2.946 -0.165 424
2.831 2.940 -0.176 365
2.830 2.939 -0.188 312
2.829 2.938 -0.199 267
1.558 1.608 1.727 3640
1.561 1.612 1.720 7281
1.565 1.615 1.714 7281
1.644 1.697 1.786 5587
1.647 1.700 1.779 4227
1.651 1.704 1.772 4229
1.659 1.712 1.770 4310
1.662 1.715 1.763 4310
1.674 1.728 1.765 4668
1.682 1.736 1.763 5359
1.722 1.777 1.792 4534
1.725 1.780 1.785 6059
1.728 1.784 1.778 6277
1.736 1.792 1.775 6548
1.740 1.795 1.768 6529
1.738 1.794 1.756 6289
1.742 1.798 1.749 6060
1.749 1.806 1.746 7217
1.757 1.814 1.744 9065
1.761 1.817 1.736 9660
1.768 1.825 1.733 10303
1.776 1.833 1.730 7935
1.784 1.842 1.727 5902
1.801 1.859 1.733 7549
1.809 1.867 1.729 9402
1.808 1.866 1.718 8917
1.811 1.869 1.710 8462
1.814 1.873 1.703 6567
1.813 1.871 1.691 4691
1.821 1.879 1.688 6497
1.824 1.882 1.680 8322
1.827 1.886 1.673 8303
1.835 1.894 1.669 8440
1.909 1.970 1.722 7449
1.912 1.974 1.714 9551
1.920 1.982 1.710 8591
1.928 1.990 1.706 10793
1.931 1.993 1.699 13903
1.939 2.002 1.695 15176
1.947 2.010 1.690 17074
1.950 2.013 1.682 16241
1.953 2.016 1.674 15408
1.957 2.019 1.666 11379
1.955 2.018 1.654 5437
1.963 2.026 1.650 3521
1.961 2.024 1.638 3596
1.959 2.022 1.627 4834
1.962 2.025 1.618 5861
2.106 2.174 1.718 6795
2.109 2.177 1.709 9260
2.113 2.181 1.701 9308
2.111 2.179 1.688 7134
2.006 2.071 1.600 5113
2.254 2.327 1.772 5383
2.258 2.330 1.763 6705
2.261 2.334 1.753 6608
2.259 2.332 1.741 5695
2.263 2.335 1.731 5826
2.266 2.339 1.722 6804
2.269 2.342 1.713 5338
2.386 2.463 1.783 6714
2.394 2.471 1.777 7706
2.403 2.480 1.770 7035
2.411 2.488 1.764 5036
2.404 2.482 1.747 3425
2.413 2.490 1.740 4099
2.421 2.499 1.734 8624
2.424 2.502 1.724 13365
2.427 2.505 1.714 12995
2.435 2.514 1.707 12200
2.449 2.527 1.703 11702
2.457 2.536 1.696 12213
2.455 2.534 1.683 12533
2.463 2.542 1.676 14978
2.466 2.545 1.666 17551
2.469 2.549 1.656 15080
2.477 2.557 1.649 10647
2.486 2.565 1.641 12223
2.489 2.569 1.631 16193
2.492 2.572 1.621 15710
2.490 2.570 1.608 15184
2.493 2.573 1.597 14922
2.501 2.581 1.590 14770
2.514 2.594 1.586 12855
2.517 2.598 1.575 9109
2.520 2.601 1.565 8138
2.528 2.609 1.557 5273
2.792 2.882 1.695 3107
2.800 2.890 1.686 3924
2.814 2.904 1.680 4816
2.827 2.918 1.674 4217
2.892 2.985 1.696 5718
2.880 2.972 1.676 7079
2.872 2.965 1.658 7978
2.886 2.979 1.652 6451
2.910 3.003 1.651 6568
2.923 3.017 1.644 5992
3.009 3.106 1.675 7982
3.012 3.109 1.662 8608
3.020 3.117 1.652 7684
3.034 3.131 1.645 7081
3.063 3.161 1.646 8876
3.071 3.170 1.635 12522
3.079 3.178 1.625 13489
3.098 3.198 1.620 17938
3.106 3.206 1.610 16274
3.109 3.209 1.597 12599
3.117 3.218 1.586 14305
3.115 3.215 1.571 12938
3.113 3.213 1.556 7333
3.142 3.243 1.555 4474
3.523 3.636 1.713 3971
3.574 3.688 1.719 4145
3.572 3.686 1.702 5088
3.580 3.695 1.689 4553
3.710 3.829 1.729 5317
3.708 3.827 1.712 6826
3.711 3.830 1.696 5969
3.714 3.833 1.681 5234
3.744 3.864 1.676 6787
3.752 3.873 1.663 7029
3.755 3.876 1.647 7232
3.763 3.884 1.634 7669
3.782 3.904 1.625 4928
4.035 4.165 1.707 7654
4.038 4.168 1.690 13321
4.047 4.177 1.675 14300
4.050 4.180 1.658 8056
4.069 4.200 1.648 4651
4.072 4.203 1.631 5797
4.075 4.206 1.614 4815
4.270 4.408 1.666 4597
4.364 4.505 1.681 5073
4.367 4.508 1.663 5621
4.371 4.511 1.644 3779
4.390 4.531 1.632 2231
4.393 4.534 1.614 2357
4.390 4.531 1.593 1559
4.876 5.033 1.735 2092
4.864 5.020 1.709 2803
4.861 5.017 1.687 3596
4.864 5.021 1.667 2894
5.056 5.218 1.705 3107
5.194 5.361 1.726 2420
5.111 5.275 1.678 2360
5.524 5.701 1.779 3307
5.532 5.710 1.758 3026
5.546 5.725 1.738 3958
5.555 5.734 1.716 4039
5.558 5.737 1.693 3313
5.561 5.740 1.670 3596
5.565 5.743 1.647 2527
1.268 1.309 0.469 2965
1.269 1.309 0.464 2998
1.269 1.310 0.459 1986
6.406 6.612 1.766 1432
6.415 6.621 1.740 2332
6.429 6.636 1.716 2385
6.438 6.644 1.691 1818
7.017 7.242 1.801 1732
7.015 7.240 1.770 1524
7.274 7.507 1.800 1188
7.288 7.522 1.772 1014
7.727 7.975 1.838 941
6.330 6.534 1.502 1315
6.338 6.542 1.477 1638
6.336 6.539 1.449 1338
7.969 8.225 1.755 1359
7.972 8.229 1.722 1071
6.327 6.530 1.367 1207
6.324 6.527 1.339 1109
8.299 8.565 1.681 1132
8.296 8.563 1.645 1045
9.425 9.728 1.811 881
9.429 9.732 1.772 995
1.160 1.198 0.330 2071
1.166 1.204 0.326 3958
1.166 1.204 0.321 6636
1.167 1.204 0.316 9423
1.167 1.205 0.312 10663
1.168 1.205 0.307 11253
1.168 1.205 0.302 11413
1.168 1.206 0.297 9761
1.168 1.206 0.293 7189
1.169 1.206 0.288 4492
1.164 1.201 0.283 2414
1.164 1.201 0.278 1660
1.164 1.202 0.273 1432
1.170 1.208 0.269 1091
1.170 1.208 0.264 768
1.225 1.265 0.265 903
1.226 1.265 0.260 1434
1.231 1.271 0.256 1815
1.232 1.271 0.251 1969
1.232 1.271 0.246 1779
1.238 1.277 0.241 1347
1.238 1.277 0.236 1343
1.238 1.278 0.231 1561
1.233 1.272 0.226 1680
1.233 1.272 0.221 1627
1.227 1.267 0.216 1461
1.233 1.273 0.211 1192
1.233 1.273 0.206 703
2.378 2.455 0.260 550
2.379 2.455 0.250 444
3.254 3.359 0.278 281
1.102 1.137 0.118 267
1.096 1.131 0.114 300
1.102 1.137 0.109 320
1.102 1.137 0.105 332
1.102 1.137 0.100 315
1.101 1.137 0.096 290
1.107 1.142 0.091 274
2.842 2.933 -0.129 280
2.841 2.933 -0.141 350
2.846 2.938 -0.153 355
2.846 2.937 -0.165 362
2.845 2.936 -0.177 303
2.839 2.930 -0.188 251
1.642 1.679 1.806 3737
1.645 1.682 1.799 7474
1.648 1.686 1.792 7474
1.652 1.689 1.786 5977
1.655 1.693 1.779 4480
1.658 1.696 1.772 4356
1.666 1.704 1.770 4246
1.670 1.708 1.763 4246
1.682 1.720 1.765 4255
1.690 1.728 1.763 4707
1.725 1.765 1.787 4214
1.733 1.773 1.785 5747
1.736 1.776 1.778 5718
1.744 1.784 1.775 5780
1.748 1.788 1.768 5730
1.751 1.791 1.761 5075
1.745 1.785 1.745 4509
1.762 1.802 1.751 6405
1.766 1.806 1.744 8546
1.773 1.814 1.741 9674
1.777 1.817 1.733 10815
1.785 1.825 1.730 8597
1.793 1.833 1.727 6665
1.805 1.846 1.728 6992
1.813 1.854 1.725 8005
1.816 1.858 1.718 7751
1.810 1.851 1.702 7696
1.813 1.855 1.695 6882
1.816 1.858 1.687 6069
1.820 1.861 1.680 6540
1.827 1.869 1.676 7173
1.831 1.872 1.669 6655
1.838 1.880 1.665 6247
1.923 1.967 1.726 7620
1.921 1.965 1.714 9604
1.929 1.973 1.710 8471
1.937 1.981 1.706 9862
1.945 1.989 1.702 12560
1.948 1.993 1.695 14512
1.956 2.001 1.690 16955
1.959 2.004 1.682 15793
1.963 2.007 1.674 14630
1.966 2.011 1.666 9986
1.998 2.043 1.681 4234
2.006 2.052 1.677 2998
1.980 2.025 1.646 3497
1.978 2.023 1.634 5665
1.986 2.031 1.630 6931
2.116 2.164 1.718 7764
2.114 2.163 1.706 10841
2.118 2.166 1.697 11546
2.116 2.164 1.685 10090
2.119 2.167 1.676 8214
2.117 2.166 1.664 6266
2.268 2.320 1.763 6019
2.272 2.323 1.753 6064
2.275 2.327 1.744 5469
2.278 2.330 1.735 5975
2.276 2.328 1.722 7216
2.280 2.332 1.713 5788
2.397 2.452 1.783 5130
2.406 2.460 1.777 5914
2.414 2.469 1.770 6084
2.422 2.477 1.764 4860
2.416 2.471 1.747 3558
2.409 2.464 1.730 3915
2.427 2.482 1.730 6983
2.430 2.486 1.720 12735
2.439 2.494 1.714 14179
2.447 2.503 1.707 13918
2.455 2.511 1.700 11776
2.468 2.525 1.696 10874
2.461 2.518 1.680 12129
2.475 2.531 1.676 14501
2.478 2.534 1.666 16657
2.481 2.537 1.656 14089
2.489 2.546 1.649 10800
2.492 2.549 1.638 12651
2.500 2.557 1.631 14035
2.503 2.560 1.621 12436
2.501 2.558 1.608 14154
2.499 2.556 1.594 15263
2.507 2.564 1.587 14491
2.515 2.573 1.580 11080
2.518 2.576 1.569 7863
2.526 2.584 1.562 8749
2.534 2.592 1.554 6085
2.542 2.600 1.547 3377
2.818 2.883 1.689 3503
2.827 2.891 1.680 4799
2.913 2.979 1.714 4476
2.911 2.977 1.699 5654
2.898 2.964 1.678 5015
2.886 2.952 1.658 5644
2.894 2.960 1.649 5316
2.923 2.990 1.651 6410
3.051 3.121 1.703 5603
3.023 3.092 1.675 9246
3.026 3.095 1.662 9909
3.034 3.104 1.652 7109
3.043 3.112 1.643 5581
3.077 3.147 1.646 7978
3.075 3.145 1.630 11952
3.073 3.143 1.615 12288
3.107 3.178 1.618 12155
3.115 3.187 1.607 12619
3.129 3.200 1.599 10746
3.142 3.214 1.591 12533
3.135 3.206 1.573 9848
3.507 3.587 1.730 5791
3.521 3.601 1.720 4945
3.529 3.610 1.708 4581
3.590 3.672 1.719 5358
3.594 3.676 1.704 6858
3.597 3.679 1.689 6675
3.610 3.693 1.679 5828
3.614 3.696 1.664 4970
3.728 3.813 1.696 4862
3.742 3.827 1.685 5833
3.761 3.847 1.676 8260
3.769 3.856 1.663 8505
3.773 3.859 1.647 9155
3.781 3.867 1.634 10018
3.789 3.876 1.620 5390
4.049 4.141 1.705 6254
4.057 4.150 1.690 11533
4.066 4.158 1.675 12535
4.074 4.167 1.660 7891
4.083 4.176 1.646 6466
4.086 4.179 1.629 7478
4.105 4.198 1.618 5493
4.296 4.394 1.668 3562
4.385 4.485 1.681 4869
4.388 4.488 1.663 5699
4.391 4.491 1.644 3729
4.415 4.516 1.634 1946
4.849 4.960 1.761 2172
4.831 4.941 1.733 2144
4.894 5.005 1.733 2587
4.886 4.998 1.709 3007
4.879 4.990 1.685 3679
4.887 4.999 1.667 3235
5.079 5.195 1.705 3434
5.083 5.199 1.684 2728
5.541 5.667 1.800 2432
5.549 5.676 1.779 3539
5.553 5.680 1.756 3150
5.572 5.699 1.738 3680
5.581 5.708 1.716 3613
5.584 5.712 1.693 3249
5.587 5.715 1.670 3724
5.917 6.052 1.735 2861
5.594 5.721 1.623 2035
5.602 5.730 1.602 1820
5.823 5.956 1.635 1328
6.431 6.577 1.764 1310
6.445 6.592 1.740 2056
6.459 6.606 1.716 2073
6.468 6.615 1.691 1571
7.050 7.210 1.801 1798
7.053 7.214 1.772 1741
7.329 7.497 1.805 1136
7.349 7.517 1.778 1074
7.768 7.946 1.839 1232
7.766 7.943 1.805 1282
6.373 6.519 1.478 1367
7.767 7.945 1.740 1262
8.006 8.189 1.755 1220
6.354 6.499 1.393 1289
6.357 6.502 1.367 1408
8.554 8.749 1.757 1002
9.254 9.465 1.851 1065
9.257 9.469 1.813 1017
8.580 8.775 1.654 929
9.473 9.689 1.772 992
1.166 1.192 0.330 1949
1.172 1.198 0.326 3607
1.172 1.199 0.321 5701
1.172 1.199 0.316 7801
1.173 1.199 0.312 8774
1.173 1.200 0.307 9239
1.173 1.200 0.302 9347
1.174 1.200 0.297 8077
1.174 1.201 0.293 6195
1.174 1.201 0.288 4282
1.175 1.201 0.283 2724
1.169 1.196 0.278 2008
1.170 1.196 0.273 1645
1.175 1.202 0.269 1158
1.176 1.202 0.264 664
1.231 1.259 0.265 531
1.237 1.265 0.261 843
1.237 1.265 0.256 1080
1.237 1.266 0.251 1161
1.238 1.266 0.246 1068
1.238 1.266 0.241 811
2.382 2.436 0.328 590
2.382 2.437 0.318 528
2.383 2.437 0.308 524
2.383 2.437 0.298 594
2.383 2.438 0.289 667
2.383 2.438 0.279 710
2.389 2.444 0.269 682
2.384 2.438 0.259 609
2.390 2.444 0.250 490
3.270 3.344 0.278 308
3.275 3.350 0.264 263
3.248 3.322 0.035 262
3.248 3.322 0.022 297
3.248 3.322 0.008 300
3.247 3.321 -0.005 304
1.112 1.137 0.087 291
1.106 1.132 0.083 289
1.106 1.131 0.078 276
1.106 1.131 0.074 264
2.852 2.917 -0.081 261
2.855 2.920 -0.129 268
2.855 2.920 -0.141 334
2.860 2.925 -0.153 401
2.859 2.924 -0.165 476
2.853 2.918 -0.176 446
2.852 2.917 -0.188 424
2.851 2.917 -0.199 354
2.851 2.916 -0.211 283
1.642 1.669 1.801 3756
1.646 1.673 1.795 7513
1.649 1.676 1.788 7513
1.657 1.684 1.786 5987
1.660 1.688 1.779 4471
1.664 1.691 1.772 4401
1.667 1.695 1.765 4332
1.670 1.698 1.759 4332
1.687 1.715 1.765 4069
1.695 1.723 1.763 4360
1.699 1.727 1.756 3986
1.734 1.763 1.780 5217
1.742 1.771 1.778 5050
1.708 1.737 1.735 4916
1.753 1.782 1.768 4864
1.761 1.790 1.765 4208
1.718 1.747 1.714 3812
1.768 1.797 1.751 5758
1.776 1.805 1.748 7890
1.779 1.808 1.741 9267
1.782 1.812 1.733 10644
1.790 1.820 1.730 8749
1.798 1.828 1.727 7203
1.806 1.836 1.724 6896
1.819 1.849 1.725 7115
1.817 1.847 1.714 7065
1.816 1.846 1.702 7074
1.824 1.854 1.699 7058
1.827 1.857 1.691 7055
1.830 1.860 1.684 6579
1.833 1.864 1.676 6103
1.836 1.867 1.669 5193
1.925 1.957 1.734 5841
1.929 1.961 1.726 7410
1.932 1.964 1.718 8979
1.930 1.962 1.706 7848
1.943 1.975 1.706 8748
1.951 1.983 1.702 11130
1.954 1.987 1.695 13246
1.962 1.995 1.690 15851
1.966 1.998 1.682 14537
1.969 2.001 1.674 13224
1.977 2.009 1.670 8790
2.004 2.037 1.681 4449
1.983 2.016 1.654 3186
1.986 2.019 1.646 4985
1.989 2.022 1.638 6901
1.997 2.030 1.633 8005
2.005 2.038 1.629 8686
2.121 2.156 1.706 11380
2.124 2.159 1.697 12759
2.123 2.158 1.685 12210
2.121 2.156 1.672 10437
2.124 2.159 1.664 8057
2.127 2.162 1.655 5055
2.279 2.316 1.753 5244
2.287 2.325 1.748 5137
2.290 2.328 1.738 5811
2.284 2.321 1.722 7013
2.287 2.325 1.713 5749
2.315 2.353 1.721 3822
2.328 2.367 1.718 4695
2.336 2.375 1.712 4752
2.355 2.394 1.712 4630
2.413 2.453 1.740 4443
2.416 2.456 1.730 5459
2.425 2.465 1.724 7489
2.438 2.478 1.720 12209
2.446 2.487 1.714 14562
2.454 2.495 1.707 14652
2.458 2.498 1.697 11715
2.461 2.502 1.687 9523
2.464 2.505 1.677 11650
2.477 2.518 1.673 13911
2.486 2.527 1.666 15320
2.489 2.530 1.656 12484
2.492 2.533 1.645 10577
2.495 2.536 1.635 13230
2.503 2.544 1.628 12568
2.501 2.542 1.615 10007
2.504 2.545 1.605 13293
2.507 2.548 1.594 15811
2.515 2.557 1.587 15035
2.518 2.560 1.577 11790
2.521 2.563 1.566 9203
2.529 2.571 1.559 9898
2.537 2.579 1.551 6950
2.530 2.571 1.535 3686
2.832 2.879 1.692 3288
2.836 2.883 1.680 4348
2.559 2.601 1.515 5668
2.562 2.604 1.505 6754
2.564 2.607 1.494 5237
2.572 2.615 1.487 4289
2.924 2.972 1.660 5443
2.932 2.981 1.651 6181
3.061 3.111 1.703 5945
3.027 3.077 1.672 9153
3.036 3.086 1.662 9653
3.039 3.089 1.650 6080
3.047 3.097 1.640 4172
3.076 3.127 1.640 6214
3.074 3.125 1.625 10136
3.077 3.128 1.612 11253
3.080 3.131 1.600 8256
3.131 3.182 1.610 8302
3.149 3.201 1.604 8578
3.158 3.210 1.594 11039
3.150 3.202 1.576 7424
3.523 3.581 1.732 5139
3.532 3.590 1.720 5146
3.540 3.599 1.708 4647
3.602 3.661 1.719 5697
3.605 3.664 1.704 7647
3.608 3.668 1.689 8019
3.617 3.676 1.677 7027
3.620 3.679 1.662 5964
3.623 3.683 1.647 5501
3.759 3.821 1.687 5564
3.773 3.835 1.676 8773
3.776 3.838 1.661 9442
3.784 3.847 1.647 9833
3.793 3.856 1.634 10817
3.801 3.864 1.620 5624
4.061 4.129 1.705 4056
4.070 4.137 1.690 7500
4.121 4.189 1.692 8992
4.108 4.176 1.669 7377
4.112 4.180 1.652 7676
4.125 4.194 1.639 8128
4.134 4.202 1.624 6046
4.121 4.189 1.601 2575
4.398 4.471 1.681 3724
4.402 4.474 1.663 4527
4.399 4.472 1.643 2805
4.613 4.689 1.696 2178
4.854 4.934 1.757 2634
4.857 4.938 1.737 3185
4.904 4.985 1.731 2637
4.902 4.983 1.709 2725
4.905 4.986 1.689 3202
4.908 4.989 1.668 3108
5.095 5.180 1.705 3142
5.164 5.249 1.704 3157
5.162 5.247 1.681 2526
5.567 5.659 1.779 3013
5.287 5.375 1.673 2910
5.574 5.666 1.733 3041
5.604 5.697 1.718 2879
5.607 5.700 1.695 2821
5.932 6.030 1.760 3742
5.924 6.022 1.732 3228
5.600 5.693 1.621 2256
5.614 5.707 1.600 1854
5.847 5.943 1.636 1256
5.943 6.041 1.635 1437
6.465 6.572 1.740 1647
6.474 6.581 1.715 1576
6.860 6.974 1.780 1490
7.077 7.194 1.802 1734
7.081 7.198 1.773 1776
7.374 7.496 1.810 1223
7.383 7.505 1.780 1453
7.793 7.922 1.839 1370
7.796 7.925 1.807 1307
7.800 7.929 1.774 1302
7.792 7.921 1.740 1424
8.031 8.164 1.755 1086
6.380 6.485 1.394 1178
6.377 6.482 1.367 1283
8.580 8.722 1.757 1110
9.288 9.442 1.852 1176
9.286 9.440 1.813 1062
8.607 8.749 1.654 942
9.563 9.721 1.782 880
1.169 1.189 0.330 1531
1.175 1.195 0.326 2860
1.176 1.195 0.321 4379
1.176 1.195 0.316 5902
1.176 1.196 0.312 6665
1.177 1.196 0.307 7017
1.177 1.196 0.302 7031
1.183 1.202 0.298 6122
1.183 1.203 0.293 4931
1.178 1.197 0.288 3749
1.178 1.198 0.283 2669
1.173 1.192 0.278 2028
1.179 1.198 0.274 1640
1.179 1.199 0.269 1116
1.179 1.199 0.264 585
1.202 1.222 0.262 290
1.235 1.256 0.260 625
1.241 1.262 0.256 1158
1.241 1.262 0.251 1484
1.241 1.262 0.246 1650
1.242 1.262 0.241 1808
1.242 1.262 0.236 1599
1.237 1.257 0.230 1405
1.237 1.257 0.225 1120
1.237 1.257 0.220 617
1.237 1.257 0.216 409
2.391 2.431 0.279 363
2.391 2.431 0.269 388
2.392 2.431 0.259 384
2.392 2.431 0.249 342
3.280 3.334 0.278 279
3.456 3.513 -0.071 256
3.455 3.512 -0.085 262
3.333 3.388 -0.091 281
3.332 3.387 -0.105 314
3.332 3.387 -0.118 346
3.331 3.386 -0.132 336
3.331 3.386 -0.146 325
3.330 3.385 -0.159 277
2.858 2.905 -0.140 258
2.863 2.910 -0.152 315
2.868 2.915 -0.165 378
2.862 2.909 -0.176 373
2.861 2.908 -0.188 373
2.860 2.908 -0.199 328
2.865 2.913 -0.212 284
1.650 1.662 1.801 3632
1.653 1.665 1.795 7264
1.657 1.669 1.788 7264
1.665 1.677 1.786 5757
1.668 1.680 1.779 4304
1.671 1.684 1.772 4446
1.675 1.687 1.765 4587
1.678 1.690 1.759 4587
1.690 1.703 1.761 4088
1.703 1.716 1.763 4142
1.706 1.719 1.756 3967
1.742 1.755 1.780 4670
