2.636 1.210 1.567 10378
2.627 1.206 1.551 9375
2.630 1.208 1.543 10891
2.640 1.213 1.538 11014
2.896 1.330 1.665 13201
2.894 1.329 1.652 15733
2.891 1.328 1.640 13844
2.889 1.327 1.627 11199
2.893 1.328 1.618 8187
2.897 1.330 1.609 6417
2.822 1.296 1.560 6907
2.820 1.295 1.548 11029
2.830 1.300 1.542 12707
2.866 1.316 1.549 11064
2.824 1.297 1.518 10784
2.821 1.296 1.505 11861
2.818 1.294 1.493 12865
2.822 1.296 1.484 10369
2.825 1.298 1.475 8791
2.836 1.302 1.470 8378
2.839 1.304 1.461 7585
2.823 1.296 1.442 8468
2.820 1.295 1.430 14707
2.823 1.296 1.422 20073
2.826 1.298 1.413 19077
2.836 1.303 1.407 13257
2.833 1.301 1.395 12938
2.830 1.299 1.383 21084
2.833 1.301 1.374 27045
2.836 1.302 1.365 25856
2.839 1.304 1.356 25358
2.856 1.312 1.353 25579
2.866 1.316 1.347 21452
2.883 1.324 1.343 15548
2.879 1.322 1.331 11486
2.876 1.321 1.319 12716
2.885 1.325 1.313 17665
2.888 1.326 1.304 21473
2.885 1.325 1.292 22166
2.888 1.326 1.283 19213
2.904 1.334 1.279 12906
2.914 1.338 1.273 13271
2.917 1.340 1.264 20803
2.920 1.341 1.254 24874
2.923 1.342 1.245 23395
2.926 1.344 1.236 19872
2.936 1.348 1.229 14643
2.939 1.349 1.220 8903
2.928 1.345 1.206 7957
2.931 1.346 1.196 7982
2.947 1.353 1.192 7940
2.957 1.358 1.185 10064
2.953 1.356 1.174 10595
2.955 1.357 1.164 11570
2.965 1.362 1.157 11961
2.968 1.363 1.148 9306
2.970 1.364 1.138 7533
2.973 1.365 1.129 7275
2.982 1.370 1.122 8645
2.992 1.374 1.115 12712
2.994 1.375 1.105 13079
3.004 1.379 1.098 9598
3.006 1.381 1.089 9691
3.016 1.385 1.081 10193
3.032 1.392 1.076 9137
3.035 1.394 1.067 7289
3.044 1.398 1.059 9362
3.046 1.399 1.050 10467
3.042 1.397 1.038 9935
3.044 1.398 1.028 13287
3.054 1.402 1.021 14128
3.063 1.407 1.013 12397
3.065 1.408 1.003 12918
3.074 1.412 0.996 17126
3.084 1.416 0.988 16883
3.086 1.417 0.978 11686
3.095 1.421 0.970 8906
3.097 1.422 0.960 7021
3.106 1.427 0.952 9095
3.109 1.428 0.943 10199
3.118 1.432 0.935 6469
3.127 1.436 0.927 5336
3.143 1.443 0.920 7840
3.145 1.444 0.910 13137
3.161 1.452 0.904 16163
3.163 1.453 0.894 15519
3.172 1.457 0.885 10328
3.188 1.464 0.879 7192
3.190 1.465 0.869 5390
3.185 1.463 0.857 7633
3.180 1.460 0.845 10335
3.182 1.461 0.835 6629
3.261 1.498 0.842 8475
3.256 1.495 0.830 11511
3.265 1.499 0.821 10750
3.309 1.520 0.820 9872
3.297 1.514 0.807 7654
3.291 1.511 0.795 5934
3.711 1.704 0.867 5096
3.713 1.705 0.856 6524
3.715 1.706 0.844 7003
3.709 1.703 0.831 15157
3.711 1.704 0.819 23478
3.713 1.705 0.807 20355
3.715 1.706 0.795 12970
3.716 1.707 0.784 6705
3.718 1.707 0.772 5925
3.727 1.711 0.761 7574
3.728 1.712 0.749 6736
3.723 1.710 0.737 4800
3.732 1.714 0.726 4745
3.733 1.714 0.714 4542
3.728 1.712 0.701 3384
3.736 1.716 0.690 3284
3.752 1.723 0.681 4843
3.760 1.727 0.670 6020
3.769 1.731 0.659 4717
3.763 1.728 0.646 3100
3.757 1.725 0.633 3565
3.766 1.729 0.622 4050
3.767 1.730 0.610 3755
3.775 1.734 0.599 3045
3.798 1.744 0.590 2842
5.402 2.481 0.765 4272
5.403 2.481 0.748 5331
5.405 2.482 0.730 6542
5.407 2.483 0.713 9180
5.401 2.480 0.695 10647
5.402 2.481 0.678 8926
5.404 2.482 0.661 7085
5.405 2.482 0.644 5904
5.406 2.483 0.626 6406
5.408 2.483 0.609 7773
5.402 2.481 0.591 5889
5.403 2.481 0.574 4382
5.404 2.482 0.557 4098
5.412 2.486 0.540 5092
5.413 2.486 0.523 6135
5.414 2.486 0.506 6602
5.415 2.487 0.489 6035
5.423 2.491 0.472 3620
5.561 2.554 0.462 2823
5.569 2.557 0.445 3058
5.577 2.561 0.428 3198
5.585 2.565 0.410 3167
5.578 2.562 0.392 2985
5.572 2.559 0.374 2385
5.508 2.529 0.354 1928
5.580 2.562 0.339 1790
5.609 2.576 0.322 1917
5.610 2.576 0.304 2017
5.603 2.573 0.286 1766
5.596 2.570 0.268 1630
8.028 3.687 0.299 1582
8.028 3.687 0.273 1336
8.021 3.684 0.248 1104
9.345 4.292 0.236 1020
9.705 4.457 0.208 1032
9.705 4.457 0.177 1274
9.705 4.457 0.146 1290
9.705 4.457 0.115 1305
9.705 4.457 0.084 1045
9.878 4.536 0.052 985
9.359 4.298 0.026 1202
9.359 4.298 -0.003 1082
9.359 4.298 -0.033 962
9.833 4.516 -0.074 957
9.825 4.512 -0.105 1045
9.846 4.522 -0.137 926
10.011 4.597 -0.174 1174
9.988 4.587 -0.205 1274
9.980 4.583 -0.237 1432
9.972 4.579 -0.268 1125
9.964 4.576 -0.300 846
10.041 4.611 -0.335 655
10.040 4.611 -0.367 931
10.039 4.610 -0.400 1025
10.030 4.606 -0.431 1123
10.028 4.605 -0.463 997
10.027 4.605 -0.495 870
10.032 4.607 -0.528 582
10.626 4.880 -0.602 330
10.043 4.612 -0.593 321
10.041 4.611 -0.625 319
10.039 4.610 -0.657 319
1.514 0.688 1.308 16008
1.517 0.690 1.303 16008
1.520 0.691 1.298 19281
1.523 0.693 1.294 22554
1.526 0.694 1.289 22546
1.535 0.698 1.289 22698
1.538 0.699 1.284 19140
1.535 0.698 1.275 15718
1.538 0.700 1.270 15718
1.541 0.701 1.265 11603
1.544 0.702 1.260 7488
1.547 0.704 1.256 9759
1.550 0.705 1.251 12030
1.553 0.706 1.246 11109
1.562 0.710 1.246 10252
1.559 0.709 1.236 7989
1.556 0.708 1.227 5738
1.559 0.709 1.222 6410
1.556 0.707 1.213 7041
1.558 0.709 1.208 8451
1.573 0.715 1.212 10213
1.582 0.720 1.211 9582
1.591 0.724 1.211 8070
1.600 0.728 1.210 8014
1.603 0.729 1.205 8972
1.600 0.727 1.196 10502
1.603 0.729 1.191 11672
1.605 0.730 1.186 8957
1.608 0.731 1.181 6180
1.703 0.775 1.237 8105
1.706 0.776 1.232 13124
1.709 0.777 1.227 19451
1.706 0.776 1.217 23564
1.715 0.780 1.216 23200
1.718 0.781 1.211 22922
1.727 0.785 1.209 21359
1.730 0.787 1.204 20321
1.732 0.788 1.199 16280
1.729 0.786 1.189 12832
1.732 0.788 1.184 13411
1.741 0.792 1.182 14200
1.750 0.796 1.181 15321
1.753 0.797 1.175 19387
1.749 0.795 1.166 22919
1.752 0.797 1.161 22856
1.755 0.798 1.155 20144
1.764 0.802 1.153 17963
1.766 0.803 1.148 14746
1.884 0.857 1.209 10860
1.893 0.861 1.207 10246
1.902 0.865 1.205 7881
1.918 0.872 1.206 5896
2.599 1.182 1.585 5749
2.616 1.190 1.584 7251
2.632 1.197 1.583 9195
1.922 0.874 1.179 9424
1.925 0.875 1.173 10636
1.928 0.877 1.167 9384
2.919 1.327 1.697 8486
2.930 1.332 1.692 9700
2.914 1.325 1.672 11709
2.905 1.321 1.656 13542
2.896 1.317 1.640 11779
2.894 1.316 1.627 10577
2.898 1.318 1.618 9016
2.902 1.320 1.609 7826
1.952 0.888 1.112 7200
2.824 1.284 1.548 9364
2.835 1.289 1.542 10320
2.878 1.309 1.553 11533
2.829 1.286 1.518 9664
2.826 1.285 1.505 10151
2.823 1.284 1.493 10510
2.833 1.288 1.488 8982
2.837 1.290 1.479 8546
2.840 1.292 1.470 8979
2.844 1.293 1.461 8825
2.827 1.286 1.442 10963
2.824 1.284 1.430 18006
2.828 1.286 1.422 23696
2.831 1.287 1.413 22469
2.834 1.289 1.404 13423
2.831 1.287 1.392 9887
2.828 1.286 1.380 16405
2.838 1.290 1.374 22203
2.841 1.292 1.365 23678
2.844 1.293 1.356 26120
2.854 1.298 1.350 26590
2.871 1.306 1.347 21966
2.881 1.310 1.340 18979
2.877 1.308 1.329 17758
2.874 1.307 1.317 18028
2.890 1.314 1.313 20623
2.893 1.316 1.304 26049
2.890 1.314 1.292 28095
2.893 1.315 1.283 23330
2.896 1.317 1.274 13645
2.912 1.324 1.270 11573
2.915 1.326 1.261 19148
2.925 1.330 1.254 23027
2.928 1.332 1.245 21545
2.931 1.333 1.236 17482
2.941 1.337 1.229 11027
2.944 1.339 1.220 6396
2.926 1.331 1.203 6226
2.936 1.335 1.196 7238
2.952 1.342 1.192 9010
2.962 1.347 1.185 9281
2.958 1.345 1.174 6537
2.967 1.349 1.167 7071
2.970 1.351 1.157 8903
2.973 1.352 1.148 8144
2.975 1.353 1.138 8937
2.978 1.354 1.129 10508
2.981 1.355 1.120 11857
2.997 1.363 1.115 14677
3.000 1.364 1.105 13378
3.009 1.368 1.098 8769
3.018 1.373 1.091 8466
3.021 1.374 1.081 8714
3.037 1.381 1.076 7392
3.026 1.376 1.062 5626
3.035 1.380 1.055 7049
3.045 1.385 1.047 8247
3.047 1.386 1.038 8641
3.049 1.387 1.028 13875
3.059 1.391 1.021 15939
3.068 1.395 1.013 15128
3.063 1.393 1.001 17843
3.073 1.397 0.994 23444
3.082 1.401 0.986 22934
3.091 1.406 0.978 16313
3.093 1.407 0.968 10966
3.096 1.408 0.959 7005
3.105 1.412 0.951 7940
3.107 1.413 0.941 8707
3.109 1.414 0.931 5167
3.132 1.424 0.927 2336
3.148 1.432 0.920 7474
3.150 1.433 0.910 16356
3.159 1.437 0.902 17086
3.168 1.441 0.894 14338
3.177 1.445 0.885 9395
3.194 1.452 0.879 5541
3.195 1.453 0.869 4150
3.183 1.448 0.855 7984
3.185 1.448 0.845 11338
3.194 1.453 0.837 7848
3.260 1.482 0.841 7907
3.254 1.480 0.829 10223
3.284 1.494 0.824 8959
3.329 1.514 0.823 8195
3.338 1.518 0.814 6248
3.311 1.506 0.798 5607
3.327 1.513 0.790 5392
3.712 1.688 0.854 5639
3.721 1.692 0.844 6168
3.716 1.690 0.831 13631
3.717 1.690 0.819 21352
3.719 1.691 0.807 18455
3.714 1.689 0.794 12442
3.723 1.693 0.784 8635
3.724 1.694 0.772 10027
3.726 1.694 0.760 12235
3.735 1.698 0.749 11042
3.729 1.696 0.737 7496
3.738 1.700 0.726 6456
3.740 1.701 0.714 6391
3.741 1.701 0.702 4063
3.743 1.702 0.690 3286
3.751 1.706 0.680 4846
3.767 1.713 0.670 5644
3.790 1.723 0.661 4123
3.841 1.747 0.656 3133
3.835 1.744 0.642 2595
3.894 1.771 0.638 2714
3.895 1.771 0.625 3003
3.782 1.720 0.599 2777
3.805 1.730 0.590 2733
5.411 2.461 0.765 3819
5.413 2.461 0.748 4875
5.414 2.462 0.730 6225
5.416 2.463 0.713 9389
5.417 2.464 0.696 11768
5.412 2.461 0.678 11023
5.420 2.465 0.661 9710
5.414 2.462 0.644 7086
5.416 2.463 0.626 5366
5.417 2.463 0.609 6557
5.418 2.464 0.592 5814
5.419 2.464 0.575 4626
5.420 2.465 0.557 3471
5.422 2.465 0.540 3489
5.423 2.466 0.523 4598
5.424 2.466 0.506 5679
5.425 2.467 0.489 6187
5.433 2.470 0.472 4405
5.441 2.474 0.455 3102
5.578 2.537 0.445 2350
5.586 2.540 0.428 2429
5.594 2.544 0.410 2345
5.480 2.492 0.387 2302
5.473 2.489 0.370 2196
5.524 2.512 0.354 2050
5.517 2.509 0.336 1775
5.619 2.555 0.322 1863
5.619 2.555 0.304 1864
5.612 2.552 0.286 1623
8.041 3.657 0.325 1739
8.041 3.657 0.299 1911
8.042 3.657 0.273 1598
8.042 3.657 0.248 1284
9.361 4.257 0.236 1062
9.729 4.424 0.208 1036
9.722 4.421 0.177 1299
9.729 4.424 0.146 1333
9.729 4.424 0.115 1373
9.736 4.427 0.084 1119
9.383 4.267 0.056 1109
9.375 4.263 0.026 1380
9.375 4.263 -0.003 1198
9.843 4.476 -0.042 1019
9.850 4.479 -0.074 1058
9.856 4.482 -0.105 1127
9.855 4.482 -0.137 1031
10.006 4.550 -0.173 1082
9.991 4.543 -0.204 1226
9.990 4.543 -0.236 1423
9.982 4.539 -0.268 1127
9.966 4.532 -0.299 871
10.058 4.574 -0.335 729
10.050 4.570 -0.367 980
10.048 4.570 -0.399 1108
10.047 4.569 -0.431 1235
10.045 4.568 -0.463 1145
10.044 4.567 -0.495 1054
10.042 4.567 -0.527 737
10.026 4.559 -0.558 440
10.046 4.568 -0.592 398
10.051 4.571 -0.625 385
10.049 4.570 -0.657 385
10.047 4.569 -0.689 285
1.522 0.686 1.313 11659
1.525 0.688 1.308 11659
1.522 0.687 1.298 15713
1.525 0.688 1.294 19880
1.528 0.689 1.289 21041
1.537 0.693 1.289 22280
1.534 0.692 1.280 19094
1.537 0.693 1.275 15985
1.540 0.695 1.270 15985
1.543 0.696 1.265 12077
1.540 0.695 1.256 8361
1.543 0.696 1.251 10827
1.546 0.697 1.246 13293
1.549 0.699 1.242 11710
1.558 0.703 1.241 10317
1.561 0.704 1.236 8096
1.564 0.705 1.232 5842
1.555 0.701 1.218 6988
1.558 0.703 1.213 8175
1.561 0.704 1.208 9513
1.569 0.708 1.208 10962
1.578 0.712 1.207 9462
1.593 0.719 1.211 7778
1.590 0.717 1.202 7821
1.587 0.716 1.192 8746
1.596 0.720 1.192 10063
1.599 0.721 1.187 10908
1.601 0.722 1.182 8449
1.610 0.726 1.181 6068
1.700 0.767 1.233 7712
1.702 0.768 1.228 12004
1.712 0.772 1.227 17904
1.708 0.770 1.217 22088
1.717 0.775 1.216 21704
1.720 0.776 1.211 21538
1.723 0.777 1.205 20418
1.732 0.781 1.204 19484
1.735 0.783 1.199 16008
1.731 0.781 1.189 13153
1.734 0.782 1.184 13888
1.743 0.786 1.182 15454
1.746 0.788 1.177 17297
1.755 0.792 1.175 21256
1.758 0.793 1.170 24919
1.754 0.791 1.161 24948
1.763 0.795 1.159 21462
1.772 0.799 1.157 18597
1.769 0.798 1.148 14937
1.880 0.848 1.206 10510
1.889 0.852 1.203 10192
1.892 0.853 1.197 7806
1.907 0.860 1.199 5336
1.904 0.859 1.189 5355
1.907 0.860 1.183 5849
1.916 0.864 1.181 7724
1.925 0.868 1.179 10034
1.928 0.869 1.173 11450
1.931 0.871 1.167 10068
1.940 0.875 1.164 8279
2.934 1.323 1.692 8606
2.931 1.322 1.679 10296
2.922 1.318 1.663 11296
2.900 1.308 1.640 9553
2.898 1.307 1.627 10221
2.902 1.309 1.618 10014
2.906 1.311 1.609 9273
2.910 1.312 1.600 6530
2.835 1.279 1.551 7435
2.878 1.298 1.562 9620
2.888 1.303 1.556 11654
2.899 1.307 1.550 10095
2.837 1.279 1.509 8460
2.847 1.284 1.503 8892
2.870 1.295 1.504 9698
2.847 1.284 1.482 8953
2.844 1.283 1.470 10218
2.841 1.281 1.458 10848
2.831 1.277 1.442 14100
2.828 1.276 1.430 20349
2.832 1.277 1.422 25820
2.835 1.279 1.413 25969
2.832 1.277 1.401 17266
2.828 1.276 1.389 14166
2.832 1.277 1.380 17768
2.835 1.279 1.371 19037
2.838 1.280 1.362 20287
2.848 1.285 1.356 25065
2.858 1.289 1.350 26394
2.875 1.297 1.347 22487
2.885 1.301 1.340 22178
2.881 1.300 1.329 23637
2.878 1.298 1.317 22322
2.888 1.302 1.310 23035
2.897 1.307 1.304 28899
2.894 1.305 1.292 32073
2.897 1.307 1.283 26339
2.893 1.305 1.271 17150
2.903 1.309 1.265 15591
2.919 1.317 1.261 21057
2.929 1.321 1.254 21504
2.932 1.323 1.245 18371
2.935 1.324 1.236 13185
2.938 1.325 1.227 7283
2.934 1.323 1.215 6276
2.930 1.322 1.203 6691
2.940 1.326 1.196 8937
2.949 1.330 1.190 12637
2.959 1.335 1.183 11220
2.948 1.330 1.169 5891
2.964 1.337 1.164 4392
2.974 1.341 1.157 7580
2.977 1.343 1.148 8498
2.979 1.344 1.138 11118
2.982 1.345 1.129 14073
2.992 1.349 1.122 14584
2.994 1.351 1.113 15248
3.004 1.355 1.105 12115
3.006 1.356 1.096 8875
3.016 1.360 1.089 8523
3.025 1.364 1.081 6778
3.014 1.359 1.068 5322
3.016 1.360 1.058 8179
3.026 1.365 1.051 10722
3.035 1.369 1.043 8404
3.044 1.373 1.036 6448
3.054 1.377 1.028 11141
3.056 1.378 1.019 14463
3.065 1.383 1.011 15477
3.068 1.384 1.001 20738
3.077 1.388 0.994 25493
3.086 1.392 0.986 24256
3.095 1.396 0.978 18040
3.098 1.397 0.968 12752
3.093 1.395 0.957 7962
3.102 1.399 0.949 6921
3.111 1.403 0.941 7527
3.120 1.407 0.933 6472
3.136 1.415 0.927 6506
3.146 1.419 0.918 11043
3.148 1.420 0.909 18727
3.157 1.424 0.900 17329
3.166 1.428 0.892 11968
3.175 1.432 0.884 7729
3.198 1.442 0.879 4054
3.200 1.443 0.869 2974
3.188 1.438 0.855 7361
3.190 1.439 0.845 11442
3.199 1.443 0.837 9302
3.236 1.459 0.834 8681
3.245 1.463 0.826 8768
3.289 1.483 0.824 6438
3.333 1.503 0.823 6016
3.335 1.504 0.812 4965
3.323 1.499 0.799 5946
3.325 1.499 0.789 6690
3.340 1.507 0.781 4680
3.719 1.677 0.843 4423
3.721 1.678 0.831 10000
3.715 1.676 0.818 16379
3.717 1.677 0.806 14973
3.719 1.677 0.794 11000
3.728 1.681 0.784 8835
3.737 1.685 0.773 10997
3.738 1.686 0.761 13622
3.740 1.687 0.749 12504
3.734 1.684 0.737 8864
3.743 1.688 0.726 8566
3.752 1.692 0.715 9495
3.761 1.696 0.704 6310
3.762 1.697 0.692 3928
3.756 1.694 0.680 4715
3.772 1.701 0.670 5134
3.816 1.721 0.664 4107
3.839 1.732 0.655 4417
3.833 1.729 0.642 4052
3.828 1.726 0.628 2949
3.901 1.759 0.625 2419
3.880 1.750 0.610 2417
3.810 1.718 0.590 2378
5.419 2.444 0.765 3326
5.427 2.448 0.748 4316
5.422 2.445 0.730 5771
5.423 2.446 0.713 9213
5.425 2.447 0.696 12326
5.426 2.447 0.679 12749
5.428 2.448 0.661 12045
5.422 2.445 0.644 9285
5.423 2.446 0.626 5800
5.432 2.450 0.610 6045
5.433 2.450 0.593 6706
5.434 2.451 0.575 6273
5.435 2.451 0.558 5217
5.436 2.452 0.541 3595
5.430 2.449 0.523 3165
5.431 2.450 0.506 4651
5.439 2.453 0.489 6195
5.440 2.454 0.472 5062
5.448 2.457 0.455 3907
5.449 2.458 0.438 2614
5.479 2.471 0.422 1597
5.487 2.475 0.405 2061
5.480 2.472 0.387 2620
5.459 2.462 0.369 2781
5.452 2.459 0.351 2372
5.453 2.460 0.334 1824
5.627 2.538 0.322 1707
5.627 2.538 0.304 1603
5.613 2.532 0.286 1440
8.052 3.632 0.325 1843
8.060 3.635 0.299 2004
8.053 3.632 0.273 1670
8.053 3.632 0.248 1342
9.367 4.225 0.236 1096
9.742 4.394 0.208 940
9.743 4.394 0.177 1210
9.750 4.398 0.146 1307
9.750 4.398 0.115 1421
9.403 4.241 0.086 1228
9.381 4.231 0.056 1193
9.381 4.231 0.027 1340
9.186 4.143 -0.000 1127
9.193 4.146 -0.030 1130
9.863 4.449 -0.074 1103
9.870 4.452 -0.105 1157
9.876 4.455 -0.137 1014
10.013 4.516 -0.173 968
10.005 4.512 -0.204 1123
9.996 4.509 -0.236 1315
9.988 4.505 -0.268 1063
9.980 4.501 -0.299 864
9.871 4.452 -0.326 691
10.064 4.539 -0.367 915
10.063 4.539 -0.399 1031
10.061 4.538 -0.431 1147
10.059 4.537 -0.463 1111
10.058 4.536 -0.495 1075
10.049 4.532 -0.527 818
10.047 4.532 -0.559 578
10.060 4.537 -0.592 427
10.072 4.543 -0.625 376
10.070 4.542 -0.657 376
10.068 4.541 -0.689 279
1.524 0.681 1.313 9524
1.527 0.682 1.308 9524
1.525 0.681 1.298 13089
1.528 0.682 1.294 17077
1.531 0.684 1.289 19190
1.534 0.685 1.284 21303
1.537 0.686 1.280 18606
1.540 0.688 1.275 15909
1.543 0.689 1.270 15909
1.540 0.688 1.261 12721
1.537 0.686 1.251 9634
1.540 0.688 1.247 12162
1.549 0.692 1.246 14695
1.552 0.693 1.242 12886
1.555 0.694 1.237 11077
1.558 0.696 1.232 8525
1.561 0.697 1.227 5961
1.557 0.695 1.218 7692
1.560 0.697 1.213 9411
1.563 0.698 1.208 10334
1.566 0.699 1.203 11257
1.575 0.703 1.203 9317
1.596 0.713 1.211 7591
1.587 0.709 1.197 8370
1.590 0.710 1.192 9573
1.599 0.714 1.192 10127
1.601 0.715 1.187 10361
1.604 0.716 1.182 8213
1.613 0.720 1.181 6225
1.696 0.757 1.229 7557
1.705 0.761 1.228 10700
1.708 0.763 1.223 15684
1.711 0.764 1.217 19544
1.720 0.768 1.216 18970
1.723 0.769 1.211 18825
1.726 0.771 1.205 18247
1.729 0.772 1.200 17670
1.738 0.776 1.199 14918
1.741 0.777 1.193 12654
1.737 0.776 1.184 13212
1.746 0.780 1.182 15763
1.749 0.781 1.177 18463
1.758 0.785 1.175 22228
1.761 0.786 1.170 25843
1.757 0.785 1.161 25562
1.766 0.789 1.159 21518
1.775 0.793 1.157 18211
1.778 0.794 1.152 14121
1.781 0.795 1.146 9538
1.886 0.842 1.200 9599
1.895 0.846 1.197 7133
1.904 0.850 1.195 4567
1.907 0.852 1.189 4835
1.910 0.853 1.183 5475
1.925 0.860 1.185 7034
1.928 0.861 1.179 8983
1.931 0.862 1.173 10561
1.934 0.863 1.167 9451
1.943 0.868 1.164 7726
2.939 1.312 1.692 7275
2.943 1.314 1.682 8875
2.934 1.310 1.666 9321
2.905 1.297 1.640 8259
2.896 1.293 1.624 10667
2.900 1.295 1.615 10801
2.911 1.300 1.609 10276
2.915 1.301 1.600 7651
2.840 1.268 1.551 5964
2.889 1.290 1.565 8747
2.900 1.295 1.559 11159
2.904 1.297 1.550 10257
2.894 1.292 1.535 8647
2.878 1.285 1.516 8761
2.875 1.284 1.504 10949
2.879 1.285 1.495 9979
2.842 1.269 1.467 11587
2.846 1.271 1.458 13238
2.843 1.269 1.446 16714
2.833 1.265 1.430 20660
2.830 1.264 1.418 25551
2.840 1.268 1.413 27778
2.837 1.267 1.401 21087
2.833 1.265 1.389 19122
2.837 1.267 1.380 21470
2.840 1.268 1.371 19319
2.850 1.273 1.365 17840
2.853 1.274 1.356 22719
2.863 1.278 1.350 25043
2.880 1.286 1.347 22036
2.883 1.287 1.338 23303
2.886 1.289 1.329 26231
2.889 1.290 1.319 24073
2.892 1.292 1.310 24022
2.896 1.293 1.301 29757
2.899 1.294 1.292 32831
2.902 1.296 1.283 27088
2.905 1.297 1.274 19552
2.908 1.298 1.265 19519
2.918 1.303 1.258 23138
2.927 1.307 1.252 20150
2.937 1.311 1.245 14824
2.940 1.313 1.236 9176
2.943 1.314 1.227 6614
2.939 1.312 1.215 10162
2.942 1.314 1.206 11231
2.945 1.315 1.196 14872
2.954 1.319 1.190 19293
2.957 1.320 1.180 16761
2.953 1.319 1.169 10837
2.956 1.320 1.159 6129
2.979 1.330 1.157 6679
2.982 1.331 1.148 8347
2.984 1.333 1.138 11496
2.987 1.334 1.129 15127
2.997 1.338 1.122 14938
2.999 1.339 1.113 14039
3.002 1.340 1.103 10512
3.011 1.345 1.096 9243
3.021 1.349 1.089 9457
3.023 1.350 1.079 6024
2.991 1.336 1.059 5754
3.021 1.349 1.058 9077
3.031 1.353 1.051 12947
3.033 1.354 1.041 9176
3.050 1.362 1.036 3875
3.059 1.366 1.028 6741
3.047 1.361 1.014 12930
3.057 1.365 1.007 14921
3.066 1.369 0.999 19703
3.075 1.373 0.992 22833
3.084 1.377 0.984 19850
3.094 1.381 0.976 15911
3.103 1.386 0.968 13837
3.098 1.383 0.957 10062
3.100 1.384 0.947 7314
3.102 1.385 0.937 7284
3.119 1.393 0.931 8189
3.135 1.400 0.925 10224
3.144 1.404 0.917 13381
3.146 1.405 0.907 18304
3.155 1.409 0.899 16309
3.164 1.413 0.890 9777
3.173 1.417 0.882 5619
3.189 1.424 0.875 2958
3.170 1.415 0.860 2362
3.186 1.423 0.854 6084
3.195 1.427 0.845 10537
3.211 1.434 0.838 10102
3.234 1.444 0.833 8765
3.215 1.435 0.818 7889
3.238 1.446 0.812 5823
3.240 1.447 0.802 5469
3.327 1.485 0.810 4677
3.328 1.486 0.799 6841
3.337 1.490 0.790 8008
3.353 1.497 0.782 5315
3.405 1.520 0.781 4221
3.720 1.661 0.829 6750
3.722 1.662 0.818 11157
3.724 1.663 0.806 12914
3.725 1.663 0.794 11700
3.741 1.671 0.785 9435
3.743 1.671 0.773 10079
3.745 1.672 0.761 12141
3.746 1.673 0.749 11078
3.748 1.674 0.738 8647
3.757 1.677 0.727 10294
3.765 1.681 0.716 12721
3.767 1.682 0.704 10222
3.776 1.686 0.694 6041
3.770 1.683 0.681 4328
3.778 1.687 0.670 4404
3.830 1.710 0.665 4099
3.846 1.717 0.655 4939
3.840 1.715 0.642 4836
3.827 1.709 0.628 3988
3.821 1.706 0.615 2811
3.873 1.729 0.609 2812
3.881 1.733 0.597 2707
5.435 2.427 0.766 2882
5.437 2.428 0.748 3779
5.438 2.428 0.731 5172
5.440 2.429 0.714 8461
5.434 2.426 0.696 11727
5.435 2.427 0.679 12979
5.437 2.428 0.661 12812
5.431 2.425 0.644 10328
5.432 2.426 0.626 6221
5.441 2.429 0.610 6060
5.449 2.433 0.593 8125
5.443 2.431 0.575 8545
5.444 2.431 0.558 7814
5.445 2.432 0.541 5502
5.447 2.432 0.524 3922
5.448 2.432 0.506 4725
5.448 2.433 0.489 5901
5.457 2.437 0.472 5174
5.457 2.437 0.455 4098
5.458 2.437 0.438 2889
5.473 2.444 0.421 2020
5.481 2.448 0.404 2495
5.475 2.445 0.386 3222
5.468 2.442 0.369 3527
5.462 2.439 0.351 3007
5.469 2.442 0.334 2344
5.513 2.462 0.318 1979
5.492 2.452 0.300 2196
5.492 2.453 0.283 1585
8.066 3.602 0.325 1742
8.066 3.602 0.299 1874
8.067 3.602 0.273 1562
8.060 3.599 0.248 1255
9.383 4.190 0.236 1055
9.390 4.193 0.206 857
9.766 4.361 0.177 1078
9.766 4.361 0.146 1229
9.412 4.203 0.116 1612
9.412 4.203 0.086 1535
9.390 4.193 0.056 1302
9.202 4.109 0.029 1232
9.209 4.112 -0.000 1247
9.208 4.112 -0.030 1278
9.201 4.108 -0.059 1099
9.894 4.418 -0.105 1104
9.893 4.418 -0.137 944
9.423 4.207 -0.154 819
10.014 4.472 -0.204 918
10.006 4.468 -0.236 1088
10.005 4.468 -0.268 973
9.997 4.464 -0.299 878
9.887 4.415 -0.326 753
10.088 4.505 -0.367 829
10.087 4.504 -0.400 857
10.078 4.500 -0.431 904
10.076 4.499 -0.463 851
10.075 4.499 -0.495 798
10.066 4.495 -0.527 638
10.064 4.494 -0.559 491
10.084 4.503 -0.593 339
10.096 4.508 -0.626 303
10.094 4.507 -0.658 303
1.526 0.676 1.313 9786
1.529 0.678 1.308 9786
1.527 0.677 1.298 11947
1.530 0.678 1.294 14283
1.533 0.679 1.289 17142
1.536 0.681 1.284 20001
1.539 0.682 1.280 17957
1.536 0.681 1.270 16295
1.539 0.682 1.265 16295
1.536 0.681 1.256 13873
1.533 0.679 1.247 11727
1.542 0.683 1.247 13935
1.545 0.685 1.242 16252
1.548 0.686 1.237 14389
1.551 0.687 1.232 12527
1.554 0.689 1.228 9503
1.557 0.690 1.223 6510
1.559 0.691 1.218 8469
1.562 0.692 1.213 10398
1.565 0.694 1.208 10750
1.574 0.698 1.208 11106
1.577 0.699 1.203 8988
1.604 0.711 1.215 7827
1.589 0.704 1.197 8441
1.592 0.705 1.192 10129
1.594 0.707 1.187 10292
1.597 0.708 1.183 10084
1.606 0.712 1.182 8213
1.658 0.735 1.210 7716
1.661 0.736 1.205 8617
1.695 0.751 1.220 9816
1.704 0.755 1.219 13443
1.713 0.759 1.217 16711
1.716 0.761 1.212 15796
1.725 0.765 1.211 15258
1.728 0.766 1.205 15045
1.731 0.767 1.200 14831
1.734 0.768 1.195 13175
1.743 0.772 1.193 11526
1.746 0.774 1.188 11424
1.748 0.775 1.182 14725
1.751 0.776 1.177 18027
1.760 0.780 1.175 21849
1.763 0.781 1.170 25543
1.759 0.780 1.161 24955
1.769 0.784 1.159 20555
1.784 0.791 1.161 17109
1.780 0.789 1.152 12864
1.783 0.790 1.146 8463
1.882 0.834 1.196 8688
1.885 0.835 1.190 6416
1.874 0.831 1.177 4274
1.903 0.843 1.186 4600
1.912 0.847 1.183 5175
1.928 0.854 1.185 6419
1.931 0.856 1.179 8167
1.933 0.857 1.173 9525
1.936 0.858 1.167 8394
1.945 0.862 1.164 6757
2.949 1.307 1.695 6101
2.946 1.306 1.682 7435
2.944 1.305 1.670 7562
2.902 1.286 1.636 8250
2.900 1.285 1.624 11419
2.904 1.287 1.615 11398
2.921 1.294 1.612 11009
2.918 1.293 1.600 8525
2.909 1.289 1.584 5235
2.893 1.282 1.565 7556
2.903 1.287 1.559 9987
2.907 1.288 1.550 9522
2.904 1.287 1.538 7862
2.875 1.274 1.513 7992
2.879 1.276 1.504 11202
2.882 1.277 1.495 10683
2.846 1.261 1.467 12304
2.850 1.263 1.458 14673
2.853 1.264 1.449 17928
2.850 1.263 1.437 19659
2.840 1.259 1.422 22884
2.843 1.260 1.413 27092
2.840 1.259 1.401 22964
2.837 1.257 1.389 21866
2.847 1.262 1.383 23554
2.850 1.263 1.374 20839
2.853 1.265 1.365 16967
2.857 1.266 1.356 20026
2.867 1.270 1.350 22804
2.883 1.278 1.347 20172
2.887 1.279 1.338 21971
2.890 1.281 1.329 25153
2.893 1.282 1.319 23011
2.896 1.283 1.310 23249
2.899 1.285 1.301 28501
2.902 1.286 1.292 30414
2.905 1.288 1.283 25195
2.908 1.289 1.274 19615
2.911 1.290 1.265 20895
2.921 1.295 1.258 23630
2.931 1.299 1.252 18028
2.934 1.300 1.243 11460
2.937 1.302 1.233 8267
2.940 1.303 1.224 9153
2.943 1.304 1.215 14178
2.945 1.305 1.206 15847
2.948 1.307 1.196 20351
2.958 1.311 1.190 24917
2.961 1.312 1.180 21541
2.957 1.310 1.169 14488
2.959 1.312 1.159 7544
2.976 1.319 1.155 5462
2.979 1.320 1.145 7579
2.981 1.321 1.136 10035
2.984 1.322 1.127 13008
2.993 1.327 1.120 12362
3.003 1.331 1.113 10954
2.999 1.329 1.101 8681
3.015 1.336 1.096 8780
3.025 1.340 1.089 9498
3.006 1.332 1.073 7414
3.002 1.330 1.061 6662
3.018 1.338 1.056 8299
3.035 1.345 1.051 11350
3.037 1.346 1.041 7786
3.039 1.347 1.032 3661
3.063 1.357 1.028 5429
3.044 1.349 1.012 13181
3.053 1.353 1.005 16987
3.063 1.357 0.997 17925
3.065 1.358 0.988 18357
3.074 1.362 0.980 13627
3.090 1.370 0.974 12339
3.100 1.374 0.966 14366
3.109 1.378 0.959 10907
3.104 1.376 0.947 7243
3.099 1.374 0.935 7610
3.115 1.381 0.929 9575
3.132 1.388 0.923 12337
3.141 1.392 0.915 13468
3.150 1.396 0.907 15724
3.152 1.397 0.897 14072
3.154 1.398 0.887 9300
3.142 1.392 0.874 5863
3.151 1.396 0.865 4421
3.167 1.403 0.859 4726
3.190 1.414 0.854 5487
3.213 1.424 0.848 9101
3.215 1.425 0.838 9686
3.217 1.426 0.828 8059
3.212 1.423 0.817 6353
3.249 1.440 0.814 5318
3.251 1.441 0.804 6173
3.238 1.435 0.791 5829
3.340 1.480 0.800 7831
3.349 1.484 0.791 8681
3.357 1.488 0.782 5814
3.723 1.650 0.841 5573
3.732 1.654 0.831 6595
3.734 1.655 0.819 10155
3.728 1.652 0.806 15193
3.737 1.656 0.795 15932
3.739 1.657 0.784 12904
3.748 1.661 0.773 10411
3.749 1.662 0.761 9869
3.758 1.666 0.751 8267
3.760 1.666 0.739 7719
3.761 1.667 0.727 11652
3.770 1.671 0.716 15573
3.772 1.672 0.704 14067
3.773 1.672 0.692 8247
3.775 1.673 0.681 4304
3.783 1.677 0.670 3868
3.842 1.703 0.666 3654
3.851 1.707 0.655 4533
3.845 1.704 0.642 4621
3.832 1.698 0.628 4114
3.833 1.699 0.615 3238
3.870 1.715 0.608 3303
3.886 1.722 0.597 3056
3.988 1.767 0.597 2748
5.443 2.412 0.748 3304
5.445 2.413 0.731 4564
5.446 2.414 0.714 7342
5.441 2.411 0.696 10079
5.442 2.412 0.679 11693
5.444 2.413 0.661 11922
5.438 2.410 0.644 9938
5.439 2.411 0.626 6138
5.455 2.417 0.610 6088
5.456 2.418 0.593 9406
5.457 2.419 0.576 10763
5.458 2.419 0.559 10163
5.452 2.416 0.541 7791
5.453 2.417 0.524 6008
5.462 2.420 0.507 5451
5.462 2.421 0.489 5407
5.463 2.421 0.472 4779
5.464 2.422 0.455 3791
5.465 2.422 0.438 2931
5.473 2.426 0.421 2708
5.481 2.429 0.404 3443
5.474 2.426 0.386 4164
5.475 2.426 0.369 4372
5.476 2.427 0.351 3779
5.483 2.430 0.334 2993
5.520 2.446 0.318 2872
5.499 2.437 0.300 2856
5.507 2.440 0.283 2092
5.724 2.537 0.270 1559
8.076 3.579 0.299 1552
8.077 3.579 0.273 1291
8.070 3.576 0.248 1054
9.387 4.160 0.236 1039
9.387 4.160 0.206 896
9.786 4.337 0.177 1021
9.786 4.337 0.146 1210
9.424 4.176 0.116 1536
9.424 4.176 0.086 1445
9.778 4.333 0.053 1059
9.778 4.333 0.022 1171
9.213 4.083 -0.000 1063
9.205 4.080 -0.030 982
9.198 4.076 -0.059 1030
9.190 4.073 -0.088 1122
9.182 4.069 -0.117 1194
9.181 4.069 -0.146 1298
9.180 4.069 -0.175 1163
9.172 4.065 -0.204 1030
9.171 4.065 -0.233 903
9.893 4.385 -0.294 1029
9.885 4.381 -0.325 838
10.108 4.480 -0.368 652
10.106 4.479 -0.400 645
10.098 4.475 -0.432 645
10.089 4.471 -0.463 530
10.080 4.467 -0.495 456
10.078 4.467 -0.527 392
10.084 4.469 -0.559 330
10.103 4.478 -0.593 280
10.109 4.480 -0.626 279
10.107 4.479 -0.658 279
1.523 0.668 1.308 10795
1.526 0.669 1.303 10795
1.529 0.670 1.298 11240
1.532 0.672 1.294 11685
1.535 0.673 1.289 14981
1.539 0.674 1.284 18278
1.536 0.673 1.275 17423
1.533 0.672 1.266 17224
1.536 0.673 1.261 17224
1.533 0.672 1.252 15385
1.536 0.673 1.247 13749
1.545 0.677 1.247 15388
1.548 0.678 1.242 17249
1.551 0.680 1.237 15587
1.553 0.681 1.232 13926
1.556 0.682 1.228 10614
1.571 0.689 1.232 7627
1.568 0.687 1.222 9272
1.571 0.689 1.217 10965
1.574 0.690 1.213 10695
1.577 0.691 1.208 10470
1.604 0.703 1.220 8605
1.613 0.707 1.219 8172
1.616 0.708 1.214 8574
1.594 0.699 1.192 10159
1.597 0.700 1.187 10259
1.600 0.701 1.183 9954
1.615 0.708 1.186 8313
1.655 0.726 1.206 9191
1.664 0.729 1.205 10137
1.673 0.733 1.203 10953
1.701 0.746 1.215 12137
1.710 0.750 1.213 14700
1.713 0.751 1.208 13506
1.722 0.755 1.207 12336
1.731 0.759 1.205 11677
1.734 0.760 1.200 11257
1.737 0.761 1.195 11222
1.740 0.763 1.189 10164
1.749 0.767 1.188 9225
1.752 0.768 1.182 12590
1.754 0.769 1.177 15955
1.763 0.773 1.175 20013
1.766 0.774 1.170 24022
1.769 0.775 1.164 23512
1.772 0.777 1.159 18860
1.787 0.783 1.161 15772
1.790 0.785 1.155 11431
1.863 0.817 1.191 7527
1.872 0.821 1.189 8136
1.875 0.822 1.183 6423
1.878 0.823 1.177 4860
1.893 0.830 1.178 5368
1.909 0.837 1.180 5232
1.931 0.847 1.185 5409
1.934 0.848 1.179 6698
1.937 0.849 1.173 7889
1.940 0.850 1.167 6799
1.949 0.854 1.164 5081
2.954 1.295 1.695 5211
2.952 1.294 1.682 6363
2.956 1.296 1.673 6370
2.901 1.272 1.633 8639
2.905 1.273 1.624 11755
2.915 1.278 1.618 11535
2.926 1.283 1.612 11456
2.923 1.281 1.600 9112
2.921 1.280 1.587 5484
2.911 1.276 1.572 6302
2.909 1.275 1.559 8444
2.906 1.274 1.547 8196
2.903 1.272 1.535 6256
2.854 1.251 1.500 6919
2.877 1.261 1.500 10496
2.881 1.263 1.491 10312
2.851 1.250 1.467 11583
2.855 1.251 1.458 14242
2.858 1.253 1.449 17297
2.855 1.251 1.437 18110
2.852 1.250 1.425 19105
2.848 1.249 1.413 23438
2.845 1.247 1.401 21893
2.842 1.246 1.389 21806
2.845 1.247 1.380 22868
2.855 1.252 1.374 20605
2.858 1.253 1.365 16196
2.862 1.254 1.356 17628
2.872 1.259 1.350 19945
2.882 1.263 1.344 16983
2.892 1.268 1.338 18243
2.895 1.269 1.329 21158
2.898 1.270 1.319 19318
2.901 1.272 1.310 20608
2.904 1.273 1.301 25555
2.907 1.274 1.292 26161
2.910 1.276 1.283 21622
2.913 1.277 1.274 17681
2.917 1.278 1.265 19877
2.920 1.280 1.256 22489
2.929 1.284 1.249 16414
2.932 1.285 1.240 9711
2.942 1.290 1.233 8589
2.945 1.291 1.224 11311
2.948 1.292 1.215 16452
2.951 1.293 1.206 18626
2.954 1.295 1.196 22270
2.956 1.296 1.187 25969
2.966 1.300 1.180 22445
2.962 1.298 1.169 15139
2.958 1.297 1.157 8499
2.967 1.301 1.150 5410
2.977 1.305 1.143 7365
2.980 1.306 1.134 8055
2.989 1.310 1.127 9046
2.999 1.315 1.120 8211
3.001 1.316 1.110 7276
3.004 1.317 1.101 6913
3.020 1.324 1.096 7243
3.030 1.328 1.089 7939
3.019 1.323 1.075 8568
3.014 1.321 1.063 8719
3.024 1.325 1.056 9155
3.033 1.330 1.049 9364
3.042 1.334 1.041 4837
3.010 1.319 1.021 2566
3.082 1.351 1.032 5475
3.049 1.337 1.012 13446
3.059 1.341 1.005 19621
3.061 1.342 0.995 17800
3.063 1.343 0.986 14191
3.052 1.338 0.972 10240
3.082 1.351 0.970 10682
3.098 1.358 0.964 13316
3.114 1.365 0.959 9846
3.110 1.363 0.947 6455
3.105 1.361 0.935 7688
3.121 1.368 0.929 11154
3.130 1.372 0.921 13231
3.139 1.376 0.913 13111
3.148 1.380 0.905 13591
3.150 1.381 0.895 12034
3.152 1.382 0.885 9794
3.147 1.380 0.874 7470
3.156 1.384 0.865 6670
3.172 1.391 0.859 7512
3.196 1.401 0.854 5345
3.233 1.417 0.852 8080
3.228 1.415 0.840 8369
3.223 1.413 0.828 6471
3.274 1.435 0.829 4832
3.283 1.439 0.820 5130
3.335 1.462 0.820 6413
3.344 1.466 0.811 7663
3.353 1.470 0.802 8713
3.362 1.474 0.793 8768
3.356 1.471 0.781 6072
3.736 1.638 0.843 7266
3.738 1.639 0.831 9628
3.747 1.643 0.820 13815
3.742 1.640 0.807 19182
3.744 1.641 0.795 20444
3.745 1.642 0.784 17122
3.754 1.646 0.773 12865
3.756 1.646 0.761 9754
3.765 1.650 0.751 6899
3.774 1.654 0.740 7428
3.775 1.655 0.728 12629
3.777 1.656 0.716 17207
3.778 1.656 0.704 16568
3.773 1.654 0.691 9875
3.774 1.654 0.680 4944
3.783 1.658 0.669 4506
3.791 1.662 0.658 3515
3.857 1.691 0.655 3485
3.852 1.688 0.642 3588
3.846 1.686 0.628 3394
3.847 1.686 0.616 3198
3.863 1.693 0.606 3625
3.972 1.741 0.607 3732
3.988 1.748 0.596 3827
3.989 1.749 0.583 3078
5.455 2.391 0.731 3923
5.456 2.392 0.714 5998
5.450 2.389 0.696 7816
5.452 2.390 0.679 9284
5.453 2.391 0.661 9717
5.447 2.388 0.644 8372
5.449 2.389 0.626 5430
5.465 2.395 0.610 5756
5.466 2.396 0.593 9998
5.467 2.396 0.576 12167
5.468 2.397 0.559 11582
5.462 2.394 0.541 9299
5.463 2.395 0.524 7611
5.471 2.398 0.507 6122
5.479 2.402 0.490 4837
5.473 2.399 0.472 4058
5.481 2.403 0.455 3291
5.482 2.403 0.438 2895
5.483 2.403 0.421 3482
5.491 2.407 0.404 4531
5.484 2.404 0.386 5135
5.485 2.404 0.369 5162
5.493 2.408 0.352 4525
5.522 2.421 0.335 3858
5.530 2.424 0.318 3740
5.516 2.418 0.300 3365
5.516 2.418 0.283 2535
5.524 2.421 0.266 1722
5.532 2.425 0.248 1710
5.539 2.428 0.231 1374
8.700 3.814 0.256 1036
9.404 4.122 0.236 1012
9.397 4.119 0.206 941
9.810 4.300 0.178 928
9.803 4.297 0.146 1154
9.803 4.297 0.115 1389
9.803 4.297 0.084 1201
9.803 4.297 0.053 1210
9.795 4.294 0.022 1411
9.795 4.294 -0.009 1335
9.439 4.138 -0.034 1266
9.207 4.036 -0.058 1033
9.199 4.032 -0.087 1073
9.198 4.032 -0.117 1287
9.205 4.035 -0.146 1505
9.204 4.035 -0.175 1336
9.203 4.034 -0.204 1167
9.195 4.031 -0.233 936
10.041 4.402 -0.300 941
9.910 4.344 -0.325 838
9.901 4.340 -0.356 821
9.907 4.343 -0.388 626
10.116 4.434 -0.432 530
10.107 4.430 -0.463 432
9.772 4.284 -0.474 392
9.785 4.289 -0.506 301
10.123 4.438 -0.561 257
10.122 4.437 -0.593 298
10.127 4.439 -0.626 341
10.125 4.438 -0.658 341
10.115 4.434 -0.689 291
10.106 4.430 -0.721 250
1.525 0.663 1.308 11497
1.528 0.664 1.303 11497
1.531 0.666 1.298 10460
1.534 0.667 1.294 9423
1.538 0.668 1.289 12931
1.535 0.667 1.280 16530
1.532 0.666 1.270 17161
1.529 0.664 1.261 18633
1.532 0.666 1.256 18633
1.535 0.667 1.252 16885
1.538 0.668 1.247 15136
1.547 0.672 1.247 16268
1.550 0.673 1.242 17453
1.553 0.675 1.237 16153
1.556 0.676 1.232 14853
1.565 0.680 1.232 11649
1.574 0.684 1.232 9270
1.570 0.682 1.222 10201
1.573 0.684 1.217 11240
1.576 0.685 1.213 10352
1.579 0.686 1.208 9493
1.619 0.703 1.228 8836
1.628 0.707 1.228 8582
1.631 0.709 1.223 8630
1.597 0.694 1.192 9671
1.599 0.695 1.187 10039
1.608 0.699 1.187 10027
1.624 0.706 1.190 8743
1.657 0.720 1.206 10693
1.666 0.724 1.205 11513
1.676 0.728 1.203 12201
1.685 0.732 1.202 12484
1.706 0.741 1.209 13451
1.703 0.740 1.200 12811
1.706 0.741 1.195 12194
1.721 0.748 1.197 9729
1.730 0.752 1.196 7825
1.733 0.753 1.191 9601
1.729 0.752 1.181 10189
1.726 0.750 1.172 9455
1.741 0.757 1.175 10580
1.750 0.761 1.173 12638
1.766 0.767 1.175 16788
1.769 0.769 1.170 21459
1.771 0.770 1.164 21368
1.781 0.774 1.163 16956
1.796 0.781 1.165 14409
1.792 0.779 1.155 10191
1.795 0.780 1.150 7013
1.804 0.784 1.148 7801
1.826 0.794 1.153 6661
1.880 0.817 1.177 5048
1.896 0.824 1.178 5938
1.912 0.831 1.180 5774
1.928 0.838 1.181 4442
1.937 0.842 1.179 4315
1.933 0.840 1.169 5321
1.923 0.836 1.156 4981
1.913 0.831 1.143 4072
2.000 0.869 1.182 4827
2.956 1.284 1.682 5388
2.894 1.258 1.639 6108
2.905 1.262 1.633 8340
2.909 1.264 1.624 11134
2.920 1.269 1.618 11061
2.930 1.273 1.612 11384
2.927 1.272 1.600 9397
2.925 1.271 1.587 5774
2.922 1.270 1.575 5606
2.913 1.266 1.559 6811
2.863 1.244 1.524 7907
2.861 1.243 1.512 6396
2.858 1.242 1.500 6723
2.874 1.249 1.497 9663
2.885 1.254 1.491 9127
2.855 1.241 1.467 9666
2.859 1.242 1.458 12288
2.862 1.244 1.449 15029
2.866 1.245 1.440 16705
2.869 1.247 1.431 16485
2.859 1.242 1.416 17720
2.849 1.238 1.401 18177
2.846 1.237 1.389 19714
2.849 1.238 1.380 20565
2.859 1.243 1.374 18663
2.862 1.244 1.365 14883
2.859 1.242 1.353 15514
2.869 1.247 1.347 16936
2.879 1.251 1.341 13100
2.889 1.255 1.335 13227
2.899 1.260 1.329 15981
2.902 1.261 1.319 14259
2.905 1.263 1.310 16171
2.908 1.264 1.301 21267
2.911 1.265 1.292 21443
2.914 1.267 1.283 17833
2.918 1.268 1.274 14881
2.921 1.269 1.265 17297
2.924 1.271 1.256 20637
2.927 1.272 1.247 15661
2.923 1.270 1.235 9910
2.939 1.277 1.231 8287
2.949 1.282 1.224 10670
2.952 1.283 1.215 16396
2.948 1.281 1.203 20008
2.958 1.285 1.196 20254
2.960 1.287 1.187 21195
2.970 1.291 1.180 19217
2.966 1.289 1.169 13627
2.962 1.287 1.157 9868
2.965 1.288 1.148 8028
2.974 1.293 1.141 8610
2.977 1.294 1.131 6904
2.980 1.295 1.122 5256
2.982 1.296 1.113 4958
2.999 1.303 1.108 5675
3.008 1.307 1.101 6740
3.018 1.311 1.094 5589
3.034 1.319 1.089 5777
3.023 1.314 1.075 9469
3.025 1.315 1.065 11931
3.028 1.316 1.056 12561
3.030 1.317 1.046 11319
3.054 1.327 1.043 6904
3.042 1.322 1.029 5231
3.051 1.326 1.022 9376
3.054 1.327 1.012 15817
3.063 1.331 1.005 20635
3.065 1.332 0.995 18676
3.061 1.330 0.984 10146
3.070 1.334 0.976 6122
3.093 1.344 0.972 9288
3.103 1.348 0.964 9848
3.112 1.352 0.957 7606
3.107 1.350 0.945 5247
3.116 1.354 0.937 6813
3.125 1.358 0.929 12048
3.127 1.359 0.919 12935
3.137 1.363 0.911 12920
3.146 1.367 0.903 14242
3.148 1.368 0.893 11807
3.150 1.369 0.884 9572
3.152 1.370 0.874 8502
3.168 1.377 0.867 8808
3.184 1.384 0.860 9388
3.207 1.394 0.855 6993
3.238 1.407 0.852 7292
3.225 1.402 0.838 6715
3.227 1.402 0.828 5519
3.279 1.425 0.829 4682
3.338 1.450 0.830 6121
3.347 1.454 0.821 8950
3.348 1.455 0.811 10090
3.365 1.462 0.803 9391
3.373 1.466 0.794 8745
3.368 1.464 0.782 6549
3.742 1.626 0.843 7876
3.744 1.627 0.831 11675
3.753 1.631 0.820 16575
3.747 1.628 0.807 21193
3.749 1.629 0.795 22647
3.751 1.630 0.784 19634
3.752 1.631 0.772 15249
3.761 1.635 0.761 11375
3.763 1.635 0.749 8257
3.772 1.639 0.739 8355
3.780 1.643 0.728 12871
3.782 1.644 0.716 17426
3.776 1.641 0.703 17324
3.778 1.642 0.691 10220
3.779 1.642 0.680 5597
3.795 1.649 0.670 5841
3.797 1.650 0.658 4279
3.834 1.666 0.651 2502
3.936 1.711 0.652 2610
3.959 1.721 0.642 3296
3.975 1.727 0.632 3666
3.969 1.725 0.618 3961
3.978 1.729 0.607 4504
3.986 1.732 0.595 4792
3.987 1.733 0.583 3603
5.462 2.374 0.731 3222
5.464 2.374 0.714 4619
5.465 2.375 0.697 5446
5.459 2.373 0.679 6327
5.461 2.373 0.661 6771
5.455 2.371 0.644 6164
5.456 2.371 0.626 4291
5.487 2.384 0.612 5279
5.481 2.382 0.594 10209
5.482 2.382 0.576 12947
5.476 2.380 0.559 12077
5.477 2.380 0.541 10007
5.478 2.381 0.524 8612
5.486 2.384 0.507 6733
5.487 2.385 0.490 4354
5.488 2.385 0.473 3261
5.489 2.385 0.455 2908
5.490 2.386 0.438 2842
5.490 2.386 0.421 4035
5.498 2.389 0.404 5399
5.492 2.387 0.386 5869
5.492 2.387 0.369 5790
5.500 2.390 0.352 5262
5.530 2.403 0.335 4929
5.530 2.403 0.318 4491
5.531 2.404 0.300 3747
5.531 2.404 0.283 2920
5.532 2.404 0.266 2094
5.539 2.407 0.248 2067
5.547 2.410 0.231 1608
8.705 3.783 0.256 1165
6.034 2.622 0.201 1037
6.244 2.714 0.183 1023
6.244 2.714 0.164 1211
6.244 2.714 0.144 1265
9.207 4.001 0.117 1331
9.221 4.007 0.088 1650
9.221 4.007 0.058 1713
9.221 4.007 0.029 1393
9.808 4.263 -0.009 1199
9.939 4.319 -0.042 1195
9.945 4.322 -0.074 996
9.967 4.331 -0.106 831
9.930 4.315 -0.137 868
9.907 4.305 -0.167 1070
9.906 4.305 -0.199 887
9.876 4.292 -0.229 818
10.057 4.370 -0.268 743
10.055 4.370 -0.300 798
9.931 4.316 -0.326 687
9.676 4.205 -0.344 639
9.921 4.311 -0.388 586
9.920 4.311 -0.420 545
9.657 4.197 -0.435 422
9.641 4.190 -0.465 369
10.110 4.394 -0.527 324
10.116 4.396 -0.559 313
10.121 4.398 -0.592 355
10.126 4.401 -0.625 407
10.124 4.400 -0.657 407
10.115 4.396 -0.688 315
1.527 0.658 1.308 11429
1.530 0.659 1.303 11429
1.534 0.660 1.298 9508
1.537 0.662 1.294 7587
1.534 0.661 1.284 11193
1.537 0.662 1.280 14863
1.534 0.661 1.270 16940
1.531 0.659 1.261 19675
1.534 0.661 1.256 19675
1.537 0.662 1.252 17697
1.546 0.666 1.251 15727
1.549 0.667 1.247 15980
1.552 0.668 1.242 16233
1.555 0.670 1.237 15450
1.558 0.671 1.232 14667
1.567 0.675 1.232 12314
1.576 0.679 1.232 10995
1.573 0.677 1.222 11126
1.576 0.679 1.217 11318
1.578 0.680 1.213 9844
1.581 0.681 1.208 8396
1.627 0.701 1.233 9143
1.636 0.705 1.232 8800
1.651 0.711 1.235 9034
1.599 0.689 1.192 8564
1.608 0.692 1.192 9461
1.611 0.694 1.187 10175
1.644 0.708 1.202 9761
1.660 0.715 1.206 11907
1.669 0.719 1.205 12411
1.678 0.723 1.203 12919
1.681 0.724 1.198 13294
1.690 0.728 1.197 13865
1.699 0.732 1.196 13970
1.702 0.733 1.191 14247
1.711 0.737 1.189 10429
1.720 0.741 1.188 7006
1.729 0.745 1.187 9613
1.726 0.743 1.177 12114
1.716 0.739 1.164 12455
1.731 0.746 1.167 10236
1.747 0.752 1.169 9542
1.762 0.759 1.171 13195
1.771 0.763 1.170 18251
1.774 0.764 1.164 18778
1.783 0.768 1.163 14924
1.805 0.777 1.168 13127
1.827 0.787 1.174 9477
1.830 0.788 1.168 7188
1.813 0.781 1.152 8459
1.829 0.788 1.153 7497
1.883 0.811 1.177 5132
1.899 0.818 1.178 6413
1.908 0.822 1.176 6661
1.885 0.812 1.156 4295
1.777 0.765 1.089 3657
1.773 0.764 1.080 4012
1.913 0.824 1.149 3949
1.772 0.763 1.066 4744
1.774 0.764 1.060 5861
1.875 0.807 1.107 5058
2.899 1.248 1.639 5480
2.909 1.253 1.633 7359
2.913 1.255 1.624 9637
2.924 1.259 1.618 9895
2.934 1.264 1.612 10667
2.938 1.265 1.603 9248
2.843 1.224 1.544 6095
2.933 1.263 1.578 5316
2.851 1.228 1.526 7074
2.861 1.232 1.521 8956
2.871 1.237 1.515 7374
2.868 1.235 1.503 7149
2.879 1.240 1.497 8957
2.889 1.244 1.491 7482
2.859 1.231 1.467 7558
2.856 1.230 1.454 9945
2.866 1.234 1.449 12328
2.876 1.239 1.443 16136
2.880 1.240 1.434 17402
2.877 1.239 1.422 14005
2.853 1.229 1.401 13887
2.850 1.227 1.389 17037
2.853 1.229 1.380 17928
2.863 1.233 1.374 15608
2.860 1.232 1.362 12802
2.863 1.233 1.353 13869
2.873 1.237 1.347 15345
2.883 1.242 1.341 11628
2.886 1.243 1.332 10065
2.896 1.247 1.326 11895
2.899 1.249 1.317 9830
2.909 1.253 1.310 10615
2.912 1.254 1.301 15707
2.909 1.253 1.289 17058
2.919 1.257 1.283 14721
2.922 1.258 1.274 11534
2.918 1.257 1.262 13367
2.928 1.261 1.256 17323
2.924 1.259 1.244 14996
2.920 1.258 1.232 11391
2.930 1.262 1.226 7502
2.953 1.272 1.224 7385
2.949 1.270 1.212 14800
2.952 1.271 1.203 21307
2.955 1.273 1.194 16408
2.965 1.277 1.187 11615
2.967 1.278 1.178 12072
2.963 1.276 1.166 10238
2.959 1.274 1.155 10429
2.969 1.279 1.148 11123
2.978 1.283 1.141 11191
2.981 1.284 1.131 7979
2.977 1.282 1.120 4022
2.993 1.289 1.115 4393
3.003 1.293 1.108 7701
3.005 1.294 1.099 8583
3.015 1.299 1.091 5805
3.025 1.303 1.084 5096
3.027 1.304 1.075 10175
3.030 1.305 1.065 13740
3.032 1.306 1.056 14686
3.034 1.307 1.046 13186
3.051 1.314 1.041 9441
3.053 1.315 1.032 9933
3.056 1.316 1.022 14853
3.058 1.317 1.012 16796
3.067 1.321 1.005 19754
3.070 1.322 0.995 18979
3.065 1.320 0.984 8053
3.095 1.333 0.982 3372
3.098 1.334 0.972 5707
3.100 1.335 0.963 6477
3.102 1.336 0.953 7118
3.104 1.337 0.943 6402
3.113 1.341 0.935 6597
3.123 1.345 0.927 11070
3.132 1.349 0.919 11278
3.141 1.353 0.911 12511
3.143 1.354 0.902 16111
3.145 1.355 0.892 12156
3.140 1.352 0.880 7846
3.149 1.356 0.872 7948
3.172 1.366 0.867 9579
3.188 1.373 0.860 9048
3.212 1.383 0.855 8229
3.214 1.384 0.845 7613
3.216 1.385 0.835 7366
3.217 1.386 0.825 6672
3.241 1.396 0.820 5420
3.342 1.440 0.830 7512
3.351 1.443 0.821 11479
3.353 1.444 0.811 12446
3.362 1.448 0.802 9482
3.378 1.455 0.794 8181
3.380 1.456 0.784 6738
3.747 1.614 0.843 7131
3.749 1.615 0.831 11600
3.758 1.618 0.820 16580
3.752 1.616 0.807 20285
3.754 1.617 0.795 21788
3.756 1.618 0.784 19140
3.765 1.622 0.773 15317
3.767 1.622 0.761 12422
3.761 1.620 0.748 10534
3.763 1.621 0.737 9616
3.786 1.631 0.728 12245
3.780 1.628 0.715 16316
3.782 1.629 0.703 15900
3.783 1.629 0.691 9134
3.785 1.630 0.680 5521
3.801 1.637 0.670 6683
3.809 1.641 0.659 5226
3.818 1.644 0.648 3215
3.942 1.698 0.652 3260
3.958 1.705 0.641 3627
3.981 1.714 0.632 3597
3.967 1.709 0.617 3947
3.983 1.716 0.607 4790
3.992 1.719 0.595 5415
3.986 1.717 0.582 4163
5.137 2.213 0.695 3236
5.471 2.357 0.714 3429
5.473 2.357 0.697 3562
5.474 2.358 0.679 3565
5.469 2.355 0.661 3821
5.470 2.356 0.644 3991
5.486 2.363 0.628 3269
5.502 2.369 0.612 5377
5.496 2.367 0.594 10366
5.497 2.367 0.577 13208
5.491 2.365 0.559 11725
5.485 2.362 0.541 9748
5.486 2.363 0.524 8846
5.494 2.366 0.507 7035
5.502 2.370 0.490 3856
5.503 2.370 0.473 2538
5.504 2.370 0.456 2733
5.497 2.368 0.438 2709
5.505 2.371 0.421 4240
5.506 2.371 0.404 5839
5.500 2.369 0.386 6228
5.500 2.369 0.369 6119
5.515 2.375 0.352 5736
5.538 2.385 0.335 5590
5.538 2.385 0.318 4857
5.539 2.385 0.300 3853
5.539 2.386 0.283 3115
5.539 2.386 0.266 2377
5.547 2.389 0.248 2331
5.555 2.392 0.231 1750
5.562 2.396 0.213 1177
6.260 2.696 0.203 986
6.260 2.696 0.183 1496
6.253 2.693 0.164 1846
6.253 2.693 0.144 2007
6.253 2.693 0.124 1818
9.234 3.977 0.088 2066
9.234 3.977 0.058 2424
9.227 3.974 0.029 2204
9.226 3.974 0.000 1501
9.953 4.287 -0.042 1488
9.945 4.283 -0.074 1254
9.944 4.283 -0.105 1021
9.915 4.270 -0.136 1227
9.921 4.273 -0.167 1460
9.913 4.269 -0.199 1171
9.897 4.263 -0.229 931
9.918 4.272 -0.262 819
9.932 4.277 -0.294 794
9.938 4.280 -0.325 705
9.936 4.280 -0.357 621
9.688 4.173 -0.375 630
9.687 4.172 -0.406 661
9.874 4.253 -0.448 476
9.872 4.252 -0.479 357
10.110 4.354 -0.526 298
10.101 4.350 -0.557 257
1.530 0.652 1.308 10702
1.533 0.653 1.303 10702
1.536 0.655 1.298 8633
1.533 0.654 1.289 6626
1.536 0.655 1.284 10129
1.533 0.654 1.275 13910
1.530 0.652 1.266 16770
1.534 0.654 1.261 20014
1.537 0.655 1.256 20014
1.540 0.656 1.252 17814
1.543 0.657 1.247 15615
1.551 0.661 1.247 14426
1.561 0.665 1.246 13560
1.557 0.664 1.237 13304
1.560 0.665 1.232 13205
1.569 0.669 1.232 12363
1.578 0.673 1.232 12258
1.575 0.671 1.222 11972
1.578 0.673 1.217 11645
1.581 0.674 1.213 9728
1.584 0.675 1.208 7861
1.630 0.695 1.233 9078
1.645 0.701 1.236 8637
1.654 0.705 1.235 8750
1.657 0.706 1.230 7807
1.610 0.686 1.192 8745
1.613 0.688 1.187 10353
1.647 0.702 1.202 10847
1.656 0.706 1.201 12768
1.671 0.712 1.205 12616
1.681 0.716 1.203 12862
1.683 0.718 1.198 13685
1.693 0.721 1.197 14520
1.695 0.723 1.192 15309
1.704 0.727 1.191 16334
1.707 0.728 1.185 12654
1.704 0.726 1.176 9132
1.726 0.736 1.183 11469
1.722 0.734 1.174 14841
1.718 0.732 1.164 15825
1.721 0.734 1.159 12277
1.730 0.738 1.158 8755
1.758 0.750 1.168 10604
1.774 0.756 1.170 14690
1.777 0.757 1.164 15873
1.792 0.764 1.166 12910
1.814 0.773 1.172 11647
1.830 0.780 1.174 8545
1.794 0.765 1.146 7372
1.816 0.774 1.152 9305
1.825 0.778 1.150 8242
1.886 0.804 1.177 5108
1.908 0.813 1.182 6671
1.905 0.812 1.173 7442
1.888 0.805 1.156 6227
1.884 0.803 1.146 5042
1.783 0.760 1.084 4464
1.779 0.758 1.075 5360
1.775 0.756 1.066 6705
1.777 0.758 1.060 7692
1.780 0.759 1.055 6354
2.903 1.237 1.639 4322
2.914 1.242 1.633 5779
2.918 1.244 1.624 7464
2.928 1.248 1.618 8201
2.939 1.253 1.612 9379
2.824 1.204 1.543 9417
2.841 1.211 1.541 7747
2.845 1.213 1.532 5813
2.842 1.211 1.520 7589
2.806 1.196 1.492 9680
2.803 1.195 1.480 8845
2.886 1.230 1.509 7961
2.883 1.229 1.497 8078
2.893 1.233 1.491 6208
2.850 1.215 1.460 6860
2.861 1.219 1.454 8887
2.871 1.224 1.449 10021
2.874 1.225 1.440 15355
2.878 1.227 1.431 19588
2.868 1.222 1.416 16368
2.858 1.218 1.401 14097
2.854 1.217 1.389 15394
2.858 1.218 1.380 15835
2.861 1.220 1.371 12660
2.864 1.221 1.362 11238
2.868 1.222 1.353 13436
2.878 1.227 1.347 15774
2.881 1.228 1.338 13918
2.877 1.226 1.326 10640
2.887 1.231 1.320 10012
2.897 1.235 1.314 7980
2.907 1.239 1.308 6847
2.910 1.241 1.299 11438
2.913 1.242 1.289 15453
2.916 1.243 1.280 14204
2.920 1.244 1.271 9219
2.916 1.243 1.259 9123
2.926 1.247 1.253 13087
2.929 1.248 1.244 13358
2.925 1.247 1.232 13063
2.928 1.248 1.223 8875
2.937 1.252 1.216 5665
2.947 1.256 1.210 13317
2.950 1.257 1.201 22740
2.953 1.259 1.191 17714
2.963 1.263 1.185 8058
2.965 1.264 1.175 6796
2.961 1.262 1.164 7163
2.971 1.266 1.157 9792
2.974 1.267 1.148 13024
2.976 1.269 1.138 13405
2.979 1.270 1.129 9903
2.989 1.274 1.122 4837
3.005 1.281 1.117 4964
3.008 1.282 1.108 9279
3.010 1.283 1.099 10121
3.006 1.281 1.087 6276
3.008 1.282 1.078 4858
3.032 1.292 1.075 8983
3.034 1.293 1.065 11129
3.030 1.291 1.054 12018
3.039 1.296 1.046 11278
3.056 1.303 1.041 8388
3.051 1.301 1.029 10372
3.061 1.305 1.022 15491
3.063 1.306 1.012 15520
3.072 1.310 1.005 17772
3.068 1.308 0.993 17577
3.077 1.312 0.986 7480
3.086 1.316 0.978 2839
3.081 1.313 0.966 3780
3.098 1.320 0.961 6263
3.100 1.321 0.951 9434
3.102 1.322 0.941 9200
3.111 1.326 0.933 7982
3.128 1.333 0.927 9093
3.130 1.334 0.918 8622
3.139 1.338 0.910 11798
3.141 1.339 0.900 17045
3.143 1.340 0.890 11989
3.131 1.334 0.877 6095
3.161 1.347 0.874 6616
3.177 1.354 0.867 8532
3.194 1.361 0.860 6383
3.210 1.368 0.854 7564
3.205 1.366 0.842 8969
3.214 1.370 0.834 9187
3.223 1.374 0.825 8475
3.239 1.380 0.818 6618
3.355 1.430 0.832 8099
3.357 1.431 0.821 13222
3.359 1.432 0.811 14019
3.368 1.435 0.802 9052
3.376 1.439 0.793 6744
3.400 1.449 0.786 6329
3.753 1.600 0.843 5344
3.755 1.601 0.831 9982
3.764 1.604 0.820 14823
3.759 1.602 0.807 17684
3.760 1.603 0.795 18854
3.762 1.604 0.784 16131
3.771 1.607 0.773 12874
3.773 1.608 0.761 11925
3.767 1.606 0.748 12266
3.769 1.606 0.737 10654
3.785 1.613 0.727 10905
3.786 1.614 0.715 13943
3.788 1.615 0.703 12967
