1.760 2.471 1.688 11310
1.754 2.463 1.672 13165
1.769 2.484 1.675 16419
1.775 2.494 1.669 16364
1.778 2.497 1.661 12201
1.777 2.495 1.648 9188
1.775 2.493 1.636 7248
1.782 2.502 1.631 7933
1.780 2.500 1.618 8073
1.791 2.515 1.617 7965
1.802 2.530 1.615 6783
1.812 2.545 1.612 5043
2.001 2.811 1.757 5453
2.012 2.826 1.754 7065
2.019 2.836 1.747 7710
2.026 2.846 1.740 7809
2.016 2.832 1.720 7733
2.019 2.836 1.710 9258
2.030 2.851 1.707 10649
2.037 2.861 1.700 10515
2.039 2.864 1.690 7617
2.101 2.951 1.725 5551
2.112 2.966 1.721 5350
2.127 2.988 1.720 6313
2.138 3.003 1.716 8251
2.141 3.007 1.705 8122
2.144 3.011 1.694 6394
2.142 3.008 1.681 4995
2.145 3.012 1.670 3279
2.194 3.081 1.693 3936
2.205 3.097 1.688 4768
2.275 3.196 1.725 5977
2.278 3.200 1.714 8234
2.277 3.197 1.700 9828
2.279 3.201 1.688 12278
2.286 3.211 1.680 12212
2.289 3.214 1.668 8904
2.300 3.230 1.663 9495
2.307 3.240 1.654 11043
2.309 3.243 1.643 11335
2.312 3.247 1.631 14261
2.319 3.256 1.623 14031
2.321 3.260 1.611 11258
2.319 3.257 1.597 9854
2.322 3.261 1.585 6250
2.475 3.476 1.668 6910
2.482 3.486 1.659 8738
2.485 3.490 1.646 6530
2.578 3.621 1.689 5659
2.555 3.588 1.661 5232
2.605 3.659 1.677 3968
2.603 3.656 1.661 5748
2.671 3.752 1.686 6514
2.678 3.761 1.676 5616
2.715 3.814 1.682 4865
2.714 3.811 1.666 7158
2.721 3.821 1.655 9808
2.719 3.819 1.639 13117
2.717 3.816 1.623 13588
2.724 3.826 1.612 10286
2.726 3.829 1.599 8072
2.869 4.030 1.660 9086
2.872 4.033 1.646 12004
2.874 4.037 1.632 11011
2.881 4.047 1.620 9652
2.884 4.050 1.605 8155
2.886 4.054 1.591 6434
2.893 4.063 1.579 4479
3.059 4.296 1.646 3652
3.057 4.293 1.628 4818
3.064 4.303 1.615 4136
3.084 4.331 1.608 3297
3.308 4.646 1.698 2411
3.341 4.693 1.696 2920
3.357 4.715 1.686 3536
3.364 4.725 1.671 3082
3.349 4.704 1.646 3777
3.352 4.707 1.630 3682
3.367 4.730 1.619 3032
3.365 4.727 1.600 3456
3.368 4.730 1.583 2765
3.616 5.078 1.671 3886
3.605 5.063 1.648 3774
3.607 5.066 1.630 3339
3.610 5.070 1.612 2867
3.612 5.073 1.594 2474
3.776 5.303 1.640 2620
3.980 5.589 1.701 2824
3.982 5.593 1.681 3342
3.989 5.603 1.663 2886
4.028 5.657 1.657 2223
4.138 5.812 1.677 2001
4.159 5.841 1.663 2179
4.170 5.857 1.645 1767
4.357 6.119 1.690 2670
4.396 6.173 1.681 2965
4.533 6.367 1.706 3433
4.536 6.370 1.684 3595
4.552 6.393 1.666 5042
4.554 6.397 1.643 6639
4.557 6.400 1.620 5225
4.555 6.397 1.596 4692
4.562 6.407 1.574 6483
4.569 6.417 1.553 6254
4.576 6.427 1.532 4177
4.578 6.430 1.509 2597
5.332 7.488 1.708 1741
5.334 7.492 1.682 2370
5.337 7.496 1.655 2535
5.335 7.493 1.627 1893
5.795 8.139 1.726 2002
5.803 8.150 1.698 2464
5.805 8.153 1.669 2719
5.803 8.150 1.639 2131
5.797 8.141 1.608 1470
5.795 8.138 1.578 1223
5.938 8.340 1.583 1497
5.931 8.330 1.551 1348
5.920 8.314 1.518 1042
1.462 2.053 0.467 1966
1.462 2.053 0.460 2857
1.463 2.054 0.452 3092
1.463 2.055 0.445 2564
1.464 2.056 0.438 1593
7.114 9.992 1.580 1281
7.513 10.552 1.623 968
7.717 10.838 1.625 1329
1.621 2.276 0.438 1540
1.621 2.277 0.430 2361
1.622 2.278 0.422 2601
1.622 2.278 0.414 2301
1.623 2.279 0.406 2075
0.960 1.349 0.291 1842
0.961 1.349 0.286 1784
0.961 1.349 0.281 1302
0.956 1.343 0.276 995
0.957 1.344 0.271 811
0.957 1.344 0.267 618
0.962 1.351 0.262 521
0.966 1.357 0.258 340
0.827 1.161 0.164 259
0.822 1.154 0.160 279
0.827 1.161 0.156 318
0.827 1.161 0.152 344
0.827 1.161 0.148 333
1.263 1.774 0.147 403
1.258 1.767 0.141 476
1.249 1.754 0.135 575
1.254 1.761 0.129 723
1.258 1.767 0.122 1351
1.258 1.767 0.116 1819
1.258 1.767 0.110 1765
1.258 1.767 0.104 1711
1.258 1.767 0.098 1267
1.253 1.760 0.092 832
1.258 1.767 0.085 947
1.258 1.767 0.079 1008
1.253 1.760 0.073 883
1.253 1.760 0.067 541
0.909 1.276 0.083 547
0.909 1.276 0.079 963
0.904 1.269 0.075 1387
0.908 1.276 0.070 1893
0.908 1.276 0.065 2407
0.908 1.275 0.061 2903
0.908 1.275 0.057 3400
0.908 1.275 0.052 3606
0.908 1.275 0.048 3813
0.908 1.275 0.043 3682
0.907 1.274 0.039 3551
0.907 1.274 0.035 3235
0.907 1.274 0.030 2943
0.907 1.274 0.026 2656
0.907 1.273 0.021 2344
0.906 1.273 0.017 2007
0.911 1.279 0.012 1687
0.906 1.272 0.008 1260
0.906 1.272 0.004 837
0.906 1.272 -0.001 826
0.905 1.271 -0.005 519
1.372 1.906 1.806 3856
1.375 1.910 1.799 7712
1.381 1.919 1.797 7724
1.384 1.923 1.790 6675
1.402 1.948 1.802 5708
1.386 1.925 1.772 6348
1.389 1.929 1.765 7167
1.391 1.933 1.759 7167
1.394 1.937 1.752 8847
1.401 1.946 1.750 10672
1.404 1.950 1.743 9475
1.402 1.948 1.731 8410
1.424 1.979 1.747 9654
1.431 1.988 1.744 11868
1.434 1.992 1.737 13659
1.436 1.995 1.730 15685
1.439 1.999 1.723 15826
1.442 2.003 1.716 12950
1.452 2.017 1.718 10536
1.501 2.086 1.762 7508
1.504 2.090 1.755 5861
1.495 2.077 1.735 5646
1.490 2.070 1.719 6404
1.501 2.085 1.720 6090
1.558 2.165 1.771 6726
1.569 2.180 1.772 5284
1.580 2.194 1.773 4419
1.606 2.231 1.790 5505
1.613 2.241 1.786 7453
1.612 2.239 1.774 7539
1.607 2.232 1.758 8257
1.617 2.247 1.758 7278
1.624 2.256 1.754 7038
1.631 2.265 1.750 6013
1.633 2.269 1.742 5042
1.636 2.273 1.734 3813
1.687 2.343 1.774 4178
1.642 2.280 1.718 5155
1.648 2.290 1.714 5860
1.655 2.299 1.710 6949
1.702 2.364 1.744 6163
1.709 2.374 1.740 7841
1.711 2.378 1.732 10048
1.722 2.393 1.731 11844
1.729 2.402 1.726 12111
1.736 2.411 1.721 9709
1.755 2.438 1.728 7585
1.745 2.425 1.708 8202
1.748 2.428 1.700 6567
1.722 2.392 1.665 5262
1.778 2.470 1.704 5840
1.789 2.485 1.703 10381
1.787 2.483 1.691 12529
1.790 2.487 1.682 18074
1.793 2.490 1.673 19660
1.791 2.488 1.661 16005
1.794 2.492 1.652 11190
1.792 2.489 1.639 8429
1.795 2.493 1.631 10115
1.797 2.497 1.622 10168
1.804 2.506 1.617 8678
1.810 2.515 1.611 6555
2.009 2.791 1.763 4634
2.016 2.800 1.757 5641
2.027 2.816 1.754 6741
2.038 2.831 1.750 6929
2.028 2.818 1.730 7273
2.027 2.816 1.717 8635
2.038 2.831 1.714 10477
2.049 2.846 1.710 12878
2.052 2.850 1.700 12720
2.054 2.854 1.690 9224
2.120 2.946 1.728 6684
2.123 2.949 1.718 6200
2.134 2.965 1.713 6654
2.154 2.992 1.716 7298
2.157 2.996 1.705 6820
2.155 2.994 1.691 6169
2.158 2.997 1.681 5529
2.181 3.031 1.685 3733
2.201 3.058 1.687 3980
2.212 3.073 1.682 4359
2.296 3.190 1.728 6220
2.295 3.188 1.714 6785
2.297 3.192 1.702 5529
2.300 3.195 1.691 6182
2.303 3.199 1.680 8773
2.305 3.203 1.668 8577
2.308 3.206 1.657 8757
2.315 3.216 1.649 9173
2.326 3.231 1.643 10742
2.329 3.235 1.631 13335
2.331 3.238 1.620 10577
2.338 3.248 1.611 7731
2.336 3.245 1.597 7068
2.339 3.249 1.585 4715
2.493 3.464 1.668 5020
2.500 3.473 1.659 7324
2.503 3.477 1.646 6061
2.610 3.626 1.697 4274
2.565 3.563 1.656 3715
2.510 3.487 1.609 3886
2.653 3.685 1.679 5067
2.695 3.744 1.689 6493
2.706 3.760 1.681 5918
2.735 3.800 1.682 7152
2.738 3.803 1.669 12067
2.740 3.807 1.655 15658
2.743 3.811 1.642 18297
2.741 3.808 1.626 19698
2.744 3.812 1.612 17559
2.746 3.815 1.599 15332
2.749 3.818 1.585 13557
2.888 4.012 1.644 16540
2.891 4.016 1.629 13455
2.893 4.019 1.615 10911
2.900 4.029 1.603 10782
2.912 4.045 1.593 7838
2.914 4.048 1.579 5147
3.023 4.200 1.617 3863
3.079 4.277 1.628 4424
3.095 4.299 1.619 4024
3.102 4.309 1.606 3914
3.100 4.306 1.589 2743
3.370 4.682 1.698 3124
3.377 4.692 1.684 3344
3.398 4.720 1.675 2830
3.391 4.711 1.654 3742
3.385 4.702 1.634 3267
3.392 4.712 1.619 2925
3.390 4.709 1.600 3910
3.442 4.781 1.605 3081
3.637 5.053 1.669 3078
3.631 5.044 1.648 3200
3.633 5.048 1.630 3011
3.721 5.170 1.647 2862
3.724 5.173 1.628 2829
3.731 5.183 1.611 1942
4.013 5.575 1.703 2801
4.020 5.585 1.685 3634
4.023 5.588 1.665 3046
4.057 5.636 1.657 2605
4.159 5.778 1.673 2968
4.162 5.781 1.653 3050
4.069 5.653 1.598 2327
4.393 6.103 1.692 3410
4.554 6.327 1.726 3025
4.562 6.337 1.705 3767
4.569 6.347 1.684 3918
4.580 6.363 1.664 4504
4.588 6.373 1.643 5619
4.590 6.377 1.620 4708
4.588 6.374 1.596 4668
4.595 6.383 1.574 5729
4.597 6.387 1.552 4707
4.609 6.403 1.532 3140
5.008 6.957 1.627 2203
5.297 7.359 1.687 1788
5.309 7.375 1.663 1955
5.590 7.766 1.716 1576
5.597 7.776 1.689 1799
5.837 8.109 1.726 2044
5.840 8.113 1.697 2804
5.843 8.117 1.668 3104
5.850 8.127 1.640 2214
5.985 8.315 1.645 1416
5.988 8.318 1.615 1312
5.990 8.322 1.585 1608
5.983 8.312 1.553 1273
1.467 2.038 0.473 1204
1.468 2.039 0.466 2216
1.473 2.046 0.460 2995
1.473 2.047 0.452 3018
1.469 2.041 0.444 2344
1.534 2.131 0.450 1970
1.534 2.132 0.443 1537
7.765 10.788 1.662 1052
7.773 10.798 1.625 1423
1.633 2.268 0.438 1586
1.633 2.269 0.430 2053
1.634 2.269 0.422 2195
1.634 2.270 0.414 1984
0.967 1.343 0.295 2337
0.967 1.344 0.291 2020
0.967 1.344 0.286 1196
1.640 2.279 0.383 601
1.641 2.279 0.375 379
1.641 2.280 0.367 327
0.968 1.345 0.267 350
0.969 1.346 0.262 464
0.973 1.352 0.258 477
0.974 1.353 0.254 427
0.969 1.346 0.248 384
0.969 1.347 0.244 311
0.905 1.258 0.219 256
0.910 1.264 0.215 335
0.920 1.277 0.211 446
0.915 1.271 0.207 634
0.915 1.271 0.202 795
0.915 1.271 0.198 805
0.915 1.272 0.193 730
0.915 1.272 0.189 548
0.920 1.278 0.185 433
0.916 1.272 0.180 339
0.828 1.150 0.172 269
0.828 1.150 0.168 314
0.828 1.150 0.164 351
0.828 1.150 0.160 361
0.833 1.157 0.156 398
0.833 1.157 0.152 426
0.828 1.150 0.148 438
0.828 1.150 0.144 434
1.267 1.761 0.141 538
1.267 1.761 0.135 850
1.267 1.761 0.129 1123
1.272 1.767 0.122 1280
1.272 1.767 0.116 1167
1.277 1.773 0.110 1459
1.276 1.773 0.104 1761
1.272 1.767 0.098 1778
1.272 1.767 0.091 1805
1.272 1.767 0.085 1322
1.272 1.766 0.079 740
1.267 1.760 0.073 625
1.271 1.766 0.067 497
0.920 1.278 0.083 475
0.915 1.271 0.079 646
0.910 1.265 0.075 850
0.915 1.271 0.070 1266
0.915 1.271 0.065 1705
0.915 1.271 0.061 2627
0.915 1.271 0.057 3548
0.914 1.270 0.052 4147
0.910 1.264 0.048 4777
0.909 1.263 0.044 4626
0.914 1.270 0.039 4491
0.909 1.263 0.035 3844
0.909 1.263 0.031 3174
0.913 1.269 0.026 2552
0.909 1.262 0.022 1902
0.913 1.268 0.017 1532
0.917 1.274 0.012 1190
0.913 1.268 0.008 907
0.912 1.267 0.004 629
0.912 1.267 -0.001 615
0.912 1.267 -0.005 446
0.912 1.266 -0.009 278
1.379 1.901 1.806 3932
1.382 1.905 1.799 7864
1.384 1.909 1.792 7864
1.391 1.918 1.790 6697
1.394 1.922 1.784 5547
1.393 1.920 1.772 6033
1.396 1.924 1.765 6546
1.398 1.928 1.759 6546
1.401 1.932 1.752 7697
1.404 1.936 1.745 8848
1.407 1.939 1.738 8505
1.406 1.938 1.727 8189
1.431 1.973 1.747 9703
1.438 1.983 1.744 13100
1.441 1.986 1.737 14385
1.444 1.990 1.730 15856
1.446 1.994 1.723 15975
1.449 1.998 1.716 12930
1.459 2.012 1.718 10147
1.454 2.005 1.702 6955
1.516 2.090 1.759 4832
1.515 2.088 1.747 4909
1.498 2.065 1.719 5285
1.520 2.096 1.733 6144
1.527 2.105 1.729 7349
1.533 2.114 1.726 5651
1.599 2.205 1.785 4884
1.614 2.225 1.790 6562
1.617 2.229 1.782 8655
1.620 2.233 1.774 7935
1.623 2.237 1.766 7215
1.629 2.246 1.762 6382
1.636 2.256 1.758 5684
1.643 2.265 1.754 5104
1.650 2.274 1.750 4624
1.648 2.273 1.738 3463
1.695 2.337 1.774 4752
1.698 2.341 1.765 5559
1.657 2.284 1.714 5515
1.667 2.299 1.714 6431
1.711 2.358 1.744 6358
1.717 2.368 1.740 8264
1.720 2.371 1.732 10375
1.731 2.386 1.731 12033
1.738 2.396 1.726 12102
1.745 2.405 1.721 9965
1.747 2.409 1.713 7958
1.746 2.407 1.701 9223
1.740 2.399 1.685 8550
1.739 2.397 1.672 6549
1.807 2.492 1.723 5769
1.806 2.490 1.710 10224
1.813 2.499 1.705 12962
1.803 2.486 1.685 18127
1.802 2.484 1.673 20586
1.800 2.482 1.661 17614
1.803 2.485 1.652 12034
1.801 2.483 1.639 8651
1.804 2.487 1.631 10544
1.810 2.496 1.625 11343
1.813 2.499 1.617 10738
1.820 2.509 1.611 8283
1.826 2.518 1.606 5555
2.030 2.799 1.760 5841
2.037 2.809 1.754 6226
2.053 2.830 1.754 6614
2.034 2.805 1.727 7691
2.037 2.808 1.717 9094
2.052 2.829 1.717 10847
2.059 2.839 1.710 13924
2.062 2.843 1.700 13630
2.065 2.846 1.690 9799
2.131 2.938 1.728 7017
2.134 2.942 1.718 6065
2.141 2.951 1.710 6280
2.190 3.020 1.734 6707
2.206 3.041 1.733 6261
2.166 2.986 1.691 5777
2.224 3.066 1.721 6088
2.222 3.064 1.707 5462
2.221 3.062 1.693 5222
2.232 3.077 1.688 6851
2.248 3.099 1.686 9216
2.255 3.108 1.678 9363
2.262 3.118 1.670 6717
2.268 3.127 1.662 6026
2.314 3.191 1.680 7311
2.317 3.194 1.668 8078
2.324 3.204 1.660 7837
2.335 3.219 1.654 9401
2.342 3.229 1.646 12750
2.345 3.232 1.634 12920
2.343 3.230 1.620 7155
2.463 3.396 1.683 6620
2.470 3.405 1.674 5489
2.473 3.409 1.662 3423
2.611 3.599 1.733 3004
2.521 3.476 1.664 5294
2.511 3.462 1.644 5300
2.505 3.453 1.626 4754
2.556 3.523 1.643 5429
2.523 3.478 1.609 4415
2.666 3.676 1.679 5490
2.713 3.740 1.691 6473
2.720 3.750 1.681 6317
2.753 3.796 1.685 8450
2.756 3.800 1.671 14941
2.759 3.803 1.658 18472
2.757 3.801 1.642 20130
2.755 3.798 1.626 22155
2.757 3.802 1.612 21128
2.760 3.805 1.599 19129
2.762 3.808 1.585 16761
2.898 3.996 1.641 18230
2.901 3.999 1.627 14157
2.908 4.009 1.615 11023
2.910 4.012 1.601 11532
2.922 4.028 1.591 7393
3.031 4.179 1.630 7711
3.038 4.189 1.617 6362
3.054 4.211 1.609 5244
3.052 4.208 1.591 5118
3.117 4.298 1.606 4185
3.174 4.375 1.616 3547
3.163 4.360 1.594 2975
3.390 4.673 1.682 3260
3.410 4.701 1.673 2934
3.417 4.711 1.658 4352
3.415 4.709 1.640 4159
3.409 4.700 1.619 3757
3.402 4.691 1.598 3977
3.455 4.763 1.603 3287
3.728 5.139 1.700 3069
3.735 5.149 1.683 3006
3.738 5.153 1.665 3227
3.740 5.156 1.647 3772
3.743 5.160 1.628 3671
3.745 5.163 1.610 2346
4.042 5.573 1.706 2742
4.040 5.570 1.685 3798
4.043 5.574 1.665 3097
4.077 5.621 1.657 2449
4.175 5.756 1.672 3786
4.178 5.760 1.651 3747
4.090 5.638 1.598 2276
4.415 6.087 1.692 3230
4.413 6.084 1.669 3032
4.584 6.320 1.705 3185
4.592 6.330 1.684 3507
4.603 6.347 1.664 3732
4.611 6.356 1.643 4337
4.613 6.360 1.620 3825
4.611 6.357 1.596 3647
4.618 6.367 1.574 4004
4.621 6.370 1.552 3055
5.035 6.941 1.653 2136
5.033 6.939 1.627 1955
5.324 7.340 1.687 1847
5.331 7.350 1.662 1802
5.618 7.745 1.716 1615
5.625 7.755 1.689 1812
5.862 8.082 1.725 1841
5.869 8.092 1.697 2840
5.872 8.096 1.668 3128
5.875 8.099 1.639 2116
6.015 8.293 1.645 1507
5.926 8.170 1.592 1456
6.052 8.344 1.593 1664
6.064 8.360 1.565 1565
6.066 8.364 1.535 1285
1.475 2.033 0.466 2053
1.480 2.041 0.460 2583
1.476 2.035 0.451 2463
1.541 2.125 0.458 2568
1.546 2.132 0.451 2573
1.547 2.133 0.444 2181
1.547 2.133 0.436 1638
7.812 10.770 1.625 1267
0.966 1.332 0.313 1652
0.966 1.332 0.308 2223
0.962 1.326 0.303 2792
0.962 1.327 0.298 3041
0.967 1.333 0.294 2592
0.967 1.334 0.290 1607
0.968 1.334 0.285 1151
0.973 1.341 0.281 1493
0.968 1.335 0.276 1679
0.968 1.335 0.271 1520
0.969 1.335 0.267 1060
0.969 1.336 0.262 676
0.974 1.342 0.258 580
0.974 1.343 0.253 539
0.974 1.343 0.248 469
0.974 1.343 0.244 363
0.919 1.267 0.220 368
0.919 1.267 0.216 549
0.919 1.268 0.211 698
0.920 1.268 0.207 920
0.920 1.268 0.202 1121
0.920 1.268 0.198 1197
0.920 1.268 0.193 1151
0.920 1.268 0.189 956
0.920 1.268 0.185 807
0.920 1.269 0.180 649
0.920 1.269 0.176 396
0.832 1.147 0.168 377
0.832 1.147 0.164 391
0.832 1.147 0.160 385
0.832 1.147 0.156 330
0.832 1.147 0.152 252
1.274 1.756 0.153 496
1.274 1.756 0.147 671
1.269 1.750 0.141 696
1.260 1.737 0.135 760
1.269 1.750 0.129 1098
1.274 1.756 0.122 1702
1.269 1.750 0.116 1923
1.274 1.756 0.110 1601
1.278 1.762 0.104 1296
1.278 1.762 0.098 1247
1.283 1.768 0.091 1200
1.283 1.768 0.085 1284
1.278 1.762 0.079 1243
1.282 1.768 0.072 973
1.282 1.768 0.066 624
0.920 1.268 0.083 599
0.915 1.262 0.079 650
0.910 1.255 0.075 721
0.915 1.261 0.070 815
0.915 1.261 0.066 915
0.915 1.261 0.061 1018
0.910 1.254 0.058 1123
0.910 1.254 0.053 1208
0.914 1.260 0.048 1293
0.914 1.260 0.044 1329
0.914 1.260 0.040 1366
0.914 1.260 0.035 1211
0.918 1.266 0.030 1049
0.923 1.272 0.025 827
0.922 1.272 0.021 612
0.927 1.278 0.016 512
0.927 1.277 0.011 417
0.926 1.277 0.007 303
1.387 1.895 1.806 3895
1.390 1.899 1.799 7791
1.393 1.903 1.792 7791
1.396 1.906 1.786 6538
1.398 1.910 1.779 5285
1.401 1.914 1.772 5276
1.404 1.918 1.765 5267
1.407 1.922 1.759 5267
1.406 1.920 1.747 5974
1.405 1.919 1.736 6841
1.411 1.928 1.734 7909
1.418 1.937 1.731 9384
1.436 1.962 1.742 10816
1.447 1.976 1.744 14375
1.450 1.980 1.737 14852
1.452 1.984 1.730 15462
1.455 1.988 1.723 15547
1.458 1.991 1.716 12500
1.464 2.000 1.713 9547
1.463 1.999 1.702 6843
1.458 1.992 1.686 4414
1.528 2.087 1.752 4412
1.530 2.091 1.744 5059
1.537 2.100 1.741 6365
1.540 2.104 1.734 7683
1.547 2.113 1.730 5961
1.609 2.198 1.785 6265
1.620 2.213 1.786 7999
1.627 2.222 1.782 10257
1.634 2.231 1.778 8669
1.640 2.241 1.774 7343
1.643 2.245 1.766 5915
1.650 2.254 1.762 4573
1.657 2.263 1.758 4345
1.664 2.273 1.754 4300
1.670 2.282 1.750 4104
1.702 2.324 1.770 5422
1.708 2.334 1.765 6039
1.691 2.310 1.738 5305
1.690 2.308 1.726 5521
1.725 2.356 1.748 6593
1.728 2.360 1.740 8815
1.735 2.369 1.735 10641
1.741 2.379 1.731 11544
1.752 2.394 1.730 11077
1.755 2.397 1.721 9919
1.758 2.401 1.713 8761
1.756 2.399 1.701 11109
1.759 2.403 1.692 12078
1.766 2.412 1.687 10693
1.769 2.416 1.679 10193
1.821 2.487 1.714 9803
1.820 2.485 1.701 13274
1.822 2.489 1.693 17393
1.812 2.476 1.673 19607
1.811 2.474 1.661 17710
1.809 2.471 1.648 12256
1.812 2.475 1.639 8711
1.819 2.484 1.634 10479
1.821 2.488 1.625 11536
1.828 2.497 1.620 11425
1.826 2.495 1.608 8818
2.031 2.775 1.763 6179
2.042 2.790 1.760 6277
2.024 2.765 1.733 6384
2.069 2.826 1.757 6643
2.042 2.790 1.724 8101
2.049 2.799 1.717 8912
2.069 2.826 1.720 10552
2.076 2.836 1.713 13578
2.074 2.834 1.700 13225
2.141 2.925 1.738 9720
2.144 2.928 1.728 6671
2.147 2.932 1.718 4868
2.158 2.948 1.713 4906
2.199 3.004 1.731 7112
2.219 3.031 1.733 6705
2.239 3.058 1.735 9740
2.242 3.062 1.724 10711
2.245 3.066 1.713 9745
2.243 3.064 1.699 9446
2.250 3.073 1.691 11700
2.261 3.089 1.686 14916
2.268 3.098 1.678 14891
2.271 3.102 1.667 10001
2.273 3.106 1.656 7826
2.341 3.198 1.689 6943
2.344 3.202 1.677 7764
2.355 3.217 1.671 9845
2.358 3.221 1.660 13774
2.361 3.224 1.648 17091
2.368 3.234 1.640 14982
2.370 3.238 1.628 9045
2.473 3.379 1.680 7105
2.480 3.388 1.671 6274
2.373 3.242 1.591 3697
2.552 3.486 1.687 3492
2.554 3.489 1.675 5366
2.566 3.505 1.668 7293
2.573 3.514 1.658 8141
2.571 3.512 1.643 9491
2.574 3.515 1.630 7110
2.691 3.676 1.684 6388
2.685 3.668 1.666 6429
2.719 3.714 1.671 6199
2.770 3.784 1.685 8933
2.773 3.787 1.671 15785
2.775 3.791 1.658 18408
2.773 3.788 1.642 19018
2.772 3.786 1.626 21552
2.774 3.789 1.612 21585
2.777 3.793 1.599 19504
2.779 3.796 1.585 16645
2.911 3.977 1.639 17096
2.918 3.986 1.627 13544
2.921 3.990 1.613 9954
2.928 3.999 1.601 10440
3.043 4.156 1.642 6347
3.050 4.166 1.630 10222
3.057 4.175 1.617 8078
3.068 4.191 1.606 6855
3.071 4.194 1.591 7490
3.069 4.192 1.574 5594
3.188 4.355 1.614 5885
3.177 4.340 1.592 6112
3.415 4.664 1.684 3972
3.431 4.686 1.673 3636
3.438 4.696 1.658 4430
3.441 4.700 1.642 4610
3.430 4.685 1.619 4392
3.423 4.676 1.598 4278
3.548 4.846 1.633 3387
3.555 4.856 1.618 3891
3.757 5.133 1.683 3328
3.760 5.136 1.665 3700
3.763 5.140 1.647 3914
3.765 5.143 1.628 4106
3.768 5.147 1.610 2427
4.071 5.561 1.708 2799
4.069 5.559 1.686 3936
4.072 5.562 1.666 3165
4.189 5.722 1.689 2476
4.196 5.732 1.670 3931
4.203 5.742 1.651 3445
4.206 5.745 1.630 2035
4.433 6.055 1.689 2271
4.435 6.059 1.667 3056
4.438 6.062 1.645 3753
4.624 6.316 1.685 2819
4.631 6.326 1.664 2969
4.638 6.336 1.643 3355
4.636 6.333 1.619 3067
4.639 6.337 1.596 2105
4.913 6.711 1.657 2593
4.925 6.727 1.636 1641
5.065 6.919 1.653 2006
5.178 7.074 1.661 2522
5.342 7.298 1.683 1933
4.990 6.816 1.555 1668
5.652 7.721 1.716 1490
5.267 7.195 1.581 1536
5.893 8.050 1.724 1872
5.900 8.060 1.696 2821
5.908 8.070 1.668 2898
5.906 8.067 1.638 1911
6.075 8.298 1.651 1512
5.975 8.162 1.596 1772
6.098 8.330 1.595 1841
6.101 8.334 1.565 1973
6.103 8.337 1.535 1714
6.106 8.340 1.505 1532
1.489 2.034 0.460 1370
1.550 2.117 0.465 1566
1.550 2.118 0.458 2213
1.556 2.125 0.451 2679
1.556 2.126 0.444 2818
1.552 2.120 0.435 2643
1.553 2.121 0.428 2196
0.967 1.321 0.312 2493
0.968 1.322 0.308 3518
0.968 1.322 0.303 4600
0.968 1.322 0.298 5086
0.968 1.323 0.294 4418
0.969 1.323 0.289 3008
0.964 1.317 0.284 1859
0.965 1.317 0.279 1467
0.965 1.318 0.274 1432
0.970 1.324 0.271 1396
0.970 1.325 0.266 1312
0.975 1.331 0.262 1046
0.975 1.332 0.257 688
0.975 1.332 0.253 491
0.975 1.332 0.248 352
0.924 1.263 0.233 302
0.920 1.256 0.228 468
0.920 1.257 0.224 796
0.920 1.257 0.220 1170
0.920 1.257 0.215 1358
0.920 1.257 0.211 1451
0.921 1.257 0.206 1629
0.925 1.264 0.202 1796
0.925 1.264 0.198 1861
0.925 1.264 0.193 1586
0.926 1.264 0.189 956
0.926 1.264 0.185 581
0.930 1.271 0.180 547
0.935 1.277 0.176 525
0.935 1.277 0.172 539
0.935 1.278 0.167 441
1.272 1.738 0.165 296
1.272 1.738 0.159 357
1.277 1.744 0.153 455
1.277 1.744 0.147 490
1.277 1.744 0.141 914
1.277 1.744 0.135 1337
1.277 1.744 0.129 1589
1.272 1.738 0.122 1704
1.267 1.731 0.116 1621
1.272 1.738 0.110 1599
1.281 1.750 0.104 1682
1.286 1.757 0.098 1579
1.286 1.756 0.091 1516
1.290 1.763 0.085 1312
1.295 1.769 0.078 1054
1.295 1.769 0.072 959
1.290 1.762 0.066 804
1.290 1.762 0.060 615
2.285 3.121 -0.014 557
2.285 3.121 -0.025 605
0.925 1.264 0.070 647
0.925 1.264 0.065 925
0.925 1.263 0.061 1182
0.920 1.257 0.057 1463
0.920 1.257 0.053 1741
0.920 1.256 0.048 2020
0.924 1.263 0.043 2103
0.924 1.262 0.039 2218
0.924 1.262 0.035 1857
0.924 1.262 0.030 1510
0.924 1.262 0.026 1085
0.914 1.249 0.023 688
0.928 1.267 0.016 617
0.932 1.273 0.011 621
0.932 1.273 0.007 521
0.927 1.266 0.003 430
0.927 1.266 -0.001 421
0.922 1.259 -0.005 342
0.917 1.253 -0.009 271
1.394 1.889 1.806 3641
1.397 1.893 1.799 7282
1.404 1.902 1.797 7298
1.403 1.901 1.786 6088
1.406 1.905 1.779 4895
1.409 1.909 1.772 4662
1.411 1.913 1.765 4429
1.414 1.916 1.759 4429
1.413 1.915 1.747 4882
1.408 1.908 1.732 5435
1.423 1.928 1.738 7869
1.429 1.937 1.736 10828
1.444 1.956 1.742 11723
1.450 1.965 1.740 14558
1.457 1.974 1.737 14270
1.460 1.978 1.730 14188
1.463 1.982 1.723 14287
1.465 1.986 1.716 11464
1.468 1.989 1.709 8659
1.471 1.993 1.702 6295
1.568 2.125 1.797 4813
1.567 2.124 1.786 4816
1.546 2.095 1.753 5515
1.549 2.099 1.745 6557
1.556 2.108 1.742 7600
1.595 2.161 1.772 6080
1.617 2.192 1.785 7076
1.624 2.201 1.781 8876
1.631 2.210 1.778 11139
1.638 2.220 1.774 9047
1.649 2.234 1.774 7522
1.652 2.238 1.766 5578
1.659 2.248 1.762 3696
1.670 2.262 1.762 3478
1.676 2.272 1.758 3530
1.683 2.281 1.754 4203
1.710 2.318 1.770 5944
1.713 2.322 1.762 6322
1.704 2.309 1.742 5219
1.703 2.307 1.729 4426
1.734 2.350 1.748 6512
1.737 2.353 1.740 8963
1.744 2.363 1.735 10413
1.750 2.372 1.731 10445
1.761 2.387 1.730 9780
1.764 2.391 1.721 9647
1.767 2.394 1.713 9514
1.766 2.393 1.701 12463
1.772 2.402 1.696 15043
1.775 2.405 1.687 15124
1.782 2.415 1.682 14597
1.789 2.424 1.677 10120
1.829 2.479 1.701 12580
1.832 2.482 1.693 15753
1.822 2.469 1.673 16800
1.816 2.461 1.657 15911
1.819 2.465 1.648 11226
1.821 2.468 1.639 7821
1.828 2.477 1.634 9265
1.835 2.487 1.629 10331
1.838 2.490 1.620 10106
1.836 2.488 1.608 7836
2.042 2.767 1.763 6657
2.053 2.782 1.760 6479
2.030 2.751 1.730 6449
2.033 2.755 1.720 6683
2.053 2.782 1.724 7645
2.060 2.791 1.717 8066
2.088 2.830 1.727 9420
2.087 2.828 1.713 11709
2.085 2.826 1.700 11398
2.157 2.922 1.742 9549
2.155 2.920 1.728 5835
2.145 2.907 1.708 3596
2.212 2.998 1.745 4245
2.206 2.990 1.728 6622
2.244 3.040 1.743 7011
2.255 3.056 1.738 12287
2.258 3.060 1.727 13958
2.256 3.057 1.713 13682
2.259 3.061 1.702 13811
2.262 3.065 1.691 15921
2.273 3.080 1.686 19212
2.280 3.090 1.678 19247
2.278 3.087 1.664 12632
2.281 3.091 1.653 9075
2.284 3.094 1.642 7305
2.361 3.199 1.680 7453
2.372 3.214 1.674 10437
2.370 3.212 1.660 15957
2.377 3.221 1.651 19806
2.380 3.225 1.640 17579
2.382 3.228 1.628 11491
2.381 3.226 1.614 7150
2.489 3.373 1.668 6607
2.496 3.382 1.659 4046
2.552 3.458 1.679 4273
2.572 3.485 1.677 6064
2.584 3.501 1.670 9502
2.586 3.505 1.658 11159
2.584 3.502 1.643 12593
2.587 3.506 1.630 9300
2.705 3.666 1.684 7448
2.703 3.663 1.669 7706
2.724 3.691 1.666 6713
2.789 3.779 1.687 8136
2.787 3.777 1.671 13843
2.790 3.780 1.658 15154
2.788 3.778 1.642 14979
2.786 3.775 1.626 17392
2.789 3.779 1.612 18227
2.791 3.782 1.599 16405
2.794 3.786 1.585 13540
2.926 3.966 1.639 13655
2.933 3.975 1.627 11470
2.941 3.985 1.615 8373
2.943 3.988 1.601 8195
3.058 4.144 1.642 6280
3.065 4.154 1.630 9994
3.073 4.164 1.617 7892
3.084 4.179 1.606 7516
3.082 4.177 1.589 8955
3.085 4.180 1.574 7091
3.191 4.325 1.608 7128
3.189 4.322 1.590 8438
3.251 4.405 1.601 6809
3.253 4.409 1.586 8308
3.256 4.412 1.570 8410
3.258 4.415 1.554 6895
3.256 4.413 1.536 4929
3.455 4.681 1.604 4387
3.566 4.833 1.633 3509
3.574 4.843 1.618 4419
3.777 5.118 1.683 3280
3.780 5.122 1.665 3555
3.782 5.125 1.647 3360
3.785 5.129 1.628 3780
3.783 5.126 1.608 2126
4.097 5.552 1.710 2629
4.091 5.543 1.686 3682
4.089 5.541 1.665 3011
4.206 5.700 1.687 2668
4.213 5.709 1.668 3300
4.225 5.725 1.651 2290
4.430 6.003 1.702 2041
4.226 5.726 1.608 2251
4.458 6.042 1.667 2545
4.461 6.045 1.645 3670
4.464 6.049 1.623 2773
4.655 6.309 1.664 2764
4.658 6.312 1.641 3274
4.661 6.316 1.619 2960
4.936 6.688 1.682 1693
4.938 6.692 1.657 2267
5.177 7.015 1.705 1584
5.180 7.019 1.680 2268
5.205 7.054 1.661 2940
5.208 7.057 1.636 2275
5.016 6.797 1.555 1713
5.431 7.360 1.646 1538
5.438 7.370 1.620 2026
5.924 8.027 1.724 1930
5.931 8.037 1.696 2787
5.938 8.047 1.668 2687
5.936 8.044 1.638 1702
6.111 8.281 1.652 1656
6.007 8.139 1.596 1960
6.135 8.313 1.596 1853
6.133 8.310 1.565 2037
1.552 2.102 0.487 2724
1.552 2.103 0.479 4000
1.557 2.110 0.473 5192
1.558 2.111 0.465 5823
1.554 2.106 0.457 5879
1.559 2.113 0.450 5526
1.560 2.113 0.443 4825
1.560 2.114 0.435 4012
1.561 2.115 0.428 3114
0.972 1.318 0.312 3218
0.973 1.318 0.308 4472
0.973 1.318 0.303 5730
0.973 1.319 0.298 6206
0.973 1.319 0.294 5184
0.974 1.319 0.289 3195
0.974 1.320 0.284 1467
0.974 1.320 0.280 1086
0.974 1.320 0.275 1301
0.979 1.327 0.271 1367
0.975 1.321 0.266 1359
0.975 1.321 0.261 1067
0.975 1.322 0.257 645
0.976 1.322 0.252 428
0.976 1.322 0.247 291
0.924 1.253 0.237 452
0.924 1.253 0.233 687
0.925 1.253 0.228 876
0.925 1.253 0.224 1264
0.925 1.253 0.220 1752
0.930 1.260 0.216 2121
0.930 1.260 0.211 2310
0.930 1.260 0.207 2353
0.935 1.267 0.203 2244
0.935 1.267 0.198 2117
0.935 1.267 0.194 1910
0.935 1.267 0.189 1421
0.935 1.267 0.185 1139
0.935 1.267 0.180 832
0.926 1.255 0.176 402
0.832 1.127 0.168 270
0.837 1.134 0.164 368
0.837 1.134 0.160 502
0.841 1.140 0.156 715
0.842 1.140 0.152 889
0.837 1.134 0.148 972
0.837 1.134 0.144 1005
0.842 1.140 0.140 962
0.842 1.140 0.136 778
1.288 1.746 0.129 1185
1.288 1.746 0.122 1847
1.283 1.739 0.116 2008
1.283 1.739 0.110 1581
1.283 1.739 0.104 1154
1.288 1.745 0.098 985
1.293 1.751 0.091 843
1.297 1.758 0.085 848
1.297 1.758 0.079 817
1.297 1.757 0.072 719
0.944 1.280 0.087 752
0.940 1.273 0.083 887
0.940 1.273 0.078 969
0.939 1.273 0.074 1050
0.944 1.279 0.069 1114
0.949 1.285 0.064 1190
0.944 1.279 0.060 1378
0.939 1.272 0.056 1611
0.934 1.266 0.052 1449
0.934 1.266 0.047 1316
0.934 1.265 0.043 1145
0.934 1.265 0.038 975
0.933 1.265 0.034 1229
0.938 1.271 0.029 1469
0.938 1.271 0.025 1314
0.933 1.264 0.021 1156
0.933 1.264 0.016 907
0.932 1.263 0.012 657
0.927 1.257 0.008 495
0.918 1.244 0.005 377
0.918 1.244 0.001 406
0.917 1.243 -0.003 409
0.917 1.243 -0.008 412
0.917 1.242 -0.012 394
0.921 1.248 -0.017 385
0.921 1.248 -0.022 320
0.925 1.254 -0.027 254
0.925 1.254 -0.031 254
0.925 1.253 -0.036 357
1.402 1.883 1.806 3489
1.405 1.887 1.799 6979
1.412 1.896 1.797 7125
1.415 1.900 1.790 5970
1.418 1.904 1.784 4816
1.421 1.908 1.777 4868
1.427 1.917 1.775 4954
1.430 1.921 1.768 4954
1.429 1.919 1.756 5398
1.432 1.923 1.750 5876
1.435 1.927 1.743 9148
1.441 1.936 1.740 12507
1.448 1.945 1.738 13027
1.459 1.959 1.740 14677
1.466 1.968 1.737 13357
1.472 1.977 1.735 12557
1.471 1.976 1.723 12648
1.474 1.979 1.716 10009
1.477 1.983 1.709 7351
1.479 1.987 1.702 5331
1.574 2.113 1.793 6242
1.572 2.112 1.781 6140
1.559 2.094 1.757 6355
1.566 2.103 1.754 7110
1.569 2.107 1.746 7877
1.600 2.149 1.768 6620
1.623 2.179 1.781 7895
1.630 2.189 1.777 9847
1.641 2.203 1.778 12137
1.648 2.213 1.774 9609
1.659 2.227 1.774 7876
1.657 2.226 1.762 5420
1.648 2.213 1.742 3366
1.643 2.206 1.726 3632
1.641 2.204 1.714 4248
1.713 2.301 1.774 4382
1.712 2.299 1.762 6503
1.715 2.303 1.754 6687
1.718 2.307 1.745 4974
1.741 2.338 1.757 3546
1.744 2.342 1.748 6235
1.743 2.340 1.736 9040
1.750 2.350 1.732 10142
1.765 2.370 1.735 9380
1.776 2.385 1.734 8666
1.775 2.383 1.721 9467
1.777 2.387 1.713 10460
1.776 2.385 1.701 13507
1.783 2.394 1.696 17440
1.785 2.398 1.687 18470
1.792 2.407 1.682 18267
1.799 2.416 1.677 12934
1.835 2.465 1.698 11281
1.838 2.469 1.689 13217
1.837 2.467 1.677 12910
1.822 2.448 1.653 12768
1.825 2.451 1.645 9099
1.832 2.460 1.639 5922
1.839 2.469 1.634 6581
1.846 2.479 1.629 7295
1.886 2.533 1.651 7714
1.893 2.543 1.646 9040
1.896 2.546 1.636 7581
2.065 2.773 1.760 6579
2.042 2.743 1.730 6506
2.045 2.746 1.720 7120
2.048 2.750 1.710 7002
2.076 2.788 1.720 6673
2.100 2.821 1.727 7257
2.099 2.819 1.713 8674
2.166 2.909 1.752 9169
2.169 2.913 1.742 8632
2.172 2.917 1.731 5091
2.144 2.880 1.698 3191
2.203 2.959 1.729 3135
2.215 2.974 1.725 4876
2.265 3.042 1.749 7669
2.268 3.046 1.738 13970
2.271 3.050 1.727 17102
2.274 3.054 1.716 18291
2.276 3.057 1.705 18953
2.275 3.055 1.691 20361
2.282 3.064 1.683 23253
2.289 3.074 1.675 23002
2.292 3.078 1.664 14767
2.290 3.075 1.650 9773
2.292 3.079 1.639 7634
2.379 3.195 1.683 7033
2.386 3.204 1.674 10130
2.384 3.202 1.660 16095
2.391 3.211 1.651 20327
2.394 3.215 1.640 17683
2.396 3.218 1.628 11606
2.394 3.216 1.614 6812
2.503 3.362 1.668 6659
2.519 3.384 1.664 5057
2.558 3.435 1.674 4979
2.591 3.480 1.680 6747
2.599 3.490 1.670 11283
2.601 3.493 1.658 13478
2.604 3.497 1.645 14921
2.602 3.494 1.630 10797
2.721 3.654 1.684 8233
2.719 3.652 1.669 8960
2.717 3.649 1.653 7472
2.805 3.767 1.687 7098
2.803 3.765 1.671 10670
2.801 3.762 1.655 10487
2.804 3.766 1.642 9442
2.802 3.763 1.626 11416
2.805 3.767 1.612 12713
2.807 3.770 1.599 11102
2.810 3.774 1.585 8542
2.943 3.953 1.639 8799
2.951 3.963 1.627 7904
2.958 3.972 1.615 5737
2.960 3.976 1.601 5261
3.076 4.131 1.642 5300
3.083 4.141 1.630 8047
3.090 4.150 1.617 6429
3.102 4.166 1.606 6982
3.100 4.163 1.589 9081
3.103 4.167 1.574 7622
3.201 4.299 1.604 8624
3.208 4.308 1.590 10148
3.270 4.391 1.601 10710
3.272 4.395 1.586 13642
3.275 4.398 1.570 14636
3.277 4.401 1.554 12837
3.280 4.405 1.538 9358
3.282 4.408 1.522 7298
3.289 4.417 1.508 5479
3.599 4.833 1.620 4115
3.799 5.102 1.683 2997
3.806 5.112 1.667 3194
3.804 5.109 1.647 2693
3.802 5.106 1.626 3093
3.902 5.240 1.645 2406
4.121 5.534 1.710 2264
4.114 5.525 1.686 3137
4.108 5.517 1.663 2834
4.221 5.669 1.684 2614
4.233 5.685 1.667 2552
4.448 5.974 1.722 2326
4.460 5.990 1.704 2506
4.482 6.019 1.689 2778
4.494 6.035 1.670 2622
4.492 6.032 1.647 3142
4.494 6.036 1.625 2698
4.687 6.295 1.666 3085
4.685 6.292 1.641 3905
4.683 6.289 1.617 3325
4.690 6.299 1.596 2171
5.069 6.808 1.689 2373
5.067 6.806 1.663 1893
5.228 7.022 1.685 2355
5.231 7.025 1.660 3178
5.234 7.029 1.635 2566
5.050 6.782 1.556 1617
5.402 7.255 1.629 2001
5.470 7.346 1.620 2403
5.473 7.350 1.594 2009
5.965 8.012 1.696 2525
5.973 8.021 1.668 2322
5.891 7.912 1.618 1585
6.146 8.255 1.652 1741
6.041 8.114 1.596 1842
1.564 2.100 0.503 1865
1.565 2.101 0.495 3082
1.561 2.096 0.487 4413
1.561 2.097 0.479 5856
1.566 2.104 0.473 7199
1.567 2.104 0.465 7994
1.568 2.105 0.458 8101
1.568 2.106 0.450 7379
1.569 2.107 0.443 5815
1.569 2.107 0.435 3929
1.574 2.114 0.429 2235
0.978 1.313 0.312 2258
0.978 1.314 0.308 2389
0.979 1.314 0.303 1901
0.979 1.315 0.298 1451
0.984 1.321 0.294 1723
0.984 1.322 0.290 1963
0.984 1.322 0.285 1737
0.989 1.329 0.281 1568
0.985 1.323 0.276 1605
0.985 1.323 0.271 1655
0.985 1.323 0.267 1489
0.986 1.324 0.262 1025
0.990 1.330 0.258 575
0.986 1.324 0.253 376
0.925 1.242 0.241 393
0.930 1.249 0.237 881
0.930 1.249 0.233 1327
0.930 1.249 0.228 1793
0.930 1.249 0.224 2517
0.930 1.249 0.220 3007
0.930 1.250 0.215 3115
0.931 1.250 0.211 2809
0.931 1.250 0.206 2121
0.931 1.250 0.202 1527
0.931 1.250 0.198 1272
0.931 1.250 0.193 1110
0.931 1.250 0.189 948
0.936 1.257 0.185 898
0.936 1.257 0.180 840
0.936 1.257 0.176 670
0.941 1.264 0.172 566
0.846 1.137 0.164 677
0.846 1.137 0.160 1022
0.846 1.137 0.156 1624
0.846 1.137 0.152 2155
0.846 1.137 0.148 2533
0.846 1.137 0.144 3034
0.846 1.137 0.140 3195
0.846 1.137 0.136 2990
0.842 1.130 0.132 2379
0.842 1.130 0.129 1910
0.846 1.137 0.124 1361
1.296 1.740 0.110 1170
1.300 1.746 0.104 1179
1.300 1.746 0.098 882
1.300 1.746 0.091 586
0.846 1.136 0.105 457
0.841 1.130 0.101 371
1.309 1.758 0.072 305
1.304 1.752 0.066 287
2.306 3.097 -0.003 304
2.306 3.096 -0.014 392
2.305 3.096 -0.025 481
2.305 3.096 -0.036 498
2.305 3.095 -0.047 515
0.940 1.262 0.061 571
0.935 1.256 0.057 691
0.935 1.255 0.052 637
0.930 1.249 0.048 599
0.930 1.249 0.044 473
0.925 1.242 0.040 361
0.925 1.242 0.036 335
0.929 1.248 0.031 313
0.929 1.248 0.026 377
0.929 1.247 0.022 445
0.929 1.247 0.018 500
0.924 1.240 0.014 565
0.923 1.240 0.010 606
0.928 1.246 0.004 679
0.923 1.240 0.001 712
0.923 1.239 -0.003 896
0.922 1.239 -0.008 1079
0.927 1.245 -0.013 1088
0.927 1.244 -0.017 1104
0.926 1.244 -0.022 952
0.926 1.244 -0.026 801
0.926 1.243 -0.030 801
0.926 1.243 -0.035 1069
1.409 1.879 1.806 3436
1.412 1.882 1.799 6872
1.422 1.897 1.802 7309
1.425 1.900 1.795 6156
1.424 1.899 1.784 5129
1.431 1.908 1.781 5804
1.438 1.917 1.779 6654
1.441 1.921 1.772 6654
1.440 1.920 1.761 6985
1.439 1.918 1.750 7403
1.445 1.927 1.747 10444
1.448 1.931 1.740 13524
1.455 1.940 1.738 13494
1.462 1.949 1.735 14069
1.468 1.958 1.733 11926
1.479 1.972 1.735 10655
1.478 1.971 1.723 10668
1.481 1.974 1.716 8317
1.483 1.978 1.709 5955
1.574 2.099 1.796 6146
1.577 2.103 1.789 7574
1.576 2.101 1.777 7260
1.571 2.094 1.761 7111
1.577 2.103 1.758 7547
1.584 2.112 1.755 8040
1.603 2.138 1.764 6929
1.630 2.174 1.781 8429
1.637 2.183 1.777 10317
1.644 2.192 1.774 12470
1.651 2.202 1.770 9660
1.666 2.222 1.774 7880
1.665 2.220 1.762 5433
1.647 2.197 1.734 4165
1.650 2.200 1.726 4701
1.653 2.204 1.718 5238
1.656 2.208 1.710 4760
1.720 2.294 1.762 6755
1.723 2.297 1.754 6758
1.726 2.301 1.745 4803
1.667 2.222 1.679 3499
1.735 2.314 1.733 5867
1.747 2.329 1.732 9058
1.753 2.338 1.728 9881
1.773 2.364 1.735 8400
1.788 2.384 1.738 8014
1.787 2.383 1.725 9249
1.785 2.381 1.713 10860
1.788 2.384 1.704 13595
1.791 2.388 1.696 18030
1.794 2.392 1.687 19731
1.801 2.401 1.682 19930
1.812 2.416 1.681 14807
1.827 2.436 1.683 11652
1.847 2.462 1.689 11152
1.858 2.477 1.687 10313
1.827 2.436 1.650 10881
1.829 2.439 1.641 7990
1.836 2.448 1.636 4477
1.843 2.457 1.631 4243
1.880 2.506 1.650 5620
1.895 2.527 1.651 9485
1.898 2.531 1.642 10985
1.900 2.534 1.633 9210
2.079 2.772 1.764 6577
2.095 2.793 1.764 5712
2.054 2.739 1.720 6310
2.057 2.743 1.710 6084
2.086 2.781 1.720 4880
2.101 2.802 1.720 4991
2.109 2.812 1.713 5594
2.176 2.902 1.752 8019
2.183 2.911 1.745 7677
2.182 2.909 1.731 5213
2.159 2.878 1.702 3915
2.205 2.940 1.723 4060
2.216 2.955 1.719 5263
2.276 3.035 1.749 7776
2.279 3.038 1.738 14007
2.281 3.042 1.727 18776
2.284 3.046 1.716 21942
2.287 3.049 1.705 23157
2.285 3.047 1.691 23813
2.292 3.057 1.683 25588
2.299 3.066 1.675 24199
2.298 3.064 1.661 15865
2.296 3.061 1.647 10332
2.303 3.071 1.639 7751
2.390 3.186 1.683 6457
2.397 3.196 1.674 9223
2.395 3.194 1.660 14336
2.402 3.203 1.651 17913
2.405 3.206 1.640 15226
2.407 3.210 1.628 9912
2.405 3.208 1.614 5362
2.519 3.359 1.671 6414
2.531 3.375 1.664 5813
2.552 3.402 1.663 5384
2.603 3.471 1.680 6812
2.610 3.481 1.670 11236
2.613 3.484 1.658 13436
2.616 3.488 1.645 14790
2.614 3.486 1.630 10567
2.729 3.639 1.682 8120
2.727 3.636 1.666 9226
2.725 3.634 1.650 8427
2.723 3.631 1.635 8176
2.749 3.665 1.634 7854
2.756 3.674 1.623 7802
2.763 3.684 1.612 5398
2.820 3.760 1.628 6188
2.818 3.757 1.612 7317
2.820 3.761 1.599 6043
2.823 3.764 1.585 4192
2.961 3.949 1.641 5171
2.964 3.952 1.627 4836
2.976 3.968 1.617 3440
2.974 3.965 1.601 2926
3.095 4.127 1.645 3732
3.093 4.124 1.628 5359
3.100 4.134 1.615 4956
3.199 4.265 1.646 6375
3.114 4.153 1.589 7695
3.204 4.272 1.615 7257
3.215 4.288 1.604 8947
3.223 4.297 1.590 10563
3.285 4.380 1.601 12363
3.287 4.383 1.586 15912
3.290 4.387 1.570 17932
3.292 4.390 1.554 16334
3.295 4.393 1.538 12102
3.297 4.397 1.522 9697
3.300 4.400 1.506 7414
3.302 4.403 1.490 4265
3.812 5.083 1.681 2392
3.824 5.099 1.667 2476
3.873 5.164 1.667 2559
3.885 5.180 1.652 3116
3.920 5.226 1.645 2446
3.931 5.242 1.630 2386
4.129 5.505 1.685 2543
4.113 5.484 1.658 2895
4.231 5.642 1.680 2390
4.234 5.646 1.660 2305
4.469 5.959 1.722 2328
4.490 5.987 1.707 2773
4.512 6.016 1.692 3858
4.524 6.032 1.673 3383
4.522 6.029 1.650 2819
4.515 6.020 1.625 2499
4.713 6.285 1.667 3289
4.707 6.276 1.641 4630
4.705 6.273 1.617 3815
4.712 6.283 1.596 2840
5.093 6.791 1.689 2701
5.091 6.788 1.663 1983
5.252 7.004 1.685 2160
5.255 7.007 1.660 2925
5.258 7.011 1.635 2424
5.452 7.270 1.663 1731
5.427 7.236 1.629 2252
5.495 7.327 1.620 2546
5.502 7.337 1.595 1942
5.993 7.991 1.696 2178
6.000 8.001 1.668 1942
5.918 7.892 1.618 1535
6.175 8.234 1.652 1674
6.318 8.425 1.656 1991
1.571 2.095 0.503 1936
1.572 2.096 0.495 3406
1.568 2.090 0.487 5281
1.568 2.091 0.479 7556
1.574 2.098 0.473 9644
1.574 2.099 0.465 10487
1.570 2.094 0.457 9787
1.575 2.101 0.450 7753
1.571 2.095 0.442 5169
1.572 2.096 0.434 3648
0.982 1.310 0.317 3459
0.982 1.310 0.312 4312
0.983 1.310 0.308 5000
0.978 1.305 0.302 5151
0.979 1.305 0.297 4655
0.979 1.305 0.293 3453
0.979 1.306 0.288 2021
0.979 1.306 0.284 1420
0.984 1.313 0.280 1914
0.985 1.313 0.275 2334
0.985 1.313 0.271 2434
0.985 1.314 0.266 2134
0.981 1.308 0.261 1375
0.981 1.308 0.256 664
0.981 1.308 0.251 391
0.929 1.239 0.241 348
0.929 1.239 0.237 616
0.929 1.239 0.232 707
0.925 1.233 0.227 757
0.930 1.240 0.223 1388
0.935 1.246 0.220 2479
0.935 1.246 0.215 3025
0.935 1.247 0.211 2878
0.935 1.247 0.206 2047
0.940 1.253 0.202 1666
0.945 1.260 0.198 1924
0.940 1.253 0.193 2153
0.945 1.260 0.189 2100
0.945 1.260 0.185 1842
0.945 1.260 0.180 1543
0.950 1.267 0.176 1205
0.950 1.267 0.172 1142
0.950 1.267 0.167 994
0.850 1.134 0.160 937
0.850 1.134 0.156 1459
0.855 1.140 0.152 2030
0.850 1.134 0.148 2681
0.850 1.134 0.144 3817
0.850 1.134 0.140 4421
0.850 1.134 0.136 4634
0.846 1.128 0.132 4470
0.846 1.128 0.129 4166
0.846 1.127 0.125 3583
0.846 1.127 0.121 2962
0.845 1.127 0.117 2361
0.845 1.127 0.113 1633
0.845 1.127 0.109 1134
0.850 1.134 0.105 503
2.316 3.088 -0.025 324
2.316 3.088 -0.036 379
2.315 3.087 -0.047 435
2.315 3.087 -0.058 406
2.315 3.086 -0.069 378
2.314 3.086 -0.080 371
2.309 3.079 -0.091 298
0.948 1.264 0.042 294
0.948 1.264 0.038 349
0.943 1.258 0.034 366
0.943 1.257 0.030 390
0.943 1.257 0.025 318
0.938 1.251 0.021 257
0.933 1.244 0.018 419
0.933 1.244 0.013 586
0.932 1.243 0.009 795
0.932 1.243 0.004 1056
0.932 1.243 0.000 1107
0.927 1.236 -0.003 1362
0.927 1.236 -0.008 1620
0.926 1.235 -0.012 1617
0.926 1.235 -0.017 1614
0.926 1.235 -0.021 1453
0.926 1.234 -0.025 1293
0.925 1.234 -0.030 1293
0.925 1.233 -0.034 1765
1.419 1.871 1.806 3721
1.426 1.880 1.804 7535
1.432 1.889 1.802 8315
1.435 1.893 1.795 7190
1.419 1.871 1.765 6336
1.441 1.901 1.781 7637
1.444 1.904 1.775 9208
1.447 1.908 1.768 9208
1.450 1.912 1.761 9324
1.457 1.921 1.759 9448
1.456 1.919 1.747 11702
1.458 1.923 1.740 13965
1.465 1.932 1.738 13186
1.468 1.936 1.731 12439
1.479 1.950 1.733 9827
1.490 1.964 1.735 8402
1.544 2.036 1.784 8781
1.543 2.035 1.772 6903
1.582 2.086 1.804 5474
1.581 2.085 1.792 7158
1.584 2.089 1.785 9039
1.583 2.087 1.773 8584
1.586 2.091 1.765 8267
1.589 2.095 1.758 8291
1.595 2.104 1.755 8385
1.602 2.113 1.751 7192
1.642 2.165 1.781 8490
1.649 2.174 1.777 10054
1.652 2.178 1.770 11808
1.663 2.193 1.770 9006
1.678 2.213 1.774 7353
1.673 2.206 1.758 5496
1.659 2.188 1.734 5244
1.662 2.191 1.726 6062
1.665 2.195 1.718 6880
1.672 2.204 1.714 5572
1.732 2.284 1.762 6296
1.739 2.294 1.758 6059
1.738 2.292 1.745 4818
1.678 2.213 1.679 4240
1.744 2.299 1.729 7042
1.746 2.303 1.721 10500
1.749 2.307 1.712 11230
1.752 2.310 1.704 9270
1.801 2.375 1.738 7423
1.800 2.373 1.725 8831
1.798 2.371 1.713 10595
1.801 2.375 1.704 12564
1.804 2.378 1.696 16773
1.806 2.382 1.687 19014
1.813 2.391 1.682 19633
1.825 2.406 1.681 15309
1.840 2.426 1.683 12065
1.847 2.436 1.678 9402
1.879 2.479 1.695 9107
1.835 2.420 1.646 8968
1.838 2.424 1.638 7244
1.901 2.506 1.678 4073
1.903 2.510 1.669 4878
1.902 2.508 1.657 7634
1.904 2.511 1.648 11592
1.911 2.520 1.642 12884
1.914 2.524 1.633 10815
1.917 2.527 1.624 6015
2.105 2.776 1.760 5316
2.086 2.751 1.733 5182
2.076 2.738 1.714 4493
2.148 2.833 1.757 3800
2.177 2.871 1.766 3341
2.184 2.881 1.759 4952
2.192 2.890 1.752 6624
2.199 2.900 1.745 6895
2.175 2.869 1.715 7111
2.178 2.872 1.705 5485
2.220 2.928 1.723 4819
2.228 2.938 1.716 5633
2.283 3.011 1.743 6488
2.295 3.026 1.738 11950
2.293 3.024 1.724 18725
2.296 3.028 1.713 23818
2.303 3.037 1.705 25394
2.301 3.035 1.691 25380
2.309 3.044 1.683 25992
2.311 3.048 1.672 23827
2.310 3.046 1.658 16492
2.312 3.049 1.647 10748
2.319 3.059 1.639 7318
2.411 3.179 1.686 6643
2.414 3.183 1.674 8387
2.416 3.187 1.663 10893
2.419 3.190 1.651 12618
2.422 3.194 1.640 10296
2.429 3.203 1.631 6690
2.548 3.360 1.691 4575
2.542 3.352 1.674 5542
2.553 3.367 1.667 6617
2.561 3.377 1.658 6632
2.622 3.457 1.680 5817
2.634 3.473 1.673 9255
2.636 3.476 1.660 11257
2.634 3.474 1.645 12417
2.633 3.472 1.630 8661
2.717 3.582 1.664 8016
2.737 3.610 1.661 8415
2.740 3.613 1.648 8386
2.743 3.617 1.635 8700
2.750 3.626 1.624 7051
2.771 3.654 1.621 7108
2.782 3.669 1.612 5171
2.890 3.811 1.655 4175
2.901 3.826 1.646 3263
2.895 3.818 1.627 2547
2.884 3.803 1.606 3232
2.992 3.945 1.646 3894
2.999 3.955 1.634 3750
3.116 4.109 1.677 3362
3.123 4.119 1.664 1898
3.080 4.062 1.627 1749
3.129 4.126 1.634 2414
3.122 4.117 1.615 4804
3.125 4.121 1.600 6924
3.132 4.130 1.587 6409
3.139 4.139 1.574 5325
3.243 4.276 1.606 7164
3.250 4.286 1.592 9402
3.308 4.362 1.601 10791
3.311 4.366 1.586 13971
3.313 4.369 1.570 17202
3.316 4.372 1.554 16252
3.318 4.376 1.538 12088
3.321 4.379 1.522 10006
3.323 4.382 1.506 7715
3.688 4.863 1.639 4826
3.704 4.885 1.627 3155
3.707 4.888 1.609 2599
3.900 5.143 1.667 3128
3.907 5.153 1.650 3621
4.003 5.279 1.667 3084
4.011 5.289 1.650 2791
4.139 5.458 1.678 2209
4.142 5.462 1.658 2679
4.140 5.459 1.636 1962
4.259 5.617 1.658 2032
4.234 5.583 1.628 1954
4.536 5.982 1.712 2878
4.483 5.911 1.671 5115
4.490 5.921 1.651 5395
4.502 5.937 1.633 4083
4.589 6.052 1.639 3357
4.582 6.043 1.614 3733
4.740 6.251 1.641 5038
4.743 6.254 1.619 4065
4.750 6.264 1.597 3260
5.124 6.757 1.687 2501
5.127 6.761 1.663 1661
5.257 6.932 1.676 1800
5.292 6.979 1.660 2085
5.281 6.964 1.630 1867
5.486 7.235 1.662 1774
5.465 7.207 1.629 2254
5.534 7.298 1.620 2421
5.541 7.308 1.595 1705
6.040 7.965 1.697 1553
5.958 7.857 1.646 1600
6.131 8.085 1.660 2144
6.138 8.094 1.632 2011
6.363 8.391 1.656 2001
6.371 8.401 1.626 1879
6.150 8.111 1.545 1906
1.584 2.088 0.488 3549
1.584 2.089 0.480 6898
1.585 2.090 0.473 11047
1.585 2.091 0.465 14702
1.586 2.091 0.458 16766
1.586 2.092 0.450 16368
1.587 2.093 0.443 13575
1.588 2.094 0.435 9720
1.588 2.094 0.428 6023
1.589 2.095 0.420 3187
0.990 1.305 0.308 1798
0.990 1.306 0.303 2084
0.990 1.306 0.298 2389
0.991 1.306 0.294 2432
0.986 1.300 0.288 2017
0.982 1.294 0.283 1591
0.982 1.295 0.278 1633
0.987 1.301 0.274 1826
0.987 1.302 0.270 1956
0.987 1.302 0.265 1930
0.988 1.302 0.261 1532
0.916 1.208 0.247 974
0.916 1.208 0.243 1590
0.917 1.209 0.239 2193
0.921 1.215 0.235 2699
0.922 1.215 0.231 2904
0.922 1.216 0.226 2887
0.922 1.216 0.222 2835
0.922 1.216 0.218 2757
0.922 1.216 0.214 2782
0.927 1.223 0.210 2740
0.927 1.223 0.205 2432
0.927 1.223 0.201 2026
0.927 1.223 0.197 1625
0.932 1.229 0.193 1002
0.928 1.223 0.188 445
1.860 2.453 0.230 328
1.860 2.453 0.221 347
0.851 1.123 0.172 466
0.851 1.123 0.168 1013
0.851 1.123 0.164 1853
0.852 1.123 0.160 2608
0.852 1.123 0.156 4067
0.852 1.123 0.152 5220
0.852 1.123 0.148 6261
0.852 1.123 0.144 7911
0.852 1.123 0.140 8590
0.852 1.123 0.136 8835
0.852 1.123 0.132 8636
0.852 1.123 0.129 8249
0.852 1.123 0.125 7639
0.852 1.123 0.121 6974
0.851 1.123 0.117 6078
0.851 1.123 0.113 4991
0.851 1.123 0.109 3980
0.856 1.129 0.105 2340
0.851 1.123 0.101 1520
0.851 1.122 0.097 1033
0.856 1.129 0.093 562
0.856 1.129 0.089 350
2.327 3.068 -0.058 265
2.331 3.074 -0.069 302
2.331 3.073 -0.080 304
2.330 3.073 -0.091 309
2.330 3.072 -0.103 312
2.329 3.072 -0.114 253
0.940 1.239 0.026 278
0.940 1.239 0.022 402
0.939 1.239 0.018 627
0.939 1.239 0.013 853
0.939 1.238 0.009 1109
0.939 1.238 0.004 1434
0.939 1.238 0.000 1503
0.938 1.237 -0.004 1888
0.938 1.237 -0.009 2273
0.938 1.237 -0.013 2423
0.938 1.236 -0.017 2573
0.937 1.236 -0.022 2461
0.932 1.229 -0.025 2366
0.932 1.229 -0.030 2366
0.932 1.229 -0.034 3253
1.426 1.865 1.806 4085
1.433 1.874 1.804 8356
1.440 1.883 1.802 9259
1.443 1.887 1.795 8065
1.430 1.871 1.770 7366
1.449 1.895 1.781 8835
1.452 1.899 1.775 10798
1.454 1.902 1.768 10798
1.457 1.906 1.761 10734
1.464 1.915 1.759 10708
1.467 1.919 1.752 12228
1.470 1.923 1.745 13748
1.473 1.926 1.738 12103
1.476 1.930 1.731 10458
1.482 1.939 1.728 7847
1.549 2.027 1.791 8603
1.552 2.030 1.784 9582
1.551 2.029 1.772 7260
1.590 2.080 1.804 6007
1.589 2.079 1.792 7632
1.588 2.077 1.780 9379
1.591 2.081 1.773 9160
1.594 2.085 1.765 8941
1.597 2.089 1.758 8709
1.604 2.098 1.755 8517
1.607 2.101 1.747 7180
1.650 2.159 1.781 8025
1.653 2.162 1.773 9079
1.660 2.172 1.770 10235
1.667 2.181 1.766 7738
1.687 2.206 1.774 6370
1.669 2.183 1.746 5497
1.668 2.181 1.734 6227
1.670 2.185 1.726 6947
1.677 2.194 1.722 7864
1.680 2.198 1.714 6166
1.741 2.278 1.762 4937
1.748 2.287 1.758 4614
1.747 2.285 1.745 4541
1.729 2.261 1.718 5665
1.744 2.282 1.721 8547
1.751 2.291 1.717 12097
1.754 2.294 1.709 12583
1.761 2.303 1.704 10892
1.760 2.302 1.692 8523
1.805 2.360 1.721 7916
1.807 2.364 1.713 9304
1.810 2.368 1.704 10352
1.813 2.371 1.696 13888
1.816 2.375 1.687 16377
1.823 2.384 1.682 17285
1.834 2.399 1.681 14039
1.849 2.419 1.683 11091
1.874 2.451 1.693 8790
1.893 2.477 1.698 9301
1.901 2.486 1.693 8056
1.847 2.416 1.638 6369
1.906 2.493 1.675 5656
1.909 2.497 1.666 7063
1.916 2.506 1.660 9372
1.918 2.509 1.651 12446
1.921 2.513 1.642 13155
1.924 2.516 1.633 10881
1.926 2.520 1.624 5779
2.099 2.745 1.747 4625
2.106 2.754 1.740 5288
2.139 2.798 1.754 5801
2.155 2.819 1.753 5350
2.158 2.823 1.743 5186
2.169 2.838 1.740 6047
2.190 2.864 1.742 6674
2.188 2.862 1.729 8110
2.187 2.860 1.715 9529
2.190 2.864 1.705 7145
2.188 2.862 1.691 5514
2.274 2.975 1.741 6216
2.273 2.973 1.727 7056
2.307 3.017 1.738 9593
2.305 3.015 1.724 17170
2.308 3.019 1.713 22220
2.315 3.028 1.705 23006
2.313 3.026 1.691 22841
2.321 3.035 1.683 22826
2.323 3.039 1.672 20939
2.321 3.037 1.658 15236
2.324 3.040 1.647 9347
2.327 3.044 1.636 5875
2.423 3.170 1.686 6663
2.426 3.174 1.674 7826
2.429 3.177 1.663 8126
2.432 3.181 1.651 8234
2.448 3.202 1.648 7325
2.459 3.217 1.642 6333
2.566 3.356 1.694 4351
2.564 3.354 1.679 4750
2.567 3.357 1.667 6437
2.574 3.367 1.658 7011
2.690 3.518 1.712 6283
2.692 3.522 1.699 6753
2.650 3.466 1.660 8537
2.648 3.464 1.645 9574
2.705 3.538 1.664 7038
2.731 3.572 1.664 7648
2.752 3.599 1.661 6927
2.759 3.609 1.650 7123
2.757 3.606 1.635 7394
2.760 3.609 1.622 5579
2.822 3.691 1.641 5483
2.824 3.694 1.627 4688
2.818 3.686 1.609 5583
2.816 3.683 1.593 3599
3.034 3.968 1.691 1995
2.995 3.918 1.656 2903
3.012 3.939 1.648 4235
3.014 3.943 1.634 4498
3.132 4.097 1.677 4832
3.139 4.106 1.664 3815
3.142 4.110 1.649 4135
3.145 4.113 1.634 4604
3.143 4.111 1.617 7408
3.141 4.108 1.600 10105
3.148 4.118 1.587 7851
3.155 4.127 1.574 5662
3.269 4.276 1.610 6107
3.272 4.279 1.594 7480
3.279 4.289 1.581 8174
3.281 4.292 1.565 9780
3.330 4.356 1.570 12325
3.328 4.353 1.552 12100
3.335 4.363 1.538 8648
3.338 4.366 1.522 7077
3.713 4.857 1.660 6163
3.711 4.854 1.641 6237
3.723 4.870 1.627 4803
3.731 4.880 1.611 4536
3.729 4.877 1.591 3488
3.923 5.131 1.648 3471
4.029 5.270 1.669 3327
4.031 5.273 1.650 3575
4.147 5.424 1.672 2149
4.154 5.433 1.654 2468
4.157 5.437 1.634 1929
4.277 5.594 1.657 1853
4.261 5.573 1.630 1790
4.513 5.903 1.696 2840
4.511 5.900 1.673 5583
4.518 5.910 1.653 6228
4.521 5.913 1.631 4879
4.613 6.034 1.639 4103
