3.630 11.238 1.387 1806
3.633 11.248 1.354 1169
3.712 11.492 1.345 897
3.710 11.487 1.309 828
3.723 11.528 1.278 799
3.725 11.531 1.242 840
3.728 11.542 1.208 917
3.731 11.552 1.173 1132
3.735 11.563 1.139 1136
3.735 11.565 1.103 991
0.607 1.878 0.287 967
0.607 1.879 0.281 1660
0.609 1.887 0.276 2189
0.609 1.887 0.270 2941
0.610 1.887 0.265 3906
0.607 1.880 0.259 4370
0.610 1.888 0.254 4430
0.610 1.888 0.248 4000
0.610 1.889 0.242 2968
0.610 1.889 0.237 2107
3.221 9.971 0.634 1809
3.214 9.950 0.602 2384
3.212 9.943 0.571 2899
3.207 9.929 0.540 2303
3.205 9.923 0.510 1533
3.230 9.999 0.482 1382
3.225 9.985 0.451 1626
3.191 9.881 0.418 1888
3.192 9.881 0.388 2575
3.189 9.874 0.357 2425
3.190 9.875 0.327 2337
3.190 9.875 0.297 1905
3.187 9.868 0.267 1472
3.183 9.854 0.236 1563
3.183 9.854 0.206 1242
3.183 9.854 0.176 921
3.180 9.846 0.146 1059
3.180 9.846 0.116 1206
3.180 9.846 0.086 980
3.183 9.854 0.056 550
3.166 9.801 0.026 390
3.165 9.800 -0.003 349
0.912 2.825 0.090 630
0.915 2.832 0.082 1354
0.915 2.832 0.073 1843
0.915 2.832 0.065 2443
0.915 2.832 0.056 2981
0.912 2.824 0.048 3399
0.912 2.824 0.039 3821
0.912 2.823 0.031 3937
0.914 2.831 0.022 4094
0.912 2.823 0.014 3906
0.912 2.822 0.005 3759
0.911 2.822 -0.003 3342
0.911 2.822 -0.012 2925
0.911 2.821 -0.020 2446
0.911 2.821 -0.029 1967
0.911 2.820 -0.037 1641
0.908 2.812 -0.045 1331
0.908 2.812 -0.054 1168
0.910 2.819 -0.063 996
0.910 2.818 -0.071 918
0.912 2.825 -0.080 749
0.915 2.832 -0.089 663
0.912 2.824 -0.097 498
0.912 2.823 -0.106 332
0.359 1.111 0.039 268
0.359 1.111 0.036 320
0.359 1.110 0.033 385
0.359 1.110 0.030 416
0.358 1.110 0.026 441
0.358 1.109 0.023 449
0.361 1.117 0.019 351
0.363 1.124 0.015 273
0.370 1.146 0.009 353
0.370 1.145 0.006 661
0.704 2.159 1.750 4108
0.705 2.164 1.744 8217
0.707 2.168 1.737 8217
0.704 2.161 1.721 7740
0.702 2.153 1.706 7962
0.705 2.163 1.704 9843
0.709 2.174 1.702 11879
0.710 2.178 1.695 11879
0.740 2.269 1.752 12119
0.743 2.280 1.750 14802
0.747 2.290 1.747 14126
0.750 2.301 1.745 14425
0.756 2.318 1.747 10852
0.761 2.335 1.749 8797
0.771 2.364 1.759 7187
0.774 2.375 1.756 7154
0.774 2.373 1.745 7707
0.775 2.378 1.738 7573
0.779 2.389 1.735 7515
0.782 2.399 1.732 7003
0.784 2.404 1.725 6669
0.795 2.440 1.739 7512
0.803 2.463 1.744 11839
0.809 2.480 1.745 14148
0.812 2.491 1.742 17110
0.816 2.502 1.739 13589
0.819 2.513 1.735 10907
0.823 2.524 1.732 10284
0.826 2.535 1.728 9797
0.824 2.526 1.713 9254
0.823 2.524 1.701 9080
0.826 2.535 1.697 7538
0.828 2.539 1.690 6121
0.829 2.543 1.682 4813
0.879 2.697 1.766 3686
0.881 2.702 1.758 4643
0.882 2.706 1.750 4620
0.858 2.632 1.695 4882
0.860 2.637 1.687 5304
0.884 2.713 1.722 6977
0.888 2.724 1.717 7771
0.898 2.755 1.725 9679
0.904 2.772 1.724 10054
0.903 2.770 1.712 14870
0.902 2.768 1.700 19713
0.901 2.765 1.687 17276
0.903 2.770 1.679 14985
0.904 2.774 1.671 14947
0.903 2.772 1.659 12683
0.903 2.769 1.647 10768
0.924 2.833 1.671 8900
0.979 3.004 1.754 7857
0.981 3.009 1.745 10194
0.982 3.013 1.736 11221
0.984 3.018 1.727 10905
0.983 3.015 1.714 9098
0.987 3.027 1.709 6156
0.999 3.065 1.717 7676
0.996 3.055 1.701 10147
0.995 3.053 1.688 11109
0.999 3.064 1.682 12068
1.036 3.177 1.728 14659
1.039 3.188 1.722 14457
1.043 3.199 1.716 11818
1.047 3.210 1.710 11970
1.050 3.221 1.703 15404
1.052 3.226 1.693 18095
1.055 3.237 1.687 18337
1.059 3.248 1.681 13509
1.062 3.259 1.674 11822
1.086 3.332 1.697 10257
1.088 3.336 1.687 7559
1.089 3.341 1.677 5502
1.088 3.338 1.663 7139
1.087 3.335 1.650 8522
1.091 3.346 1.643 7667
1.144 3.510 1.705 5864
1.118 3.431 1.657 10838
1.120 3.435 1.647 13003
1.121 3.439 1.636 8965
1.154 3.541 1.668 6067
1.158 3.552 1.661 5822
1.161 3.563 1.653 5937
1.167 3.581 1.648 6572
1.198 3.676 1.676 5298
1.200 3.680 1.665 8535
1.201 3.684 1.654 8244
1.193 3.661 1.631 7817
1.195 3.665 1.620 7325
1.196 3.669 1.609 5441
1.250 3.835 1.663 4570
1.245 3.818 1.643 4306
1.276 3.913 1.667 4009
1.277 3.918 1.655 7755
1.281 3.929 1.646 7603
1.287 3.947 1.640 5412
1.288 3.951 1.628 4987
1.319 4.048 1.651 5777
1.328 4.073 1.646 5231
1.334 4.091 1.639 4566
1.342 4.117 1.635 6666
1.346 4.128 1.625 6922
1.349 4.139 1.615 3364
1.413 4.336 1.671 3427
1.410 4.326 1.653 3898
1.388 4.258 1.615 4626
1.425 4.370 1.639 5935
1.428 4.381 1.628 4783
1.444 4.428 1.630 3399
1.454 4.461 1.626 2784
1.465 4.494 1.622 3914
1.473 4.519 1.615 6600
1.472 4.516 1.599 7856
1.474 4.520 1.585 10370
1.477 4.532 1.574 9911
1.479 4.535 1.560 6369
1.480 4.539 1.547 5326
1.479 4.536 1.530 4386
1.555 4.771 1.588 3205
1.604 4.920 1.617 3236
1.603 4.917 1.600 3999
1.606 4.928 1.587 5508
1.605 4.925 1.570 6258
1.623 4.979 1.570 8524
1.622 4.976 1.553 11714
1.616 4.958 1.531 9479
1.613 4.947 1.512 10257
1.614 4.951 1.497 15907
1.615 4.955 1.482 18161
1.619 4.966 1.469 14203
1.622 4.977 1.456 6861
1.804 5.535 1.587 3929
1.796 5.510 1.563 3868
1.793 5.499 1.542 3411
1.806 5.540 1.535 3574
1.812 5.558 1.522 4502
1.820 5.584 1.510 4723
1.824 5.595 1.495 7293
1.825 5.599 1.478 9811
1.829 5.610 1.463 8262
1.830 5.614 1.445 5172
1.929 5.919 1.498 3196
2.000 6.136 1.529 3391
2.001 6.140 1.510 3517
2.008 6.158 1.495 3838
2.102 6.449 1.539 3566
2.104 6.453 1.519 5290
2.105 6.457 1.500 6707
2.109 6.468 1.481 6271
2.112 6.479 1.463 8014
2.113 6.483 1.443 8118
2.112 6.479 1.422 3969
2.367 7.259 1.555 3711
2.365 7.256 1.532 4873
2.364 7.252 1.508 5367
2.370 7.271 1.489 4871
2.374 7.282 1.468 4122
0.631 1.937 0.480 3122
0.632 1.938 0.474 2840
0.632 1.939 0.468 1926
2.580 7.913 1.484 1683
2.663 8.169 1.503 1839
2.686 8.240 1.489 1728
2.835 8.698 1.537 2165
2.861 8.776 1.522 2172
2.860 8.772 1.494 2014
2.854 8.754 1.464 1919
2.860 8.772 1.440 2366
2.861 8.776 1.413 3087
3.314 10.166 1.584 2840
3.313 10.163 1.552 2796
3.168 9.719 1.460 3460
3.169 9.723 1.430 3200
3.171 9.726 1.400 2022
3.398 10.425 1.459 2341
3.399 10.428 1.427 2126
3.659 11.224 1.491 1316
3.658 11.221 1.456 1960
3.657 11.217 1.421 2296
3.660 11.228 1.387 1909
3.664 11.239 1.354 1279
3.665 11.242 1.320 830
3.751 11.507 1.312 788
3.755 11.518 1.278 954
3.756 11.521 1.242 953
3.759 11.532 1.208 983
3.763 11.542 1.173 1190
3.766 11.552 1.139 1235
3.767 11.555 1.103 1109
0.609 1.869 0.286 979
0.609 1.869 0.281 1458
0.612 1.877 0.275 1834
0.612 1.878 0.270 2468
0.612 1.878 0.264 3353
0.612 1.878 0.259 3848
0.612 1.879 0.253 3899
0.613 1.879 0.247 3522
0.613 1.879 0.242 2610
0.613 1.880 0.236 1866
0.613 1.880 0.231 1391
3.243 9.948 0.602 1429
3.239 9.935 0.571 1652
3.234 9.921 0.540 1466
3.232 9.914 0.510 1126
3.259 9.998 0.482 986
3.250 9.969 0.451 1128
3.218 9.872 0.418 1692
3.218 9.873 0.388 2313
3.216 9.866 0.357 2312
3.216 9.866 0.327 2379
3.214 9.859 0.297 1847
3.207 9.837 0.266 1368
3.202 9.822 0.236 1493
3.205 9.830 0.206 1310
3.209 9.845 0.176 1177
3.207 9.838 0.146 1343
3.207 9.838 0.116 1514
3.207 9.838 0.086 1224
3.209 9.845 0.056 713
3.192 9.792 0.026 629
3.192 9.792 -0.003 560
3.192 9.791 -0.033 490
3.192 9.791 -0.063 342
0.922 2.830 0.073 287
0.920 2.822 0.065 407
0.920 2.822 0.056 520
0.920 2.821 0.048 642
0.920 2.821 0.039 763
0.920 2.821 0.031 893
0.919 2.821 0.022 1024
0.919 2.820 0.014 1155
0.919 2.820 0.005 1286
0.919 2.819 -0.003 1342
0.919 2.819 -0.012 1398
0.919 2.819 -0.020 1367
0.919 2.818 -0.029 1336
0.919 2.818 -0.037 1232
0.918 2.817 -0.046 1129
0.918 2.817 -0.054 971
0.920 2.824 -0.063 802
0.920 2.823 -0.072 707
0.920 2.822 -0.080 543
0.922 2.829 -0.089 499
0.922 2.829 -0.098 375
0.919 2.820 -0.106 255
0.362 1.110 0.036 266
0.362 1.109 0.033 344
0.359 1.102 0.030 357
0.359 1.101 0.027 419
0.359 1.101 0.024 484
0.359 1.101 0.021 477
0.361 1.108 0.017 474
0.363 1.115 0.012 547
0.371 1.137 0.006 869
0.703 2.126 1.727 4288
0.704 2.131 1.720 8576
0.706 2.135 1.714 8576
0.705 2.133 1.703 8989
0.706 2.138 1.697 9420
0.712 2.154 1.699 11104
0.715 2.165 1.697 13430
0.717 2.169 1.691 13430
0.749 2.266 1.752 11678
0.752 2.277 1.750 14074
0.756 2.287 1.747 13857
0.759 2.298 1.745 14275
0.763 2.309 1.742 10321
0.777 2.350 1.762 8784
0.780 2.361 1.759 8001
0.784 2.372 1.756 7930
0.783 2.370 1.745 8287
0.785 2.375 1.738 7715
0.786 2.379 1.731 7163
0.792 2.396 1.732 6666
0.793 2.400 1.725 6466
0.809 2.449 1.747 8151
0.813 2.460 1.744 13025
0.819 2.477 1.745 15422
0.822 2.488 1.742 18558
0.826 2.499 1.739 14291
0.829 2.510 1.735 10868
0.833 2.520 1.732 10000
0.834 2.525 1.724 9178
0.832 2.516 1.708 9295
0.833 2.521 1.701 9901
0.837 2.532 1.697 8641
0.840 2.542 1.694 7871
0.842 2.547 1.686 5786
0.875 2.648 1.738 4265
0.890 2.692 1.754 4855
0.891 2.696 1.746 5295
0.893 2.701 1.738 4164
0.896 2.711 1.734 4417
0.900 2.722 1.729 4825
0.912 2.760 1.741 7065
0.916 2.771 1.736 10458
0.924 2.795 1.739 10347
0.916 2.773 1.716 12762
0.913 2.764 1.700 16410
0.913 2.762 1.687 14215
0.914 2.766 1.679 12057
0.916 2.770 1.671 12183
0.921 2.788 1.670 10481
0.938 2.838 1.687 10665
0.937 2.836 1.675 8989
0.992 3.000 1.754 8607
0.993 3.005 1.745 11012
0.997 3.016 1.740 12102
0.998 3.020 1.730 11302
0.997 3.018 1.718 8782
1.008 3.049 1.723 6447
1.011 3.060 1.717 9003
1.013 3.065 1.708 10281
1.012 3.062 1.695 10653
1.016 3.073 1.689 12157
1.017 3.078 1.680 13387
1.050 3.177 1.719 13117
1.056 3.195 1.716 11961
1.062 3.213 1.713 14823
1.066 3.224 1.707 20050
1.067 3.228 1.697 22834
1.068 3.233 1.687 23408
1.070 3.237 1.677 19196
1.076 3.255 1.674 17992
1.073 3.245 1.658 15583
1.074 3.250 1.648 11673
1.112 3.364 1.689 8455
1.102 3.333 1.663 8443
1.103 3.338 1.653 9858
1.104 3.342 1.643 8645
1.133 3.429 1.671 7180
1.135 3.433 1.660 11492
1.134 3.430 1.647 12105
1.135 3.435 1.636 8668
1.171 3.543 1.672 5314
1.172 3.547 1.661 4993
1.176 3.558 1.653 5308
1.180 3.569 1.645 5699
1.213 3.671 1.676 5021
1.215 3.675 1.665 7638
1.230 3.721 1.671 7316
1.234 3.733 1.663 5024
1.212 3.667 1.623 4041
1.213 3.671 1.611 3179
1.266 3.829 1.663 5591
1.262 3.820 1.645 4769
1.289 3.901 1.664 4623
1.293 3.912 1.655 8601
1.297 3.924 1.646 8188
1.305 3.949 1.642 5769
1.304 3.946 1.628 5486
1.336 4.042 1.651 7908
1.342 4.060 1.644 6936
1.341 4.058 1.629 4513
1.359 4.111 1.635 3551
1.365 4.130 1.627 5384
1.366 4.134 1.615 4521
1.365 4.131 1.600 4014
1.364 4.128 1.585 5794
1.365 4.132 1.572 5601
1.445 4.371 1.641 4565
1.451 4.390 1.633 4356
1.459 4.415 1.627 3576
1.439 4.355 1.592 2541
1.441 4.359 1.579 2114
1.494 4.521 1.618 3057
1.493 4.517 1.602 4855
1.494 4.521 1.588 7000
1.496 4.525 1.574 6868
1.495 4.522 1.558 4560
1.565 4.735 1.610 5268
1.566 4.739 1.595 4969
1.568 4.743 1.581 3374
1.571 4.754 1.569 2706
1.632 4.939 1.609 3817
1.634 4.943 1.594 4478
1.630 4.933 1.574 4827
1.641 4.965 1.568 9187
1.640 4.962 1.551 14232
1.641 4.966 1.535 12278
1.643 4.970 1.520 8935
1.634 4.945 1.497 10682
1.635 4.948 1.482 12343
1.639 4.959 1.469 9234
1.645 4.978 1.458 5538
1.822 5.513 1.583 3683
1.811 5.481 1.557 4419
1.815 5.492 1.542 4289
1.826 5.525 1.533 5995
1.830 5.536 1.518 6304
1.841 5.569 1.508 4798
1.847 5.588 1.495 6949
1.848 5.592 1.478 9305
1.852 5.603 1.463 7961
1.853 5.606 1.445 5330
1.954 5.911 1.498 3700
2.023 6.120 1.527 2577
2.026 6.131 1.510 3171
2.033 6.150 1.495 4286
2.029 6.139 1.473 3667
2.132 6.452 1.521 4165
2.136 6.463 1.503 5292
2.140 6.474 1.485 4821
2.141 6.478 1.465 6094
2.140 6.474 1.443 6533
2.141 6.478 1.424 3033
2.398 7.257 1.557 3516
2.395 7.246 1.532 4413
2.394 7.243 1.508 5008
2.400 7.261 1.489 5047
2.406 7.280 1.469 4885
2.412 7.298 1.450 3233
2.418 7.317 1.430 2266
2.603 7.876 1.505 1860
2.715 8.214 1.538 1945
2.718 8.225 1.514 2265
2.720 8.229 1.489 2044
2.834 8.574 1.519 1764
2.894 8.757 1.521 2024
2.895 8.760 1.494 2079
2.897 8.764 1.468 2167
2.895 8.760 1.440 2531
2.896 8.764 1.413 2819
2.895 8.760 1.385 2164
3.207 9.702 1.490 2598
3.208 9.706 1.460 3278
3.209 9.710 1.430 3049
3.442 10.414 1.492 1871
3.443 10.418 1.460 2303
3.442 10.414 1.427 1978
3.702 11.202 1.490 1548
3.701 11.198 1.455 1781
3.702 11.202 1.421 2064
3.706 11.213 1.387 1698
3.709 11.224 1.354 1201
3.713 11.234 1.320 832
3.801 11.499 1.313 887
3.802 11.503 1.278 1176
3.803 11.506 1.242 1202
3.804 11.509 1.207 1102
3.810 11.527 1.173 1127
3.813 11.537 1.139 1137
3.814 11.540 1.103 1015
0.617 1.867 0.286 1459
0.617 1.867 0.281 2160
0.620 1.875 0.275 2680
0.620 1.875 0.270 3414
0.620 1.876 0.264 4263
0.620 1.876 0.259 4559
0.620 1.876 0.253 4494
0.620 1.877 0.247 3989
0.620 1.877 0.242 2903
0.620 1.877 0.236 2088
0.620 1.877 0.231 1603
0.621 1.878 0.225 1000
3.281 9.929 0.572 969
3.279 9.923 0.541 747
3.272 9.901 0.510 583
3.302 9.992 0.483 581
3.261 9.865 0.448 667
3.258 9.859 0.418 1510
3.259 9.859 0.388 2015
3.256 9.853 0.357 2089
3.256 9.853 0.327 2230
3.254 9.846 0.297 1779
3.239 9.801 0.266 1629
3.239 9.802 0.236 1868
3.242 9.809 0.206 1692
3.247 9.825 0.176 1556
3.247 9.825 0.146 1696
3.247 9.825 0.116 1835
3.247 9.825 0.086 1487
3.244 9.817 0.056 864
3.227 9.764 0.027 820
3.229 9.771 -0.003 718
3.229 9.771 -0.033 622
3.219 9.740 -0.063 489
3.214 9.724 -0.092 515
0.934 2.826 0.065 766
0.931 2.818 0.056 1024
0.931 2.818 0.048 1336
0.931 2.817 0.039 1647
0.931 2.817 0.031 1919
0.933 2.824 0.022 2192
0.931 2.816 0.014 2412
0.931 2.816 0.005 2633
0.931 2.816 -0.003 2696
0.930 2.815 -0.012 2759
0.930 2.815 -0.020 2640
0.930 2.814 -0.029 2521
0.930 2.814 -0.037 2284
0.930 2.813 -0.046 2047
0.930 2.813 -0.054 1750
0.929 2.812 -0.063 1449
0.932 2.819 -0.072 1290
0.932 2.819 -0.080 1012
0.934 2.826 -0.089 912
0.934 2.825 -0.098 683
0.931 2.817 -0.106 465
0.931 2.816 -0.114 301
0.368 1.115 0.026 251
0.366 1.107 0.023 322
0.366 1.107 0.020 332
0.366 1.106 0.017 342
0.366 1.106 0.013 300
0.370 1.120 0.008 349
0.709 2.117 1.722 4689
0.711 2.122 1.716 9379
0.712 2.126 1.709 9379
0.714 2.130 1.703 9650
0.715 2.135 1.697 9921
0.721 2.151 1.699 11333
0.724 2.162 1.697 13532
0.726 2.166 1.691 13532
0.727 2.170 1.684 11651
0.762 2.273 1.750 12919
0.765 2.284 1.747 13105
0.767 2.289 1.740 13644
0.770 2.299 1.738 9760
0.788 2.354 1.766 8877
0.792 2.364 1.763 8321
0.794 2.369 1.756 8183
0.793 2.367 1.745 8322
0.794 2.371 1.738 7409
0.796 2.376 1.731 6478
0.800 2.387 1.728 5952
0.805 2.404 1.729 5860
0.819 2.446 1.747 8249
0.823 2.457 1.744 13269
0.829 2.474 1.745 15635
0.832 2.485 1.742 18725
0.836 2.495 1.739 14137
0.842 2.513 1.739 10347
0.843 2.517 1.732 9209
0.845 2.521 1.724 8072
0.842 2.513 1.708 8745
0.843 2.517 1.701 9755
0.847 2.528 1.697 8787
0.851 2.539 1.694 8499
0.854 2.550 1.690 6206
0.882 2.632 1.730 4495
0.890 2.656 1.734 4669
0.900 2.686 1.742 5689
0.895 2.671 1.722 5370
0.896 2.675 1.714 4718
0.889 2.653 1.690 4258
0.925 2.762 1.744 6980
0.927 2.767 1.736 10255
0.935 2.791 1.739 9994
0.928 2.769 1.716 10162
0.923 2.754 1.696 12450
0.924 2.758 1.687 10745
0.928 2.769 1.683 9041
0.929 2.773 1.674 9651
0.948 2.830 1.696 10381
0.950 2.835 1.687 10428
0.949 2.832 1.675 8665
1.006 3.003 1.758 8853
1.008 3.007 1.749 11025
1.009 3.012 1.740 11986
1.011 3.016 1.730 10860
1.012 3.021 1.721 8122
1.020 3.045 1.723 7086
1.026 3.063 1.721 9634
1.025 3.061 1.708 10269
1.027 3.065 1.699 10444
1.028 3.069 1.689 11906
1.030 3.074 1.680 13194
1.063 3.173 1.719 11511
1.069 3.190 1.716 11472
1.075 3.208 1.713 16926
1.079 3.220 1.707 23388
1.080 3.224 1.697 25983
1.082 3.228 1.687 27060
1.083 3.232 1.677 24326
1.087 3.244 1.671 23751
1.086 3.241 1.658 21000
1.087 3.245 1.648 16866
1.091 3.256 1.641 11958
1.115 3.329 1.663 8492
1.117 3.333 1.653 9720
1.118 3.337 1.643 8272
1.147 3.424 1.671 7680
1.149 3.428 1.660 10537
1.148 3.426 1.647 9891
1.151 3.437 1.639 7585
1.188 3.545 1.675 5225
1.189 3.549 1.664 4768
1.190 3.553 1.653 4870
1.192 3.558 1.642 5112
1.205 3.596 1.646 5333
1.230 3.670 1.665 6090
1.250 3.730 1.677 6097
1.251 3.735 1.666 4651
1.253 3.739 1.654 3741
1.287 3.841 1.683 3827
1.284 3.831 1.665 6551
1.287 3.842 1.657 5533
1.296 3.868 1.653 4491
1.309 3.907 1.655 8833
1.320 3.939 1.654 8767
1.324 3.951 1.645 6928
1.327 3.962 1.636 6793
1.352 4.037 1.651 9067
1.358 4.055 1.644 7919
1.365 4.073 1.637 4818
1.328 3.964 1.582 3139
1.382 4.124 1.627 4833
1.381 4.121 1.612 6418
1.380 4.118 1.597 6283
1.381 4.122 1.585 8501
1.380 4.119 1.570 8866
1.379 4.116 1.555 6519
1.383 4.127 1.545 4316
1.480 4.416 1.630 4091
1.457 4.349 1.592 3510
1.458 4.353 1.579 2566
1.544 4.608 1.648 2255
1.528 4.561 1.618 3005
1.544 4.609 1.618 5012
1.548 4.620 1.606 4662
1.552 4.631 1.595 3504
1.584 4.729 1.610 5069
1.583 4.725 1.593 5363
1.584 4.729 1.579 3527
1.588 4.741 1.567 2312
1.652 4.932 1.609 3461
1.656 4.944 1.596 5068
1.658 4.948 1.581 5355
1.659 4.952 1.566 8576
1.660 4.955 1.551 13322
1.661 4.959 1.535 11350
1.665 4.970 1.522 7479
1.657 4.945 1.499 6258
1.653 4.934 1.480 6600
1.662 4.960 1.471 4744
1.785 5.327 1.553 4612
1.828 5.455 1.570 4066
1.831 5.466 1.555 4962
1.835 5.477 1.540 4792
1.849 5.518 1.533 6945
1.852 5.529 1.518 6856
1.856 5.540 1.503 4218
1.867 5.573 1.493 5300
1.871 5.584 1.478 6747
1.874 5.595 1.463 5963
1.873 5.591 1.444 4307
1.975 5.896 1.496 3644
1.979 5.907 1.480 2499
2.083 6.219 1.532 2869
2.055 6.134 1.493 3991
2.054 6.131 1.473 4095
2.053 6.127 1.452 3144
2.167 6.469 1.506 4324
2.169 6.473 1.486 4303
2.167 6.469 1.465 4713
2.169 6.473 1.445 4795
2.382 7.111 1.552 2826
2.386 7.122 1.532 4625
2.387 7.126 1.510 6045
2.393 7.144 1.491 5853
2.395 7.148 1.469 5305
2.438 7.277 1.471 4792
2.444 7.296 1.451 3337
2.396 7.151 1.402 2343
2.635 7.866 1.505 2075
2.751 8.210 1.539 2147
2.752 8.214 1.514 2429
2.753 8.218 1.489 2115
2.754 8.222 1.464 1564
2.930 8.745 1.521 1750
3.125 9.328 1.585 1912
3.256 9.718 1.615 2197
3.255 9.715 1.584 2675
2.932 8.752 1.413 2175
3.250 9.700 1.521 1757
3.249 9.697 1.491 2435
3.247 9.693 1.460 3034
3.249 9.696 1.430 2809
3.489 10.415 1.494 1986
3.486 10.404 1.460 2211
3.751 11.198 1.527 1934
3.748 11.187 1.490 1592
3.744 11.175 1.454 1546
3.743 11.172 1.419 1706
3.751 11.197 1.387 1335
3.763 11.231 1.356 992
4.552 13.587 1.571 899
4.553 13.591 1.529 988
4.554 13.595 1.487 1113
4.558 13.606 1.446 1199
4.559 13.609 1.405 1141
3.856 11.511 1.173 935
3.857 11.514 1.138 899
0.627 1.871 0.292 877
0.624 1.864 0.286 1296
0.625 1.864 0.281 1572
0.625 1.865 0.275 1710
0.625 1.865 0.269 1904
0.625 1.866 0.264 2234
0.628 1.873 0.259 2531
0.628 1.874 0.253 2607
0.628 1.874 0.247 2330
0.628 1.874 0.242 1727
0.628 1.875 0.236 1302
0.628 1.875 0.231 1054
0.628 1.875 0.225 715
0.631 1.883 0.220 424
3.322 9.917 0.541 358
3.313 9.888 0.510 376
3.315 9.896 0.480 383
3.301 9.852 0.448 469
3.298 9.845 0.418 1105
3.299 9.846 0.388 1509
3.296 9.839 0.357 1701
3.297 9.840 0.327 1939
3.294 9.833 0.297 1588
3.279 9.788 0.266 1573
3.279 9.788 0.236 1822
3.279 9.789 0.206 1657
3.279 9.789 0.176 1492
3.287 9.811 0.146 1586
3.287 9.811 0.116 1730
3.287 9.811 0.086 1463
3.282 9.796 0.056 970
3.264 9.743 0.027 1082
3.269 9.758 -0.003 963
3.269 9.757 -0.033 875
3.259 9.727 -0.063 679
3.253 9.711 -0.092 712
0.943 2.814 0.065 1065
0.943 2.814 0.056 1420
0.943 2.814 0.048 1833
0.943 2.814 0.039 2246
0.943 2.813 0.031 2584
0.942 2.813 0.022 2923
0.942 2.813 0.014 3155
0.942 2.812 0.005 3387
0.942 2.812 -0.003 3398
0.942 2.811 -0.012 3409
0.942 2.811 -0.020 3186
0.942 2.811 -0.029 2963
0.941 2.810 -0.037 2576
0.941 2.810 -0.046 2188
0.941 2.809 -0.054 1785
0.941 2.809 -0.063 1382
0.943 2.815 -0.072 1191
0.943 2.815 -0.080 886
0.943 2.814 -0.089 773
0.943 2.814 -0.097 547
0.942 2.813 -0.106 321
1.082 3.231 -0.153 281
1.082 3.230 -0.163 317
0.368 1.098 0.021 299
0.370 1.105 0.017 368
0.368 1.097 0.014 365
0.367 1.097 0.011 489
0.713 2.109 1.717 4903
0.714 2.114 1.711 9807
0.716 2.118 1.705 9807
0.719 2.128 1.703 9884
0.721 2.133 1.697 10028
0.726 2.149 1.699 11228
0.730 2.160 1.697 13256
0.731 2.164 1.691 13256
0.733 2.168 1.684 11292
0.768 2.271 1.750 11477
0.769 2.276 1.743 12303
0.773 2.287 1.740 13297
0.774 2.291 1.733 9634
0.795 2.351 1.766 8713
0.798 2.362 1.763 8396
0.800 2.367 1.756 8047
0.799 2.365 1.745 7901
0.801 2.369 1.738 6698
0.802 2.374 1.731 5455
0.806 2.384 1.728 5015
0.812 2.401 1.729 5067
0.826 2.444 1.747 8015
0.832 2.461 1.748 13002
0.835 2.472 1.745 15307
0.839 2.482 1.742 18263
0.843 2.493 1.739 13595
0.848 2.510 1.739 9692
0.850 2.515 1.732 8412
0.851 2.519 1.724 7132
0.851 2.517 1.713 8207
0.850 2.515 1.701 9483
0.856 2.532 1.701 8814
0.859 2.543 1.698 8956
0.861 2.547 1.690 6557
0.886 2.623 1.726 4195
0.877 2.595 1.699 4344
0.903 2.671 1.734 6137
0.900 2.662 1.718 7417
0.901 2.666 1.710 6708
0.905 2.677 1.706 6010
0.937 2.773 1.752 6280
0.936 2.771 1.740 9158
0.942 2.788 1.739 8812
0.946 2.799 1.735 7239
0.930 2.751 1.696 7843
0.933 2.762 1.691 7011
0.935 2.766 1.683 6272
0.947 2.804 1.693 7911
0.956 2.828 1.696 10391
0.957 2.832 1.687 10128
0.956 2.830 1.675 8140
1.014 3.000 1.758 8591
1.015 3.005 1.749 10477
1.017 3.009 1.740 11181
1.018 3.014 1.730 9795
1.020 3.018 1.721 7118
1.035 3.063 1.733 7481
1.032 3.054 1.717 9696
1.033 3.058 1.708 9977
1.035 3.062 1.699 10066
1.036 3.067 1.689 11389
1.038 3.071 1.680 12622
1.042 3.082 1.674 9127
1.077 3.188 1.716 10550
1.083 3.206 1.713 18538
1.087 3.217 1.707 25440
1.089 3.221 1.697 27676
1.090 3.225 1.687 30032
1.091 3.230 1.677 29685
1.095 3.241 1.671 29655
1.094 3.238 1.658 26832
1.096 3.242 1.648 23126
1.099 3.253 1.641 18406
1.101 3.257 1.631 12743
1.100 3.255 1.618 10889
1.101 3.259 1.608 10162
1.105 3.270 1.602 8721
1.158 3.425 1.660 8225
1.159 3.430 1.650 6782
1.158 3.427 1.636 6039
1.199 3.549 1.678 5502
1.198 3.546 1.664 4749
1.197 3.543 1.650 4326
1.201 3.554 1.642 4687
1.212 3.586 1.643 6861
1.216 3.597 1.635 7976
1.217 3.602 1.624 6241
1.266 3.745 1.671 4610
1.267 3.749 1.660 4475
1.271 3.761 1.651 5222
1.294 3.828 1.665 7273
1.293 3.825 1.651 7101
1.299 3.843 1.645 5095
1.322 3.911 1.658 9139
1.333 3.943 1.657 9675
1.336 3.954 1.648 8652
1.338 3.958 1.636 8986
1.339 3.962 1.624 9723
1.336 3.952 1.606 8837
1.339 3.964 1.597 7465
1.343 3.975 1.588 5376
1.388 4.106 1.622 6910
1.389 4.110 1.610 9364
1.390 4.114 1.597 8888
1.389 4.111 1.582 11506
1.391 4.115 1.570 13283
1.390 4.112 1.555 10648
1.391 4.116 1.542 6975
1.489 4.405 1.627 4497
1.519 4.495 1.643 3125
1.520 4.499 1.629 3518
1.524 4.510 1.618 3765
1.530 4.529 1.609 3333
1.559 4.612 1.620 5428
1.560 4.616 1.606 4353
1.593 4.713 1.622 2617
1.597 4.724 1.610 4459
1.596 4.721 1.593 5495
1.592 4.711 1.574 3823
1.591 4.708 1.558 2392
1.663 4.921 1.606 3086
1.667 4.932 1.594 5034
1.671 4.943 1.581 5289
1.672 4.947 1.566 6442
1.673 4.951 1.551 9145
1.675 4.955 1.535 7588
1.678 4.966 1.522 4701
1.675 4.955 1.503 3903
1.789 5.293 1.580 4300
1.795 5.311 1.568 5280
1.799 5.323 1.553 4882
1.835 5.428 1.564 4513
1.836 5.432 1.547 5394
1.845 5.458 1.537 4765
1.863 5.513 1.533 6634
1.864 5.517 1.516 6146
1.866 5.521 1.499 3437
1.857 5.495 1.475 3623
1.883 5.572 1.476 3749
1.884 5.575 1.459 3598
2.054 6.077 1.559 2799
1.986 5.876 1.493 3408
2.049 6.063 1.517 3289
2.053 6.074 1.500 4001
2.101 6.217 1.513 3908
2.070 6.125 1.473 4188
2.069 6.122 1.452 4034
2.184 6.463 1.506 3477
2.186 6.467 1.486 3831
2.189 6.478 1.468 3586
2.380 7.041 1.562 3229
2.401 7.104 1.552 3799
2.405 7.116 1.532 6210
2.406 7.119 1.510 7818
2.410 7.131 1.490 7346
2.413 7.142 1.469 6558
2.412 7.138 1.446 5973
2.413 7.141 1.424 4519
2.415 7.145 1.402 3281
2.593 7.674 1.472 2658
2.607 7.714 1.455 2313
2.773 8.207 1.514 2395
2.775 8.211 1.489 1985
2.831 8.377 1.490 1833
3.146 9.308 1.612 1493
3.147 9.312 1.583 2115
3.078 9.108 1.523 2394
3.280 9.706 1.584 2696
3.276 9.695 1.552 2045
3.464 10.249 1.601 1884
3.272 9.681 1.490 2235
3.273 9.684 1.460 2760
3.274 9.688 1.430 2538
3.517 10.406 1.494 1862
3.515 10.402 1.461 1909
3.781 11.188 1.527 1913
3.775 11.169 1.489 1511
3.766 11.143 1.452 1428
3.767 11.147 1.417 1434
3.768 11.150 1.383 1021
4.586 13.571 1.612 963
4.588 13.575 1.571 1084
4.589 13.579 1.529 1196
4.593 13.590 1.488 1323
4.594 13.594 1.446 1404
4.595 13.597 1.405 1329
4.594 13.593 1.362 1056
4.595 13.597 1.320 680
0.632 1.869 0.292 887
0.632 1.870 0.287 1539
0.632 1.870 0.281 2178
0.632 1.871 0.275 2624
0.632 1.871 0.270 3140
0.632 1.871 0.264 3559
0.633 1.872 0.259 3452
0.633 1.872 0.253 3225
0.633 1.872 0.247 2707
0.633 1.873 0.242 1741
0.633 1.873 0.236 1114
0.633 1.873 0.231 796
0.633 1.873 0.225 439
4.256 12.593 0.573 263
4.256 12.595 0.535 292
3.324 9.837 0.418 739
3.325 9.837 0.388 1038
3.322 9.830 0.357 1303
3.320 9.824 0.327 1589
3.317 9.817 0.297 1382
3.305 9.779 0.266 1463
3.302 9.772 0.236 1688
3.303 9.772 0.206 1598
3.305 9.780 0.176 1508
3.308 9.788 0.146 1441
3.313 9.803 0.116 1548
3.310 9.795 0.086 1377
3.305 9.780 0.056 952
3.287 9.727 0.027 1118
3.287 9.727 -0.003 948
3.297 9.756 -0.033 857
3.282 9.711 -0.062 863
3.279 9.703 -0.092 1001
3.276 9.694 -0.121 852
3.273 9.686 -0.151 745
3.276 9.693 -0.181 760
3.280 9.707 -0.211 805
3.275 9.691 -0.240 832
3.272 9.682 -0.270 917
0.952 2.818 0.013 962
0.952 2.817 0.005 1094
0.952 2.817 -0.004 1212
0.952 2.816 -0.012 1330
0.952 2.816 -0.021 1401
0.952 2.816 -0.029 1472
0.951 2.815 -0.038 1431
0.951 2.815 -0.046 1391
0.951 2.814 -0.055 1233
0.951 2.814 -0.063 1071
0.953 2.820 -0.072 926
0.953 2.820 -0.081 729
0.955 2.827 -0.090 686
0.955 2.826 -0.098 511
1.091 3.229 -0.143 443
1.091 3.228 -0.153 611
1.091 3.227 -0.163 780
1.090 3.226 -0.172 758
1.090 3.226 -0.182 736
1.087 3.217 -0.191 571
1.087 3.216 -0.201 420
1.087 3.215 -0.211 420
1.086 3.214 -0.220 339
0.373 1.104 0.017 280
0.373 1.103 0.013 492
0.373 1.103 0.010 919
0.721 2.106 1.717 4662
0.723 2.111 1.711 9324
0.724 2.115 1.705 9324
0.726 2.119 1.698 9243
0.729 2.130 1.697 9289
0.735 2.146 1.699 10394
0.739 2.157 1.697 12186
0.740 2.161 1.691 12186
0.742 2.165 1.684 10302
0.777 2.268 1.750 10210
0.778 2.273 1.743 11652
0.780 2.277 1.736 13095
0.781 2.282 1.729 9869
0.806 2.354 1.771 8151
0.808 2.359 1.763 7974
0.809 2.363 1.756 7430
0.809 2.362 1.745 7035
0.810 2.366 1.738 5711
0.810 2.364 1.726 4385
0.815 2.381 1.728 4240
0.821 2.398 1.729 4570
0.836 2.440 1.747 7407
0.842 2.457 1.748 12147
0.845 2.468 1.745 14238
0.849 2.479 1.742 16943
0.853 2.490 1.739 12560
0.859 2.507 1.739 8895
0.860 2.511 1.732 7678
0.862 2.516 1.724 6461
0.861 2.514 1.713 7838
0.862 2.518 1.705 9246
0.868 2.535 1.705 8914
0.872 2.546 1.702 9093
0.873 2.550 1.694 6502
0.886 2.587 1.706 4031
0.887 2.591 1.699 4246
0.911 2.660 1.730 6692
0.910 2.658 1.718 9031
0.912 2.663 1.710 8390
0.916 2.673 1.706 7777
0.915 2.671 1.694 8120
0.916 2.676 1.686 8491
0.916 2.673 1.674 8594
0.919 2.684 1.670 7457
0.923 2.695 1.665 6426
0.924 2.699 1.657 5912
0.957 2.796 1.702 6434
0.961 2.806 1.697 8498
0.967 2.824 1.696 10347
0.969 2.828 1.687 9743
0.970 2.832 1.679 7517
1.026 2.996 1.758 7982
1.028 3.001 1.749 9673
1.029 3.005 1.740 10175
1.031 3.010 1.730 8749
1.035 3.021 1.725 6325
1.047 3.058 1.733 7107
1.044 3.049 1.717 9033
1.044 3.047 1.704 9163
1.045 3.051 1.695 9335
1.049 3.062 1.689 10448
1.050 3.067 1.680 11536
1.052 3.071 1.671 8306
1.090 3.183 1.716 9571
1.096 3.201 1.713 19140
1.100 3.212 1.707 25594
1.102 3.217 1.697 27429
1.103 3.221 1.687 30887
1.105 3.225 1.677 32426
1.108 3.236 1.671 32686
1.107 3.234 1.658 29892
1.109 3.238 1.648 26885
1.113 3.249 1.641 22708
1.114 3.253 1.631 16227
1.113 3.250 1.618 13905
1.115 3.254 1.608 12989
1.118 3.265 1.602 10974
1.120 3.269 1.592 7785
1.201 3.508 1.687 6211
1.212 3.540 1.688 5510
1.218 3.558 1.684 6091
1.215 3.548 1.667 4748
1.214 3.545 1.653 3902
1.220 3.563 1.648 4972
1.224 3.574 1.640 8361
1.228 3.586 1.632 9354
1.234 3.604 1.627 7189
1.279 3.733 1.668 4612
1.275 3.723 1.651 5481
1.286 3.755 1.651 6526
1.307 3.816 1.663 7058
1.308 3.820 1.651 7838
1.310 3.824 1.639 5671
1.340 3.912 1.661 9418
1.349 3.938 1.657 9866
1.352 3.949 1.648 9372
1.354 3.953 1.636 10215
1.355 3.957 1.624 11117
1.354 3.954 1.609 11049
1.358 3.965 1.600 9992
1.359 3.969 1.588 7328
1.402 4.093 1.620 8191
1.403 4.098 1.607 11053
1.405 4.102 1.595 10495
1.406 4.106 1.582 13765
1.407 4.110 1.570 16594
1.406 4.106 1.555 13462
1.408 4.110 1.542 8366
1.507 4.399 1.627 4403
1.535 4.482 1.640 3148
1.539 4.493 1.629 3790
1.543 4.504 1.618 4465
1.546 4.515 1.606 3978
1.577 4.605 1.620 4611
1.581 4.617 1.609 3745
1.600 4.671 1.611 3035
1.618 4.725 1.612 3848
1.612 4.708 1.591 5010
1.609 4.697 1.572 4111
1.610 4.701 1.558 2683
1.680 4.907 1.604 2719
1.684 4.918 1.591 3767
1.691 4.936 1.581 3970
1.694 4.948 1.568 4012
1.696 4.951 1.553 4788
1.700 4.963 1.540 3821
1.788 5.220 1.596 3966
1.789 5.224 1.580 3198
1.818 5.307 1.586 2961
1.849 5.398 1.593 5388
1.850 5.402 1.577 4840
1.857 5.421 1.564 3885
1.858 5.425 1.547 5115
1.864 5.443 1.535 3899
1.888 5.513 1.535 5004
1.884 5.502 1.514 4442
1.878 5.484 1.492 2990
1.879 5.487 1.475 3632
1.951 5.695 1.508 2640
1.904 5.560 1.457 2123
2.001 5.842 1.506 2487
2.027 5.919 1.505 3100
2.076 6.062 1.519 4537
2.080 6.073 1.502 5860
2.081 6.076 1.483 4696
2.090 6.102 1.470 3932
2.094 6.113 1.452 4619
2.095 6.117 1.434 3256
2.212 6.458 1.486 3038
2.409 7.035 1.585 2870
2.411 7.039 1.563 3229
2.430 7.094 1.552 3925
2.434 7.106 1.532 6327
2.435 7.110 1.510 7789
2.439 7.121 1.490 7247
2.440 7.124 1.468 6656
2.441 7.128 1.446 6611
2.442 7.132 1.424 4940
2.444 7.135 1.402 3564
2.627 7.671 1.474 3320
2.638 7.704 1.455 2739
2.640 7.707 1.432 2517
2.861 8.355 1.515 2018
2.865 8.366 1.490 1805
3.148 9.192 1.595 1657
3.185 9.299 1.583 1983
3.186 9.303 1.555 2302
3.320 9.693 1.584 2401
3.316 9.682 1.552 1853
3.508 10.242 1.602 1739
3.311 9.667 1.490 1972
3.312 9.671 1.460 2352
3.313 9.674 1.430 2144
3.513 10.258 1.476 1627
3.555 10.380 1.460 1490
3.826 11.172 1.527 1633
3.818 11.146 1.489 1281
3.811 11.128 1.452 1196
3.815 11.139 1.418 1136
0.717 2.093 0.369 1060
4.641 13.552 1.612 967
4.643 13.556 1.571 1091
4.644 13.560 1.529 1214
4.648 13.571 1.488 1341
4.649 13.575 1.446 1416
4.650 13.578 1.405 1338
4.649 13.574 1.362 1065
4.650 13.578 1.320 681
0.634 1.852 0.291 430
0.634 1.852 0.285 546
0.635 1.853 0.280 694
0.637 1.861 0.275 921
0.640 1.868 0.270 1432
0.640 1.869 0.264 2120
0.640 1.869 0.259 2287
0.640 1.869 0.253 2175
0.640 1.870 0.247 1787
0.638 1.863 0.241 1151
0.638 1.863 0.236 806
0.638 1.863 0.230 596
0.971 2.836 0.270 330
4.229 12.347 0.680 317
4.229 12.349 0.642 352
4.230 12.350 0.604 370
4.230 12.351 0.566 389
4.231 12.353 0.528 379
3.362 9.816 0.417 471
3.362 9.816 0.387 668
3.362 9.817 0.357 881
3.360 9.810 0.327 1111
3.357 9.803 0.297 1012
3.345 9.766 0.266 1144
3.342 9.759 0.236 1366
3.342 9.759 0.206 1392
3.342 9.759 0.176 1418
3.345 9.767 0.146 1229
3.355 9.797 0.116 1241
3.353 9.789 0.086 1141
3.329 9.721 0.057 829
3.324 9.706 0.027 1008
3.324 9.706 -0.003 865
3.321 9.698 -0.033 725
3.319 9.690 -0.062 918
3.316 9.682 -0.092 1147
3.316 9.681 -0.121 1099
3.315 9.680 -0.151 1051
3.315 9.679 -0.181 1021
3.320 9.694 -0.211 1026
3.314 9.678 -0.240 1077
3.312 9.669 -0.270 1187
3.309 9.660 -0.299 888
0.966 2.821 0.005 712
0.966 2.820 -0.004 852
0.966 2.820 -0.013 993
0.966 2.820 -0.021 1023
0.966 2.819 -0.030 1054
0.965 2.819 -0.038 1024
0.965 2.818 -0.047 994
0.965 2.818 -0.055 904
0.965 2.817 -0.064 809
0.967 2.824 -0.073 713
0.967 2.823 -0.081 599
0.969 2.830 -0.091 589
1.105 3.225 -0.133 577
1.104 3.224 -0.143 577
1.104 3.224 -0.153 498
1.099 3.208 -0.161 436
1.104 3.222 -0.172 541
1.103 3.221 -0.182 662
1.103 3.220 -0.192 678
1.103 3.219 -0.202 695
1.102 3.218 -0.211 695
1.102 3.217 -0.221 616
1.102 3.216 -0.231 537
1.101 3.215 -0.241 268
0.372 1.087 0.012 269
0.727 2.104 1.717 4083
0.728 2.109 1.711 8166
0.730 2.113 1.705 8166
0.731 2.117 1.698 8073
0.735 2.128 1.697 8052
0.741 2.144 1.699 9102
0.744 2.155 1.697 10552
0.746 2.159 1.691 10552
0.747 2.163 1.684 8736
0.785 2.272 1.754 9797
0.784 2.271 1.743 11753
0.784 2.269 1.731 13817
0.787 2.280 1.729 11007
0.789 2.284 1.722 8207
0.816 2.363 1.768 7373
0.816 2.361 1.756 6492
0.815 2.359 1.745 5753
0.814 2.358 1.733 4423
0.816 2.362 1.726 3091
0.820 2.373 1.723 3520
0.825 2.390 1.725 4491
0.842 2.438 1.747 6569
0.848 2.455 1.748 10922
0.854 2.472 1.749 12827
0.858 2.483 1.746 15227
0.861 2.494 1.743 11364
0.872 2.524 1.752 8256
0.869 2.515 1.736 7098
0.866 2.507 1.720 6069
0.870 2.518 1.717 7627
0.871 2.522 1.709 9188
0.875 2.533 1.705 8602
0.879 2.544 1.702 8251
0.914 2.645 1.754 5709
0.915 2.649 1.746 4070
0.908 2.628 1.722 4706
0.916 2.651 1.726 7982
0.917 2.656 1.718 10870
0.919 2.660 1.710 10235
0.923 2.671 1.706 9710
0.922 2.669 1.694 10481
0.921 2.667 1.682 11381
0.925 2.677 1.678 11716
0.926 2.682 1.670 9625
0.930 2.692 1.665 7250
0.931 2.697 1.657 7208
0.965 2.793 1.702 7045
0.969 2.804 1.697 8775
0.975 2.821 1.696 10186
0.981 2.839 1.695 9575
0.984 2.850 1.690 7684
1.034 2.993 1.758 6806
1.036 2.998 1.749 8463
1.037 3.002 1.740 9095
1.039 3.007 1.730 8083
1.042 3.018 1.725 5950
1.053 3.049 1.730 6281
1.052 3.047 1.717 7940
1.052 3.044 1.704 8222
1.051 3.042 1.692 8467
1.055 3.053 1.686 9361
1.061 3.071 1.683 10251
1.062 3.075 1.674 7352
1.101 3.187 1.719 9749
1.105 3.198 1.713 19607
1.109 3.209 1.707 25020
1.110 3.214 1.697 26261
1.112 3.218 1.687 30031
1.113 3.222 1.677 32517
1.117 3.233 1.671 32994
1.116 3.231 1.658 30598
1.117 3.235 1.648 29054
1.121 3.246 1.641 25668
1.120 3.243 1.628 18890
1.122 3.247 1.618 16271
1.123 3.251 1.608 15221
1.127 3.262 1.602 12566
1.128 3.266 1.592 8491
1.211 3.504 1.687 7040
1.224 3.543 1.691 6299
1.233 3.568 1.690 7007
1.234 3.572 1.679 5350
1.228 3.556 1.659 4515
1.232 3.567 1.651 7303
1.234 3.571 1.640 10224
1.237 3.582 1.632 9914
1.244 3.600 1.627 6946
1.308 3.785 1.692 4869
1.283 3.713 1.648 6459
1.296 3.752 1.651 6949
1.314 3.805 1.660 6661
1.318 3.816 1.651 7619
1.346 3.898 1.670 6048
1.350 3.909 1.661 9728
1.359 3.934 1.657 9232
1.363 3.945 1.648 9029
1.364 3.949 1.636 10545
1.363 3.946 1.621 11379
1.365 3.950 1.609 12133
1.371 3.969 1.602 11796
1.372 3.973 1.590 8395
1.413 4.090 1.620 7896
1.409 4.080 1.602 11641
1.411 4.084 1.590 12096
1.417 4.102 1.582 16490
1.418 4.106 1.570 19812
1.417 4.103 1.555 14976
1.419 4.107 1.542 7946
1.513 4.381 1.622 4295
1.544 4.470 1.638 3565
1.548 4.482 1.627 4782
1.554 4.500 1.618 4623
1.558 4.511 1.606 4024
1.597 4.623 1.627 3228
1.611 4.663 1.625 3307
1.612 4.667 1.611 3332
1.643 4.757 1.623 3482
1.625 4.703 1.591 3943
1.621 4.693 1.572 3695
1.625 4.704 1.560 2489
1.701 4.924 1.611 2463
1.700 4.921 1.594 2420
1.766 5.112 1.634 2821
1.767 5.116 1.618 2619
1.801 5.214 1.630 3180
1.802 5.218 1.614 4395
1.801 5.215 1.596 5394
1.800 5.212 1.578 3695
1.862 5.389 1.610 3550
1.863 5.394 1.593 7328
1.862 5.390 1.575 5747
1.806 5.227 1.514 3462
1.870 5.413 1.546 3686
1.876 5.431 1.533 3068
1.907 5.522 1.538 2984
1.962 5.679 1.560 3014
1.963 5.683 1.543 3582
1.962 5.679 1.524 3401
1.961 5.676 1.504 3021
2.015 5.833 1.524 2650
2.044 5.917 1.525 2935
2.048 5.928 1.508 3566
2.094 6.063 1.520 5796
2.096 6.067 1.502 7207
2.095 6.064 1.482 5232
2.103 6.089 1.468 3872
2.107 6.100 1.451 4689
2.255 6.529 1.523 3603
2.254 6.526 1.502 2778
2.430 7.036 1.586 2573
0.655 1.897 0.516 2746
2.461 7.125 1.560 3750
2.452 7.099 1.532 5263
2.454 7.103 1.510 6164
2.457 7.114 1.490 5682
2.459 7.118 1.468 5580
2.460 7.122 1.446 5929
2.461 7.125 1.424 4255
2.651 7.675 1.500 3937
2.650 7.671 1.475 3917
2.656 7.689 1.454 2850
2.657 7.693 1.430 2483
2.881 8.340 1.513 1926
3.166 9.164 1.621 2229
3.172 9.183 1.595 3231
3.176 9.195 1.568 3547
3.177 9.199 1.540 2929
3.179 9.202 1.512 2654
3.180 9.206 1.484 2356
3.181 9.210 1.455 1849
3.336 9.658 1.490 1669
3.338 9.662 1.460 1832
3.341 9.673 1.431 1664
3.540 10.248 1.476 1314
0.719 2.081 0.399 1667
0.719 2.081 0.393 1831
0.719 2.082 0.387 1477
4.059 11.750 1.527 1116
0.720 2.083 0.374 943
0.720 2.084 0.368 1309
0.723 2.092 0.362 1292
4.678 13.544 1.571 936
4.031 11.671 1.336 1082
4.684 13.559 1.488 1180
4.685 13.563 1.446 1241
4.686 13.566 1.405 1167
4.685 13.562 1.362 930
4.686 13.565 1.320 602
0.979 2.835 0.374 404
0.977 2.828 0.365 451
0.980 2.836 0.357 520
0.645 1.866 0.275 689
0.645 1.867 0.270 1094
0.642 1.860 0.264 1577
0.642 1.860 0.258 1838
0.643 1.860 0.253 1852
0.643 1.861 0.247 1623
0.643 1.861 0.241 1186
0.643 1.861 0.236 898
0.640 1.854 0.230 650
0.643 1.862 0.225 336
4.261 12.336 0.680 316
4.262 12.338 0.642 341
4.262 12.339 0.604 352
4.263 12.340 0.566 363
4.263 12.341 0.528 360
4.266 12.350 0.490 341
3.388 9.807 0.387 341
3.388 9.808 0.357 482
3.386 9.801 0.327 631
3.381 9.787 0.297 620
3.370 9.757 0.266 752
3.368 9.750 0.236 913
3.365 9.743 0.206 1034
3.363 9.735 0.176 1180
3.360 9.728 0.146 1007
3.355 9.713 0.116 914
3.355 9.713 0.086 784
3.345 9.683 0.057 782
3.347 9.690 0.027 887
3.347 9.690 -0.003 796
3.347 9.689 -0.033 705
3.342 9.674 -0.062 946
3.341 9.673 -0.092 1201
3.339 9.665 -0.121 1184
3.338 9.664 -0.151 1178
3.341 9.671 -0.181 1059
3.348 9.692 -0.211 977
3.337 9.661 -0.240 1166
3.337 9.660 -0.270 1399
3.334 9.652 -0.299 1147
3.328 9.635 -0.328 950
3.328 9.634 -0.358 640
0.971 2.810 -0.012 666
0.973 2.817 -0.021 648
0.973 2.817 -0.030 641
0.973 2.816 -0.038 570
0.973 2.816 -0.047 499
0.970 2.808 -0.055 411
0.970 2.807 -0.063 321
0.972 2.814 -0.072 281
1.113 3.221 -0.153 402
1.112 3.220 -0.163 566
1.112 3.219 -0.172 620
1.109 3.211 -0.181 676
1.109 3.210 -0.191 642
1.108 3.209 -0.201 607
1.108 3.208 -0.211 607
1.108 3.207 -0.220 578
1.107 3.206 -0.230 548
1.107 3.205 -0.240 274
0.757 2.162 1.764 4051
0.758 2.166 1.757 8102
0.760 2.171 1.751 8102
0.761 2.175 1.744 7314
0.744 2.125 1.697 6647
0.752 2.147 1.704 7644
0.753 2.152 1.697 8677
0.755 2.156 1.691 8677
0.756 2.160 1.684 7102
0.794 2.269 1.754 10031
0.794 2.268 1.743 11895
0.793 2.266 1.731 14156
0.797 2.276 1.729 11494
0.798 2.281 1.722 8863
0.828 2.366 1.772 6736
0.827 2.364 1.761 5444
0.794 2.269 1.684 4936
0.796 2.273 1.677 3904
0.799 2.283 1.675 2890
0.836 2.388 1.736 3130
0.835 2.386 1.725 4629
0.850 2.428 1.743 5824
0.858 2.452 1.748 9654
0.864 2.469 1.749 11223
0.868 2.480 1.746 13257
0.872 2.490 1.743 10037
0.882 2.520 1.752 7906
0.881 2.518 1.740 6716
0.876 2.504 1.720 6048
0.880 2.514 1.717 7357
0.881 2.519 1.709 8675
0.885 2.529 1.705 8033
0.923 2.636 1.762 8308
0.924 2.641 1.754 7238
0.926 2.645 1.746 6169
0.927 2.650 1.738 5948
0.927 2.648 1.726 8920
0.930 2.659 1.722 11993
0.932 2.663 1.714 11498
0.934 2.667 1.706 11003
0.933 2.665 1.694 11797
0.934 2.669 1.686 12824
0.936 2.674 1.678 13659
0.939 2.684 1.674 11345
0.943 2.695 1.669 8385
0.942 2.693 1.657 8552
0.944 2.697 1.649 8185
0.982 2.807 1.701 8146
0.988 2.824 1.700 9824
0.994 2.841 1.698 9439
0.998 2.852 1.693 8124
1.002 2.863 1.688 6502
1.048 2.994 1.749 7381
1.049 2.998 1.740 8294
1.051 3.003 1.730 7848
1.055 3.014 1.725 5952
1.061 3.031 1.723 5823
1.062 3.036 1.714 7102
1.062 3.033 1.701 7414
1.063 3.038 1.692 7912
1.067 3.049 1.686 8700
1.080 3.086 1.694 9477
1.089 3.111 1.695 6677
1.116 3.189 1.723 10863
1.118 3.194 1.713 19632
1.122 3.205 1.707 23995
1.123 3.209 1.697 24505
1.125 3.213 1.687 27287
1.126 3.218 1.677 29647
1.130 3.229 1.671 30557
1.129 3.226 1.658 29016
1.131 3.230 1.648 29255
1.134 3.241 1.641 26455
1.133 3.239 1.628 19739
1.135 3.243 1.618 17002
1.136 3.247 1.608 15889
1.140 3.258 1.602 12822
1.175 3.358 1.635 8485
1.225 3.500 1.687 7060
1.241 3.545 1.695 6227
1.247 3.563 1.690 6922
1.249 3.567 1.679 5551
1.248 3.565 1.665 5695
1.247 3.562 1.651 8996
1.248 3.566 1.640 10989
1.252 3.577 1.632 9551
1.256 3.588 1.624 5959
1.291 3.690 1.654 5247
1.295 3.701 1.646 6869
1.311 3.747 1.651 6193
1.330 3.800 1.660 5124
1.334 3.811 1.651 5735
1.362 3.892 1.670 6956
1.366 3.903 1.661 9635
1.375 3.928 1.657 8145
1.376 3.933 1.645 7979
1.378 3.937 1.633 9967
1.379 3.941 1.621 10360
1.383 3.952 1.612 11582
1.387 3.963 1.602 11878
1.388 3.967 1.590 8104
1.429 4.084 1.620 7345
1.426 4.074 1.602 11616
1.430 4.085 1.592 13423
1.434 4.096 1.582 18511
1.435 4.100 1.570 21672
1.436 4.104 1.557 15105
1.435 4.101 1.542 6514
1.531 4.375 1.622 4244
1.562 4.464 1.638 3800
1.566 4.475 1.627 5261
1.570 4.487 1.615 4493
1.577 4.505 1.606 3814
1.631 4.659 1.641 2873
1.630 4.656 1.625 3786
1.631 4.660 1.611 3496
1.667 4.764 1.628 2772
1.641 4.690 1.589 2914
1.640 4.686 1.572 2671
1.712 4.891 1.619 2471
1.723 4.924 1.613 2783
1.783 5.093 1.647 2332
1.787 5.105 1.634 2727
1.813 5.181 1.639 3685
1.817 5.192 1.626 4585
1.821 5.204 1.612 5929
1.820 5.200 1.594 6658
1.821 5.204 1.578 4431
1.881 5.375 1.608 3941
1.885 5.386 1.593 7805
1.826 5.216 1.530 7025
1.827 5.220 1.514 6538
1.826 5.216 1.496 3616
1.898 5.423 1.533 3297
1.899 5.427 1.516 3518
1.903 5.438 1.501 2900
1.986 5.675 1.543 3417
1.985 5.671 1.524 3128
1.981 5.660 1.503 2875
2.036 5.817 1.522 2949
2.068 5.909 1.525 3199
2.118 6.051 1.539 4313
2.122 6.062 1.522 6366
2.120 6.059 1.502 7137
2.119 6.055 1.482 5018
2.128 6.081 1.468 3799
2.132 6.092 1.451 4366
2.233 6.381 1.493 3978
2.237 6.392 1.475 3562
2.457 7.019 1.585 2151
2.496 7.133 1.586 2874
2.498 7.137 1.564 4216
2.502 7.148 1.543 4710
2.490 7.115 1.514 4281
2.492 7.119 1.493 3934
2.493 7.123 1.471 4003
2.489 7.111 1.446 4328
2.678 7.653 1.522 3521
2.682 7.664 1.500 4420
2.681 7.660 1.475 3994
2.685 7.671 1.453 2573
2.689 7.682 1.430 2196
3.204 9.155 1.651 2115
3.203 9.151 1.621 2923
3.210 9.170 1.595 4400
3.213 9.182 1.568 4724
3.215 9.186 1.540 3820
3.216 9.189 1.512 3566
3.217 9.193 1.484 3360
3.216 9.189 1.454 2544
3.215 9.186 1.425 1998
3.553 10.152 1.529 1884
0.724 2.069 0.411 1624
0.724 2.070 0.404 2136
0.725 2.070 0.398 2742
0.725 2.071 0.392 3190
0.725 2.072 0.386 3120
0.725 2.072 0.379 2346
0.726 2.073 0.373 1660
0.726 2.074 0.367 1589
0.729 2.082 0.361 1548
0.731 2.090 0.356 1163
4.079 11.654 1.336 1319
4.075 11.643 1.298 1083
4.740 13.543 1.446 944
4.741 13.547 1.405 884
4.740 13.543 1.362 712
4.123 11.781 1.166 480
4.127 11.792 1.130 309
0.647 1.848 0.285 383
0.647 1.848 0.280 452
0.650 1.856 0.275 493
1.185 3.385 0.379 805
1.188 3.393 0.370 1062
1.185 3.386 0.359 1151
1.188 3.394 0.349 1095
1.188 3.395 0.339 887
1.186 3.388 0.328 751
1.186 3.388 0.317 654
1.186 3.389 0.307 453
1.184 3.382 0.296 262
4.436 12.676 0.500 305
4.437 12.677 0.461 337
4.437 12.678 0.422 350
4.437 12.679 0.383 352
3.420 9.773 0.297 347
3.413 9.751 0.266 470
3.408 9.736 0.236 538
3.402 9.721 0.206 676
3.400 9.714 0.176 862
3.397 9.707 0.146 790
3.395 9.699 0.116 753
3.395 9.699 0.086 643
3.381 9.661 0.057 619
3.381 9.661 0.027 649
3.381 9.661 -0.003 607
3.381 9.660 -0.032 564
3.378 9.652 -0.062 799
3.378 9.652 -0.092 1036
3.378 9.651 -0.121 1087
3.375 9.643 -0.151 1139
3.377 9.650 -0.181 1011
3.377 9.649 -0.210 884
3.374 9.640 -0.240 1174
3.374 9.639 -0.269 1475
0.985 2.815 0.013 1556
0.985 2.814 0.005 1848
0.985 2.814 -0.004 1976
0.982 2.806 -0.012 2116
0.985 2.813 -0.021 2009
0.984 2.813 -0.030 1915
0.984 2.812 -0.038 1632
0.984 2.812 -0.047 1349
0.984 2.811 -0.055 1018
0.984 2.811 -0.064 686
0.983 2.810 -0.072 482
0.986 2.817 -0.081 255
1.124 3.210 -0.133 286
1.123 3.210 -0.142 286
1.123 3.209 -0.152 323
1.123 3.208 -0.162 360
1.122 3.207 -0.172 321
1.122 3.206 -0.181 282
1.122 3.205 -0.191 252
0.765 2.159 1.764 5121
0.767 2.163 1.757 10243
0.769 2.168 1.751 10243
0.770 2.172 1.744 9564
0.772 2.177 1.738 8885
0.775 2.187 1.736 7860
0.784 2.210 1.743 7636
0.785 2.214 1.736 7636
0.802 2.262 1.761 8131
0.806 2.272 1.759 11718
0.805 2.270 1.747 13226
0.804 2.269 1.736 15017
0.806 2.273 1.729 12256
0.810 2.284 1.727 9602
0.809 2.282 1.715 7214
0.802 2.261 1.691 6173
0.803 2.265 1.684 6116
0.805 2.270 1.677 4759
0.820 2.311 1.696 3693
0.843 2.378 1.732 3344
0.845 2.383 1.725 5049
0.849 2.393 1.722 5788
0.868 2.448 1.748 8183
0.874 2.465 1.749 9225
0.878 2.476 1.746 10762
0.884 2.493 1.747 8518
0.892 2.517 1.752 7633
0.894 2.521 1.744 6564
0.891 2.513 1.728 5971
0.890 2.511 1.717 6834
0.892 2.515 1.709 7712
0.932 2.628 1.770 7778
0.933 2.633 1.762 9418
0.935 2.637 1.754 9630
0.937 2.642 1.746 9841
0.938 2.646 1.738 8672
0.940 2.650 1.730 10512
0.941 2.655 1.722 13521
0.945 2.666 1.718 13116
0.947 2.670 1.710 12849
0.946 2.668 1.698 13327
0.945 2.666 1.686 14175
0.949 2.676 1.682 15551
0.953 2.687 1.677 13152
0.957 2.698 1.673 9843
0.956 2.695 1.661 10320
0.960 2.706 1.657 10493
0.961 2.710 1.648 9062
1.005 2.833 1.707 8633
1.011 2.851 1.706 8708
1.012 2.855 1.697 8350
1.014 2.859 1.688 7175
1.013 2.857 1.676 6532
1.062 2.994 1.740 7866
1.065 3.005 1.734 8346
1.067 3.009 1.725 6640
1.073 3.027 1.723 6046
1.075 3.031 1.714 6372
1.072 3.022 1.697 6300
1.102 3.107 1.730 7585
1.101 3.105 1.717 9571
1.100 3.102 1.704 10682
1.101 3.106 1.695 7855
1.129 3.185 1.723 13223
1.133 3.196 1.716 20007
1.135 3.200 1.707 23376
1.136 3.205 1.697 22661
1.138 3.209 1.687 22538
1.139 3.213 1.677 24547
1.143 3.224 1.671 27024
1.142 3.221 1.658 27504
1.144 3.226 1.648 30231
1.145 3.230 1.638 27335
1.147 3.234 1.628 20044
1.148 3.238 1.618 16837
1.150 3.242 1.608 15593
1.153 3.253 1.602 12176
1.189 3.353 1.635 8141
1.237 3.488 1.684 6915
1.236 3.485 1.670 5721
1.269 3.579 1.699 5274
1.268 3.576 1.685 4559
1.262 3.560 1.665 5863
1.261 3.557 1.651 9397
1.265 3.568 1.643 10673
1.267 3.572 1.632 8241
1.302 3.673 1.662 4484
1.306 3.684 1.654 5884
1.310 3.696 1.646 7133
1.312 3.700 1.634 5495
1.318 3.718 1.629 4285
1.372 3.868 1.676 4068
1.378 3.886 1.670 7931
1.382 3.898 1.661 9604
1.388 3.916 1.654 6702
1.392 3.927 1.645 5936
1.394 3.931 1.633 8695
1.395 3.935 1.621 8560
1.399 3.946 1.612 8868
1.401 3.950 1.600 9556
1.447 4.081 1.635 7188
1.448 4.085 1.622 7586
1.445 4.075 1.605 11286
1.449 4.086 1.595 14512
1.450 4.090 1.582 19617
1.452 4.094 1.570 22066
1.453 4.098 1.557 14659
1.457 4.109 1.547 6322
1.556 4.390 1.630 5262
1.581 4.458 1.638 3510
1.585 4.469 1.627 4645
1.609 4.537 1.634 3993
1.608 4.534 1.618 4041
1.650 4.652 1.641 3064
1.648 4.649 1.625 5056
1.647 4.646 1.608 5591
1.651 4.657 1.596 4898
1.653 4.661 1.582 4570
1.657 4.672 1.570 2751
1.722 4.856 1.610 3158
1.723 4.860 1.596 3788
1.724 4.864 1.581 3062
1.731 4.882 1.570 2558
1.832 5.166 1.637 4551
1.836 5.178 1.623 6000
1.837 5.182 1.608 7220
1.841 5.193 1.594 8033
1.840 5.190 1.576 6338
1.847 5.208 1.564 6303
1.848 5.212 1.548 8543
1.847 5.209 1.530 10132
1.848 5.212 1.514 9402
1.847 5.209 1.496 4900
1.982 5.589 1.578 3462
1.922 5.419 1.516 3709
2.041 5.757 1.584 3585
2.045 5.768 1.568 3244
2.049 5.779 1.552 2854
2.094 5.907 1.565 3164
2.060 5.809 1.522 3563
2.092 5.900 1.525 3422
2.142 6.042 1.539 5213
2.149 6.061 1.524 5830
2.148 6.057 1.504 5446
2.149 6.061 1.485 4176
2.254 6.357 1.531 4158
2.255 6.361 1.511 4264
2.259 6.372 1.493 5406
2.266 6.390 1.477 5249
2.270 6.401 1.459 3310
2.528 7.130 1.587 3324
2.529 7.134 1.565 4988
2.533 7.145 1.545 5408
2.532 7.142 1.522 4214
2.534 7.145 1.500 3493
2.535 7.149 1.478 3421
2.706 7.631 1.544 2569
2.709 7.642 1.522 3438
2.711 7.645 1.498 4280
2.710 7.642 1.474 3548
0.611 1.724 0.428 3199
0.614 1.732 0.424 3944
0.615 1.733 0.419 4198
0.615 1.734 0.414 3730
3.247 9.157 1.595 5135
3.251 9.168 1.568 5586
3.255 9.180 1.541 4439
3.254 9.176 1.512 4250
3.255 9.180 1.484 4310
3.254 9.176 1.454 3242
3.252 9.172 1.425 2317
3.595 10.138 1.529 2261
3.598 10.149 1.499 1964
0.735 2.074 0.405 1507
0.736 2.075 0.399 2064
0.736 2.075 0.393 2625
0.733 2.069 0.386 2971
0.734 2.069 0.379 3422
0.734 2.070 0.373 4141
0.734 2.071 0.367 4442
0.737 2.079 0.361 3956
0.737 2.079 0.355 2982
0.735 2.072 0.348 2237
0.738 2.080 0.343 1731
0.738 2.081 0.336 1077
4.127 11.640 1.227 795
4.170 11.762 1.202 682
4.169 11.757 1.165 535
4.180 11.790 1.132 375
4.176 11.777 1.094 307
1.008 2.844 0.349 257
1.196 3.373 0.379 372
1.196 3.373 0.368 527
1.194 3.366 0.358 596
1.194 3.367 0.347 589
1.197 3.375 0.338 532
1.194 3.368 0.327 482
1.197 3.376 0.317 414
1.197 3.377 0.307 276
3.442 9.707 0.206 285
3.437 9.693 0.176 423
3.434 9.685 0.146 452
3.434 9.685 0.116 490
3.434 9.685 0.086 432
3.415 9.633 0.057 372
3.413 9.625 0.027 411
3.415 9.632 -0.002 396
3.418 9.639 -0.032 413
3.415 9.631 -0.062 653
3.415 9.631 -0.091 910
3.414 9.630 -0.121 1021
3.414 9.629 -0.151 1133
3.411 9.621 -0.180 1053
3.400 9.590 -0.209 1148
3.403 9.597 -0.239 1198
3.413 9.625 -0.269 1362
3.410 9.617 -0.299 1275
3.407 9.608 -0.328 1204
0.996 2.810 -0.004 1189
0.994 2.802 -0.012 1389
0.996 2.809 -0.021 1479
0.996 2.809 -0.030 1574
0.996 2.808 -0.038 1524
0.995 2.808 -0.047 1475
0.993 2.800 -0.055 1308
0.995 2.807 -0.064 1129
0.995 2.806 -0.072 962
0.995 2.805 -0.081 741
0.997 2.812 -0.090 710
0.997 2.812 -0.098 519
0.997 2.811 -0.107 328
1.133 3.197 -0.151 265
1.133 3.196 -0.161 271
1.130 3.188 -0.170 266
