0.945 2.113 1.771 12116
0.947 2.117 1.765 12116
0.952 2.127 1.763 12056
0.954 2.132 1.756 12004
0.958 2.142 1.754 11386
0.963 2.152 1.752 11096
0.965 2.156 1.745 11096
0.975 2.178 1.752 7448
0.990 2.212 1.768 5644
0.981 2.193 1.743 5408
0.978 2.185 1.727 6263
0.980 2.189 1.720 6282
0.982 2.194 1.713 6301
0.986 2.204 1.711 4742
0.993 2.220 1.713 3650
0.995 2.224 1.706 3627
1.019 2.277 1.733 5168
1.021 2.281 1.726 7513
1.031 2.303 1.732 8203
1.038 2.320 1.733 9910
1.043 2.330 1.730 7602
1.064 2.377 1.753 6564
1.068 2.388 1.749 5507
1.073 2.398 1.746 4502
1.075 2.402 1.739 5947
1.077 2.407 1.731 7391
1.084 2.423 1.732 7922
1.089 2.433 1.728 9006
1.093 2.444 1.725 7574
1.098 2.454 1.721 6493
1.100 2.458 1.714 5244
1.144 2.556 1.766 4505
1.151 2.573 1.766 6532
1.156 2.583 1.762 8783
1.161 2.594 1.758 8756
1.165 2.604 1.754 11442
1.170 2.615 1.750 13954
1.175 2.626 1.745 19441
1.177 2.630 1.737 25375
1.181 2.640 1.733 24024
1.183 2.645 1.725 22855
1.185 2.649 1.716 19579
1.187 2.653 1.708 16871
1.189 2.657 1.700 17440
1.191 2.661 1.691 21275
1.193 2.665 1.683 25111
1.194 2.670 1.674 24416
1.196 2.674 1.666 20439
1.192 2.665 1.650 17652
1.208 2.701 1.660 18214
1.216 2.718 1.659 15515
1.224 2.735 1.658 11563
1.228 2.745 1.653 11178
1.230 2.749 1.644 9126
1.266 2.831 1.678 10463
1.268 2.835 1.670 10052
1.267 2.832 1.657 8736
1.269 2.836 1.648 7789
1.271 2.840 1.639 5945
1.322 2.955 1.689 5917
1.324 2.959 1.680 5381
1.375 3.074 1.729 4796
1.368 3.058 1.709 5103
1.394 3.115 1.726 6351
1.398 3.126 1.720 9139
1.403 3.136 1.714 9906
1.393 3.114 1.690 8321
1.398 3.125 1.684 6107
1.406 3.142 1.681 4989
1.408 3.146 1.671 5057
1.418 3.170 1.670 4981
1.435 3.207 1.677 6443
1.440 3.218 1.670 7466
1.442 3.222 1.660 7556
1.443 3.226 1.649 5680
1.472 3.290 1.667 4229
1.521 3.400 1.707 4971
1.523 3.404 1.696 7575
1.528 3.415 1.688 9799
1.539 3.439 1.687 9063
1.544 3.450 1.679 6769
1.557 3.481 1.680 4954
1.541 3.445 1.651 4094
1.582 3.536 1.679 3322
1.599 3.574 1.682 6265
1.580 3.531 1.651 7685
1.579 3.528 1.637 10018
1.586 3.545 1.631 8130
1.618 3.617 1.649 7520
1.602 3.580 1.620 5257
1.607 3.591 1.612 4625
1.720 3.845 1.703 4550
1.731 3.870 1.700 4836
1.736 3.880 1.690 5203
1.720 3.844 1.662 7890
1.734 3.875 1.660 8557
1.736 3.879 1.648 10352
1.747 3.904 1.644 14070
1.754 3.921 1.637 14689
1.759 3.932 1.627 10282
1.764 3.943 1.617 12259
1.769 3.953 1.607 19000
1.768 3.951 1.592 21452
1.769 3.954 1.580 20096
1.771 3.958 1.567 15890
1.773 3.962 1.555 12468
1.774 3.966 1.542 9949
1.887 4.217 1.617 10549
1.886 4.214 1.602 8211
1.887 4.218 1.588 5514
1.889 4.222 1.575 4022
1.974 4.412 1.625 3376
1.976 4.416 1.611 2837
2.036 4.551 1.641 2393
2.072 4.631 1.652 4334
2.074 4.635 1.637 5486
2.070 4.625 1.618 5856
2.062 4.608 1.597 5127
2.057 4.598 1.578 4793
2.062 4.609 1.565 4646
2.070 4.627 1.555 3765
2.125 4.749 1.576 3729
2.130 4.760 1.564 4763
2.134 4.770 1.551 4661
2.264 5.060 1.620 4607
2.263 5.057 1.602 5244
2.277 5.089 1.594 6782
2.282 5.100 1.580 7476
2.287 5.111 1.566 5712
2.288 5.114 1.549 5568
2.290 5.118 1.533 3024
2.364 5.283 1.561 2855
2.463 5.505 1.602 2917
2.480 5.544 1.594 2854
2.554 5.709 1.619 3406
2.522 5.636 1.581 3136
2.586 5.780 1.599 2995
2.588 5.784 1.581 3465
2.646 5.915 1.594 3105
2.667 5.961 1.585 3537
2.656 5.936 1.559 2940
2.667 5.961 1.546 2549
2.682 5.993 1.533 2350
2.686 6.004 1.516 2096
2.688 6.008 1.497 2140
2.905 6.493 1.586 3047
2.910 6.504 1.567 3495
2.912 6.507 1.546 2518
3.104 6.937 1.617 1932
3.109 6.948 1.596 2990
3.222 7.200 1.626 3135
3.227 7.211 1.605 3717
3.228 7.215 1.582 5021
3.230 7.219 1.559 5928
3.232 7.223 1.536 5264
3.233 7.226 1.513 3962
3.238 7.237 1.491 2685
3.370 7.533 1.522 2299
3.369 7.529 1.497 2178
3.619 8.089 1.572 2047
3.624 8.100 1.548 1990
4.137 9.246 1.718 1969
4.136 9.243 1.687 2969
4.141 9.254 1.659 3884
4.139 9.251 1.629 4102
4.141 9.255 1.599 3389
4.146 9.266 1.571 2545
4.234 9.463 1.571 2332
4.233 9.460 1.539 3153
4.231 9.456 1.508 2825
4.233 9.460 1.478 2053
0.632 1.413 0.329 2580
0.632 1.413 0.325 3835
0.633 1.414 0.320 5162
0.633 1.414 0.316 6411
0.633 1.415 0.311 7340
0.633 1.415 0.307 7471
0.633 1.416 0.303 6470
0.634 1.416 0.298 4773
0.634 1.417 0.294 2902
2.252 5.034 0.687 1340
5.799 12.961 1.516 824
0.638 1.425 0.282 588
5.806 12.975 1.434 639
0.635 1.418 0.272 617
0.448 1.001 0.229 847
0.448 1.001 0.226 1146
0.448 1.002 0.223 1535
0.448 1.002 0.219 1942
0.448 1.002 0.216 2262
0.448 1.002 0.213 2171
0.449 1.002 0.210 1801
0.449 1.003 0.207 1387
0.562 1.255 0.221 2013
0.562 1.255 0.218 2129
0.449 1.003 0.198 2832
0.449 1.003 0.195 2994
0.449 1.003 0.192 2929
0.562 1.256 0.202 3371
0.562 1.256 0.198 3721
0.559 1.249 0.194 3758
0.556 1.242 0.190 3054
0.556 1.242 0.186 2519
0.556 1.242 0.182 1913
0.553 1.235 0.178 1198
0.550 1.228 0.174 978
0.553 1.236 0.171 975
0.556 1.243 0.167 887
0.556 1.243 0.163 777
0.553 1.236 0.159 621
0.553 1.236 0.156 364
0.959 2.143 0.000 265
0.952 2.128 -0.005 462
0.952 2.127 -0.012 671
0.952 2.127 -0.019 752
0.948 2.119 -0.025 837
0.948 2.119 -0.031 715
0.948 2.118 -0.038 594
0.948 2.118 -0.045 545
0.947 2.117 -0.051 373
1.102 2.462 -0.091 318
1.098 2.455 -0.098 401
1.098 2.454 -0.106 401
1.098 2.453 -0.113 426
1.097 2.453 -0.121 452
1.097 2.452 -0.129 435
1.097 2.451 -0.136 419
0.521 1.164 0.008 462
0.524 1.171 0.004 575
0.521 1.164 0.001 812
0.521 1.163 -0.003 1171
0.950 2.105 1.778 5955
0.952 2.109 1.771 11911
0.954 2.114 1.765 11911
0.959 2.124 1.763 11790
0.961 2.128 1.756 11732
0.966 2.139 1.754 11214
0.973 2.155 1.756 11154
0.975 2.159 1.750 11154
0.982 2.175 1.752 7753
0.997 2.209 1.768 6640
0.991 2.196 1.747 6236
0.988 2.188 1.731 6980
0.990 2.192 1.725 6487
0.989 2.190 1.713 5999
0.993 2.200 1.711 4311
1.012 2.241 1.730 3336
1.030 2.281 1.749 3693
1.029 2.279 1.738 5383
1.031 2.284 1.731 7067
1.038 2.300 1.732 7963
1.043 2.310 1.729 9337
1.048 2.321 1.726 7048
1.074 2.380 1.757 6077
1.076 2.384 1.749 5344
1.078 2.388 1.742 4611
1.080 2.392 1.734 5762
1.085 2.403 1.731 6934
1.090 2.413 1.728 6909
1.097 2.430 1.728 7335
1.099 2.434 1.721 5852
1.104 2.444 1.717 4560
1.114 2.467 1.722 4279
1.119 2.478 1.718 4744
1.160 2.569 1.766 6408
1.165 2.579 1.762 8773
1.169 2.590 1.758 8672
1.174 2.600 1.754 11394
1.179 2.611 1.750 14143
1.184 2.622 1.745 19982
1.186 2.626 1.737 26243
1.190 2.636 1.733 25338
1.192 2.641 1.725 24689
1.194 2.645 1.716 21006
1.196 2.649 1.708 17701
1.195 2.647 1.696 18094
1.200 2.657 1.691 22179
1.202 2.661 1.683 26279
1.203 2.665 1.674 25074
1.205 2.670 1.666 20308
1.201 2.661 1.650 17166
1.218 2.697 1.660 17836
1.225 2.714 1.659 15169
1.230 2.724 1.654 11145
1.240 2.747 1.656 11119
1.242 2.751 1.648 9626
1.276 2.826 1.678 10590
1.275 2.824 1.666 9906
1.277 2.828 1.657 8484
1.279 2.832 1.648 7693
1.330 2.946 1.699 7226
1.332 2.950 1.689 7012
1.337 2.961 1.683 6563
1.344 2.978 1.681 4943
1.364 3.021 1.692 5242
1.372 3.038 1.689 6389
1.409 3.121 1.720 8175
1.414 3.132 1.714 9061
1.410 3.123 1.697 8378
1.412 3.127 1.687 6845
1.416 3.137 1.681 5993
1.418 3.141 1.671 5434
1.426 3.159 1.667 4389
1.446 3.202 1.677 5960
1.451 3.213 1.670 7472
1.452 3.217 1.660 7795
1.454 3.221 1.649 5864
1.513 3.351 1.699 4685
1.536 3.402 1.710 5210
1.538 3.406 1.699 7380
1.537 3.403 1.685 8819
1.547 3.427 1.684 7486
1.555 3.445 1.679 5467
1.569 3.476 1.680 5124
1.556 3.446 1.654 4743
1.561 3.457 1.646 3850
1.611 3.568 1.682 5701
1.595 3.532 1.654 6683
1.593 3.529 1.639 9186
1.635 3.621 1.666 8390
1.633 3.618 1.651 7239
1.611 3.568 1.617 4769
1.668 3.693 1.657 4613
1.672 3.704 1.648 4716
1.744 3.864 1.700 4773
1.749 3.875 1.690 5087
1.745 3.865 1.672 6791
1.747 3.869 1.660 7474
1.755 3.887 1.653 9360
1.763 3.904 1.646 14834
1.768 3.915 1.637 15407
1.769 3.919 1.624 10357
1.777 3.937 1.617 11343
1.782 3.948 1.607 17739
1.781 3.945 1.592 19552
1.783 3.948 1.580 18240
1.784 3.952 1.567 14132
1.786 3.956 1.555 11085
1.788 3.960 1.542 8772
1.901 4.211 1.617 7627
1.903 4.215 1.604 4968
1.932 4.280 1.612 3482
1.937 4.291 1.601 4413
1.942 4.302 1.590 4335
1.944 4.306 1.576 2423
2.045 4.530 1.636 2615
2.091 4.631 1.654 5053
2.090 4.628 1.637 6442
2.088 4.625 1.620 6648
2.081 4.608 1.599 4873
2.107 4.668 1.602 4691
2.106 4.665 1.585 4736
2.089 4.627 1.557 3902
2.153 4.770 1.585 2749
2.221 4.919 1.614 3062
2.235 4.951 1.607 4147
2.240 4.962 1.593 3964
2.277 5.043 1.600 4849
2.300 5.095 1.598 5446
2.302 5.099 1.582 6431
2.304 5.103 1.566 5386
2.309 5.114 1.551 4698
2.424 5.369 1.605 3315
2.429 5.380 1.589 2560
2.485 5.503 1.604 2663
2.499 5.535 1.594 3265
2.574 5.700 1.619 3580
2.541 5.627 1.581 3548
2.606 5.771 1.599 3508
2.611 5.782 1.582 3516
2.660 5.892 1.590 4089
2.659 5.888 1.570 4530
2.667 5.906 1.554 4033
2.675 5.924 1.539 3026
2.839 6.288 1.605 1936
2.710 6.002 1.518 1840
2.839 6.288 1.563 1974
2.930 6.490 1.588 2676
2.935 6.501 1.569 3245
2.937 6.505 1.548 2598
3.245 7.188 1.673 1898
3.138 6.951 1.599 2856
3.246 7.189 1.626 3764
3.251 7.200 1.605 4578
3.256 7.211 1.583 6119
3.254 7.208 1.559 7198
3.256 7.212 1.536 6592
3.258 7.215 1.513 5210
3.259 7.219 1.490 3624
3.393 7.514 1.521 2656
3.696 8.187 1.619 2997
3.698 8.191 1.592 2203
3.648 8.081 1.546 1964
4.165 9.225 1.717 2100
4.167 9.229 1.687 2899
4.172 9.240 1.659 3580
4.170 9.237 1.629 3823
4.172 9.241 1.599 3505
4.177 9.252 1.571 2982
4.179 9.256 1.541 2688
4.258 9.431 1.537 2556
4.263 9.442 1.508 2513
4.265 9.446 1.478 2354
4.263 9.442 1.447 1913
0.637 1.411 0.325 3063
0.637 1.412 0.320 4994
0.638 1.412 0.316 7413
0.638 1.413 0.311 10130
0.638 1.413 0.307 12289
0.638 1.414 0.303 13320
0.638 1.414 0.298 13265
0.639 1.414 0.294 12143
0.639 1.415 0.290 9941
0.639 1.415 0.285 7078
0.639 1.416 0.281 4595
0.636 1.409 0.276 3380
0.636 1.409 0.271 2378
0.451 1.000 0.229 1205
0.451 1.000 0.226 1583
0.452 1.000 0.223 2084
0.452 1.000 0.219 2641
0.452 1.001 0.216 3377
0.452 1.001 0.213 3978
0.452 1.001 0.210 4624
0.449 0.994 0.207 5173
0.449 0.994 0.204 5446
0.449 0.994 0.201 5538
0.449 0.994 0.198 5249
0.452 1.002 0.195 4704
0.452 1.002 0.192 4149
0.566 1.254 0.202 3932
0.566 1.254 0.198 4083
0.563 1.247 0.194 3491
0.560 1.240 0.190 1993
0.560 1.240 0.186 1147
0.563 1.248 0.183 948
0.563 1.248 0.179 961
0.563 1.248 0.175 1086
0.560 1.241 0.171 963
0.557 1.234 0.167 701
0.557 1.234 0.163 539
0.557 1.234 0.159 451
0.557 1.234 0.156 280
0.953 2.111 0.015 360
0.960 2.125 0.008 384
0.969 2.147 -0.000 427
0.959 2.125 -0.005 642
0.956 2.117 -0.012 867
0.959 2.124 -0.019 980
0.959 2.123 -0.025 1094
0.958 2.123 -0.032 950
0.961 2.130 -0.039 823
0.961 2.129 -0.046 730
0.961 2.129 -0.053 522
1.110 2.459 -0.091 410
1.110 2.458 -0.099 493
1.110 2.457 -0.106 495
1.109 2.457 -0.114 523
1.109 2.456 -0.122 548
1.109 2.455 -0.129 543
1.108 2.455 -0.137 538
1.108 2.454 -0.145 510
1.108 2.453 -0.152 482
0.528 1.169 -0.000 527
0.524 1.162 -0.003 772
0.958 2.101 1.778 5560
0.960 2.106 1.771 11120
0.962 2.110 1.765 11120
0.967 2.120 1.763 11085
0.969 2.125 1.756 11159
0.976 2.141 1.759 10870
0.981 2.151 1.756 11153
0.983 2.155 1.750 11153
0.990 2.171 1.752 8120
1.008 2.211 1.772 7501
1.000 2.192 1.747 7048
0.999 2.190 1.736 7801
0.998 2.188 1.725 6781
1.000 2.192 1.718 5807
1.051 2.305 1.790 4240
1.037 2.273 1.756 4012
1.036 2.271 1.745 4759
1.038 2.275 1.738 5789
1.042 2.286 1.735 6884
1.047 2.296 1.732 7626
1.052 2.306 1.729 8471
1.054 2.310 1.722 6404
1.083 2.376 1.757 5487
1.085 2.380 1.749 5205
1.085 2.378 1.738 4925
1.089 2.388 1.734 5646
1.094 2.399 1.731 6408
1.099 2.409 1.728 6082
1.106 2.426 1.728 6136
1.108 2.430 1.721 4554
1.113 2.440 1.717 2994
1.126 2.469 1.726 3952
1.131 2.479 1.722 5007
1.167 2.558 1.762 6113
1.172 2.569 1.758 8437
1.176 2.579 1.754 8198
1.184 2.596 1.754 10645
1.189 2.606 1.750 13517
1.194 2.617 1.745 19411
1.196 2.621 1.737 25665
1.200 2.632 1.733 25192
1.202 2.636 1.725 24969
1.204 2.640 1.716 20947
1.206 2.644 1.708 17222
1.205 2.642 1.696 17627
1.210 2.653 1.691 21643
1.212 2.657 1.683 25768
1.214 2.661 1.674 24076
1.215 2.665 1.666 18725
1.211 2.656 1.650 15333
1.225 2.686 1.657 16204
1.233 2.703 1.655 13840
1.237 2.713 1.651 10137
1.251 2.743 1.656 10844
1.253 2.747 1.648 9243
1.284 2.815 1.675 10597
1.286 2.819 1.666 9947
1.288 2.823 1.657 8428
1.336 2.930 1.704 7617
1.341 2.941 1.699 7875
1.343 2.945 1.689 7804
1.348 2.956 1.683 7562
1.356 2.973 1.681 5861
1.375 3.016 1.692 5934
1.383 3.033 1.689 7398
1.385 3.037 1.680 6822
1.426 3.126 1.714 7285
1.425 3.124 1.700 7918
1.427 3.128 1.690 7736
1.428 3.132 1.681 7191
1.430 3.136 1.671 6073
1.441 3.160 1.670 4265
1.455 3.190 1.673 5575
1.460 3.201 1.666 7210
1.465 3.212 1.660 7530
1.464 3.209 1.646 5705
1.523 3.339 1.696 5643
1.552 3.402 1.713 5342
1.551 3.400 1.699 6964
1.546 3.391 1.682 7763
1.554 3.408 1.678 5948
1.568 3.439 1.679 4001
1.585 3.476 1.683 4892
1.572 3.447 1.657 5037
1.574 3.451 1.646 4566
1.625 3.562 1.682 4745
1.648 3.613 1.691 5676
1.653 3.624 1.683 8436
1.652 3.621 1.669 9203
1.650 3.618 1.654 6891
1.628 3.569 1.620 4714
1.675 3.674 1.651 5338
1.693 3.711 1.653 5163
1.698 3.722 1.644 4302
1.764 3.868 1.690 4762
1.763 3.865 1.675 5582
1.765 3.869 1.663 6275
1.776 3.894 1.659 9129
1.778 3.898 1.646 14568
1.783 3.908 1.637 14524
1.784 3.912 1.624 9631
1.795 3.937 1.620 9491
1.807 3.961 1.615 15210
1.799 3.945 1.595 15193
1.798 3.942 1.580 13712
1.799 3.945 1.567 10319
1.801 3.949 1.555 8265
1.803 3.953 1.542 6472
1.945 4.265 1.639 5910
1.947 4.269 1.626 5669
1.949 4.273 1.612 4897
1.954 4.284 1.601 6249
1.959 4.294 1.590 5867
2.058 4.512 1.648 3560
2.063 4.523 1.636 3249
2.108 4.623 1.654 5243
2.107 4.620 1.637 6768
2.106 4.617 1.620 6931
2.111 4.628 1.608 4495
2.122 4.653 1.600 5107
2.124 4.657 1.585 5624
2.110 4.626 1.559 3594
2.225 4.879 1.621 3274
2.237 4.904 1.612 3281
2.254 4.943 1.607 3953
2.262 4.960 1.595 4436
2.283 5.006 1.592 4202
2.323 5.093 1.600 4209
2.325 5.097 1.584 5142
2.326 5.101 1.568 5617
2.433 5.335 1.616 4519
2.445 5.360 1.605 3263
2.450 5.371 1.589 2812
2.518 5.522 1.612 2316
2.523 5.533 1.596 3337
2.595 5.691 1.619 3483
2.613 5.730 1.610 3756
2.631 5.768 1.601 3829
2.636 5.779 1.584 3499
2.682 5.882 1.590 5451
2.681 5.878 1.570 6187
2.686 5.889 1.553 4973
2.694 5.907 1.537 3847
2.789 6.115 1.567 2514
2.842 6.231 1.573 1888
2.863 6.278 1.563 1748
2.958 6.486 1.589 2414
2.960 6.490 1.569 2979
2.962 6.493 1.548 2653
3.273 7.176 1.673 2197
3.271 7.173 1.649 2890
3.273 7.177 1.626 4088
3.278 7.188 1.605 5058
3.280 7.192 1.582 6643
3.282 7.195 1.559 7709
3.283 7.199 1.536 7159
3.285 7.203 1.513 5823
3.287 7.206 1.490 4153
3.421 7.501 1.521 2676
3.727 8.173 1.619 3710
3.729 8.177 1.592 2679
3.724 8.166 1.564 1857
3.729 8.177 1.539 2333
3.731 8.181 1.513 2369
4.207 9.224 1.659 2324
4.206 9.221 1.629 2628
4.207 9.225 1.599 3008
4.212 9.236 1.571 2998
4.211 9.233 1.540 2862
4.213 9.236 1.511 2749
4.214 9.240 1.481 2346
4.301 9.429 1.478 2051
0.642 1.408 0.329 2009
0.643 1.409 0.325 2744
0.643 1.409 0.320 2834
0.643 1.410 0.316 2126
0.640 1.403 0.311 1754
0.643 1.411 0.307 2646
0.644 1.411 0.303 3787
0.644 1.412 0.298 4219
0.644 1.412 0.294 3984
0.647 1.420 0.290 3374
0.648 1.420 0.286 2848
0.648 1.420 0.282 2428
0.648 1.421 0.277 2255
0.648 1.421 0.273 2065
0.455 0.998 0.229 1765
0.455 0.998 0.226 1907
0.455 0.998 0.223 1823
0.455 0.999 0.219 1283
0.456 0.999 0.216 970
0.574 1.258 0.234 1131
0.574 1.258 0.230 1633
0.571 1.251 0.225 2656
0.574 1.258 0.222 3639
0.453 0.993 0.201 3933
0.456 1.000 0.198 4825
0.456 1.000 0.195 4747
0.456 1.000 0.192 4313
0.571 1.252 0.202 3564
0.571 1.252 0.198 3644
0.571 1.252 0.194 3147
0.568 1.245 0.190 2035
0.568 1.246 0.186 1449
0.568 1.246 0.183 1127
0.565 1.239 0.179 654
0.565 1.239 0.175 454
0.565 1.239 0.171 396
0.565 1.239 0.167 362
0.565 1.239 0.163 385
0.565 1.239 0.159 306
0.961 2.108 0.015 371
0.964 2.114 0.008 409
0.964 2.114 0.002 452
0.964 2.114 -0.005 577
0.964 2.113 -0.012 703
0.964 2.113 -0.018 866
0.963 2.112 -0.025 1028
0.967 2.119 -0.032 903
0.970 2.126 -0.039 786
0.966 2.118 -0.045 695
0.966 2.118 -0.052 480
0.969 2.124 -0.059 360
1.119 2.454 -0.099 397
1.119 2.453 -0.106 400
1.122 2.460 -0.115 447
1.122 2.459 -0.122 492
1.118 2.451 -0.129 547
1.118 2.450 -0.137 602
1.117 2.450 -0.145 631
1.117 2.449 -0.152 659
1.117 2.448 -0.160 659
1.116 2.447 -0.168 880
0.966 2.091 1.773 4952
0.968 2.095 1.767 9904
0.970 2.100 1.760 9904
0.977 2.116 1.763 10047
0.979 2.120 1.756 10410
0.987 2.136 1.759 10492
0.991 2.146 1.756 11081
0.993 2.150 1.750 11081
1.001 2.167 1.752 8623
1.019 2.206 1.772 8242
1.010 2.187 1.747 7923
1.009 2.185 1.736 8598
1.009 2.183 1.725 6881
1.010 2.188 1.718 5371
1.062 2.300 1.790 4820
1.048 2.268 1.756 4855
1.047 2.266 1.745 5776
1.049 2.270 1.738 6132
1.056 2.287 1.739 6783
1.058 2.291 1.732 7078
1.060 2.295 1.725 7373
1.065 2.305 1.722 5675
1.095 2.370 1.757 5043
1.094 2.369 1.745 5104
1.096 2.373 1.738 5203
1.101 2.383 1.734 5358
1.105 2.393 1.731 5645
1.113 2.410 1.732 5142
1.118 2.420 1.728 4999
1.120 2.424 1.721 3498
1.136 2.459 1.733 2831
1.141 2.470 1.730 4037
1.143 2.474 1.722 5273
1.179 2.553 1.762 5804
1.184 2.563 1.758 7843
1.186 2.567 1.750 7465
1.196 2.590 1.754 9250
1.201 2.601 1.750 11962
1.206 2.611 1.745 17631
1.208 2.616 1.737 23525
1.213 2.626 1.733 23505
1.215 2.630 1.725 23650
1.217 2.634 1.716 19397
1.219 2.639 1.708 15314
1.218 2.636 1.696 15606
1.223 2.647 1.691 19336
1.227 2.657 1.687 23230
1.226 2.655 1.674 21156
1.228 2.659 1.666 15585
1.224 2.650 1.650 12086
1.238 2.680 1.657 13188
1.284 2.780 1.703 12040
1.286 2.784 1.694 11438
1.267 2.743 1.660 10311
1.290 2.792 1.677 8452
1.294 2.802 1.671 10371
1.296 2.806 1.662 10320
1.298 2.810 1.654 8750
1.351 2.924 1.704 7802
1.352 2.928 1.695 8090
1.360 2.945 1.693 8461
1.365 2.956 1.687 8298
1.373 2.973 1.684 6610
1.387 3.003 1.689 7014
1.395 3.020 1.686 8384
1.397 3.024 1.676 7903
1.438 3.113 1.710 5535
1.443 3.123 1.704 7195
1.442 3.121 1.690 8131
1.446 3.132 1.684 7717
1.445 3.129 1.671 6265
1.459 3.159 1.674 4478
1.470 3.183 1.673 5193
1.475 3.194 1.666 6476
1.477 3.198 1.656 6726
1.534 3.321 1.703 6430
1.536 3.325 1.692 6906
1.568 3.395 1.713 5002
1.567 3.392 1.699 6457
1.563 3.383 1.682 7305
1.568 3.394 1.675 5434
1.606 3.478 1.700 3729
1.605 3.475 1.686 4125
1.585 3.433 1.654 4831
1.587 3.437 1.643 4977
1.666 3.608 1.706 5594
1.668 3.612 1.694 6406
1.670 3.616 1.683 8708
1.672 3.620 1.671 9508
1.671 3.617 1.657 6641
1.682 3.641 1.654 5569
1.687 3.652 1.645 6374
1.717 3.717 1.659 5618
1.722 3.727 1.650 4857
1.783 3.859 1.690 4343
1.784 3.863 1.678 4376
1.786 3.868 1.666 5080
1.791 3.878 1.656 8226
1.796 3.889 1.646 12665
1.798 3.893 1.634 11871
1.800 3.897 1.622 7939
1.827 3.955 1.630 7455
1.832 3.966 1.620 12888
1.837 3.977 1.610 11874
1.835 3.974 1.595 8302
1.935 4.189 1.660 6230
1.937 4.193 1.646 5119
1.948 4.217 1.641 4229
1.962 4.249 1.637 7609
1.964 4.253 1.623 6946
1.966 4.257 1.610 5876
1.971 4.267 1.599 7552
1.976 4.278 1.587 6992
2.082 4.509 1.651 4861
2.084 4.513 1.636 3732
2.127 4.606 1.652 4611
2.129 4.610 1.637 6208
2.131 4.614 1.622 6612
2.136 4.625 1.610 4486
2.144 4.642 1.600 4776
2.143 4.639 1.583 5212
2.145 4.643 1.568 2980
2.249 4.868 1.621 3325
2.254 4.879 1.608 3015
2.332 5.050 1.642 3130
2.347 5.081 1.634 4642
2.349 5.085 1.618 4732
2.338 5.061 1.594 4538
2.346 5.079 1.582 4742
2.354 5.097 1.570 6116
2.356 5.101 1.553 4516
2.435 5.272 1.583 3364
2.478 5.366 1.591 2712
2.490 5.391 1.580 2312
2.550 5.520 1.596 3119
2.626 5.685 1.621 2920
2.641 5.717 1.610 3504
2.658 5.756 1.601 3678
2.706 5.858 1.607 4129
2.707 5.862 1.588 6339
2.709 5.865 1.570 7038
2.714 5.876 1.553 5207
2.726 5.901 1.539 4133
2.818 6.101 1.567 3099
2.722 5.894 1.498 2124
2.724 5.898 1.479 1903
2.996 6.486 1.592 2213
3.027 6.553 1.586 2735
3.032 6.564 1.566 2840
3.043 6.589 1.550 3109
3.038 6.578 1.526 2737
3.304 7.154 1.624 3741
3.313 7.172 1.605 4618
3.318 7.183 1.583 6063
3.316 7.180 1.559 7067
3.318 7.183 1.536 6742
3.320 7.187 1.513 5724
3.321 7.191 1.490 4190
3.765 8.151 1.645 2828
3.767 8.155 1.619 4045
3.765 8.152 1.591 3158
3.764 8.148 1.564 2747
3.769 8.159 1.539 3431
3.770 8.163 1.513 3011
3.778 8.181 1.489 1940
3.787 8.198 1.465 1515
4.252 9.205 1.599 1903
4.253 9.209 1.570 2453
4.255 9.212 1.540 2607
4.257 9.216 1.511 2630
4.258 9.220 1.481 2346
4.263 9.230 1.453 1487
0.652 1.412 0.330 1292
0.653 1.413 0.325 2337
0.653 1.413 0.321 3611
0.650 1.407 0.316 5417
0.650 1.407 0.311 7690
0.650 1.408 0.307 9635
0.650 1.408 0.303 10740
0.651 1.408 0.298 10806
0.651 1.409 0.294 9680
0.651 1.409 0.290 7514
0.651 1.410 0.285 4983
0.651 1.410 0.281 3065
0.651 1.410 0.276 2191
0.652 1.411 0.272 1522
0.463 1.003 0.229 1703
0.460 0.996 0.226 2806
0.460 0.996 0.223 4336
0.460 0.996 0.219 5716
0.460 0.997 0.216 6220
0.460 0.997 0.213 5124
0.457 0.990 0.210 3792
0.461 0.997 0.207 3057
0.461 0.997 0.204 4186
0.461 0.998 0.201 6643
0.461 0.998 0.198 7508
0.461 0.998 0.195 6775
0.461 0.998 0.192 5658
0.461 0.998 0.189 3972
0.580 1.257 0.199 3292
0.577 1.250 0.194 2870
0.574 1.243 0.190 1942
0.574 1.243 0.186 1407
0.574 1.243 0.183 972
0.577 1.250 0.179 475
0.581 1.258 0.175 398
0.461 0.999 0.165 470
0.461 0.999 0.162 464
0.461 0.999 0.159 432
0.461 0.999 0.155 388
0.458 0.992 0.152 325
0.455 0.985 0.149 275
4.598 9.954 0.178 253
4.598 9.954 0.147 307
4.598 9.954 0.115 361
4.598 9.954 0.083 404
4.598 9.954 0.051 460
4.597 9.954 0.019 473
4.597 9.953 -0.013 447
4.600 9.960 -0.045 420
4.597 9.952 -0.076 374
4.597 9.952 -0.108 328
4.596 9.951 -0.140 275
0.964 2.088 0.003 280
0.967 2.095 -0.004 303
0.967 2.094 -0.010 327
0.970 2.101 -0.018 439
0.974 2.108 -0.025 559
0.973 2.107 -0.031 526
0.976 2.114 -0.039 493
0.973 2.106 -0.045 448
0.973 2.106 -0.051 314
1.130 2.447 -0.114 344
1.130 2.446 -0.122 466
1.130 2.446 -0.129 620
1.129 2.445 -0.137 775
1.129 2.444 -0.145 850
1.129 2.444 -0.152 926
1.128 2.443 -0.160 926
1.128 2.442 -0.168 1223
0.970 2.082 1.769 4402
0.972 2.087 1.762 8805
0.974 2.091 1.756 8805
0.981 2.107 1.758 8924
0.986 2.117 1.756 9449
0.996 2.139 1.763 9872
1.001 2.149 1.761 10716
1.003 2.153 1.754 10716
1.010 2.169 1.756 8838
1.023 2.197 1.768 8841
1.020 2.190 1.752 8350
1.019 2.188 1.740 8776
1.018 2.186 1.729 6636
1.067 2.292 1.797 4875
1.069 2.296 1.790 4875
1.055 2.265 1.756 5300
1.054 2.263 1.745 6334
1.059 2.273 1.742 6336
1.063 2.283 1.739 6835
1.062 2.282 1.728 6536
1.064 2.286 1.721 6396
1.097 2.357 1.760 4877
1.094 2.349 1.744 5364
1.099 2.359 1.741 5312
1.103 2.369 1.738 5349
1.105 2.374 1.730 4928
1.116 2.396 1.735 4766
1.123 2.413 1.736 4370
1.128 2.423 1.732 4205
1.139 2.446 1.737 3055
1.158 2.487 1.754 2987
1.148 2.466 1.730 3796
1.150 2.470 1.722 4861
1.184 2.543 1.758 5372
1.189 2.553 1.754 7212
1.191 2.557 1.746 6778
1.204 2.587 1.754 7554
1.209 2.597 1.750 9855
1.214 2.607 1.745 15029
1.216 2.612 1.737 20244
1.221 2.622 1.733 20553
1.223 2.626 1.725 20905
1.225 2.631 1.716 16526
1.230 2.641 1.712 12231
1.226 2.633 1.696 12285
1.231 2.643 1.691 15736
1.236 2.653 1.687 19386
1.235 2.651 1.674 17137
1.236 2.655 1.666 11797
1.262 2.710 1.687 9656
1.291 2.771 1.712 10150
1.290 2.769 1.699 14289
1.291 2.773 1.691 13927
1.293 2.777 1.682 10783
1.295 2.781 1.673 8864
1.300 2.792 1.668 10501
1.302 2.796 1.659 11083
1.307 2.806 1.654 9486
1.315 2.823 1.652 8015
1.365 2.930 1.699 8146
1.369 2.941 1.693 8757
1.374 2.951 1.687 8182
1.382 2.968 1.684 6537
1.396 2.998 1.689 7537
1.404 3.015 1.686 8948
1.406 3.020 1.676 8683
1.411 3.030 1.670 5695
1.465 3.145 1.717 6774
1.457 3.130 1.697 7420
1.459 3.134 1.687 7059
1.464 3.144 1.680 5854
1.484 3.188 1.690 5786
1.483 3.185 1.677 5234
1.485 3.189 1.666 5396
1.487 3.193 1.656 5556
1.541 3.309 1.700 7368
1.543 3.313 1.689 8286
1.545 3.317 1.679 5326
1.571 3.374 1.693 6082
1.573 3.378 1.682 7332
1.581 3.396 1.678 6000
1.583 3.400 1.667 4303
1.625 3.490 1.695 3793
1.593 3.421 1.651 4812
1.595 3.425 1.640 5365
1.681 3.609 1.709 6357
1.679 3.606 1.694 6176
1.681 3.611 1.683 7607
1.686 3.621 1.674 9094
1.691 3.632 1.666 7094
1.693 3.636 1.654 6416
1.698 3.647 1.645 7223
1.731 3.718 1.662 5983
1.736 3.729 1.653 5109
1.735 3.726 1.638 3773
1.734 3.723 1.623 3390
1.798 3.862 1.666 3809
1.800 3.866 1.653 6767
1.805 3.877 1.644 9577
1.807 3.881 1.631 8462
1.809 3.885 1.619 5998
1.842 3.956 1.633 5158
1.847 3.967 1.623 10442
1.852 3.978 1.612 10805
1.854 3.982 1.600 7462
1.951 4.190 1.662 5761
1.953 4.194 1.649 5305
1.964 4.218 1.643 5336
1.973 4.236 1.634 8398
1.974 4.240 1.621 7418
1.979 4.250 1.610 6140
1.984 4.261 1.599 7650
1.989 4.272 1.587 6980
2.097 4.502 1.651 5336
2.102 4.513 1.639 3668
2.142 4.599 1.652 3835
2.147 4.610 1.639 4981
2.146 4.607 1.622 5934
2.151 4.618 1.610 4725
2.165 4.650 1.604 4133
2.161 4.640 1.585 3639
2.268 4.871 1.641 2039
2.257 4.848 1.617 3033
2.298 4.935 1.627 3256
2.348 5.042 1.642 3520
2.366 5.081 1.636 4973
2.365 5.078 1.618 4785
2.357 5.061 1.596 5822
2.362 5.072 1.582 5961
2.370 5.089 1.570 6463
2.372 5.093 1.553 4729
2.451 5.264 1.583 3563
2.508 5.386 1.599 2267
2.513 5.397 1.584 2200
2.567 5.512 1.596 2744
2.569 5.516 1.579 2602
2.655 5.702 1.608 2797
2.680 5.754 1.602 2984
2.724 5.849 1.607 4351
2.726 5.853 1.588 6469
2.727 5.857 1.570 6967
2.729 5.861 1.551 4706
2.744 5.892 1.539 4029
2.837 6.093 1.567 3270
2.744 5.893 1.500 2414
2.834 6.086 1.524 2312
3.049 6.547 1.608 2206
3.047 6.543 1.586 3723
3.052 6.554 1.566 4073
3.064 6.579 1.550 4506
3.059 6.569 1.526 4151
3.238 6.953 1.585 3153
3.332 7.155 1.603 3446
3.337 7.165 1.582 4551
3.339 7.169 1.559 5346
3.340 7.173 1.536 5168
3.345 7.184 1.514 4569
3.347 7.187 1.491 3423
3.787 8.132 1.643 2758
3.792 8.143 1.619 3815
3.794 8.147 1.592 3197
3.792 8.144 1.565 2833
3.794 8.147 1.539 3213
3.796 8.151 1.513 2778
3.797 8.155 1.487 2125
3.806 8.172 1.463 1713
3.801 8.162 1.435 1499
4.285 9.202 1.571 2268
4.290 9.213 1.542 2571
4.289 9.210 1.512 2391
4.291 9.213 1.482 2053
4.295 9.224 1.454 1496
4.344 9.327 1.438 1558
0.657 1.411 0.325 1878
0.657 1.411 0.321 2233
0.654 1.405 0.316 2562
0.654 1.405 0.311 2797
0.655 1.406 0.307 2947
0.655 1.406 0.303 3376
0.655 1.406 0.298 4168
0.655 1.407 0.294 4952
0.655 1.407 0.290 5120
0.659 1.415 0.286 4535
0.659 1.415 0.282 3461
0.656 1.408 0.276 2785
0.659 1.416 0.273 2133
0.463 0.994 0.229 2411
0.463 0.995 0.226 3136
0.463 0.995 0.223 3811
0.463 0.995 0.219 3735
0.463 0.995 0.216 2876
0.467 1.003 0.214 3123
0.467 1.003 0.211 4906
0.464 0.996 0.207 6498
0.464 0.996 0.204 7859
0.461 0.989 0.201 8353
0.464 0.996 0.198 6991
0.464 0.996 0.195 5145
0.464 0.997 0.192 3632
0.581 1.248 0.202 2759
0.584 1.255 0.199 2473
0.581 1.248 0.194 1923
0.581 1.248 0.191 1320
0.581 1.248 0.187 1052
0.578 1.241 0.183 859
0.578 1.241 0.179 521
0.468 1.005 0.168 416
0.468 1.005 0.165 488
0.465 0.998 0.162 488
0.465 0.998 0.159 476
0.461 0.990 0.155 429
0.461 0.991 0.152 346
0.461 0.991 0.149 289
4.629 9.940 0.210 308
4.629 9.940 0.178 378
4.629 9.940 0.147 438
4.629 9.940 0.115 499
4.629 9.940 0.083 520
4.629 9.940 0.051 522
4.629 9.939 0.019 502
4.628 9.939 -0.013 447
4.631 9.946 -0.045 393
4.628 9.938 -0.076 332
4.628 9.937 -0.108 272
0.974 2.092 0.003 258
0.977 2.098 -0.018 320
0.980 2.105 -0.025 429
0.980 2.104 -0.031 429
0.983 2.111 -0.039 431
0.979 2.103 -0.045 395
1.136 2.439 -0.082 451
1.136 2.438 -0.090 553
1.135 2.438 -0.098 655
1.135 2.437 -0.106 655
1.135 2.436 -0.113 718
1.134 2.436 -0.121 781
1.134 2.435 -0.129 847
1.134 2.434 -0.136 913
1.133 2.434 -0.144 925
1.133 2.433 -0.152 936
1.133 2.432 -0.159 936
1.132 2.431 -0.167 1242
0.977 2.079 1.769 3887
0.979 2.083 1.762 7775
0.981 2.087 1.756 7775
0.986 2.097 1.754 7947
0.993 2.113 1.756 8816
1.003 2.135 1.763 9536
1.008 2.145 1.761 10548
1.010 2.150 1.754 10548
1.018 2.166 1.756 9049
1.031 2.194 1.768 9234
1.027 2.186 1.752 8495
1.027 2.184 1.740 8573
1.026 2.183 1.729 6176
1.073 2.282 1.793 4776
1.075 2.286 1.785 4776
1.063 2.261 1.756 5611
1.062 2.259 1.745 6567
1.067 2.269 1.742 6476
1.071 2.280 1.739 6789
1.071 2.278 1.728 6070
1.070 2.276 1.716 5707
1.109 2.359 1.764 4927
1.102 2.345 1.744 5959
1.107 2.355 1.741 5558
1.112 2.365 1.738 5359
1.119 2.382 1.739 4767
1.127 2.398 1.739 4689
1.132 2.409 1.736 4332
1.137 2.419 1.732 4040
1.145 2.435 1.733 3061
1.167 2.483 1.754 2999
1.157 2.462 1.730 3685
1.159 2.466 1.722 4594
1.164 2.477 1.718 5158
1.192 2.537 1.746 6686
1.197 2.547 1.742 6340
1.214 2.582 1.754 5836
1.221 2.599 1.754 7777
1.226 2.609 1.749 12186
1.228 2.614 1.741 16664
1.230 2.618 1.733 17093
1.232 2.622 1.725 17522
1.237 2.633 1.720 13323
1.239 2.637 1.712 9089
1.238 2.635 1.700 8698
1.243 2.645 1.695 11886
1.245 2.649 1.687 15077
1.247 2.653 1.678 13045
1.249 2.657 1.670 8278
1.283 2.731 1.702 7713
1.297 2.760 1.708 10915
1.299 2.765 1.699 15629
1.301 2.769 1.691 15274
1.303 2.773 1.682 11531
1.305 2.777 1.673 9272
1.307 2.781 1.664 10756
1.309 2.785 1.655 11645
1.314 2.795 1.650 10186
1.325 2.819 1.652 8431
1.378 2.932 1.702 8727
1.383 2.942 1.696 8951
1.385 2.947 1.687 7609
1.393 2.964 1.684 6287
1.407 2.994 1.689 7726
1.415 3.011 1.686 9100
1.417 3.015 1.676 8797
1.461 3.110 1.714 6114
1.473 3.133 1.714 6690
1.471 3.131 1.700 6930
1.470 3.128 1.687 6675
1.494 3.178 1.700 6986
1.496 3.182 1.690 7395
1.498 3.186 1.680 5504
1.499 3.191 1.670 4369
1.551 3.300 1.710 5250
1.553 3.304 1.700 8023
1.551 3.301 1.686 9511
1.556 3.312 1.679 6104
1.580 3.362 1.690 5563
1.585 3.373 1.682 6947
1.596 3.397 1.681 6783
1.601 3.407 1.673 5197
1.647 3.504 1.704 4417
1.599 3.402 1.645 5429
1.604 3.413 1.637 6086
1.693 3.603 1.709 6741
1.698 3.614 1.700 5919
1.700 3.618 1.689 6770
1.702 3.622 1.677 8815
1.707 3.633 1.669 7412
1.706 3.630 1.654 6713
1.711 3.641 1.645 7518
1.713 3.645 1.634 6102
1.749 3.723 1.653 5194
1.748 3.720 1.638 3583
1.741 3.704 1.618 2858
1.809 3.849 1.663 3529
1.811 3.853 1.651 5723
1.816 3.864 1.641 6699
1.818 3.868 1.629 5935
1.816 3.865 1.614 4610
1.856 3.950 1.633 3743
1.865 3.967 1.625 7800
1.870 3.978 1.615 9559
1.868 3.975 1.600 6531
1.966 4.183 1.662 4971
1.971 4.194 1.651 5515
1.976 4.204 1.641 6770
1.981 4.215 1.630 9030
1.983 4.219 1.616 7684
1.988 4.230 1.605 5828
1.999 4.254 1.599 6806
2.004 4.265 1.587 6000
2.112 4.495 1.651 5319
2.117 4.506 1.639 3655
2.158 4.592 1.652 3892
2.163 4.603 1.639 3851
2.165 4.607 1.625 5039
2.167 4.610 1.610 4691
2.188 4.656 1.608 3720
2.183 4.646 1.589 2233
2.263 4.815 1.626 2550
2.268 4.826 1.613 3374
2.312 4.919 1.625 3779
2.379 5.062 1.651 3896
2.384 5.073 1.636 4996
2.383 5.070 1.618 4275
2.375 5.053 1.596 5254
2.383 5.070 1.584 5749
2.388 5.081 1.570 5796
2.390 5.085 1.553 4902
2.470 5.255 1.583 3339
2.530 5.384 1.601 1941
2.542 5.409 1.589 1970
2.586 5.503 1.596 2297
2.588 5.507 1.579 2497
2.593 5.518 1.563 2615
2.736 5.822 1.622 2884
2.744 5.840 1.607 4148
2.746 5.843 1.588 5788
2.748 5.847 1.570 5887
2.756 5.865 1.554 3485
2.850 6.065 1.583 3567
2.852 6.069 1.563 3046
2.762 5.876 1.498 2055
2.852 6.069 1.523 2288
3.068 6.529 1.607 2517
3.070 6.533 1.586 4510
3.075 6.544 1.566 5021
3.087 6.568 1.550 5255
3.085 6.565 1.527 5081
3.100 6.597 1.512 3766
3.109 6.615 1.494 3208
3.398 7.231 1.597 3716
3.404 7.242 1.576 4070
3.366 7.161 1.536 3819
3.477 7.398 1.558 3965
3.478 7.401 1.534 2972
3.792 8.069 1.634 2734
3.824 8.137 1.620 2847
3.826 8.141 1.594 2663
3.492 7.430 1.442 2932
3.493 7.433 1.418 2604
3.824 8.138 1.513 2086
3.979 8.467 1.541 1816
3.981 8.471 1.514 2308
3.983 8.474 1.487 2375
4.318 9.187 1.571 2365
4.323 9.198 1.542 2655
4.321 9.195 1.512 2349
4.323 9.198 1.482 1975
4.328 9.209 1.454 1618
4.376 9.312 1.438 1618
4.375 9.308 1.407 1692
4.373 9.304 1.376 1168
0.662 1.409 0.317 1521
0.663 1.410 0.312 1899
0.663 1.410 0.308 1982
0.663 1.411 0.304 1774
0.667 1.418 0.300 1555
0.667 1.419 0.296 1502
0.664 1.412 0.290 1501
0.664 1.412 0.286 1381
0.664 1.413 0.282 1152
0.664 1.413 0.277 1013
0.463 0.985 0.231 1181
0.467 0.993 0.229 1414
0.467 0.993 0.226 1606
0.467 0.993 0.223 1654
0.470 1.000 0.220 1622
0.470 1.001 0.217 2425
0.467 0.994 0.213 3930
0.467 0.994 0.210 5498
0.467 0.994 0.207 6544
0.464 0.987 0.204 6877
0.464 0.987 0.201 6099
0.464 0.987 0.198 4197
0.589 1.252 0.210 3382
0.589 1.253 0.206 3113
0.589 1.253 0.203 2873
0.589 1.253 0.199 2675
0.589 1.253 0.195 2253
0.589 1.253 0.191 1641
0.589 1.253 0.187 1315
0.589 1.253 0.183 1049
0.589 1.254 0.179 596
0.586 1.246 0.175 392
0.471 1.003 0.165 383
0.471 1.003 0.162 338
0.468 0.996 0.159 342
0.468 0.996 0.155 398
0.468 0.996 0.152 396
0.465 0.989 0.149 363
0.465 0.989 0.146 301
0.984 2.094 -0.024 292
0.984 2.094 -0.031 292
1.148 2.443 -0.068 416
1.148 2.443 -0.075 658
1.148 2.442 -0.083 900
1.147 2.442 -0.091 1174
1.147 2.441 -0.099 1448
1.147 2.440 -0.106 1448
1.147 2.440 -0.114 1509
1.146 2.439 -0.122 1572
1.146 2.438 -0.129 1464
1.142 2.430 -0.136 1365
1.142 2.430 -0.144 1204
1.141 2.429 -0.152 1044
1.141 2.428 -0.159 1044
1.144 2.434 -0.168 1386
0.983 2.069 1.764 3306
0.985 2.073 1.757 6612
0.987 2.078 1.751 6612
0.991 2.088 1.749 7195
1.004 2.115 1.761 8705
1.015 2.137 1.768 9667
1.017 2.141 1.761 10874
1.019 2.146 1.754 10874
1.026 2.162 1.756 9507
1.040 2.189 1.768 9729
1.036 2.182 1.752 8690
1.035 2.180 1.740 8490
1.037 2.184 1.733 6195
1.070 2.254 1.775 4969
1.072 2.258 1.768 5017
1.072 2.257 1.756 5896
1.074 2.261 1.749 6717
1.076 2.265 1.742 6455
1.080 2.275 1.739 6528
1.080 2.274 1.728 5661
1.076 2.266 1.712 5333
1.115 2.348 1.760 5658
1.111 2.340 1.744 7149
1.116 2.351 1.741 6205
1.121 2.361 1.738 5502
1.129 2.377 1.739 4471
1.142 2.406 1.748 4330
1.144 2.410 1.740 3889
1.149 2.420 1.737 3459
1.157 2.437 1.737 2879
1.171 2.466 1.746 3029
1.170 2.464 1.734 3636
1.172 2.468 1.726 4340
1.183 2.491 1.730 5138
1.191 2.507 1.730 6715
1.198 2.524 1.730 6411
1.209 2.546 1.734 4661
1.238 2.606 1.762 6083
1.237 2.604 1.749 9595
1.239 2.609 1.741 13125
1.241 2.613 1.733 13596
1.243 2.617 1.725 14068
1.248 2.628 1.720 10477
1.253 2.638 1.716 6672
1.252 2.636 1.703 5768
1.257 2.646 1.699 8373
1.259 2.650 1.690 10980
1.261 2.654 1.682 9416
1.295 2.728 1.714 6969
1.297 2.732 1.706 7124
1.305 2.749 1.704 10890
1.310 2.759 1.699 15329
1.312 2.763 1.691 14979
1.314 2.768 1.682 11281
1.313 2.765 1.669 9139
1.315 2.769 1.661 10761
1.320 2.780 1.655 11959
1.325 2.790 1.650 10901
1.406 2.961 1.732 9063
1.393 2.933 1.706 9738
1.395 2.937 1.696 8913
1.394 2.935 1.683 6540
1.402 2.952 1.681 5690
1.419 2.988 1.689 6952
1.427 3.005 1.686 8587
1.432 3.015 1.680 8475
1.477 3.110 1.717 6931
1.482 3.121 1.710 6473
1.487 3.131 1.704 6375
1.504 3.168 1.710 6361
1.506 3.172 1.700 7885
1.511 3.183 1.693 8562
1.517 3.194 1.686 6030
1.550 3.263 1.708 4546
1.555 3.274 1.701 5351
1.563 3.291 1.697 8421
1.565 3.295 1.686 10310
1.570 3.306 1.679 6569
1.587 3.343 1.684 5263
1.599 3.366 1.682 6455
1.616 3.404 1.687 7213
1.621 3.414 1.679 5858
1.661 3.498 1.704 5191
1.609 3.389 1.642 5902
1.614 3.400 1.634 6533
1.711 3.603 1.712 7083
1.716 3.614 1.703 6472
1.721 3.624 1.695 7341
1.723 3.628 1.683 9141
1.725 3.633 1.671 7513
1.724 3.630 1.657 6732
1.726 3.634 1.645 7564
1.728 3.638 1.634 6423
1.764 3.715 1.653 4875
1.763 3.713 1.638 3395
1.822 3.838 1.675 3357
1.821 3.835 1.660 4785
1.823 3.839 1.648 6045
1.825 3.843 1.636 5122
1.827 3.847 1.623 4434
1.829 3.851 1.611 3883
1.891 3.983 1.648 3356
1.887 3.973 1.630 6407
1.889 3.977 1.618 8861
1.887 3.974 1.602 5900
1.986 4.182 1.665 4258
1.988 4.186 1.651 5828
1.990 4.190 1.638 8152
1.995 4.200 1.627 9954
1.993 4.198 1.611 8130
2.005 4.222 1.605 5481
2.016 4.246 1.599 5667
2.021 4.257 1.587 4684
2.130 4.486 1.651 4551
2.135 4.497 1.639 3250
2.176 4.583 1.652 4957
2.178 4.587 1.637 3857
2.183 4.598 1.625 4637
2.185 4.602 1.610 4636
2.213 4.661 1.613 3439
2.222 4.678 1.602 2246
2.285 4.813 1.628 2900
2.287 4.817 1.613 3304
2.332 4.910 1.625 3876
2.402 5.059 1.653 4016
2.404 5.063 1.636 4706
2.403 5.060 1.618 3533
2.401 5.057 1.600 4133
2.406 5.068 1.586 4783
2.408 5.071 1.570 4706
2.410 5.075 1.553 4956
2.415 5.086 1.539 3580
2.417 5.090 1.523 1846
2.567 5.406 1.591 1741
2.701 5.688 1.648 1880
2.610 5.497 1.579 1917
2.748 5.786 1.635 2456
2.759 5.811 1.622 2813
2.765 5.822 1.605 3303
2.770 5.832 1.588 4456
2.771 5.836 1.570 4465
2.770 5.833 1.549 2213
2.878 6.060 1.584 2971
2.876 6.057 1.563 2776
2.875 6.054 1.542 1896
2.873 6.051 1.521 1927
3.094 6.516 1.607 2611
3.100 6.527 1.587 5009
3.108 6.545 1.569 5725
3.117 6.563 1.551 5475
3.112 6.553 1.527 5348
3.130 6.591 1.514 6030
3.135 6.602 1.494 5340
3.133 6.599 1.471 3393
3.433 7.228 1.576 3564
3.501 7.373 1.580 4472
3.503 7.377 1.556 5688
3.505 7.380 1.533 4257
3.506 7.384 1.509 3359
3.508 7.388 1.485 2531
3.858 8.125 1.594 2120
3.522 7.416 1.442 2817
3.523 7.419 1.418 2498
3.857 8.122 1.513 1558
4.017 8.458 1.542 1946
4.018 8.462 1.515 2888
4.017 8.458 1.487 2960
4.018 8.462 1.460 2334
4.360 9.181 1.542 2316
4.358 9.177 1.512 2094
4.360 9.181 1.482 1963
4.365 9.192 1.454 1808
4.366 9.195 1.424 1291
4.408 9.283 1.406 995
4.410 9.287 1.376 976
0.668 1.407 0.317 1043
0.665 1.400 0.311 1483
0.668 1.408 0.308 1550
0.665 1.401 0.303 1332
0.665 1.401 0.298 1080
0.581 1.224 0.274 1033
0.581 1.224 0.270 1127
0.578 1.218 0.265 1086
0.582 1.225 0.262 969
0.582 1.225 0.258 843
2.940 6.191 0.741 746
2.934 6.178 0.720 724
0.474 0.998 0.226 671
0.474 0.998 0.223 1009
0.471 0.991 0.219 1849
0.471 0.992 0.216 3243
0.471 0.992 0.213 4422
0.468 0.985 0.210 5335
0.468 0.985 0.207 5944
0.468 0.985 0.204 5765
0.468 0.985 0.201 4766
0.468 0.986 0.198 3113
0.594 1.250 0.210 2993
0.597 1.257 0.207 2727
0.597 1.257 0.203 2526
0.597 1.258 0.199 2430
0.597 1.258 0.195 2171
0.597 1.258 0.191 1732
0.594 1.251 0.187 1464
0.594 1.251 0.183 1187
0.469 0.987 0.170 1052
0.472 0.994 0.168 878
0.472 0.994 0.165 645
0.472 0.994 0.162 496
0.472 0.994 0.159 418
0.475 1.001 0.156 307
4.707 9.912 0.083 251
4.858 10.230 -0.149 251
4.854 10.222 -0.182 282
4.857 10.229 -0.215 293
4.857 10.228 -0.248 306
4.856 10.227 -0.281 292
4.856 10.225 -0.314 279
4.852 10.217 -0.347 250
1.158 2.439 -0.060 278
1.158 2.439 -0.068 408
1.158 2.438 -0.075 597
1.157 2.437 -0.083 785
1.154 2.430 -0.090 990
1.154 2.429 -0.098 1202
1.153 2.429 -0.106 1202
1.153 2.428 -0.113 1237
1.156 2.434 -0.122 1273
1.152 2.426 -0.129 1153
1.152 2.426 -0.136 1035
1.152 2.425 -0.144 882
1.151 2.424 -0.152 730
1.151 2.423 -0.159 730
1.154 2.430 -0.168 935
0.989 2.066 1.764 2784
0.991 2.070 1.757 5568
0.993 2.075 1.751 5568
0.998 2.085 1.749 6657
1.014 2.118 1.765 8684
1.021 2.134 1.768 9709
1.026 2.144 1.765 10985
1.028 2.148 1.759 10985
1.036 2.164 1.761 9989
1.046 2.186 1.768 10102
1.043 2.179 1.752 8852
1.042 2.177 1.740 8270
1.044 2.181 1.733 6074
1.072 2.239 1.766 5907
1.076 2.249 1.763 5805
1.078 2.253 1.756 6424
1.080 2.258 1.749 7088
1.083 2.262 1.742 6593
1.090 2.278 1.744 6417
1.089 2.276 1.732 5782
1.083 2.262 1.712 5673
1.119 2.339 1.756 6625
1.118 2.337 1.744 8312
1.123 2.347 1.741 6879
1.125 2.352 1.734 5592
1.130 2.362 1.730 4089
1.153 2.408 1.752 3894
1.155 2.413 1.744 3615
1.157 2.417 1.737 3336
1.165 2.433 1.737 2653
1.178 2.462 1.746 2741
1.177 2.460 1.734 3548
1.179 2.464 1.726 4397
1.187 2.481 1.726 5354
1.195 2.497 1.726 7016
1.203 2.514 1.726 7056
1.208 2.524 1.722 5568
1.252 2.615 1.769 5113
1.248 2.607 1.753 7500
1.247 2.605 1.741 10171
1.249 2.609 1.733 10678
1.251 2.613 1.725 11186
1.259 2.630 1.724 8632
1.270 2.653 1.727 5958
1.272 2.657 1.719 4734
1.268 2.649 1.703 6004
1.270 2.653 1.694 7518
1.275 2.663 1.689 6763
1.304 2.724 1.714 6054
1.306 2.728 1.706 6783
1.311 2.739 1.701 10327
1.316 2.749 1.696 13935
1.321 2.759 1.691 13407
1.323 2.764 1.682 10461
1.321 2.761 1.669 9126
1.323 2.765 1.661 10937
1.325 2.769 1.652 12052
1.333 2.786 1.650 11104
1.415 2.956 1.732 10396
1.405 2.935 1.709 10922
1.404 2.933 1.696 9201
1.402 2.930 1.683 6311
1.407 2.941 1.678 5891
1.428 2.984 1.689 6107
1.439 3.007 1.689 8160
1.441 3.011 1.680 8074
1.486 3.106 1.717 7174
1.491 3.116 1.710 6148
1.528 3.192 1.737 6380
1.514 3.164 1.710 6644
1.519 3.174 1.703 8236
1.521 3.178 1.693 9071
1.526 3.189 1.686 6609
1.544 3.226 1.692 5462
1.558 3.256 1.694 6433
1.570 3.280 1.693 8389
1.575 3.290 1.686 9961
1.583 3.307 1.682 6456
1.591 3.325 1.678 4894
1.618 3.381 1.691 5850
1.630 3.405 1.690 7219
1.632 3.409 1.679 6278
1.672 3.493 1.704 5768
1.667 3.483 1.687 5792
1.625 3.395 1.634 6091
1.725 3.604 1.715 7341
1.727 3.608 1.703 7658
1.732 3.619 1.695 8653
1.737 3.630 1.686 9278
1.736 3.627 1.671 7202
1.735 3.625 1.657 6467
1.737 3.629 1.645 7335
1.739 3.633 1.634 6428
1.776 3.710 1.653 4076
1.771 3.701 1.635 3045
1.828 3.819 1.670 4792
1.833 3.829 1.660 6634
1.838 3.840 1.651 7538
1.843 3.851 1.641 5295
1.842 3.848 1.626 4167
1.843 3.852 1.614 3771
1.913 3.997 1.656 3438
1.902 3.974 1.633 6031
1.901 3.972 1.618 9050
1.903 3.975 1.605 6373
2.005 4.189 1.670 3710
2.000 4.180 1.651 5807
2.002 4.184 1.638 9969
2.004 4.188 1.625 12224
2.003 4.185 1.609 9796
2.014 4.209 1.603 5350
2.029 4.240 1.599 4369
2.031 4.244 1.585 3522
2.141 4.473 1.648 3976
2.185 4.566 1.664 3607
2.187 4.570 1.649 5702
2.189 4.574 1.635 4452
2.194 4.584 1.622 4548
2.199 4.595 1.610 4216
2.224 4.647 1.610 3069
2.229 4.658 1.598 2259
2.307 4.820 1.632 2957
2.305 4.817 1.615 3116
2.343 4.896 1.622 3149
2.418 5.052 1.653 3423
2.416 5.049 1.634 4425
2.412 5.039 1.614 4609
2.413 5.043 1.598 5360
2.419 5.053 1.584 5080
2.420 5.057 1.568 4710
2.425 5.068 1.553 4739
2.434 5.085 1.541 3444
2.545 5.318 1.587 3167
2.554 5.335 1.574 2021
2.715 5.672 1.646 1868
2.763 5.774 1.654 1881
2.765 5.778 1.635 2594
2.774 5.795 1.620 2616
2.782 5.813 1.605 2280
2.787 5.824 1.588 2752
2.786 5.821 1.568 2866
2.921 6.104 1.617 1624
2.903 6.066 1.588 2228
2.891 6.041 1.562 2101
2.890 6.038 1.541 1681
2.935 6.133 1.542 1926
3.111 6.500 1.605 2399
3.123 6.525 1.589 4971
3.138 6.557 1.574 6403
3.143 6.567 1.555 5702
3.148 6.578 1.535 6146
3.150 6.582 1.514 7969
3.155 6.592 1.494 7263
3.153 6.589 1.471 4621
3.417 7.141 1.560 3606
3.520 7.355 1.579 5854
3.525 7.366 1.556 7631
3.527 7.370 1.533 5765
3.529 7.373 1.509 4408
3.527 7.370 1.484 3221
3.873 8.092 1.590 2137
3.541 7.398 1.440 2814
3.546 7.408 1.418 2424
4.108 8.583 1.594 1914
4.039 8.439 1.541 2054
4.044 8.450 1.515 2841
4.042 8.446 1.487 2701
4.467 9.333 1.599 2072
4.384 9.160 1.541 1967
4.386 9.164 1.512 1785
4.469 9.338 1.507 1946
0.580 1.212 0.307 2392
0.580 1.212 0.303 2761
0.580 1.212 0.299 2894
0.580 1.213 0.295 2761
0.581 1.213 0.292 2428
0.581 1.214 0.288 1971
0.584 1.221 0.285 1494
0.588 1.229 0.282 1173
0.588 1.229 0.278 1062
0.588 1.229 0.274 1166
0.585 1.223 0.270 1329
0.585 1.223 0.266 1347
0.585 1.223 0.262 1226
0.589 1.231 0.259 1030
0.586 1.224 0.255 842
0.586 1.224 0.251 570
0.470 0.982 0.225 643
0.470 0.983 0.222 1016
0.470 0.983 0.219 1509
0.471 0.983 0.216 2014
0.471 0.983 0.213 2234
0.471 0.984 0.210 2287
0.467 0.977 0.206 2323
0.467 0.977 0.203 2159
0.468 0.977 0.200 2435
0.471 0.984 0.198 3330
0.471 0.984 0.195 3727
0.471 0.984 0.192 3767
0.471 0.985 0.189 3472
0.471 0.985 0.186 2423
0.471 0.985 0.183 1624
0.471 0.985 0.180 1083
0.475 0.992 0.177 964
0.475 0.992 0.174 1315
0.475 0.992 0.171 1383
0.475 0.992 0.168 1230
0.475 0.993 0.165 919
0.475 0.993 0.162 674
0.475 0.993 0.159 561
0.475 0.993 0.155 425
0.475 0.993 0.152 329
0.475 0.993 0.149 271
4.885 10.208 -0.182 284
4.888 10.214 -0.215 310
4.888 10.213 -0.248 338
4.887 10.212 -0.281 331
4.887 10.211 -0.314 325
4.883 10.202 -0.347 293
4.882 10.201 -0.379 264
1.165 2.435 -0.068 311
1.162 2.427 -0.075 449
1.161 2.427 -0.082 589
1.161 2.426 -0.090 717
1.161 2.426 -0.098 846
1.161 2.425 -0.106 846
1.160 2.424 -0.113 826
1.160 2.424 -0.121 807
1.160 2.423 -0.129 666
1.156 2.415 -0.135 529
1.156 2.414 -0.143 414
0.459 0.959 0.028 475
0.459 0.958 0.025 618
0.459 0.958 0.022 804
0.996 2.063 1.764 2243
0.998 2.067 1.757 4486
1.000 2.071 1.751 4486
1.022 2.116 1.777 6298
1.021 2.114 1.765 8911
1.029 2.130 1.768 9859
1.037 2.146 1.770 11352
1.039 2.150 1.763 11352
1.047 2.166 1.765 10580
1.051 2.177 1.763 10543
1.051 2.175 1.752 8758
1.050 2.173 1.740 7537
1.069 2.213 1.760 5988
1.080 2.235 1.766 7211
1.082 2.239 1.759 6880
1.087 2.249 1.756 7183
1.089 2.254 1.749 7615
1.091 2.258 1.742 6924
1.098 2.274 1.744 6552
1.098 2.272 1.732 6274
1.091 2.258 1.712 6399
1.128 2.335 1.756 7651
1.127 2.333 1.744 9226
1.132 2.343 1.741 7310
1.137 2.353 1.738 5453
1.139 2.358 1.730 4150
1.164 2.410 1.756 4401
1.163 2.409 1.744 3909
1.165 2.413 1.737 3421
1.176 2.435 1.741 2645
1.184 2.452 1.742 2670
1.186 2.456 1.734 3525
1.188 2.460 1.726 4380
1.196 2.476 1.726 5563
1.204 2.493 1.726 7267
1.209 2.503 1.722 7669
1.214 2.514 1.718 7020
1.219 2.524 1.714 5607
1.257 2.602 1.753 6352
1.256 2.600 1.741 8276
1.258 2.605 1.733 8759
1.263 2.615 1.728 9327
1.268 2.625 1.724 8253
1.276 2.642 1.723 6684
1.281 2.653 1.719 5645
1.286 2.663 1.714 5440
1.310 2.711 1.732 6014
1.290 2.671 1.697 5224
1.314 2.719 1.714 5407
1.316 2.723 1.706 6653
1.321 2.734 1.701 9484
1.326 2.744 1.696 11658
1.331 2.755 1.691 10792
1.333 2.759 1.682 9021
1.331 2.756 1.669 8548
1.330 2.754 1.657 10111
1.335 2.764 1.652 11096
1.343 2.781 1.650 10281
1.423 2.945 1.729 11012
1.415 2.930 1.709 11515
1.414 2.928 1.696 9440
1.413 2.925 1.683 6438
1.415 2.929 1.674 6271
1.454 3.011 1.706 5770
1.453 3.008 1.693 7762
1.455 3.012 1.683 7718
1.498 3.100 1.717 6371
1.503 3.111 1.710 5906
1.539 3.186 1.737 6505
1.529 3.165 1.713 6450
1.531 3.169 1.703 7915
1.533 3.173 1.693 8806
1.541 3.190 1.689 7024
1.555 3.220 1.692 6635
1.567 3.244 1.691 7682
1.578 3.267 1.690 7809
1.587 3.285 1.686 8572
1.595 3.302 1.682 5911
1.600 3.312 1.674 4991
1.602 3.316 1.664 5246
1.642 3.399 1.690 6749
1.647 3.410 1.682 6268
1.671 3.460 1.692 5907
1.680 3.477 1.687 6231
1.679 3.475 1.673 5115
1.738 3.598 1.715 7434
1.740 3.602 1.703 8373
1.745 3.613 1.695 8857
1.750 3.624 1.686 8488
1.752 3.628 1.674 6393
1.751 3.625 1.660 6013
1.750 3.622 1.645 6787
1.752 3.626 1.634 5870
1.754 3.630 1.622 3399
1.843 3.815 1.685 3671
1.845 3.819 1.672 6384
1.847 3.823 1.660 8362
1.855 3.840 1.653 9560
1.863 3.857 1.646 7445
1.862 3.855 1.631 5636
1.874 3.879 1.627 4669
1.898 3.930 1.633 3490
1.913 3.961 1.630 5759
1.915 3.965 1.618 9942
1.920 3.975 1.607 7587
1.938 4.013 1.607 4208
2.015 4.172 1.651 6466
2.017 4.176 1.638 12272
2.019 4.180 1.625 14502
2.018 4.177 1.609 11637
2.023 4.188 1.598 5525
2.045 4.233 1.599 3213
2.148 4.448 1.658 3682
2.154 4.458 1.646 3843
2.205 4.565 1.666 3727
2.203 4.562 1.649 5822
2.202 4.559 1.632 4952
2.211 4.576 1.622 4702
2.212 4.580 1.608 3852
2.241 4.639 1.610 2510
2.249 4.656 1.600 2139
2.321 4.804 1.630 2542
2.323 4.808 1.615 2609
2.324 4.812 1.599 2314
2.336 4.837 1.590 2896
2.428 5.026 1.630 4622
2.423 5.016 1.610 6530
2.428 5.027 1.596 8075
2.430 5.031 1.580 7764
2.432 5.035 1.564 6461
2.437 5.045 1.549 4841
2.492 5.160 1.564 2797
2.561 5.302 1.586 4175
2.569 5.319 1.572 2520
2.729 5.649 1.643 1884
2.781 5.757 1.652 1872
2.789 5.774 1.637 2492
2.791 5.778 1.619 2399
2.773 5.741 1.589 1840
2.869 5.939 1.620 1619
2.803 5.804 1.566 1846
2.943 6.093 1.617 1958
2.942 6.090 1.596 2397
3.034 6.282 1.621 2007
2.955 6.118 1.562 1880
2.957 6.122 1.542 1937
3.033 6.279 1.557 2515
3.160 6.542 1.595 4763
3.165 6.552 1.576 6405
3.170 6.563 1.556 5638
3.172 6.567 1.535 6470
3.174 6.570 1.514 8599
3.176 6.574 1.493 7789
3.177 6.578 1.471 4897
3.443 7.128 1.560 3484
3.547 7.342 1.579 6607
3.549 7.346 1.555 8942
3.550 7.350 1.531 6653
3.552 7.354 1.508 4795
3.550 7.350 1.483 3521
3.892 8.057 1.586 2496
3.567 7.385 1.440 2338
4.134 8.558 1.620 2060
4.139 8.569 1.594 2154
4.137 8.565 1.565 1814
4.074 8.435 1.515 2155
4.073 8.432 1.487 1950
4.501 9.317 1.599 1968
0.584 1.208 0.318 2736
0.584 1.209 0.314 4331
0.587 1.216 0.312 5945
0.584 1.209 0.307 7356
0.584 1.210 0.303 8311
0.585 1.210 0.299 8643
0.585 1.211 0.295 8315
0.585 1.211 0.292 7462
0.585 1.212 0.288 6254
0.585 1.212 0.284 4820
0.589 1.219 0.281 3467
0.589 1.220 0.277 2319
0.593 1.227 0.274 1612
0.593 1.228 0.271 1329
0.590 1.221 0.266 1153
0.593 1.228 0.263 942
0.593 1.229 0.259 719
2.988 6.185 0.742 557
2.988 6.187 0.723 686
2.993 6.195 0.703 668
2.993 6.197 0.683 551
0.474 0.981 0.219 451
0.474 0.981 0.216 904
0.474 0.982 0.213 1287
0.474 0.982 0.210 1665
0.474 0.982 0.207 2038
0.474 0.982 0.204 2498
0.474 0.982 0.201 3184
0.475 0.982 0.198 3794
0.475 0.983 0.195 3922
0.475 0.983 0.192 3942
0.475 0.983 0.189 3805
0.475 0.983 0.186 3005
