2.677 1.868 1.555 14683
2.681 1.870 1.545 17200
2.678 1.869 1.533 18930
2.681 1.871 1.523 19124
2.685 1.873 1.514 16608
2.676 1.867 1.498 13912
2.685 1.874 1.492 11441
2.688 1.876 1.483 7220
2.686 1.874 1.470 3787
2.689 1.876 1.461 6468
2.698 1.883 1.454 12390
2.707 1.889 1.448 13136
2.716 1.895 1.441 11534
2.725 1.902 1.435 11629
2.728 1.904 1.425 11049
2.738 1.910 1.419 8356
2.741 1.912 1.409 6696
2.738 1.910 1.396 9974
2.741 1.912 1.387 17588
2.744 1.914 1.377 21444
2.753 1.921 1.370 17204
2.749 1.919 1.358 13439
2.746 1.916 1.346 14001
2.749 1.918 1.336 11877
2.758 1.925 1.329 11916
2.767 1.931 1.322 15805
2.770 1.933 1.312 15343
2.779 1.939 1.305 9556
2.794 1.950 1.301 3878
2.821 1.969 1.301 3229
2.824 1.971 1.291 3931
2.833 1.977 1.284 4341
2.823 1.970 1.269 5479
2.826 1.972 1.259 5768
2.835 1.978 1.252 4852
2.831 1.976 1.239 4457
2.834 1.977 1.229 5604
2.836 1.979 1.219 8477
2.839 1.981 1.210 9865
2.848 1.987 1.202 8402
2.850 1.989 1.192 9230
2.859 1.995 1.184 12761
2.868 2.001 1.177 16641
2.876 2.007 1.169 15140
2.885 2.013 1.161 9133
2.900 2.024 1.155 6167
2.890 2.017 1.141 5054
2.905 2.027 1.135 5325
2.907 2.029 1.125 6483
2.910 2.030 1.114 8224
2.912 2.032 1.104 8413
2.920 2.038 1.096 8824
2.923 2.039 1.086 11608
2.919 2.037 1.074 12527
2.921 2.038 1.063 9961
2.929 2.044 1.055 5519
2.982 2.081 1.061 2756
2.927 2.043 1.033 3895
2.930 2.044 1.022 7404
2.932 2.046 1.012 9224
2.934 2.047 1.002 6645
2.930 2.044 0.990 4212
2.925 2.041 0.978 4279
3.799 2.651 1.218 5851
3.796 2.649 1.203 4164
3.785 2.641 1.186 2961
4.237 2.957 1.297 3997
4.228 2.950 1.278 4077
4.256 2.970 1.270 5780
4.258 2.971 1.255 7976
4.255 2.969 1.238 7830
4.257 2.971 1.223 6409
4.266 2.977 1.210 4212
4.281 2.988 1.198 3394
4.685 3.269 1.282 2748
4.484 3.129 1.216 2657
4.506 3.144 1.205 3004
4.514 3.150 1.190 3546
4.517 3.152 1.174 3706
4.519 3.154 1.158 3563
5.192 3.623 1.293 4098
5.195 3.625 1.274 6406
5.198 3.627 1.256 8455
5.200 3.629 1.238 8416
5.209 3.635 1.221 7063
5.212 3.637 1.202 6616
5.214 3.639 1.184 5894
5.217 3.640 1.165 4278
5.566 3.884 1.214 3171
5.575 3.890 1.196 3398
5.577 3.892 1.176 2767
5.554 3.875 1.152 2064
5.543 3.868 1.130 2578
6.156 4.296 1.218 3832
6.159 4.297 1.196 3599
6.155 4.295 1.173 3042
6.164 4.301 1.153 3554
6.172 4.307 1.132 4360
6.143 4.286 1.105 6680
6.138 4.283 1.082 9346
6.154 4.294 1.063 7750
6.156 4.295 1.041 6294
6.145 4.288 1.017 6294
6.108 4.262 0.990 5333
6.117 4.268 0.969 4930
6.125 4.274 0.949 4276
6.121 4.271 0.926 4589
6.123 4.272 0.904 5419
6.131 4.278 0.884 4707
6.139 4.284 0.863 4332
6.141 4.285 0.841 4808
6.142 4.286 0.819 6343
6.138 4.283 0.797 5774
6.133 4.279 0.774 3997
6.141 4.285 0.753 3668
6.142 4.286 0.732 3172
6.551 4.571 0.748 2890
6.540 4.563 0.724 3274
6.541 4.564 0.701 3846
6.536 4.561 0.677 4377
6.544 4.566 0.654 4564
6.551 4.572 0.632 4463
6.553 4.572 0.609 3124
6.567 4.582 0.586 1230
6.574 4.587 0.564 880
6.582 4.593 0.541 1038
6.583 4.593 0.517 942
6.707 4.680 0.501 911
6.695 4.671 0.476 1144
6.689 4.667 0.452 1083
6.780 4.731 0.433 934
6.710 4.682 0.406 862
6.704 4.678 0.382 858
6.704 4.678 0.358 858
11.689 8.157 0.480 859
11.690 8.157 0.439 777
7.167 5.001 0.297 829
7.245 5.055 0.273 740
7.245 5.056 0.248 841
7.232 5.047 0.222 623
7.161 4.997 0.196 555
7.161 4.997 0.170 507
7.155 4.993 0.145 435
7.155 4.992 0.120 363
9.304 6.492 -0.447 310
9.303 6.491 -0.480 356
9.301 6.490 -0.513 403
9.293 6.485 -0.546 431
9.291 6.483 -0.579 460
9.296 6.487 -0.612 463
9.301 6.490 -0.645 488
9.299 6.489 -0.678 488
9.297 6.487 -0.711 457
9.288 6.481 -0.744 428
9.293 6.484 -0.777 386
9.290 6.483 -0.810 346
9.288 6.481 -0.843 277
1.883 1.305 1.764 5437
1.886 1.307 1.757 10874
1.890 1.310 1.751 10874
1.905 1.320 1.754 9417
1.909 1.323 1.747 8421
1.912 1.326 1.740 8159
1.900 1.317 1.720 8773
1.904 1.320 1.713 8773
1.913 1.326 1.711 9909
1.922 1.332 1.709 11303
1.921 1.331 1.698 10086
1.919 1.330 1.687 8937
1.928 1.336 1.685 7150
1.975 1.369 1.713 6673
2.011 1.394 1.733 5493
2.026 1.404 1.735 6013
2.035 1.411 1.732 6654
2.045 1.417 1.729 7348
2.054 1.424 1.726 8228
2.052 1.422 1.715 10390
2.056 1.425 1.708 12610
2.060 1.428 1.701 10476
2.063 1.430 1.693 8343
2.067 1.433 1.686 5166
2.032 1.409 1.650 2693
2.141 1.484 1.722 2776
2.150 1.490 1.719 3606
2.143 1.485 1.703 5218
2.141 1.484 1.691 7184
2.150 1.490 1.688 7009
2.160 1.497 1.685 7001
2.163 1.499 1.677 4838
2.212 1.533 1.702 3610
2.216 1.536 1.694 3383
2.214 1.534 1.682 3680
2.217 1.537 1.675 4385
2.227 1.543 1.671 6849
2.230 1.546 1.663 9300
2.240 1.552 1.659 8499
2.243 1.555 1.651 7914
2.247 1.557 1.644 7177
2.262 1.568 1.644 4774
2.413 1.673 1.735 4393
2.412 1.671 1.723 5712
2.415 1.674 1.715 5383
2.431 1.685 1.714 4707
2.486 1.723 1.739 6038
2.490 1.726 1.731 7486
2.505 1.736 1.729 10762
2.509 1.739 1.721 12746
2.524 1.749 1.719 9599
2.551 1.768 1.725 6548
2.561 1.775 1.720 5205
2.553 1.769 1.703 5412
2.551 1.768 1.691 6554
2.554 1.770 1.682 6794
2.570 1.781 1.680 6711
2.643 1.832 1.714 7611
2.647 1.835 1.704 10458
2.651 1.837 1.695 13079
2.655 1.840 1.686 15575
2.658 1.842 1.677 15451
2.662 1.845 1.667 12094
2.648 1.835 1.648 7844
2.640 1.830 1.632 8149
2.649 1.836 1.626 7918
2.635 1.826 1.607 10278
2.639 1.829 1.597 13582
2.648 1.835 1.591 12170
2.663 1.846 1.589 11926
2.661 1.844 1.576 12704
2.664 1.847 1.567 11979
2.674 1.853 1.561 12579
2.677 1.855 1.551 12663
2.686 1.862 1.545 13428
2.684 1.860 1.533 14519
2.687 1.862 1.523 16391
2.685 1.861 1.511 17648
2.682 1.859 1.498 16686
2.691 1.865 1.492 14382
2.694 1.867 1.483 9985
2.692 1.865 1.470 6064
2.695 1.868 1.461 8860
2.698 1.870 1.451 15762
2.707 1.876 1.445 16031
2.710 1.878 1.435 12828
2.713 1.881 1.426 11281
2.710 1.878 1.414 10393
2.713 1.881 1.404 8389
2.716 1.883 1.395 5939
2.731 1.893 1.391 8823
2.741 1.899 1.384 16712
2.750 1.906 1.377 20643
2.753 1.908 1.368 17775
2.756 1.910 1.358 15427
2.758 1.912 1.348 16379
2.755 1.910 1.336 14538
2.758 1.912 1.326 13635
2.773 1.922 1.322 16682
2.776 1.924 1.312 17171
2.785 1.930 1.305 12098
2.794 1.936 1.298 6092
2.803 1.943 1.291 3840
2.787 1.932 1.274 2884
2.821 1.955 1.276 2715
2.817 1.953 1.264 5485
2.826 1.959 1.257 6706
2.835 1.965 1.249 5360
2.838 1.967 1.239 5063
2.834 1.964 1.227 6515
2.843 1.970 1.219 8772
2.845 1.972 1.210 9444
2.854 1.978 1.202 7695
2.857 1.980 1.192 9738
2.865 1.986 1.184 14373
2.874 1.992 1.177 17948
2.877 1.994 1.166 15943
2.885 2.000 1.159 9069
2.894 2.006 1.151 6218
2.884 1.999 1.136 6648
2.893 2.005 1.128 7130
2.901 2.011 1.120 8159
2.916 2.021 1.114 8607
2.918 2.023 1.104 8299
2.921 2.024 1.094 6905
2.929 2.030 1.086 10026
2.925 2.027 1.074 12651
2.927 2.029 1.063 10606
2.917 2.022 1.049 6161
2.913 2.019 1.037 2944
2.928 2.029 1.031 5453
2.930 2.031 1.020 7331
2.938 2.036 1.012 6565
3.629 2.515 1.207 4800
3.638 2.521 1.196 3601
3.799 2.633 1.229 4427
3.808 2.639 1.218 5396
3.810 2.641 1.204 3512
3.794 2.629 1.186 2437
4.253 2.948 1.298 2779
4.243 2.941 1.280 2851
4.265 2.956 1.270 4047
4.268 2.958 1.255 5315
4.264 2.955 1.238 4935
4.267 2.957 1.223 4001
4.282 2.968 1.212 2781
4.495 3.115 1.249 3289
4.491 3.113 1.232 2755
4.487 3.110 1.214 3016
4.509 3.125 1.203 3116
4.518 3.131 1.189 3445
4.521 3.133 1.173 3604
4.529 3.139 1.158 3629
5.204 3.607 1.293 4555
5.206 3.609 1.274 6936
5.209 3.610 1.256 8962
5.212 3.612 1.238 9327
5.214 3.614 1.219 8557
5.223 3.620 1.202 8294
5.226 3.622 1.184 7555
5.228 3.624 1.165 5806
5.231 3.625 1.147 3880
5.587 3.872 1.196 3590
5.576 3.865 1.174 3512
5.553 3.849 1.149 2834
5.549 3.846 1.129 3446
5.552 3.848 1.109 3868
5.554 3.849 1.090 3234
5.640 3.909 1.084 2964
6.177 4.281 1.153 2976
6.186 4.288 1.132 3515
6.150 4.262 1.104 6425
6.146 4.259 1.081 8886
6.161 4.270 1.062 6411
6.163 4.271 1.040 4767
6.120 4.242 1.012 5481
6.122 4.243 0.990 5433
6.130 4.249 0.969 5062
6.132 4.250 0.948 4103
6.128 4.247 0.925 4537
6.136 4.253 0.904 5517
6.144 4.259 0.884 4855
6.153 4.264 0.863 4345
6.148 4.261 0.840 4675
6.150 4.262 0.819 6060
6.145 4.259 0.796 5509
6.146 4.260 0.774 3948
6.148 4.261 0.753 3784
6.149 4.262 0.731 3288
6.501 4.506 0.742 2539
6.554 4.543 0.724 3023
6.556 4.544 0.701 3722
6.544 4.536 0.677 4136
6.552 4.541 0.654 4076
6.566 4.551 0.632 3797
6.561 4.547 0.608 2728
6.549 4.539 0.584 1247
6.595 4.571 0.564 1111
6.596 4.572 0.541 1266
6.565 4.550 0.516 1092
6.715 4.654 0.500 1192
6.716 4.655 0.477 1243
6.795 4.709 0.457 1177
6.724 4.660 0.430 1135
6.731 4.665 0.406 1209
6.725 4.661 0.382 1085
6.719 4.657 0.358 970
6.713 4.653 0.334 726
11.723 8.125 0.439 690
7.189 4.983 0.297 640
7.196 4.987 0.272 672
7.261 5.033 0.248 760
11.315 7.842 0.268 646
11.308 7.838 0.228 519
7.183 4.979 0.170 454
7.177 4.974 0.145 396
7.164 4.965 0.120 378
7.151 4.956 0.095 321
7.144 4.952 0.069 273
9.325 6.463 -0.447 258
9.323 6.462 -0.480 289
9.322 6.461 -0.513 320
9.314 6.455 -0.546 336
9.312 6.454 -0.579 354
9.317 6.457 -0.612 342
9.321 6.461 -0.645 352
9.319 6.459 -0.678 352
9.317 6.458 -0.711 310
9.309 6.452 -0.744 269
1.892 1.303 1.769 5128
1.896 1.305 1.762 10256
1.900 1.308 1.756 10256
1.909 1.314 1.754 9002
1.918 1.321 1.752 8134
1.917 1.320 1.740 7340
1.904 1.311 1.720 7296
1.908 1.314 1.713 7296
1.912 1.316 1.707 8610
1.921 1.323 1.705 10101
1.925 1.325 1.698 9270
1.929 1.328 1.691 8438
1.938 1.334 1.689 6615
1.974 1.359 1.709 5781
2.021 1.392 1.737 5287
2.036 1.402 1.739 6105
2.040 1.404 1.732 6802
2.049 1.411 1.729 7579
2.058 1.417 1.726 8438
2.057 1.416 1.715 10564
2.060 1.419 1.708 12697
2.064 1.421 1.701 10436
2.073 1.428 1.698 8260
2.077 1.430 1.690 5391
2.103 1.448 1.700 2658
2.145 1.477 1.722 2846
2.149 1.480 1.714 3920
2.153 1.482 1.707 5736
2.151 1.481 1.695 7698
2.161 1.488 1.692 7311
2.170 1.494 1.689 7116
2.174 1.497 1.681 4860
2.132 1.468 1.641 3798
2.136 1.471 1.634 3346
2.207 1.520 1.674 3389
2.205 1.518 1.663 4482
2.226 1.533 1.667 6190
2.235 1.539 1.663 8301
2.244 1.545 1.659 7578
2.248 1.548 1.651 7010
2.257 1.554 1.648 6662
2.267 1.561 1.644 4893
2.419 1.665 1.735 5304
2.417 1.664 1.723 6700
2.421 1.667 1.715 6219
2.487 1.713 1.748 5802
2.491 1.715 1.739 7602
2.495 1.718 1.731 8635
2.505 1.725 1.726 11240
2.514 1.731 1.721 12813
2.518 1.734 1.712 9741
2.562 1.764 1.729 6662
2.566 1.767 1.720 5769
2.552 1.757 1.700 5008
2.550 1.756 1.687 5586
2.554 1.759 1.678 6165
2.593 1.785 1.691 6298
2.649 1.824 1.714 8371
2.653 1.827 1.704 11422
2.657 1.829 1.695 14186
2.660 1.832 1.686 15790
2.664 1.834 1.677 14628
2.668 1.837 1.667 12512
2.665 1.835 1.655 9077
2.657 1.830 1.639 8081
2.661 1.832 1.629 7351
2.641 1.818 1.607 11170
2.644 1.821 1.597 16027
2.654 1.827 1.591 12658
2.669 1.838 1.589 9839
2.667 1.836 1.576 9940
2.670 1.838 1.567 9653
2.673 1.841 1.558 10776
2.683 1.847 1.551 10631
2.686 1.850 1.542 9608
2.684 1.848 1.530 9857
2.687 1.850 1.520 13521
2.690 1.852 1.511 18007
2.688 1.850 1.498 19284
2.691 1.853 1.489 18434
2.694 1.855 1.480 14709
2.697 1.857 1.470 9861
2.694 1.855 1.458 12183
2.704 1.862 1.451 20294
2.707 1.864 1.442 21744
2.710 1.866 1.433 18172
2.707 1.864 1.420 15077
2.710 1.866 1.411 14280
2.713 1.868 1.401 13180
2.716 1.870 1.392 11335
2.725 1.876 1.385 11859
2.746 1.891 1.384 16465
2.749 1.893 1.375 20094
2.758 1.899 1.368 19281
2.761 1.901 1.358 17332
2.764 1.903 1.348 16697
2.761 1.901 1.336 14665
2.764 1.903 1.326 13665
2.779 1.914 1.322 16425
2.782 1.915 1.312 17912
2.785 1.917 1.303 14218
2.794 1.924 1.296 8432
2.803 1.930 1.288 6542
2.805 1.932 1.279 5273
2.808 1.933 1.269 4269
2.817 1.940 1.262 6433
2.826 1.946 1.254 7734
2.829 1.948 1.244 6348
2.837 1.954 1.237 5497
2.840 1.955 1.227 7168
2.843 1.957 1.217 8990
2.851 1.963 1.210 8075
2.854 1.965 1.200 5481
2.863 1.971 1.192 8509
2.871 1.977 1.184 13862
2.880 1.983 1.177 16919
2.883 1.985 1.166 14763
2.891 1.991 1.159 8334
2.888 1.988 1.146 6801
2.884 1.986 1.134 8585
2.899 1.996 1.128 8586
2.914 2.006 1.123 9420
2.916 2.008 1.112 8412
2.918 2.009 1.102 8312
2.921 2.011 1.092 6642
2.929 2.017 1.084 8967
2.938 2.023 1.076 12831
2.927 2.016 1.061 11300
2.917 2.008 1.047 9137
2.925 2.014 1.039 6595
2.934 2.020 1.031 8868
2.936 2.022 1.020 7962
2.938 2.023 1.010 4342
3.637 2.504 1.207 4624
3.646 2.510 1.196 3691
3.794 2.612 1.226 4344
3.816 2.627 1.218 3988
3.812 2.625 1.203 2445
3.802 2.618 1.186 2124
3.823 2.633 1.178 2011
3.800 2.617 1.157 2504
3.803 2.618 1.144 2809
3.926 2.703 1.163 2983
3.922 2.701 1.147 3131
3.925 2.702 1.133 2877
3.927 2.704 1.120 2489
4.504 3.102 1.249 3509
4.501 3.099 1.232 2906
4.491 3.092 1.213 3111
4.499 3.098 1.198 3137
4.502 3.100 1.183 3703
4.524 3.115 1.171 3642
4.533 3.121 1.157 3448
5.215 3.591 1.293 3583
5.218 3.593 1.274 5933
5.220 3.594 1.256 7976
5.223 3.596 1.238 8365
5.226 3.598 1.219 7997
5.235 3.604 1.202 8565
5.237 3.606 1.184 8734
5.240 3.608 1.165 7497
5.242 3.609 1.147 5362
5.586 3.846 1.193 3416
5.588 3.848 1.174 3784
5.565 3.832 1.149 3242
5.567 3.833 1.130 4472
5.563 3.831 1.109 5669
5.559 3.828 1.088 4885
5.652 3.892 1.084 3543
5.648 3.889 1.063 3339
5.650 3.890 1.043 2816
6.156 4.239 1.103 5752
6.152 4.236 1.080 7766
6.135 4.224 1.056 5377
6.118 4.212 1.031 4676
6.120 4.214 1.010 5261
6.128 4.220 0.989 5018
6.143 4.230 0.969 4667
6.139 4.227 0.947 3833
6.141 4.228 0.925 4508
6.143 4.230 0.904 5260
6.157 4.240 0.884 4319
6.159 4.241 0.862 3746
6.161 4.242 0.840 4118
6.156 4.239 0.818 5540
6.158 4.240 0.796 5032
6.153 4.236 0.774 3715
6.154 4.238 0.752 3658
6.156 4.239 0.730 3124
6.515 4.486 0.742 2430
6.568 4.522 0.724 2517
6.563 4.519 0.700 3324
6.558 4.515 0.677 3717
6.553 4.512 0.653 3419
6.580 4.531 0.632 2879
6.574 4.527 0.608 2197
6.556 4.514 0.584 1434
6.544 4.506 0.560 1517
6.545 4.507 0.537 1788
6.539 4.503 0.513 1441
6.723 4.629 0.500 1441
6.724 4.629 0.476 1480
6.724 4.630 0.453 1408
6.745 4.644 0.430 1250
6.745 4.644 0.406 1290
6.746 4.645 0.382 1162
6.740 4.641 0.358 1044
6.734 4.637 0.335 672
10.072 6.935 0.396 643
10.079 6.940 0.361 661
11.801 8.125 0.357 614
11.795 8.121 0.315 552
11.789 8.117 0.274 508
11.789 8.117 0.232 414
7.192 4.952 0.170 399
6.736 4.638 0.145 405
7.160 4.930 0.120 490
7.166 4.934 0.095 472
7.172 4.939 0.069 476
7.172 4.938 0.044 352
3.320 2.286 -0.289 300
3.319 2.285 -0.301 300
1.896 1.296 1.769 4859
1.900 1.299 1.762 9719
1.904 1.302 1.756 9719
1.913 1.308 1.754 8728
1.922 1.314 1.752 8056
1.926 1.317 1.745 6809
1.903 1.301 1.716 5832
1.907 1.304 1.709 5832
1.916 1.310 1.707 7086
1.926 1.316 1.705 8511
1.929 1.319 1.698 8038
1.933 1.321 1.691 7566
1.953 1.335 1.698 6011
1.973 1.349 1.704 5518
2.031 1.389 1.742 5074
2.041 1.395 1.739 5883
2.050 1.401 1.736 6579
2.054 1.404 1.729 7324
2.057 1.407 1.722 8117
2.061 1.409 1.715 10158
2.065 1.412 1.708 12199
2.074 1.418 1.705 10023
2.078 1.421 1.698 7971
2.082 1.423 1.690 5489
2.086 1.426 1.683 3008
2.150 1.470 1.722 2734
2.154 1.473 1.714 4006
2.158 1.475 1.707 5935
2.156 1.474 1.695 7918
2.166 1.480 1.692 7368
2.175 1.487 1.689 7117
2.184 1.493 1.685 4960
2.132 1.457 1.637 3854
2.141 1.464 1.634 3365
2.195 1.501 1.662 4069
2.205 1.507 1.659 5010
2.214 1.513 1.655 5438
2.240 1.531 1.663 6947
2.250 1.538 1.659 6297
2.253 1.540 1.651 5778
2.263 1.547 1.648 5795
2.472 1.690 1.779 4595
2.424 1.657 1.735 5813
2.428 1.660 1.727 7117
2.426 1.658 1.715 6457
2.493 1.704 1.748 6800
2.497 1.707 1.739 8746
2.501 1.710 1.731 9312
2.510 1.716 1.726 10842
2.514 1.719 1.717 11765
2.512 1.717 1.704 9794
2.568 1.756 1.729 6673
2.566 1.754 1.716 6435
2.547 1.741 1.693 5125
2.545 1.739 1.680 5140
2.589 1.770 1.696 5934
2.610 1.784 1.698 7350
2.626 1.795 1.696 8468
2.659 1.818 1.704 10770
2.663 1.820 1.695 13610
2.666 1.823 1.686 14606
2.676 1.829 1.680 12903
2.674 1.828 1.667 12036
2.666 1.822 1.651 10410
2.669 1.825 1.642 7824
2.649 1.811 1.619 6535
2.647 1.809 1.607 11126
2.650 1.812 1.597 16611
2.654 1.814 1.588 12573
2.669 1.825 1.585 7485
2.673 1.827 1.576 6741
2.676 1.829 1.567 7026
2.680 1.832 1.558 8864
2.683 1.834 1.548 9266
2.680 1.832 1.536 7977
2.678 1.831 1.523 8053
2.687 1.837 1.517 11838
2.690 1.839 1.508 17240
2.694 1.841 1.498 19886
2.697 1.844 1.489 20328
2.700 1.846 1.480 17328
2.703 1.848 1.470 12551
2.701 1.846 1.458 14986
2.704 1.848 1.448 23842
2.707 1.850 1.439 26531
2.716 1.857 1.433 23378
2.713 1.855 1.420 19859
2.716 1.857 1.411 18218
2.719 1.859 1.401 16965
2.722 1.861 1.392 15818
2.725 1.863 1.382 15382
2.747 1.878 1.381 16474
2.756 1.884 1.375 18969
2.765 1.890 1.368 19178
2.768 1.892 1.358 17247
2.771 1.894 1.348 15025
2.767 1.892 1.336 12555
2.770 1.894 1.326 11744
2.785 1.904 1.322 14826
2.788 1.906 1.312 17296
2.791 1.908 1.303 15421
2.794 1.910 1.293 10568
2.809 1.920 1.288 8273
2.812 1.922 1.279 7271
2.815 1.924 1.269 6279
2.823 1.930 1.262 7601
2.826 1.932 1.252 7811
2.829 1.934 1.242 5656
2.838 1.940 1.234 4836
2.840 1.942 1.225 7142
2.849 1.948 1.217 8983
2.852 1.949 1.207 7151
2.854 1.951 1.197 4871
2.863 1.957 1.190 7573
2.878 1.967 1.184 11526
2.887 1.973 1.177 13836
2.889 1.975 1.166 11756
2.898 1.981 1.159 6830
2.894 1.979 1.146 7197
2.890 1.976 1.134 9688
2.905 1.986 1.128 8895
2.920 1.996 1.123 9261
2.929 2.002 1.114 7977
2.925 2.000 1.102 8574
2.927 2.001 1.092 8297
2.936 2.007 1.084 9492
2.951 2.017 1.078 13042
2.934 2.006 1.061 11349
2.924 1.999 1.047 10756
2.938 2.009 1.041 9042
2.947 2.015 1.033 11552
2.943 2.012 1.020 8621
2.932 2.004 1.006 3261
3.645 2.492 1.207 3912
3.572 2.442 1.172 3960
3.797 2.595 1.224 3853
3.806 2.601 1.212 2763
3.674 2.512 1.161 2047
3.811 2.605 1.186 1901
3.832 2.620 1.178 2120
3.835 2.621 1.164 2807
3.818 2.610 1.146 3215
3.820 2.612 1.132 2903
3.759 2.570 1.102 2820
3.755 2.567 1.088 2856
3.936 2.691 1.120 2527
4.515 3.086 1.249 2945
4.505 3.079 1.230 2751
4.488 3.068 1.210 3169
4.516 3.087 1.200 3455
4.512 3.085 1.183 5025
4.515 3.086 1.167 5030
4.511 3.084 1.150 3636
4.513 3.085 1.134 3725
4.516 3.087 1.118 4495
5.232 3.577 1.256 6200
5.235 3.579 1.238 6065
5.238 3.580 1.219 5699
5.247 3.587 1.202 7520
5.249 3.588 1.184 8970
5.258 3.594 1.167 8490
5.261 3.596 1.148 6429
5.263 3.598 1.130 3521
5.601 3.829 1.174 3170
5.565 3.804 1.147 3593
5.574 3.810 1.129 5240
5.576 3.812 1.109 6335
5.572 3.809 1.088 5343
5.561 3.802 1.067 3758
5.544 3.790 1.044 3603
5.663 3.871 1.043 2745
6.164 4.214 1.102 4796
6.160 4.211 1.079 6261
6.149 4.204 1.056 4768
6.125 4.187 1.030 4440
6.121 4.184 1.008 4980
6.130 4.190 0.987 4407
6.158 4.209 0.969 3982
6.153 4.206 0.947 3442
6.148 4.203 0.924 4207
6.150 4.204 0.903 4746
6.159 4.210 0.882 3506
6.173 4.220 0.862 2869
6.156 4.208 0.838 3450
6.164 4.214 0.817 4747
6.165 4.215 0.795 4314
6.160 4.211 0.773 3281
6.162 4.212 0.751 3303
6.163 4.213 0.730 2846
6.452 4.410 0.735 2377
6.459 4.416 0.713 2461
6.480 4.430 0.692 2847
6.560 4.484 0.675 3213
6.561 4.485 0.652 2748
6.595 4.508 0.632 1977
6.570 4.491 0.607 1725
6.565 4.488 0.583 1638
6.546 4.475 0.559 2118
6.554 4.480 0.536 2460
6.555 4.481 0.513 1888
6.738 4.606 0.500 1470
6.739 4.607 0.476 1601
6.740 4.607 0.453 1647
6.754 4.617 0.430 1401
6.767 4.626 0.406 1350
6.775 4.631 0.383 1196
6.775 4.631 0.359 1050
6.697 4.578 0.333 893
10.095 6.901 0.396 698
10.102 6.906 0.361 706
11.835 8.090 0.357 764
11.829 8.086 0.315 650
11.358 7.765 0.268 613
11.365 7.769 0.228 563
11.372 7.774 0.188 516
6.836 4.673 0.145 444
7.176 4.906 0.120 493
7.183 4.910 0.095 503
7.189 4.914 0.069 538
7.189 4.914 0.044 387
1.902 1.287 1.769 4623
1.906 1.290 1.762 9247
1.910 1.293 1.756 9247
1.919 1.299 1.754 8557
1.929 1.305 1.752 8059
1.933 1.308 1.745 6386
1.942 1.314 1.743 4780
1.946 1.317 1.736 4780
1.917 1.297 1.702 5355
1.926 1.303 1.700 6486
1.936 1.310 1.698 6365
1.939 1.312 1.691 6267
1.965 1.330 1.702 5502
1.979 1.339 1.704 5485
2.038 1.379 1.742 4823
2.047 1.385 1.739 5443
2.056 1.392 1.736 6078
2.060 1.394 1.729 6705
2.064 1.397 1.722 7378
2.068 1.399 1.715 9329
2.072 1.402 1.708 11281
2.081 1.408 1.705 9347
2.090 1.415 1.702 7554
2.089 1.413 1.690 5433
2.092 1.416 1.683 3348
2.091 1.415 1.672 2912
2.161 1.462 1.714 3883
2.165 1.465 1.707 5857
2.169 1.468 1.700 7832
2.178 1.474 1.696 7274
2.188 1.480 1.693 7060
2.197 1.487 1.689 5319
2.212 1.497 1.690 4179
2.210 1.495 1.678 3698
2.197 1.486 1.658 4631
2.206 1.493 1.655 5365
2.215 1.499 1.651 5037
2.242 1.517 1.659 5399
2.257 1.527 1.659 4772
2.266 1.533 1.655 4302
2.270 1.536 1.648 4459
2.485 1.682 1.782 4528
2.432 1.646 1.735 6040
2.436 1.648 1.727 7320
2.440 1.651 1.719 6555
2.501 1.692 1.748 7365
2.505 1.695 1.739 9441
2.509 1.698 1.731 9656
2.518 1.704 1.726 9864
2.522 1.707 1.717 9880
2.520 1.705 1.704 9212
2.547 1.724 1.710 7353
2.569 1.738 1.712 7127
2.549 1.725 1.689 5390
2.547 1.723 1.677 4851
2.603 1.762 1.700 6712
2.613 1.768 1.694 8182
2.628 1.779 1.692 8654
2.667 1.805 1.704 9108
2.665 1.804 1.692 11982
2.663 1.802 1.679 12657
2.685 1.817 1.680 10537
2.671 1.807 1.660 11471
2.668 1.806 1.648 11499
2.660 1.800 1.632 8007
2.652 1.794 1.616 6208
2.655 1.797 1.607 10371
2.653 1.795 1.594 16019
2.657 1.798 1.585 12759
2.666 1.804 1.579 5935
2.681 1.814 1.576 3699
2.679 1.813 1.564 4613
2.682 1.815 1.554 7031
2.686 1.817 1.545 8101
2.677 1.812 1.529 7629
2.674 1.810 1.517 8166
2.690 1.820 1.514 10671
2.699 1.826 1.508 15246
2.702 1.829 1.498 18683
2.706 1.831 1.489 20135
2.709 1.833 1.480 17762
2.712 1.835 1.470 13931
2.703 1.829 1.455 16911
2.713 1.835 1.448 25604
2.716 1.838 1.439 29828
2.725 1.844 1.433 27204
2.722 1.842 1.420 23577
2.725 1.844 1.411 20816
2.728 1.846 1.401 18979
2.731 1.848 1.392 18643
2.734 1.850 1.382 17720
2.749 1.860 1.378 15808
2.765 1.871 1.375 16651
2.774 1.877 1.368 17020
2.777 1.879 1.358 15195
2.780 1.881 1.348 12493
2.776 1.879 1.336 10365
2.779 1.881 1.326 9852
2.794 1.891 1.322 12858
2.797 1.893 1.312 15567
2.800 1.895 1.303 15133
2.803 1.897 1.293 11862
2.818 1.907 1.288 8996
2.821 1.909 1.279 8114
2.824 1.911 1.269 8029
2.833 1.917 1.262 9008
2.835 1.919 1.252 7670
2.838 1.920 1.242 4244
2.841 1.922 1.232 4144
2.849 1.928 1.225 7249
2.852 1.930 1.215 9293
2.855 1.932 1.205 7875
2.857 1.933 1.195 7169
2.860 1.935 1.185 8360
2.881 1.950 1.182 8619
2.896 1.960 1.177 9571
2.899 1.961 1.166 7692
2.907 1.967 1.159 5286
2.904 1.965 1.146 7671
2.900 1.962 1.134 10352
2.915 1.972 1.128 8700
2.930 1.982 1.123 8239
2.938 1.988 1.114 7305
2.941 1.990 1.104 8558
2.937 1.987 1.092 9080
2.945 1.993 1.084 9835
2.960 2.003 1.078 13553
2.950 1.996 1.063 10801
2.927 1.980 1.045 8943
2.961 2.003 1.045 8311
2.963 2.005 1.035 11934
2.959 2.002 1.022 9526
2.973 2.012 1.016 3829
3.587 2.427 1.186 4222
3.589 2.429 1.174 4987
3.592 2.431 1.161 4045
3.601 2.437 1.151 2495
3.686 2.494 1.161 2489
3.753 2.539 1.166 2236
3.755 2.541 1.153 1844
3.847 2.603 1.164 2660
3.830 2.592 1.146 3251
3.833 2.594 1.132 2876
3.771 2.552 1.102 3349
3.767 2.549 1.088 3570
3.769 2.551 1.075 2520
3.951 2.674 1.106 2099
4.500 3.045 1.225 2694
4.503 3.047 1.210 3396
4.531 3.066 1.200 3946
4.533 3.068 1.184 6084
4.536 3.069 1.168 6460
4.525 3.062 1.150 4489
4.528 3.064 1.134 3626
4.537 3.070 1.119 3904
4.539 3.071 1.104 5152
4.541 3.073 1.088 5799
4.550 3.079 1.073 5747
5.270 3.566 1.204 6194
5.273 3.568 1.185 8607
5.275 3.570 1.167 8920
5.278 3.571 1.148 7142
5.286 3.577 1.131 4038
5.418 3.667 1.137 2535
5.583 3.778 1.147 3455
5.592 3.784 1.129 4932
5.594 3.785 1.109 6138
5.584 3.778 1.087 5289
5.573 3.771 1.066 3913
5.556 3.759 1.043 4194
5.551 3.756 1.022 3328
6.177 4.180 1.101 3564
6.180 4.182 1.079 4585
6.163 4.170 1.055 3883
6.139 4.154 1.029 4044
6.134 4.151 1.007 4618
6.136 4.152 0.986 4098
6.132 4.149 0.963 3828
6.134 4.151 0.942 3562
6.162 4.170 0.924 3692
6.170 4.175 0.903 4148
6.159 4.168 0.880 3085
6.135 4.151 0.855 2781
6.162 4.170 0.837 3078
6.177 4.180 0.816 3760
6.185 4.185 0.795 3378
6.174 4.178 0.772 2702
6.175 4.179 0.751 2840
6.157 4.166 0.727 2748
6.466 4.375 0.734 2383
6.546 4.429 0.719 2506
6.541 4.426 0.695 3031
6.561 4.440 0.674 2949
6.438 4.357 0.641 2653
6.440 4.358 0.619 1972
6.585 4.456 0.606 1446
6.573 4.448 0.582 1902
6.567 4.444 0.559 2815
6.568 4.445 0.536 3147
6.569 4.445 0.513 2341
6.760 4.574 0.500 1480
6.761 4.575 0.476 1667
6.762 4.575 0.453 1773
6.769 4.580 0.429 1604
6.796 4.599 0.407 1520
6.803 4.603 0.383 1331
6.810 4.608 0.359 1167
6.712 4.542 0.333 1015
10.128 6.853 0.396 733
10.129 6.854 0.361 734
11.879 8.038 0.357 856
11.873 8.034 0.316 699
11.395 7.711 0.268 637
11.402 7.715 0.228 496
6.852 4.636 0.169 460
6.858 4.641 0.145 400
7.199 4.872 0.120 423
7.212 4.880 0.095 429
7.212 4.880 0.069 460
7.212 4.880 0.044 323
6.786 4.592 0.026 268
6.779 4.587 0.002 269
3.339 2.259 -0.277 302
3.338 2.259 -0.289 402
3.337 2.258 -0.301 402
1.906 1.281 1.769 4459
1.910 1.284 1.762 8918
1.914 1.287 1.756 8918
1.923 1.293 1.754 8445
1.927 1.296 1.747 8043
1.937 1.302 1.745 6165
1.967 1.322 1.761 4529
1.971 1.325 1.754 4529
1.981 1.331 1.752 4749
1.990 1.338 1.750 5228
1.940 1.304 1.698 4843
1.960 1.317 1.705 5228
1.974 1.327 1.707 5325
1.984 1.333 1.704 5768
1.987 1.336 1.698 4650
2.051 1.379 1.739 4831
2.055 1.382 1.732 5369
2.059 1.384 1.725 5838
2.068 1.390 1.722 6327
2.072 1.393 1.715 8182
2.076 1.396 1.708 10038
2.085 1.402 1.705 8428
2.095 1.408 1.702 6965
2.093 1.407 1.690 5206
2.097 1.409 1.683 3511
2.095 1.408 1.672 3075
2.166 1.456 1.714 3642
2.169 1.458 1.707 5528
2.173 1.461 1.700 7413
2.183 1.467 1.696 6863
2.192 1.473 1.693 6741
2.201 1.480 1.689 5506
2.211 1.486 1.686 4443
2.209 1.485 1.674 4073
2.201 1.480 1.658 4797
2.211 1.486 1.655 5309
2.214 1.488 1.647 4583
2.229 1.499 1.647 4082
2.399 1.612 1.753 3741
2.408 1.619 1.749 3493
2.418 1.625 1.744 3724
2.491 1.674 1.782 4199
2.437 1.638 1.735 6003
2.441 1.641 1.727 7350
2.451 1.647 1.722 6649
2.506 1.685 1.748 7304
2.510 1.687 1.739 9483
2.514 1.690 1.731 9469
2.518 1.693 1.722 8709
2.522 1.695 1.713 7963
2.531 1.702 1.708 8345
2.553 1.716 1.710 8082
2.568 1.726 1.709 7607
2.554 1.717 1.689 5365
2.599 1.747 1.705 5589
2.609 1.754 1.700 7720
2.618 1.760 1.694 9101
2.616 1.759 1.682 9092
2.614 1.757 1.669 8447
2.665 1.791 1.688 9599
2.663 1.790 1.675 10633
2.631 1.769 1.646 10643
2.670 1.795 1.657 10845
2.668 1.793 1.644 11580
2.660 1.788 1.628 8435
2.657 1.786 1.616 6493
2.655 1.785 1.603 9377
2.653 1.783 1.591 14546
2.656 1.785 1.582 13385
2.654 1.784 1.569 6680
2.651 1.782 1.557 3547
2.684 1.804 1.564 3242
2.688 1.807 1.554 5215
2.691 1.809 1.545 6588
2.683 1.803 1.529 7713
2.680 1.801 1.517 8934
2.689 1.808 1.511 10552
2.705 1.818 1.508 12909
2.708 1.820 1.498 16181
2.711 1.823 1.489 18097
2.715 1.825 1.480 16435
2.706 1.819 1.464 14546
2.709 1.821 1.455 17975
2.718 1.827 1.448 25057
2.721 1.829 1.439 30529
2.724 1.831 1.430 29062
2.734 1.838 1.423 25229
2.731 1.836 1.411 20884
2.734 1.838 1.401 18379
2.731 1.836 1.389 19135
2.740 1.842 1.382 18343
2.755 1.852 1.378 14303
2.770 1.862 1.375 13139
2.773 1.864 1.365 13168
2.782 1.870 1.358 11739
2.779 1.868 1.346 9940
2.776 1.866 1.333 9932
2.785 1.872 1.326 10022
2.800 1.882 1.322 11716
2.809 1.888 1.315 13345
2.806 1.886 1.303 13061
2.809 1.888 1.293 11277
2.824 1.898 1.288 8652
2.827 1.900 1.279 8097
2.830 1.902 1.269 9327
2.832 1.904 1.259 10225
2.841 1.910 1.252 8098
2.844 1.912 1.242 5652
2.840 1.909 1.230 6613
2.849 1.915 1.222 8538
2.852 1.917 1.212 10045
2.854 1.919 1.202 9880
2.857 1.920 1.193 10039
2.866 1.926 1.185 9376
2.875 1.932 1.177 6610
2.890 1.942 1.172 6274
2.892 1.944 1.162 5824
2.901 1.950 1.154 5339
2.910 1.956 1.146 8527
2.906 1.953 1.134 10877
2.914 1.959 1.126 8565
2.936 1.973 1.123 6681
2.945 1.979 1.114 5939
2.941 1.977 1.102 7589
2.943 1.978 1.092 8897
2.951 1.984 1.084 9597
2.960 1.990 1.076 12359
2.962 1.991 1.065 9262
2.933 1.971 1.045 6430
2.960 1.990 1.043 7477
2.963 1.991 1.033 10461
2.965 1.993 1.022 9667
2.986 2.007 1.018 5481
3.594 2.416 1.186 4836
3.597 2.418 1.174 5562
3.606 2.424 1.163 4631
3.608 2.425 1.151 2979
3.694 2.483 1.161 2833
3.754 2.523 1.165 2224
3.756 2.525 1.151 1947
3.855 2.591 1.164 2056
3.838 2.580 1.146 2688
3.841 2.582 1.132 2607
3.779 2.540 1.102 3446
3.781 2.542 1.089 3632
3.771 2.535 1.073 2334
3.960 2.662 1.106 1961
4.503 3.027 1.224 2603
4.505 3.029 1.208 3474
4.540 3.052 1.200 3898
4.543 3.054 1.184 6092
4.545 3.055 1.168 6615
4.535 3.048 1.150 4691
4.537 3.050 1.134 3399
4.553 3.060 1.121 3167
4.555 3.062 1.105 4123
4.557 3.063 1.089 4896
4.560 3.065 1.073 5089
5.281 3.550 1.204 6036
5.284 3.552 1.185 8432
5.286 3.553 1.167 9021
5.289 3.555 1.148 7597
5.297 3.561 1.131 4875
5.423 3.645 1.135 2901
5.595 3.761 1.147 3137
5.603 3.767 1.129 4161
5.599 3.764 1.108 5222
5.595 3.761 1.087 4675
5.578 3.749 1.065 3871
5.567 3.742 1.043 4363
5.556 3.735 1.021 3737
5.780 3.885 1.037 2759
6.193 4.163 1.079 2926
6.175 4.151 1.055 2889
6.145 4.131 1.028 3482
6.140 4.128 1.006 4160
6.136 4.125 0.984 4107
6.132 4.122 0.961 4796
6.127 4.119 0.939 4662
6.155 4.137 0.921 3102
6.176 4.152 0.902 3418
6.146 4.131 0.876 3052
6.141 4.128 0.854 3173
6.143 4.129 0.833 2882
6.111 4.108 0.808 3340
6.120 4.114 0.787 3433
6.115 4.110 0.765 3103
6.123 4.116 0.744 2702
6.157 4.139 0.726 3438
6.132 4.122 0.702 3296
6.546 4.400 0.717 2611
6.554 4.406 0.695 3190
6.437 4.327 0.663 2969
6.452 4.337 0.641 2825
6.460 4.342 0.619 2233
6.467 4.347 0.597 1675
6.580 4.423 0.582 2245
6.581 4.424 0.559 3345
6.582 4.424 0.536 3610
6.583 4.425 0.513 2625
6.774 4.553 0.500 1471
6.775 4.554 0.476 1788
6.782 4.559 0.453 1895
6.790 4.564 0.430 1828
6.803 4.573 0.406 1770
6.811 4.578 0.383 1536
6.818 4.583 0.359 1348
6.720 4.517 0.333 1050
10.149 6.822 0.396 666
11.904 8.002 0.399 819
11.904 8.002 0.357 949
11.898 7.998 0.316 731
11.885 7.989 0.274 553
6.859 4.611 0.193 400
7.188 4.832 0.170 430
7.188 4.832 0.145 396
7.195 4.836 0.120 363
10.683 7.181 0.073 367
6.820 4.584 0.073 307
6.813 4.580 0.050 268
6.786 4.562 0.002 271
3.338 2.244 -0.288 321
3.337 2.243 -0.300 321
1.911 1.275 1.769 4317
1.915 1.277 1.762 8634
1.919 1.280 1.756 8634
1.928 1.286 1.754 8312
1.932 1.289 1.747 8071
1.941 1.295 1.745 5942
1.967 1.312 1.756 4286
1.970 1.315 1.750 4286
1.985 1.324 1.752 4138
2.000 1.334 1.754 4648
2.004 1.337 1.747 4010
1.970 1.314 1.709 4834
1.979 1.320 1.707 5437
1.988 1.326 1.704 6237
1.992 1.329 1.698 4953
2.056 1.372 1.739 4068
2.060 1.374 1.732 4483
2.064 1.377 1.725 4724
2.073 1.383 1.722 4959
2.077 1.386 1.715 6690
2.081 1.388 1.708 8421
2.090 1.395 1.705 7201
2.100 1.401 1.702 6124
2.098 1.400 1.690 4798
2.102 1.402 1.683 3552
2.105 1.405 1.676 3197
2.171 1.448 1.714 3308
2.175 1.451 1.707 5014
2.178 1.453 1.700 6720
2.193 1.463 1.700 6211
2.203 1.470 1.697 6279
2.207 1.472 1.689 5411
2.210 1.475 1.682 4543
2.208 1.473 1.670 4276
2.206 1.472 1.658 4621
2.216 1.478 1.655 4888
2.219 1.481 1.647 3968
2.400 1.601 1.762 4127
2.404 1.604 1.753 3833
2.408 1.607 1.745 3539
2.423 1.617 1.744 3530
2.445 1.631 1.748 3658
2.443 1.630 1.735 5581
2.447 1.632 1.727 6929
2.456 1.639 1.722 6381
2.512 1.676 1.748 6484
2.522 1.683 1.743 8769
2.520 1.681 1.731 8826
2.524 1.684 1.722 7721
2.528 1.686 1.713 6558
2.537 1.693 1.708 7555
2.564 1.711 1.714 8392
2.574 1.717 1.709 7558
2.590 1.728 1.707 5688
2.605 1.738 1.705 6454
2.609 1.741 1.696 8586
2.619 1.747 1.691 9600
2.616 1.746 1.678 9907
2.614 1.744 1.666 9716
2.624 1.751 1.660 8169
2.633 1.757 1.655 9079
2.637 1.759 1.646 10941
2.665 1.778 1.650 10331
2.674 1.784 1.644 11565
2.672 1.783 1.632 8736
2.598 1.733 1.579 6980
2.661 1.775 1.603 7872
2.653 1.770 1.587 12946
2.656 1.772 1.578 14314
2.660 1.775 1.569 8487
2.657 1.773 1.557 4456
2.661 1.775 1.547 3463
2.694 1.797 1.554 3399
2.692 1.796 1.542 4603
2.689 1.794 1.529 7208
2.686 1.792 1.517 9318
2.690 1.794 1.508 10619
2.699 1.801 1.502 10898
2.708 1.807 1.495 12689
2.712 1.809 1.486 14602
2.721 1.815 1.480 13508
2.712 1.809 1.464 14018
2.715 1.812 1.455 17544
2.718 1.814 1.445 22514
2.728 1.820 1.439 28727
2.731 1.822 1.430 28903
2.740 1.828 1.423 24702
2.743 1.830 1.414 19187
2.740 1.828 1.401 15683
2.737 1.826 1.389 18158
2.740 1.828 1.380 17298
2.755 1.838 1.376 12253
2.771 1.849 1.372 9297
2.774 1.851 1.362 9687
2.777 1.852 1.353 8395
2.779 1.854 1.343 8425
2.782 1.856 1.333 11080
2.785 1.858 1.324 12015
2.807 1.873 1.322 11976
2.816 1.879 1.315 11742
2.819 1.881 1.305 10001
2.822 1.882 1.296 8929
2.824 1.884 1.286 7357
2.827 1.886 1.276 7714
2.836 1.892 1.269 10102
2.839 1.894 1.259 11407
2.842 1.896 1.249 9485
2.850 1.902 1.242 7885
2.853 1.904 1.232 9235
2.856 1.905 1.222 10445
2.858 1.907 1.212 11126
2.861 1.909 1.202 11320
2.864 1.911 1.193 11637
2.872 1.916 1.185 9569
2.881 1.922 1.177 5272
2.890 1.928 1.170 4683
2.886 1.926 1.157 6140
2.895 1.931 1.150 6593
2.910 1.942 1.144 8819
2.906 1.939 1.132 10879
2.915 1.945 1.124 9021
2.924 1.951 1.116 6265
2.926 1.952 1.106 5383
2.941 1.962 1.100 6215
2.943 1.964 1.090 8133
2.952 1.970 1.082 8843
2.967 1.980 1.076 10124
2.976 1.985 1.067 8035
2.959 1.974 1.051 5565
2.961 1.976 1.041 7887
2.963 1.977 1.031 8679
2.972 1.983 1.022 8352
3.006 2.005 1.022 7289
3.603 2.404 1.186 4874
3.605 2.405 1.174 5541
3.614 2.411 1.163 4471
3.021 2.015 0.982 3308
3.702 2.470 1.161 2827
3.634 2.425 1.129 2079
3.630 2.422 1.115 1826
3.703 2.471 1.121 1904
3.847 2.567 1.146 1919
3.837 2.560 1.129 2303
3.794 2.531 1.104 3222
3.745 2.499 1.078 3434
3.741 2.496 1.063 2624
3.962 2.644 1.104 1650
4.507 3.007 1.222 2263
4.516 3.013 1.208 3088
4.538 3.028 1.197 3287
4.540 3.029 1.181 4998
4.549 3.035 1.167 5446
4.552 3.037 1.151 4236
4.561 3.043 1.137 3670
4.576 3.053 1.124 3486
4.572 3.050 1.106 3322
4.568 3.048 1.089 3552
5.297 3.534 1.223 4898
5.300 3.536 1.205 6349
5.296 3.533 1.185 8231
5.305 3.539 1.168 8854
5.307 3.541 1.149 7916
5.316 3.547 1.132 5884
5.319 3.549 1.114 3824
5.321 3.550 1.095 2598
5.473 3.652 1.103 3204
5.612 3.744 1.108 3890
5.602 3.737 1.086 3722
5.499 3.669 1.049 3927
5.495 3.666 1.029 4142
5.569 3.716 1.021 3630
5.637 3.761 1.012 2636
5.619 3.749 0.990 2799
5.601 3.737 0.967 2441
6.153 4.105 1.028 2796
6.148 4.102 1.005 3592
6.144 4.099 0.983 4165
6.139 4.096 0.961 5483
6.141 4.097 0.939 5396
6.137 4.094 0.917 3345
6.158 4.109 0.898 2695
6.147 4.101 0.875 3239
6.149 4.102 0.853 3561
6.131 4.090 0.830 3680
6.126 4.087 0.808 4854
6.134 4.092 0.787 4625
6.135 4.093 0.766 4009
6.137 4.094 0.744 3468
6.165 4.113 0.725 4160
6.146 4.101 0.702 4179
6.134 4.093 0.680 3085
6.569 4.383 0.695 3068
6.564 4.379 0.672 2835
6.467 4.315 0.641 2744
6.481 4.324 0.620 2351
6.482 4.325 0.597 1842
6.595 4.400 0.582 2544
6.596 4.401 0.559 3642
6.591 4.397 0.536 3818
6.591 4.398 0.513 2769
6.579 4.390 0.489 1541
6.797 4.535 0.477 1764
6.798 4.536 0.453 1868
6.805 4.540 0.430 1783
6.819 4.550 0.406 1718
6.826 4.554 0.383 1472
6.840 4.564 0.359 1288
6.735 4.494 0.333 1193
6.722 4.485 0.309 872
11.931 7.960 0.399 918
11.932 7.961 0.357 986
6.835 4.561 0.240 751
6.842 4.565 0.216 559
11.939 7.966 0.232 367
6.902 4.605 0.169 413
6.908 4.609 0.145 381
7.007 4.675 0.120 392
10.708 7.144 0.073 373
6.981 4.657 0.072 348
6.980 4.657 0.048 272
6.795 4.534 0.003 281
3.353 2.237 -0.289 260
3.352 2.236 -0.301 260
1.915 1.268 1.769 4220
1.919 1.270 1.762 8440
1.923 1.273 1.756 8440
1.927 1.276 1.749 8231
1.936 1.282 1.747 8039
1.946 1.288 1.745 5753
1.966 1.301 1.752 4191
1.970 1.304 1.745 4191
1.985 1.314 1.747 3793
2.010 1.331 1.759 4319
1.981 1.312 1.725 3857
1.980 1.311 1.714 4689
1.989 1.317 1.711 5567
1.998 1.323 1.709 6600
2.002 1.325 1.702 5142
2.001 1.324 1.691 3710
2.004 1.327 1.684 3698
2.008 1.329 1.677 3783
2.017 1.335 1.675 3939
2.016 1.334 1.663 5264
2.086 1.381 1.708 6810
2.095 1.387 1.705 5907
2.105 1.393 1.702 5151
2.108 1.396 1.695 4163
2.107 1.394 1.683 3231
2.110 1.397 1.676 3050
2.176 1.440 1.714 2976
2.180 1.443 1.707 4413
2.184 1.445 1.700 5849
2.199 1.455 1.700 5417
2.208 1.462 1.697 5531
2.212 1.464 1.689 4897
2.216 1.467 1.682 4263
2.208 1.462 1.666 4127
2.212 1.464 1.658 4211
2.221 1.470 1.655 4310
2.225 1.473 1.647 3292
2.400 1.589 1.758 3940
2.404 1.591 1.749 3632
2.379 1.575 1.722 3375
2.429 1.608 1.744 3162
2.451 1.622 1.748 3382
2.449 1.621 1.735 5029
2.453 1.623 1.727 6250
2.456 1.626 1.719 5808
2.530 1.675 1.755 5720
2.534 1.677 1.747 8066
2.532 1.676 1.734 8143
2.530 1.675 1.722 7532
2.534 1.677 1.713 6770
2.549 1.687 1.712 7456
2.571 1.702 1.714 8034
2.580 1.708 1.709 6890
2.590 1.714 1.703 5851
2.606 1.725 1.702 7211
2.615 1.731 1.696 9412
2.619 1.734 1.687 9885
2.617 1.732 1.675 10374
2.621 1.735 1.666 10673
2.624 1.737 1.657 8340
2.640 1.747 1.655 8107
2.644 1.750 1.646 9909
2.659 1.760 1.643 9595
2.675 1.770 1.641 10929
2.678 1.773 1.632 8551
2.604 1.724 1.579 8842
2.614 1.730 1.573 8380
2.653 1.756 1.584 12383
2.657 1.759 1.575 14901
2.660 1.761 1.566 9613
2.664 1.763 1.557 5279
2.667 1.765 1.547 4602
2.658 1.760 1.532 3270
2.692 1.782 1.539 3341
2.695 1.784 1.529 6473
2.693 1.782 1.517 8666
2.696 1.785 1.508 9528
2.705 1.791 1.502 8897
2.709 1.793 1.492 9517
2.712 1.795 1.483 11408
2.715 1.797 1.474 10499
2.719 1.799 1.464 12133
2.722 1.802 1.455 15334
2.725 1.804 1.445 17911
2.734 1.810 1.439 24226
2.737 1.812 1.430 26456
2.741 1.814 1.420 22388
2.756 1.824 1.417 16430
2.741 1.814 1.398 13558
2.744 1.816 1.389 16147
2.747 1.818 1.380 14884
2.750 1.820 1.370 10281
2.759 1.826 1.363 8943
2.762 1.828 1.354 10301
2.771 1.834 1.347 7892
2.780 1.840 1.340 8189
2.789 1.846 1.333 12629
2.792 1.848 1.324 14417
2.807 1.858 1.319 13396
2.816 1.864 1.312 12363
2.819 1.866 1.303 8533
2.822 1.868 1.293 6211
2.825 1.870 1.283 5925
2.834 1.876 1.276 7217
2.837 1.878 1.266 10557
2.839 1.879 1.257 12712
2.842 1.881 1.247 11018
2.857 1.891 1.242 8793
2.860 1.893 1.232 9880
2.863 1.895 1.222 11190
2.865 1.897 1.212 11263
2.862 1.894 1.200 11192
2.870 1.900 1.193 11471
2.879 1.906 1.185 8613
2.895 1.916 1.180 4159
2.897 1.918 1.170 3642
2.893 1.915 1.157 5677
2.902 1.921 1.150 6734
2.911 1.927 1.142 8008
2.913 1.928 1.132 9749
2.909 1.926 1.120 9368
2.912 1.927 1.110 8664
2.914 1.929 1.100 7259
2.935 1.943 1.096 5041
2.944 1.949 1.088 6797
2.953 1.955 1.080 8241
2.961 1.960 1.072 8973
2.964 1.962 1.061 7669
2.960 1.959 1.049 5282
2.962 1.960 1.039 5445
2.964 1.962 1.029 6685
2.985 1.976 1.024 7951
3.007 1.990 1.020 9637
3.015 1.996 1.011 7115
3.614 2.392 1.174 5022
3.623 2.398 1.163 3786
2.983 1.974 0.969 2175
3.711 2.457 1.161 2355
3.688 2.441 1.141 2131
3.697 2.447 1.130 1961
3.712 2.457 1.121 1940
3.721 2.463 1.110 1651
3.736 2.473 1.100 2247
3.739 2.475 1.088 3460
3.741 2.476 1.075 3931
3.743 2.478 1.062 2946
3.739 2.475 1.047 1510
4.518 2.990 1.222 1831
3.841 2.542 1.044 2467
4.504 2.981 1.186 2837
4.545 3.008 1.180 3537
4.554 3.014 1.165 3627
4.576 3.029 1.154 3676
4.578 3.031 1.138 4687
4.581 3.032 1.122 4320
4.590 3.038 1.108 3229
5.301 3.509 1.240 3003
5.310 3.515 1.223 4638
5.313 3.517 1.205 5916
5.315 3.518 1.186 7491
5.318 3.520 1.168 8163
5.320 3.522 1.149 7721
5.323 3.523 1.131 6530
5.325 3.525 1.112 4809
5.327 3.526 1.094 3713
5.336 3.532 1.077 3792
5.338 3.534 1.058 3967
5.341 3.535 1.040 3547
5.513 3.649 1.049 4052
5.508 3.646 1.029 4446
5.511 3.648 1.010 3491
5.657 3.744 1.013 3147
5.646 3.737 0.992 2957
5.622 3.721 0.968 2267
6.161 4.078 1.027 2222
6.157 4.075 1.004 3082
6.152 4.072 0.982 4006
6.154 4.074 0.961 5624
6.156 4.075 0.939 5446
6.151 4.072 0.917 3287
6.166 4.082 0.897 2378
6.155 4.074 0.874 3375
6.157 4.075 0.853 3938
6.139 4.063 0.829 4793
6.141 4.065 0.808 6225
6.149 4.070 0.787 5463
6.150 4.071 0.766 4546
6.158 4.076 0.745 3956
6.180 4.090 0.725 4672
6.168 4.083 0.703 4522
6.156 4.075 0.680 3132
6.585 4.359 0.695 2733
6.580 4.355 0.672 2674
6.482 4.291 0.641 2402
6.503 4.305 0.620 2310
6.505 4.306 0.597 1894
6.611 4.376 0.582 2671
6.606 4.372 0.558 3610
6.607 4.373 0.536 3671
6.607 4.374 0.513 2686
6.589 4.361 0.488 1592
6.814 4.510 0.477 1481
6.814 4.511 0.453 1625
6.822 4.516 0.430 1537
6.829 4.520 0.406 1360
6.830 4.521 0.382 1080
6.758 4.473 0.356 1267
6.752 4.469 0.333 1241
6.739 4.461 0.309 903
11.960 7.917 0.399 959
11.961 7.917 0.357 973
11.961 7.917 0.316 718
6.859 4.540 0.216 494
6.918 4.579 0.193 469
6.918 4.580 0.169 538
6.925 4.584 0.145 503
6.932 4.588 0.121 483
10.734 7.105 0.073 337
6.998 4.632 0.072 298
10.938 7.240 -0.005 255
6.766 4.479 0.027 264
6.779 4.487 0.003 283
3.354 2.220 -0.288 313
3.353 2.220 -0.300 313
1.920 1.261 1.769 4066
1.924 1.264 1.762 8133
1.928 1.266 1.756 8133
1.932 1.269 1.749 8034
1.935 1.272 1.742 7936
1.945 1.278 1.740 5587
1.970 1.294 1.752 4065
1.974 1.297 1.745 4065
1.984 1.303 1.743 3653
2.015 1.324 1.759 4208
1.986 1.305 1.725 4004
1.990 1.307 1.718 4848
1.994 1.310 1.711 5890
2.003 1.316 1.709 7035
2.007 1.318 1.702 5516
2.011 1.321 1.695 3998
2.009 1.320 1.684 3982
2.018 1.326 1.681 4203
2.028 1.332 1.679 4641
2.026 1.331 1.668 5619
2.024 1.330 1.656 6704
2.022 1.328 1.645 5973
2.026 1.331 1.638 5466
2.024 1.329 1.627 4130
2.027 1.332 1.620 2798
2.115 1.390 1.676 2743
2.153 1.414 1.694 2822
2.185 1.435 1.707 3803
2.189 1.438 1.700 4965
2.204 1.448 1.700 4557
2.213 1.454 1.697 4644
2.217 1.456 1.689 4125
2.215 1.455 1.678 3678
2.213 1.454 1.666 3692
2.211 1.453 1.654 3802
2.226 1.463 1.655 3805
2.224 1.461 1.643 2770
2.400 1.577 1.754 3611
2.398 1.576 1.742 3363
2.379 1.563 1.718 3678
2.377 1.562 1.706 3447
2.375 1.560 1.694 3294
2.454 1.612 1.735 4434
2.458 1.615 1.727 5481
2.462 1.617 1.719 5184
2.541 1.670 1.759 5941
2.545 1.672 1.750 7981
2.543 1.671 1.738 7673
2.536 1.666 1.722 7283
2.540 1.668 1.713 6963
2.555 1.679 1.712 6781
2.577 1.693 1.714 6949
2.586 1.699 1.709 5794
2.590 1.702 1.700 6045
2.606 1.712 1.698 7984
2.615 1.718 1.693 9872
2.625 1.725 1.687 9888
2.623 1.723 1.675 10637
2.621 1.722 1.662 11454
2.630 1.728 1.657 9478
2.640 1.734 1.651 8080
2.644 1.737 1.642 8731
2.665 1.751 1.643 9230
2.675 1.757 1.638 10461
2.678 1.760 1.628 8355
2.616 1.719 1.582 9960
2.632 1.729 1.580 9490
2.653 1.743 1.581 12914
2.657 1.745 1.572 15009
2.666 1.752 1.566 10330
2.664 1.750 1.553 6360
2.667 1.752 1.544 6297
2.664 1.750 1.532 5551
2.680 1.761 1.529 4465
2.702 1.775 1.529 5766
2.705 1.777 1.520 7117
2.708 1.779 1.511 7734
2.712 1.781 1.502 7030
2.709 1.780 1.489 8000
2.706 1.778 1.477 10655
2.715 1.784 1.470 9472
2.719 1.786 1.461 10581
2.722 1.788 1.452 12932
2.725 1.790 1.442 12704
2.734 1.796 1.436 18458
2.737 1.798 1.427 23032
2.741 1.800 1.417 20390
2.744 1.803 1.408 14806
2.741 1.801 1.396 12958
2.744 1.803 1.386 14329
2.741 1.800 1.374 12427
2.744 1.802 1.364 10213
2.759 1.813 1.361 10543
2.768 1.819 1.354 12753
2.771 1.820 1.344 8680
2.786 1.831 1.340 8203
2.796 1.837 1.333 13308
2.798 1.838 1.324 15608
2.814 1.849 1.319 13854
2.823 1.855 1.312 13024
2.826 1.856 1.303 9226
2.822 1.854 1.290 5821
2.831 1.860 1.283 4593
2.840 1.866 1.276 6524
2.843 1.868 1.266 11427
2.846 1.870 1.257 14410
2.849 1.871 1.247 12711
2.858 1.877 1.239 9304
2.860 1.879 1.230 8843
2.863 1.881 1.220 10184
2.866 1.883 1.210 10248
2.868 1.884 1.200 9790
2.877 1.890 1.193 10321
2.886 1.896 1.185 7622
2.895 1.902 1.177 3727
2.897 1.903 1.167 3100
2.893 1.901 1.155 4211
2.909 1.911 1.150 5814
2.911 1.912 1.140 6812
2.914 1.914 1.130 7838
2.916 1.916 1.120 8781
2.918 1.917 1.110 10437
2.921 1.919 1.100 8573
2.936 1.929 1.094 4386
2.951 1.939 1.088 6043
2.947 1.936 1.076 8624
2.962 1.946 1.070 8829
2.970 1.951 1.061 9280
2.966 1.949 1.049 7027
2.962 1.946 1.037 4205
2.971 1.952 1.029 6858
2.992 1.966 1.024 9600
3.007 1.976 1.018 10286
3.016 1.981 1.009 7826
3.011 1.978 0.997 4891
3.026 1.988 0.990 3894
3.003 1.973 0.973 2967
3.005 1.974 0.962 3013
3.026 1.988 0.957 3117
3.034 1.993 0.949 2879
3.708 2.436 1.118 1867
3.723 2.446 1.108 1920
3.745 2.460 1.100 2250
3.747 2.462 1.088 3123
3.750 2.463 1.075 3617
3.745 2.461 1.060 2717
3.054 2.006 0.877 1813
3.056 2.008 0.867 2273
3.064 2.013 0.858 3222
3.072 2.018 0.849 3819
3.074 2.020 0.838 3144
4.577 3.007 1.168 2836
4.593 3.017 1.155 4433
4.589 3.015 1.138 5492
4.591 3.016 1.122 5113
4.600 3.022 1.108 3675
4.616 3.032 1.095 3019
5.322 3.496 1.223 3578
5.325 3.498 1.205 4718
5.327 3.500 1.186 6150
5.330 3.502 1.168 6934
5.332 3.503 1.149 7023
5.335 3.505 1.131 6515
5.337 3.506 1.112 5081
5.340 3.508 1.094 4052
5.342 3.509 1.075 4300
5.344 3.511 1.057 5161
5.353 3.517 1.040 5289
5.355 3.518 1.021 3876
5.521 3.627 1.029 4131
5.654 3.715 1.031 3549
5.670 3.725 1.013 3503
5.672 3.726 0.994 3186
5.779 3.797 0.990 2282
5.788 3.802 0.970 2561
6.164 4.050 1.003 2571
6.166 4.051 0.982 3579
6.168 4.052 0.961 5108
6.164 4.049 0.938 4873
6.159 4.046 0.916 2940
6.161 4.047 0.895 2159
6.163 4.049 0.873 3329
6.164 4.050 0.852 4099
6.153 4.042 0.829 5359
6.155 4.043 0.808 6828
6.163 4.049 0.787 5692
6.164 4.050 0.766 4643
6.172 4.055 0.745 4209
6.194 4.069 0.725 4696
6.182 4.061 0.703 4336
6.177 4.058 0.681 2907
6.594 4.332 0.695 2241
6.595 4.333 0.672 2324
6.504 4.273 0.642 1925
6.518 4.282 0.620 2062
6.519 4.283 0.597 1724
6.620 4.349 0.581 2578
6.621 4.350 0.558 3262
6.615 4.346 0.535 3232
6.623 4.351 0.513 2443
6.604 4.338 0.488 1503
6.558 4.308 0.463 1374
6.539 4.296 0.440 1208
6.533 4.292 0.417 1172
6.527 4.288 0.394 1196
6.918 4.545 0.385 1090
6.773 4.450 0.356 1199
6.767 4.446 0.333 1155
8.236 5.411 0.346 944
8.236 5.411 0.318 933
11.988 7.876 0.357 866
6.868 4.512 0.240 678
8.237 5.412 0.232 584
6.934 4.556 0.193 653
6.928 4.551 0.169 668
6.934 4.556 0.145 580
6.934 4.556 0.121 503
6.934 4.556 0.097 351
10.970 7.207 0.033 323
10.970 7.207 -0.005 324
10.989 7.220 -0.043 250
3.369 2.213 -0.289 281
3.368 2.212 -0.301 281
1.924 1.255 1.769 3863
1.928 1.258 1.762 7727
1.932 1.260 1.756 7727
1.935 1.263 1.749 7684
1.934 1.262 1.738 7646
1.943 1.268 1.736 5453
1.980 1.292 1.756 3928
1.984 1.295 1.750 3928
1.988 1.297 1.743 3595
2.019 1.317 1.759 4156
1.990 1.299 1.725 4106
1.994 1.301 1.718 4995
1.998 1.304 1.711 6057
2.007 1.310 1.709 7271
2.011 1.312 1.702 5853
2.015 1.315 1.695 4435
2.013 1.314 1.684 4410
2.022 1.320 1.681 4935
2.032 1.326 1.679 5714
2.035 1.328 1.672 6146
2.034 1.327 1.661 6665
2.032 1.326 1.650 5906
2.024 1.321 1.634 5584
2.028 1.323 1.627 4316
2.026 1.322 1.616 3064
2.035 1.328 1.613 2494
2.157 1.408 1.694 2648
2.184 1.425 1.703 3280
2.187 1.427 1.695 4144
2.208 1.441 1.700 3740
2.218 1.447 1.697 3751
2.216 1.446 1.685 3270
2.220 1.448 1.678 2872
2.212 1.443 1.662 3192
2.216 1.446 1.654 3466
2.225 1.452 1.651 3417
2.401 1.567 1.762 2522
2.399 1.566 1.750 3343
2.380 1.553 1.726 3300
2.378 1.552 1.714 3783
2.382 1.554 1.706 3613
2.380 1.553 1.694 3463
2.459 1.605 1.735 3879
2.463 1.607 1.727 4723
2.537 1.655 1.764 4660
2.547 1.662 1.759 6303
2.550 1.664 1.750 8014
2.554 1.667 1.742 7321
2.535 1.654 1.718 6750
2.539 1.657 1.709 6800
2.554 1.667 1.708 5784
2.582 1.685 1.714 5541
2.574 1.680 1.698 4940
2.589 1.690 1.696 6463
2.599 1.696 1.691 8892
2.615 1.706 1.689 9842
2.624 1.713 1.684 9440
2.628 1.715 1.675 10778
2.632 1.717 1.666 12397
2.636 1.720 1.657 11110
2.645 1.726 1.651 9395
2.649 1.729 1.642 8670
2.671 1.743 1.643 9917
2.674 1.745 1.634 11202
2.672 1.744 1.622 9288
2.633 1.719 1.589 10882
2.649 1.729 1.587 10626
2.659 1.735 1.581 12877
2.662 1.737 1.572 14077
2.666 1.739 1.563 10853
2.657 1.734 1.547 8133
2.666 1.740 1.541 8520
2.676 1.746 1.535 8049
2.685 1.752 1.529 6673
2.695 1.759 1.523 5468
2.716 1.773 1.523 5580
2.714 1.771 1.511 6242
2.723 1.777 1.505 6114
2.708 1.767 1.486 8180
2.705 1.765 1.474 12029
2.709 1.768 1.464 11120
2.718 1.774 1.458 10420
2.727 1.780 1.452 10992
2.724 1.778 1.439 9318
2.728 1.780 1.430 14447
2.731 1.782 1.421 20285
2.740 1.788 1.414 18451
2.743 1.790 1.405 13686
2.746 1.792 1.396 12237
2.743 1.790 1.383 12031
2.740 1.788 1.371 11336
2.737 1.786 1.359 11173
2.764 1.804 1.361 11415
2.774 1.810 1.354 13711
2.783 1.816 1.347 8625
2.792 1.822 1.340 7256
2.801 1.828 1.333 12225
2.804 1.830 1.324 14904
2.813 1.836 1.317 12696
2.829 1.846 1.312 11681
2.825 1.844 1.300 9307
2.822 1.841 1.288 6236
2.831 1.847 1.281 4019
2.840 1.853 1.274 5844
2.843 1.855 1.264 11865
2.845 1.857 1.254 15552
2.848 1.859 1.244 14326
2.851 1.860 1.235 11035
2.853 1.862 1.225 9154
2.856 1.864 1.215 9856
2.865 1.870 1.208 9001
2.874 1.875 1.200 7479
2.883 1.881 1.193 8907
2.885 1.883 1.183 7402
2.888 1.885 1.173 4220
2.884 1.882 1.161 2947
2.899 1.892 1.155 2684
2.908 1.898 1.147 4905
2.904 1.895 1.135 6660
2.907 1.897 1.125 6860
2.915 1.903 1.117 7603
2.918 1.904 1.107 10430
2.927 1.910 1.100 8383
2.948 1.924 1.096 3980
2.957 1.930 1.088 6318
2.959 1.931 1.078 9455
2.961 1.933 1.068 9441
2.976 1.942 1.061 11747
