1.870 2.377 0.081 794
1.869 2.376 0.072 734
1.869 2.376 0.063 637
1.874 2.382 0.055 545
1.874 2.382 0.046 615
1.879 2.388 0.037 692
1.878 2.388 0.028 594
1.883 2.394 0.019 499
1.878 2.387 0.011 457
1.873 2.381 0.002 418
1.868 2.374 -0.006 404
1.863 2.368 -0.014 405
1.862 2.367 -0.023 287
2.994 3.806 -0.179 261
2.998 3.811 -0.194 311
2.998 3.811 -0.208 360
2.997 3.810 -0.222 360
2.992 3.803 -0.235 378
2.991 3.802 -0.249 403
2.990 3.801 -0.263 398
2.989 3.800 -0.277 394
2.989 3.799 -0.291 308
0.697 0.886 0.033 262
0.692 0.879 0.031 268
2.809 3.571 -0.331 289
2.808 3.570 -0.344 411
0.716 0.910 0.017 404
0.710 0.903 0.015 741
0.710 0.903 0.012 1424
1.459 1.840 1.806 4828
1.466 1.848 1.804 9658
1.469 1.852 1.797 10022
1.472 1.856 1.790 8461
1.467 1.850 1.774 7201
1.486 1.874 1.786 7985
1.510 1.903 1.802 10452
1.513 1.907 1.795 10452
1.520 1.915 1.792 13578
1.523 1.919 1.785 16887
1.526 1.923 1.778 15808
1.529 1.927 1.771 14728
1.523 1.920 1.756 9802
1.584 1.996 1.810 7327
1.587 2.000 1.803 7327
1.590 2.004 1.796 9236
1.593 2.007 1.788 11226
1.596 2.011 1.781 11291
1.603 2.020 1.778 11409
1.606 2.024 1.771 10115
1.609 2.028 1.763 8821
1.616 2.037 1.760 7907
1.627 2.051 1.761 7598
1.634 2.060 1.758 5513
1.641 2.069 1.755 3783
1.652 2.083 1.755 5525
1.659 2.092 1.752 7675
1.662 2.095 1.744 8465
1.665 2.099 1.737 9254
1.672 2.108 1.733 7870
1.684 2.122 1.733 7042
1.695 2.137 1.734 8623
1.706 2.151 1.734 11016
1.709 2.155 1.726 13566
1.712 2.158 1.718 16117
1.719 2.167 1.714 14039
1.726 2.176 1.710 9627
1.780 2.244 1.750 6864
1.775 2.237 1.734 8352
1.778 2.241 1.726 10218
1.781 2.244 1.717 12994
1.783 2.248 1.709 15771
1.786 2.252 1.701 13729
1.793 2.261 1.696 10904
1.792 2.259 1.684 9952
1.799 2.268 1.680 9792
1.802 2.271 1.672 9708
1.800 2.269 1.660 6690
1.855 2.338 1.696 5422
1.862 2.347 1.691 4965
1.870 2.357 1.686 3730
1.890 2.382 1.692 3973
1.888 2.380 1.680 4727
1.895 2.389 1.675 5701
1.903 2.398 1.669 5784
1.914 2.413 1.668 5000
2.005 2.527 1.730 8329
2.008 2.531 1.721 12372
2.011 2.534 1.711 14029
2.013 2.538 1.702 17202
2.016 2.541 1.693 20251
2.015 2.539 1.680 20332
2.022 2.549 1.674 17723
2.025 2.552 1.665 14729
2.027 2.555 1.655 13579
2.035 2.565 1.649 13337
2.037 2.568 1.640 10599
2.192 2.763 1.744 8323
2.204 2.778 1.740 8415
2.211 2.787 1.733 9028
2.241 2.825 1.742 7790
2.253 2.840 1.738 9199
2.242 2.826 1.718 12822
2.245 2.830 1.708 14334
2.252 2.839 1.701 13022
2.260 2.848 1.693 11493
2.267 2.858 1.686 11229
2.270 2.861 1.676 10863
2.286 2.882 1.674 9452
2.348 2.960 1.704 9805
2.355 2.969 1.696 11063
2.358 2.972 1.685 11900
2.365 2.982 1.677 10617
2.423 3.054 1.702 9714
2.421 3.052 1.688 7305
2.387 3.009 1.653 6072
2.390 3.013 1.642 5854
2.448 3.086 1.666 7753
2.474 3.118 1.669 7549
2.486 3.133 1.663 6359
2.520 3.177 1.671 8007
2.519 3.175 1.657 7814
2.521 3.178 1.645 5869
2.529 3.187 1.636 6410
2.541 3.202 1.630 7514
2.539 3.200 1.615 6379
2.546 3.209 1.606 6061
2.734 3.446 1.702 7452
2.741 3.455 1.692 7603
2.744 3.459 1.679 6462
2.756 3.474 1.671 5955
2.768 3.489 1.664 4048
2.878 3.628 1.710 4291
2.881 3.631 1.697 5660
2.884 3.635 1.683 5766
2.886 3.638 1.670 6753
2.899 3.654 1.661 7896
2.892 3.645 1.643 11214
2.895 3.649 1.630 13346
2.897 3.652 1.616 10022
3.008 3.791 1.658 7406
3.020 3.807 1.648 7072
3.027 3.816 1.637 6672
3.040 3.831 1.627 4857
3.202 4.036 1.692 3857
3.219 4.058 1.684 7258
3.231 4.073 1.673 8138
3.220 4.059 1.651 8875
3.228 4.068 1.639 14637
3.230 4.072 1.624 14800
3.219 4.057 1.602 11508
3.236 4.078 1.594 12425
3.252 4.100 1.585 16913
3.246 4.091 1.566 11746
3.353 4.226 1.596 9700
3.360 4.235 1.583 12921
3.367 4.244 1.569 13429
3.370 4.248 1.554 11158
3.377 4.257 1.540 8970
3.375 4.254 1.522 6224
3.377 4.257 1.507 5171
3.385 4.266 1.493 4662
3.387 4.269 1.477 3804
3.390 4.272 1.461 2636
3.928 4.951 1.654 2309
3.988 5.026 1.658 1851
3.990 5.030 1.639 1975
0.897 1.131 0.462 2020
0.893 1.126 0.456 2993
0.894 1.126 0.452 2553
0.894 1.127 0.448 2059
4.350 5.483 1.668 2271
4.348 5.480 1.646 3001
4.350 5.483 1.626 2093
1.127 1.421 0.511 2239
4.606 5.806 1.669 2557
4.614 5.815 1.650 3185
4.631 5.837 1.633 3354
4.696 5.920 1.631 2183
4.709 5.935 1.612 3291
4.711 5.939 1.590 3434
4.714 5.942 1.568 2056
1.070 1.348 0.451 1306
1.070 1.349 0.446 2613
1.076 1.356 0.442 4742
1.076 1.356 0.437 6109
1.077 1.357 0.432 5999
1.077 1.358 0.428 5263
1.078 1.358 0.423 4249
1.078 1.359 0.418 2653
5.906 7.444 1.676 2334
5.987 7.546 1.669 1972
5.989 7.549 1.641 1703
5.997 7.559 1.614 1649
6.330 7.979 1.666 1321
6.338 7.989 1.638 1250
6.292 7.931 1.597 1580
6.295 7.934 1.567 1822
6.297 7.937 1.538 1942
6.300 7.941 1.509 1661
6.297 7.938 1.478 1471
6.304 7.947 1.450 1430
6.307 7.950 1.420 1057
7.369 9.288 1.602 1180
0.792 0.998 0.287 1570
0.792 0.998 0.283 3933
0.787 0.992 0.279 6873
0.788 0.993 0.275 9873
0.788 0.993 0.272 11884
0.788 0.993 0.268 11425
0.788 0.994 0.265 10009
0.789 0.994 0.261 7827
0.789 0.994 0.258 4438
0.794 1.001 0.255 2638
0.799 1.007 0.252 2801
0.799 1.007 0.248 2780
0.799 1.008 0.245 2049
0.800 1.008 0.241 1425
1.413 1.781 0.316 1490
1.413 1.781 0.310 1575
1.413 1.782 0.303 1517
1.419 1.788 0.297 1237
1.419 1.789 0.291 892
1.056 1.331 0.246 855
1.056 1.331 0.242 1516
1.061 1.338 0.237 1895
1.061 1.338 0.232 1963
1.061 1.338 0.228 1716
1.067 1.344 0.223 1107
1.357 1.710 0.240 796
1.362 1.716 0.235 821
1.362 1.717 0.228 766
1.362 1.717 0.222 574
1.362 1.717 0.216 437
1.357 1.711 0.209 320
2.869 3.616 0.116 262
2.869 3.616 0.103 268
2.868 3.616 0.089 273
2.868 3.616 0.076 290
1.884 2.375 0.089 324
1.884 2.375 0.081 440
1.884 2.375 0.072 456
1.884 2.375 0.063 354
1.889 2.381 0.054 257
1.893 2.386 0.028 266
1.888 2.380 0.019 321
1.888 2.380 0.011 322
1.888 2.379 0.002 322
1.892 2.385 -0.007 284
3.006 3.789 -0.263 259
3.010 3.794 -0.278 291
2.294 2.891 -0.188 278
2.293 2.890 -0.199 377
2.292 2.890 -0.209 476
2.292 2.889 -0.220 578
2.291 2.888 -0.231 680
2.290 2.887 -0.241 735
2.290 2.886 -0.252 790
2.289 2.885 -0.262 790
0.719 0.906 0.014 441
0.719 0.906 0.011 781
1.466 1.834 1.806 5238
1.469 1.838 1.799 10477
1.476 1.847 1.797 10633
1.479 1.850 1.790 8707
1.474 1.844 1.774 6831
1.498 1.873 1.791 7598
1.517 1.897 1.802 10393
1.520 1.901 1.795 10393
1.527 1.910 1.792 12968
1.530 1.913 1.785 15736
1.533 1.917 1.778 14561
1.536 1.921 1.771 13386
1.539 1.925 1.764 9182
1.591 1.990 1.810 6166
1.594 1.994 1.803 6166
1.597 1.998 1.796 8372
1.600 2.001 1.788 10636
1.603 2.005 1.781 10892
1.610 2.014 1.778 11174
1.613 2.018 1.771 9291
1.616 2.021 1.763 7408
1.628 2.036 1.764 6724
1.639 2.050 1.765 6732
1.646 2.059 1.762 6915
1.653 2.068 1.759 7185
1.660 2.077 1.755 9120
1.667 2.085 1.752 11454
1.670 2.089 1.744 11491
1.673 2.093 1.737 11528
1.680 2.102 1.733 9202
1.688 2.111 1.729 7465
1.695 2.120 1.726 8082
1.702 2.128 1.722 8813
1.713 2.143 1.722 10604
1.720 2.152 1.718 12734
1.728 2.161 1.714 11313
1.735 2.170 1.710 8462
1.742 2.179 1.706 6250
1.745 2.182 1.698 7386
1.752 2.191 1.694 8602
1.785 2.232 1.713 11180
1.792 2.241 1.709 13883
1.795 2.245 1.701 12955
1.802 2.254 1.696 10277
1.805 2.257 1.688 8598
1.808 2.261 1.680 8408
1.810 2.264 1.672 8218
1.809 2.262 1.660 5835
1.864 2.331 1.696 4220
1.867 2.335 1.687 4357
1.874 2.344 1.682 4057
1.890 2.364 1.685 4159
1.893 2.367 1.676 4600
1.896 2.371 1.667 4781
2.009 2.512 1.748 5179
2.011 2.516 1.739 6599
2.014 2.519 1.730 11328
2.017 2.523 1.721 16810
2.020 2.527 1.711 18984
2.023 2.530 1.702 23482
2.026 2.534 1.693 28078
2.029 2.537 1.683 28176
2.032 2.541 1.674 24933
2.034 2.544 1.665 21153
2.037 2.548 1.655 19782
2.044 2.557 1.649 19069
2.043 2.555 1.637 15600
2.198 2.749 1.740 8886
2.210 2.764 1.737 7836
2.222 2.779 1.733 7913
2.229 2.788 1.726 7581
2.259 2.825 1.735 8921
2.253 2.818 1.718 13638
2.256 2.821 1.708 17472
2.263 2.831 1.701 17111
2.271 2.840 1.693 15712
2.278 2.849 1.686 15470
2.281 2.852 1.676 16217
2.288 2.862 1.668 15978
2.295 2.871 1.661 11839
2.367 2.960 1.696 12697
2.369 2.963 1.685 12594
2.377 2.973 1.677 9845
2.435 3.045 1.702 9298
2.433 3.043 1.688 8116
2.399 3.000 1.653 5916
2.402 3.004 1.642 5818
2.460 3.076 1.666 8243
2.481 3.103 1.666 7769
2.493 3.118 1.660 6335
2.537 3.173 1.674 7251
2.535 3.171 1.659 6741
2.529 3.163 1.642 4122
2.545 3.184 1.639 4581
2.548 3.187 1.627 6617
2.546 3.185 1.613 7283
2.554 3.194 1.603 8944
2.561 3.203 1.594 9309
2.754 3.445 1.692 8514
2.762 3.454 1.681 6884
2.769 3.464 1.671 5422
2.884 3.607 1.721 4203
2.892 3.617 1.710 7827
2.895 3.620 1.697 10346
2.902 3.630 1.686 9677
2.905 3.633 1.672 11661
2.912 3.643 1.661 14161
2.910 3.640 1.645 16643
2.909 3.638 1.630 18212
2.911 3.641 1.616 14943
2.914 3.644 1.603 8270
3.034 3.795 1.648 7203
3.042 3.805 1.637 7396
3.054 3.820 1.627 6052
3.057 3.823 1.613 3801
3.249 4.063 1.690 4781
3.252 4.067 1.675 6704
3.240 4.053 1.654 7371
3.252 4.068 1.643 11865
3.269 4.089 1.635 13253
3.277 4.098 1.622 9366
3.280 4.102 1.607 14077
3.277 4.099 1.589 18511
3.275 4.096 1.572 11847
3.369 4.213 1.596 10534
3.376 4.222 1.583 14135
3.383 4.232 1.569 16517
3.386 4.235 1.554 14764
3.393 4.244 1.540 12091
3.396 4.247 1.524 9289
3.394 4.244 1.507 7785
3.401 4.253 1.493 6475
3.403 4.257 1.477 4333
3.406 4.260 1.461 2750
3.764 4.707 1.583 2584
4.228 5.288 1.742 1739
4.164 5.207 1.697 1957
4.176 5.223 1.681 1790
4.256 5.323 1.690 1863
0.898 1.123 0.452 1554
0.898 1.124 0.448 2097
0.904 1.130 0.446 2371
0.909 1.137 0.444 2508
0.915 1.144 0.441 2319
0.910 1.138 0.435 1964
4.735 5.922 1.705 2340
4.733 5.919 1.681 2983
4.721 5.904 1.655 2571
4.971 6.217 1.712 1894
4.736 5.923 1.614 1965
4.967 6.212 1.662 2071
5.033 6.294 1.658 1794
5.031 6.292 1.634 1511
5.335 6.672 1.699 1709
1.081 1.352 0.442 2115
1.076 1.346 0.436 3265
1.082 1.353 0.432 3794
1.082 1.354 0.428 3689
1.088 1.360 0.424 2993
1.108 1.385 0.424 2733
1.113 1.392 0.420 2901
1.119 1.399 0.417 2816
1.119 1.400 0.412 2514
1.120 1.400 0.407 1938
6.365 7.961 1.667 1353
6.495 8.124 1.668 1211
6.503 8.133 1.639 1169
6.927 8.663 1.704 1038
6.611 8.269 1.601 1289
6.614 8.272 1.570 1318
6.621 8.281 1.541 953
7.845 9.811 1.764 962
7.387 9.238 1.633 928
1.144 1.430 0.360 1250
1.144 1.431 0.354 1631
0.796 0.995 0.283 3042
0.791 0.989 0.279 4702
0.791 0.990 0.275 6069
0.792 0.990 0.272 6248
0.792 0.990 0.268 4772
0.792 0.991 0.265 3335
0.792 0.991 0.261 3376
0.793 0.991 0.258 4352
0.798 0.998 0.255 4595
0.798 0.998 0.251 3503
0.803 1.004 0.248 2103
0.798 0.998 0.244 1154
1.424 1.781 0.323 1502
1.424 1.782 0.317 2058
1.425 1.782 0.310 2313
1.425 1.782 0.304 2549
1.425 1.783 0.297 2706
1.431 1.789 0.291 2607
1.426 1.783 0.284 2496
1.431 1.790 0.278 2274
1.431 1.790 0.272 1820
1.432 1.791 0.265 1308
1.432 1.791 0.259 1048
1.432 1.791 0.252 819
1.072 1.340 0.218 691
1.072 1.341 0.213 795
1.072 1.341 0.209 690
1.077 1.347 0.204 454
1.082 1.353 0.199 315
1.082 1.354 0.195 264
2.786 3.485 -0.180 277
2.786 3.484 -0.193 311
2.785 3.483 -0.206 417
2.784 3.482 -0.218 522
2.784 3.482 -0.231 634
2.783 3.481 -0.244 747
2.782 3.480 -0.257 774
2.782 3.479 -0.270 801
2.781 3.478 -0.283 801
2.303 2.880 -0.220 791
2.302 2.879 -0.231 908
2.301 2.878 -0.241 979
2.301 2.877 -0.252 1050
2.300 2.877 -0.262 1050
2.299 2.876 -0.273 525
0.722 0.903 0.011 629
1.474 1.828 1.806 5097
1.477 1.831 1.799 10195
1.485 1.840 1.797 10253
1.488 1.844 1.790 8265
1.499 1.858 1.793 6442
1.510 1.871 1.795 7275
1.525 1.890 1.802 9968
1.528 1.894 1.795 9968
1.531 1.898 1.788 11723
1.538 1.907 1.785 13588
1.541 1.910 1.778 12409
1.548 1.919 1.776 11299
1.551 1.923 1.769 8368
1.546 1.916 1.753 5484
1.557 1.930 1.755 5239
1.606 1.991 1.796 7242
1.609 1.994 1.788 9553
1.612 1.998 1.781 9874
1.615 2.002 1.774 10186
1.622 2.011 1.771 8102
1.625 2.014 1.763 6046
1.645 2.039 1.773 5664
1.660 2.058 1.778 6294
1.659 2.057 1.766 8121
1.662 2.060 1.759 10007
1.669 2.069 1.755 11675
1.677 2.078 1.752 13700
1.680 2.082 1.744 12845
1.682 2.085 1.737 11990
1.690 2.094 1.733 9300
1.697 2.103 1.729 6998
1.700 2.107 1.722 7353
1.694 2.100 1.706 7943
1.718 2.130 1.718 8243
1.730 2.144 1.718 9881
1.737 2.153 1.714 9058
1.748 2.167 1.714 7253
1.751 2.171 1.706 5483
1.754 2.174 1.698 7189
1.757 2.178 1.690 8895
1.751 2.171 1.675 9609
1.797 2.228 1.705 11668
1.800 2.232 1.697 11583
1.808 2.240 1.693 9284
1.819 2.255 1.692 7442
1.818 2.253 1.680 7161
1.820 2.256 1.672 6978
1.819 2.254 1.660 5123
1.879 2.329 1.700 3535
1.873 2.321 1.684 4162
1.880 2.330 1.679 4551
1.896 2.350 1.681 4780
1.903 2.359 1.676 5034
1.906 2.363 1.667 4741
2.020 2.503 1.748 5872
2.018 2.501 1.736 7430
2.021 2.505 1.726 12625
2.028 2.514 1.721 18681
2.031 2.518 1.711 21109
2.034 2.521 1.702 26595
2.037 2.525 1.693 32426
2.040 2.528 1.683 32770
2.043 2.532 1.674 29180
2.041 2.530 1.661 24959
2.048 2.539 1.655 23235
2.051 2.542 1.646 22164
2.054 2.546 1.637 18360
2.056 2.549 1.627 10605
2.213 2.743 1.730 7329
2.234 2.769 1.733 7006
2.241 2.778 1.726 7081
2.271 2.815 1.735 8496
2.265 2.808 1.718 13881
2.268 2.811 1.708 18792
2.276 2.821 1.701 18853
2.283 2.830 1.693 17552
2.290 2.839 1.686 17204
2.293 2.842 1.676 19064
2.301 2.852 1.668 19970
2.303 2.855 1.658 14981
2.384 2.955 1.699 13514
2.382 2.953 1.685 12310
2.307 2.860 1.623 9278
2.310 2.863 1.612 7725
2.446 3.032 1.688 7346
2.440 3.024 1.671 5095
2.475 3.068 1.680 5585
2.473 3.065 1.666 7424
2.490 3.086 1.663 6956
2.502 3.101 1.657 5653
2.556 3.168 1.677 8081
2.558 3.171 1.665 7014
2.571 3.186 1.659 3994
2.578 3.195 1.650 5105
2.562 3.176 1.627 6227
2.560 3.173 1.613 8449
2.567 3.182 1.603 10862
2.575 3.192 1.594 11094
2.769 3.433 1.692 8441
2.777 3.442 1.681 6873
2.789 3.457 1.674 5666
2.905 3.600 1.723 5225
2.908 3.604 1.710 9398
2.910 3.608 1.697 12436
2.918 3.617 1.686 11690
2.921 3.620 1.672 14227
2.928 3.630 1.661 17143
2.926 3.627 1.645 18862
2.924 3.625 1.630 19885
2.927 3.628 1.616 17066
2.930 3.632 1.603 9922
3.051 3.782 1.648 5959
3.059 3.791 1.637 6486
3.071 3.806 1.627 6073
3.078 3.816 1.616 4124
3.252 4.031 1.684 3597
3.269 4.053 1.675 5409
3.263 4.044 1.656 6662
3.285 4.071 1.650 10987
3.287 4.075 1.635 11807
3.295 4.084 1.622 8640
3.298 4.087 1.607 12828
3.295 4.085 1.589 16746
3.298 4.088 1.574 11606
3.382 4.192 1.594 9769
3.394 4.207 1.583 13064
3.402 4.217 1.569 15479
3.405 4.220 1.554 14281
3.412 4.229 1.540 12081
3.414 4.232 1.524 9712
3.412 4.229 1.507 7882
3.419 4.238 1.493 6190
3.422 4.242 1.477 3760
3.777 4.681 1.599 3159
3.784 4.691 1.583 3044
3.782 4.688 1.564 1862
4.235 5.249 1.715 2017
4.242 5.259 1.697 2209
4.240 5.256 1.676 2045
4.384 5.434 1.707 1779
4.440 5.503 1.706 1668
4.501 5.579 1.706 1656
4.504 5.583 1.685 2239
4.517 5.598 1.668 1540
4.758 5.897 1.727 1760
4.761 5.901 1.705 3003
4.763 5.904 1.683 3207
4.756 5.896 1.658 2321
4.969 6.159 1.702 2024
4.972 6.162 1.679 2119
4.994 6.190 1.662 2023
5.065 6.278 1.660 1677
5.063 6.276 1.635 1195
5.354 6.637 1.696 1575
5.328 6.604 1.663 1590
5.585 6.923 1.710 1660
1.083 1.342 0.431 1710
1.093 1.355 0.429 2475
1.099 1.362 0.425 2622
5.954 7.380 1.701 2194
5.962 7.390 1.675 1931
5.970 7.399 1.649 1555
5.967 7.397 1.620 1410
6.339 7.857 1.683 1654
6.346 7.866 1.654 1469
6.531 8.095 1.668 1360
6.529 8.093 1.637 1282
6.635 8.224 1.630 1078
6.643 8.234 1.600 1347
6.645 8.237 1.569 1359
6.653 8.246 1.540 976
7.888 9.777 1.764 845
7.427 9.206 1.633 870
7.430 9.209 1.599 949
7.793 9.659 1.634 952
1.156 1.432 0.350 1137
1.156 1.433 0.345 1155
0.801 0.992 0.276 1926
0.801 0.993 0.273 2917
0.796 0.987 0.268 3455
0.796 0.987 0.265 3804
0.797 0.987 0.261 3869
0.797 0.988 0.258 3323
0.797 0.988 0.254 2507
0.802 0.994 0.251 1626
0.807 1.001 0.248 1005
1.432 1.775 0.330 738
1.432 1.775 0.323 1115
1.432 1.775 0.317 1384
1.433 1.776 0.310 1517
1.433 1.776 0.304 1625
1.438 1.783 0.298 1673
1.438 1.783 0.291 1572
1.434 1.777 0.284 1486
1.439 1.784 0.278 1325
1.439 1.784 0.272 999
1.211 1.501 0.245 767
1.072 1.329 0.228 628
1.073 1.329 0.223 666
1.083 1.342 0.219 482
1.088 1.348 0.214 390
1.088 1.348 0.209 405
1.083 1.342 0.204 399
1.078 1.336 0.199 371
1.083 1.343 0.194 304
2.318 2.873 -0.177 283
2.317 2.872 -0.188 283
2.317 2.872 -0.199 372
2.316 2.871 -0.209 462
2.315 2.870 -0.220 572
2.315 2.869 -0.231 682
2.314 2.868 -0.241 801
2.313 2.867 -0.252 920
2.313 2.866 -0.262 920
2.312 2.866 -0.273 460
1.482 1.821 1.806 4928
1.485 1.825 1.799 9857
1.488 1.829 1.792 9857
1.495 1.837 1.790 7880
1.507 1.851 1.793 6413
1.526 1.875 1.804 7446
1.533 1.884 1.802 9558
1.536 1.888 1.795 9558
1.539 1.891 1.788 10049
1.542 1.895 1.781 10540
1.549 1.904 1.778 9533
1.561 1.918 1.780 8927
1.560 1.916 1.769 7749
1.563 1.920 1.762 6614
1.566 1.924 1.755 6047
1.614 1.984 1.796 6041
1.617 1.987 1.788 8373
1.616 1.986 1.777 8774
1.624 1.995 1.774 9198
1.627 1.999 1.766 7439
1.630 2.002 1.759 5680
1.666 2.047 1.786 5321
1.673 2.056 1.782 6481
1.668 2.049 1.766 9328
1.671 2.053 1.759 12685
1.678 2.062 1.755 13956
1.681 2.066 1.748 15527
1.688 2.075 1.744 13410
1.691 2.078 1.737 11399
1.694 2.082 1.729 8570
1.706 2.096 1.729 5804
1.700 2.089 1.714 6408
1.703 2.093 1.706 7074
1.715 2.107 1.706 6565
1.735 2.131 1.714 7356
1.751 2.151 1.718 7165
1.758 2.160 1.714 6289
1.761 2.163 1.706 4959
1.764 2.167 1.698 7088
1.766 2.170 1.690 9217
1.761 2.163 1.675 10222
1.763 2.167 1.667 11423
1.771 2.175 1.663 11192
1.778 2.184 1.658 8641
1.838 2.258 1.700 7217
1.827 2.245 1.680 6581
1.826 2.243 1.668 6532
1.833 2.252 1.663 5070
1.853 2.277 1.670 3599
1.878 2.308 1.680 4671
1.885 2.317 1.675 5415
1.906 2.342 1.681 5516
1.913 2.351 1.676 5774
1.916 2.354 1.667 5119
2.030 2.495 1.748 6081
2.029 2.493 1.736 7999
2.032 2.496 1.726 13743
2.039 2.505 1.721 20251
2.042 2.509 1.711 22947
2.045 2.513 1.702 29281
2.048 2.516 1.693 35912
2.051 2.520 1.683 36210
2.053 2.523 1.674 32604
2.052 2.521 1.661 28141
2.059 2.530 1.655 26073
2.062 2.533 1.646 24936
2.065 2.537 1.637 20819
2.067 2.540 1.627 12414
2.161 2.655 1.684 8080
2.164 2.659 1.674 6559
2.230 2.740 1.710 6183
2.283 2.806 1.735 7425
2.277 2.798 1.718 13198
2.280 2.802 1.708 18740
2.288 2.811 1.701 19056
2.295 2.820 1.693 18241
2.303 2.829 1.686 17978
2.305 2.833 1.676 20652
2.313 2.842 1.668 22426
2.316 2.845 1.658 17114
2.397 2.945 1.699 13801
2.400 2.948 1.688 11391
2.319 2.850 1.623 10973
2.322 2.853 1.612 9004
2.450 3.010 1.682 6051
2.453 3.014 1.671 4483
2.493 3.063 1.683 4978
2.491 3.060 1.668 6495
2.498 3.070 1.660 5958
2.566 3.153 1.688 6722
2.569 3.157 1.677 9830
2.572 3.160 1.665 8452
2.584 3.175 1.659 7779
2.587 3.179 1.647 9526
2.585 3.176 1.633 8316
2.574 3.162 1.613 10418
2.581 3.171 1.603 12892
2.588 3.180 1.594 12863
2.596 3.190 1.585 8881
2.792 3.430 1.681 6585
2.856 3.509 1.703 6017
2.854 3.507 1.687 5433
2.923 3.592 1.710 9647
2.926 3.595 1.697 12857
2.934 3.604 1.686 12333
2.936 3.608 1.672 15271
2.944 3.617 1.661 18261
2.942 3.615 1.645 19000
2.940 3.612 1.630 19353
2.943 3.616 1.616 17105
2.945 3.619 1.603 10250
2.948 3.622 1.589 4602
3.080 3.784 1.639 5045
3.092 3.799 1.630 5475
3.095 3.802 1.616 3863
3.260 4.006 1.679 3383
3.272 4.021 1.669 4454
3.275 4.024 1.654 6119
3.297 4.051 1.648 9508
3.305 4.061 1.635 9077
3.312 4.070 1.622 6149
3.315 4.073 1.607 9494
3.313 4.071 1.589 13855
3.316 4.074 1.574 11269
3.400 4.178 1.594 7388
3.412 4.193 1.583 9342
3.420 4.202 1.569 11077
3.423 4.205 1.554 10600
3.430 4.214 1.540 9258
3.433 4.218 1.524 7609
3.435 4.221 1.508 5841
3.796 4.664 1.635 5840
3.794 4.662 1.616 6434
3.797 4.665 1.599 5082
3.804 4.674 1.583 3574
3.802 4.672 1.564 2342
4.043 4.968 1.635 2590
4.270 5.246 1.699 2448
4.297 5.280 1.689 2279
4.246 5.217 1.650 2031
4.464 5.484 1.706 2196
4.520 5.554 1.704 1576
4.523 5.557 1.683 2199
4.521 5.555 1.661 1801
4.778 5.871 1.725 2054
4.786 5.880 1.705 3272
4.794 5.890 1.685 3144
4.679 5.749 1.625 1921
4.990 6.132 1.701 2227
4.998 6.141 1.679 2203
5.025 6.175 1.664 1823
5.225 6.419 1.700 2100
5.232 6.429 1.677 1366
5.353 6.577 1.687 1490
5.346 6.569 1.660 1602
5.620 6.905 1.712 1943
5.622 6.908 1.686 1682
1.380 1.695 0.505 1808
1.380 1.696 0.499 2103
5.981 7.349 1.700 2037
5.850 7.188 1.638 1993
6.204 7.622 1.700 1689
5.999 7.371 1.620 1372
6.367 7.823 1.681 1633
6.375 7.833 1.653 1520
6.566 8.067 1.668 1432
6.648 8.168 1.656 1401
6.665 8.189 1.629 1138
6.673 8.199 1.599 1299
6.675 8.202 1.568 1339
7.377 9.064 1.684 1034
7.379 9.067 1.650 849
1.160 1.426 0.366 980
1.161 1.426 0.361 1038
1.161 1.427 0.355 1071
1.162 1.427 0.350 1387
1.162 1.428 0.345 1720
1.157 1.422 0.339 2031
1.158 1.423 0.334 2233
1.158 1.423 0.328 1942
0.811 0.996 0.266 2122
0.811 0.996 0.263 2376
0.816 1.003 0.260 2234
0.816 1.003 0.256 2408
0.816 1.003 0.253 2851
0.812 0.997 0.248 2960
0.812 0.998 0.245 2405
0.812 0.998 0.241 1536
0.807 0.992 0.237 960
1.211 1.488 0.282 834
1.441 1.770 0.304 848
1.441 1.770 0.297 957
1.446 1.777 0.291 969
1.217 1.495 0.261 1062
1.217 1.496 0.256 1081
1.217 1.496 0.250 973
1.218 1.496 0.245 696
1.218 1.496 0.239 361
1.083 1.331 0.223 343
1.083 1.331 0.218 250
2.331 2.864 -0.167 315
2.330 2.863 -0.177 463
2.330 2.862 -0.188 463
2.329 2.862 -0.199 676
2.328 2.861 -0.209 889
2.328 2.860 -0.220 1204
2.327 2.859 -0.231 1518
2.326 2.858 -0.241 1856
2.326 2.857 -0.252 2193
2.325 2.857 -0.262 2193
2.324 2.856 -0.273 1096
1.063 1.306 -0.050 435
1.490 1.815 1.806 4736
1.493 1.819 1.799 9472
1.496 1.823 1.792 9472
1.507 1.836 1.795 7714
1.522 1.855 1.802 7003
1.538 1.874 1.809 8237
1.541 1.878 1.802 9592
1.544 1.881 1.795 9592
1.547 1.885 1.788 8503
1.550 1.889 1.781 7415
1.553 1.892 1.774 6716
1.569 1.911 1.780 6835
1.567 1.910 1.769 7427
1.562 1.903 1.753 8374
1.569 1.912 1.750 7448
1.564 1.906 1.735 5652
1.621 1.976 1.784 7452
1.624 1.979 1.777 7967
1.627 1.983 1.769 8518
1.630 1.987 1.762 7830
1.633 1.990 1.755 7141
1.636 1.994 1.747 5899
1.686 2.054 1.787 6578
1.676 2.043 1.766 10380
1.679 2.046 1.759 14495
1.687 2.055 1.755 15230
1.690 2.059 1.748 16303
1.693 2.062 1.740 12937
1.704 2.076 1.741 9870
1.703 2.075 1.729 7369
1.697 2.068 1.713 5193
1.704 2.077 1.709 5507
1.712 2.086 1.706 6092
1.719 2.094 1.702 5524
1.752 2.135 1.722 5860
1.759 2.144 1.718 6123
1.767 2.153 1.714 5743
1.769 2.156 1.706 4953
1.772 2.160 1.698 7144
1.775 2.163 1.690 9335
1.769 2.156 1.675 10150
1.772 2.159 1.667 11245
1.779 2.168 1.663 10612
1.835 2.236 1.700 8008
1.856 2.261 1.707 8161
1.850 2.254 1.691 6433
1.830 2.230 1.664 6642
1.842 2.245 1.663 5461
1.863 2.270 1.670 5150
1.883 2.295 1.676 5813
1.890 2.304 1.671 6541
1.907 2.323 1.674 6067
1.927 2.348 1.680 6376
1.930 2.352 1.671 5828
1.938 2.361 1.666 7046
1.940 2.364 1.657 8659
2.042 2.488 1.726 13485
2.049 2.497 1.721 19751
2.052 2.501 1.711 22440
2.055 2.504 1.702 29321
2.058 2.508 1.693 36526
2.061 2.511 1.683 36850
2.064 2.515 1.674 33743
2.062 2.513 1.661 29370
2.069 2.522 1.655 26993
2.072 2.525 1.646 26001
2.075 2.528 1.637 22053
2.073 2.526 1.624 13815
2.167 2.641 1.681 10602
2.166 2.639 1.667 9028
2.164 2.637 1.654 8125
2.167 2.640 1.645 6119
2.289 2.789 1.718 11155
2.292 2.792 1.708 16485
2.294 2.796 1.698 16959
2.311 2.816 1.697 17102
2.314 2.820 1.686 17012
2.317 2.823 1.676 19847
2.320 2.827 1.665 21836
2.323 2.830 1.655 16687
2.395 2.918 1.690 12834
2.384 2.905 1.670 11599
2.331 2.840 1.623 10963
2.338 2.849 1.615 9061
2.443 2.977 1.670 7387
2.442 2.975 1.656 5429
2.430 2.961 1.636 6334
2.564 3.124 1.706 6074
2.572 3.134 1.697 6382
2.579 3.143 1.688 7625
2.582 3.146 1.677 10213
2.585 3.150 1.665 10170
2.597 3.165 1.659 12993
2.600 3.168 1.647 15179
2.603 3.171 1.635 11527
2.591 3.158 1.615 11737
2.599 3.167 1.606 13764
2.606 3.176 1.597 13805
2.614 3.185 1.588 10065
2.863 3.488 1.713 5530
2.870 3.497 1.703 7239
2.878 3.507 1.692 6730
2.938 3.580 1.710 7930
2.941 3.583 1.697 11013
2.948 3.592 1.686 10991
2.951 3.596 1.672 13806
2.959 3.605 1.661 16538
2.957 3.603 1.645 16345
2.955 3.600 1.630 15984
2.957 3.604 1.616 14108
2.955 3.601 1.600 8394
2.963 3.610 1.589 3700
3.215 3.917 1.698 3558
3.112 3.792 1.632 4334
3.221 3.924 1.669 4205
3.248 3.957 1.665 4060
3.255 3.966 1.653 4524
3.224 3.929 1.622 6436
3.309 4.032 1.645 8227
3.312 4.035 1.630 6540
3.232 3.939 1.578 5518
3.332 4.060 1.607 5823
3.330 4.057 1.589 10894
3.327 4.054 1.572 9784
3.325 4.052 1.555 5120
3.745 4.563 1.717 5212
3.728 4.543 1.692 5635
3.440 4.191 1.554 5100
3.447 4.200 1.540 4812
3.805 4.636 1.668 5398
3.813 4.646 1.653 4693
3.810 4.643 1.633 6373
3.813 4.646 1.616 9411
3.816 4.650 1.599 6642
3.823 4.659 1.583 3928
3.821 4.656 1.564 3223
4.063 4.951 1.635 3652
4.066 4.955 1.617 2659
4.323 5.268 1.690 2474
4.268 5.200 1.650 2039
4.491 5.472 1.708 2625
4.508 5.494 1.692 1666
4.556 5.551 1.687 2009
4.553 5.548 1.664 1916
4.714 5.743 1.696 1956
4.810 5.861 1.705 2736
4.823 5.876 1.686 2720
1.143 1.393 0.492 2433
1.144 1.393 0.487 2849
1.144 1.394 0.482 3275
1.150 1.401 0.478 3515
1.150 1.402 0.473 3210
1.151 1.403 0.468 2414
1.152 1.403 0.463 1428
5.368 6.541 1.659 1490
5.653 6.888 1.713 2013
5.656 6.891 1.687 1868
1.377 1.678 0.503 1937
1.382 1.684 0.498 2211
1.383 1.685 0.491 2233
5.880 7.164 1.638 1745
6.235 7.597 1.700 1567
6.381 7.776 1.707 1382
6.469 7.882 1.698 1503
6.467 7.879 1.667 1593
6.594 8.034 1.667 1530
6.860 8.359 1.697 1465
6.694 8.156 1.627 1277
6.706 8.172 1.599 1340
6.704 8.169 1.567 1385
7.568 9.221 1.717 1164
7.571 9.225 1.682 987
1.171 1.427 0.367 1248
1.167 1.422 0.361 1596
1.167 1.422 0.355 1655
1.168 1.423 0.350 1822
1.168 1.423 0.345 2370
1.163 1.417 0.339 2674
1.164 1.418 0.334 2387
1.164 1.418 0.328 1732
0.815 0.993 0.266 1467
0.815 0.993 0.263 2046
0.815 0.993 0.259 2386
0.815 0.993 0.256 2344
0.821 1.000 0.253 2254
0.821 1.000 0.249 2441
0.816 0.994 0.245 2519
0.816 0.994 0.241 2033
0.816 0.995 0.238 1497
1.217 1.483 0.282 1069
1.217 1.483 0.277 1178
1.218 1.484 0.272 1249
1.223 1.490 0.267 1381
1.223 1.490 0.261 1539
1.223 1.491 0.256 1659
1.224 1.491 0.250 1634
1.224 1.491 0.245 1373
1.224 1.491 0.239 906
1.224 1.492 0.234 642
1.224 1.492 0.228 456
2.826 3.443 -0.270 274
2.340 2.851 -0.209 275
2.824 3.441 -0.296 314
2.823 3.440 -0.308 354
2.827 3.445 -0.322 344
2.827 3.444 -0.335 337
2.821 3.437 -0.347 328
1.063 1.296 -0.045 320
1.058 1.289 -0.049 527
1.496 1.810 1.806 4516
1.499 1.814 1.799 9033
1.506 1.822 1.797 9108
1.518 1.836 1.800 7912
1.537 1.860 1.811 8281
1.540 1.863 1.804 9368
1.543 1.867 1.797 10455
1.546 1.871 1.790 10455
1.545 1.870 1.779 8674
1.548 1.873 1.772 7002
1.556 1.882 1.770 6971
1.563 1.891 1.767 7185
1.562 1.889 1.756 9267
1.565 1.893 1.749 11355
1.568 1.896 1.742 9982
1.566 1.895 1.730 7961
1.561 1.888 1.714 7904
1.627 1.969 1.772 7488
1.630 1.972 1.765 8180
1.637 1.981 1.762 8542
1.640 1.985 1.755 8945
1.643 1.988 1.747 7653
1.681 2.033 1.774 6574
1.684 2.037 1.766 10844
1.687 2.040 1.759 15115
1.690 2.044 1.751 15476
1.697 2.053 1.748 15890
1.700 2.056 1.740 11794
1.707 2.065 1.737 7753
1.701 2.058 1.721 6359
1.687 2.041 1.697 5710
1.712 2.071 1.709 5106
1.719 2.080 1.706 5504
1.726 2.088 1.702 4821
1.760 2.129 1.722 5587
1.767 2.138 1.718 6026
1.770 2.141 1.710 5920
1.751 2.118 1.683 5638
1.780 2.153 1.698 7239
1.783 2.157 1.690 9246
1.781 2.155 1.679 9714
1.780 2.153 1.667 10521
1.787 2.162 1.663 9619
1.856 2.246 1.712 8369
1.868 2.260 1.711 9715
1.862 2.253 1.695 7580
1.838 2.224 1.664 7324
1.859 2.249 1.671 6438
1.871 2.263 1.670 6713
1.882 2.277 1.669 7131
1.894 2.291 1.668 7703
1.910 2.311 1.670 6597
1.936 2.342 1.680 6973
1.961 2.372 1.689 6931
1.955 2.365 1.673 8892
1.953 2.363 1.661 10641
1.969 2.383 1.662 13636
2.004 2.424 1.678 17269
2.061 2.493 1.711 19601
2.064 2.497 1.702 26673
2.067 2.500 1.693 33984
2.070 2.504 1.683 34224
2.073 2.507 1.674 32254
2.071 2.505 1.661 28784
2.078 2.514 1.655 26433
2.081 2.518 1.646 25758
2.084 2.521 1.637 22146
2.082 2.519 1.624 14491
2.172 2.628 1.677 13067
2.170 2.626 1.664 12038
2.164 2.618 1.648 11279
2.171 2.627 1.641 8512
2.294 2.775 1.715 8407
2.301 2.784 1.708 12614
2.304 2.788 1.698 13159
2.326 2.814 1.700 14262
2.324 2.812 1.686 14155
2.322 2.809 1.673 16717
2.330 2.818 1.665 18887
2.337 2.827 1.658 14520
2.391 2.893 1.681 14264
2.389 2.891 1.667 14079
2.383 2.883 1.650 11086
2.442 2.954 1.675 12362
2.449 2.963 1.667 9839
2.433 2.944 1.644 8220
2.436 2.947 1.633 8808
2.434 2.945 1.619 6446
2.583 3.124 1.697 6508
2.586 3.128 1.686 7269
2.588 3.131 1.674 9627
2.596 3.141 1.665 11183
2.608 3.155 1.659 16630
2.611 3.159 1.647 18654
2.614 3.162 1.635 13292
2.607 3.154 1.618 11865
2.610 3.157 1.606 13342
2.622 3.172 1.600 13976
2.630 3.181 1.591 11057
2.799 3.386 1.671 5475
2.882 3.487 1.703 6731
2.890 3.496 1.692 6466
2.888 3.494 1.677 7285
2.891 3.498 1.663 8366
2.899 3.507 1.653 8098
2.964 3.585 1.672 10311
2.971 3.595 1.661 12453
2.969 3.592 1.645 11650
2.967 3.590 1.630 11028
2.970 3.593 1.616 9633
2.968 3.591 1.600 5606
3.231 3.908 1.715 2716
3.229 3.906 1.698 3426
3.232 3.910 1.683 3375
3.234 3.913 1.669 4382
3.242 3.922 1.656 4440
3.264 3.949 1.651 4490
3.238 3.917 1.622 6736
3.241 3.921 1.608 7183
3.248 3.930 1.595 6473
3.246 3.927 1.578 6479
3.331 4.030 1.600 3832
3.339 4.039 1.587 7470
3.346 4.049 1.574 6935
3.349 4.052 1.559 4104
3.357 4.061 1.546 5212
3.793 4.589 1.712 5135
3.742 4.527 1.673 4101
3.750 4.537 1.658 4331
3.821 4.623 1.668 5874
3.824 4.626 1.651 4479
3.822 4.624 1.632 6276
3.825 4.627 1.614 10340
3.827 4.630 1.597 7084
3.850 4.657 1.587 3954
4.073 4.928 1.652 4219
4.081 4.937 1.635 4355
4.084 4.940 1.617 3132
4.347 5.259 1.692 2659
4.360 5.274 1.676 2426
4.520 5.468 1.711 2837
4.528 5.478 1.692 2085
4.614 5.583 1.700 2088
4.598 5.562 1.673 1936
4.734 5.727 1.696 1924
4.845 5.862 1.710 2140
4.863 5.883 1.692 2658
5.019 6.072 1.719 1907
5.022 6.076 1.696 1802
5.149 6.229 1.711 1352
5.275 6.382 1.725 2172
5.278 6.386 1.701 2939
5.281 6.389 1.677 2173
5.378 6.507 1.680 1457
5.584 6.756 1.714 1340
1.386 1.677 0.516 1677
1.382 1.672 0.509 2150
1.383 1.673 0.503 2181
1.383 1.673 0.496 1854
6.026 7.291 1.697 1651
6.024 7.288 1.669 1418
6.271 7.587 1.702 1327
6.409 7.753 1.707 1501
6.417 7.763 1.679 1454
6.499 7.863 1.669 1445
6.622 8.011 1.667 1567
6.884 8.328 1.695 1563
6.722 8.133 1.627 1398
6.730 8.142 1.598 1356
6.728 8.139 1.566 1327
7.600 9.195 1.717 1275
7.598 9.192 1.681 1066
1.176 1.423 0.367 1108
1.177 1.424 0.362 1658
1.172 1.418 0.355 1826
1.087 1.315 0.334 2240
1.088 1.316 0.330 2600
1.088 1.316 0.325 2650
1.088 1.317 0.320 2286
1.089 1.317 0.315 1654
1.084 1.311 0.309 1285
1.084 1.312 0.305 1083
0.819 0.990 0.259 1001
0.819 0.991 0.256 1251
0.819 0.991 0.252 1047
0.819 0.991 0.248 570
1.226 1.484 0.299 842
1.227 1.484 0.294 1553
1.227 1.484 0.289 2398
1.222 1.479 0.282 2914
1.223 1.479 0.277 3095
1.223 1.479 0.272 3141
1.228 1.486 0.267 3187
1.228 1.486 0.261 2965
1.229 1.486 0.256 2722
1.229 1.487 0.250 2310
1.229 1.487 0.245 1429
1.229 1.487 0.239 611
1.229 1.487 0.234 296
0.937 1.134 0.207 289
0.937 1.134 0.202 252
2.351 2.844 -0.199 256
2.350 2.843 -0.209 331
2.349 2.842 -0.220 398
2.349 2.841 -0.231 465
2.348 2.841 -0.241 454
2.342 2.834 -0.251 448
2.341 2.833 -0.261 448
1.062 1.285 -0.049 299
1.503 1.804 1.806 4276
1.507 1.807 1.799 8553
1.518 1.821 1.802 8770
1.533 1.840 1.809 8343
1.545 1.853 1.811 9452
1.548 1.857 1.804 10459
1.547 1.856 1.793 11613
1.550 1.860 1.786 11613
1.549 1.858 1.774 10042
1.552 1.862 1.768 8612
1.555 1.865 1.761 9037
1.562 1.874 1.758 9487
1.565 1.878 1.751 11712
1.572 1.886 1.749 13973
1.575 1.890 1.742 12285
1.574 1.889 1.730 9996
1.569 1.882 1.714 9922
1.572 1.885 1.707 7712
1.638 1.965 1.765 7663
1.646 1.974 1.762 8793
1.653 1.983 1.759 9994
1.656 1.987 1.752 8716
1.659 1.990 1.744 7438
1.692 2.030 1.766 10677
1.691 2.028 1.755 14958
1.698 2.037 1.751 14998
1.701 2.041 1.744 15123
1.704 2.044 1.736 10749
1.681 2.017 1.704 6687
1.688 2.025 1.700 6762
1.695 2.034 1.697 7002
1.711 2.053 1.701 5384
1.727 2.072 1.706 5280
1.761 2.113 1.726 4334
1.768 2.121 1.722 5595
1.771 2.125 1.714 6408
1.761 2.113 1.695 6793
1.759 2.111 1.683 6657
1.784 2.141 1.695 7059
1.796 2.155 1.694 8691
1.790 2.148 1.679 8767
1.789 2.146 1.667 9189
1.796 2.155 1.663 8126
1.865 2.238 1.712 9395
1.877 2.252 1.711 11499
1.893 2.272 1.714 9226
1.901 2.281 1.709 8121
1.872 2.247 1.674 7432
1.880 2.255 1.670 7959
1.892 2.270 1.669 8354
1.903 2.284 1.668 8820
1.915 2.298 1.666 7279
1.950 2.339 1.683 7512
1.966 2.359 1.685 8261
1.969 2.362 1.677 10530
1.963 2.355 1.661 12062
1.979 2.375 1.662 15517
2.018 2.422 1.682 19785
2.021 2.425 1.673 21134
2.074 2.488 1.702 22980
2.077 2.492 1.693 29440
2.080 2.495 1.683 29223
2.083 2.499 1.674 28164
2.081 2.497 1.661 25357
2.089 2.506 1.655 23166
2.091 2.509 1.646 22918
2.094 2.513 1.637 20031
2.092 2.510 1.624 13665
2.178 2.613 1.674 14823
2.162 2.594 1.651 15426
2.170 2.603 1.645 14295
2.182 2.618 1.641 10599
2.194 2.632 1.638 9045
2.192 2.630 1.625 10312
2.200 2.639 1.618 11572
2.346 2.815 1.706 11114
2.340 2.808 1.689 10565
2.334 2.800 1.673 12330
2.341 2.809 1.665 14501
2.395 2.874 1.688 14372
2.398 2.877 1.678 15748
2.401 2.881 1.667 15335
2.390 2.867 1.647 11379
2.454 2.944 1.675 13638
2.461 2.953 1.667 10976
2.441 2.928 1.641 9451
2.448 2.937 1.633 9404
2.437 2.924 1.613 8006
2.430 2.916 1.597 8059
2.598 3.117 1.686 6139
2.601 3.121 1.674 8699
2.609 3.130 1.665 11070
2.621 3.145 1.659 17088
2.629 3.154 1.650 18554
2.632 3.157 1.638 12651
2.630 3.155 1.623 10615
2.628 3.152 1.609 11680
2.640 3.167 1.602 13182
2.647 3.176 1.593 11299
2.808 3.369 1.668 7383
2.806 3.366 1.653 7971
2.809 3.370 1.640 7694
2.907 3.488 1.679 6679
2.910 3.492 1.666 8504
2.913 3.495 1.653 8139
2.911 3.493 1.637 8070
2.986 3.583 1.661 7736
2.989 3.586 1.648 6668
2.982 3.578 1.630 6125
2.980 3.575 1.614 5375
3.147 3.776 1.682 4806
3.155 3.785 1.670 2833
3.240 3.887 1.696 2721
3.214 3.856 1.667 3555
3.226 3.871 1.657 4457
3.248 3.897 1.652 4363
3.217 3.860 1.621 4853
3.215 3.857 1.604 6927
3.257 3.907 1.608 7444
3.259 3.911 1.593 6420
3.262 3.914 1.578 5946
3.260 3.911 1.561 3282
3.355 4.026 1.587 3851
3.363 4.035 1.574 3901
3.742 4.490 1.719 3840
3.809 4.570 1.729 5072
3.817 4.579 1.714 5852
3.819 4.583 1.697 4599
3.827 4.592 1.682 4523
3.840 4.607 1.668 6371
3.833 4.599 1.647 6205
3.836 4.602 1.630 6907
3.843 4.611 1.614 8626
3.846 4.615 1.597 5961
4.095 4.913 1.672 3981
4.093 4.911 1.652 4105
4.101 4.920 1.635 4188
4.104 4.924 1.617 3065
4.368 5.241 1.692 2339
4.386 5.262 1.678 2060
4.547 5.456 1.713 2558
4.555 5.465 1.694 2148
4.637 5.564 1.700 3123
4.640 5.567 1.679 2890
4.762 5.713 1.697 1860
4.884 5.860 1.715 2436
4.897 5.875 1.696 3207
4.900 5.879 1.673 2730
1.159 1.391 0.489 3055
1.165 1.397 0.485 3917
1.160 1.392 0.478 4660
1.166 1.399 0.475 4180
1.167 1.400 0.469 3066
1.167 1.400 0.464 2170
1.168 1.401 0.459 1562
1.608 1.929 0.576 1278
1.608 1.930 0.569 1686
5.771 6.923 1.677 1808
5.908 7.089 1.687 1854
6.051 7.260 1.696 1761
6.054 7.264 1.669 1609
6.332 7.597 1.710 1344
6.445 7.733 1.708 1577
6.448 7.736 1.679 1435
6.632 7.956 1.692 1465
6.654 7.984 1.667 1477
6.913 8.294 1.694 1526
6.755 8.105 1.627 1435
7.079 8.494 1.666 1451
6.761 8.112 1.566 1221
7.638 9.164 1.717 1201
7.636 9.161 1.681 999
1.187 1.424 0.368 940
1.183 1.419 0.362 795
7.654 9.183 1.579 866
8.407 10.086 1.682 1240
1.098 1.317 0.330 1347
1.098 1.318 0.326 1925
1.099 1.318 0.321 2458
1.099 1.319 0.316 2631
1.094 1.313 0.310 2454
1.095 1.313 0.305 2163
1.100 1.320 0.301 1608
1.100 1.320 0.296 891
0.828 0.994 0.253 753
0.828 0.994 0.249 732
1.233 1.479 0.299 1236
1.233 1.479 0.294 2769
1.233 1.479 0.289 4620
1.233 1.480 0.283 5908
1.234 1.480 0.278 6291
1.234 1.480 0.272 6031
1.234 1.481 0.267 5103
1.234 1.481 0.261 3914
1.235 1.481 0.256 3465
1.235 1.481 0.250 3173
1.235 1.482 0.245 2316
1.235 1.482 0.239 1287
1.240 1.488 0.234 757
0.942 1.130 0.207 638
0.942 1.130 0.202 581
0.942 1.130 0.198 570
0.942 1.130 0.194 536
0.937 1.125 0.190 407
0.937 1.125 0.186 333
0.937 1.125 0.182 262
2.020 2.424 -0.003 261
2.015 2.418 -0.012 287
2.015 2.417 -0.021 316
2.015 2.417 -0.030 302
2.014 2.417 -0.039 288
2.014 2.416 -0.048 324
2.013 2.416 -0.057 361
2.013 2.415 -0.066 366
2.013 2.415 -0.075 371
2.017 2.420 -0.085 336
2.017 2.420 -0.094 300
2.016 2.419 -0.103 296
2.641 3.169 -0.215 252
2.855 3.426 -0.296 272
2.854 3.425 -0.309 331
2.355 2.825 -0.240 382
2.354 2.824 -0.251 499
2.353 2.823 -0.261 499
1.073 1.287 -0.050 375
1.511 1.798 1.806 4072
1.514 1.801 1.799 8144
1.529 1.820 1.806 8756
1.541 1.834 1.809 8862
1.552 1.847 1.811 10289
1.555 1.851 1.804 11183
1.550 1.845 1.788 12575
1.553 1.848 1.781 12575
1.556 1.852 1.774 11829
1.555 1.851 1.763 11188
1.562 1.859 1.761 11949
1.565 1.863 1.754 12815
1.573 1.872 1.751 14692
1.576 1.875 1.744 17012
1.579 1.879 1.737 15066
1.577 1.877 1.726 12609
1.576 1.876 1.714 12479
1.579 1.879 1.707 9699
1.591 1.893 1.709 7096
1.658 1.973 1.766 8309
1.661 1.976 1.759 10179
1.664 1.980 1.752 9120
1.667 1.984 1.744 8061
1.670 1.987 1.737 10554
1.690 2.011 1.746 13890
1.697 2.020 1.743 13699
1.705 2.029 1.739 13635
1.695 2.017 1.719 10403
1.693 2.015 1.708 8243
1.696 2.019 1.700 8428
1.704 2.027 1.697 8883
1.715 2.041 1.697 6444
1.736 2.066 1.706 5680
1.765 2.100 1.722 4558
1.772 2.109 1.718 5450
1.771 2.107 1.706 6999
1.769 2.106 1.695 8072
1.768 2.104 1.683 7687
1.788 2.128 1.691 6559
1.805 2.148 1.694 7839
1.803 2.146 1.682 7606
1.802 2.144 1.671 7758
1.804 2.147 1.663 6584
1.874 2.230 1.712 10527
1.882 2.239 1.707 13270
1.885 2.243 1.699 10531
1.905 2.268 1.705 9089
1.881 2.239 1.674 7954
1.889 2.248 1.670 8457
1.901 2.262 1.669 9082
1.908 2.271 1.664 9436
1.920 2.285 1.663 7919
1.964 2.337 1.687 7984
1.975 2.351 1.685 9066
1.978 2.354 1.677 11691
1.977 2.352 1.664 13207
1.989 2.367 1.662 16456
2.028 2.413 1.682 21613
2.035 2.422 1.676 24029
2.038 2.426 1.667 20997
2.082 2.478 1.689 22645
2.090 2.487 1.683 22077
2.093 2.491 1.674 22181
2.091 2.489 1.661 20326
2.094 2.492 1.652 18269
2.101 2.501 1.646 18366
2.104 2.504 1.637 16184
2.181 2.596 1.680 12301
2.179 2.593 1.667 16689
2.173 2.586 1.651 18950
2.176 2.589 1.641 17176
2.192 2.609 1.641 12841
2.200 2.618 1.635 11594
2.203 2.621 1.625 14332
2.205 2.625 1.615 16917
2.208 2.628 1.605 13839
2.206 2.626 1.592 7117
2.396 2.852 1.707 7823
2.395 2.850 1.693 14827
2.402 2.859 1.685 17384
2.410 2.868 1.678 16130
2.408 2.866 1.664 14715
2.387 2.841 1.638 11744
2.466 2.934 1.675 12746
2.464 2.932 1.661 10611
2.443 2.907 1.635 9402
2.446 2.911 1.624 8548
2.444 2.908 1.611 10002
2.437 2.900 1.594 10419
2.430 2.892 1.577 5785
2.618 3.116 1.677 7458
2.621 3.120 1.665 9792
2.634 3.134 1.659 14474
2.641 3.143 1.650 15403
2.649 3.152 1.641 10557
2.647 3.150 1.626 8788
2.650 3.153 1.614 9538
2.652 3.157 1.602 11472
2.660 3.166 1.593 10395
2.821 3.357 1.668 9444
2.819 3.355 1.653 10025
2.822 3.358 1.640 9186
2.825 3.362 1.628 7163
2.924 3.480 1.666 7579
2.927 3.483 1.653 7078
2.925 3.481 1.637 6547
2.933 3.490 1.627 5278
3.114 3.706 1.704 4108
3.117 3.710 1.691 4444
3.164 3.765 1.698 5441
3.167 3.769 1.684 6519
3.179 3.784 1.675 4177
3.216 3.828 1.677 4060
3.219 3.831 1.662 5469
3.227 3.840 1.650 5693
3.235 3.850 1.638 4567
3.228 3.841 1.619 7031
3.226 3.839 1.602 9991
3.228 3.842 1.588 9380
3.246 3.863 1.580 6386
3.253 3.872 1.567 5062
3.241 3.857 1.546 6486
3.239 3.855 1.530 6353
3.247 3.864 1.517 4616
3.554 4.229 1.632 5841
3.748 4.461 1.696 6266
3.751 4.464 1.679 6237
3.838 4.567 1.697 4989
3.841 4.571 1.680 5075
3.858 4.592 1.668 5858
3.841 4.572 1.643 7202
3.844 4.575 1.626 6798
3.867 4.602 1.616 4704
3.870 4.605 1.599 3584
4.115 4.897 1.672 3061
3.875 4.612 1.564 3942
3.897 4.638 1.554 3584
1.023 1.217 0.496 3083
1.029 1.224 0.494 4308
1.029 1.225 0.489 4579
1.030 1.226 0.485 3243
4.656 5.541 1.721 2819
4.659 5.545 1.700 4077
4.662 5.548 1.679 3853
4.665 5.552 1.658 2609
4.907 5.840 1.715 2704
4.920 5.855 1.696 3436
4.923 5.859 1.673 3376
1.165 1.386 0.489 2683
1.170 1.393 0.485 3090
1.171 1.394 0.480 2888
1.172 1.394 0.475 2976
1.172 1.395 0.469 2720
5.340 6.355 1.655 1801
1.614 1.921 0.583 1694
1.620 1.928 0.577 1912
1.621 1.929 0.570 2163
5.798 6.900 1.677 2161
5.932 7.059 1.685 2052
6.080 7.236 1.696 1836
6.083 7.239 1.669 1610
6.478 7.710 1.739 1493
6.481 7.713 1.709 1580
6.766 8.052 1.748 1426
6.658 7.924 1.691 1468
6.651 7.915 1.659 1424
6.946 8.267 1.694 1337
6.788 8.078 1.627 1359
7.113 8.465 1.666 1330
6.788 8.078 1.565 1183
1.046 1.244 0.348 1038
7.364 8.764 1.619 860
1.097 1.305 0.349 1741
1.102 1.312 0.345 3092
1.103 1.312 0.340 4208
1.103 1.313 0.335 4911
1.103 1.313 0.330 5175
1.104 1.314 0.326 4827
1.104 1.314 0.321 3961
1.099 1.308 0.315 2796
1.100 1.309 0.310 1896
1.100 1.309 0.305 1319
1.105 1.315 0.301 681
1.243 1.479 0.317 438
1.243 1.479 0.311 723
1.248 1.486 0.306 881
1.249 1.486 0.301 989
1.249 1.486 0.295 1398
1.244 1.481 0.289 2834
1.244 1.481 0.284 5083
1.240 1.475 0.278 6250
1.245 1.482 0.273 6898
1.245 1.482 0.267 7268
1.245 1.482 0.262 5803
1.241 1.476 0.256 4557
1.241 1.477 0.250 3452
1.241 1.477 0.245 1914
1.236 1.471 0.239 1062
1.241 1.477 0.234 801
1.241 1.477 0.228 598
1.099 1.308 0.213 389
1.094 1.302 0.208 351
1.099 1.308 0.203 317
1.100 1.309 0.199 325
1.100 1.309 0.194 319
1.105 1.315 0.189 306
1.105 1.315 0.184 294
1.110 1.321 0.180 255
2.036 2.423 0.014 332
2.035 2.422 0.005 453
2.030 2.416 -0.003 586
2.030 2.416 -0.012 628
2.030 2.415 -0.022 670
2.029 2.415 -0.031 598
2.034 2.421 -0.040 528
2.029 2.414 -0.049 417
2.028 2.414 -0.058 308
2.023 2.407 -0.066 280
2.022 2.407 -0.075 253
2.027 2.412 -0.085 264
2.027 2.412 -0.094 275
2.026 2.411 -0.103 271
2.919 3.474 -0.225 316
2.873 3.419 -0.232 278
2.872 3.418 -0.245 355
2.871 3.417 -0.258 347
2.876 3.422 -0.271 340
2.875 3.421 -0.284 340
2.874 3.420 -0.297 266
2.240 2.666 -0.210 278
1.074 1.278 -0.030 303
1.069 1.272 -0.034 422
1.068 1.272 -0.038 545
1.068 1.271 -0.043 498
1.053 1.253 -0.045 560
1.518 1.792 1.806 3702
1.521 1.796 1.799 7404
1.540 1.819 1.811 8492
1.552 1.832 1.813 8841
1.559 1.841 1.811 10179
1.558 1.840 1.800 11043
1.557 1.839 1.788 12628
1.560 1.842 1.781 12628
1.563 1.846 1.774 13080
1.562 1.845 1.763 13600
1.570 1.853 1.761 14838
1.573 1.857 1.754 16143
1.576 1.860 1.747 17793
1.583 1.869 1.744 19910
1.586 1.873 1.737 17598
1.589 1.876 1.730 14817
1.583 1.870 1.714 14577
1.586 1.873 1.707 11123
1.598 1.887 1.709 7779
1.670 1.971 1.771 7336
1.673 1.975 1.763 9476
1.671 1.973 1.752 8598
1.674 1.977 1.744 7825
1.682 1.986 1.741 10291
1.689 1.994 1.738 13159
1.697 2.003 1.734 12457
1.704 2.012 1.731 11955
1.703 2.010 1.719 10234
1.701 2.009 1.708 8746
1.708 2.017 1.704 9321
1.716 2.026 1.701 10117
1.723 2.035 1.697 7415
1.744 2.059 1.706 6593
1.755 2.073 1.706 5641
1.772 2.092 1.710 5820
1.775 2.095 1.702 8024
1.773 2.094 1.691 9312
1.776 2.097 1.683 8581
1.783 2.106 1.679 6476
1.817 2.146 1.698 7052
1.816 2.144 1.686 6767
1.814 2.142 1.674 6846
1.871 2.209 1.712 5940
1.878 2.218 1.708 11302
1.886 2.227 1.703 14323
1.893 2.235 1.699 11399
1.914 2.260 1.705 9366
1.895 2.237 1.678 8138
1.898 2.240 1.670 8647
1.909 2.255 1.669 9715
1.917 2.263 1.664 9895
1.929 2.277 1.663 8482
1.977 2.334 1.691 7946
1.980 2.338 1.682 9146
1.988 2.347 1.677 11628
1.986 2.345 1.664 12728
1.998 2.359 1.662 15231
2.042 2.411 1.685 22424
2.045 2.414 1.676 25870
2.048 2.418 1.667 24261
2.041 2.410 1.651 19338
2.040 2.408 1.639 17729
2.102 2.482 1.674 15925
2.165 2.557 1.709 14885
2.168 2.560 1.699 14036
2.106 2.487 1.643 13206
2.109 2.490 1.633 11625
2.186 2.581 1.677 13115
2.185 2.579 1.664 18602
2.183 2.577 1.651 21481
2.190 2.586 1.645 19050
2.203 2.601 1.641 14920
2.205 2.604 1.632 13858
2.208 2.607 1.622 17565
2.211 2.610 1.612 21092
2.214 2.614 1.602 18040
2.216 2.617 1.592 10357
2.398 2.831 1.701 10515
2.401 2.835 1.690 18917
2.409 2.844 1.682 19896
2.421 2.858 1.678 14984
2.424 2.862 1.667 11736
2.398 2.832 1.638 12611
2.406 2.841 1.630 12132
2.442 2.883 1.640 10903
2.445 2.886 1.629 9988
2.424 2.862 1.604 8797
2.450 2.893 1.608 11154
2.448 2.891 1.594 11099
2.437 2.877 1.574 7040
2.502 2.954 1.600 6767
2.638 3.115 1.668 7864
2.655 3.135 1.664 10312
2.663 3.144 1.655 11330
2.666 3.148 1.643 8778
2.674 3.157 1.634 7526
2.777 3.279 1.679 8039
2.670 3.152 1.605 8863
2.831 3.343 1.681 8966
2.834 3.346 1.668 9995
2.832 3.344 1.653 10302
2.835 3.347 1.640 8693
2.838 3.351 1.628 6638
2.938 3.468 1.666 6384
2.941 3.472 1.653 5635
2.943 3.475 1.640 5007
2.951 3.484 1.629 4419
3.134 3.700 1.707 3114
3.181 3.755 1.715 3577
3.179 3.753 1.698 5958
3.182 3.756 1.684 6754
3.204 3.783 1.679 4858
3.231 3.815 1.677 5652
3.234 3.819 1.662 7152
3.237 3.822 1.648 7103
3.240 3.825 1.633 5520
3.243 3.829 1.619 8031
3.241 3.826 1.602 11270
3.243 3.829 1.588 10879
3.251 3.838 1.575 7223
3.249 3.836 1.559 6711
3.256 3.845 1.546 9536
3.259 3.848 1.532 9213
3.262 3.851 1.517 6554
3.570 4.215 1.632 7283
3.761 4.440 1.694 7163
3.764 4.444 1.677 8082
3.776 4.459 1.665 7466
3.784 4.468 1.650 7883
3.782 4.465 1.631 8442
3.854 4.551 1.641 8179
3.857 4.554 1.624 6564
3.850 4.546 1.603 4282
3.853 4.549 1.585 4052
3.865 4.564 1.572 3121
3.883 4.585 1.560 4173
3.891 4.594 1.545 3822
1.028 1.213 0.496 4641
1.033 1.220 0.494 6321
1.034 1.221 0.489 6448
1.035 1.222 0.485 4208
4.678 5.523 1.721 3109
4.681 5.527 1.700 4338
4.684 5.530 1.679 4246
4.682 5.528 1.657 3185
4.930 5.821 1.715 2553
4.943 5.836 1.696 3108
4.946 5.840 1.673 3508
4.949 5.843 1.651 2808
4.957 5.852 1.631 2450
1.166 1.377 0.477 2791
1.167 1.378 0.472 2918
1.168 1.379 0.467 1970
5.365 6.335 1.655 1741
1.622 1.915 0.583 1625
1.628 1.922 0.577 1924
1.629 1.923 0.570 2193
5.825 6.878 1.677 2317
6.110 7.215 1.725 2232
6.113 7.218 1.697 1870
6.111 7.216 1.669 1359
6.508 7.684 1.739 1636
6.511 7.688 1.709 1582
6.792 8.020 1.746 1277
6.684 7.892 1.690 1363
6.677 7.883 1.657 1385
6.811 8.042 1.657 1127
6.819 8.051 1.627 1135
6.817 8.049 1.596 1044
1.055 1.246 0.354 1339
1.050 1.240 0.348 1849
1.051 1.241 0.343 1913
1.051 1.241 0.339 1542
1.102 1.301 0.344 1273
1.103 1.302 0.339 2029
1.103 1.302 0.334 3600
1.108 1.309 0.330 5531
1.109 1.309 0.326 6623
1.104 1.304 0.320 6310
1.104 1.304 0.315 4748
1.105 1.304 0.310 3239
1.105 1.305 0.305 2234
1.110 1.311 0.301 1351
1.253 1.480 0.317 963
1.249 1.474 0.311 1184
1.239 1.463 0.304 1333
1.244 1.469 0.299 1625
1.250 1.475 0.295 2203
1.255 1.482 0.290 3172
1.250 1.476 0.284 4511
1.250 1.476 0.278 5282
1.251 1.477 0.273 5684
1.256 1.483 0.268 6136
1.251 1.477 0.262 5630
1.251 1.477 0.256 4882
1.252 1.478 0.251 3936
1.252 1.478 0.245 2311
1.247 1.472 0.239 978
1.109 1.309 0.223 851
1.104 1.304 0.218 1110
1.104 1.304 0.213 1208
1.104 1.304 0.208 1215
1.105 1.304 0.203 1149
1.105 1.304 0.199 1076
1.105 1.304 0.194 923
1.105 1.304 0.189 649
1.100 1.299 0.184 532
1.105 1.305 0.179 468
1.110 1.311 0.175 344
1.110 1.311 0.170 271
2.050 2.421 0.014 299
2.045 2.414 0.005 426
2.045 2.414 -0.004 558
2.044 2.414 -0.013 682
2.039 2.407 -0.022 815
2.044 2.413 -0.031 832
2.043 2.413 -0.040 857
2.043 2.412 -0.049 805
2.043 2.412 -0.058 752
2.037 2.405 -0.067 642
2.037 2.405 -0.076 543
2.036 2.404 -0.085 451
2.036 2.404 -0.094 357
2.036 2.403 -0.103 351
2.673 3.155 -0.192 301
2.672 3.155 -0.204 374
2.671 3.154 -0.216 447
2.671 3.153 -0.228 440
2.670 3.152 -0.240 434
2.669 3.151 -0.252 434
2.668 3.151 -0.264 352
2.668 3.150 -0.275 270
2.260 2.668 -0.221 267
1.079 1.274 -0.034 572
1.073 1.267 -0.038 914
1.073 1.267 -0.043 1326
1.073 1.267 -0.048 2223
1.523 1.788 1.806 3157
1.534 1.801 1.808 6441
1.546 1.814 1.811 7916
1.557 1.828 1.813 8361
1.565 1.837 1.811 9524
1.563 1.835 1.800 10164
1.558 1.829 1.784 11555
1.561 1.833 1.777 11555
1.564 1.837 1.770 13339
1.572 1.845 1.768 15185
1.575 1.849 1.761 16845
1.578 1.852 1.754 18506
1.585 1.861 1.751 19937
1.588 1.864 1.744 21814
1.591 1.868 1.737 19222
1.594 1.872 1.730 16239
1.593 1.870 1.719 15953
1.596 1.874 1.712 11857
1.603 1.882 1.709 7894
1.680 1.972 1.775 6374
1.687 1.980 1.772 8451
1.681 1.974 1.756 7663
1.680 1.972 1.744 7307
1.687 1.981 1.741 10145
1.695 1.990 1.738 13172
1.702 1.998 1.734 11954
1.705 2.002 1.727 10976
1.708 2.005 1.719 9680
1.711 2.009 1.712 8384
1.719 2.017 1.708 9392
1.722 2.021 1.701 10619
1.738 2.040 1.705 8691
1.750 2.054 1.706 8206
1.757 2.062 1.702 7619
1.769 2.076 1.702 7512
1.776 2.085 1.699 9604
1.779 2.088 1.691 10583
1.782 2.092 1.683 9297
1.785 2.095 1.675 6595
1.832 2.151 1.706 6471
1.827 2.144 1.690 6300
1.825 2.142 1.678 6586
1.859 2.183 1.697 7255
1.880 2.207 1.704 12177
1.888 2.216 1.700 15031
1.895 2.225 1.695 11893
1.916 2.249 1.702 9043
