0.844 1.448 0.511 5055
0.845 1.449 0.507 5514
0.849 1.456 0.504 6529
0.850 1.457 0.499 6795
0.850 1.458 0.494 5225
0.851 1.459 0.489 2962
3.470 5.950 1.581 2808
3.472 5.954 1.561 3272
3.470 5.950 1.540 3240
3.476 5.961 1.521 3196
4.006 6.870 1.710 2138
4.004 6.867 1.685 2209
3.893 6.676 1.619 1838
3.966 6.801 1.623 1562
3.956 6.784 1.596 1832
3.954 6.781 1.572 1780
4.188 7.182 1.632 1933
4.272 7.327 1.637 2168
4.282 7.344 1.615 2640
4.289 7.355 1.592 2421
4.295 7.365 1.568 1602
4.399 7.544 1.577 1292
4.401 7.547 1.552 1480
4.529 7.767 1.566 909
4.586 7.865 1.557 934
4.592 7.876 1.532 855
4.520 7.751 1.483 801
5.441 9.330 1.727 960
5.447 9.341 1.697 1515
5.449 9.345 1.665 1882
5.440 9.328 1.630 2121
1.063 1.824 0.419 2522
1.064 1.824 0.413 2716
1.060 1.818 0.406 2842
1.057 1.812 0.399 4004
1.049 1.799 0.391 5585
1.049 1.800 0.385 8523
1.050 1.800 0.379 12393
1.050 1.801 0.373 15065
1.051 1.802 0.367 16806
1.051 1.802 0.361 16981
1.047 1.796 0.354 15241
1.051 1.803 0.349 12569
1.052 1.804 0.343 10737
1.052 1.804 0.337 8473
1.052 1.805 0.331 5193
1.053 1.805 0.325 2794
1.053 1.806 0.320 1308
1.053 1.806 0.314 517
1.057 1.813 0.308 257
1.062 1.821 0.303 277
1.062 1.821 0.297 427
1.062 1.821 0.291 565
1.058 1.815 0.284 451
1.059 1.815 0.278 318
1.059 1.816 0.272 343
1.055 1.809 0.266 316
0.705 1.209 0.211 271
0.709 1.216 0.208 627
0.713 1.223 0.204 1382
0.713 1.223 0.200 1840
0.713 1.223 0.196 2297
0.713 1.223 0.192 3077
0.714 1.224 0.188 3346
0.714 1.224 0.184 3420
0.714 1.224 0.180 3317
0.714 1.224 0.176 2661
0.710 1.217 0.172 2201
0.710 1.217 0.168 1687
0.710 1.217 0.164 1090
0.710 1.217 0.160 858
0.710 1.217 0.156 662
0.714 1.224 0.152 521
0.714 1.224 0.148 358
1.186 2.019 1.801 1687
1.189 2.023 1.795 3375
1.191 2.028 1.788 3375
1.197 2.037 1.786 2766
1.219 2.075 1.806 2434
1.195 2.034 1.763 2817
1.194 2.033 1.752 3747
1.196 2.037 1.745 3747
1.202 2.046 1.743 4136
1.208 2.056 1.741 4551
1.217 2.071 1.743 3995
1.242 2.115 1.767 3817
1.241 2.113 1.756 4440
1.240 2.112 1.744 5115
1.243 2.116 1.737 4570
1.292 2.200 1.791 4694
1.291 2.198 1.780 5029
1.253 2.134 1.720 4703
1.256 2.138 1.713 5301
1.261 2.147 1.711 4998
1.270 2.163 1.712 5107
1.334 2.270 1.781 4307
1.336 2.274 1.774 5450
1.325 2.255 1.749 5122
1.324 2.254 1.738 5223
1.364 2.321 1.776 5089
1.363 2.320 1.764 5536
1.365 2.324 1.757 6395
1.367 2.328 1.749 7255
1.377 2.344 1.749 5747
1.400 2.383 1.766 6353
1.405 2.393 1.762 7228
1.408 2.397 1.754 8118
1.410 2.401 1.746 6166
1.433 2.440 1.762 4713
1.450 2.468 1.770 4837
1.459 2.484 1.770 7171
1.461 2.488 1.762 7907
1.464 2.492 1.753 7167
1.470 2.502 1.749 6445
1.462 2.488 1.729 7364
1.460 2.486 1.717 8893
1.463 2.490 1.709 7545
1.497 2.548 1.735 4770
1.506 2.564 1.734 4130
1.505 2.562 1.721 6908
1.504 2.560 1.709 9837
1.506 2.564 1.701 9918
1.508 2.568 1.692 7466
1.511 2.572 1.684 4933
1.570 2.672 1.734 4000
1.590 2.707 1.743 4374
1.592 2.711 1.734 4581
1.598 2.721 1.729 4357
1.600 2.725 1.720 3734
1.581 2.692 1.689 3551
1.591 2.708 1.687 4026
1.593 2.712 1.678 3788
1.689 2.875 1.760 3293
1.691 2.879 1.751 5542
1.694 2.883 1.741 6759
1.674 2.850 1.711 7509
1.716 2.922 1.739 7979
1.722 2.932 1.733 8501
1.725 2.936 1.723 6849
1.727 2.940 1.713 5368
1.758 2.994 1.730 5657
1.764 3.004 1.724 7385
1.770 3.014 1.717 6233
1.776 3.024 1.710 5120
1.801 3.065 1.720 7065
1.807 3.076 1.713 8199
1.809 3.079 1.702 5322
1.815 3.090 1.695 3780
1.828 3.112 1.694 4273
1.834 3.122 1.687 4324
1.836 3.126 1.677 3793
1.894 3.224 1.713 5422
1.893 3.222 1.699 4619
1.958 3.333 1.741 3451
1.960 3.337 1.729 4333
1.962 3.341 1.718 4598
1.961 3.339 1.704 4820
1.956 3.330 1.687 6147
2.014 3.429 1.720 6643
2.013 3.426 1.706 6942
1.993 3.392 1.677 5569
1.995 3.396 1.666 6002
2.072 3.527 1.712 7666
2.078 3.537 1.703 8576
2.088 3.554 1.697 6920
2.090 3.558 1.685 5670
2.096 3.568 1.676 6653
2.110 3.591 1.672 11308
2.123 3.614 1.668 12320
2.133 3.631 1.662 9178
2.143 3.648 1.655 7178
2.213 3.767 1.691 6807
2.219 3.777 1.681 6600
2.267 3.858 1.700 5058
2.276 3.875 1.692 5946
2.275 3.873 1.677 7596
2.277 3.877 1.664 10614
2.279 3.880 1.651 12868
2.282 3.884 1.638 13187
2.284 3.888 1.625 10784
2.282 3.885 1.609 8367
2.292 3.902 1.601 6692
2.290 3.899 1.586 4869
2.464 4.195 1.681 4582
2.478 4.219 1.674 3678
2.484 4.229 1.663 2227
2.521 4.291 1.670 2055
2.515 4.282 1.651 2611
2.529 4.306 1.643 2894
2.531 4.309 1.629 3715
2.630 4.477 1.671 4028
2.636 4.487 1.658 4438
2.657 4.524 1.654 5032
2.663 4.534 1.641 5047
2.665 4.538 1.626 4557
2.668 4.541 1.611 4706
2.674 4.552 1.598 4566
2.680 4.562 1.585 4544
2.686 4.572 1.571 3113
2.692 4.582 1.558 2391
2.721 4.632 1.557 4548
2.704 4.603 1.531 6994
2.706 4.606 1.516 7711
2.712 4.616 1.502 6723
2.710 4.613 1.485 4775
3.007 5.119 1.616 6382
3.005 5.116 1.597 6218
3.015 5.133 1.584 4503
3.033 5.164 1.574 4005
3.043 5.180 1.560 2960
0.852 1.450 0.523 3281
0.852 1.451 0.518 3220
3.092 5.264 1.527 2648
3.302 5.620 1.602 2354
3.468 5.904 1.656 2251
0.858 1.461 0.500 2975
0.855 1.455 0.494 3204
0.855 1.456 0.489 2513
3.485 5.932 1.580 2596
3.487 5.936 1.560 3201
3.489 5.939 1.540 3265
3.495 5.950 1.521 3128
4.024 6.850 1.708 2559
4.026 6.854 1.685 2520
4.032 6.865 1.664 2062
4.070 6.929 1.654 2632
4.072 6.933 1.631 2695
4.078 6.943 1.609 2419
4.081 6.947 1.585 2325
4.209 7.165 1.606 2109
4.306 7.330 1.615 2476
4.312 7.341 1.592 2343
4.314 7.344 1.567 1490
4.419 7.523 1.576 1163
4.425 7.533 1.552 1227
4.554 7.753 1.566 1022
4.608 7.844 1.556 853
4.511 7.679 1.500 926
4.544 7.736 1.483 957
5.470 9.313 1.727 1232
5.477 9.324 1.697 1740
5.479 9.327 1.665 2073
5.469 9.311 1.630 2453
5.468 9.308 1.598 2875
5.466 9.305 1.566 2293
1.066 1.815 0.406 2218
1.062 1.809 0.399 2172
1.055 1.796 0.391 3340
1.051 1.790 0.384 5552
1.056 1.797 0.379 7606
1.056 1.798 0.373 9609
1.056 1.798 0.367 10877
1.053 1.792 0.360 11262
1.053 1.792 0.354 10499
1.057 1.800 0.349 8985
1.058 1.800 0.343 7869
1.058 1.801 0.337 6356
1.058 1.801 0.331 4166
1.058 1.802 0.325 2435
1.059 1.802 0.320 1127
1.063 1.810 0.314 461
1.067 1.817 0.309 349
1.071 1.824 0.304 363
1.072 1.824 0.298 464
1.072 1.825 0.292 594
1.068 1.818 0.285 510
1.072 1.825 0.280 370
1.073 1.826 0.274 280
0.721 1.227 0.212 424
0.717 1.221 0.208 925
0.717 1.221 0.204 1431
0.717 1.221 0.200 1603
0.717 1.221 0.196 1462
0.717 1.221 0.192 1086
0.717 1.221 0.188 1095
0.717 1.221 0.184 1477
0.722 1.228 0.180 1866
0.722 1.228 0.176 2105
0.722 1.229 0.172 2065
0.722 1.229 0.168 1881
0.722 1.229 0.164 1543
0.722 1.229 0.160 1381
0.722 1.229 0.156 1183
0.722 1.229 0.152 862
0.722 1.229 0.148 654
0.722 1.229 0.144 420
0.718 1.222 0.140 270
1.039 1.768 -0.034 304
1.039 1.768 -0.040 398
1.038 1.768 -0.046 493
1.038 1.767 -0.052 495
1.038 1.767 -0.058 530
1.037 1.766 -0.064 564
1.037 1.766 -0.069 542
1.037 1.765 -0.075 520
1.036 1.764 -0.081 489
1.036 1.764 -0.087 457
1.036 1.763 -0.093 612
1.174 1.982 1.773 1664
1.176 1.986 1.767 3328
1.178 1.990 1.760 3328
1.204 2.033 1.786 3056
1.209 2.043 1.784 2928
1.205 2.036 1.768 3367
1.204 2.034 1.756 4156
1.207 2.038 1.750 4156
1.242 2.098 1.788 4368
1.245 2.102 1.781 4704
1.247 2.107 1.774 4302
1.250 2.111 1.767 3901
1.249 2.109 1.756 4724
1.244 2.102 1.740 5732
1.250 2.112 1.737 4803
1.300 2.195 1.791 4982
1.299 2.193 1.780 5443
1.305 2.203 1.777 4730
1.317 2.225 1.782 5153
1.269 2.143 1.711 4856
1.274 2.152 1.708 5088
1.328 2.243 1.764 4723
1.337 2.258 1.765 5807
1.333 2.251 1.749 5964
1.332 2.249 1.738 6471
1.334 2.253 1.730 5744
1.371 2.315 1.764 6297
1.373 2.319 1.757 7104
1.376 2.323 1.749 7911
1.381 2.333 1.745 6105
1.408 2.378 1.766 5895
1.414 2.388 1.762 6597
1.420 2.398 1.758 7394
1.422 2.402 1.750 5916
1.442 2.435 1.762 4986
1.462 2.469 1.774 5453
1.468 2.479 1.770 8214
1.470 2.483 1.762 9188
1.472 2.487 1.753 8395
1.475 2.491 1.745 7601
1.470 2.483 1.729 9389
1.469 2.481 1.717 11200
1.475 2.491 1.712 9510
1.488 2.513 1.716 5151
1.511 2.553 1.730 4305
1.514 2.557 1.721 7125
1.513 2.555 1.709 10020
1.515 2.559 1.701 10291
1.517 2.562 1.692 8184
1.520 2.566 1.684 5804
1.579 2.667 1.734 3894
1.599 2.701 1.743 3813
1.602 2.705 1.734 4162
1.604 2.709 1.725 3714
1.599 2.701 1.709 3809
1.598 2.699 1.696 4669
1.600 2.703 1.687 5149
1.603 2.706 1.678 5085
1.608 2.716 1.673 4572
1.701 2.873 1.751 5522
1.631 2.755 1.672 6148
1.633 2.759 1.663 6980
1.727 2.916 1.739 6871
1.733 2.926 1.733 7830
1.735 2.930 1.723 6759
1.741 2.940 1.717 5623
1.769 2.987 1.730 6779
1.775 2.998 1.724 7727
1.781 3.008 1.717 5986
1.802 3.043 1.723 4763
1.811 3.059 1.720 6617
1.814 3.063 1.709 7296
1.820 3.073 1.702 4210
1.840 3.108 1.708 2720
1.846 3.118 1.701 3525
1.845 3.116 1.687 3979
1.847 3.120 1.677 4146
1.905 3.218 1.713 5155
1.904 3.215 1.699 4685
1.969 3.326 1.741 3654
1.972 3.330 1.729 4714
1.974 3.334 1.718 4871
1.969 3.325 1.701 4725
1.968 3.323 1.687 6217
2.026 3.422 1.720 6115
2.025 3.419 1.706 5798
2.008 3.392 1.680 4932
2.010 3.395 1.668 5171
2.084 3.520 1.712 7843
2.094 3.536 1.706 8600
2.100 3.547 1.697 6481
2.106 3.557 1.688 4985
2.116 3.574 1.681 6636
2.126 3.590 1.675 12603
2.136 3.607 1.668 13830
2.146 3.624 1.662 9542
2.152 3.634 1.652 6496
2.226 3.759 1.691 7368
2.232 3.770 1.681 6775
2.284 3.857 1.703 5546
2.290 3.867 1.692 6408
2.288 3.865 1.677 7879
2.291 3.869 1.664 10950
2.293 3.872 1.651 13120
2.295 3.876 1.638 13270
2.301 3.886 1.627 10624
2.296 3.877 1.609 7924
2.306 3.894 1.601 6353
2.304 3.891 1.586 4627
2.479 4.187 1.681 3861
2.493 4.210 1.674 3603
2.499 4.220 1.663 2358
2.532 4.276 1.667 2105
2.538 4.286 1.655 1578
2.506 4.232 1.620 2637
2.515 4.248 1.611 4697
2.525 4.265 1.601 4450
2.644 4.465 1.654 3459
2.681 4.527 1.659 3885
2.687 4.538 1.646 4434
2.685 4.535 1.628 4370
2.687 4.539 1.613 4345
2.693 4.549 1.600 4166
2.696 4.553 1.585 4665
2.698 4.556 1.569 4294
2.700 4.560 1.554 3723
2.714 4.583 1.545 4401
2.720 4.593 1.531 6439
2.718 4.590 1.514 6500
2.728 4.607 1.502 5801
3.031 5.118 1.637 4628
3.033 5.122 1.620 7098
3.035 5.126 1.603 7028
3.041 5.136 1.587 5676
3.051 5.153 1.574 5537
3.057 5.163 1.558 4232
3.071 5.187 1.546 2561
3.104 5.243 1.543 3303
3.107 5.247 1.526 2902
0.851 1.436 0.505 2069
0.855 1.444 0.502 2274
3.404 5.749 1.599 2569
3.489 5.893 1.615 2408
3.491 5.896 1.595 1950
3.505 5.920 1.580 1976
3.650 6.164 1.618 2671
3.652 6.167 1.597 2885
3.658 6.178 1.578 2788
4.052 6.843 1.710 2834
4.050 6.840 1.685 2719
4.068 6.871 1.668 2534
4.094 6.915 1.654 4174
4.096 6.918 1.631 4384
4.103 6.929 1.609 3935
4.105 6.932 1.585 3763
4.103 6.929 1.561 3132
4.109 6.940 1.539 2191
4.338 7.326 1.592 2123
4.372 7.383 1.577 1468
4.445 7.508 1.576 976
4.451 7.518 1.552 1086
4.581 7.737 1.566 1056
4.599 7.767 1.545 953
4.541 7.670 1.501 1063
4.543 7.673 1.475 1071
5.499 9.287 1.726 1505
5.509 9.304 1.697 1938
5.511 9.308 1.665 2317
5.502 9.292 1.630 2750
5.500 9.289 1.598 3211
1.076 1.817 0.413 2625
1.076 1.818 0.407 2932
1.077 1.818 0.401 2596
1.073 1.812 0.394 2313
1.061 1.793 0.385 3435
1.062 1.793 0.379 4744
1.062 1.794 0.373 5865
1.063 1.794 0.367 6808
1.063 1.795 0.361 7051
1.063 1.796 0.355 6633
1.063 1.796 0.349 5756
1.064 1.797 0.343 5084
1.064 1.797 0.337 4113
1.064 1.798 0.331 2751
1.065 1.798 0.325 1775
1.073 1.812 0.321 1019
1.077 1.819 0.316 760
1.078 1.820 0.310 773
1.082 1.827 0.304 751
1.082 1.827 0.298 670
1.082 1.828 0.292 645
1.078 1.821 0.286 571
1.079 1.822 0.280 459
1.083 1.829 0.274 311
0.725 1.224 0.224 259
0.721 1.218 0.216 259
0.721 1.218 0.212 382
0.721 1.218 0.208 619
0.721 1.218 0.204 693
0.725 1.225 0.200 665
0.726 1.225 0.196 1006
0.726 1.225 0.192 2074
0.726 1.226 0.188 3000
0.726 1.226 0.184 3479
0.726 1.226 0.180 3756
0.726 1.226 0.176 3323
0.722 1.219 0.172 2927
0.726 1.226 0.168 2482
0.726 1.226 0.164 1753
0.722 1.219 0.160 1434
0.722 1.219 0.156 1161
0.726 1.226 0.152 859
0.726 1.226 0.148 673
0.726 1.226 0.144 403
1.044 1.764 -0.046 313
1.044 1.763 -0.052 317
1.044 1.763 -0.058 379
1.044 1.762 -0.064 437
1.043 1.762 -0.069 469
1.043 1.761 -0.075 501
1.043 1.761 -0.081 507
1.042 1.760 -0.087 514
1.042 1.760 -0.093 682
1.196 2.006 1.797 2188
1.198 2.010 1.790 4377
1.201 2.014 1.783 4377
1.206 2.024 1.781 4107
1.212 2.034 1.779 4031
1.215 2.038 1.772 4555
1.214 2.036 1.761 5131
1.216 2.040 1.754 5131
1.248 2.095 1.788 5050
1.251 2.099 1.781 5264
1.253 2.103 1.774 4746
1.269 2.130 1.785 4395
1.255 2.105 1.756 5397
1.251 2.098 1.740 6752
1.256 2.108 1.737 5594
1.306 2.191 1.791 5210
1.305 2.190 1.780 5929
1.314 2.205 1.781 5489
1.320 2.215 1.778 6100
1.323 2.219 1.771 5209
1.281 2.149 1.708 4916
1.334 2.239 1.764 4856
1.340 2.249 1.761 5617
1.336 2.241 1.745 6239
1.335 2.239 1.734 7287
1.337 2.243 1.726 6511
1.377 2.311 1.764 6468
1.380 2.315 1.757 7329
1.382 2.319 1.749 8189
1.385 2.323 1.741 6360
1.415 2.374 1.766 5339
1.424 2.390 1.766 5840
1.427 2.394 1.758 6556
1.433 2.403 1.754 5693
1.449 2.431 1.762 5328
1.465 2.459 1.770 6299
1.475 2.474 1.770 9239
1.477 2.479 1.762 10425
1.476 2.477 1.749 9715
1.475 2.475 1.737 9259
1.477 2.479 1.729 11159
1.480 2.483 1.721 13060
1.482 2.487 1.712 10991
1.495 2.509 1.716 5595
1.519 2.548 1.730 4335
1.521 2.552 1.721 6951
1.524 2.556 1.713 9567
1.522 2.554 1.701 10066
1.525 2.558 1.692 8521
1.527 2.562 1.684 6465
1.533 2.572 1.679 4294
1.604 2.690 1.740 3000
1.606 2.694 1.731 3330
1.608 2.698 1.722 3148
1.603 2.690 1.705 4737
1.609 2.700 1.700 6395
1.608 2.698 1.687 6523
1.614 2.708 1.682 6272
1.620 2.718 1.676 5973
1.637 2.746 1.681 5785
1.639 2.750 1.672 6822
1.641 2.754 1.663 7839
1.735 2.911 1.739 6053
1.741 2.921 1.733 7822
1.743 2.925 1.723 7113
1.749 2.935 1.717 6183
1.777 2.982 1.730 8109
1.787 2.999 1.727 8246
1.793 3.009 1.720 5503
1.810 3.037 1.723 4359
1.820 3.054 1.720 5668
1.822 3.058 1.709 5753
1.788 3.000 1.667 2998
1.853 3.109 1.711 2689
1.859 3.119 1.704 3311
1.858 3.117 1.690 3923
1.856 3.115 1.677 4584
1.911 3.206 1.710 4784
1.917 3.216 1.702 4870
1.975 3.314 1.737 3538
1.978 3.318 1.726 4574
1.984 3.328 1.718 4656
1.994 3.345 1.713 4384
1.977 3.317 1.687 6081
1.991 3.340 1.685 6095
2.038 3.420 1.709 4155
2.026 3.398 1.686 4283
2.088 3.504 1.721 5199
2.091 3.507 1.709 7641
2.100 3.524 1.703 8320
2.110 3.541 1.697 5886
2.116 3.551 1.688 4426
2.138 3.587 1.690 7138
2.140 3.590 1.678 12792
2.146 3.601 1.668 13852
2.152 3.611 1.659 9141
2.154 3.615 1.647 5513
2.241 3.759 1.694 7632
2.247 3.770 1.684 6516
2.295 3.850 1.703 5567
2.297 3.854 1.690 6287
2.300 3.858 1.677 7337
2.306 3.868 1.666 9962
2.304 3.866 1.651 11412
2.306 3.870 1.638 11370
2.316 3.886 1.630 9267
2.315 3.883 1.614 6563
2.398 4.023 1.653 5269
2.408 4.040 1.644 4166
2.437 4.089 1.648 3184
2.509 4.209 1.677 3309
2.519 4.226 1.667 3470
2.525 4.236 1.656 4048
2.527 4.240 1.641 2801
2.526 4.237 1.625 4393
2.528 4.241 1.611 7887
2.534 4.251 1.599 6079
2.536 4.255 1.584 2695
2.702 4.533 1.663 3301
2.704 4.536 1.648 4061
2.702 4.534 1.630 3789
2.704 4.537 1.615 3858
2.710 4.548 1.602 4680
2.705 4.538 1.582 5102
2.711 4.548 1.569 5205
2.713 4.552 1.554 4974
2.727 4.575 1.545 4842
2.729 4.579 1.529 5582
2.735 4.589 1.516 5302
2.745 4.605 1.504 5823
3.049 5.116 1.639 5155
3.052 5.120 1.622 7525
3.058 5.130 1.607 8008
3.064 5.140 1.591 6965
3.070 5.151 1.576 6857
3.068 5.148 1.556 5315
3.094 5.191 1.550 3744
3.112 5.221 1.540 3898
3.118 5.231 1.524 2939
0.859 1.441 0.507 2325
0.859 1.442 0.502 2186
3.417 5.733 1.597 2481
3.443 5.776 1.588 2105
3.457 5.800 1.573 1980
3.665 6.149 1.639 1754
3.667 6.153 1.618 2702
3.670 6.157 1.597 2652
3.680 6.174 1.579 2317
4.071 6.831 1.710 2919
4.074 6.835 1.687 2728
4.112 6.899 1.677 3136
4.114 6.903 1.654 5580
4.116 6.906 1.631 6003
4.123 6.917 1.609 5557
4.125 6.920 1.585 5330
4.123 6.917 1.561 4568
4.129 6.928 1.539 3150
4.131 6.931 1.515 2121
4.397 7.377 1.579 1415
4.395 7.374 1.553 1054
4.605 7.726 1.594 1109
4.603 7.723 1.566 1119
4.621 7.754 1.545 1115
4.567 7.663 1.502 1110
4.561 7.653 1.474 1118
5.526 9.271 1.726 1667
5.536 9.288 1.697 2027
5.542 9.299 1.666 2335
5.529 9.276 1.630 2646
5.527 9.273 1.598 3103
5.529 9.276 1.567 2455
0.820 1.376 0.340 3538
0.821 1.377 0.336 4460
0.821 1.377 0.331 5074
0.821 1.378 0.327 4985
0.821 1.378 0.322 4594
0.822 1.379 0.318 4143
0.927 1.555 0.336 3339
0.923 1.549 0.330 3576
0.923 1.549 0.325 3220
0.924 1.549 0.320 2335
0.924 1.550 0.315 1452
0.924 1.550 0.310 877
1.074 1.801 0.332 697
1.272 2.134 0.362 962
1.272 2.134 0.354 1084
1.272 2.135 0.347 1134
1.269 2.128 0.340 1160
1.269 2.129 0.333 972
1.269 2.129 0.325 673
1.084 1.818 0.292 570
1.080 1.811 0.285 449
1.076 1.805 0.278 351
1.076 1.805 0.272 283
0.725 1.216 0.208 318
0.721 1.209 0.204 561
0.721 1.210 0.200 686
0.729 1.223 0.196 1173
0.729 1.223 0.192 2247
0.729 1.224 0.188 2875
0.729 1.224 0.184 3020
0.729 1.224 0.180 2689
0.725 1.217 0.176 1678
0.717 1.204 0.172 1142
0.730 1.224 0.168 1195
0.730 1.224 0.164 1431
0.730 1.224 0.160 1517
0.730 1.224 0.156 1363
0.734 1.231 0.152 1099
0.734 1.231 0.148 880
0.734 1.231 0.144 598
0.734 1.231 0.140 407
0.734 1.231 0.136 297
1.158 1.944 0.051 291
1.158 1.943 0.044 347
1.158 1.943 0.038 393
1.158 1.943 0.031 439
1.158 1.943 0.025 447
1.158 1.942 0.018 456
1.157 1.942 0.012 406
1.157 1.942 0.006 357
1.157 1.941 -0.001 283
1.051 1.763 -0.011 299
1.051 1.763 -0.017 448
1.051 1.763 -0.023 596
1.050 1.762 -0.029 787
1.050 1.762 -0.034 979
1.050 1.761 -0.040 1148
1.050 1.761 -0.046 1318
1.049 1.760 -0.052 1322
1.049 1.760 -0.058 1312
1.049 1.759 -0.064 1297
1.048 1.759 -0.069 1153
1.048 1.758 -0.075 1009
1.048 1.758 -0.081 862
1.047 1.757 -0.087 714
1.047 1.757 -0.093 928
1.201 1.996 1.792 3058
1.203 2.000 1.785 6117
1.206 2.004 1.779 6117
1.215 2.019 1.781 5672
1.221 2.029 1.779 5475
1.223 2.033 1.772 6156
1.225 2.037 1.765 6838
1.228 2.041 1.759 6838
1.224 2.034 1.743 6228
1.226 2.038 1.736 5927
1.266 2.103 1.778 4883
1.278 2.124 1.785 4839
1.264 2.100 1.756 5952
1.263 2.099 1.744 7620
1.269 2.108 1.742 6669
1.278 2.124 1.743 6044
1.314 2.184 1.780 6381
1.324 2.200 1.781 6377
1.329 2.210 1.778 7308
1.332 2.214 1.771 6154
1.327 2.206 1.755 5160
1.340 2.227 1.760 4715
1.346 2.237 1.757 4733
1.345 2.236 1.745 5778
1.344 2.234 1.734 7277
1.346 2.238 1.726 6691
1.349 2.242 1.719 6104
1.389 2.309 1.757 6793
1.392 2.313 1.749 7781
1.394 2.317 1.741 6370
1.456 2.420 1.803 5550
1.434 2.384 1.766 5344
1.437 2.388 1.758 5761
1.443 2.398 1.754 5583
1.456 2.419 1.758 5515
1.476 2.452 1.770 6873
1.482 2.462 1.766 9829
1.484 2.466 1.758 11080
1.486 2.471 1.749 10614
1.485 2.469 1.737 10513
1.488 2.473 1.729 12359
1.490 2.477 1.721 14205
1.492 2.481 1.712 11862
1.506 2.502 1.716 6199
1.529 2.542 1.730 4048
1.532 2.546 1.721 6296
1.534 2.550 1.713 8543
1.533 2.548 1.701 9210
1.535 2.552 1.692 8225
1.538 2.556 1.684 6530
1.544 2.565 1.679 4266
1.611 2.678 1.736 2762
1.613 2.682 1.727 2745
1.616 2.686 1.718 3375
1.618 2.689 1.709 6577
1.621 2.693 1.700 9149
1.627 2.703 1.694 8919
1.633 2.713 1.689 8163
1.650 2.742 1.694 7965
1.648 2.739 1.681 7145
1.650 2.743 1.672 7508
1.656 2.753 1.666 8617
1.655 2.751 1.654 6604
1.753 2.914 1.733 8282
1.756 2.918 1.723 7603
1.765 2.934 1.720 6609
1.790 2.975 1.730 9092
1.796 2.985 1.724 8711
1.817 3.020 1.730 5252
1.827 3.036 1.726 4356
1.840 3.059 1.726 5241
1.835 3.050 1.709 4650
1.860 3.091 1.718 3580
1.866 3.101 1.711 3650
1.876 3.118 1.707 3327
1.867 3.103 1.687 4131
1.869 3.107 1.677 5594
1.872 3.111 1.666 5362
1.930 3.208 1.702 5243
1.936 3.218 1.695 4185
1.991 3.310 1.726 3954
2.001 3.326 1.721 3987
2.011 3.343 1.716 4078
1.991 3.309 1.687 5875
2.008 3.338 1.688 6664
2.030 3.373 1.691 4001
2.093 3.478 1.726 4713
2.099 3.488 1.718 5283
2.105 3.499 1.709 7048
2.115 3.515 1.703 7665
2.125 3.532 1.697 5201
2.143 3.561 1.696 4256
2.153 3.578 1.690 7204
2.155 3.582 1.678 11386
2.161 3.592 1.668 12001
2.167 3.602 1.659 7581
2.181 3.625 1.655 4465
2.256 3.750 1.694 6818
2.262 3.760 1.684 5048
2.311 3.841 1.703 4731
2.313 3.845 1.690 5311
2.319 3.855 1.679 5696
2.322 3.859 1.666 7337
2.320 3.856 1.651 7874
2.330 3.873 1.643 8192
2.340 3.889 1.635 7341
2.404 3.996 1.661 7391
2.411 4.006 1.650 6554
2.421 4.023 1.642 4548
2.462 4.091 1.652 3891
2.468 4.102 1.641 3293
2.536 4.215 1.667 4276
2.543 4.226 1.656 5474
2.549 4.236 1.644 4400
2.543 4.227 1.625 7123
2.549 4.237 1.613 12118
2.551 4.241 1.599 8904
2.550 4.238 1.582 3143
2.716 4.515 1.661 3412
2.558 4.251 1.556 4143
2.560 4.255 1.541 3516
2.723 4.526 1.615 3698
2.722 4.523 1.598 5681
2.724 4.527 1.582 5362
2.726 4.530 1.567 4875
2.767 4.599 1.573 6921
2.770 4.603 1.557 6443
2.748 4.567 1.529 5261
2.766 4.597 1.522 5897
2.772 4.607 1.508 8389
2.774 4.610 1.493 6261
3.077 5.114 1.624 6765
3.083 5.124 1.608 7965
3.089 5.134 1.593 7413
3.099 5.151 1.579 7342
3.109 5.168 1.566 5877
3.123 5.191 1.554 5072
3.130 5.201 1.538 4445
3.136 5.211 1.522 2877
3.337 5.546 1.592 3361
3.343 5.556 1.575 3028
3.445 5.725 1.599 2331
3.467 5.762 1.588 2040
3.481 5.785 1.573 1980
3.487 5.796 1.555 1648
3.689 6.131 1.616 2435
3.775 6.274 1.629 2163
3.777 6.278 1.608 2489
4.104 6.821 1.712 2596
4.106 6.824 1.688 2390
4.141 6.882 1.677 3564
4.143 6.885 1.654 6260
4.145 6.889 1.631 6856
4.151 6.900 1.609 6596
4.154 6.903 1.585 6340
4.152 6.900 1.561 5400
4.158 6.910 1.539 3661
4.160 6.914 1.515 2344
4.162 6.917 1.492 1558
4.659 7.744 1.628 1160
4.641 7.714 1.595 1066
4.643 7.718 1.569 1097
4.654 7.735 1.545 1105
4.599 7.644 1.502 1112
4.597 7.641 1.475 1096
5.560 9.241 1.725 1786
5.575 9.265 1.697 1964
5.581 9.276 1.666 2153
5.567 9.253 1.630 2145
5.561 9.243 1.597 2540
0.826 1.372 0.345 2513
0.826 1.373 0.340 2741
0.826 1.373 0.336 2577
0.827 1.374 0.331 2038
0.827 1.374 0.327 1328
0.929 1.543 0.345 1962
0.929 1.544 0.340 2540
0.929 1.544 0.335 2792
0.929 1.545 0.330 2688
0.930 1.545 0.325 2268
0.930 1.546 0.320 1661
0.934 1.553 0.316 1008
1.081 1.796 0.338 670
1.284 2.134 0.369 658
1.281 2.128 0.362 973
1.281 2.129 0.354 1153
1.281 2.129 0.347 1299
1.282 2.130 0.340 1474
1.282 2.130 0.333 1375
1.278 2.124 0.325 1054
1.278 2.125 0.318 841
1.279 2.125 0.311 653
1.087 1.807 0.279 508
1.092 1.814 0.274 515
1.096 1.822 0.268 462
1.096 1.822 0.262 321
0.734 1.220 0.212 376
0.730 1.213 0.208 860
0.730 1.213 0.204 1592
0.730 1.213 0.200 1926
0.730 1.213 0.196 2257
0.730 1.214 0.192 2877
0.730 1.214 0.188 2930
0.730 1.214 0.184 2692
0.730 1.214 0.180 2327
0.735 1.221 0.176 2521
0.735 1.221 0.172 3155
0.735 1.221 0.168 3554
0.735 1.221 0.164 3716
0.735 1.221 0.160 3539
0.735 1.221 0.156 3051
0.735 1.221 0.152 2276
0.735 1.221 0.148 1717
0.735 1.221 0.144 991
0.739 1.228 0.140 568
0.739 1.228 0.136 363
1.171 1.946 0.050 283
1.170 1.945 0.044 389
1.166 1.938 0.038 458
1.166 1.938 0.031 539
1.166 1.938 0.025 564
1.166 1.937 0.018 588
1.166 1.937 0.012 568
1.165 1.937 0.006 548
1.165 1.936 -0.001 468
1.165 1.936 -0.007 388
1.165 1.936 -0.014 283
1.059 1.759 -0.005 432
1.058 1.759 -0.011 629
1.058 1.759 -0.017 897
1.062 1.765 -0.023 1168
1.058 1.758 -0.029 1472
1.057 1.757 -0.034 1779
1.057 1.757 -0.040 2052
1.057 1.757 -0.046 2326
1.057 1.756 -0.052 2328
1.056 1.756 -0.058 2266
1.056 1.755 -0.064 2201
1.056 1.755 -0.069 1910
1.055 1.754 -0.075 1619
1.055 1.753 -0.081 1361
1.055 1.753 -0.087 1103
1.054 1.752 -0.093 1457
1.207 1.992 1.792 3897
1.210 1.996 1.785 7794
1.212 2.000 1.779 7794
1.218 2.009 1.777 7213
1.227 2.025 1.779 6889
1.230 2.029 1.772 7796
1.232 2.033 1.765 8703
1.235 2.037 1.759 8703
1.234 2.035 1.747 7525
1.233 2.034 1.736 6856
1.235 2.038 1.729 5376
1.285 2.120 1.785 4833
1.271 2.096 1.756 5716
1.273 2.100 1.749 7400
1.275 2.104 1.742 6905
1.281 2.114 1.739 6620
1.284 2.118 1.732 6640
1.331 2.195 1.781 6984
1.337 2.205 1.778 8176
1.336 2.204 1.766 6905
1.338 2.208 1.759 5698
1.341 2.212 1.752 4649
1.350 2.227 1.753 3763
1.349 2.225 1.741 5079
1.351 2.229 1.734 6559
1.354 2.233 1.726 6224
1.356 2.237 1.719 5888
1.397 2.305 1.757 5930
1.399 2.309 1.749 7090
1.405 2.319 1.745 6128
1.464 2.415 1.803 5613
1.467 2.420 1.795 5228
1.448 2.389 1.762 5019
1.450 2.393 1.754 5250
1.463 2.414 1.758 5519
1.480 2.442 1.766 7096
1.490 2.458 1.766 9814
1.492 2.462 1.758 11034
1.491 2.460 1.745 10736
1.493 2.464 1.737 10829
1.496 2.468 1.729 12543
1.498 2.472 1.721 14258
1.501 2.476 1.712 11869
1.514 2.497 1.716 6250
1.523 2.513 1.715 3508
1.537 2.535 1.718 5204
1.543 2.545 1.713 6955
1.541 2.543 1.701 7872
1.544 2.547 1.692 7468
1.546 2.551 1.684 6110
1.548 2.554 1.675 3943
1.620 2.672 1.736 3077
1.622 2.676 1.727 2758
1.628 2.686 1.722 4006
1.631 2.690 1.712 8515
1.633 2.694 1.703 11703
1.635 2.698 1.694 11358
1.645 2.714 1.692 10151
1.659 2.736 1.694 9632
1.661 2.740 1.685 8430
1.659 2.738 1.672 8264
1.666 2.748 1.666 9197
1.668 2.751 1.657 7268
1.763 2.908 1.733 9446
1.765 2.912 1.723 8089
1.779 2.934 1.723 6398
1.800 2.969 1.730 9449
1.806 2.979 1.724 8840
1.831 3.020 1.733 5350
1.844 3.042 1.733 4874
1.850 3.052 1.726 5180
1.860 3.069 1.722 4424
1.870 3.085 1.718 5074
1.872 3.089 1.708 4878
1.875 3.093 1.698 3773
1.877 3.097 1.687 4731
1.880 3.101 1.677 6518
1.882 3.104 1.666 6236
1.945 3.208 1.705 5534
1.951 3.218 1.698 5225
1.957 3.228 1.690 4576
2.020 3.332 1.727 3334
2.022 3.336 1.716 3505
2.017 3.328 1.699 5557
2.019 3.331 1.688 6929
2.041 3.367 1.691 4617
2.097 3.459 1.721 5351
2.095 3.456 1.706 5919
2.097 3.460 1.694 6618
2.123 3.502 1.700 7085
2.137 3.525 1.697 4775
2.158 3.560 1.699 4407
2.168 3.577 1.692 6867
2.171 3.581 1.680 9326
2.173 3.585 1.668 9266
2.175 3.588 1.656 5438
2.197 3.624 1.658 3829
2.269 3.742 1.694 5599
2.271 3.746 1.681 4008
2.324 3.833 1.703 3616
2.322 3.831 1.687 4294
2.317 3.822 1.669 4433
2.319 3.826 1.656 4985
2.372 3.913 1.676 6871
2.370 3.910 1.660 6670
2.419 3.991 1.677 8200
2.421 3.995 1.664 9478
2.424 3.998 1.650 7928
2.426 4.002 1.637 5151
2.483 4.096 1.657 5412
2.489 4.106 1.646 4860
2.491 4.110 1.632 5142
2.556 4.217 1.656 5287
2.563 4.228 1.644 5094
2.561 4.225 1.627 9403
2.563 4.229 1.613 15196
2.565 4.232 1.599 11641
2.568 4.236 1.584 4564
2.570 4.239 1.570 3669
2.572 4.243 1.556 4754
2.574 4.246 1.541 4083
2.734 4.511 1.613 3583
2.736 4.514 1.598 5802
2.735 4.511 1.580 5245
2.784 4.593 1.590 4989
2.786 4.597 1.575 9041
2.789 4.600 1.559 9322
2.787 4.597 1.541 6892
2.785 4.594 1.524 8951
2.791 4.604 1.510 11545
2.789 4.601 1.493 8230
2.795 4.611 1.479 5615
3.104 5.120 1.610 6463
3.114 5.137 1.597 6821
3.124 5.154 1.583 7036
3.142 5.184 1.573 6147
3.144 5.187 1.555 5673
3.147 5.191 1.538 4491
3.353 5.531 1.611 4288
3.355 5.535 1.592 4578
3.361 5.545 1.575 3801
3.467 5.720 1.600 2281
3.486 5.750 1.588 2073
3.500 5.774 1.573 1880
3.502 5.777 1.554 1758
3.705 6.112 1.615 2016
3.796 6.262 1.629 2515
3.798 6.266 1.608 2629
4.126 6.807 1.712 2164
4.133 6.818 1.690 1939
4.163 6.868 1.677 3482
4.161 6.865 1.653 6026
4.168 6.876 1.631 6574
4.174 6.886 1.609 6475
4.176 6.890 1.585 6192
4.174 6.886 1.561 5166
4.181 6.897 1.539 3378
4.187 6.907 1.517 2055
4.686 7.731 1.655 1646
4.681 7.722 1.626 1631
4.675 7.712 1.598 1324
4.677 7.716 1.571 991
4.679 7.719 1.545 1009
4.620 7.622 1.501 935
5.584 9.212 1.755 956
5.591 9.223 1.725 1648
5.601 9.240 1.695 1725
5.612 9.257 1.666 1767
4.610 7.605 1.366 1783
5.592 9.225 1.597 1939
5.598 9.235 1.567 1453
0.831 1.370 0.340 1707
0.831 1.371 0.336 1948
0.831 1.371 0.331 1493
0.831 1.372 0.327 1263
0.832 1.372 0.322 1526
0.832 1.373 0.318 1589
0.934 1.541 0.335 1539
0.934 1.542 0.330 1716
0.939 1.549 0.326 1758
0.939 1.549 0.321 1514
1.090 1.799 0.345 1141
1.091 1.800 0.339 1246
1.095 1.807 0.334 1290
1.095 1.807 0.328 1183
1.096 1.808 0.322 928
1.292 2.132 0.348 869
1.293 2.132 0.341 1037
1.293 2.133 0.334 1258
1.289 2.127 0.326 1337
1.289 2.127 0.319 1288
1.290 2.128 0.312 1099
1.097 1.810 0.280 811
1.102 1.818 0.274 800
1.102 1.818 0.268 706
1.102 1.818 0.262 474
4.663 7.692 0.642 350
0.742 1.224 0.213 302
0.738 1.217 0.208 412
0.738 1.217 0.204 690
0.738 1.218 0.200 825
0.738 1.218 0.196 991
0.742 1.225 0.193 1328
0.742 1.225 0.189 1681
0.743 1.225 0.185 1838
0.747 1.232 0.181 2008
0.747 1.232 0.177 2360
0.743 1.225 0.173 2572
0.743 1.225 0.169 2681
0.743 1.225 0.165 2501
0.743 1.225 0.161 2272
0.743 1.225 0.157 1906
0.743 1.226 0.152 1309
0.739 1.219 0.148 978
0.739 1.219 0.144 610
0.743 1.226 0.140 374
0.739 1.219 0.136 263
1.177 1.942 0.070 305
1.177 1.942 0.063 353
1.177 1.942 0.057 401
1.181 1.948 0.050 436
1.181 1.948 0.044 481
1.181 1.948 0.037 531
1.181 1.948 0.031 580
1.180 1.947 0.024 611
1.176 1.940 0.018 646
1.176 1.940 0.012 622
1.176 1.940 0.005 599
1.176 1.939 -0.001 518
1.175 1.939 -0.008 437
1.175 1.939 -0.014 344
1.064 1.756 -0.005 547
1.064 1.756 -0.011 786
1.064 1.755 -0.017 1098
1.068 1.762 -0.023 1421
1.063 1.754 -0.029 1746
1.063 1.754 -0.034 2083
1.063 1.753 -0.040 2347
1.063 1.753 -0.046 2611
1.062 1.753 -0.052 2612
1.062 1.752 -0.058 2489
1.062 1.752 -0.064 2364
1.061 1.751 -0.069 1995
1.061 1.751 -0.075 1627
1.061 1.750 -0.081 1295
1.060 1.749 -0.087 964
1.060 1.749 -0.093 1229
1.214 1.988 1.792 4638
1.216 1.992 1.785 9277
1.219 1.996 1.779 9277
1.225 2.005 1.777 8826
1.231 2.015 1.774 8507
1.236 2.025 1.772 9371
1.239 2.029 1.765 10370
1.241 2.033 1.759 10370
1.240 2.031 1.747 8740
1.236 2.024 1.732 7811
1.242 2.034 1.729 6020
1.295 2.121 1.789 4597
1.277 2.092 1.756 5103
1.276 2.090 1.744 6635
1.282 2.100 1.742 6484
1.288 2.110 1.739 6453
1.329 2.176 1.780 6475
1.338 2.191 1.781 7218
1.344 2.201 1.778 8588
1.346 2.205 1.771 7246
1.349 2.209 1.763 5904
1.351 2.213 1.756 4609
1.350 2.211 1.744 3328
1.356 2.221 1.741 4565
1.359 2.225 1.734 5816
1.361 2.229 1.726 5591
1.367 2.239 1.723 5443
1.408 2.306 1.761 5371
1.411 2.310 1.753 6817
1.417 2.320 1.749 6055
1.426 2.335 1.750 5505
1.475 2.415 1.795 5087
1.474 2.413 1.783 4726
1.476 2.417 1.774 5078
1.489 2.439 1.778 5506
1.488 2.437 1.766 7199
1.494 2.447 1.762 9617
1.500 2.457 1.758 10710
1.499 2.455 1.745 10408
1.502 2.459 1.737 10325
1.504 2.463 1.729 12008
1.506 2.467 1.721 13690
1.512 2.477 1.716 11475
1.518 2.486 1.712 6088
1.532 2.508 1.715 3288
1.541 2.524 1.714 3978
1.547 2.534 1.709 5121
1.550 2.538 1.701 6368
1.552 2.542 1.692 6593
1.554 2.545 1.684 5572
1.557 2.549 1.675 3801
1.632 2.673 1.740 3267
1.635 2.677 1.731 2686
1.637 2.681 1.722 4509
1.640 2.685 1.712 9895
1.642 2.689 1.703 13458
1.648 2.699 1.698 12893
1.658 2.715 1.696 11591
1.668 2.731 1.694 10950
1.670 2.734 1.685 9465
1.672 2.738 1.675 8829
1.675 2.742 1.666 9678
1.677 2.746 1.657 7875
1.769 2.896 1.729 10803
1.775 2.906 1.723 8808
1.803 2.953 1.737 6146
1.809 2.963 1.730 9541
1.812 2.967 1.720 8854
1.844 3.020 1.737 5657
1.854 3.036 1.733 5568
1.860 3.046 1.726 5424
1.874 3.069 1.726 4960
1.880 3.079 1.718 6283
1.879 3.077 1.705 5851
1.881 3.081 1.694 4348
1.884 3.084 1.684 5202
1.890 3.094 1.677 7384
1.892 3.098 1.666 7194
1.955 3.202 1.705 5629
1.961 3.212 1.698 6093
1.967 3.222 1.690 5651
1.974 3.232 1.682 3776
2.033 3.330 1.716 2825
2.028 3.321 1.699 5465
2.034 3.331 1.691 7257
2.060 3.373 1.697 5487
2.100 3.439 1.715 5752
2.110 3.456 1.709 6312
2.113 3.460 1.697 6305
2.130 3.489 1.697 6500
2.098 3.436 1.660 4518
2.170 3.553 1.699 4434
2.180 3.570 1.692 6547
2.182 3.574 1.680 7491
2.185 3.577 1.668 6601
2.202 3.607 1.667 3706
2.213 3.623 1.660 3639
2.308 3.779 1.712 4975
2.268 3.713 1.670 4233
2.274 3.724 1.660 3865
2.311 3.785 1.671 4208
2.310 3.782 1.656 4565
2.312 3.786 1.643 4588
2.385 3.905 1.676 7096
2.383 3.902 1.660 6676
2.428 3.976 1.675 9328
2.435 3.987 1.664 10886
2.437 3.990 1.650 8524
2.502 4.097 1.676 5666
2.500 4.094 1.660 7029
2.503 4.098 1.646 6675
2.505 4.102 1.632 7036
2.507 4.106 1.618 6167
2.580 4.226 1.646 5259
2.575 4.216 1.627 10466
2.577 4.220 1.613 16034
2.579 4.224 1.599 12670
2.585 4.234 1.586 6005
2.592 4.244 1.574 4527
2.590 4.241 1.558 4619
2.588 4.238 1.541 3833
2.749 4.502 1.613 3179
2.747 4.499 1.596 5061
2.745 4.496 1.578 5139
2.799 4.584 1.590 5212
2.802 4.588 1.575 9537
2.808 4.598 1.561 10554
2.818 4.614 1.550 8549
2.804 4.592 1.526 11010
2.806 4.595 1.510 13200
2.808 4.599 1.495 8806
2.810 4.602 1.479 6733
2.816 4.612 1.466 5565
3.139 5.140 1.601 5734
3.149 5.157 1.587 6094
3.159 5.174 1.573 5696
3.162 5.177 1.555 5406
3.369 5.516 1.629 5781
3.371 5.520 1.611 5662
3.373 5.524 1.592 5229
3.379 5.534 1.575 3798
3.494 5.722 1.604 2341
3.505 5.739 1.588 2195
3.515 5.756 1.572 1692
3.695 6.050 1.624 1806
3.689 6.041 1.600 2400
3.816 6.249 1.629 2520
3.823 6.260 1.609 2439
3.938 6.449 1.631 1938
4.042 6.618 1.647 1868
4.186 6.854 1.677 3043
4.184 6.851 1.653 5178
4.190 6.862 1.631 5479
4.197 6.872 1.609 5506
4.195 6.869 1.584 5221
4.197 6.873 1.561 4176
4.203 6.883 1.539 2615
4.209 6.893 1.517 1505
4.712 7.716 1.655 1985
4.706 7.706 1.626 2130
4.704 7.703 1.599 1680
4.702 7.700 1.571 1014
4.704 7.704 1.545 842
4.535 7.427 1.468 894
5.610 9.187 1.754 889
5.617 9.198 1.723 1511
4.619 7.563 1.414 1508
4.625 7.573 1.390 1815
4.635 7.590 1.366 1815
4.633 7.586 1.339 1512
0.839 1.374 0.346 1936
0.835 1.367 0.340 2637
0.835 1.368 0.336 2590
0.836 1.368 0.331 2818
0.836 1.369 0.327 3696
0.832 1.363 0.321 3942
0.836 1.370 0.318 3295
0.837 1.370 0.313 2216
0.837 1.371 0.309 1468
0.837 1.371 0.304 1070
0.833 1.365 0.299 990
0.830 1.358 0.294 852
1.101 1.803 0.340 992
1.101 1.803 0.334 1557
1.097 1.797 0.327 2060
1.098 1.797 0.321 2094
1.094 1.791 0.314 1543
1.086 1.778 0.307 1225
1.090 1.785 0.302 1274
1.094 1.792 0.296 1354
1.095 1.793 0.290 1235
1.099 1.800 0.285 1038
1.103 1.807 0.280 945
1.108 1.814 0.274 854
1.108 1.814 0.268 665
4.687 7.676 0.668 571
4.688 7.677 0.642 485
0.742 1.215 0.212 314
0.750 1.228 0.209 404
0.754 1.235 0.206 775
0.754 1.235 0.201 1084
0.750 1.229 0.197 1443
0.751 1.229 0.193 1978
0.751 1.229 0.189 2157
0.747 1.222 0.185 2193
0.747 1.223 0.181 2215
0.747 1.223 0.177 2024
0.743 1.216 0.172 1942
0.747 1.223 0.169 1872
0.747 1.223 0.165 1600
0.747 1.223 0.161 1391
0.747 1.223 0.157 1078
0.747 1.223 0.152 619
0.747 1.223 0.148 397
1.187 1.944 0.044 326
1.187 1.944 0.037 445
1.187 1.944 0.031 565
1.187 1.943 0.024 654
1.187 1.943 0.018 743
1.186 1.943 0.011 751
1.186 1.943 0.005 759
1.186 1.942 -0.002 663
1.182 1.935 -0.008 570
1.181 1.935 -0.014 439
1.070 1.752 -0.005 699
1.070 1.752 -0.011 994
1.070 1.752 -0.017 1369
1.074 1.758 -0.023 1754
1.069 1.751 -0.029 2125
1.069 1.750 -0.034 2505
1.069 1.750 -0.040 2797
1.068 1.750 -0.046 3089
1.068 1.749 -0.052 3089
1.068 1.749 -0.058 2931
1.067 1.748 -0.064 2773
1.067 1.748 -0.069 2335
1.067 1.747 -0.075 1897
1.067 1.746 -0.081 1521
1.066 1.746 -0.087 1145
1.066 1.745 -0.093 1497
1.222 1.983 1.792 5206
1.225 1.987 1.785 10413
1.227 1.991 1.779 10413
1.233 2.000 1.777 10092
1.235 2.004 1.770 9927
1.245 2.019 1.772 10733
1.247 2.023 1.765 11854
1.250 2.028 1.759 11854
1.249 2.026 1.747 9853
1.248 2.024 1.736 8573
1.250 2.028 1.729 6636
1.246 2.021 1.714 4706
1.262 2.047 1.725 5291
1.275 2.068 1.731 6737
1.284 2.083 1.733 6601
1.290 2.093 1.730 6665
1.292 2.097 1.723 6664
1.347 2.185 1.781 7104
1.353 2.195 1.778 8559
1.356 2.199 1.771 7238
1.358 2.203 1.763 5917
1.361 2.207 1.756 4723
1.367 2.217 1.753 3539
1.369 2.221 1.745 4354
1.371 2.225 1.738 5170
1.374 2.229 1.730 4914
1.387 2.250 1.735 4895
1.418 2.300 1.761 5719
1.424 2.310 1.757 7321
1.426 2.314 1.749 6383
1.436 2.329 1.750 5601
1.481 2.403 1.791 4754
1.462 2.372 1.758 4445
1.465 2.376 1.750 4876
1.463 2.374 1.738 5421
1.495 2.425 1.762 6984
1.504 2.441 1.762 9245
1.507 2.445 1.754 10184
1.509 2.449 1.745 9774
1.512 2.453 1.737 9364
1.514 2.457 1.729 10962
1.517 2.460 1.721 12559
1.523 2.470 1.716 10648
1.532 2.486 1.716 5713
1.542 2.502 1.715 3252
1.544 2.506 1.706 3428
1.547 2.510 1.698 3604
1.557 2.525 1.697 5038
1.563 2.535 1.692 5798
1.594 2.587 1.713 5449
1.597 2.591 1.704 5095
1.595 2.588 1.692 3795
1.594 2.586 1.680 2974
1.648 2.674 1.722 4835
1.651 2.678 1.712 10738
1.653 2.682 1.703 14444
1.659 2.692 1.698 13706
1.673 2.714 1.699 12389
1.679 2.724 1.694 11608
1.681 2.727 1.685 9884
1.684 2.731 1.675 9145
1.686 2.735 1.666 10128
1.688 2.739 1.657 8574
1.781 2.889 1.729 12285
1.787 2.899 1.723 9800
1.778 2.884 1.703 6326
1.822 2.955 1.730 9495
1.824 2.959 1.720 8749
1.811 2.939 1.697 5980
1.867 3.029 1.733 5952
1.873 3.039 1.726 5631
1.887 3.061 1.726 5489
1.889 3.065 1.715 7035
1.892 3.069 1.705 6141
1.894 3.073 1.694 4311
1.896 3.077 1.684 5133
1.903 3.087 1.677 7630
1.905 3.090 1.666 7604
1.972 3.200 1.708 5641
1.978 3.210 1.701 6688
1.981 3.214 1.690 6428
1.987 3.224 1.682 4256
2.009 3.259 1.686 2371
2.038 3.306 1.696 4997
2.067 3.354 1.705 7659
2.081 3.376 1.703 6509
2.111 3.424 1.712 5795
2.129 3.453 1.712 6580
2.131 3.457 1.700 6186
2.145 3.480 1.697 6052
2.159 3.503 1.694 4209
2.185 3.544 1.699 4402
2.195 3.561 1.692 6378
2.197 3.565 1.680 6139
2.188 3.549 1.660 4804
2.182 3.540 1.642 3417
2.228 3.614 1.660 3717
2.328 3.776 1.715 5703
2.326 3.774 1.699 5000
2.289 3.714 1.660 4373
2.292 3.718 1.648 4335
2.329 3.779 1.658 4317
2.328 3.776 1.643 4416
2.405 3.901 1.679 7177
2.431 3.943 1.681 7012
2.445 3.966 1.675 10137
2.451 3.977 1.664 11863
2.453 3.980 1.650 8808
2.515 4.080 1.673 5999
2.517 4.084 1.660 7904
2.520 4.088 1.646 8008
2.522 4.092 1.632 8476
2.524 4.095 1.618 7546
2.598 4.215 1.646 5412
2.596 4.212 1.629 10012
2.595 4.209 1.613 14224
2.597 4.213 1.599 11657
2.603 4.223 1.586 6487
2.609 4.233 1.574 4693
2.771 4.496 1.648 3968
2.777 4.506 1.635 2954
2.812 4.561 1.637 3392
2.818 4.572 1.623 4834
2.768 4.491 1.580 4527
2.818 4.572 1.590 4769
2.825 4.583 1.577 8186
2.835 4.599 1.565 9865
2.841 4.609 1.552 9027
2.831 4.593 1.530 11470
2.829 4.590 1.512 12786
2.831 4.593 1.497 7841
2.833 4.597 1.481 6097
2.839 4.607 1.467 4946
3.168 5.140 1.604 4654
3.171 5.144 1.587 4547
3.181 5.160 1.573 4290
3.183 5.164 1.555 4217
3.392 5.502 1.629 6181
3.394 5.506 1.611 6071
3.396 5.509 1.592 5154
3.402 5.520 1.575 3219
3.522 5.714 1.605 2518
3.528 5.724 1.588 2234
3.628 5.886 1.608 1960
3.716 6.028 1.622 2009
3.710 6.019 1.599 2543
3.846 6.240 1.630 2179
3.853 6.250 1.611 2144
4.144 6.723 1.699 2051
4.147 6.727 1.676 2691
4.149 6.731 1.653 3102
4.212 6.834 1.653 3910
4.223 6.851 1.632 3857
4.225 6.855 1.609 3933
4.223 6.852 1.584 3724
4.226 6.855 1.561 2785
4.342 7.045 1.575 1704
4.746 7.699 1.683 1420
4.744 7.696 1.655 2304
4.734 7.680 1.625 2613
4.736 7.684 1.599 1999
4.734 7.681 1.571 959
4.552 7.384 1.490 671
4.566 7.408 1.468 937
4.638 7.524 1.463 921
5.651 9.168 1.722 1364
4.654 7.551 1.415 1553
4.656 7.554 1.390 1737
4.662 7.564 1.365 1598
4.668 7.573 1.340 1479
0.840 1.363 0.345 1156
0.841 1.364 0.340 1300
0.837 1.358 0.335 1070
6.510 10.561 1.670 1160
6.512 10.565 1.634 1396
6.510 10.562 1.597 1144
6.739 10.934 1.611 861
6.750 10.951 1.575 790
7.132 11.570 1.617 889
7.134 11.574 1.577 901
0.839 1.361 0.299 1120
0.835 1.355 0.294 1116
0.835 1.355 0.289 940
1.303 2.114 0.369 1016
1.105 1.792 0.327 2518
1.105 1.793 0.321 4405
1.101 1.786 0.314 5083
1.101 1.787 0.308 4982
1.098 1.781 0.302 4380
1.098 1.781 0.296 3783
1.106 1.795 0.291 3451
1.107 1.795 0.285 2469
1.115 1.809 0.280 1805
1.115 1.809 0.274 1343
4.718 7.655 0.694 749
4.719 7.656 0.668 676
4.720 7.657 0.642 554
0.743 1.205 0.212 373
0.747 1.212 0.208 332
0.755 1.225 0.205 485
0.755 1.226 0.201 710
0.751 1.219 0.197 1053
0.751 1.219 0.193 1524
0.752 1.219 0.189 1568
0.752 1.219 0.185 1447
0.756 1.226 0.181 1132
0.756 1.226 0.177 688
0.760 1.233 0.173 531
0.760 1.233 0.169 650
0.756 1.227 0.165 780
0.756 1.227 0.161 797
0.756 1.227 0.157 689
0.756 1.227 0.153 479
4.756 7.716 0.198 351
4.756 7.717 0.172 391
4.757 7.717 0.145 395
4.757 7.717 0.119 399
4.761 7.723 0.093 366
4.761 7.723 0.066 335
4.760 7.723 0.040 290
1.192 1.933 0.063 313
1.192 1.933 0.057 451
1.191 1.933 0.050 540
1.191 1.933 0.044 629
1.191 1.932 0.037 599
1.187 1.925 0.031 584
1.187 1.925 0.025 577
1.191 1.932 0.018 580
1.195 1.938 0.011 549
1.194 1.938 0.005 532
1.194 1.937 -0.002 482
1.194 1.937 -0.008 431
1.078 1.748 0.001 434
1.077 1.748 -0.005 700
1.077 1.748 -0.011 960
1.077 1.747 -0.017 1270
1.081 1.754 -0.023 1589
1.076 1.746 -0.029 1875
1.076 1.746 -0.034 2170
1.076 1.746 -0.040 2361
1.076 1.745 -0.046 2553
1.075 1.745 -0.052 2548
1.075 1.744 -0.058 2363
1.075 1.744 -0.064 2183
1.074 1.743 -0.069 1811
1.074 1.743 -0.075 1438
1.070 1.735 -0.080 1174
1.069 1.735 -0.086 910
1.069 1.734 -0.092 1228
1.228 1.979 1.792 5697
1.231 1.983 1.785 11394
1.233 1.987 1.779 11394
1.236 1.991 1.772 11196
1.242 2.000 1.770 11035
1.248 2.010 1.768 11838
1.254 2.019 1.765 13093
1.256 2.024 1.759 13093
1.255 2.022 1.747 10947
1.254 2.020 1.736 9468
1.257 2.024 1.729 7387
1.263 2.034 1.727 5345
1.272 2.049 1.729 6421
1.281 2.064 1.731 8377
1.287 2.074 1.728 8241
1.293 2.083 1.726 8367
1.292 2.081 1.714 8327
1.354 2.181 1.781 6849
1.360 2.191 1.778 8368
1.363 2.195 1.771 7129
1.302 2.097 1.686 6444
1.304 2.101 1.679 5254
1.377 2.218 1.757 4326
1.376 2.217 1.745 4540
1.379 2.221 1.738 4783
1.385 2.230 1.734 4394
1.423 2.291 1.768 5169
1.429 2.301 1.765 6689
1.431 2.305 1.757 8305
1.434 2.309 1.749 6960
1.440 2.319 1.746 5720
1.467 2.363 1.766 4460
1.470 2.367 1.758 4358
1.472 2.371 1.750 4767
1.471 2.370 1.738 5307
1.495 2.408 1.754 6530
1.509 2.430 1.758 8577
1.515 2.440 1.754 9542
1.517 2.444 1.745 8936
1.520 2.448 1.737 8330
1.526 2.458 1.733 10003
1.528 2.461 1.725 11717
1.534 2.471 1.720 9942
1.544 2.487 1.719 5510
1.561 2.514 1.726 3814
1.552 2.501 1.706 3680
1.551 2.499 1.694 3916
1.561 2.514 1.693 4910
1.567 2.524 1.688 5685
1.603 2.582 1.713 6139
1.605 2.585 1.704 6239
1.600 2.577 1.688 5087
1.602 2.581 1.680 3975
1.657 2.669 1.722 5093
1.659 2.673 1.712 11211
1.665 2.683 1.707 14933
1.672 2.692 1.702 13885
1.685 2.714 1.703 12633
1.688 2.718 1.694 11743
1.690 2.722 1.685 9841
1.692 2.726 1.675 9312
1.695 2.730 1.666 10686
1.701 2.740 1.660 9465
1.790 2.883 1.729 13561
1.792 2.887 1.720 10982
1.783 2.873 1.700 8207
1.831 2.950 1.730 9466
1.834 2.954 1.720 8552
1.817 2.927 1.694 6318
1.873 3.016 1.730 5889
1.883 3.033 1.726 5424
1.897 3.055 1.726 5851
1.903 3.065 1.718 7519
1.898 3.057 1.702 5907
1.900 3.060 1.691 3893
1.906 3.070 1.684 4620
1.916 3.087 1.680 7316
1.915 3.084 1.666 7287
1.982 3.193 1.708 5506
1.989 3.203 1.701 7220
1.995 3.213 1.693 7168
2.001 3.224 1.685 4792
1.949 3.140 1.632 2301
2.091 3.368 1.729 4667
2.086 3.360 1.711 8286
2.096 3.376 1.706 7404
2.114 3.405 1.706 5771
2.140 3.446 1.712 6666
2.146 3.457 1.703 6202
2.152 3.467 1.694 5710
2.155 3.471 1.682 3946
2.200 3.543 1.702 4026
2.206 3.554 1.692 5847
2.209 3.557 1.680 5157
2.191 3.530 1.654 4655
2.198 3.540 1.645 4119
2.208 3.556 1.639 4369
2.340 3.769 1.715 6164
2.338 3.766 1.699 5775
2.329 3.751 1.679 4363
2.300 3.704 1.645 4232
2.345 3.778 1.661 4071
2.419 3.896 1.695 4285
2.421 3.900 1.681 7305
2.443 3.936 1.681 7264
2.457 3.959 1.675 10320
2.464 3.969 1.664 11995
2.470 3.979 1.653 8243
2.524 4.066 1.671 5672
2.526 4.070 1.657 7716
2.533 4.080 1.646 8357
2.535 4.083 1.632 9032
2.537 4.087 1.618 8225
2.540 4.091 1.604 5606
2.610 4.204 1.629 7995
2.608 4.201 1.613 10354
2.614 4.211 1.601 8914
2.617 4.215 1.586 5473
2.623 4.225 1.574 4012
2.789 4.493 1.650 3366
2.796 4.503 1.637 2608
2.830 4.559 1.639 3180
2.833 4.563 1.623 4445
2.835 4.566 1.608 3487
2.914 4.693 1.632 3880
2.839 4.573 1.577 5751
2.854 4.597 1.567 7742
2.860 4.607 1.554 7865
2.850 4.590 1.532 10340
2.852 4.594 1.516 10644
2.854 4.597 1.501 6327
2.860 4.607 1.487 4925
2.862 4.611 1.471 3678
3.294 5.306 1.655 3471
3.284 5.290 1.631 3624
3.295 5.307 1.617 2555
3.419 5.507 1.653 4233
3.413 5.498 1.631 5562
3.411 5.495 1.611 5360
3.418 5.505 1.594 4414
3.652 5.883 1.673 2862
3.650 5.880 1.651 2669
3.645 5.871 1.628 2550
3.643 5.868 1.606 2521
3.735 6.016 1.622 1827
3.729 6.007 1.599 2186
3.735 6.017 1.580 1796
3.885 6.258 1.616 1816
4.157 6.697 1.696 3067
4.168 6.714 1.676 3971
4.170 6.718 1.653 4660
4.173 6.721 1.630 4342
4.179 6.732 1.609 3731
4.181 6.735 1.586 3882
4.179 6.732 1.562 2936
4.186 6.742 1.540 2282
4.188 6.746 1.517 2277
4.770 7.684 1.683 1436
4.768 7.681 1.655 2465
4.763 7.671 1.626 2780
4.757 7.662 1.598 2013
4.511 7.267 1.496 922
4.513 7.270 1.472 1013
4.515 7.274 1.447 959
4.596 7.403 1.444 856
5.680 9.150 1.722 1217
4.678 7.536 1.415 1388
4.680 7.539 1.390 1444
4.686 7.549 1.365 1227
4.692 7.558 1.340 1272
4.707 7.581 1.318 1065
0.841 1.355 0.339 1357
0.837 1.348 0.334 1629
0.837 1.349 0.329 2109
0.838 1.349 0.325 2668
0.838 1.350 0.320 2913
0.838 1.350 0.316 2552
0.839 1.351 0.311 1622
0.843 1.358 0.308 1492
0.843 1.358 0.303 2244
0.839 1.352 0.298 2720
0.835 1.346 0.293 2651
0.836 1.346 0.288 2061
1.110 1.788 0.333 3162
1.110 1.789 0.327 4080
1.107 1.783 0.320 3966
1.107 1.783 0.314 2708
1.107 1.783 0.308 1842
1.107 1.784 0.302 1614
1.112 1.791 0.297 1691
1.112 1.791 0.291 1732
1.121 1.805 0.286 1417
1.125 1.812 0.281 1325
1.121 1.806 0.274 1373
1.117 1.799 0.267 1243
1.117 1.800 0.261 748
4.744 7.642 0.642 543
1.118 1.800 0.249 347
0.747 1.203 0.208 282
0.747 1.203 0.204 280
0.747 1.203 0.200 282
0.747 1.203 0.196 264
0.760 1.223 0.193 349
0.764 1.230 0.189 634
0.760 1.224 0.185 845
0.760 1.224 0.181 1111
0.760 1.224 0.177 1356
0.756 1.217 0.173 1392
0.760 1.224 0.169 1251
0.760 1.224 0.165 904
0.756 1.217 0.161 706
0.756 1.217 0.157 537
4.777 7.694 0.224 505
4.781 7.701 0.198 540
4.785 7.708 0.172 579
4.781 7.701 0.145 567
4.781 7.701 0.119 555
4.785 7.708 0.093 503
4.785 7.708 0.066 453
4.785 7.708 0.040 401
4.789 7.714 0.014 306
4.789 7.714 -0.013 266
1.202 1.937 0.089 271
1.202 1.937 0.082 355
1.198 1.930 0.076 398
1.198 1.930 0.070 431
1.198 1.929 0.063 351
1.198 1.929 0.057 271
1.198 1.929 0.050 314
1.202 1.936 0.044 359
1.201 1.935 0.037 372
1.201 1.935 0.031 385
1.197 1.928 0.024 296
1.079 1.738 0.007 277
1.083 1.745 0.001 429
1.083 1.744 -0.005 717
1.083 1.744 -0.011 1002
1.083 1.744 -0.017 1356
1.086 1.750 -0.023 1710
1.082 1.743 -0.029 2059
1.082 1.743 -0.034 2410
1.081 1.742 -0.040 2738
1.081 1.742 -0.046 3066
1.081 1.741 -0.052 3069
1.081 1.741 -0.058 2999
1.080 1.740 -0.064 2926
1.080 1.740 -0.069 2605
1.080 1.739 -0.075 2284
1.079 1.739 -0.081 2002
1.079 1.738 -0.087 1721
1.079 1.737 -0.093 2285
1.231 1.969 1.787 6013
1.234 1.973 1.781 12026
1.237 1.977 1.774 12026
1.243 1.987 1.772 11932
1.245 1.991 1.765 11946
1.254 2.006 1.768 12581
1.260 2.015 1.765 13900
1.263 2.019 1.759 13900
1.262 2.018 1.747 11575
1.261 2.016 1.736 9870
1.263 2.020 1.729 7911
1.273 2.035 1.731 6197
1.279 2.045 1.729 8032
1.288 2.060 1.731 10785
1.291 2.064 1.724 10679
1.297 2.073 1.721 10834
1.299 2.077 1.714 10729
1.298 2.075 1.703 8453
1.367 2.186 1.778 7863
1.373 2.196 1.775 6868
1.309 2.093 1.686 7644
1.311 2.096 1.679 6797
1.317 2.106 1.676 5956
1.319 2.110 1.669 5233
1.414 2.262 1.771 4694
1.420 2.271 1.768 5292
1.430 2.287 1.768 6336
1.436 2.296 1.765 7870
1.439 2.300 1.757 9467
1.441 2.304 1.749 7710
1.447 2.314 1.746 5952
1.450 2.318 1.738 5093
1.477 2.363 1.758 4369
1.480 2.367 1.750 4798
1.479 2.365 1.738 5329
1.489 2.380 1.738 6458
1.513 2.419 1.754 8178
1.519 2.429 1.750 9179
1.525 2.439 1.745 8229
1.535 2.454 1.745 7821
1.537 2.458 1.737 9501
1.540 2.462 1.728 11180
1.546 2.472 1.724 9567
1.556 2.488 1.723 5757
1.573 2.515 1.730 4911
1.568 2.507 1.714 5015
1.563 2.499 1.698 5540
1.569 2.509 1.693 6129
1.572 2.513 1.685 6144
1.611 2.576 1.713 6659
1.614 2.580 1.704 7021
1.609 2.572 1.688 6281
1.607 2.570 1.676 5211
1.662 2.657 1.718 5719
1.668 2.667 1.712 11840
1.674 2.677 1.707 15389
1.680 2.687 1.702 13723
1.694 2.709 1.703 12297
1.696 2.713 1.694 11423
1.703 2.723 1.688 9418
1.705 2.726 1.679 9321
1.704 2.724 1.666 11128
1.710 2.734 1.660 10284
1.799 2.877 1.729 14356
1.802 2.881 1.720 12165
1.797 2.873 1.703 9919
1.841 2.944 1.730 9442
1.843 2.947 1.720 8198
1.819 2.909 1.687 6262
1.879 3.004 1.726 5674
1.893 3.026 1.726 5125
1.907 3.049 1.726 6015
1.913 3.059 1.718 7886
1.919 3.069 1.711 5834
1.948 3.116 1.723 4146
1.947 3.113 1.709 5250
1.926 3.080 1.680 6485
1.929 3.084 1.669 6281
1.997 3.193 1.711 5040
2.003 3.203 1.704 7338
2.009 3.213 1.696 7387
2.012 3.217 1.685 4988
2.061 3.295 1.710 2711
2.102 3.361 1.729 4758
2.101 3.359 1.714 8297
2.111 3.375 1.709 7495
2.121 3.392 1.703 5527
2.151 3.439 1.712 6245
2.157 3.449 1.703 6026
2.164 3.460 1.694 5411
2.162 3.457 1.680 3986
2.211 3.536 1.702 3684
2.218 3.546 1.692 5298
2.216 3.544 1.678 4630
2.203 3.523 1.654 4964
2.209 3.533 1.645 4962
2.219 3.549 1.639 5351
2.352 3.761 1.715 6160
2.351 3.759 1.699 5681
