0.605 0.870 0.190 7867
0.605 0.870 0.187 12374
0.605 0.870 0.184 14299
0.605 0.870 0.181 15066
0.606 0.870 0.178 14058
0.606 0.870 0.175 9162
0.606 0.871 0.172 6144
0.606 0.871 0.170 7958
0.606 0.871 0.167 12935
0.606 0.871 0.164 17219
0.606 0.871 0.161 19457
0.606 0.871 0.158 20933
0.606 0.871 0.155 21715
0.606 0.871 0.152 21186
0.606 0.871 0.149 18151
0.606 0.871 0.146 15775
0.606 0.871 0.143 13730
0.606 0.871 0.140 10032
0.606 0.871 0.137 7993
0.606 0.871 0.134 6543
0.606 0.871 0.131 4319
0.606 0.871 0.128 3373
0.606 0.871 0.125 2738
0.606 0.871 0.123 2033
0.606 0.871 0.120 1642
0.606 0.871 0.117 1154
0.606 0.871 0.114 917
0.606 0.871 0.111 835
0.976 1.403 0.087 923
0.976 1.403 0.083 1137
0.976 1.403 0.078 1348
0.971 1.396 0.073 1478
0.976 1.403 0.068 1673
0.976 1.402 0.063 1689
0.976 1.402 0.058 1498
0.763 1.097 0.073 1707
0.763 1.097 0.069 2129
0.759 1.090 0.066 2562
0.758 1.090 0.062 2766
0.758 1.090 0.059 2971
0.758 1.090 0.055 2794
0.762 1.096 0.051 2676
0.762 1.096 0.047 2453
0.762 1.095 0.043 2202
0.767 1.102 0.039 2023
0.762 1.095 0.036 1844
0.766 1.101 0.031 1588
0.766 1.101 0.027 1359
0.766 1.101 0.024 1097
0.761 1.094 0.021 825
0.761 1.094 0.017 788
0.761 1.093 0.013 594
0.760 1.093 0.009 418
1.812 2.605 -0.187 380
1.812 2.604 -0.197 475
1.811 2.603 -0.206 569
1.811 2.603 -0.215 284
1.351 1.921 1.806 2445
1.354 1.925 1.799 4890
1.357 1.928 1.792 4890
1.363 1.938 1.790 5045
1.381 1.963 1.802 5410
1.361 1.935 1.768 6536
1.364 1.939 1.761 8049
1.367 1.943 1.754 8049
1.384 1.968 1.765 11987
1.387 1.972 1.759 16553
1.390 1.976 1.752 16764
1.392 1.979 1.745 16976
1.395 1.983 1.738 13604
1.394 1.982 1.727 10321
1.404 1.996 1.728 9792
1.411 2.005 1.726 10153
1.413 2.009 1.719 10204
1.424 2.024 1.720 9005
1.430 2.033 1.718 8703
1.475 2.097 1.758 8315
1.478 2.100 1.750 8098
1.477 2.099 1.739 7836
1.475 2.097 1.727 7860
1.482 2.106 1.724 6231
1.539 2.187 1.776 5996
1.545 2.196 1.772 5561
1.548 2.200 1.764 5218
1.555 2.210 1.761 4293
1.588 2.258 1.786 4518
1.583 2.251 1.770 7205
1.586 2.255 1.762 10217
1.593 2.264 1.758 11097
1.599 2.273 1.754 12666
1.602 2.277 1.746 10415
1.605 2.281 1.738 8164
1.607 2.285 1.730 7099
1.610 2.289 1.722 6719
1.613 2.293 1.714 7403
1.615 2.296 1.706 7811
1.622 2.306 1.702 8459
1.625 2.309 1.694 7689
1.627 2.313 1.686 6920
1.686 2.396 1.732 5751
1.692 2.406 1.727 5502
1.691 2.404 1.715 4398
1.686 2.396 1.699 3307
1.672 2.377 1.675 2546
1.691 2.403 1.682 3300
1.697 2.413 1.677 4865
1.708 2.428 1.676 5773
1.719 2.443 1.675 5742
1.741 2.475 1.685 6621
1.752 2.491 1.683 9282
1.755 2.494 1.675 11568
1.753 2.492 1.662 11833
1.756 2.496 1.653 9569
1.754 2.494 1.641 6708
1.785 2.538 1.657 5663
1.788 2.541 1.648 6811
1.790 2.545 1.639 9334
1.797 2.554 1.634 10712
1.804 2.564 1.628 9701
1.802 2.561 1.616 7579
1.985 2.822 1.757 6503
1.996 2.838 1.754 8856
2.003 2.847 1.747 10133
2.010 2.857 1.740 9826
2.009 2.855 1.727 6840
2.036 2.894 1.737 7084
2.043 2.904 1.730 8940
2.045 2.908 1.720 8455
2.040 2.900 1.703 5754
2.097 2.980 1.734 4825
2.091 2.972 1.718 4848
2.110 3.000 1.720 5569
2.121 3.015 1.716 8133
2.124 3.019 1.705 9081
2.126 3.023 1.694 6549
2.217 3.152 1.749 4180
2.232 3.173 1.747 5289
2.239 3.183 1.739 5768
2.246 3.193 1.730 6814
2.253 3.203 1.722 8172
2.256 3.207 1.711 8192
2.258 3.210 1.700 8623
2.261 3.214 1.688 9791
2.264 3.218 1.677 8579
2.266 3.221 1.666 8569
2.277 3.237 1.660 11267
2.284 3.247 1.651 9541
2.295 3.262 1.646 7464
2.302 3.272 1.637 11077
2.304 3.276 1.625 12215
2.298 3.267 1.608 15636
2.301 3.270 1.597 19289
2.307 3.280 1.588 14741
2.310 3.283 1.576 8998
2.308 3.281 1.562 6847
2.310 3.284 1.551 5393
2.540 3.611 1.679 7728
2.534 3.603 1.661 8894
2.567 3.649 1.666 5657
2.574 3.659 1.656 7452
2.581 3.669 1.646 6288
2.657 3.776 1.676 4790
2.689 3.823 1.680 4611
2.692 3.827 1.666 5654
2.686 3.818 1.648 6263
2.688 3.822 1.634 6194
2.687 3.819 1.619 5919
2.893 4.113 1.718 4808
2.896 4.116 1.703 3852
2.859 4.064 1.667 4326
2.897 4.118 1.672 6414
2.899 4.121 1.657 6399
2.893 4.112 1.638 3912
3.000 4.265 1.678 3011
2.999 4.262 1.660 5557
2.992 4.254 1.641 4650
2.999 4.263 1.628 3454
3.028 4.304 1.626 4514
3.039 4.320 1.615 4127
3.059 4.349 1.608 4012
3.171 4.508 1.646 2260
3.170 4.506 1.628 3416
3.247 4.615 1.647 2087
3.298 4.688 1.653 2332
3.309 4.704 1.640 2360
3.316 4.714 1.626 2363
3.327 4.730 1.613 2227
3.493 4.965 1.668 2082
3.584 5.095 1.689 2755
3.591 5.105 1.673 4265
3.576 5.083 1.648 3672
3.578 5.087 1.630 3082
3.581 5.090 1.612 3049
3.743 5.321 1.659 3141
3.750 5.331 1.642 3693
3.761 5.347 1.627 2575
3.946 5.609 1.679 2880
3.953 5.619 1.661 2619
4.107 5.838 1.699 1718
4.101 5.829 1.675 1804
4.090 5.813 1.649 1971
4.137 5.880 1.645 2179
4.278 6.080 1.674 2189
4.258 6.052 1.645 2340
4.363 6.202 1.659 2467
4.509 6.409 1.687 3973
4.516 6.419 1.666 8253
4.518 6.422 1.643 11313
4.521 6.426 1.620 9844
4.523 6.429 1.597 5394
4.530 6.439 1.576 4870
4.537 6.449 1.554 5900
4.539 6.452 1.532 5060
4.537 6.449 1.507 3527
5.276 7.499 1.704 2042
5.292 7.522 1.682 2114
5.294 7.526 1.655 2160
5.297 7.529 1.628 1921
5.295 7.526 1.600 2161
5.297 7.530 1.573 1801
5.763 8.192 1.671 1835
5.752 8.177 1.638 1644
6.007 8.539 1.674 1464
6.384 9.075 1.737 1804
6.134 8.719 1.643 1600
6.322 8.986 1.657 1462
6.320 8.983 1.624 1079
6.859 9.750 1.716 1319
7.052 10.024 1.724 1608
7.054 10.028 1.688 1679
7.057 10.031 1.653 1683
7.059 10.035 1.617 1615
7.062 10.038 1.581 1324
7.467 10.614 1.626 1143
7.655 10.881 1.625 1382
7.657 10.885 1.586 1482
7.664 10.895 1.548 1503
7.667 10.898 1.509 1143
7.705 10.953 1.477 734
8.043 11.433 1.495 672
8.045 11.436 1.454 538
8.043 11.433 1.413 461
8.045 11.436 1.372 321
0.609 0.865 0.219 303
0.609 0.865 0.216 419
0.609 0.866 0.214 434
0.609 0.866 0.211 480
0.609 0.866 0.208 941
0.609 0.866 0.205 1960
0.609 0.866 0.202 3188
0.609 0.866 0.199 4548
0.614 0.873 0.196 5855
0.614 0.873 0.193 7172
0.610 0.867 0.190 9332
0.610 0.867 0.187 11475
0.610 0.867 0.184 11673
0.610 0.867 0.181 10476
0.610 0.867 0.178 7497
0.610 0.867 0.175 7694
0.610 0.867 0.172 10962
0.610 0.867 0.170 15291
0.610 0.868 0.167 20516
0.610 0.868 0.164 22657
0.610 0.868 0.161 22727
0.610 0.868 0.158 20640
0.610 0.868 0.155 18694
0.610 0.868 0.152 17111
0.610 0.868 0.149 13618
0.610 0.868 0.146 11304
0.611 0.868 0.143 9581
0.611 0.868 0.140 6452
0.611 0.868 0.137 4595
0.610 0.868 0.134 3341
0.610 0.868 0.131 1575
0.610 0.868 0.128 786
0.610 0.868 0.125 685
0.610 0.868 0.123 658
0.610 0.868 0.120 795
0.610 0.868 0.117 902
0.610 0.868 0.114 907
0.610 0.867 0.111 848
0.610 0.867 0.108 753
0.610 0.867 0.105 606
0.979 1.391 0.078 479
0.979 1.391 0.073 649
0.979 1.391 0.068 872
0.978 1.391 0.064 964
0.978 1.391 0.059 966
0.978 1.390 0.054 934
0.978 1.390 0.049 807
0.978 1.390 0.044 657
0.978 1.390 0.040 528
0.978 1.390 0.035 375
0.977 1.389 0.030 275
1.822 2.590 -0.178 290
1.821 2.589 -0.187 290
1.821 2.588 -0.196 323
1.820 2.588 -0.205 356
1.356 1.917 1.806 2933
1.358 1.921 1.799 5867
1.361 1.925 1.792 5867
1.368 1.934 1.790 5586
1.385 1.959 1.802 5336
1.366 1.932 1.768 6819
1.369 1.936 1.761 8484
1.371 1.939 1.754 8484
1.389 1.964 1.765 12006
1.392 1.968 1.759 16670
1.395 1.972 1.752 16538
1.397 1.976 1.745 16407
1.400 1.980 1.738 12642
1.399 1.978 1.727 9101
1.413 1.998 1.733 9653
1.419 2.007 1.730 10883
1.422 2.011 1.723 11133
1.429 2.020 1.720 9782
1.473 2.084 1.761 9639
1.480 2.093 1.758 8445
1.483 2.097 1.750 7307
1.482 2.095 1.739 6705
1.477 2.088 1.723 6518
1.487 2.103 1.724 5421
1.544 2.183 1.776 5485
1.550 2.193 1.772 4856
1.553 2.197 1.764 4324
1.564 2.212 1.765 3909
1.594 2.254 1.786 4386
1.585 2.241 1.766 6750
1.588 2.245 1.758 9375
1.598 2.260 1.758 9705
1.605 2.270 1.754 11108
1.608 2.273 1.746 9219
1.610 2.277 1.738 7329
1.613 2.281 1.730 5962
1.616 2.285 1.722 5218
1.614 2.283 1.710 5894
1.621 2.292 1.706 6380
1.628 2.302 1.702 7174
1.630 2.305 1.694 6493
1.633 2.309 1.686 5811
1.695 2.398 1.735 6022
1.702 2.407 1.731 6200
1.705 2.411 1.722 5205
1.691 2.392 1.699 3707
1.690 2.390 1.687 2760
1.697 2.399 1.682 4102
1.707 2.414 1.681 6059
1.710 2.418 1.672 6579
1.725 2.439 1.675 6129
1.751 2.477 1.688 7690
1.762 2.492 1.687 11439
1.761 2.490 1.675 14228
1.759 2.488 1.662 14283
1.762 2.492 1.653 11409
1.764 2.495 1.645 8093
1.783 2.522 1.650 5760
1.790 2.531 1.645 6204
1.801 2.546 1.643 6789
1.807 2.556 1.637 7734
1.810 2.559 1.628 7674
1.808 2.557 1.616 6740
1.996 2.823 1.760 6386
2.003 2.833 1.754 8918
2.010 2.843 1.747 9558
2.017 2.852 1.740 8740
2.015 2.850 1.727 6315
2.026 2.866 1.723 7349
2.046 2.893 1.726 9644
2.040 2.885 1.710 9326
2.038 2.883 1.696 6765
2.100 2.969 1.731 5270
2.094 2.961 1.714 5280
2.113 2.989 1.717 5862
2.128 3.010 1.716 7775
2.131 3.014 1.705 8063
2.134 3.018 1.694 6258
2.132 3.015 1.681 4947
2.244 3.174 1.750 4894
2.251 3.184 1.742 5395
2.254 3.188 1.730 6126
2.257 3.191 1.719 6569
2.263 3.201 1.711 7494
2.266 3.205 1.700 8987
2.269 3.209 1.688 9321
2.271 3.212 1.677 7888
2.278 3.222 1.668 8771
2.285 3.232 1.660 12129
2.292 3.241 1.651 10394
2.303 3.257 1.646 7729
2.310 3.266 1.637 11280
2.312 3.270 1.625 11792
2.306 3.261 1.608 13511
2.309 3.265 1.597 16543
2.315 3.274 1.588 12943
2.318 3.278 1.576 7986
2.316 3.275 1.562 5632
2.564 3.626 1.702 4396
2.558 3.617 1.684 6271
2.543 3.596 1.661 6771
2.572 3.637 1.664 4347
2.583 3.653 1.656 5945
2.594 3.668 1.648 5730
1.501 2.122 0.996 6068
2.699 3.817 1.680 5285
2.701 3.820 1.666 7039
2.704 3.824 1.653 6503
2.702 3.821 1.637 5314
2.700 3.819 1.621 5475
2.707 3.828 1.610 3480
2.862 4.048 1.679 3105
2.865 4.051 1.665 4213
2.863 4.049 1.648 4749
2.905 4.108 1.655 4639
2.885 4.081 1.629 3535
2.919 4.128 1.630 2422
3.009 4.255 1.660 4248
3.007 4.253 1.643 3995
3.049 4.312 1.648 3606
3.043 4.303 1.628 3993
3.067 4.338 1.624 4306
3.070 4.341 1.608 4445
3.173 4.488 1.641 2921
3.180 4.498 1.628 4011
1.771 2.504 0.952 2878
1.772 2.506 0.943 1896
3.179 4.496 1.576 1607
3.367 4.762 1.644 1705
1.785 2.524 0.921 2436
3.611 5.107 1.715 2109
3.601 5.092 1.691 3032
3.599 5.090 1.671 4193
3.588 5.075 1.648 4037
3.591 5.078 1.630 3676
3.593 5.082 1.612 3120
3.640 5.148 1.612 2691
3.763 5.322 1.642 2734
3.961 5.602 1.701 2783
3.964 5.606 1.681 3254
3.971 5.616 1.663 2763
4.143 5.859 1.708 1757
4.141 5.857 1.685 1739
4.144 5.861 1.664 2188
4.111 5.814 1.630 2395
4.337 6.133 1.690 2198
4.366 6.175 1.678 2420
4.378 6.191 1.659 3201
4.519 6.392 1.685 4561
4.531 6.408 1.666 8571
4.534 6.412 1.643 11276
4.536 6.415 1.620 9580
4.539 6.419 1.597 5338
4.545 6.428 1.576 5021
4.552 6.438 1.554 5902
4.555 6.442 1.532 4935
4.553 6.438 1.507 3538
4.555 6.442 1.484 1885
5.247 7.420 1.663 2084
5.312 7.513 1.655 1881
5.626 7.957 1.716 1629
5.629 7.960 1.687 1946
5.780 8.175 1.700 1634
5.774 8.166 1.668 1820
5.772 8.163 1.638 1565
6.032 8.531 1.675 1336
6.406 9.059 1.737 1624
6.417 9.076 1.707 1537
6.343 8.971 1.657 1336
6.404 9.058 1.639 1036
7.073 10.003 1.760 1268
7.076 10.007 1.724 1647
7.078 10.011 1.688 1670
7.081 10.014 1.653 1700
7.083 10.018 1.617 1754
7.081 10.015 1.580 1474
7.679 10.859 1.663 1315
7.681 10.863 1.625 1771
7.684 10.867 1.586 1781
7.691 10.876 1.548 1705
7.693 10.880 1.509 1275
8.259 11.680 1.568 824
8.070 11.414 1.495 634
8.073 11.417 1.454 524
8.070 11.413 1.413 433
8.277 11.706 1.403 316
0.611 0.864 0.219 307
0.611 0.864 0.216 292
0.611 0.864 0.214 432
0.611 0.864 0.211 778
0.611 0.864 0.208 1390
0.611 0.865 0.205 2730
0.611 0.865 0.202 4487
0.612 0.865 0.199 6045
0.612 0.865 0.196 7010
0.616 0.872 0.193 7266
0.612 0.865 0.190 7343
0.612 0.865 0.187 7126
0.612 0.866 0.184 6271
0.612 0.866 0.181 5117
0.612 0.866 0.178 5021
0.612 0.866 0.175 7627
0.612 0.866 0.172 10547
0.612 0.866 0.170 13631
0.612 0.866 0.167 17001
0.612 0.866 0.164 18481
0.612 0.866 0.161 18425
0.612 0.866 0.158 16579
0.613 0.866 0.155 14949
0.613 0.866 0.152 13551
0.613 0.866 0.149 10432
0.613 0.866 0.146 8224
0.613 0.866 0.143 6580
0.613 0.866 0.140 3964
0.613 0.866 0.137 2575
0.617 0.873 0.134 1999
0.617 0.873 0.131 1538
0.617 0.873 0.128 1493
0.613 0.866 0.125 1448
0.613 0.866 0.123 1412
0.612 0.866 0.120 1351
0.612 0.866 0.117 1162
0.612 0.866 0.114 1028
0.612 0.866 0.111 836
0.612 0.866 0.108 611
0.982 1.389 0.083 448
0.982 1.389 0.078 538
0.982 1.389 0.073 594
0.982 1.389 0.068 659
0.982 1.389 0.064 645
0.982 1.388 0.059 558
0.982 1.388 0.054 486
0.981 1.388 0.049 384
0.977 1.381 0.045 271
4.428 6.263 -0.480 258
4.427 6.261 -0.502 371
4.422 6.253 -0.523 377
4.416 6.245 -0.545 384
4.415 6.243 -0.567 384
4.423 6.255 -0.591 275
1.827 2.583 -0.205 313
0.850 1.201 -0.022 269
0.849 1.201 -0.026 354
1.365 1.911 1.806 3439
1.367 1.915 1.799 6878
1.374 1.924 1.797 6949
1.377 1.928 1.790 6299
1.376 1.927 1.779 5682
1.375 1.925 1.768 7443
1.378 1.929 1.761 9273
1.380 1.933 1.754 9273
1.394 1.953 1.761 12080
1.401 1.962 1.759 16224
1.404 1.966 1.752 15743
1.406 1.970 1.745 15261
1.413 1.979 1.742 11733
1.419 1.988 1.740 8278
1.422 1.992 1.733 9842
1.429 2.001 1.730 11602
1.431 2.005 1.723 11853
1.438 2.014 1.720 10214
1.487 2.082 1.765 10143
1.493 2.092 1.762 8244
1.496 2.095 1.755 6492
1.499 2.099 1.747 5206
1.482 2.076 1.719 4691
1.504 2.107 1.733 4213
1.550 2.171 1.771 4647
1.514 2.120 1.722 4162
1.516 2.124 1.714 3717
1.601 2.243 1.794 3975
1.604 2.247 1.786 5427
1.595 2.234 1.766 6522
1.598 2.238 1.758 8324
1.609 2.253 1.758 8079
1.619 2.268 1.758 9319
1.622 2.272 1.750 8020
1.625 2.275 1.742 6721
1.627 2.279 1.734 4691
1.622 2.272 1.718 3496
1.625 2.276 1.710 4276
1.635 2.290 1.710 5034
1.642 2.300 1.706 6151
1.645 2.304 1.698 5456
1.700 2.380 1.740 5680
1.706 2.390 1.735 6666
1.713 2.399 1.731 6975
1.720 2.409 1.726 6141
1.723 2.412 1.718 4679
1.729 2.422 1.713 3228
1.716 2.403 1.689 5093
1.718 2.406 1.681 7505
1.725 2.416 1.676 7533
1.732 2.425 1.671 6562
1.775 2.486 1.699 8131
1.774 2.484 1.687 12625
1.776 2.488 1.678 15185
1.775 2.486 1.666 14850
1.773 2.483 1.653 11774
1.780 2.493 1.648 8783
1.791 2.508 1.647 7445
1.793 2.511 1.638 8447
1.792 2.509 1.625 6522
1.943 2.721 1.741 5691
1.946 2.725 1.732 6013
1.953 2.735 1.726 5748
2.009 2.814 1.760 6377
2.016 2.824 1.754 8813
2.023 2.833 1.747 8795
2.030 2.843 1.740 7775
2.020 2.829 1.720 6726
2.031 2.845 1.717 8837
2.042 2.860 1.713 11819
2.045 2.864 1.703 11507
2.043 2.862 1.690 8627
2.109 2.954 1.728 6322
2.107 2.952 1.714 6165
2.119 2.967 1.710 6436
2.142 3.000 1.716 7160
2.145 3.004 1.705 6962
2.143 3.002 1.691 5866
2.150 3.011 1.684 5073
2.259 3.164 1.750 4275
2.270 3.179 1.745 4285
2.269 3.177 1.730 4625
2.276 3.187 1.722 4780
2.278 3.191 1.711 6745
2.277 3.188 1.697 10386
2.284 3.198 1.688 10871
2.290 3.208 1.680 8261
2.293 3.211 1.668 8416
2.300 3.221 1.660 10851
2.307 3.231 1.651 8853
2.318 3.246 1.646 6991
2.325 3.256 1.637 10122
2.332 3.265 1.628 10010
2.321 3.251 1.608 9609
2.324 3.254 1.597 11200
2.330 3.264 1.588 8947
2.476 3.467 1.666 6964
2.482 3.477 1.656 5365
2.485 3.480 1.644 3816
2.592 3.630 1.695 5067
2.490 3.487 1.619 4851
2.606 3.649 1.674 4174
2.613 3.659 1.664 4976
2.650 3.711 1.671 5483
2.613 3.660 1.635 4429
2.721 3.810 1.682 6114
2.723 3.814 1.669 9433
2.730 3.824 1.658 8075
2.728 3.821 1.642 5558
2.722 3.812 1.623 7030
2.729 3.822 1.612 6549
2.732 3.825 1.599 4134
2.875 4.026 1.660 4222
2.877 4.029 1.646 4586
2.884 4.039 1.634 4226
2.887 4.043 1.620 3495
2.933 4.108 1.628 2520
3.033 4.247 1.663 3023
3.053 4.276 1.656 3536
3.078 4.310 1.652 2999
3.089 4.326 1.641 2852
3.087 4.324 1.624 3497
3.090 4.327 1.608 3853
3.199 4.480 1.644 3151
3.210 4.496 1.632 3509
1.800 2.521 0.960 2948
1.806 2.529 0.953 3366
1.812 2.537 0.946 1678
3.407 4.771 1.652 2012
1.801 2.522 0.923 3485
1.807 2.531 0.916 3267
3.624 5.076 1.691 3198
3.618 5.067 1.669 3865
3.612 5.058 1.648 3747
3.610 5.055 1.628 3674
3.617 5.065 1.612 2830
3.704 5.188 1.628 2369
3.707 5.191 1.610 2305
3.992 5.590 1.703 2652
3.994 5.594 1.683 3588
4.001 5.604 1.665 3108
4.035 5.652 1.657 2159
4.042 5.661 1.638 2494
4.148 5.810 1.656 2872
4.142 5.801 1.632 3126
4.365 6.113 1.690 2838
4.535 6.351 1.727 2817
4.537 6.354 1.705 3340
4.544 6.364 1.684 4484
4.561 6.387 1.666 7607
4.563 6.391 1.643 9800
4.566 6.394 1.620 8203
4.568 6.398 1.597 4403
4.575 6.407 1.576 3983
4.582 6.417 1.554 4716
4.584 6.420 1.532 3988
4.582 6.417 1.507 2914
5.265 7.373 1.685 1993
5.281 7.396 1.663 2207
5.279 7.393 1.635 1705
5.567 7.797 1.689 1438
5.575 7.807 1.663 1661
5.813 8.142 1.698 1727
5.812 8.139 1.668 2035
5.960 8.347 1.677 1616
5.958 8.344 1.646 1433
6.452 9.036 1.739 1466
6.459 9.046 1.707 1629
6.457 9.043 1.674 1248
6.519 9.130 1.656 1070
7.119 9.970 1.760 1109
7.122 9.974 1.724 1459
7.124 9.978 1.688 1469
7.127 9.981 1.653 1609
7.130 9.985 1.617 1897
7.132 9.988 1.581 1684
7.729 10.824 1.663 1474
7.731 10.827 1.625 2037
7.734 10.831 1.586 1919
7.741 10.841 1.548 1728
7.743 10.844 1.509 1256
7.754 10.860 1.472 732
7.766 10.876 1.435 600
8.125 11.379 1.454 417
8.150 11.415 1.417 398
8.153 11.418 1.376 340
0.614 0.861 0.225 363
0.615 0.861 0.222 426
0.615 0.861 0.219 467
0.615 0.861 0.216 580
0.615 0.861 0.214 880
0.615 0.861 0.211 1267
0.615 0.862 0.208 1956
0.615 0.862 0.205 3256
0.615 0.862 0.202 4671
0.616 0.862 0.199 5797
0.616 0.862 0.196 6359
0.616 0.862 0.193 6328
0.616 0.862 0.190 6131
0.616 0.863 0.187 5697
0.616 0.863 0.184 5762
0.616 0.863 0.181 6967
0.616 0.863 0.178 9315
0.616 0.863 0.175 10926
0.616 0.863 0.172 11325
0.616 0.863 0.170 11409
0.616 0.863 0.167 10417
0.616 0.863 0.164 9934
0.616 0.863 0.161 9605
0.616 0.863 0.158 8318
0.617 0.863 0.155 7430
0.617 0.863 0.152 6631
0.617 0.863 0.149 5000
0.617 0.864 0.146 3742
0.617 0.864 0.143 2888
0.617 0.864 0.140 1636
0.617 0.864 0.137 952
0.617 0.864 0.134 665
0.617 0.863 0.131 546
0.617 0.863 0.128 661
0.617 0.863 0.125 706
0.616 0.863 0.123 775
0.616 0.863 0.120 782
0.616 0.863 0.117 651
0.616 0.863 0.114 521
0.616 0.863 0.111 385
0.989 1.384 0.078 250
1.836 2.571 -0.177 283
1.835 2.570 -0.186 283
1.834 2.569 -0.195 309
1.834 2.568 -0.204 336
1.636 2.291 -0.183 250
1.374 1.905 1.806 3710
1.376 1.908 1.799 7420
1.383 1.918 1.797 7557
1.386 1.922 1.790 6670
1.385 1.920 1.779 5912
1.384 1.919 1.768 7766
1.387 1.923 1.761 9643
1.389 1.927 1.754 9643
1.400 1.941 1.756 11935
1.406 1.950 1.754 15159
1.413 1.959 1.752 14228
1.416 1.963 1.745 13543
1.422 1.972 1.742 10716
1.429 1.981 1.740 8210
1.435 1.990 1.737 9761
1.438 1.994 1.730 11586
1.441 1.998 1.723 11798
1.447 2.007 1.720 9941
1.497 2.075 1.765 9809
1.503 2.085 1.762 7793
1.444 2.002 1.686 6330
1.446 2.006 1.679 5092
1.453 2.015 1.676 3890
1.522 2.111 1.741 4178
1.529 2.120 1.738 4927
1.528 2.118 1.726 4524
1.526 2.116 1.714 4323
1.612 2.235 1.794 5053
1.615 2.239 1.786 6770
1.614 2.238 1.774 6521
1.608 2.230 1.758 6928
1.623 2.251 1.762 6901
1.630 2.260 1.758 7787
1.637 2.269 1.754 6944
1.639 2.273 1.746 6212
1.642 2.277 1.738 4191
1.689 2.342 1.774 3147
1.644 2.279 1.718 3523
1.650 2.288 1.714 4325
1.657 2.298 1.710 5330
1.656 2.296 1.698 4607
1.711 2.372 1.740 6263
1.718 2.382 1.735 7212
1.728 2.397 1.735 7287
1.735 2.406 1.730 6513
1.738 2.410 1.721 5788
1.741 2.414 1.713 5062
1.735 2.406 1.697 6963
1.738 2.410 1.688 9119
1.745 2.419 1.684 8801
1.743 2.417 1.671 7093
1.791 2.483 1.703 8587
1.789 2.481 1.691 12341
1.788 2.479 1.678 14231
1.786 2.477 1.666 13602
1.789 2.481 1.657 10794
1.792 2.484 1.648 8476
1.798 2.494 1.643 8396
1.801 2.497 1.634 10294
1.803 2.501 1.625 9102
1.806 2.504 1.617 6117
1.963 2.722 1.735 5861
1.965 2.725 1.726 5837
2.027 2.810 1.764 6220
2.029 2.814 1.754 8149
2.041 2.830 1.750 7991
2.031 2.816 1.730 7583
2.029 2.814 1.717 7913
2.049 2.841 1.720 10453
2.056 2.850 1.713 13919
2.054 2.848 1.700 13406
2.057 2.852 1.690 9870
2.123 2.944 1.728 7118
2.126 2.947 1.718 6337
2.133 2.957 1.710 6409
2.178 3.020 1.731 6814
2.197 3.047 1.733 6438
2.209 3.063 1.729 5772
2.211 3.066 1.718 6156
2.214 3.070 1.707 4879
2.200 3.050 1.684 4800
2.211 3.066 1.679 4541
2.243 3.111 1.689 5917
2.246 3.114 1.678 7101
2.292 3.178 1.697 11145
2.299 3.187 1.688 12596
2.305 3.197 1.680 8953
2.308 3.201 1.668 7251
2.319 3.216 1.663 7758
2.326 3.226 1.654 7337
2.337 3.241 1.648 7892
2.340 3.245 1.637 8659
2.347 3.254 1.628 7148
2.454 3.402 1.683 6089
2.339 3.243 1.597 5920
2.472 3.428 1.667 4801
2.492 3.455 1.666 5725
2.499 3.465 1.656 4713
2.541 3.523 1.668 4517
2.495 3.460 1.626 4326
2.502 3.470 1.616 4848
2.688 3.728 1.713 3795
2.660 3.689 1.682 4940
2.659 3.687 1.666 5826
2.644 3.666 1.643 4568
2.743 3.803 1.685 5759
2.746 3.807 1.671 10077
2.753 3.817 1.660 9609
2.751 3.814 1.644 6217
2.740 3.799 1.623 6930
2.747 3.809 1.612 7633
2.750 3.813 1.599 6942
2.752 3.816 1.585 5938
2.887 4.004 1.641 5431
2.894 4.013 1.629 4314
2.901 4.023 1.617 3392
2.904 4.026 1.603 2048
3.057 4.239 1.665 1975
3.078 4.267 1.659 2670
3.111 4.314 1.659 1859
3.216 4.460 1.693 2777
3.219 4.463 1.677 3784
3.213 4.455 1.657 3764
3.215 4.458 1.641 2968
3.240 4.493 1.636 3070
3.354 4.651 1.671 3204
3.361 4.661 1.657 2660
1.824 2.529 0.946 3795
1.821 2.524 0.935 4354
1.822 2.526 0.927 2533
1.846 2.559 0.927 2489
3.513 4.872 1.633 3054
3.714 5.149 1.700 4162
3.725 5.166 1.685 3494
3.728 5.169 1.667 3411
3.726 5.167 1.647 3908
3.729 5.170 1.628 3330
3.731 5.174 1.610 3121
4.027 5.584 1.706 2784
4.025 5.581 1.685 3979
4.032 5.591 1.666 3339
4.057 5.626 1.655 2302
4.069 5.642 1.638 2808
4.171 5.784 1.654 3418
4.169 5.781 1.632 3343
4.398 6.099 1.692 3056
4.564 6.329 1.727 2821
4.563 6.327 1.703 3366
4.574 6.343 1.684 3841
4.591 6.365 1.666 5720
4.593 6.369 1.643 7370
4.591 6.366 1.619 6289
4.594 6.370 1.596 3102
4.851 6.727 1.653 2545
4.612 6.395 1.554 2905
4.615 6.399 1.532 2516
4.923 6.826 1.600 1902
5.299 7.348 1.685 2102
5.311 7.365 1.662 2007
5.126 7.108 1.582 1404
5.604 7.771 1.689 1566
5.611 7.781 1.663 1681
5.852 8.114 1.698 1870
5.850 8.112 1.668 2162
5.843 8.102 1.637 1598
5.997 8.316 1.646 1426
6.183 8.573 1.661 1375
6.497 9.009 1.706 1659
6.500 9.013 1.674 1299
6.562 9.099 1.656 916
6.565 9.103 1.623 1026
7.169 9.940 1.724 1196
7.171 9.944 1.688 1174
7.174 9.948 1.653 1380
7.172 9.945 1.616 1848
7.179 9.955 1.581 1710
7.780 10.787 1.663 1314
7.782 10.791 1.625 1883
7.785 10.794 1.586 1741
7.792 10.804 1.548 1520
7.794 10.807 1.509 1076
8.358 11.590 1.567 587
8.287 11.491 1.513 500
8.285 11.488 1.471 443
8.430 11.689 1.452 411
8.206 11.379 1.376 346
0.619 0.858 0.216 269
0.624 0.865 0.214 592
0.619 0.859 0.211 1024
0.624 0.865 0.208 1721
0.619 0.859 0.205 3169
0.620 0.859 0.202 5209
0.620 0.859 0.199 7048
0.620 0.859 0.196 8116
0.620 0.859 0.193 8205
0.620 0.860 0.190 6957
0.620 0.860 0.187 4939
0.620 0.860 0.184 3432
0.620 0.860 0.181 3208
0.620 0.860 0.178 3960
0.620 0.860 0.175 4544
0.620 0.860 0.172 5044
0.620 0.860 0.170 5719
0.620 0.860 0.167 5929
0.620 0.860 0.164 5777
0.621 0.860 0.161 5310
0.621 0.860 0.158 4128
0.621 0.861 0.155 3168
0.621 0.861 0.152 2601
0.621 0.861 0.149 1745
0.621 0.861 0.146 1226
0.621 0.861 0.143 902
0.625 0.867 0.140 578
0.625 0.867 0.137 545
0.625 0.867 0.134 646
0.621 0.861 0.131 751
0.621 0.861 0.128 768
0.621 0.861 0.125 699
0.621 0.860 0.123 599
0.621 0.860 0.120 467
0.620 0.860 0.117 294
0.995 1.379 0.064 250
3.775 5.234 -0.399 274
3.774 5.233 -0.418 274
3.777 5.238 -0.438 285
3.776 5.237 -0.456 299
2.397 3.324 -0.249 256
1.842 2.554 -0.194 271
1.841 2.553 -0.203 319
1.381 1.899 1.806 3826
1.384 1.903 1.799 7653
1.394 1.917 1.802 7861
1.390 1.911 1.786 6776
1.389 1.909 1.774 5913
1.391 1.913 1.768 7729
1.394 1.917 1.761 9546
1.397 1.921 1.754 9546
1.404 1.930 1.752 11436
1.410 1.939 1.750 13711
1.417 1.948 1.747 12385
1.423 1.957 1.745 11419
1.430 1.966 1.742 9523
1.441 1.981 1.744 8242
1.443 1.985 1.737 9490
1.446 1.988 1.730 10857
1.449 1.992 1.723 11029
1.455 2.001 1.720 9038
1.509 2.075 1.769 9160
1.516 2.084 1.766 7206
1.452 1.996 1.686 6404
1.533 2.108 1.764 5123
1.536 2.112 1.757 5218
1.538 2.115 1.749 5206
1.541 2.119 1.742 5194
1.544 2.123 1.734 4617
1.531 2.105 1.710 4470
1.621 2.229 1.794 6249
1.624 2.233 1.786 8175
1.627 2.237 1.778 7109
1.633 2.246 1.774 6071
1.636 2.250 1.766 6093
1.643 2.259 1.762 6200
1.650 2.268 1.758 5729
1.657 2.278 1.754 5439
1.663 2.287 1.750 4201
1.694 2.330 1.770 3983
1.697 2.334 1.762 4229
1.667 2.293 1.722 4041
1.670 2.297 1.714 4242
1.718 2.362 1.748 5063
1.720 2.365 1.740 6997
1.727 2.375 1.735 7890
1.738 2.390 1.735 7534
1.749 2.405 1.734 6838
1.752 2.409 1.725 7479
1.754 2.412 1.717 8121
1.749 2.405 1.701 9813
1.752 2.408 1.692 11736
1.758 2.418 1.687 11585
1.765 2.427 1.682 9142
1.801 2.476 1.703 8904
1.803 2.480 1.694 11288
1.802 2.478 1.682 11782
1.796 2.470 1.666 10859
1.799 2.474 1.657 8981
1.802 2.477 1.648 7365
1.808 2.486 1.643 8463
1.811 2.490 1.634 10923
1.813 2.494 1.625 10474
1.820 2.503 1.620 7949
1.986 2.731 1.745 5477
1.981 2.723 1.729 5495
2.042 2.808 1.767 6222
2.049 2.818 1.760 7499
2.060 2.833 1.757 7708
2.038 2.802 1.727 8249
2.040 2.806 1.717 8633
2.069 2.844 1.727 11194
2.067 2.842 1.713 14544
2.066 2.840 1.700 13945
2.068 2.844 1.690 10316
2.135 2.935 1.728 7186
2.137 2.939 1.718 5795
2.140 2.943 1.707 5641
2.194 3.017 1.734 7138
2.210 3.038 1.733 7198
2.225 3.060 1.732 9558
2.228 3.063 1.721 10915
2.231 3.067 1.710 8143
2.225 3.059 1.693 6075
2.232 3.069 1.685 7471
2.252 3.096 1.686 11221
2.258 3.105 1.678 13312
2.309 3.174 1.700 10581
2.311 3.178 1.688 13048
2.314 3.182 1.677 9065
2.325 3.197 1.671 5424
2.341 3.219 1.669 5596
2.343 3.222 1.657 8836
2.355 3.238 1.651 11908
2.357 3.241 1.640 10133
2.360 3.245 1.628 7315
2.463 3.386 1.680 7449
2.457 3.378 1.663 5760
2.486 3.418 1.667 4339
2.554 3.512 1.695 4239
2.552 3.509 1.680 6421
2.555 3.513 1.668 7821
2.557 3.516 1.655 6699
2.560 3.520 1.643 5590
2.549 3.505 1.622 4068
2.675 3.678 1.682 5972
2.669 3.670 1.663 6939
2.694 3.704 1.663 5245
2.758 3.792 1.685 6920
2.761 3.796 1.671 12319
2.768 3.806 1.660 12984
2.762 3.797 1.642 9868
2.755 3.789 1.623 10224
2.762 3.798 1.612 10912
2.765 3.802 1.599 11419
2.767 3.805 1.585 10364
2.770 3.808 1.571 7807
2.901 3.989 1.625 5624
2.908 3.999 1.613 3591
2.915 4.009 1.601 1887
1.587 2.182 0.919 2668
1.593 2.190 0.913 2662
3.146 4.326 1.668 1707
3.239 4.453 1.696 2610
3.241 4.457 1.680 3641
3.145 4.325 1.617 3515
3.251 4.470 1.650 3051
3.267 4.492 1.640 3291
3.386 4.656 1.678 3360
3.218 4.425 1.584 3718
3.405 4.682 1.650 3666
3.408 4.686 1.634 3728
1.850 2.544 0.934 4073
3.426 4.711 1.606 2769
3.533 4.858 1.633 3538
3.540 4.867 1.618 4199
3.746 5.151 1.685 3303
3.749 5.154 1.667 3497
3.747 5.152 1.647 4194
3.745 5.149 1.626 4038
3.747 5.152 1.608 3601
4.054 5.574 1.708 2757
4.052 5.571 1.686 4110
4.055 5.575 1.666 3605
4.175 5.741 1.691 2576
4.187 5.757 1.673 2918
4.194 5.767 1.654 3398
4.192 5.765 1.632 3143
4.418 6.075 1.690 2471
4.416 6.073 1.667 2649
4.414 6.070 1.644 3307
4.600 6.325 1.684 2902
4.616 6.347 1.666 3510
4.619 6.351 1.643 4726
4.617 6.348 1.619 4364
4.619 6.351 1.596 2468
4.883 6.714 1.655 2587
4.908 6.749 1.638 1767
5.044 6.935 1.653 1813
5.110 7.027 1.648 2313
5.127 7.049 1.626 2076
5.340 7.343 1.662 1671
5.242 7.208 1.607 1395
5.635 7.748 1.689 1536
5.619 7.727 1.656 1529
5.880 8.085 1.697 2046
5.882 8.088 1.668 2153
5.876 8.079 1.637 1463
5.855 8.051 1.602 1350
6.406 8.808 1.708 1443
6.524 8.971 1.704 1696
6.536 8.987 1.674 1253
6.391 8.787 1.608 1062
6.661 9.159 1.637 1058
6.664 9.162 1.604 1298
6.666 9.166 1.571 1350
7.214 9.919 1.653 1226
7.216 9.923 1.617 1709
7.219 9.926 1.581 1570
7.624 10.483 1.624 1196
7.825 10.760 1.625 1452
7.828 10.763 1.586 1304
7.835 10.773 1.548 1097
7.833 10.770 1.508 765
8.409 11.563 1.568 555
8.120 11.165 1.478 521
8.433 11.595 1.487 480
8.435 11.598 1.446 471
8.432 11.595 1.403 339
0.622 0.855 0.222 321
0.622 0.856 0.219 453
0.622 0.856 0.216 558
0.622 0.856 0.214 761
0.623 0.856 0.211 1031
0.623 0.856 0.208 1442
0.623 0.856 0.205 2213
0.623 0.857 0.202 3222
0.623 0.857 0.199 4178
0.623 0.857 0.196 4719
0.628 0.863 0.193 4905
0.623 0.857 0.190 4675
0.623 0.857 0.187 3825
0.623 0.857 0.184 2871
0.624 0.857 0.181 1942
0.624 0.858 0.178 1382
0.624 0.858 0.175 1412
0.624 0.858 0.172 1445
0.624 0.858 0.170 1336
0.624 0.858 0.167 1326
0.624 0.858 0.164 1558
0.624 0.858 0.161 1783
0.624 0.858 0.158 2042
0.624 0.858 0.155 2225
0.624 0.858 0.152 2159
0.624 0.858 0.149 1773
0.624 0.858 0.146 1384
0.624 0.858 0.143 1098
0.624 0.858 0.140 737
0.624 0.858 0.137 569
0.624 0.858 0.134 492
0.629 0.864 0.131 407
0.624 0.858 0.128 404
0.624 0.858 0.125 371
0.624 0.858 0.123 314
0.629 0.864 0.119 257
2.416 3.322 -0.238 265
2.415 3.321 -0.249 265
1.390 1.893 1.806 3713
1.393 1.897 1.799 7427
1.403 1.911 1.802 7760
1.402 1.910 1.790 6483
1.397 1.903 1.774 5519
1.400 1.907 1.768 7161
1.403 1.911 1.761 8802
1.406 1.914 1.754 8802
1.413 1.924 1.752 10287
1.419 1.933 1.750 11925
1.422 1.936 1.743 10533
1.429 1.945 1.740 9311
1.439 1.960 1.742 8343
1.450 1.974 1.744 8197
1.452 1.978 1.737 8893
1.459 1.987 1.735 9660
1.458 1.985 1.723 9732
1.461 1.989 1.716 7769
1.522 2.073 1.774 7963
1.529 2.082 1.771 6375
1.461 1.989 1.686 6008
1.547 2.106 1.769 6200
1.545 2.104 1.757 6891
1.548 2.108 1.749 6292
1.551 2.112 1.742 5694
1.554 2.116 1.734 4807
1.616 2.201 1.789 5265
1.627 2.216 1.790 7197
1.630 2.220 1.782 9244
1.637 2.229 1.778 7584
1.644 2.238 1.774 6204
1.651 2.248 1.770 5476
1.653 2.251 1.762 4819
1.664 2.266 1.762 4469
1.671 2.276 1.758 4344
1.674 2.279 1.750 4236
1.689 2.300 1.754 4785
1.688 2.298 1.742 5115
1.682 2.291 1.726 4077
1.730 2.355 1.761 3236
1.733 2.359 1.752 5408
1.731 2.357 1.740 7640
1.738 2.367 1.735 8524
1.749 2.382 1.735 7894
1.764 2.402 1.738 7313
1.763 2.400 1.725 8982
1.766 2.404 1.717 10897
1.764 2.402 1.704 12545
1.767 2.406 1.696 14272
1.770 2.410 1.687 14329
1.776 2.419 1.682 12211
1.812 2.468 1.703 8762
1.819 2.477 1.698 10280
1.818 2.475 1.685 9421
1.808 2.462 1.666 8376
1.806 2.460 1.653 7439
1.813 2.469 1.648 6162
1.824 2.484 1.647 7573
1.827 2.487 1.638 10151
1.829 2.491 1.629 10156
1.832 2.494 1.620 8421
1.843 2.509 1.618 6540
2.010 2.737 1.743 4919
2.059 2.804 1.770 6140
2.066 2.814 1.764 6984
2.027 2.760 1.720 7596
2.046 2.787 1.724 8491
2.053 2.796 1.717 8490
2.082 2.835 1.727 10858
2.080 2.833 1.713 13685
2.079 2.831 1.700 13031
2.145 2.922 1.738 9728
2.148 2.925 1.728 6570
2.147 2.923 1.714 4637
2.201 2.997 1.742 4511
2.204 3.001 1.731 6817
2.228 3.034 1.736 7385
2.244 3.055 1.735 12779
2.246 3.059 1.724 14500
2.249 3.063 1.713 11625
2.260 3.078 1.708 9730
2.250 3.064 1.688 11317
2.266 3.085 1.686 15802
2.273 3.095 1.678 18869
2.275 3.099 1.667 12579
2.322 3.161 1.685 11725
2.329 3.171 1.677 7836
2.340 3.186 1.671 3824
2.360 3.214 1.671 6072
2.363 3.217 1.660 11611
2.370 3.227 1.651 15205
2.372 3.230 1.640 13074
2.371 3.228 1.625 9382
2.478 3.375 1.680 7874
2.477 3.373 1.665 6372
2.559 3.484 1.702 4795
2.570 3.500 1.695 5856
2.573 3.503 1.683 8314
2.571 3.501 1.668 10434
2.569 3.499 1.652 9130
2.576 3.508 1.643 7352
2.579 3.512 1.630 4725
2.692 3.666 1.682 7370
2.686 3.658 1.663 8776
2.711 3.691 1.663 6335
2.780 3.786 1.687 7837
2.778 3.783 1.671 13072
2.781 3.787 1.658 13101
2.779 3.784 1.642 10916
2.773 3.776 1.623 12272
2.780 3.785 1.612 13226
2.782 3.789 1.599 13682
2.785 3.792 1.585 12335
2.787 3.796 1.571 9233
2.920 3.976 1.625 6663
2.792 3.802 1.544 4170
1.609 2.191 0.933 3496
1.610 2.193 0.926 5021
1.612 2.195 0.918 5604
1.613 2.197 0.910 3407
3.178 4.328 1.656 2646
3.172 4.319 1.637 3492
3.170 4.316 1.619 4811
3.181 4.332 1.608 4256
3.211 4.372 1.605 4647
3.236 4.407 1.599 6382
3.239 4.410 1.584 7110
3.246 4.420 1.570 5638
3.434 4.676 1.636 4641
3.446 4.692 1.623 3957
3.453 4.702 1.608 3679
3.555 4.841 1.633 3294
3.562 4.851 1.618 4271
3.779 5.146 1.689 3002
3.777 5.143 1.669 3478
3.770 5.134 1.647 3858
3.768 5.132 1.626 4217
3.771 5.135 1.608 3372
4.084 5.561 1.710 2609
4.078 5.553 1.686 3983
4.080 5.556 1.666 3560
4.202 5.722 1.691 2599
4.209 5.732 1.672 2805
4.221 5.748 1.654 3180
4.219 5.745 1.632 2906
4.217 5.742 1.610 1818
4.440 6.046 1.665 2293
4.442 6.049 1.644 3584
4.450 6.059 1.623 2844
4.517 6.150 1.623 2301
4.648 6.329 1.643 3349
4.651 6.333 1.620 3472
4.653 6.336 1.597 2730
4.923 6.703 1.657 2202
4.939 6.726 1.638 1549
5.159 7.025 1.678 2011
5.189 7.066 1.661 2702
5.164 7.032 1.628 2285
5.005 6.815 1.556 1675
5.275 7.183 1.607 1420
5.287 7.199 1.584 1666
5.424 7.386 1.594 1510
5.917 8.057 1.697 2045
5.920 8.061 1.668 2084
5.913 8.052 1.637 1371
6.407 8.724 1.730 1612
6.447 8.779 1.708 1474
6.561 8.934 1.703 1840
6.438 8.767 1.641 1417
6.431 8.758 1.608 1392
6.694 9.115 1.634 1267
6.701 9.125 1.603 1435
6.708 9.135 1.571 1378
7.260 9.885 1.653 1099
7.262 9.889 1.617 1436
7.265 9.892 1.581 1248
7.668 10.441 1.623 1143
7.670 10.444 1.586 1127
7.873 10.720 1.585 835
8.332 11.346 1.628 792
8.334 11.349 1.587 728
8.458 11.518 1.567 622
8.475 11.540 1.528 737
8.486 11.556 1.487 878
8.489 11.559 1.446 778
8.491 11.562 1.404 517
8.376 11.406 1.345 252
0.626 0.852 0.222 375
0.626 0.853 0.219 560
0.626 0.853 0.216 703
0.626 0.853 0.214 897
0.627 0.853 0.211 1100
0.627 0.853 0.208 1298
0.627 0.854 0.205 1607
0.627 0.854 0.202 1759
0.627 0.854 0.199 1789
0.627 0.854 0.196 1802
0.632 0.860 0.193 1666
0.632 0.861 0.190 1532
0.632 0.861 0.188 1457
0.632 0.861 0.185 1272
0.628 0.855 0.181 1203
0.628 0.855 0.178 1108
0.628 0.855 0.175 766
0.628 0.855 0.172 578
0.628 0.855 0.170 477
0.628 0.855 0.167 319
0.628 0.855 0.164 298
0.628 0.855 0.161 405
0.628 0.855 0.158 461
0.628 0.855 0.155 442
0.628 0.855 0.152 432
0.628 0.855 0.149 450
0.628 0.855 0.146 481
0.628 0.855 0.143 462
0.628 0.855 0.140 418
0.628 0.855 0.137 361
0.628 0.855 0.134 250
0.881 1.199 -0.015 343
0.885 1.205 -0.020 507
0.885 1.205 -0.024 553
0.880 1.198 -0.027 741
1.396 1.888 1.806 3604
1.399 1.892 1.799 7208
1.409 1.906 1.802 7715
1.408 1.905 1.790 6178
1.407 1.904 1.779 4935
1.406 1.902 1.768 6311
1.409 1.906 1.761 7705
1.412 1.910 1.754 7705
1.415 1.914 1.747 8739
1.421 1.923 1.745 10022
1.424 1.927 1.738 8825
1.427 1.930 1.731 7629
1.441 1.950 1.738 7286
1.452 1.964 1.740 8140
1.459 1.973 1.737 8267
1.461 1.977 1.730 8415
1.464 1.981 1.723 8416
1.526 2.064 1.781 7266
1.533 2.074 1.778 6994
1.547 2.094 1.784 6257
1.554 2.103 1.780 6470
1.553 2.101 1.769 7231
1.556 2.105 1.761 8204
1.559 2.109 1.754 7572
1.562 2.113 1.746 6939
1.564 2.116 1.739 5604
1.619 2.191 1.785 6134
1.630 2.205 1.786 8078
1.633 2.209 1.778 10217
1.644 2.224 1.778 8066
1.651 2.233 1.774 6455
1.653 2.237 1.766 4947
1.660 2.246 1.762 3458
1.635 2.212 1.726 3372
1.633 2.210 1.714 4089
1.689 2.285 1.758 3987
1.696 2.294 1.754 5625
1.699 2.298 1.746 5950
1.706 2.308 1.742 4323
1.741 2.356 1.764 3201
1.740 2.354 1.752 5606
1.739 2.352 1.740 8230
1.745 2.361 1.735 9174
1.752 2.371 1.731 8777
1.772 2.397 1.738 7956
1.766 2.389 1.721 10771
1.769 2.393 1.713 13642
1.772 2.397 1.704 14978
1.774 2.400 1.696 16572
1.777 2.404 1.687 16831
1.784 2.413 1.682 15332
1.803 2.440 1.688 10036
1.831 2.477 1.701 9314
1.817 2.458 1.678 7769
1.807 2.445 1.659 6961
1.810 2.448 1.650 6566
1.871 2.531 1.691 5629
1.870 2.529 1.678 8202
1.872 2.533 1.669 8887
1.837 2.485 1.629 8635
1.844 2.494 1.623 7868
1.855 2.509 1.621 7130
2.048 2.771 1.767 5320
2.068 2.798 1.770 6102
2.033 2.750 1.730 6990
2.035 2.754 1.720 7927
2.051 2.775 1.720 8286
2.062 2.790 1.717 8103
2.090 2.828 1.727 9024
2.089 2.826 1.713 11111
2.087 2.824 1.700 10620
2.159 2.921 1.742 9134
2.157 2.919 1.728 5610
2.147 2.905 1.708 3375
2.107 2.850 1.666 3542
2.213 2.994 1.731 5183
2.246 3.039 1.743 7906
2.253 3.048 1.735 15272
2.256 3.052 1.724 17763
2.263 3.062 1.716 15962
2.266 3.065 1.705 14796
2.264 3.063 1.691 15687
2.271 3.073 1.683 19617
2.278 3.082 1.675 23184
2.281 3.086 1.664 15865
2.323 3.142 1.679 9419
2.282 3.087 1.639 6440
2.284 3.090 1.628 3747
2.366 3.201 1.669 6006
2.373 3.210 1.660 12457
2.380 3.220 1.651 16399
2.382 3.223 1.640 14119
2.385 3.227 1.628 9612
2.489 3.367 1.680 7182
2.492 3.371 1.668 6354
2.574 3.482 1.705 6526
2.581 3.492 1.695 7433
2.584 3.495 1.683 9704
2.582 3.493 1.668 12237
2.584 3.497 1.655 10864
2.587 3.500 1.643 8442
2.594 3.510 1.633 5690
2.699 3.652 1.679 8904
2.697 3.649 1.663 10654
2.700 3.653 1.650 8200
2.738 3.705 1.657 7633
2.790 3.775 1.671 11394
2.793 3.778 1.658 10394
2.786 3.770 1.639 8628
2.784 3.767 1.623 10477
2.791 3.777 1.612 11915
2.794 3.780 1.599 12473
2.797 3.784 1.585 11136
2.799 3.787 1.571 8391
2.932 3.967 1.625 5815
2.804 3.794 1.544 4019
1.616 2.186 0.933 4156
1.622 2.194 0.928 4189
1.619 2.190 0.918 3286
1.629 2.204 0.915 2431
3.191 4.318 1.656 3074
3.194 4.321 1.641 4471
3.188 4.313 1.621 5455
3.240 4.384 1.629 5679
3.252 4.399 1.617 7614
3.254 4.403 1.601 11021
3.252 4.400 1.584 12000
3.259 4.410 1.570 11166
3.262 4.413 1.554 9706
3.264 4.416 1.538 7054
3.267 4.419 1.522 5169
3.269 4.423 1.506 3677
3.582 4.846 1.620 3754
3.790 5.128 1.687 2650
3.793 5.131 1.669 3325
3.791 5.129 1.648 3414
3.789 5.126 1.628 3714
3.787 5.123 1.608 2592
3.890 5.263 1.628 2227
4.099 5.546 1.688 3559
4.093 5.537 1.665 3408
4.215 5.703 1.689 2396
4.222 5.712 1.670 2518
4.234 5.728 1.653 2871
4.237 5.732 1.632 2504
4.410 5.966 1.671 1858
4.638 6.275 1.727 2064
4.466 6.042 1.645 3119
4.473 6.052 1.625 2747
4.665 6.311 1.666 2543
4.667 6.315 1.643 3548
4.670 6.318 1.620 3818
4.673 6.322 1.597 3512
4.675 6.325 1.574 2355
5.048 6.830 1.664 1594
5.180 7.009 1.678 2086
5.211 7.050 1.661 2859
5.209 7.047 1.635 2419
5.030 6.806 1.558 1731
5.381 7.280 1.630 1693
5.314 7.189 1.585 1783
5.447 7.369 1.594 1679
5.937 8.033 1.696 2101
5.944 8.042 1.668 2078
6.431 8.701 1.762 1382
6.434 8.705 1.730 1822
6.437 8.708 1.699 1564
6.584 8.907 1.702 1865
6.470 8.753 1.642 1630
6.463 8.744 1.609 1535
6.988 9.454 1.694 1393
6.729 9.104 1.603 1491
6.732 9.108 1.570 1338
7.468 10.103 1.690 1173
7.293 9.866 1.617 1089
7.300 9.876 1.582 861
7.700 10.417 1.623 1078
7.702 10.421 1.586 1164
8.364 11.316 1.669 784
8.367 11.320 1.628 840
8.369 11.323 1.587 762
8.555 11.574 1.577 554
8.520 11.526 1.529 734
8.522 11.530 1.487 834
8.524 11.533 1.446 693
8.531 11.542 1.405 481
0.629 0.850 0.225 423
0.629 0.851 0.222 415
0.629 0.851 0.219 536
0.629 0.851 0.216 702
0.629 0.851 0.214 931
0.629 0.851 0.211 1132
0.629 0.851 0.208 1258
0.629 0.852 0.205 1355
0.630 0.852 0.202 1293
0.630 0.852 0.199 1108
0.630 0.852 0.196 887
0.630 0.852 0.193 620
0.630 0.852 0.190 664
0.630 0.852 0.187 1016
0.630 0.852 0.184 1141
0.630 0.853 0.181 1136
0.630 0.853 0.178 972
0.630 0.853 0.175 632
0.630 0.853 0.172 445
0.630 0.853 0.170 276
0.635 0.859 0.161 258
0.631 0.853 0.158 315
0.631 0.853 0.155 316
0.631 0.853 0.152 298
0.631 0.853 0.149 294
0.631 0.853 0.146 307
0.631 0.853 0.143 281
1.876 2.539 -0.195 266
0.880 1.190 -0.018 435
0.875 1.183 -0.022 553
0.874 1.183 -0.026 697
1.404 1.882 1.806 3547
1.407 1.886 1.799 7094
1.422 1.905 1.806 7755
1.421 1.904 1.795 6037
1.439 1.929 1.806 4592
1.415 1.896 1.768 5179
1.418 1.900 1.761 6095
1.420 1.904 1.754 6095
1.423 1.907 1.747 6926
1.430 1.916 1.745 7786
1.429 1.915 1.734 7219
1.432 1.919 1.727 6680
1.446 1.938 1.733 6590
1.461 1.958 1.740 7991
1.468 1.967 1.737 7459
1.530 2.050 1.796 7188
1.532 2.054 1.788 8403
1.535 2.058 1.781 7208
1.546 2.072 1.782 6422
1.561 2.092 1.788 6378
1.568 2.101 1.785 7110
1.567 2.100 1.773 7951
1.565 2.098 1.761 9211
1.568 2.102 1.754 8756
1.571 2.106 1.746 8300
1.574 2.109 1.739 6644
1.629 2.183 1.785 6604
1.636 2.192 1.781 8501
1.643 2.202 1.778 10611
1.650 2.211 1.774 8194
1.661 2.226 1.774 6531
1.660 2.224 1.762 4605
1.646 2.206 1.738 3437
1.645 2.204 1.726 4156
1.643 2.202 1.714 4964
1.650 2.212 1.710 4623
1.706 2.287 1.754 5983
1.709 2.291 1.746 6158
1.716 2.300 1.742 4821
1.723 2.309 1.737 3549
1.726 2.313 1.729 5910
1.741 2.333 1.732 8641
1.752 2.348 1.732 9551
1.763 2.363 1.731 9393
1.770 2.372 1.726 8639
1.777 2.381 1.721 11994
1.780 2.385 1.713 15357
1.782 2.389 1.704 16173
1.785 2.392 1.696 17495
1.788 2.396 1.687 18001
1.795 2.405 1.682 17165
1.802 2.414 1.677 11709
1.825 2.446 1.687 9123
1.824 2.444 1.675 7516
1.810 2.425 1.651 6713
1.808 2.423 1.639 6282
1.874 2.512 1.684 6576
1.881 2.521 1.678 9502
1.884 2.524 1.669 10263
1.882 2.522 1.657 8317
1.863 2.497 1.630 7312
1.866 2.501 1.621 7183
1.881 2.521 1.623 5783
2.076 2.783 1.767 5862
2.045 2.741 1.730 6614
2.048 2.744 1.720 7731
2.055 2.754 1.714 7809
2.075 2.780 1.717 7260
2.090 2.801 1.717 6651
2.102 2.817 1.713 7739
2.169 2.907 1.752 8356
2.172 2.911 1.742 8126
2.175 2.915 1.731 5369
2.147 2.878 1.698 3412
2.193 2.939 1.720 3462
2.213 2.966 1.722 4182
2.264 3.034 1.746 8515
2.271 3.044 1.738 16281
2.274 3.048 1.727 20036
2.277 3.051 1.716 19623
2.279 3.055 1.705 18900
2.278 3.053 1.691 19289
2.285 3.062 1.683 22685
2.292 3.072 1.675 26003
2.295 3.075 1.664 18189
2.293 3.073 1.650 10163
2.296 3.076 1.639 7270
2.298 3.080 1.628 4235
2.380 3.190 1.669 5284
2.387 3.199 1.660 10907
2.394 3.209 1.651 14660
2.397 3.212 1.640 12528
2.400 3.216 1.628 8332
2.504 3.356 1.680 5954
2.507 3.360 1.668 5930
2.590 3.470 1.705 7414
2.597 3.480 1.695 8300
2.599 3.484 1.683 9989
2.598 3.481 1.668 12315
2.600 3.485 1.655 11203
2.607 3.494 1.645 8626
2.610 3.498 1.633 6376
2.716 3.639 1.679 10049
2.709 3.631 1.661 12197
2.712 3.634 1.648 10046
2.715 3.638 1.635 8536
2.812 3.768 1.674 8891
2.747 3.681 1.623 7780
2.794 3.745 1.634 6010
2.801 3.754 1.623 8015
2.809 3.764 1.612 9519
2.811 3.767 1.599 9474
2.814 3.771 1.585 7801
2.816 3.774 1.571 5771
2.955 3.960 1.627 5094
2.975 3.987 1.622 3051
1.626 2.179 0.933 1536
1.641 2.199 0.932 1883
1.642 2.201 0.925 2571
1.644 2.203 0.917 2548
3.211 4.303 1.656 3200
3.214 4.307 1.641 5386
3.216 4.310 1.625 5942
3.264 4.375 1.631 6989
3.272 4.384 1.617 10153
3.274 4.388 1.601 14090
3.277 4.391 1.586 15302
3.279 4.395 1.570 15262
3.282 4.398 1.554 14080
3.284 4.401 1.538 10725
3.287 4.405 1.522 8194
3.289 4.408 1.506 6057
3.296 4.417 1.492 3755
3.625 4.858 1.610 2241
3.816 5.114 1.669 2507
3.814 5.111 1.648 2603
3.817 5.115 1.630 2872
3.907 5.236 1.645 2517
3.919 5.252 1.630 2729
4.125 5.528 1.688 2988
4.113 5.513 1.663 3090
4.222 5.659 1.682 2497
4.239 5.681 1.667 2483
4.255 5.703 1.651 2662
4.258 5.706 1.630 2301
4.437 5.946 1.671 2837
4.444 5.956 1.651 2676
4.674 6.264 1.706 3138
4.681 6.274 1.685 3009
4.693 6.290 1.666 3772
4.696 6.293 1.643 4887
4.699 6.297 1.620 4813
4.701 6.300 1.597 4200
4.699 6.298 1.573 2805
5.079 6.807 1.664 1801
5.212 6.985 1.678 2021
5.238 7.020 1.660 2761
5.236 7.017 1.633 2433
5.411 7.252 1.656 1728
5.414 7.256 1.630 2132
5.417 7.259 1.604 2040
5.480 7.344 1.594 1697
5.978 8.012 1.697 1924
5.981 8.015 1.668 1913
6.470 8.671 1.762 1393
6.473 8.675 1.730 1759
6.471 8.673 1.698 1637
6.521 8.739 1.677 1963
6.514 8.730 1.644 1817
6.503 8.715 1.609 1537
7.026 9.416 1.693 1677
7.024 9.414 1.658 1454
7.520 10.078 1.728 1315
7.518 10.075 1.691 1345
7.525 10.085 1.655 971
7.914 10.605 1.694 860
7.752 10.388 1.624 1014
7.749 10.386 1.586 1206
7.752 10.389 1.548 878
8.418 11.282 1.628 833
8.421 11.285 1.587 750
8.602 11.528 1.576 514
8.586 11.507 1.531 694
8.579 11.497 1.488 623
0.632 0.847 0.231 499
0.632 0.847 0.228 616
0.632 0.847 0.225 637
0.633 0.848 0.222 584
0.633 0.848 0.219 538
0.633 0.848 0.216 540
0.633 0.848 0.214 642
0.633 0.848 0.211 775
0.633 0.849 0.208 895
0.633 0.849 0.205 1038
0.633 0.849 0.202 1073
0.634 0.849 0.199 986
0.634 0.849 0.196 822
0.634 0.849 0.193 625
0.634 0.849 0.190 602
0.634 0.849 0.187 799
0.634 0.850 0.184 944
0.634 0.850 0.181 1035
0.634 0.850 0.178 1128
0.634 0.850 0.175 1084
0.634 0.850 0.172 1026
0.634 0.850 0.170 956
0.634 0.850 0.167 712
0.634 0.850 0.164 542
0.634 0.850 0.161 484
0.634 0.850 0.158 372
0.634 0.850 0.155 340
0.635 0.850 0.152 335
0.635 0.850 0.149 286
1.888 2.530 -0.195 325
1.887 2.529 -0.204 429
0.880 1.179 -0.022 398
0.880 1.179 -0.026 500
1.411 1.877 1.806 3846
1.417 1.886 1.804 7733
1.424 1.895 1.802 8543
1.431 1.904 1.800 6571
1.449 1.929 1.811 5065
1.452 1.933 1.804 4835
1.459 1.942 1.802 4752
1.462 1.946 1.795 4752
1.469 1.955 1.792 5321
1.476 1.964 1.790 6082
1.439 1.915 1.738 5694
1.442 1.919 1.731 6426
1.453 1.933 1.733 6828
1.463 1.947 1.735 7799
1.530 2.035 1.799 7576
1.536 2.045 1.796 8636
1.535 2.043 1.784 9612
1.542 2.052 1.781 7537
1.557 2.072 1.787 6390
1.572 2.092 1.792 6911
1.579 2.101 1.789 7880
1.574 2.094 1.773 8658
1.573 2.093 1.761 10079
1.575 2.096 1.754 10258
1.578 2.100 1.746 10437
1.581 2.104 1.739 8450
1.632 2.172 1.781 6929
1.639 2.182 1.777 8601
1.646 2.191 1.774 10446
1.657 2.205 1.774 7933
1.668 2.220 1.774 6430
1.667 2.218 1.762 4727
1.649 2.195 1.734 4246
1.652 2.199 1.726 5093
1.659 2.208 1.722 5941
1.662 2.212 1.714 5094
1.718 2.286 1.758 5668
1.721 2.290 1.750 5500
1.720 2.288 1.738 5434
1.718 2.287 1.726 5636
1.729 2.301 1.725 7727
1.732 2.305 1.717 10186
1.756 2.336 1.728 9770
1.771 2.357 1.731 9716
1.778 2.366 1.726 9036
1.785 2.375 1.721 12601
1.788 2.379 1.713 16244
1.790 2.383 1.704 16288
1.797 2.392 1.700 17188
1.796 2.390 1.687 18032
1.803 2.399 1.682 17883
1.810 2.408 1.677 13052
1.834 2.440 1.687 9915
1.819 2.421 1.664 7454
1.814 2.413 1.648 6118
1.808 2.406 1.632 6276
1.883 2.505 1.684 7691
1.890 2.515 1.678 10498
1.892 2.518 1.669 11411
1.891 2.516 1.657 9907
1.885 2.508 1.641 7410
1.879 2.500 1.625 6722
1.894 2.521 1.626 5987
2.090 2.781 1.770 5550
2.050 2.728 1.726 5202
2.057 2.737 1.720 6119
2.068 2.753 1.717 6314
2.084 2.773 1.717 5637
2.096 2.789 1.714 3909
2.176 2.896 1.763 5111
2.183 2.906 1.755 7124
2.186 2.909 1.745 7044
2.163 2.878 1.715 6457
2.161 2.876 1.702 4712
2.208 2.938 1.723 5082
2.215 2.947 1.716 6833
2.274 3.027 1.746 8883
2.281 3.036 1.738 15997
2.284 3.040 1.727 21163
2.287 3.044 1.716 22620
2.290 3.047 1.705 22399
2.288 3.045 1.691 22778
2.295 3.054 1.683 25866
2.298 3.058 1.672 27590
2.301 3.062 1.661 19141
2.303 3.065 1.650 10470
2.306 3.069 1.639 7376
2.309 3.072 1.628 4444
2.395 3.188 1.671 4351
2.398 3.191 1.660 7269
2.405 3.201 1.651 9933
2.408 3.204 1.640 8603
2.410 3.208 1.628 5841
2.524 3.359 1.686 4737
2.523 3.357 1.671 5154
2.601 3.462 1.705 7160
2.608 3.471 1.695 8443
2.611 3.475 1.683 9411
2.609 3.472 1.668 10764
2.617 3.482 1.658 10233
2.624 3.491 1.648 7823
2.698 3.591 1.677 6944
2.723 3.624 1.677 10055
2.722 3.622 1.661 12414
2.729 3.631 1.650 10724
2.727 3.629 1.635 9180
2.775 3.692 1.646 8935
2.759 3.672 1.623 7135
2.771 3.687 1.615 4856
2.819 3.751 1.626 4725
2.826 3.760 1.615 4809
2.874 3.824 1.625 5016
2.872 3.822 1.609 5064
2.870 3.819 1.592 4044
2.977 3.962 1.632 4338
2.989 3.977 1.622 3516
1.647 2.192 0.940 2293
1.648 2.193 0.932 2456
1.650 2.195 0.925 1883
1.656 2.203 0.919 3177
1.657 2.205 0.911 3601
3.228 4.296 1.641 5285
3.231 4.299 1.625 6188
3.284 4.370 1.633 6800
3.291 4.380 1.619 10712
3.289 4.377 1.601 14507
3.292 4.380 1.586 15840
3.294 4.384 1.570 17035
3.297 4.387 1.554 16852
3.294 4.384 1.536 13529
3.297 4.387 1.520 10494
3.304 4.397 1.506 7705
3.311 4.406 1.492 4628
3.692 4.913 1.631 2582
3.676 4.892 1.605 2613
3.873 5.154 1.665 3031
3.880 5.164 1.648 3052
3.929 5.229 1.647 2543
3.936 5.239 1.630 2837
4.106 5.464 1.674 2472
4.113 5.474 1.656 3320
4.116 5.477 1.636 2218
4.249 5.654 1.663 2346
4.270 5.682 1.649 2407
4.515 6.008 1.714 2492
4.461 5.937 1.673 4523
4.469 5.947 1.653 4757
4.700 6.254 1.708 3645
4.707 6.264 1.687 4187
4.715 6.274 1.666 5584
4.713 6.271 1.641 6817
4.720 6.281 1.620 6088
4.722 6.285 1.597 4786
4.720 6.282 1.573 3070
5.097 6.783 1.663 1756
5.226 6.955 1.676 1858
5.220 6.946 1.648 2311
5.246 6.981 1.629 2171
5.436 7.234 1.656 1785
5.434 7.231 1.629 2280
5.497 7.316 1.619 2312
5.500 7.319 1.593 1623
6.005 7.992 1.697 1449
6.008 7.995 1.668 1414
6.500 8.650 1.762 1342
6.503 8.653 1.730 1535
6.505 8.657 1.699 1653
6.546 8.711 1.676 2230
6.544 8.708 1.644 1974
7.046 9.376 1.725 1663
7.053 9.386 1.692 2034
7.056 9.390 1.658 1726
7.549 10.046 1.727 1392
7.557 10.056 1.692 1589
7.555 10.054 1.654 1320
7.548 10.044 1.616 993
7.947 10.576 1.655 961
7.794 10.372 1.587 1201
7.792 10.369 1.549 1020
7.964 10.599 1.541 780
8.473 11.276 1.590 724
8.494 11.304 1.552 588
8.625 11.477 1.531 569
8.622 11.474 1.489 457
8.251 10.980 1.390 448
8.622 11.474 1.405 299
0.635 0.845 0.225 306
0.635 0.846 0.222 371
0.636 0.846 0.219 344
0.636 0.847 0.205 330
0.636 0.847 0.202 436
0.636 0.847 0.199 601
0.636 0.847 0.196 764
0.637 0.847 0.193 885
0.637 0.847 0.190 969
0.637 0.847 0.187 911
0.637 0.847 0.184 819
