3.239 3.669 1.694 5038
3.242 3.673 1.679 7455
3.249 3.682 1.668 6170
3.262 3.696 1.658 6593
3.265 3.700 1.644 7246
3.318 3.760 1.653 9437
3.316 3.757 1.636 9536
3.319 3.760 1.621 9029
3.322 3.764 1.607 8868
3.325 3.767 1.592 9566
3.328 3.770 1.578 9824
3.582 4.059 1.672 10999
3.580 4.056 1.654 11294
3.588 4.065 1.641 8692
3.586 4.063 1.623 7961
3.599 4.077 1.612 6419
3.824 4.333 1.687 4506
3.883 4.399 1.693 3893
3.896 4.414 1.680 5574
3.899 4.417 1.663 5736
3.947 4.472 1.663 5547
3.976 4.505 1.656 9289
3.984 4.514 1.640 9470
4.007 4.540 1.631 8078
4.005 4.537 1.611 7943
4.008 4.541 1.594 10052
4.010 4.544 1.576 11096
4.013 4.547 1.559 9170
4.016 4.550 1.541 8319
4.366 4.946 1.644 6194
4.369 4.950 1.625 5506
4.377 4.959 1.607 3839
4.512 5.113 1.633 2133
4.515 5.116 1.613 1840
4.764 5.398 1.673 3089
4.762 5.395 1.650 2900
5.026 5.695 1.712 2378
5.045 5.716 1.695 1651
5.299 6.004 1.749 1550
5.307 6.013 1.728 2516
5.305 6.011 1.703 4109
5.308 6.014 1.680 4133
5.445 6.169 1.695 3181
5.541 6.278 1.697 3098
5.539 6.275 1.672 3631
5.542 6.279 1.647 3511
5.550 6.288 1.624 2745
5.764 6.531 1.656 2280
5.767 6.534 1.631 3010
5.770 6.537 1.605 2941
6.114 6.927 1.666 2001
6.292 7.129 1.682 2237
6.285 7.121 1.652 1800
6.500 7.365 1.675 1300
6.508 7.374 1.648 1501
6.786 7.688 1.682 1893
6.789 7.691 1.652 2099
6.791 7.695 1.622 1454
7.183 8.139 1.676 1283
7.197 8.154 1.647 1248
7.215 8.175 1.618 1601
7.218 8.178 1.586 1514
7.558 8.563 1.621 1778
7.556 8.561 1.587 1547
8.063 9.135 1.649 983
8.586 9.728 1.709 829
8.116 9.195 1.586 738
8.384 9.499 1.597 891
8.386 9.502 1.560 1057
8.389 9.505 1.523 930
9.111 10.322 1.602 925
9.119 10.331 1.563 921
9.116 10.329 1.522 481
9.463 10.721 1.533 374
9.476 10.736 1.493 317
2.442 2.767 0.463 276
2.437 2.761 0.452 372
2.438 2.762 0.441 355
2.444 2.769 0.431 337
2.235 2.532 0.396 351
2.236 2.533 0.387 449
2.241 2.539 0.377 497
2.242 2.540 0.368 457
2.247 2.546 0.359 340
2.248 2.547 0.349 282
2.248 2.547 0.339 295
2.406 2.725 0.343 296
1.606 1.819 0.267 495
1.601 1.813 0.260 768
1.601 1.814 0.253 885
1.601 1.814 0.246 928
1.606 1.820 0.240 1238
1.612 1.826 0.233 1554
1.617 1.832 0.226 1706
1.617 1.833 0.219 1646
1.618 1.833 0.212 1391
1.618 1.833 0.205 1059
1.618 1.833 0.198 851
1.618 1.833 0.191 1017
1.613 1.827 0.184 938
1.613 1.827 0.177 815
1.613 1.827 0.170 661
1.613 1.828 0.163 460
1.618 1.834 0.156 419
1.624 1.839 0.149 325
1.520 1.715 1.788 5023
1.524 1.719 1.781 10046
1.527 1.722 1.775 10046
1.534 1.731 1.773 10653
1.546 1.744 1.775 12332
1.549 1.748 1.769 9605
1.578 1.780 1.790 8582
1.581 1.784 1.783 8582
1.593 1.797 1.785 11344
1.596 1.801 1.778 14329
1.599 1.804 1.771 15483
1.598 1.803 1.760 16643
1.601 1.806 1.753 13209
1.604 1.810 1.746 9774
1.625 1.833 1.757 11905
1.628 1.837 1.750 14427
1.627 1.835 1.739 14437
1.630 1.839 1.732 15804
1.633 1.842 1.725 17105
1.640 1.850 1.722 14609
1.648 1.859 1.719 12346
1.646 1.857 1.708 8821
1.627 1.836 1.679 5995
1.648 1.859 1.689 5488
1.655 1.868 1.686 5384
1.738 1.961 1.755 4831
1.742 1.965 1.748 4714
1.745 1.968 1.740 4975
1.725 1.946 1.712 5840
1.764 1.990 1.737 7560
1.772 1.999 1.734 10945
1.779 2.007 1.730 10428
1.787 2.016 1.727 10165
1.799 2.030 1.727 10824
1.807 2.038 1.724 12375
1.810 2.042 1.716 12528
1.813 2.045 1.708 11112
1.811 2.043 1.696 9636
1.814 2.047 1.688 8324
1.817 2.050 1.680 7012
1.829 2.064 1.680 6903
1.851 2.088 1.688 7810
1.886 2.127 1.707 6930
1.893 2.136 1.703 9347
1.901 2.144 1.699 11094
1.908 2.153 1.694 8963
1.948 2.198 1.716 8137
1.956 2.207 1.712 6893
1.959 2.210 1.703 5865
1.957 2.208 1.691 6019
1.965 2.217 1.686 5926
1.973 2.225 1.682 8597
1.976 2.229 1.673 11240
1.983 2.237 1.668 11333
1.986 2.241 1.660 8628
2.031 2.291 1.683 6119
2.034 2.295 1.675 6592
2.075 2.340 1.694 7635
2.078 2.344 1.685 10121
2.085 2.353 1.680 12443
2.098 2.367 1.678 13042
2.101 2.370 1.669 11011
2.099 2.368 1.656 10833
2.239 2.526 1.747 10556
2.242 2.529 1.738 10651
2.245 2.533 1.728 11830
2.248 2.536 1.718 14037
2.237 2.524 1.698 15328
2.230 2.516 1.682 16340
2.233 2.520 1.672 16116
2.232 2.518 1.659 13394
2.292 2.586 1.689 11844
2.285 2.578 1.673 14619
2.293 2.587 1.666 16569
2.301 2.596 1.659 16968
2.299 2.594 1.646 18143
2.302 2.597 1.636 19920
2.305 2.600 1.626 16601
2.308 2.603 1.616 11232
2.426 2.737 1.681 11226
2.429 2.741 1.670 9726
2.427 2.738 1.657 7634
2.435 2.747 1.649 5883
2.477 2.794 1.663 11087
2.475 2.792 1.649 14357
2.478 2.795 1.638 16002
2.491 2.810 1.633 12908
2.508 2.829 1.631 9793
2.516 2.838 1.623 10452
2.509 2.830 1.607 11801
2.512 2.834 1.596 9805
2.539 2.864 1.599 10197
2.547 2.873 1.591 10493
2.550 2.876 1.580 7104
2.769 3.123 1.692 6493
2.781 3.138 1.685 6920
2.780 3.136 1.670 6928
2.763 3.117 1.647 6706
2.766 3.120 1.635 6018
2.853 3.218 1.669 6914
2.855 3.221 1.657 10067
2.853 3.219 1.642 7563
2.891 3.261 1.647 5453
2.889 3.259 1.632 4552
2.897 3.268 1.622 4761
3.014 3.400 1.668 6962
3.017 3.404 1.655 6299
3.085 3.480 1.675 3303
3.187 3.596 1.711 3932
3.180 3.588 1.692 5813
3.188 3.597 1.681 5371
3.246 3.662 1.694 5173
3.249 3.666 1.679 7452
3.322 3.748 1.698 6166
3.270 3.689 1.658 6713
3.268 3.687 1.642 7500
3.331 3.758 1.655 9640
3.329 3.756 1.638 9420
3.327 3.753 1.621 8731
3.330 3.757 1.607 8016
3.333 3.760 1.592 8016
3.336 3.763 1.578 8269
3.591 4.051 1.672 11765
3.589 4.049 1.654 12209
3.597 4.058 1.641 9483
3.595 4.055 1.623 8713
3.602 4.064 1.610 7052
3.605 4.067 1.594 4465
3.892 4.391 1.693 3531
3.900 4.400 1.678 5147
3.908 4.409 1.663 5166
3.952 4.458 1.661 5595
3.985 4.496 1.656 9388
3.993 4.505 1.640 9936
4.012 4.526 1.629 8149
4.014 4.529 1.611 7134
4.017 4.532 1.594 8654
4.020 4.535 1.576 9535
4.023 4.538 1.559 7822
4.026 4.541 1.541 7205
4.514 5.093 1.692 5806
4.512 5.090 1.670 5293
4.387 4.949 1.607 3385
4.523 5.103 1.633 2143
4.526 5.106 1.613 1914
4.775 5.387 1.673 2723
4.773 5.385 1.650 2461
5.033 5.678 1.710 2765
5.011 5.653 1.680 1898
5.024 5.667 1.662 1605
5.320 6.002 1.728 2400
5.318 6.000 1.703 3764
5.321 6.003 1.680 3748
5.458 6.158 1.695 2997
5.554 6.266 1.697 2740
5.552 6.263 1.672 3323
5.555 6.267 1.647 3190
5.563 6.276 1.624 2448
5.778 6.518 1.656 2339
5.781 6.522 1.631 2934
5.789 6.531 1.607 2815
6.128 6.914 1.666 1918
6.302 7.110 1.681 2416
6.300 7.107 1.652 1949
6.516 7.351 1.675 1266
6.524 7.360 1.648 1481
6.802 7.674 1.682 2045
6.805 7.677 1.652 2267
6.808 7.680 1.622 1490
7.201 8.123 1.676 1270
7.214 8.138 1.647 1273
7.232 8.159 1.618 1682
7.235 8.162 1.586 1577
7.577 8.547 1.621 1805
7.574 8.545 1.587 1572
8.077 9.112 1.648 1001
8.607 9.709 1.709 887
8.135 9.177 1.586 765
8.404 9.481 1.597 833
8.407 9.484 1.560 1004
9.229 10.411 1.659 903
9.133 10.303 1.602 926
9.141 10.312 1.563 886
9.138 10.309 1.522 444
9.501 10.719 1.535 367
9.535 10.757 1.498 352
2.442 2.755 0.473 273
2.442 2.755 0.462 315
2.443 2.756 0.452 351
2.449 2.763 0.442 313
2.465 2.781 0.433 298
2.450 2.764 0.421 430
2.451 2.765 0.410 561
2.242 2.529 0.377 449
2.242 2.529 0.367 436
2.242 2.530 0.357 369
2.248 2.536 0.348 255
2.417 2.726 0.343 273
1.604 1.810 0.267 518
1.604 1.810 0.260 951
1.605 1.810 0.253 1193
1.605 1.811 0.246 1293
1.605 1.811 0.239 1494
1.605 1.811 0.232 1596
1.616 1.823 0.226 1831
1.616 1.823 0.219 2013
1.616 1.823 0.212 1873
1.622 1.829 0.205 1373
1.622 1.830 0.198 869
1.622 1.830 0.191 794
1.622 1.830 0.184 745
1.617 1.824 0.177 756
1.617 1.824 0.170 628
1.612 1.818 0.163 442
1.617 1.824 0.156 375
7.414 8.364 0.185 305
7.409 8.359 0.152 262
1.524 1.712 1.788 4533
1.527 1.716 1.781 9066
1.530 1.719 1.775 9066
1.538 1.728 1.773 10072
1.550 1.741 1.775 11900
1.553 1.744 1.769 9379
1.577 1.772 1.785 8409
1.581 1.776 1.778 8409
1.592 1.789 1.781 10786
1.600 1.797 1.778 13472
1.599 1.796 1.767 14705
1.602 1.799 1.760 16015
1.605 1.803 1.753 13117
1.608 1.806 1.746 10219
1.629 1.830 1.757 12719
1.632 1.833 1.750 15512
1.631 1.832 1.739 15637
1.634 1.835 1.732 16885
1.637 1.839 1.725 18080
1.644 1.847 1.722 15157
1.652 1.855 1.719 12492
1.650 1.854 1.708 8911
1.631 1.832 1.679 6338
1.652 1.856 1.689 5696
1.659 1.864 1.686 5646
1.743 1.958 1.755 4276
1.746 1.961 1.748 4463
1.753 1.970 1.744 4641
1.756 1.973 1.737 4859
1.773 1.992 1.742 7478
1.776 1.995 1.734 10549
1.784 2.004 1.730 9975
1.791 2.012 1.727 9690
1.803 2.026 1.727 10493
1.811 2.034 1.724 11990
1.814 2.038 1.716 11773
1.817 2.041 1.708 9989
1.816 2.040 1.696 8440
1.819 2.043 1.688 7583
1.822 2.046 1.680 6726
1.834 2.060 1.680 6881
1.855 2.084 1.688 8058
1.876 2.108 1.696 7214
1.898 2.132 1.703 9565
1.905 2.140 1.699 11501
1.908 2.144 1.690 9331
1.953 2.194 1.716 8106
1.961 2.203 1.712 6986
1.968 2.211 1.707 5761
1.967 2.209 1.695 5497
1.923 2.161 1.649 5735
1.982 2.227 1.685 7874
1.980 2.225 1.673 10748
1.988 2.233 1.668 11138
1.991 2.237 1.660 8678
2.036 2.287 1.683 6338
2.039 2.291 1.675 6922
2.075 2.331 1.691 6581
2.083 2.340 1.685 8251
2.090 2.348 1.680 10441
2.103 2.362 1.678 11170
2.106 2.365 1.669 9376
2.241 2.518 1.757 9934
2.244 2.521 1.747 10679
2.247 2.525 1.738 11084
2.250 2.528 1.728 12487
2.254 2.532 1.718 14879
2.247 2.524 1.702 15959
2.236 2.512 1.682 16983
2.239 2.515 1.672 17314
2.237 2.513 1.659 14760
2.297 2.581 1.689 12154
2.291 2.573 1.673 14500
2.303 2.588 1.669 16870
2.306 2.591 1.659 17609
2.309 2.594 1.649 18583
2.307 2.592 1.636 20123
2.310 2.595 1.626 16688
2.313 2.598 1.616 11379
2.427 2.727 1.678 11917
2.430 2.730 1.667 10848
2.433 2.733 1.657 9099
2.436 2.737 1.646 7229
2.483 2.789 1.663 11430
2.486 2.792 1.652 13889
2.489 2.796 1.641 15082
2.501 2.810 1.636 13223
2.514 2.824 1.631 10488
2.522 2.833 1.623 10270
2.510 2.820 1.604 11854
2.518 2.828 1.596 9764
2.545 2.859 1.599 10095
2.553 2.868 1.591 10612
2.556 2.871 1.580 7117
2.775 3.118 1.692 6272
2.788 3.132 1.685 6859
2.791 3.135 1.673 6520
2.769 3.111 1.647 6167
2.846 3.198 1.676 6165
2.854 3.206 1.666 7700
2.862 3.215 1.657 10704
2.865 3.219 1.644 7617
2.893 3.250 1.645 5276
2.931 3.292 1.650 4782
3.008 3.379 1.676 4915
3.021 3.394 1.668 8256
3.024 3.397 1.655 7143
3.092 3.473 1.675 4071
3.085 3.466 1.656 4773
3.188 3.581 1.692 5459
3.201 3.596 1.683 5542
3.249 3.650 1.691 5371
3.257 3.659 1.679 7320
3.330 3.741 1.698 6945
3.278 3.682 1.658 6534
3.276 3.680 1.642 7371
3.339 3.751 1.655 9627
3.337 3.749 1.638 9079
3.335 3.746 1.621 8210
3.338 3.750 1.607 6964
3.341 3.753 1.592 6360
3.601 4.046 1.690 7182
3.599 4.043 1.672 11928
3.597 4.041 1.654 12503
3.600 4.044 1.639 9773
3.603 4.048 1.623 8972
3.606 4.051 1.607 7226
3.614 4.060 1.594 4825
3.611 4.057 1.576 3739
3.904 4.386 1.676 4546
3.923 4.407 1.665 4413
3.977 4.467 1.667 5473
3.995 4.488 1.656 9050
4.008 4.502 1.642 9952
4.021 4.517 1.629 8173
4.024 4.520 1.611 6462
4.027 4.524 1.594 7318
4.030 4.527 1.576 7860
4.519 5.077 1.731 7294
4.522 5.080 1.712 6890
4.520 5.078 1.690 6004
4.523 5.081 1.670 5272
4.531 5.090 1.652 3244
4.534 5.093 1.633 2094
4.537 5.097 1.613 1943
4.787 5.377 1.673 2417
5.047 5.670 1.734 2675
5.045 5.668 1.710 3015
5.022 5.642 1.680 2186
5.036 5.657 1.662 2033
5.333 5.991 1.728 2275
5.331 5.988 1.703 3352
5.334 5.992 1.680 3235
5.471 6.146 1.695 2762
5.567 6.254 1.697 2301
5.565 6.252 1.672 2850
5.568 6.255 1.647 2680
5.783 6.497 1.680 2464
5.786 6.500 1.655 2334
5.794 6.509 1.631 2728
5.803 6.519 1.607 2577
6.314 7.093 1.709 2054
6.317 7.097 1.681 2732
6.320 7.100 1.653 2192
6.318 7.097 1.625 1443
6.810 7.650 1.710 1382
6.818 7.659 1.682 2142
6.821 7.663 1.652 2390
6.824 7.666 1.622 1524
7.150 8.032 1.661 1320
7.247 8.141 1.650 1243
7.250 8.144 1.618 1724
7.252 8.147 1.586 1640
7.594 8.531 1.621 1855
7.597 8.535 1.588 1612
8.102 9.101 1.649 966
8.627 9.691 1.709 913
8.154 9.160 1.586 705
9.532 10.708 1.789 788
9.258 10.401 1.701 1007
9.251 10.392 1.659 954
9.149 10.278 1.601 911
9.162 10.293 1.563 862
9.160 10.290 1.522 409
9.550 10.728 1.539 343
9.553 10.731 1.497 328
2.442 2.744 0.472 314
2.443 2.744 0.462 289
2.444 2.746 0.441 260
2.445 2.746 0.430 295
2.246 2.523 0.396 342
2.246 2.524 0.387 427
2.247 2.524 0.377 442
2.242 2.519 0.367 379
2.437 2.737 0.376 307
2.400 2.697 0.362 307
2.401 2.697 0.352 421
2.407 2.704 0.342 538
2.402 2.698 0.331 717
2.407 2.704 0.321 771
1.608 1.807 0.253 805
1.609 1.807 0.246 972
1.609 1.807 0.239 1134
1.604 1.802 0.232 1167
1.615 1.814 0.226 1366
1.620 1.820 0.219 1705
1.620 1.820 0.212 1727
1.620 1.820 0.205 1274
1.620 1.820 0.198 739
1.620 1.820 0.191 521
7.425 8.342 0.347 503
7.426 8.342 0.314 543
7.426 8.342 0.282 490
7.426 8.343 0.249 436
7.427 8.343 0.217 366
7.421 8.337 0.184 308
7.421 8.337 0.152 286
1.527 1.710 1.788 4175
1.530 1.713 1.781 8350
1.533 1.717 1.775 8350
1.545 1.730 1.777 9409
1.552 1.738 1.775 11254
1.555 1.742 1.769 9077
1.580 1.770 1.785 7999
1.583 1.773 1.778 7999
1.595 1.786 1.781 10172
1.598 1.790 1.774 12708
1.601 1.793 1.767 14027
1.605 1.797 1.760 15345
1.608 1.801 1.753 12912
1.628 1.824 1.764 10655
1.631 1.827 1.757 13416
1.635 1.831 1.750 16427
1.633 1.829 1.739 16631
1.636 1.833 1.732 17758
1.640 1.836 1.725 18839
1.647 1.845 1.722 15566
1.655 1.853 1.719 12540
1.649 1.846 1.703 9015
1.638 1.835 1.683 6684
1.650 1.848 1.685 5940
1.662 1.862 1.686 5809
1.670 1.870 1.683 4236
1.749 1.958 1.748 4074
1.752 1.962 1.740 4578
1.728 1.935 1.708 5213
1.776 1.989 1.742 7577
1.779 1.992 1.734 10516
1.787 2.001 1.730 9761
1.794 2.009 1.727 9422
1.806 2.023 1.727 10314
1.814 2.032 1.724 11685
1.817 2.035 1.716 11108
1.825 2.044 1.712 8982
1.823 2.042 1.700 7343
1.826 2.045 1.692 6904
1.829 2.049 1.684 6465
1.837 2.057 1.680 6929
1.858 2.081 1.688 8422
1.880 2.105 1.696 7533
1.901 2.129 1.703 9733
1.904 2.132 1.695 12036
1.907 2.136 1.687 9935
1.961 2.196 1.720 7899
1.964 2.200 1.712 6890
1.976 2.213 1.711 5606
1.919 2.149 1.654 5519
1.922 2.152 1.645 6480
1.985 2.223 1.685 7245
1.988 2.227 1.677 10238
1.991 2.230 1.668 11003
1.994 2.234 1.660 8808
2.040 2.284 1.683 6553
2.043 2.287 1.675 7313
2.027 2.270 1.652 6790
2.086 2.336 1.685 6557
2.089 2.340 1.677 8538
2.106 2.359 1.678 9393
2.109 2.362 1.669 7915
2.245 2.514 1.757 9537
2.248 2.518 1.747 10715
2.251 2.521 1.738 11415
2.254 2.525 1.728 13001
2.257 2.528 1.718 15510
2.251 2.521 1.702 16618
2.240 2.508 1.682 17396
2.243 2.511 1.672 18145
2.241 2.509 1.659 15579
2.301 2.577 1.689 12016
2.300 2.575 1.676 13905
2.307 2.584 1.669 16913
2.310 2.587 1.659 17732
2.313 2.591 1.649 18382
2.311 2.588 1.636 19601
2.314 2.592 1.626 16322
2.317 2.595 1.616 11295
2.431 2.723 1.678 12742
2.434 2.726 1.667 12205
2.437 2.730 1.657 10948
2.440 2.733 1.646 8919
2.487 2.785 1.663 11612
2.490 2.789 1.652 13384
2.493 2.792 1.641 14176
2.511 2.812 1.639 13488
2.518 2.820 1.631 11024
2.521 2.824 1.621 10111
2.514 2.816 1.604 12008
2.522 2.824 1.596 9759
2.549 2.855 1.599 9956
2.557 2.864 1.591 10576
2.560 2.867 1.580 7093
2.780 3.113 1.692 5948
2.793 3.128 1.685 6675
2.796 3.131 1.673 6107
2.848 3.190 1.688 5518
2.846 3.188 1.673 7051
2.849 3.191 1.661 8543
2.867 3.211 1.657 11248
2.875 3.220 1.647 8700
2.893 3.240 1.642 5551
2.901 3.249 1.632 5159
2.934 3.285 1.635 5390
3.016 3.378 1.663 6652
3.019 3.381 1.650 5632
2.992 3.351 1.622 3295
3.205 3.590 1.713 3925
3.198 3.582 1.695 5121
3.206 3.591 1.683 5437
3.240 3.628 1.684 5477
3.263 3.654 1.679 6865
3.336 3.736 1.698 7202
3.334 3.734 1.682 6683
3.337 3.737 1.667 7331
3.345 3.746 1.655 9176
3.343 3.744 1.638 8329
3.346 3.747 1.624 7290
3.349 3.750 1.609 5813
3.352 3.753 1.595 4827
3.608 4.040 1.690 7080
3.600 4.032 1.670 11540
3.598 4.030 1.652 12227
3.606 4.039 1.639 9543
3.609 4.042 1.623 8685
3.612 4.045 1.607 7066
3.620 4.054 1.594 4911
3.847 4.308 1.668 4603
3.850 4.312 1.651 5262
3.858 4.321 1.637 4119
3.989 4.467 1.669 5208
4.002 4.482 1.656 8463
4.015 4.496 1.642 9634
4.023 4.505 1.627 8065
4.031 4.514 1.611 5926
4.034 4.517 1.594 6299
4.037 4.521 1.576 6527
4.527 5.070 1.731 6924
4.530 5.073 1.712 6606
4.528 5.071 1.690 5718
4.531 5.074 1.670 4795
4.539 5.083 1.652 2990
4.537 5.081 1.631 2044
4.545 5.090 1.613 1877
4.795 5.370 1.673 2069
5.056 5.662 1.734 2793
5.059 5.666 1.712 3106
5.067 5.675 1.691 2194
5.050 5.655 1.663 2030
5.347 5.988 1.729 2184
5.340 5.980 1.703 2984
5.343 5.984 1.680 2827
5.481 6.138 1.695 2601
5.577 6.246 1.697 1846
5.575 6.243 1.672 2317
5.796 6.491 1.707 2349
5.793 6.488 1.680 2476
5.786 6.480 1.652 2326
5.805 6.500 1.631 2566
5.813 6.510 1.607 2368
6.325 7.084 1.709 2214
6.328 7.087 1.681 2858
6.331 7.090 1.653 2320
6.329 7.088 1.625 1585
6.816 7.634 1.709 1625
6.825 7.643 1.681 2302
6.833 7.652 1.652 2469
7.149 8.006 1.690 1531
7.162 8.021 1.661 1599
7.259 8.130 1.650 1370
7.267 8.139 1.619 1799
7.265 8.136 1.586 1655
7.602 8.514 1.620 1843
7.610 8.523 1.588 1586
8.116 9.089 1.649 898
8.642 9.678 1.709 886
8.504 9.523 1.646 664
9.549 10.694 1.789 860
9.552 10.697 1.748 1107
9.555 10.701 1.706 988
9.165 10.264 1.601 891
9.178 10.279 1.563 827
9.181 10.282 1.523 402
9.567 10.714 1.539 414
9.569 10.717 1.497 391
9.661 10.819 1.468 262
2.242 2.511 0.434 305
2.243 2.512 0.425 478
2.243 2.512 0.415 555
2.244 2.513 0.405 574
2.245 2.514 0.396 621
2.245 2.514 0.386 622
2.245 2.515 0.376 592
2.246 2.515 0.367 465
2.399 2.687 0.372 322
2.395 2.682 0.340 297
2.401 2.688 0.331 491
2.401 2.689 0.320 484
2.396 2.683 0.309 418
1.627 1.822 0.247 394
1.633 1.829 0.241 550
1.633 1.829 0.234 556
1.638 1.835 0.227 549
1.639 1.835 0.220 630
1.639 1.835 0.213 712
1.639 1.835 0.206 720
1.639 1.835 0.199 622
1.634 1.830 0.192 543
1.629 1.824 0.184 436
7.439 8.331 0.314 412
7.439 8.331 0.282 431
7.439 8.331 0.249 450
7.439 8.331 0.217 429
7.440 8.332 0.184 409
7.440 8.332 0.152 373
7.440 8.332 0.120 298
7.445 8.337 0.087 258
1.530 1.707 1.788 4171
1.533 1.710 1.781 8343
1.537 1.714 1.775 8343
1.548 1.727 1.777 9087
1.556 1.735 1.775 10676
1.559 1.739 1.769 8790
1.579 1.761 1.780 7431
1.583 1.765 1.774 7431
1.594 1.778 1.776 9478
1.602 1.787 1.774 11905
1.605 1.790 1.767 13191
1.604 1.789 1.755 14566
1.611 1.797 1.753 12479
1.632 1.820 1.764 10974
1.635 1.824 1.757 13817
1.638 1.827 1.750 16957
1.637 1.826 1.739 17220
1.640 1.829 1.732 18199
1.643 1.833 1.725 19144
1.651 1.841 1.722 15595
1.658 1.849 1.719 12311
1.653 1.843 1.703 8923
1.642 1.832 1.683 6879
1.654 1.845 1.685 6051
1.666 1.858 1.686 5973
1.674 1.866 1.683 4411
1.748 1.950 1.743 3694
1.756 1.958 1.740 4415
1.763 1.967 1.737 5197
1.776 1.980 1.737 7738
1.783 1.989 1.734 10582
1.791 1.997 1.730 9709
1.803 2.011 1.731 9362
1.811 2.019 1.727 10315
1.818 2.028 1.724 11518
1.826 2.036 1.720 10531
1.829 2.040 1.712 8171
1.864 2.079 1.732 6452
1.830 2.041 1.692 6231
1.833 2.045 1.684 6094
1.841 2.053 1.680 6869
1.862 2.077 1.688 8820
1.879 2.096 1.692 7876
1.901 2.120 1.699 9868
1.908 2.128 1.695 12392
1.911 2.132 1.687 10362
1.914 2.135 1.678 8331
1.922 2.144 1.674 7240
1.920 2.142 1.662 5997
1.914 2.135 1.646 6160
1.926 2.148 1.645 7159
1.929 2.152 1.637 7032
1.993 2.223 1.677 9677
1.996 2.226 1.668 10573
2.004 2.235 1.663 8721
2.044 2.280 1.683 6705
2.047 2.283 1.675 7678
2.031 2.266 1.652 7245
2.030 2.264 1.639 6439
2.094 2.335 1.677 7069
2.111 2.355 1.678 7829
2.247 2.506 1.767 6824
2.250 2.510 1.757 9101
2.253 2.513 1.747 10610
2.256 2.517 1.738 11524
2.260 2.520 1.728 13206
2.263 2.523 1.718 15676
2.261 2.522 1.705 16999
2.245 2.504 1.682 17480
2.301 2.566 1.709 19567
2.304 2.569 1.699 16221
2.311 2.578 1.692 11614
2.305 2.570 1.676 12961
2.313 2.579 1.669 16449
2.320 2.588 1.662 17297
2.319 2.586 1.649 17451
2.317 2.584 1.636 18277
2.320 2.587 1.626 15349
2.444 2.725 1.694 11246
2.437 2.718 1.678 13342
2.435 2.716 1.664 13529
2.443 2.725 1.657 12701
2.446 2.728 1.646 10426
2.498 2.786 1.666 11627
2.496 2.783 1.652 12828
2.499 2.787 1.641 13184
2.516 2.806 1.639 13534
2.524 2.815 1.631 11346
2.527 2.818 1.621 10002
2.520 2.811 1.604 12031
2.528 2.819 1.596 9548
2.555 2.850 1.599 9544
2.558 2.853 1.588 10372
2.566 2.862 1.580 7000
2.786 3.108 1.692 5652
2.799 3.122 1.685 6249
2.807 3.131 1.676 5493
2.855 3.184 1.688 5956
2.853 3.182 1.673 7986
2.856 3.185 1.661 9274
2.869 3.199 1.654 11661
2.877 3.208 1.644 10100
2.890 3.223 1.637 6416
2.913 3.248 1.635 5908
2.920 3.257 1.625 6074
3.023 3.372 1.663 7662
3.026 3.375 1.650 6855
3.019 3.367 1.632 3951
3.218 3.589 1.716 3822
3.211 3.581 1.697 4887
3.219 3.590 1.686 5731
3.242 3.616 1.681 5668
3.265 3.641 1.677 6194
3.339 3.724 1.696 7170
3.342 3.727 1.682 6848
3.345 3.730 1.667 6999
3.358 3.745 1.657 8291
3.351 3.737 1.638 7355
3.354 3.740 1.624 6281
3.361 3.749 1.611 4791
3.608 4.024 1.704 4037
3.621 4.038 1.692 6600
3.609 4.025 1.670 10574
3.607 4.022 1.652 11380
3.615 4.031 1.639 8795
3.618 4.035 1.623 7886
3.620 4.038 1.607 6354
3.853 4.297 1.685 4601
3.856 4.300 1.668 5279
3.859 4.304 1.651 6438
3.862 4.307 1.635 4472
3.998 4.459 1.669 4869
4.011 4.473 1.656 7684
4.024 4.488 1.642 8978
4.032 4.497 1.627 7887
4.035 4.500 1.609 5561
4.043 4.509 1.594 5554
4.046 4.512 1.576 5357
4.537 5.060 1.731 6323
4.535 5.058 1.710 6111
4.538 5.061 1.690 5274
4.541 5.065 1.670 4290
4.549 5.074 1.652 2622
4.723 5.267 1.689 1905
4.715 5.259 1.665 1735
4.806 5.360 1.673 1753
5.068 5.652 1.734 2800
5.071 5.655 1.712 3179
5.079 5.664 1.691 2350
5.388 6.009 1.762 2004
5.365 5.983 1.731 2183
5.357 5.975 1.705 2657
5.355 5.973 1.680 2373
5.493 6.126 1.695 2493
5.683 6.338 1.723 1620
5.588 6.232 1.672 1850
5.804 6.473 1.705 2146
5.796 6.465 1.677 2440
5.768 6.433 1.644 2698
5.818 6.489 1.631 2396
5.826 6.498 1.607 2151
6.340 7.071 1.709 2268
6.343 7.074 1.681 2852
6.346 7.077 1.653 2332
6.344 7.075 1.625 1682
6.832 7.620 1.709 1819
6.840 7.629 1.681 2434
6.849 7.638 1.652 2450
7.176 8.003 1.693 1628
7.184 8.012 1.663 1833
7.192 8.021 1.632 1531
7.284 8.124 1.619 1744
7.282 8.121 1.586 1589
7.620 8.498 1.620 1738
7.628 8.507 1.588 1494
8.134 9.072 1.649 822
8.662 9.660 1.709 846
8.523 9.506 1.646 745
9.571 10.674 1.789 905
9.574 10.678 1.748 1171
9.577 10.681 1.706 1052
9.186 10.245 1.601 847
9.199 10.260 1.563 777
9.202 10.263 1.523 385
9.589 10.694 1.539 399
9.591 10.697 1.497 380
2.468 2.752 0.475 293
2.458 2.741 0.462 408
2.459 2.742 0.452 647
2.465 2.749 0.442 676
2.465 2.749 0.431 600
2.466 2.750 0.421 504
2.255 2.515 0.387 627
2.256 2.516 0.377 642
2.251 2.511 0.367 537
2.252 2.511 0.357 358
2.400 2.676 0.361 305
2.400 2.677 0.351 445
2.400 2.677 0.340 483
2.396 2.672 0.330 483
2.391 2.666 0.319 374
2.391 2.667 0.309 298
1.631 1.819 0.247 354
1.626 1.813 0.240 533
1.621 1.808 0.233 603
1.626 1.814 0.226 643
1.632 1.820 0.219 995
1.632 1.820 0.212 1308
1.632 1.820 0.205 1263
1.632 1.820 0.198 1105
1.638 1.826 0.192 881
1.643 1.832 0.185 661
7.451 8.309 0.314 666
7.456 8.316 0.282 668
7.456 8.316 0.249 677
7.457 8.316 0.217 657
7.457 8.316 0.184 638
7.457 8.316 0.152 575
7.457 8.316 0.120 428
7.457 8.316 0.087 345
7.457 8.316 0.055 271
1.534 1.703 1.788 3813
1.537 1.707 1.781 7627
1.540 1.711 1.775 7627
1.552 1.724 1.777 8608
1.559 1.732 1.775 9883
1.563 1.735 1.769 8461
1.566 1.739 1.762 7039
1.569 1.742 1.755 7039
1.594 1.770 1.771 8818
1.601 1.778 1.769 11241
1.604 1.782 1.762 12616
1.608 1.785 1.755 13992
1.615 1.794 1.753 12116
1.636 1.817 1.764 11424
1.639 1.820 1.757 14404
1.638 1.819 1.746 17755
1.641 1.822 1.739 18038
1.644 1.826 1.732 18822
1.647 1.829 1.725 19596
1.655 1.838 1.722 15613
1.662 1.846 1.719 11934
1.656 1.840 1.703 8773
1.646 1.828 1.683 7019
1.658 1.841 1.685 6158
1.670 1.855 1.686 6030
1.677 1.863 1.683 4515
1.752 1.946 1.743 3758
1.755 1.950 1.736 4696
1.741 1.933 1.712 5918
1.775 1.972 1.733 8125
1.783 1.980 1.730 10897
1.790 1.988 1.726 9641
1.807 2.007 1.731 8836
1.815 2.016 1.727 10072
1.822 2.024 1.724 11290
1.830 2.033 1.720 10119
1.838 2.041 1.716 7608
1.868 2.075 1.732 6530
1.871 2.078 1.724 6044
1.838 2.041 1.684 5813
1.878 2.085 1.708 7188
1.867 2.073 1.688 9264
1.884 2.092 1.692 8329
1.901 2.111 1.695 10098
1.908 2.119 1.691 12766
1.916 2.128 1.687 10840
1.919 2.131 1.678 8940
1.927 2.140 1.674 7744
1.920 2.133 1.658 6705
1.919 2.131 1.646 7441
1.926 2.139 1.642 8324
1.934 2.148 1.637 7923
1.998 2.219 1.677 8935
2.001 2.222 1.668 9990
2.008 2.230 1.663 8614
2.049 2.276 1.683 7349
2.052 2.279 1.675 8718
2.036 2.261 1.652 8109
2.034 2.259 1.639 6971
2.099 2.331 1.677 5945
2.116 2.350 1.678 6416
2.252 2.501 1.767 6143
2.251 2.500 1.754 8634
2.259 2.508 1.747 10489
2.262 2.512 1.738 11655
2.265 2.515 1.728 13408
2.268 2.519 1.718 15742
2.266 2.517 1.705 17315
2.303 2.558 1.719 18390
2.306 2.561 1.709 21178
2.314 2.570 1.702 17045
2.317 2.573 1.692 11346
2.320 2.576 1.682 12175
2.323 2.580 1.672 15807
2.326 2.583 1.662 16793
2.324 2.581 1.649 16087
2.322 2.579 1.636 16341
2.325 2.582 1.626 13930
2.449 2.720 1.694 11418
2.438 2.707 1.675 14157
2.441 2.711 1.664 15098
2.444 2.714 1.654 14732
2.447 2.717 1.643 12355
2.504 2.780 1.666 11611
2.497 2.773 1.649 12375
2.509 2.787 1.644 12171
2.522 2.801 1.639 13123
2.530 2.810 1.631 11306
2.528 2.808 1.618 10019
2.521 2.800 1.601 12302
2.529 2.809 1.593 9592
2.556 2.839 1.596 9293
2.564 2.848 1.588 10083
2.572 2.856 1.580 6904
2.788 3.096 1.689 5380
2.840 3.155 1.705 5760
2.853 3.169 1.698 5407
2.861 3.178 1.688 6544
2.855 3.170 1.671 9114
2.858 3.174 1.658 10077
2.875 3.193 1.654 12335
2.883 3.202 1.644 12183
2.886 3.206 1.632 8378
2.919 3.242 1.635 7160
2.927 3.251 1.625 7389
3.025 3.360 1.661 7361
3.028 3.363 1.648 7628
3.031 3.367 1.635 4775
3.230 3.588 1.718 3801
3.223 3.580 1.700 4595
3.231 3.589 1.688 5817
3.249 3.609 1.681 5774
3.268 3.629 1.675 5579
3.346 3.717 1.696 6781
3.349 3.720 1.682 6610
3.352 3.723 1.667 6340
3.366 3.738 1.657 7059
3.358 3.730 1.638 6020
3.361 3.733 1.624 4924
3.405 3.781 1.627 3774
3.616 4.016 1.704 3829
3.629 4.031 1.692 5933
3.607 4.006 1.666 9312
3.610 4.009 1.650 10086
3.618 4.018 1.637 7670
3.764 4.180 1.680 8564
3.767 4.183 1.664 8188
3.775 4.192 1.650 6035
3.865 4.292 1.668 5628
3.868 4.296 1.651 6968
3.871 4.299 1.635 4293
4.012 4.456 1.671 4431
4.020 4.465 1.656 6682
4.033 4.480 1.642 7952
4.042 4.489 1.627 7513
4.044 4.492 1.609 5182
4.052 4.501 1.594 4894
4.112 4.567 1.596 4467
4.548 5.051 1.731 5418
4.546 5.049 1.710 5402
4.544 5.046 1.688 4577
4.552 5.055 1.670 3568
4.725 5.248 1.708 2721
4.728 5.251 1.687 2196
4.726 5.249 1.665 1976
5.071 5.632 1.754 1845
5.079 5.641 1.734 2797
5.082 5.645 1.712 3275
5.091 5.654 1.691 2463
5.400 5.997 1.762 2269
5.398 5.995 1.737 2399
5.375 5.970 1.706 2342
5.498 6.106 1.717 2532
5.501 6.109 1.693 2717
5.681 6.309 1.719 1653
5.679 6.307 1.693 1618
5.723 6.356 1.680 2216
5.779 6.418 1.669 2734
5.781 6.421 1.644 3217
5.790 6.430 1.620 2757
5.792 6.433 1.595 1992
6.354 7.057 1.709 2279
6.357 7.061 1.681 2815
6.360 7.064 1.653 2340
6.358 7.061 1.625 1786
6.848 7.605 1.709 2037
6.851 7.609 1.679 2529
6.859 7.618 1.651 2414
7.192 7.988 1.693 1829
7.201 7.997 1.663 2103
7.209 8.006 1.632 1771
7.301 8.109 1.619 1691
7.299 8.106 1.586 1528
7.638 8.482 1.620 1541
7.646 8.491 1.588 1322
8.500 9.440 1.713 806
8.682 9.642 1.709 809
8.543 9.488 1.646 874
9.593 10.654 1.789 941
9.596 10.658 1.748 1225
9.599 10.661 1.706 1104
9.313 10.343 1.618 789
9.221 10.240 1.563 670
9.603 10.665 1.580 368
9.611 10.674 1.539 459
9.614 10.677 1.497 439
9.606 10.668 1.454 309
2.460 2.732 0.441 288
2.460 2.732 0.430 351
2.456 2.727 0.419 355
2.393 2.657 0.401 365
2.393 2.658 0.391 343
2.394 2.659 0.381 282
2.394 2.659 0.370 269
2.395 2.660 0.360 406
2.395 2.660 0.350 556
2.401 2.666 0.340 616
2.396 2.661 0.329 600
2.396 2.661 0.319 428
2.391 2.656 0.308 311
1.624 1.804 0.246 412
1.624 1.804 0.240 531
1.619 1.798 0.232 545
1.619 1.799 0.225 488
7.248 8.049 0.498 339
7.248 8.050 0.466 342
1.641 1.823 0.206 388
1.641 1.823 0.199 643
1.641 1.823 0.192 865
1.636 1.817 0.184 909
1.642 1.823 0.178 852
1.642 1.823 0.171 603
1.647 1.829 0.164 310
1.642 1.823 0.157 265
1.542 1.713 1.797 3272
1.545 1.716 1.791 6544
1.549 1.720 1.784 6544
1.552 1.724 1.777 7520
1.559 1.732 1.775 8547
1.563 1.735 1.769 7730
1.566 1.739 1.762 6912
1.569 1.742 1.755 6912
1.594 1.770 1.771 8253
1.601 1.778 1.769 10705
1.604 1.782 1.762 12002
1.603 1.781 1.751 13307
1.615 1.794 1.753 11594
1.636 1.817 1.764 11532
1.639 1.820 1.757 14557
1.638 1.819 1.746 18014
1.641 1.822 1.739 18269
1.644 1.826 1.732 18861
1.647 1.829 1.725 19463
1.655 1.838 1.722 15212
1.658 1.841 1.715 11334
1.656 1.840 1.703 8481
1.646 1.828 1.683 7080
1.658 1.841 1.685 6177
1.670 1.855 1.686 6055
1.677 1.863 1.683 4616
1.748 1.941 1.739 3640
1.733 1.925 1.715 4993
1.736 1.928 1.708 6857
1.771 1.967 1.729 8537
1.778 1.975 1.726 11337
1.786 1.983 1.722 9799
1.794 1.992 1.719 8471
1.815 2.016 1.727 9289
1.822 2.024 1.724 10502
1.830 2.033 1.720 9326
1.838 2.041 1.716 7088
1.868 2.075 1.732 6295
1.871 2.078 1.724 5973
1.884 2.092 1.724 5760
1.878 2.085 1.708 7354
1.867 2.073 1.688 9509
1.879 2.087 1.688 8597
1.901 2.111 1.695 10205
1.908 2.119 1.691 12941
1.911 2.123 1.683 11133
1.919 2.131 1.678 9357
1.922 2.134 1.670 8181
1.916 2.127 1.654 7520
1.914 2.126 1.642 8823
1.921 2.134 1.638 9616
1.934 2.148 1.637 8762
1.998 2.219 1.677 8353
2.001 2.222 1.668 9534
2.013 2.236 1.667 8646
2.054 2.281 1.687 7871
2.052 2.279 1.675 9492
2.041 2.267 1.655 8698
2.034 2.259 1.639 7235
2.032 2.257 1.627 5498
2.097 2.329 1.664 5587
2.076 2.306 1.638 5943
2.251 2.500 1.754 8043
2.259 2.508 1.747 10107
2.262 2.512 1.738 11452
2.265 2.515 1.728 13193
2.263 2.513 1.715 15396
2.271 2.522 1.708 17360
2.303 2.558 1.719 19577
2.306 2.561 1.709 22284
2.314 2.570 1.702 17400
2.317 2.573 1.692 10789
2.325 2.582 1.686 11573
2.323 2.580 1.672 14917
2.326 2.583 1.662 15717
2.324 2.581 1.649 14116
2.322 2.579 1.636 13814
2.325 2.582 1.626 12058
2.445 2.715 1.691 11354
2.438 2.707 1.675 14584
2.441 2.711 1.664 16353
2.444 2.714 1.654 16588
2.447 2.717 1.643 13990
2.504 2.780 1.666 11268
2.502 2.778 1.652 11791
2.509 2.787 1.644 11229
2.527 2.807 1.642 12225
2.535 2.815 1.634 10819
2.528 2.808 1.618 9829
2.521 2.800 1.601 12598
2.529 2.809 1.593 10044
2.556 2.839 1.596 9367
2.564 2.848 1.588 9878
2.572 2.856 1.580 6760
2.723 3.025 1.653 6436
2.726 3.028 1.641 5715
2.853 3.169 1.698 5345
2.861 3.178 1.688 7362
2.855 3.170 1.671 10542
2.858 3.174 1.658 10685
2.875 3.193 1.654 12641
2.878 3.197 1.642 13845
2.886 3.206 1.632 10095
2.919 3.242 1.635 8499
2.927 3.251 1.625 8859
3.020 3.354 1.658 7676
3.028 3.363 1.648 8754
3.036 3.372 1.637 6052
3.049 3.386 1.629 4604
3.223 3.580 1.700 3851
3.236 3.594 1.691 5400
3.255 3.615 1.684 5422
3.268 3.629 1.675 4819
3.346 3.717 1.696 6021
3.344 3.714 1.679 5987
3.352 3.723 1.667 5446
3.386 3.760 1.667 5753
3.358 3.730 1.638 4729
3.361 3.733 1.624 3793
3.410 3.787 1.629 3931
3.621 4.022 1.706 3411
3.634 4.036 1.694 4992
3.602 4.000 1.664 8172
3.605 4.004 1.648 8624
3.761 4.177 1.696 7350
3.764 4.180 1.680 12115
3.762 4.178 1.662 12135
3.770 4.187 1.648 8114
3.778 4.196 1.633 6523
3.868 4.296 1.651 6813
3.778 4.196 1.599 5167
4.017 4.462 1.673 3979
4.020 4.465 1.656 5821
4.033 4.480 1.642 6965
4.042 4.489 1.627 6970
4.044 4.492 1.609 4875
4.104 4.558 1.612 5661
4.107 4.561 1.594 5190
4.548 5.051 1.731 4384
4.546 5.049 1.710 4522
4.544 5.046 1.688 3773
4.552 5.055 1.670 2787
4.725 5.248 1.708 2741
4.728 5.251 1.687 2390
4.726 5.249 1.665 2237
5.071 5.632 1.754 1868
5.079 5.641 1.734 2682
5.082 5.645 1.712 3253
5.091 5.654 1.691 2495
5.400 5.997 1.762 2596
5.398 5.995 1.737 2749
5.385 5.981 1.709 2216
5.493 6.100 1.716 3117
5.501 6.109 1.693 3190
5.670 6.298 1.716 2060
5.679 6.307 1.693 2146
5.729 6.362 1.681 2398
5.779 6.418 1.669 2934
5.781 6.421 1.644 3657
5.790 6.430 1.620 3097
5.792 6.433 1.595 2131
6.354 7.057 1.709 2194
6.357 7.061 1.681 2684
6.360 7.064 1.653 2264
6.850 7.608 1.740 1910
6.848 7.605 1.709 2136
6.851 7.609 1.679 2501
6.859 7.618 1.651 2272
7.198 7.994 1.694 1937
7.201 7.997 1.663 2265
7.209 8.006 1.632 1932
7.301 8.109 1.619 1507
7.299 8.106 1.586 1326
7.632 8.477 1.619 1325
7.646 8.491 1.588 1124
2.271 2.522 0.555 982
2.272 2.523 0.545 855
8.543 9.488 1.646 928
9.593 10.654 1.789 925
9.596 10.658 1.748 1214
9.599 10.661 1.706 1080
9.602 10.664 1.664 762
9.221 10.240 1.563 613
9.229 10.249 1.524 366
9.611 10.674 1.539 434
9.614 10.677 1.497 426
9.706 10.779 1.468 298
2.253 2.503 0.425 362
2.254 2.503 0.415 417
2.254 2.504 0.405 402
2.255 2.504 0.396 340
2.382 2.646 0.400 335
2.383 2.646 0.390 308
2.388 2.653 0.380 278
2.262 2.512 0.357 342
2.262 2.513 0.348 335
2.395 2.660 0.350 433
2.395 2.660 0.340 468
2.396 2.661 0.329 417
1.629 1.809 0.261 343
1.629 1.810 0.254 484
1.630 1.810 0.247 553
1.635 1.816 0.240 745
1.640 1.822 0.234 863
1.641 1.822 0.227 1275
1.641 1.822 0.220 1666
1.636 1.817 0.212 1653
1.641 1.823 0.206 1325
1.647 1.829 0.199 846
1.647 1.829 0.192 630
1.647 1.829 0.185 468
1.647 1.829 0.178 332
1.631 1.811 0.170 306
1.626 1.806 0.163 270
1.547 1.718 1.802 3086
1.550 1.721 1.795 6173
1.553 1.725 1.789 6173
1.556 1.728 1.782 6766
1.559 1.732 1.775 7358
1.563 1.735 1.769 7138
1.566 1.739 1.762 6918
1.569 1.742 1.755 6918
1.594 1.770 1.771 7795
1.597 1.774 1.765 10255
1.600 1.777 1.758 11509
1.603 1.781 1.751 12763
1.615 1.794 1.753 10998
1.636 1.817 1.764 11508
1.639 1.820 1.757 14594
1.638 1.819 1.746 18169
1.641 1.822 1.739 18381
1.644 1.826 1.732 18760
1.647 1.829 1.725 19178
1.650 1.833 1.718 14752
1.658 1.841 1.715 10634
1.652 1.835 1.699 8147
1.646 1.828 1.683 7136
1.654 1.836 1.681 6189
1.670 1.855 1.686 6042
1.677 1.863 1.683 4666
1.743 1.936 1.735 3971
1.742 1.935 1.723 5688
1.741 1.933 1.712 7668
1.766 1.962 1.725 9264
1.774 1.970 1.722 12166
1.777 1.973 1.714 10633
1.766 1.962 1.694 9395
1.774 1.970 1.691 9273
1.822 2.024 1.724 9755
1.830 2.033 1.720 8718
1.838 2.041 1.716 6740
1.864 2.070 1.728 5997
1.871 2.078 1.724 5806
1.884 2.092 1.724 5762
1.873 2.080 1.704 7454
1.867 2.073 1.688 9686
1.874 2.082 1.684 8717
1.901 2.111 1.695 9998
1.908 2.119 1.691 12773
1.911 2.123 1.683 11244
1.919 2.131 1.678 9723
1.922 2.134 1.670 8552
1.916 2.127 1.654 8398
1.914 2.126 1.642 10329
1.921 2.134 1.638 11233
1.934 2.148 1.637 9742
1.998 2.219 1.677 7458
2.005 2.227 1.672 8695
2.018 2.241 1.670 8532
2.054 2.281 1.687 8565
2.052 2.279 1.675 10411
2.050 2.277 1.662 9374
2.030 2.254 1.636 6957
2.094 2.326 1.673 5450
2.097 2.329 1.664 5165
2.200 2.443 1.728 6071
2.251 2.500 1.754 7530
2.259 2.508 1.747 9793
2.262 2.512 1.738 11086
2.260 2.510 1.724 12669
2.268 2.519 1.718 14651
2.271 2.522 1.708 17269
2.298 2.552 1.715 20694
2.306 2.561 1.709 23270
2.314 2.570 1.702 17669
2.322 2.578 1.696 10574
2.329 2.587 1.689 11594
2.328 2.585 1.676 14112
2.331 2.588 1.666 14445
2.324 2.581 1.649 11993
2.322 2.579 1.636 10859
2.442 2.712 1.702 9997
2.440 2.710 1.688 11304
2.438 2.707 1.675 14941
2.441 2.711 1.664 17412
2.444 2.714 1.654 18182
2.447 2.717 1.643 15435
2.504 2.780 1.666 10948
2.502 2.778 1.652 11197
2.509 2.787 1.644 10431
2.527 2.807 1.642 11479
2.535 2.815 1.634 10380
2.523 2.802 1.615 9917
2.516 2.794 1.598 13130
2.529 2.809 1.593 10749
2.546 2.828 1.591 9958
2.559 2.842 1.585 9572
2.725 3.027 1.667 6913
2.723 3.025 1.653 7924
2.726 3.028 1.641 7134
2.858 3.175 1.701 5553
2.861 3.178 1.688 8537
2.855 3.170 1.671 12085
2.853 3.168 1.656 11247
2.875 3.193 1.654 12712
2.878 3.197 1.642 15287
2.881 3.200 1.629 11650
2.919 3.242 1.635 10031
2.927 3.251 1.625 10546
2.930 3.254 1.612 9149
3.033 3.369 1.650 10767
3.041 3.378 1.640 7497
3.044 3.381 1.626 4388
3.228 3.585 1.702 3528
3.236 3.594 1.691 5416
3.249 3.609 1.681 4962
3.263 3.623 1.672 3900
3.346 3.717 1.696 5163
3.344 3.714 1.679 5375
3.352 3.723 1.667 4555
3.391 3.766 1.669 4776
3.358 3.730 1.638 3575
3.417 3.795 1.649 4391
3.410 3.787 1.629 4101
3.596 3.994 1.695 3120
3.584 3.980 1.672 4174
3.597 3.995 1.661 7356
3.600 3.998 1.646 7196
3.761 4.177 1.696 9492
3.759 4.174 1.678 16635
3.762 4.178 1.662 17654
3.770 4.187 1.648 10595
3.773 4.190 1.631 8512
3.776 4.193 1.615 10741
3.778 4.196 1.599 8390
3.786 4.205 1.584 4628
4.020 4.465 1.656 5180
4.033 4.480 1.642 5940
4.042 4.489 1.627 6241
4.044 4.492 1.609 4486
4.099 4.552 1.610 6843
4.107 4.561 1.594 6052
4.115 4.570 1.579 3691
4.546 5.049 1.710 3581
4.544 5.046 1.688 2881
4.717 5.239 1.726 2256
4.725 5.248 1.708 2712
4.723 5.246 1.686 2584
4.726 5.249 1.665 2547
5.066 5.626 1.753 1808
5.079 5.641 1.734 2426
5.082 5.645 1.712 3108
5.091 5.654 1.691 2441
5.400 5.997 1.762 2840
5.398 5.995 1.737 3034
5.484 6.091 1.738 2490
5.493 6.100 1.716 4028
5.496 6.103 1.692 4033
5.670 6.298 1.716 2589
5.679 6.307 1.693 2808
5.729 6.362 1.681 2653
5.758 6.395 1.663 3221
5.776 6.415 1.642 4065
5.790 6.430 1.620 3383
5.792 6.433 1.595 2225
6.354 7.057 1.709 2093
6.357 7.061 1.681 2394
6.360 7.064 1.653 2034
6.850 7.608 1.740 1998
6.843 7.600 1.708 2242
6.851 7.609 1.679 2470
6.854 7.612 1.650 2084
7.198 7.994 1.694 2009
7.201 7.997 1.663 2346
7.209 8.006 1.632 2018
7.301 8.109 1.619 1313
7.299 8.106 1.586 1093
7.627 8.471 1.618 1061
8.539 9.483 1.758 911
2.271 2.522 0.555 954
2.272 2.523 0.545 945
8.543 9.488 1.646 921
9.593 10.654 1.789 888
9.596 10.658 1.748 1167
9.599 10.661 1.706 1030
9.602 10.664 1.664 733
9.221 10.240 1.563 529
9.497 10.548 1.564 393
9.606 10.668 1.538 439
9.608 10.671 1.496 409
9.706 10.779 1.468 285
2.381 2.645 0.421 277
2.382 2.645 0.410 298
2.382 2.646 0.400 270
2.395 2.660 0.350 272
7.552 8.387 0.776 275
7.553 8.389 0.743 265
1.640 1.822 0.248 254
1.630 1.810 0.240 467
1.630 1.810 0.233 546
1.635 1.816 0.226 520
1.636 1.816 0.219 626
1.636 1.817 0.212 749
1.636 1.817 0.205 607
1.636 1.817 0.198 450
1.641 1.823 0.192 401
1.641 1.823 0.185 423
1.642 1.823 0.178 476
1.642 1.823 0.171 383
1.551 1.722 1.807 2983
1.554 1.726 1.800 5966
1.557 1.730 1.793 5966
1.561 1.733 1.787 6113
1.559 1.732 1.775 6332
1.563 1.735 1.769 6616
1.566 1.739 1.762 6901
1.569 1.742 1.755 6901
1.589 1.765 1.767 7482
1.597 1.774 1.765 9966
1.600 1.777 1.758 11025
1.603 1.781 1.751 12084
1.611 1.789 1.749 10342
1.636 1.817 1.764 11269
1.639 1.820 1.757 14450
1.638 1.819 1.746 18173
1.641 1.822 1.739 18341
1.644 1.826 1.732 18494
1.647 1.829 1.725 18714
1.650 1.833 1.718 14167
1.658 1.841 1.715 9861
1.652 1.835 1.699 7817
1.646 1.828 1.683 7087
1.654 1.836 1.681 6141
1.670 1.855 1.686 5983
1.677 1.863 1.683 4678
1.743 1.936 1.735 4705
1.742 1.935 1.723 6310
1.741 1.933 1.712 8179
1.766 1.962 1.725 9778
1.774 1.970 1.722 12843
1.772 1.968 1.710 11694
1.766 1.962 1.694 11009
1.774 1.970 1.691 10705
1.822 2.024 1.724 8972
1.830 2.033 1.720 8007
1.842 2.046 1.720 6306
1.864 2.070 1.728 5602
1.871 2.078 1.724 5479
1.879 2.087 1.720 5527
1.873 2.080 1.704 7431
1.871 2.078 1.692 9739
1.874 2.082 1.684 8760
1.896 2.106 1.691 9516
1.908 2.119 1.691 12102
1.911 2.123 1.683 10928
1.919 2.131 1.678 9846
1.922 2.134 1.670 8752
1.916 2.127 1.654 9151
1.914 2.126 1.642 11772
1.921 2.134 1.638 12956
1.929 2.142 1.633 11122
1.941 2.156 1.633 7823
2.005 2.227 1.672 8176
2.022 2.246 1.674 8777
2.054 2.281 1.687 9225
2.057 2.284 1.678 11310
2.055 2.282 1.666 10413
2.063 2.291 1.661 7340
2.089 2.320 1.669 6153
2.092 2.324 1.660 5396
2.200 2.443 1.728 6479
2.084 2.314 1.632 7143
2.263 2.514 1.751 9550
2.262 2.512 1.738 10649
2.260 2.510 1.724 11938
2.268 2.519 1.718 13582
2.271 2.522 1.708 16778
2.298 2.552 1.715 21461
2.306 2.561 1.709 23805
2.309 2.564 1.699 17578
2.326 2.584 1.699 10699
2.334 2.592 1.692 12219
2.332 2.590 1.679 13467
2.331 2.588 1.666 13179
2.329 2.586 1.652 10004
2.434 2.703 1.709 8941
2.442 2.712 1.702 9968
2.440 2.710 1.688 11159
2.433 2.702 1.671 15173
2.441 2.711 1.664 18200
2.444 2.714 1.654 19465
2.447 2.717 1.643 16547
2.445 2.715 1.629 11690
2.502 2.778 1.652 10555
2.505 2.782 1.641 10010
2.527 2.807 1.642 10680
2.535 2.815 1.634 9855
2.508 2.786 1.606 10499
2.516 2.794 1.598 13687
2.529 2.809 1.593 11630
2.542 2.823 1.588 10916
2.554 2.837 1.583 9274
2.720 3.021 1.664 7860
2.723 3.025 1.653 9285
2.726 3.028 1.641 8541
2.729 3.031 1.629 5837
2.861 3.178 1.688 9772
2.855 3.170 1.671 13490
2.853 3.168 1.656 11557
2.870 3.188 1.651 12301
2.878 3.197 1.642 16114
2.881 3.200 1.629 12843
2.919 3.242 1.635 11655
2.927 3.251 1.625 12328
2.930 3.254 1.612 10688
3.038 3.374 1.653 12290
3.041 3.378 1.640 8743
3.044 3.381 1.626 5541
3.037 3.373 1.608 5012
3.236 3.594 1.691 4923
3.249 3.609 1.681 4398
3.263 3.623 1.672 3055
3.346 3.717 1.696 4067
3.344 3.714 1.679 4672
3.408 3.785 1.693 4517
3.406 3.783 1.676 4590
3.419 3.797 1.666 3667
3.417 3.795 1.649 4390
3.415 3.793 1.632 4118
3.484 3.869 1.646 3704
3.589 3.986 1.675 4566
3.592 3.989 1.659 7124
3.595 3.992 1.644 6213
3.761 4.177 1.696 11913
3.759 4.174 1.678 21915
3.762 4.178 1.662 24293
3.770 4.187 1.648 13570
3.773 4.190 1.631 11053
3.770 4.188 1.613 16124
3.773 4.191 1.597 12654
3.781 4.200 1.582 6688
4.015 4.459 1.654 4603
4.033 4.480 1.642 4846
4.042 4.489 1.627 5270
4.086 4.537 1.624 4878
4.099 4.552 1.610 8201
4.102 4.555 1.593 6921
4.115 4.570 1.579 3716
4.118 4.573 1.561 3105
4.538 5.040 1.687 2046
4.717 5.239 1.726 2158
4.725 5.248 1.708 2578
4.723 5.246 1.686 2651
4.726 5.249 1.665 2731
5.066 5.626 1.753 1714
5.079 5.641 1.734 2164
5.082 5.645 1.712 2906
5.085 5.648 1.690 2352
5.395 5.992 1.760 3035
5.398 5.995 1.737 3215
5.484 6.091 1.738 3376
5.493 6.100 1.716 5124
5.496 6.103 1.692 5028
5.504 6.113 1.670 3438
5.679 6.307 1.693 3490
5.729 6.362 1.681 2932
5.752 6.389 1.662 3473
5.776 6.415 1.642 4273
5.790 6.430 1.620 3513
5.792 6.433 1.595 2271
6.354 7.057 1.709 1820
6.357 7.061 1.681 2081
6.360 7.064 1.653 1820
6.850 7.608 1.740 2027
6.843 7.600 1.708 2364
6.846 7.603 1.678 2470
6.854 7.612 1.650 1893
7.203 8.000 1.695 2007
7.206 8.003 1.664 2352
7.209 8.006 1.632 2043
7.222 8.021 1.603 1332
7.619 8.462 1.650 1066
7.527 8.360 1.599 1012
8.539 9.483 1.758 954
8.647 9.604 1.741 973
8.550 9.496 1.685 930
8.548 9.494 1.647 929
8.625 9.579 1.622 845
9.596 10.658 1.748 1058
9.605 10.667 1.707 939
9.602 10.664 1.664 693
9.589 10.650 1.620 474
9.503 10.554 1.565 441
9.606 10.668 1.538 466
9.608 10.671 1.496 432
9.616 10.680 1.455 287
2.370 2.632 0.429 458
2.376 2.639 0.420 608
2.371 2.633 0.409 671
2.372 2.634 0.399 692
2.372 2.634 0.389 557
2.373 2.635 0.379 467
2.373 2.636 0.368 450
2.373 2.636 0.358 404
2.374 2.636 0.348 374
2.380 2.643 0.338 404
2.385 2.649 0.328 435
2.380 2.644 0.318 363
2.375 2.638 0.307 265
1.619 1.798 0.239 351
1.619 1.798 0.232 483
1.619 1.799 0.225 558
1.614 1.793 0.218 551
1.609 1.787 0.211 497
1.615 1.793 0.204 441
1.620 1.799 0.198 386
1.620 1.799 0.191 275
7.409 8.229 0.345 291
7.404 8.223 0.313 314
7.405 8.224 0.281 257
1.555 1.727 1.811 3006
1.558 1.731 1.805 6013
1.562 1.734 1.798 6013
1.561 1.733 1.787 5527
1.547 1.718 1.762 5236
1.563 1.735 1.769 6039
1.566 1.739 1.762 6896
1.569 1.742 1.755 6896
1.589 1.765 1.767 7445
1.597 1.774 1.765 9858
1.600 1.777 1.758 10611
1.603 1.781 1.751 11364
1.611 1.789 1.749 9665
1.636 1.817 1.764 10738
1.639 1.820 1.757 13932
1.638 1.819 1.746 17703
1.641 1.822 1.739 17830
1.644 1.826 1.732 17748
1.647 1.829 1.725 17756
1.650 1.833 1.718 13192
1.658 1.841 1.715 8837
1.647 1.830 1.695 7271
1.646 1.828 1.683 6802
1.654 1.836 1.681 5914
1.670 1.855 1.686 5766
1.677 1.863 1.683 4517
1.743 1.936 1.735 4616
1.742 1.935 1.723 6390
1.745 1.938 1.716 8344
1.762 1.956 1.721 10252
1.769 1.965 1.718 13507
1.768 1.963 1.706 12810
1.766 1.962 1.694 12555
1.769 1.965 1.687 12381
1.777 1.973 1.683 10368
1.780 1.977 1.676 8401
1.778 1.975 1.664 6072
1.859 2.065 1.724 4998
1.867 2.073 1.720 4983
1.879 2.087 1.720 5200
1.873 2.080 1.704 7183
1.871 2.078 1.692 9487
1.874 2.082 1.684 8424
1.896 2.106 1.691 8785
1.908 2.119 1.691 11148
1.911 2.123 1.683 10321
1.919 2.131 1.678 9653
1.922 2.134 1.670 8678
1.916 2.127 1.654 9625
1.914 2.126 1.642 12768
1.921 2.134 1.638 14212
1.929 2.142 1.633 12172
1.932 2.146 1.625 8371
2.005 2.227 1.672 7397
2.027 2.251 1.678 8678
2.054 2.281 1.687 9410
2.057 2.284 1.678 11636
2.060 2.288 1.669 10967
2.067 2.296 1.664 8151
2.080 2.310 1.662 7101
2.078 2.308 1.650 6107
2.200 2.443 1.728 6509
2.084 2.314 1.632 7665
2.263 2.514 1.751 9182
2.266 2.517 1.741 10016
2.260 2.510 1.724 10958
2.268 2.519 1.718 12297
2.276 2.527 1.712 15949
2.298 2.552 1.715 21426
2.306 2.561 1.709 23497
2.309 2.564 1.699 17111
2.331 2.589 1.702 11192
2.334 2.592 1.692 12825
2.337 2.596 1.682 13081
2.335 2.594 1.669 12266
2.338 2.597 1.659 8855
2.434 2.703 1.709 8961
2.437 2.706 1.699 9934
2.435 2.704 1.685 11180
2.433 2.702 1.671 15034
2.436 2.705 1.661 18130
2.444 2.714 1.654 19628
2.447 2.717 1.643 16710
2.445 2.715 1.629 12367
2.443 2.713 1.616 10299
2.460 2.733 1.614 10181
2.527 2.807 1.642 9809
2.535 2.815 1.634 9269
2.508 2.786 1.606 10835
2.516 2.794 1.598 13896
2.529 2.809 1.593 12064
2.542 2.823 1.588 11373
2.549 2.831 1.580 8792
2.720 3.021 1.664 8416
2.723 3.025 1.653 10093
2.726 3.028 1.641 9417
2.729 3.031 1.629 6414
2.861 3.178 1.688 10549
2.855 3.170 1.671 14178
2.853 3.168 1.656 11460
2.870 3.188 1.651 11645
2.878 3.197 1.642 15984
2.886 3.206 1.632 13063
2.919 3.242 1.635 12688
2.927 3.251 1.625 13480
2.930 3.254 1.612 11588
3.038 3.374 1.653 13553
3.041 3.378 1.640 10060
3.044 3.381 1.626 7108
3.042 3.379 1.611 5823
3.241 3.600 1.693 4597
3.249 3.609 1.681 4149
3.263 3.623 1.672 2714
3.341 3.711 1.694 3220
3.339 3.709 1.677 4113
3.408 3.785 1.693 5048
3.416 3.794 1.680 5015
3.419 3.797 1.666 4053
3.417 3.795 1.649 4778
3.420 3.798 1.634 4430
3.484 3.869 1.646 4127
3.589 3.986 1.675 4762
3.592 3.989 1.659 6701
3.748 4.162 1.708 6908
3.761 4.177 1.696 14067
3.759 4.174 1.678 26270
3.762 4.178 1.662 29896
3.765 4.181 1.645 16756
3.773 4.190 1.631 13809
3.770 4.188 1.613 20965
3.773 4.191 1.597 16409
3.781 4.200 1.582 8540
4.010 4.454 1.652 4329
4.028 4.474 1.640 4169
4.036 4.483 1.625 4508
4.086 4.537 1.624 5464
4.094 4.546 1.608 9035
4.102 4.555 1.593 7172
4.110 4.564 1.577 3571
4.118 4.573 1.561 3512
4.120 4.576 1.543 2347
4.717 5.239 1.726 2071
4.720 5.242 1.706 2412
4.723 5.246 1.686 2587
4.726 5.249 1.665 2752
4.729 5.252 1.645 1613
5.074 5.635 1.732 1826
5.082 5.645 1.712 2551
5.085 5.648 1.690 2138
5.395 5.992 1.760 3131
5.398 5.995 1.737 3265
5.484 6.091 1.738 4017
5.493 6.100 1.716 5923
5.496 6.103 1.692 5785
5.504 6.113 1.670 4202
5.679 6.307 1.693 4060
5.734 6.368 1.683 3097
5.747 6.383 1.660 3575
5.776 6.415 1.642 4208
5.790 6.430 1.620 3437
5.792 6.433 1.595 2211
6.354 7.057 1.709 1574
6.363 7.067 1.682 1803
6.852 7.610 1.771 1793
6.850 7.608 1.740 2052
6.843 7.600 1.708 2383
6.846 7.603 1.678 2354
6.849 7.606 1.648 1682
7.203 8.000 1.695 1929
7.206 8.003 1.664 2252
7.214 8.012 1.633 1958
7.222 8.021 1.603 1288
7.545 8.380 1.636 1089
7.527 8.360 1.599 1031
8.539 9.483 1.758 956
8.647 9.604 1.741 1045
8.550 9.496 1.685 1009
8.548 9.494 1.647 924
8.625 9.579 1.622 801
9.591 10.652 1.747 975
9.605 10.667 1.707 848
9.586 10.647 1.662 654
9.589 10.650 1.620 485
9.508 10.560 1.566 435
9.600 10.662 1.537 464
9.608 10.671 1.496 420
9.616 10.680 1.455 270
2.365 2.626 0.429 381
2.365 2.627 0.419 543
2.366 2.628 0.409 750
2.366 2.628 0.398 1068
2.367 2.629 0.388 1086
2.362 2.623 0.377 1004
2.368 2.630 0.368 825
2.373 2.636 0.358 459
2.379 2.642 0.348 271
7.249 8.050 0.656 299
7.255 8.057 0.625 332
7.256 8.058 0.593 380
7.257 8.059 0.562 392
1.619 1.799 0.225 407
1.625 1.805 0.219 518
1.625 1.805 0.212 575
1.625 1.805 0.205 457
7.392 8.210 0.409 420
1.631 1.811 0.191 401
7.393 8.211 0.345 354
7.394 8.211 0.312 368
7.399 8.218 0.280 267
4.205 4.671 -0.492 264
1.564 1.737 1.821 3146
1.567 1.740 1.814 6292
1.570 1.744 1.807 6292
1.565 1.738 1.791 5284
1.542 1.713 1.757 4914
1.567 1.740 1.773 5898
1.570 1.744 1.767 7157
1.573 1.747 1.760 7157
1.589 1.765 1.767 7938
1.597 1.774 1.765 10106
1.600 1.777 1.758 10373
1.599 1.776 1.746 10703
1.611 1.789 1.749 8901
1.640 1.822 1.768 10136
1.639 1.820 1.757 13288
1.638 1.819 1.746 17186
1.641 1.822 1.739 17255
1.644 1.826 1.732 16859
1.647 1.829 1.725 16589
1.650 1.833 1.718 12022
1.693 1.881 1.749 8019
1.701 1.889 1.746 7379
1.708 1.897 1.743 7034
1.658 1.841 1.685 5728
1.670 1.855 1.686 5452
1.677 1.863 1.683 4324
1.743 1.936 1.735 5238
1.742 1.935 1.723 7059
1.745 1.938 1.716 9018
1.762 1.956 1.721 11126
1.765 1.960 1.713 14414
1.768 1.963 1.706 14329
1.766 1.962 1.694 14279
1.769 1.965 1.687 14163
1.777 1.973 1.683 11893
1.780 1.977 1.676 9761
1.783 1.980 1.668 6959
1.777 1.973 1.652 4483
1.784 1.982 1.649 4721
1.792 1.990 1.645 5096
1.873 2.080 1.704 6714
1.871 2.078 1.692 8917
1.874 2.082 1.684 7740
1.896 2.106 1.691 7698
