1.446 3.830 1.659 4904
1.452 3.848 1.653 6718
1.449 3.838 1.635 5888
1.477 3.912 1.651 5798
1.481 3.923 1.641 5726
1.466 3.885 1.613 6370
1.471 3.896 1.604 8060
1.477 3.914 1.597 7123
1.484 3.932 1.590 5788
1.525 4.041 1.617 10467
1.529 4.052 1.607 15466
1.528 4.049 1.592 13077
1.530 4.053 1.580 10546
1.531 4.057 1.567 9461
1.612 4.272 1.629 7248
1.619 4.290 1.621 5159
1.639 4.343 1.625 4027
1.673 4.432 1.640 2989
1.674 4.436 1.627 2996
1.681 4.454 1.618 2750
1.693 4.487 1.613 2462
1.719 4.554 1.620 4093
1.723 4.565 1.609 3759
1.730 4.584 1.599 1991
1.772 4.694 1.619 2991
1.768 4.684 1.600 3350
1.777 4.709 1.592 2842
1.830 4.848 1.619 2728
1.834 4.859 1.606 3519
1.841 4.878 1.596 5177
1.840 4.875 1.579 9609
1.839 4.871 1.561 11434
1.843 4.882 1.548 12237
1.844 4.886 1.533 10677
1.843 4.883 1.516 6211
1.844 4.887 1.501 5890
1.846 4.890 1.486 5346
1.974 5.231 1.564 3877
1.989 5.271 1.557 3651
2.029 5.375 1.568 4812
2.030 5.379 1.551 6074
2.032 5.383 1.535 6039
2.030 5.380 1.516 4053
2.043 5.412 1.507 3270
2.047 5.423 1.492 3779
2.051 5.434 1.477 3680
2.052 5.438 1.460 2468
2.220 5.882 1.550 1652
2.175 5.763 1.502 1648
2.310 6.121 1.568 1839
2.314 6.132 1.551 2457
2.319 6.143 1.533 3597
2.320 6.147 1.514 4481
2.319 6.143 1.494 3884
2.317 6.140 1.473 2177
2.384 6.318 1.492 2089
2.386 6.321 1.472 2493
2.626 6.957 1.585 3581
2.627 6.961 1.563 4022
2.634 6.980 1.545 2880
2.636 6.983 1.523 2663
2.863 7.584 1.619 3440
2.864 7.588 1.595 5204
2.863 7.585 1.570 6560
2.864 7.589 1.547 6342
2.866 7.593 1.523 4426
2.663 7.056 1.402 2591
2.667 7.067 1.382 1816
3.058 8.101 1.539 2493
2.874 7.615 1.430 3159
2.875 7.618 1.407 2870
3.183 8.434 1.517 2297
3.188 8.445 1.492 2003
3.471 9.196 1.583 2084
3.472 9.200 1.555 2370
3.615 9.578 1.583 2864
3.614 9.575 1.552 2659
3.820 10.122 1.601 2198
3.822 10.126 1.570 2921
3.823 10.129 1.538 4024
3.825 10.133 1.507 3801
3.829 10.144 1.476 2548
3.866 10.243 1.457 1650
3.834 10.159 1.414 1229
3.836 10.162 1.383 1168
4.170 11.049 1.457 967
4.166 11.038 1.421 1085
5.057 13.398 1.654 1117
5.058 13.402 1.612 1246
5.060 13.406 1.571 1392
5.061 13.410 1.529 1338
5.063 13.414 1.487 1217
5.064 13.417 1.446 1166
5.065 13.421 1.404 1105
5.067 13.424 1.362 990
5.071 13.435 1.321 793
5.072 13.438 1.279 477
4.287 11.358 1.067 359
3.662 9.703 0.538 401
3.663 9.704 0.508 598
3.663 9.705 0.478 622
3.658 9.691 0.447 930
3.655 9.685 0.417 1350
3.653 9.678 0.387 1497
3.650 9.671 0.356 1232
3.645 9.657 0.326 1035
3.637 9.635 0.296 1359
3.634 9.628 0.266 1594
3.631 9.621 0.236 1495
3.631 9.621 0.206 1330
3.631 9.621 0.176 1165
3.629 9.614 0.146 1085
3.623 9.599 0.116 1061
3.620 9.592 0.087 1080
3.615 9.577 0.057 993
3.612 9.569 0.027 898
3.612 9.569 -0.002 887
3.611 9.568 -0.032 876
3.611 9.568 -0.062 852
3.611 9.567 -0.092 828
3.608 9.559 -0.121 654
3.596 9.529 -0.150 659
3.593 9.520 -0.179 703
3.593 9.520 -0.209 746
3.590 9.511 -0.238 604
3.587 9.503 -0.267 486
3.586 9.502 -0.297 345
1.545 4.095 -0.148 257
1.924 5.099 -0.236 365
1.924 5.098 -0.251 513
1.924 5.096 -0.267 724
1.923 5.095 -0.283 936
1.923 5.094 -0.299 936
1.922 5.093 -0.314 1185
1.919 5.084 -0.329 1434
1.921 5.090 -0.346 1514
1.921 5.089 -0.362 1595
1.920 5.088 -0.377 1540
1.917 5.079 -0.392 1496
1.916 5.077 -0.408 1496
1.916 5.076 -0.424 1419
1.915 5.074 -0.439 1341
1.915 5.073 -0.455 670
0.811 2.135 1.759 3067
0.813 2.140 1.753 6135
0.815 2.144 1.746 6135
0.803 2.112 1.712 4837
0.800 2.104 1.697 5051
0.840 2.211 1.768 6565
0.840 2.210 1.756 9514
0.841 2.214 1.750 9514
0.845 2.225 1.747 10855
0.849 2.235 1.745 12592
0.853 2.246 1.743 10329
0.860 2.262 1.745 8808
0.875 2.303 1.764 6983
0.879 2.314 1.762 8816
0.881 2.318 1.755 8462
0.883 2.323 1.748 8029
0.882 2.321 1.736 7948
0.865 2.276 1.694 6327
0.864 2.274 1.683 6002
0.866 2.278 1.676 4210
0.898 2.363 1.725 3101
0.926 2.436 1.764 4793
0.925 2.434 1.753 7795
0.929 2.445 1.749 9667
0.933 2.456 1.746 11760
0.937 2.466 1.743 9064
0.941 2.477 1.739 6698
0.945 2.488 1.736 5773
0.964 2.536 1.757 5888
0.951 2.503 1.725 6820
0.950 2.501 1.713 8698
0.954 2.511 1.709 9119
0.956 2.516 1.702 9668
0.960 2.526 1.698 6906
0.984 2.588 1.726 5225
0.973 2.560 1.699 4628
1.001 2.635 1.734 5992
0.998 2.627 1.718 6862
1.000 2.631 1.710 6241
0.997 2.622 1.694 5844
1.001 2.633 1.690 6683
1.005 2.644 1.686 7734
1.048 2.758 1.743 7462
1.047 2.756 1.731 10306
1.049 2.760 1.722 11414
1.048 2.758 1.710 8435
1.047 2.756 1.698 5768
1.051 2.766 1.693 5723
1.060 2.790 1.696 6392
1.064 2.801 1.691 6871
1.066 2.805 1.682 5248
1.125 2.960 1.758 8216
1.124 2.958 1.745 10469
1.126 2.963 1.736 11662
1.125 2.960 1.723 12071
1.127 2.965 1.714 10858
1.133 2.982 1.712 9594
1.140 3.000 1.710 10071
1.142 3.004 1.701 9117
1.146 3.015 1.695 9503
1.150 3.026 1.689 11499
1.154 3.037 1.683 13075
1.156 3.041 1.674 9277
1.190 3.132 1.709 9438
1.194 3.143 1.703 9997
1.199 3.154 1.696 9020
1.205 3.172 1.693 8205
1.212 3.189 1.690 10137
1.216 3.200 1.684 11142
1.218 3.204 1.674 10514
1.217 3.202 1.661 11120
1.218 3.206 1.651 11269
1.220 3.210 1.641 10108
1.224 3.221 1.635 9556
1.226 3.225 1.625 9683
1.248 3.283 1.640 10163
1.254 3.301 1.636 14962
1.259 3.312 1.629 12599
1.260 3.316 1.619 5642
1.321 3.477 1.679 5247
1.349 3.549 1.699 4034
1.314 3.458 1.646 3787
1.349 3.551 1.674 3116
1.351 3.555 1.663 4360
1.345 3.539 1.643 6123
1.346 3.543 1.632 7332
1.348 3.547 1.621 5539
1.425 3.751 1.695 5411
1.430 3.762 1.686 4672
1.394 3.669 1.634 5699
1.428 3.756 1.657 6550
1.437 3.781 1.654 6305
1.457 3.834 1.662 4477
1.461 3.845 1.653 6191
1.457 3.835 1.635 5633
1.488 3.916 1.653 5358
1.482 3.899 1.633 5736
1.478 3.889 1.616 6824
1.479 3.893 1.604 8623
1.486 3.911 1.597 8398
1.490 3.922 1.588 7581
1.537 4.045 1.620 10060
1.539 4.049 1.607 17209
1.537 4.046 1.592 15727
1.539 4.050 1.580 13062
1.540 4.054 1.567 11312
1.622 4.268 1.629 8028
1.634 4.300 1.626 5956
1.647 4.333 1.622 4226
1.683 4.428 1.640 3371
1.684 4.432 1.627 4020
1.689 4.443 1.615 3420
1.696 4.462 1.606 2332
1.729 4.550 1.620 2993
1.736 4.569 1.611 2744
1.749 4.601 1.606 2200
1.785 4.697 1.621 3097
1.784 4.694 1.604 3392
1.788 4.705 1.592 2896
1.838 4.837 1.617 2641
1.848 4.862 1.609 3283
1.855 4.881 1.598 3753
1.851 4.870 1.579 5380
1.850 4.867 1.561 5997
1.857 4.885 1.551 6258
1.855 4.882 1.533 5706
1.971 5.186 1.604 3768
1.855 4.882 1.501 3138
1.857 4.886 1.486 3396
1.973 5.191 1.554 4515
1.980 5.209 1.542 4851
1.986 5.227 1.529 4657
2.040 5.367 1.549 6101
2.041 5.371 1.533 7122
2.040 5.368 1.514 4826
2.030 5.343 1.490 2786
2.059 5.418 1.492 3827
2.063 5.429 1.477 3387
2.215 5.830 1.558 2432
2.220 5.841 1.541 2363
2.257 5.938 1.546 2099
2.258 5.942 1.527 2244
2.331 6.134 1.552 1963
2.333 6.138 1.533 3336
2.334 6.142 1.514 4230
2.335 6.145 1.495 3598
2.331 6.134 1.473 1813
2.404 6.327 1.495 2009
2.403 6.323 1.474 2649
2.642 6.951 1.585 2606
2.640 6.948 1.562 2914
2.650 6.974 1.545 2377
2.649 6.970 1.522 2550
2.880 7.578 1.619 3865
2.881 7.582 1.595 5682
2.877 7.571 1.569 7159
2.879 7.575 1.545 6567
2.883 7.586 1.523 4387
2.879 7.575 1.497 3082
2.883 7.586 1.475 2493
2.890 7.605 1.454 2910
2.889 7.601 1.429 3569
2.893 7.612 1.407 3183
3.203 8.427 1.517 2174
3.207 8.438 1.492 2168
3.211 8.449 1.467 2148
3.493 9.192 1.555 1990
3.637 9.570 1.583 2578
3.633 9.559 1.551 2485
3.840 10.106 1.600 2157
3.845 10.117 1.570 2845
3.846 10.121 1.538 3876
3.848 10.124 1.507 3539
3.852 10.135 1.476 2242
3.892 10.242 1.458 1580
3.857 10.150 1.414 1138
3.861 10.161 1.384 1083
4.380 11.525 1.515 1113
4.384 11.536 1.480 1279
4.388 11.547 1.445 1228
5.089 13.390 1.612 1239
5.090 13.394 1.571 1397
5.092 13.398 1.529 1389
5.093 13.402 1.487 1303
5.095 13.406 1.446 1255
5.096 13.409 1.404 1165
5.097 13.413 1.362 1012
5.101 13.423 1.321 806
5.102 13.426 1.279 487
5.101 13.422 1.237 321
3.679 9.681 0.507 324
3.677 9.675 0.477 351
3.677 9.675 0.447 547
3.675 9.669 0.417 925
3.672 9.662 0.386 1129
3.669 9.655 0.356 957
3.667 9.649 0.326 838
3.659 9.627 0.296 1201
3.656 9.620 0.266 1534
3.653 9.613 0.236 1541
3.653 9.613 0.206 1233
3.648 9.598 0.176 950
3.642 9.584 0.146 1018
3.634 9.561 0.116 1196
3.634 9.561 0.087 1197
3.634 9.561 0.057 1199
3.633 9.561 0.027 1200
3.633 9.560 -0.002 1009
3.633 9.560 -0.032 818
3.633 9.560 -0.062 862
3.636 9.566 -0.092 907
3.627 9.543 -0.121 816
3.618 9.521 -0.150 939
3.618 9.520 -0.179 1058
3.615 9.511 -0.209 1212
3.611 9.503 -0.238 1062
3.608 9.495 -0.267 955
3.608 9.493 -0.297 687
3.607 9.492 -0.326 420
3.607 9.491 -0.356 288
1.934 5.088 -0.219 267
1.936 5.094 -0.236 433
1.936 5.093 -0.251 600
1.935 5.092 -0.267 843
1.935 5.091 -0.283 1087
1.934 5.090 -0.299 1087
1.934 5.089 -0.314 1406
1.931 5.080 -0.329 1730
1.933 5.086 -0.346 1880
1.932 5.085 -0.362 2034
1.929 5.076 -0.377 2061
1.928 5.074 -0.392 2096
1.928 5.073 -0.408 2096
1.927 5.071 -0.424 2043
1.927 5.070 -0.439 1990
1.926 5.068 -0.455 995
0.818 2.133 1.759 3326
0.820 2.137 1.753 6652
0.821 2.141 1.746 6652
0.821 2.140 1.735 4552
0.806 2.102 1.697 4343
0.845 2.203 1.763 5840
0.847 2.207 1.756 9060
0.848 2.212 1.750 9060
0.852 2.222 1.747 10695
0.859 2.239 1.750 13138
0.863 2.249 1.747 11017
0.867 2.260 1.745 9463
0.873 2.276 1.747 6801
0.889 2.317 1.766 8395
0.891 2.322 1.759 8077
0.890 2.320 1.748 7432
0.889 2.318 1.736 7183
0.872 2.273 1.694 5604
0.871 2.271 1.683 5120
0.873 2.275 1.676 3767
0.905 2.360 1.725 2791
0.933 2.433 1.764 4331
0.935 2.438 1.757 6869
0.939 2.448 1.754 8426
0.941 2.453 1.746 10130
0.945 2.464 1.743 7957
0.949 2.474 1.739 5995
0.955 2.491 1.740 5718
0.969 2.527 1.753 6293
0.959 2.500 1.725 7271
0.958 2.498 1.713 9098
0.960 2.502 1.705 9019
0.964 2.513 1.702 9044
0.965 2.517 1.694 6721
0.974 2.540 1.698 3634
0.981 2.557 1.699 4076
1.002 2.613 1.722 5889
1.004 2.617 1.714 7313
1.005 2.621 1.706 6595
1.005 2.619 1.694 6030
1.009 2.630 1.690 6737
1.010 2.634 1.682 7596
1.012 2.638 1.674 7755
1.056 2.753 1.731 8582
1.060 2.763 1.726 9562
1.059 2.761 1.714 7102
1.071 2.791 1.720 5125
1.072 2.796 1.712 5665
1.074 2.800 1.703 6756
1.076 2.804 1.695 7305
1.080 2.815 1.690 5550
1.132 2.950 1.754 7267
1.133 2.955 1.745 9180
1.135 2.959 1.736 10352
1.134 2.957 1.723 11087
1.133 2.955 1.711 10195
1.142 2.979 1.712 8744
1.149 2.996 1.710 8541
1.151 3.001 1.701 7164
1.155 3.011 1.695 8394
1.159 3.022 1.689 11118
1.163 3.033 1.683 12619
1.162 3.031 1.671 8968
1.200 3.128 1.709 8598
1.207 3.146 1.706 9192
1.211 3.157 1.700 7585
1.212 3.161 1.690 6523
1.224 3.192 1.694 7761
1.223 3.190 1.681 11675
1.225 3.194 1.671 13713
1.224 3.191 1.658 15737
1.226 3.195 1.648 16990
1.230 3.206 1.641 14592
1.231 3.210 1.631 12265
1.233 3.214 1.621 11709
1.232 3.212 1.608 10029
1.267 3.304 1.639 13114
1.269 3.308 1.629 11015
1.328 3.462 1.687 5625
1.332 3.473 1.679 5536
1.360 3.545 1.699 4893
1.327 3.461 1.649 4142
1.352 3.526 1.665 3232
1.357 3.537 1.657 5369
1.356 3.535 1.643 7519
1.357 3.539 1.632 7819
1.361 3.550 1.624 5193
1.437 3.746 1.695 5975
1.399 3.647 1.640 5371
1.403 3.658 1.631 6157
1.439 3.752 1.657 5669
1.446 3.770 1.651 5086
1.479 3.857 1.673 4712
1.473 3.840 1.653 4898
1.472 3.838 1.638 4357
1.503 3.918 1.656 4481
1.491 3.887 1.631 5190
1.493 3.891 1.619 6869
1.494 3.895 1.606 9273
1.498 3.906 1.597 9163
1.502 3.917 1.588 8690
1.549 4.040 1.620 9971
1.551 4.044 1.607 17444
1.550 4.041 1.592 16460
1.551 4.045 1.580 13141
1.553 4.049 1.567 10518
1.635 4.263 1.629 7817
1.650 4.302 1.628 5937
1.657 4.320 1.620 4177
1.699 4.430 1.643 3414
1.698 4.427 1.627 4566
1.702 4.438 1.615 3775
1.709 4.456 1.606 2606
1.705 4.446 1.588 1960
1.753 4.570 1.613 2033
1.765 4.603 1.608 2731
1.802 4.699 1.623 2816
1.801 4.696 1.607 3130
1.805 4.707 1.594 2895
1.856 4.839 1.619 2752
1.865 4.864 1.611 3152
1.864 4.861 1.594 3206
1.860 4.850 1.574 3326
1.927 5.025 1.610 3945
1.973 5.143 1.628 4003
1.980 5.162 1.616 4871
1.984 5.173 1.602 4768
1.983 5.170 1.584 3809
1.976 5.152 1.562 5931
1.980 5.163 1.548 8005
1.990 5.188 1.538 6523
2.002 5.221 1.529 5668
2.053 5.354 1.547 5352
2.055 5.358 1.531 7475
2.054 5.354 1.512 5596
2.049 5.344 1.492 3148
2.211 5.765 1.581 3355
2.221 5.790 1.568 3463
2.228 5.808 1.554 3133
2.232 5.819 1.538 2919
2.272 5.924 1.544 2306
2.279 5.942 1.529 2250
2.294 5.982 1.519 1947
2.301 6.000 1.504 2901
2.353 6.134 1.514 3272
2.415 6.297 1.531 2846
2.425 6.323 1.516 1880
2.426 6.326 1.496 1993
2.420 6.308 1.472 2394
2.655 6.921 1.580 2470
2.656 6.925 1.559 2249
2.669 6.958 1.543 1916
2.670 6.962 1.522 2488
2.903 7.569 1.619 3804
2.905 7.573 1.595 5494
2.901 7.562 1.569 7008
2.899 7.559 1.544 6070
2.901 7.563 1.521 3948
2.899 7.559 1.496 3476
2.909 7.585 1.476 3172
2.913 7.596 1.454 3139
2.912 7.592 1.429 3330
2.913 7.595 1.405 2969
2.917 7.606 1.383 1891
3.233 8.428 1.492 1865
3.237 8.439 1.467 1927
3.477 9.065 1.537 1951
3.666 9.559 1.583 2142
3.662 9.548 1.551 2138
3.871 10.094 1.600 1911
3.876 10.105 1.570 2470
3.877 10.109 1.538 3265
3.879 10.113 1.507 2843
3.911 10.197 1.486 1909
3.924 10.230 1.458 1622
4.018 10.476 1.457 1552
4.416 11.515 1.552 1298
4.421 11.526 1.517 1633
4.419 11.522 1.480 1561
4.421 11.526 1.444 1244
5.130 13.375 1.612 1052
5.131 13.379 1.571 1194
5.133 13.383 1.529 1204
5.134 13.386 1.487 1162
5.136 13.390 1.446 1142
5.137 13.393 1.404 1046
5.138 13.397 1.362 879
5.142 13.407 1.321 684
5.144 13.411 1.279 414
5.142 13.406 1.237 273
3.704 9.657 0.447 288
3.704 9.658 0.417 540
3.702 9.651 0.386 705
3.699 9.644 0.356 649
3.688 9.615 0.326 641
3.688 9.616 0.296 961
3.685 9.609 0.266 1325
3.685 9.609 0.236 1391
3.683 9.602 0.206 1089
3.677 9.587 0.176 859
3.663 9.550 0.146 1025
3.663 9.550 0.116 1232
3.660 9.543 0.087 1268
3.660 9.542 0.057 1382
3.660 9.542 0.027 1428
3.660 9.542 -0.002 1075
3.651 9.519 -0.032 787
3.665 9.556 -0.062 800
3.665 9.555 -0.092 871
3.656 9.532 -0.121 875
3.650 9.517 -0.150 1147
3.647 9.509 -0.179 1373
3.644 9.500 -0.209 1682
3.641 9.492 -0.238 1536
3.637 9.483 -0.267 1439
3.637 9.482 -0.297 1065
3.639 9.488 -0.327 699
3.636 9.480 -0.356 508
3.624 9.449 -0.384 380
3.623 9.447 -0.413 281
1.565 4.080 -0.123 260
1.565 4.080 -0.135 332
1.567 4.086 -0.148 401
1.567 4.085 -0.161 403
1.569 4.092 -0.174 394
1.951 5.086 -0.267 391
1.950 5.085 -0.283 503
1.950 5.084 -0.299 503
1.949 5.083 -0.314 642
1.949 5.081 -0.330 782
1.948 5.080 -0.346 849
1.948 5.079 -0.362 916
1.947 5.077 -0.377 938
1.947 5.076 -0.393 961
1.946 5.074 -0.409 961
1.946 5.073 -0.424 964
1.945 5.071 -0.440 968
1.944 5.070 -0.456 484
0.823 2.131 1.759 3555
0.825 2.135 1.753 7110
0.827 2.139 1.746 7110
0.828 2.144 1.740 5183
0.809 2.094 1.692 3650
0.846 2.189 1.754 5122
0.850 2.199 1.752 8214
0.851 2.203 1.745 8214
0.860 2.226 1.752 10207
0.864 2.237 1.750 13338
0.868 2.247 1.747 11596
0.872 2.257 1.745 10252
0.879 2.274 1.747 7104
0.897 2.321 1.771 7784
0.899 2.326 1.763 7570
0.896 2.318 1.748 6684
0.893 2.310 1.732 6360
0.878 2.271 1.694 5004
0.879 2.275 1.687 4123
0.881 2.279 1.680 3202
0.911 2.358 1.725 3183
0.942 2.437 1.769 4004
0.941 2.435 1.757 6031
0.945 2.446 1.754 7339
0.947 2.450 1.746 8702
0.951 2.461 1.743 7152
0.962 2.491 1.752 6469
0.967 2.501 1.748 6484
0.973 2.518 1.749 6600
0.965 2.497 1.725 6762
0.964 2.495 1.713 7408
0.966 2.500 1.705 7461
0.970 2.510 1.702 7604
0.972 2.514 1.694 6065
0.981 2.538 1.698 3952
1.014 2.625 1.742 4564
1.009 2.610 1.722 6237
1.010 2.615 1.714 7378
1.010 2.612 1.702 7195
1.009 2.610 1.690 7384
1.013 2.621 1.686 8186
1.017 2.632 1.682 9191
1.019 2.636 1.674 9508
1.025 2.653 1.674 10136
1.027 2.657 1.665 10714
1.028 2.661 1.657 7912
1.078 2.789 1.720 5431
1.079 2.793 1.712 5755
1.084 2.804 1.707 6850
1.085 2.808 1.698 7543
1.089 2.819 1.693 5882
1.139 2.948 1.754 6206
1.141 2.952 1.745 7756
1.142 2.956 1.736 8985
1.142 2.954 1.723 10176
1.141 2.952 1.711 9781
1.150 2.976 1.712 8527
1.157 2.993 1.710 7296
1.161 3.004 1.704 5374
1.163 3.009 1.695 7456
1.167 3.019 1.689 10906
1.171 3.030 1.683 12341
1.170 3.028 1.671 8656
1.210 3.132 1.712 8210
1.220 3.156 1.713 9661
1.224 3.167 1.707 8650
1.226 3.171 1.697 6442
1.232 3.189 1.694 6367
1.231 3.187 1.681 12528
1.230 3.184 1.667 17379
1.232 3.188 1.658 20511
1.234 3.192 1.648 22628
1.238 3.203 1.641 19093
1.237 3.200 1.628 15106
1.241 3.211 1.621 13841
1.240 3.209 1.608 12007
1.278 3.307 1.642 11026
1.277 3.305 1.629 8955
1.336 3.458 1.687 5535
1.338 3.463 1.676 5270
1.371 3.549 1.702 5370
1.341 3.471 1.655 4508
1.345 3.482 1.647 4449
1.363 3.527 1.654 6505
1.365 3.531 1.643 8111
1.366 3.535 1.632 7476
1.392 3.601 1.648 4614
1.446 3.743 1.695 6186
1.411 3.650 1.643 6260
1.410 3.648 1.629 6382
1.419 3.672 1.626 5342
1.487 3.849 1.685 4373
1.489 3.853 1.673 5309
1.456 3.767 1.625 4133
1.460 3.778 1.616 3472
1.515 3.921 1.659 3655
1.501 3.884 1.631 4558
1.502 3.888 1.619 6399
1.504 3.892 1.606 8943
1.508 3.903 1.597 8711
1.512 3.913 1.588 8736
1.560 4.036 1.620 10029
1.561 4.040 1.607 16064
1.560 4.037 1.592 15198
1.562 4.041 1.580 10869
1.644 4.255 1.642 7919
1.643 4.252 1.627 7136
1.675 4.333 1.641 5901
1.568 4.056 1.530 4065
1.710 4.426 1.643 3200
1.709 4.423 1.627 4590
1.713 4.434 1.615 3719
1.723 4.459 1.609 2751
1.716 4.442 1.588 2009
1.775 4.594 1.622 2183
1.777 4.598 1.608 3122
1.822 4.715 1.630 2643
1.821 4.712 1.613 2707
1.820 4.709 1.597 2727
1.871 4.841 1.621 2341
1.880 4.866 1.613 2654
1.871 4.842 1.589 3250
1.936 5.009 1.623 3540
1.937 5.013 1.608 4691
1.983 5.131 1.626 4933
1.990 5.150 1.614 5414
1.994 5.161 1.600 6332
1.990 5.150 1.580 5578
1.986 5.140 1.560 8736
1.991 5.151 1.546 10097
2.000 5.176 1.536 7922
2.007 5.194 1.524 7461
2.064 5.341 1.546 4506
2.068 5.352 1.531 6876
2.067 5.349 1.512 5845
2.063 5.338 1.492 3313
2.231 5.773 1.585 2977
2.238 5.792 1.570 3777
2.240 5.796 1.552 3740
2.244 5.807 1.536 3382
2.251 5.825 1.521 2779
2.305 5.965 1.536 2128
2.309 5.976 1.519 2599
2.317 5.995 1.504 3309
2.430 6.287 1.550 3410
2.431 6.291 1.531 3698
2.435 6.302 1.513 2934
2.440 6.313 1.495 2463
2.433 6.295 1.471 2287
2.672 6.915 1.580 3199
2.671 6.911 1.557 2411
2.725 7.053 1.564 2286
2.730 7.064 1.543 3390
2.919 7.554 1.617 3521
2.921 7.558 1.594 4873
2.920 7.555 1.569 6131
2.918 7.552 1.544 5102
2.917 7.548 1.519 3478
2.918 7.552 1.496 3540
2.928 7.577 1.476 3411
2.932 7.588 1.454 2897
2.931 7.585 1.429 2545
2.932 7.588 1.405 2286
3.495 9.044 1.621 2405
3.494 9.041 1.592 1957
3.501 9.059 1.566 2067
3.505 9.070 1.539 2496
3.507 9.074 1.511 2110
3.689 9.546 1.552 1775
3.509 9.081 1.454 1948
3.511 9.085 1.426 2513
3.903 10.099 1.538 2669
3.961 10.249 1.527 2213
3.942 10.202 1.488 1713
4.043 10.462 1.490 1957
4.044 10.466 1.457 1952
4.048 10.476 1.425 1280
4.435 11.478 1.513 1180
4.431 11.467 1.475 1101
4.481 11.595 1.454 1178
4.479 11.592 1.417 1038
4.458 11.536 1.374 1137
4.454 11.525 1.337 950
5.168 13.373 1.487 923
5.169 13.377 1.446 922
5.171 13.381 1.404 825
5.172 13.384 1.362 665
5.176 13.395 1.321 507
5.177 13.398 1.279 293
3.726 9.641 0.416 294
3.726 9.642 0.386 369
3.723 9.635 0.356 367
3.712 9.606 0.326 398
3.712 9.606 0.296 644
3.709 9.599 0.266 970
3.710 9.600 0.236 1045
3.707 9.592 0.206 829
3.687 9.541 0.176 731
3.687 9.541 0.146 934
3.687 9.541 0.116 1138
3.684 9.533 0.087 1270
3.684 9.533 0.057 1474
3.684 9.533 0.027 1524
3.681 9.525 -0.002 1164
3.675 9.510 -0.032 899
3.678 9.517 -0.061 674
3.692 9.553 -0.092 667
3.677 9.516 -0.121 838
3.674 9.508 -0.150 1212
3.668 9.492 -0.179 1607
3.668 9.491 -0.209 2084
3.664 9.483 -0.238 1944
3.661 9.474 -0.267 1865
3.661 9.473 -0.297 1344
3.660 9.472 -0.326 823
3.651 9.448 -0.355 683
3.645 9.432 -0.383 620
3.644 9.431 -0.412 504
3.641 9.422 -0.441 397
3.640 9.420 -0.471 281
1.572 4.068 -0.135 263
1.575 4.075 -0.148 281
1.577 4.081 -0.161 282
1.964 5.082 -0.251 308
1.964 5.081 -0.267 449
1.963 5.080 -0.283 589
1.963 5.079 -0.299 589
1.962 5.078 -0.314 781
1.962 5.076 -0.330 973
1.961 5.075 -0.346 1074
1.961 5.074 -0.362 1176
1.960 5.072 -0.377 1191
1.960 5.071 -0.393 1207
1.959 5.070 -0.409 1207
1.675 4.334 -0.342 1238
1.674 4.332 -0.355 1428
1.674 4.331 -0.369 714
0.830 2.128 1.759 3730
0.832 2.132 1.753 7460
0.834 2.137 1.746 7460
0.835 2.141 1.740 6048
0.840 2.151 1.738 4651
0.851 2.180 1.749 5233
0.857 2.196 1.752 8166
0.859 2.201 1.745 8166
0.870 2.229 1.756 10606
0.874 2.240 1.754 14195
0.876 2.244 1.747 12584
0.880 2.255 1.745 11292
0.884 2.265 1.742 7689
0.905 2.318 1.771 7511
0.909 2.329 1.768 7318
0.906 2.321 1.752 5990
0.900 2.307 1.732 5515
0.887 2.274 1.699 4111
0.889 2.278 1.692 3137
0.915 2.345 1.728 2941
0.917 2.349 1.721 3601
0.950 2.434 1.769 3842
0.952 2.439 1.761 5412
0.953 2.443 1.754 6514
0.955 2.447 1.746 7615
0.962 2.464 1.747 6572
0.973 2.494 1.756 7076
0.975 2.498 1.748 6798
0.974 2.496 1.737 6555
0.973 2.494 1.725 6737
0.973 2.492 1.713 7143
0.977 2.503 1.709 7353
0.981 2.513 1.706 7739
1.020 2.613 1.758 6048
1.024 2.624 1.754 5394
1.023 2.622 1.742 5752
1.017 2.607 1.722 7492
1.019 2.611 1.714 8306
1.021 2.615 1.706 7311
1.017 2.607 1.690 6652
1.021 2.618 1.686 7941
1.026 2.628 1.682 9560
1.027 2.632 1.674 10737
1.031 2.643 1.670 11958
1.036 2.654 1.665 12659
1.037 2.658 1.657 9479
1.036 2.655 1.645 5928
1.091 2.796 1.716 5508
1.095 2.807 1.711 6639
1.097 2.811 1.702 7433
1.101 2.822 1.697 5945
1.149 2.944 1.754 5139
1.150 2.948 1.745 6291
1.152 2.953 1.736 7643
1.151 2.950 1.723 9327
1.150 2.948 1.711 9436
1.160 2.972 1.712 8494
1.169 2.996 1.714 6479
1.173 3.007 1.708 4302
1.175 3.011 1.699 6943
1.177 3.016 1.689 10891
1.178 3.020 1.680 12198
1.180 3.024 1.671 8531
1.226 3.141 1.719 8798
1.233 3.159 1.716 11664
1.237 3.170 1.710 11573
1.239 3.174 1.700 9557
1.240 3.178 1.690 8145
1.239 3.176 1.677 14815
1.241 3.180 1.667 20971
1.243 3.184 1.658 24603
1.244 3.188 1.648 27002
1.246 3.192 1.638 22505
1.247 3.196 1.628 17348
1.249 3.200 1.618 15454
1.250 3.204 1.608 13543
1.252 3.208 1.599 9354
1.291 3.307 1.632 6661
1.345 3.447 1.684 5524
1.347 3.451 1.673 5080
1.386 3.551 1.705 5347
1.353 3.466 1.655 4975
1.357 3.477 1.647 5331
1.375 3.522 1.654 6613
1.376 3.527 1.643 7882
1.378 3.531 1.632 6758
1.403 3.596 1.648 4665
1.456 3.731 1.692 6204
1.423 3.646 1.643 6997
1.422 3.643 1.629 6212
1.431 3.668 1.626 4913
1.497 3.837 1.682 4914
1.502 3.848 1.673 5764
1.468 3.763 1.625 4597
1.473 3.774 1.616 3380
1.517 3.888 1.648 3065
1.527 3.913 1.644 3460
1.523 3.903 1.627 5973
1.519 3.894 1.609 9004
1.518 3.891 1.594 8509
1.525 3.908 1.588 8290
1.573 4.031 1.620 10290
1.575 4.035 1.607 14257
1.573 4.032 1.592 13393
1.575 4.036 1.580 8124
1.658 4.250 1.642 8329
1.657 4.247 1.627 6907
1.689 4.328 1.641 6132
1.581 4.051 1.530 4881
1.582 4.055 1.517 3325
1.724 4.417 1.627 4245
1.725 4.421 1.613 3305
1.743 4.467 1.613 2676
1.789 4.584 1.637 2674
1.790 4.588 1.622 3302
1.792 4.592 1.608 3511
1.843 4.723 1.635 2860
1.842 4.720 1.618 2831
1.877 4.809 1.630 2587
1.884 4.828 1.619 2177
1.946 4.988 1.652 2006
1.884 4.829 1.587 3343
1.952 5.003 1.623 3411
1.954 5.007 1.608 4839
1.997 5.118 1.623 5278
2.007 5.143 1.614 5287
2.011 5.154 1.600 6814
2.004 5.137 1.578 6778
2.003 5.133 1.560 10846
2.005 5.137 1.544 11851
2.017 5.170 1.536 8603
2.022 5.181 1.522 7984
2.020 5.177 1.504 4261
2.086 5.346 1.531 5596
2.085 5.342 1.512 5171
2.220 5.690 1.584 3029
2.216 5.680 1.563 3729
2.257 5.784 1.570 3666
2.259 5.788 1.552 4041
2.263 5.799 1.536 3831
2.270 5.817 1.521 3271
2.328 5.965 1.537 2764
2.329 5.969 1.519 3248
2.333 5.980 1.502 3312
2.450 6.279 1.550 3508
2.452 6.283 1.531 4297
2.453 6.287 1.511 4004
2.458 6.298 1.493 3354
2.690 6.895 1.600 2916
2.695 6.906 1.580 3746
2.694 6.902 1.557 2582
2.749 7.044 1.564 2641
2.753 7.055 1.543 4127
2.755 7.059 1.522 3524
2.946 7.549 1.594 3946
2.944 7.545 1.569 4757
2.940 7.535 1.543 3738
2.942 7.539 1.519 2772
2.943 7.542 1.496 3261
2.953 7.568 1.476 3161
2.960 7.586 1.455 2333
2.959 7.582 1.430 1749
3.526 9.036 1.651 2373
3.525 9.032 1.621 2894
3.526 9.036 1.593 2260
3.533 9.055 1.567 2352
3.535 9.059 1.539 2931
3.536 9.063 1.511 2409
3.538 9.066 1.482 1715
3.539 9.070 1.454 2306
3.544 9.081 1.427 2948
3.933 10.079 1.537 2102
3.997 10.244 1.528 2321
4.002 10.255 1.497 1844
4.077 10.449 1.490 2136
4.079 10.452 1.457 2128
4.080 10.456 1.424 1564
4.465 11.441 1.510 1181
4.512 11.562 1.488 1438
4.516 11.573 1.453 1573
4.518 11.577 1.417 1284
4.487 11.499 1.372 1152
4.486 11.495 1.335 1239
4.481 11.484 1.298 676
5.213 13.360 1.446 627
5.215 13.363 1.404 573
4.568 11.706 1.210 504
4.566 11.702 1.173 324
3.744 9.594 0.296 383
3.741 9.587 0.266 616
3.741 9.587 0.236 682
3.738 9.580 0.206 564
3.718 9.529 0.176 603
3.718 9.529 0.146 751
3.718 9.529 0.116 899
3.715 9.521 0.087 1085
3.715 9.521 0.057 1411
3.712 9.513 0.027 1561
3.709 9.506 -0.002 1257
3.706 9.498 -0.032 1031
3.706 9.497 -0.061 755
3.726 9.548 -0.092 516
3.709 9.504 -0.121 758
3.708 9.503 -0.150 1027
3.699 9.480 -0.179 1434
3.699 9.479 -0.209 1965
3.696 9.471 -0.238 1955
3.692 9.462 -0.267 2038
3.689 9.454 -0.296 1499
3.683 9.438 -0.325 1055
3.679 9.429 -0.354 939
3.676 9.420 -0.383 858
3.675 9.419 -0.412 742
3.672 9.410 -0.441 637
3.671 9.408 -0.471 421
1.238 3.171 -0.093 283
1.240 3.178 -0.104 332
1.240 3.177 -0.114 379
1.240 3.177 -0.123 385
1.239 3.176 -0.133 392
1.979 5.071 -0.314 409
1.978 5.070 -0.330 487
1.691 4.334 -0.275 652
1.691 4.333 -0.288 827
1.690 4.332 -0.302 827
1.690 4.331 -0.315 1022
1.689 4.329 -0.328 1217
1.689 4.328 -0.342 1388
1.688 4.327 -0.355 1559
1.688 4.325 -0.369 779
0.837 2.125 1.759 4023
0.836 2.124 1.748 8047
0.838 2.128 1.742 8047
0.842 2.139 1.740 7226
0.846 2.149 1.738 6443
0.852 2.165 1.740 5902
0.863 2.194 1.752 8254
0.865 2.198 1.745 8254
0.876 2.227 1.756 10954
0.881 2.237 1.754 14935
0.882 2.242 1.747 13606
0.886 2.252 1.745 12575
0.890 2.262 1.742 8628
0.914 2.322 1.775 7189
0.916 2.326 1.768 7031
0.917 2.331 1.761 5483
0.902 2.292 1.723 4794
0.897 2.278 1.703 3662
0.898 2.282 1.696 2585
0.922 2.342 1.728 2919
0.923 2.346 1.721 3909
0.925 2.351 1.713 4011
0.959 2.436 1.761 4950
0.960 2.440 1.754 5744
0.962 2.445 1.746 6538
0.969 2.461 1.747 6095
0.980 2.491 1.756 7093
0.980 2.489 1.744 6853
0.979 2.487 1.732 6799
0.981 2.491 1.725 6875
0.980 2.489 1.713 6990
0.984 2.500 1.709 7193
0.988 2.511 1.706 7600
1.027 2.610 1.758 6495
1.031 2.621 1.754 6093
1.018 2.587 1.722 6338
1.022 2.598 1.718 8420
1.027 2.608 1.714 8907
1.031 2.619 1.710 7670
1.032 2.623 1.702 6539
1.034 2.627 1.694 8325
1.033 2.625 1.682 10261
1.035 2.629 1.674 11103
1.039 2.640 1.670 12319
1.043 2.651 1.665 13361
1.045 2.655 1.657 10054
1.046 2.659 1.649 6393
1.102 2.799 1.719 5225
1.106 2.810 1.714 6215
1.105 2.808 1.702 6916
1.109 2.819 1.697 5587
1.152 2.927 1.747 4165
1.162 2.951 1.749 4981
1.161 2.949 1.736 6432
1.157 2.940 1.720 8538
1.159 2.945 1.711 9030
1.168 2.969 1.712 8433
1.178 2.993 1.714 6140
1.182 3.004 1.708 4083
1.184 3.008 1.699 6883
1.185 3.012 1.689 10855
1.187 3.016 1.680 12028
1.189 3.020 1.671 8355
1.235 3.138 1.719 9370
1.242 3.155 1.716 13333
1.246 3.166 1.710 14197
1.248 3.170 1.700 12714
1.247 3.168 1.687 10966
1.246 3.165 1.674 17750
1.248 3.170 1.664 23881
1.252 3.180 1.658 27551
1.253 3.185 1.648 29927
1.255 3.189 1.638 24735
1.257 3.193 1.628 18745
1.258 3.197 1.618 16524
1.260 3.201 1.608 14562
1.261 3.205 1.599 10168
1.266 3.215 1.592 5722
1.355 3.443 1.684 5721
1.354 3.441 1.670 5294
1.396 3.547 1.705 4879
1.363 3.463 1.655 5088
1.367 3.473 1.647 5445
1.385 3.518 1.654 5734
1.386 3.523 1.643 7106
1.391 3.533 1.635 5789
1.427 3.627 1.662 4744
1.437 3.651 1.660 6924
1.436 3.649 1.646 7397
1.432 3.639 1.629 5880
1.442 3.664 1.626 4335
1.509 3.833 1.682 5204
1.510 3.837 1.670 6544
1.485 3.772 1.630 5310
1.530 3.887 1.663 3678
1.531 3.891 1.651 2877
1.541 3.916 1.647 3288
1.537 3.906 1.629 6233
1.533 3.896 1.612 8804
1.530 3.886 1.594 7947
1.539 3.911 1.590 7622
1.582 4.019 1.617 10719
1.583 4.023 1.605 12456
1.585 4.027 1.592 11266
1.669 4.241 1.655 7394
1.671 4.245 1.642 8707
1.675 4.256 1.632 7190
1.594 4.050 1.545 6591
1.595 4.054 1.532 5202
1.594 4.050 1.517 3515
1.737 4.412 1.627 3680
1.741 4.423 1.615 2779
1.759 4.469 1.616 2844
1.799 4.572 1.634 4307
1.801 4.576 1.620 4661
1.805 4.587 1.608 3900
1.812 4.605 1.599 3472
1.864 4.736 1.625 3045
1.849 4.698 1.597 2623
1.892 4.808 1.615 2379
1.891 4.805 1.598 2497
1.895 4.816 1.585 3712
1.897 4.820 1.570 3636
1.971 5.008 1.610 4708
1.976 5.019 1.596 5542
2.019 5.130 1.612 5620
2.023 5.141 1.598 7247
2.019 5.131 1.578 7415
2.015 5.120 1.558 10987
2.020 5.131 1.544 11123
2.024 5.142 1.530 7263
2.034 5.168 1.520 6610
2.030 5.157 1.500 3776
2.099 5.332 1.529 4346
2.100 5.336 1.512 3848
2.234 5.677 1.582 3563
2.233 5.673 1.563 4480
2.277 5.785 1.572 3154
2.278 5.789 1.554 3908
2.277 5.785 1.534 4181
2.270 5.768 1.511 3786
2.331 5.922 1.529 4129
2.347 5.962 1.519 3817
2.345 5.959 1.499 3093
2.469 6.272 1.550 3218
2.470 6.276 1.531 4367
2.472 6.280 1.511 4538
2.476 6.291 1.493 4052
2.710 6.887 1.600 3538
2.718 6.905 1.582 4116
2.714 6.895 1.557 2755
2.769 7.036 1.564 2567
2.774 7.047 1.543 4288
2.775 7.051 1.522 3899
2.965 7.533 1.592 2957
2.966 7.537 1.569 3244
2.962 7.526 1.543 2319
2.961 7.523 1.518 2047
2.965 7.534 1.496 2924
2.975 7.559 1.476 2800
3.091 7.854 1.504 2038
3.324 8.447 1.580 1672
3.552 9.025 1.651 2391
3.551 9.022 1.621 3065
3.555 9.033 1.594 2328
3.560 9.045 1.567 2460
3.564 9.056 1.540 3197
3.566 9.060 1.512 2575
3.567 9.063 1.484 1797
3.569 9.067 1.455 2426
3.570 9.070 1.427 3097
3.574 9.081 1.400 2087
4.027 10.232 1.528 2123
4.106 10.433 1.522 1916
4.108 10.437 1.490 2215
4.109 10.440 1.457 2061
4.110 10.444 1.424 1619
4.112 10.447 1.392 1249
4.545 11.549 1.488 1520
4.550 11.560 1.453 1702
4.551 11.564 1.417 1372
4.590 11.662 1.391 1132
4.516 11.475 1.334 1037
4.604 11.698 1.321 782
4.605 11.701 1.284 786
4.607 11.704 1.248 820
4.605 11.700 1.210 711
4.609 11.710 1.174 365
3.763 9.561 0.265 353
3.763 9.562 0.236 407
3.749 9.525 0.206 399
3.749 9.525 0.176 430
3.746 9.518 0.146 585
3.746 9.518 0.116 741
3.746 9.518 0.087 851
3.743 9.510 0.057 1147
3.740 9.503 0.027 1378
3.737 9.495 -0.002 1227
3.734 9.487 -0.032 1120
3.731 9.479 -0.061 862
3.725 9.464 -0.090 651
3.733 9.485 -0.120 782
3.733 9.485 -0.150 969
3.727 9.469 -0.179 1470
3.726 9.468 -0.209 2043
3.723 9.460 -0.238 2123
3.720 9.451 -0.267 2268
3.717 9.443 -0.296 1744
3.710 9.427 -0.325 1361
3.707 9.418 -0.354 1204
3.703 9.410 -0.383 1104
3.700 9.401 -0.412 1008
3.699 9.399 -0.441 911
3.699 9.398 -0.471 622
3.681 9.352 -0.497 387
1.247 3.168 -0.084 400
1.247 3.168 -0.093 492
1.249 3.174 -0.104 583
1.249 3.174 -0.114 668
1.249 3.173 -0.123 695
1.249 3.172 -0.133 722
1.248 3.172 -0.143 722
1.248 3.171 -0.153 709
1.248 3.170 -0.163 696
1.247 3.169 -0.172 608
1.703 4.327 -0.302 578
1.702 4.326 -0.315 742
1.702 4.324 -0.328 906
1.701 4.323 -0.342 1046
1.701 4.322 -0.355 1186
1.700 4.320 -0.369 593
0.840 2.117 1.755 4312
0.842 2.122 1.748 8624
0.843 2.126 1.742 8624
0.848 2.136 1.740 8446
0.852 2.147 1.738 8478
0.858 2.163 1.740 7447
0.869 2.191 1.752 8728
0.871 2.196 1.745 8728
0.883 2.224 1.756 11504
0.887 2.235 1.754 15806
0.888 2.239 1.747 14308
0.893 2.250 1.745 13181
0.897 2.260 1.742 8927
0.920 2.319 1.775 6659
0.924 2.330 1.772 6597
0.926 2.334 1.765 5145
0.904 2.277 1.714 4090
0.905 2.282 1.707 3287
0.907 2.286 1.700 2481
0.928 2.339 1.728 3288
0.930 2.344 1.721 4469
0.932 2.348 1.713 4457
0.965 2.433 1.761 4489
0.967 2.438 1.754 5007
0.969 2.442 1.746 5525
0.976 2.459 1.747 5672
0.987 2.488 1.756 7228
0.986 2.486 1.744 7337
0.986 2.484 1.732 7613
0.987 2.489 1.725 6358
0.999 2.518 1.733 5115
1.028 2.592 1.770 5825
1.033 2.603 1.766 7010
1.034 2.607 1.758 7128
1.039 2.618 1.754 7257
1.028 2.590 1.726 7671
1.029 2.595 1.718 9135
1.034 2.605 1.714 9242
1.038 2.616 1.710 7336
1.042 2.627 1.706 5690
1.041 2.625 1.694 7147
1.043 2.629 1.686 8626
1.042 2.626 1.674 9540
1.049 2.644 1.674 11076
1.053 2.654 1.669 12415
1.052 2.652 1.657 9659
1.054 2.656 1.649 6545
1.115 2.809 1.727 5495
1.114 2.807 1.714 5725
1.115 2.811 1.706 5883
1.115 2.809 1.693 4857
1.114 2.807 1.681 3830
1.170 2.948 1.749 3994
1.171 2.953 1.740 5383
1.165 2.937 1.720 7646
1.167 2.941 1.711 8380
1.174 2.959 1.709 8115
1.178 2.970 1.703 6060
1.190 3.000 1.708 4503
1.192 3.005 1.699 7287
1.194 3.009 1.689 10977
1.195 3.013 1.680 11884
1.197 3.017 1.671 8115
1.244 3.134 1.719 9999
1.251 3.152 1.716 14658
1.255 3.163 1.710 16264
1.257 3.167 1.700 15397
1.256 3.165 1.687 14330
1.255 3.162 1.674 20795
1.256 3.166 1.664 26078
1.258 3.170 1.654 29172
1.262 3.181 1.648 30878
1.264 3.185 1.638 25102
1.265 3.189 1.628 18588
1.267 3.193 1.618 16161
1.269 3.197 1.608 14282
1.270 3.201 1.599 10081
1.272 3.205 1.589 5809
1.365 3.440 1.684 6240
1.364 3.437 1.670 5658
1.376 3.468 1.672 5023
1.378 3.472 1.661 5494
1.377 3.470 1.647 5138
1.432 3.610 1.696 4241
1.399 3.526 1.646 5664
1.436 3.618 1.674 5051
1.448 3.650 1.674 5657
1.450 3.654 1.663 7436
1.446 3.645 1.646 7673
1.442 3.635 1.629 5769
1.471 3.708 1.646 5239
1.505 3.794 1.668 6279
1.521 3.833 1.670 7800
1.506 3.796 1.642 6588
1.540 3.882 1.663 4599
1.542 3.887 1.651 2688
1.557 3.925 1.652 3184
1.548 3.902 1.629 6394
1.544 3.892 1.612 8528
1.543 3.889 1.597 7352
1.578 3.976 1.616 6904
1.590 4.008 1.614 11116
1.592 4.012 1.602 11183
1.596 4.023 1.592 9375
1.681 4.236 1.655 6793
1.682 4.240 1.642 9026
1.689 4.258 1.634 7852
1.605 4.045 1.545 6153
1.607 4.049 1.532 4684
1.605 4.046 1.517 3095
1.751 4.414 1.629 3293
1.759 4.432 1.620 2546
1.774 4.472 1.618 3098
1.809 4.560 1.632 5918
1.814 4.571 1.620 6090
1.818 4.582 1.608 4371
1.825 4.600 1.599 3893
1.827 4.604 1.584 3611
1.859 4.686 1.594 3306
1.906 4.803 1.615 2670
1.907 4.807 1.600 3677
1.906 4.804 1.583 4214
1.910 4.815 1.570 3463
1.991 5.017 1.614 4513
1.989 5.014 1.596 5865
2.033 5.124 1.612 5452
2.040 5.143 1.600 6867
2.017 5.083 1.566 6960
2.032 5.122 1.560 9971
2.037 5.133 1.546 9404
2.044 5.151 1.534 7504
2.045 5.155 1.518 7479
2.044 5.151 1.500 3994
2.113 5.327 1.529 3275
2.189 5.516 1.561 4043
2.247 5.663 1.580 3636
2.246 5.660 1.561 4465
2.273 5.728 1.559 4073
2.286 5.761 1.549 4223
2.284 5.757 1.529 5698
2.349 5.919 1.549 5731
2.350 5.923 1.531 5868
2.360 5.948 1.517 4487
2.359 5.945 1.497 3056
2.423 6.107 1.514 3075
2.484 6.262 1.529 3876
2.489 6.273 1.511 4358
2.493 6.284 1.493 4235
2.729 6.879 1.600 3916
2.737 6.898 1.582 4261
2.733 6.887 1.557 3046
2.728 6.876 1.533 2507
2.793 7.039 1.543 3708
2.794 7.043 1.522 3603
2.899 7.308 1.550 2340
2.878 7.253 1.516 2290
2.879 7.257 1.494 2275
2.881 7.261 1.471 1825
2.989 7.533 1.497 2475
2.993 7.544 1.475 2338
3.113 7.845 1.504 1759
3.206 8.081 1.519 1526
3.577 9.016 1.651 2089
3.579 9.020 1.622 2845
3.580 9.024 1.594 2157
3.588 9.042 1.568 2301
3.592 9.053 1.541 3099
3.591 9.050 1.512 2465
3.592 9.053 1.484 1710
3.593 9.057 1.455 2291
3.595 9.061 1.427 2860
4.036 10.173 1.554 2000
4.093 10.316 1.541 2160
4.135 10.422 1.522 1808
4.136 10.425 1.490 1965
4.138 10.429 1.457 1690
4.139 10.433 1.424 1329
4.141 10.436 1.392 1118
4.574 11.529 1.487 1557
4.567 11.511 1.448 1735
4.548 11.463 1.407 1433
4.625 11.657 1.391 1581
4.623 11.653 1.354 1229
4.633 11.678 1.320 631
4.643 11.703 1.286 712
4.645 11.706 1.249 809
4.649 11.717 1.213 682
4.656 11.734 1.178 388
4.663 11.752 1.142 325
4.664 11.754 1.106 325
3.769 9.500 0.176 266
3.772 9.508 0.146 376
3.772 9.508 0.116 488
3.772 9.507 0.087 610
3.769 9.500 0.057 910
3.766 9.492 0.027 1126
3.760 9.477 -0.002 1092
3.757 9.469 -0.032 1115
3.757 9.469 -0.061 875
3.754 9.461 -0.091 656
3.753 9.460 -0.120 672
3.762 9.482 -0.150 729
3.753 9.459 -0.179 1220
3.750 9.450 -0.208 1754
3.749 9.450 -0.238 1928
3.746 9.441 -0.267 2163
3.742 9.433 -0.296 1734
3.736 9.417 -0.325 1478
3.733 9.408 -0.354 1248
3.723 9.385 -0.382 1119
3.726 9.390 -0.412 1031
3.728 9.396 -0.442 961
3.724 9.387 -0.471 686
3.703 9.334 -0.497 587
3.706 9.340 -0.526 572
3.705 9.338 -0.555 571
1.261 3.178 -0.104 663
1.261 3.178 -0.114 782
1.260 3.177 -0.124 831
1.257 3.169 -0.133 894
2.008 5.060 -0.314 907
2.007 5.059 -0.330 1138
2.007 5.057 -0.346 1259
2.006 5.056 -0.362 1379
2.003 5.047 -0.377 1402
2.002 5.046 -0.392 1432
2.001 5.044 -0.408 1432
2.001 5.043 -0.424 1408
2.000 5.041 -0.439 1385
2.000 5.040 -0.455 692
0.847 2.115 1.755 4432
0.848 2.119 1.748 8865
0.850 2.123 1.742 8865
0.854 2.134 1.740 9218
0.858 2.144 1.738 9977
0.865 2.160 1.740 8756
0.874 2.183 1.747 9381
0.876 2.187 1.741 9381
0.892 2.228 1.761 11764
0.894 2.232 1.754 16076
0.898 2.242 1.752 14507
0.900 2.247 1.745 13274
0.904 2.257 1.742 8984
0.930 2.323 1.779 5964
0.932 2.327 1.772 5964
0.936 2.338 1.769 4730
0.938 2.342 1.762 3615
0.915 2.285 1.712 3016
0.919 2.295 1.709 2894
0.936 2.337 1.728 3555
0.937 2.341 1.721 4935
0.941 2.351 1.718 4849
0.943 2.356 1.710 4811
0.975 2.434 1.754 4694
0.977 2.439 1.746 4985
0.991 2.474 1.760 5619
0.995 2.485 1.756 7690
0.994 2.483 1.744 8101
0.993 2.481 1.732 8649
0.998 2.492 1.729 6778
1.007 2.515 1.733 5440
1.006 2.513 1.722 5504
1.041 2.599 1.766 6332
1.040 2.598 1.754 6966
1.032 2.577 1.730 8131
1.033 2.581 1.722 9891
1.035 2.585 1.714 9947
1.044 2.609 1.718 9191
1.049 2.619 1.714 6865
1.066 2.662 1.729 5535
1.055 2.634 1.702 5941
1.056 2.638 1.694 6909
1.050 2.623 1.674 7778
1.057 2.640 1.674 9704
1.061 2.651 1.669 11306
1.063 2.655 1.661 8968
1.122 2.801 1.735 6499
1.123 2.806 1.727 6507
1.123 2.804 1.714 5599
1.122 2.801 1.702 4956
1.118 2.793 1.686 4420
1.112 2.777 1.666 4400
1.121 2.801 1.669 4565
1.183 2.955 1.743 4911
1.177 2.940 1.723 6650
1.179 2.944 1.714 7498
1.183 2.955 1.709 7538
1.185 2.959 1.699 6248
1.200 2.997 1.708 5156
1.202 3.001 1.699 7718
1.206 3.012 1.693 11049
1.208 3.016 1.683 11694
1.209 3.020 1.674 7866
1.253 3.130 1.719 9657
1.260 3.148 1.716 14148
1.265 3.159 1.710 16006
1.266 3.163 1.700 15910
1.265 3.161 1.687 16243
1.264 3.158 1.674 21845
1.266 3.162 1.664 26043
1.268 3.166 1.654 28476
1.272 3.177 1.648 29205
1.274 3.181 1.638 23281
1.275 3.185 1.628 16807
1.277 3.189 1.618 14389
1.279 3.193 1.608 12671
1.280 3.197 1.599 8930
1.360 3.397 1.679 5911
1.378 3.442 1.687 6807
1.383 3.453 1.679 5624
1.392 3.477 1.678 5232
1.394 3.482 1.667 5742
1.396 3.486 1.656 4318
1.444 3.606 1.696 5269
1.443 3.603 1.682 5740
1.450 3.621 1.676 5790
1.460 3.645 1.674 6342
1.461 3.650 1.663 7461
1.457 3.640 1.646 7574
1.456 3.637 1.631 5707
1.513 3.778 1.677 6680
1.515 3.783 1.665 7827
1.530 3.821 1.667 9144
1.532 3.825 1.655 8152
1.550 3.871 1.660 5413
1.554 3.882 1.651 2880
1.556 3.886 1.639 3226
1.560 3.897 1.629 6285
1.559 3.894 1.614 8057
1.558 3.891 1.600 7562
1.587 3.964 1.614 7434
1.594 3.982 1.607 10527
1.599 3.993 1.597 10240
1.606 4.011 1.590 7605
1.694 4.231 1.655 5870
1.698 4.242 1.645 8748
1.703 4.253 1.634 8081
1.704 4.257 1.621 4684
1.740 4.345 1.637 3504
1.736 4.335 1.619 2738
1.816 4.535 1.672 3467
1.730 4.322 1.584 2930
1.788 4.466 1.618 3443
1.824 4.554 1.632 6662
1.825 4.558 1.618 7008
1.830 4.569 1.606 4868
1.837 4.587 1.596 3863
1.838 4.591 1.582 3520
1.871 4.673 1.592 4162
1.918 4.790 1.613 3028
1.922 4.801 1.600 4193
1.924 4.805 1.585 4211
1.923 4.801 1.568 3241
2.006 5.011 1.614 4062
2.008 5.015 1.598 5559
2.046 5.111 1.610 5316
2.054 5.129 1.598 5413
2.030 5.069 1.564 6772
2.051 5.123 1.562 7305
2.056 5.134 1.548 6706
2.063 5.152 1.536 5897
2.059 5.141 1.516 5526
2.123 5.302 1.542 3790
2.202 5.498 1.576 2956
2.206 5.509 1.561 3484
2.290 5.721 1.597 3323
2.292 5.724 1.579 6181
2.294 5.728 1.561 6672
2.298 5.739 1.545 6330
2.300 5.743 1.527 8399
2.301 5.747 1.509 8130
2.369 5.916 1.531 6769
2.376 5.934 1.515 5258
2.374 5.930 1.495 4005
2.442 6.099 1.514 3182
2.444 6.103 1.495 3060
2.509 6.265 1.511 3548
2.744 6.852 1.619 3724
2.751 6.871 1.600 3750
2.755 6.882 1.580 3859
2.754 6.878 1.557 3064
2.750 6.868 1.533 2660
2.818 7.038 1.545 2800
2.817 7.034 1.522 2792
2.911 7.269 1.545 3047
2.901 7.244 1.516 3754
2.902 7.248 1.494 3734
2.904 7.252 1.471 2836
3.012 7.523 1.497 2201
3.014 7.527 1.474 2008
3.233 8.075 1.545 1865
3.232 8.071 1.519 1453
3.538 8.837 1.622 1682
3.540 8.841 1.595 2212
3.539 8.838 1.566 1986
3.633 9.074 1.575 1936
3.620 9.042 1.541 2560
3.622 9.046 1.513 2044
4.063 10.149 1.649 1596
4.065 10.153 1.617 2214
4.067 10.157 1.585 2449
4.068 10.160 1.554 2137
4.125 10.303 1.541 2306
4.556 11.379 1.652 1857
4.558 11.383 1.616 1573
4.171 10.416 1.457 1236
4.561 11.391 1.545 975
4.556 11.380 1.507 1390
4.593 11.471 1.482 1397
4.594 11.475 1.446 1615
4.590 11.463 1.408 1285
4.656 11.628 1.390 1041
4.648 11.609 1.351 1088
4.609 11.510 1.304 674
4.619 11.535 1.270 665
4.629 11.560 1.236 494
4.647 11.607 1.204 492
4.672 11.668 1.173 418
4.676 11.678 1.137 459
4.715 11.776 1.109 360
4.716 11.779 1.072 258
3.802 9.496 0.116 292
3.799 9.488 0.087 396
3.796 9.481 0.057 627
3.796 9.480 0.027 765
3.790 9.465 -0.002 777
3.787 9.458 -0.032 821
3.787 9.457 -0.061 627
3.783 9.449 -0.091 451
3.780 9.441 -0.120 488
3.777 9.433 -0.149 536
3.780 9.440 -0.179 1008
3.779 9.439 -0.208 1486
3.776 9.430 -0.238 1634
3.775 9.429 -0.267 1793
3.772 9.421 -0.296 1450
3.766 9.405 -0.325 1249
3.762 9.396 -0.354 1130
3.753 9.373 -0.382 1155
3.755 9.379 -0.412 1106
3.758 9.385 -0.442 1103
3.754 9.376 -0.471 820
3.733 9.323 -0.497 781
3.735 9.328 -0.526 789
3.734 9.326 -0.555 805
3.733 9.324 -0.585 805
3.730 9.315 -0.613 649
1.270 3.173 -0.124 648
1.270 3.172 -0.134 714
1.270 3.171 -0.144 714
2.023 5.052 -0.330 894
2.022 5.051 -0.346 1028
2.022 5.050 -0.362 1163
2.021 5.048 -0.377 1226
2.021 5.047 -0.393 1289
2.020 5.045 -0.409 1289
2.020 5.044 -0.424 1304
2.019 5.042 -0.440 1320
2.018 5.041 -0.456 660
0.848 2.107 1.750 4699
0.849 2.112 1.744 9398
0.851 2.116 1.737 9398
0.858 2.132 1.740 10102
0.862 2.143 1.738 11376
0.868 2.159 1.740 9695
0.875 2.175 1.743 9543
0.877 2.180 1.736 9543
0.895 2.226 1.761 11580
0.897 2.231 1.754 15777
0.901 2.241 1.752 14414
0.903 2.245 1.745 13282
0.905 2.250 1.738 9076
0.934 2.321 1.779 5105
0.935 2.326 1.772 5105
0.940 2.336 1.769 4267
0.944 2.347 1.767 3583
0.943 2.345 1.755 3006
0.923 2.294 1.709 3040
0.942 2.341 1.732 3921
0.943 2.346 1.725 5457
0.945 2.350 1.718 5346
0.949 2.360 1.715 5284
0.979 2.433 1.754 4456
0.978 2.431 1.742 4509
0.995 2.473 1.760 5825
0.996 2.477 1.752 8265
0.998 2.482 1.744 9141
1.000 2.486 1.737 10018
1.002 2.490 1.729 7712
1.008 2.507 1.729 5993
1.010 2.511 1.722 5736
1.012 2.516 1.714 5479
1.044 2.596 1.754 6275
1.038 2.581 1.734 7861
1.037 2.579 1.722 9648
1.042 2.590 1.718 10651
1.049 2.607 1.718 10703
1.055 2.624 1.718 8361
1.065 2.647 1.722 7077
1.061 2.639 1.706 7249
1.091 2.714 1.740 7992
1.093 2.718 1.732 9858
1.098 2.729 1.727 10696
1.099 2.733 1.719 9902
1.104 2.744 1.714 7726
1.126 2.800 1.735 7812
1.128 2.804 1.727 7873
1.127 2.802 1.714 6002
1.113 2.767 1.684 4500
1.112 2.765 1.671 5076
1.116 2.775 1.666 5233
1.123 2.793 1.665 5127
1.191 2.960 1.747 4918
1.200 2.984 1.748 5991
1.184 2.943 1.714 6384
1.185 2.947 1.705 6828
1.190 2.958 1.699 6536
1.199 2.982 1.701 6106
1.206 2.999 1.699 8144
1.211 3.010 1.693 11265
1.212 3.014 1.683 11756
1.214 3.018 1.674 7951
1.256 3.122 1.716 8554
1.263 3.139 1.713 12073
1.270 3.157 1.710 13670
1.271 3.161 1.700 14297
1.270 3.159 1.687 15786
1.269 3.156 1.674 20360
1.271 3.160 1.664 23745
1.273 3.164 1.654 25639
1.277 3.175 1.648 25695
1.279 3.179 1.638 20073
1.280 3.183 1.628 14052
1.282 3.187 1.618 11804
1.284 3.191 1.608 10325
1.285 3.195 1.599 7210
1.368 3.402 1.682 6028
1.384 3.440 1.687 7377
1.388 3.451 1.679 5726
1.401 3.482 1.681 4912
1.402 3.486 1.670 5578
1.415 3.518 1.671 5572
1.419 3.528 1.663 6950
1.448 3.601 1.682 6223
1.455 3.618 1.676 6043
1.465 3.643 1.674 6404
1.470 3.654 1.666 7317
1.466 3.645 1.648 7063
1.479 3.676 1.649 5567
1.519 3.776 1.677 7874
1.523 3.787 1.668 9168
1.536 3.819 1.667 10247
1.538 3.823 1.655 9295
1.553 3.861 1.657 5829
1.544 3.838 1.634 3462
1.562 3.883 1.639 3984
1.564 3.887 1.627 6397
1.562 3.885 1.612 8158
1.564 3.888 1.600 8659
1.594 3.962 1.614 7331
1.598 3.973 1.604 10010
1.602 3.984 1.594 9428
1.609 4.001 1.587 6163
1.701 4.228 1.655 4970
1.705 4.239 1.645 7685
1.710 4.250 1.634 7314
1.711 4.254 1.621 4558
1.749 4.349 1.639 2698
1.737 4.318 1.614 2863
1.820 4.525 1.670 3331
1.819 4.522 1.653 3431
1.798 4.470 1.620 3964
1.831 4.551 1.632 6070
1.832 4.555 1.618 6888
1.837 4.566 1.606 5179
1.841 4.577 1.594 3568
1.877 4.666 1.607 3510
1.878 4.670 1.592 4719
1.922 4.780 1.610 3390
1.924 4.784 1.596 3736
1.928 4.795 1.583 3909
1.927 4.791 1.566 3339
2.014 5.008 1.614 3075
2.013 5.005 1.596 4541
2.052 5.101 1.608 4910
2.036 5.062 1.579 4344
2.038 5.066 1.564 6428
2.036 5.063 1.546 5842
2.072 5.152 1.554 3840
2.071 5.148 1.536 4514
2.175 5.409 1.589 4407
2.128 5.291 1.540 3423
2.239 5.566 1.595 2510
2.215 5.506 1.561 2523
2.299 5.717 1.597 4118
2.301 5.721 1.579 7532
2.303 5.725 1.561 8451
2.304 5.729 1.543 8497
2.309 5.740 1.527 10698
2.310 5.743 1.509 10239
2.309 5.740 1.490 7346
2.385 5.930 1.515 5506
2.384 5.927 1.495 4747
2.382 5.923 1.475 3052
2.450 6.092 1.494 2913
2.744 6.822 1.635 2654
2.752 6.841 1.617 3536
2.759 6.859 1.599 2982
2.766 6.877 1.580 2772
2.759 6.860 1.554 2832
2.758 6.856 1.531 2490
2.852 7.091 1.557 3047
2.935 7.297 1.574 2564
2.919 7.258 1.543 3740
2.915 7.247 1.518 4704
2.913 7.243 1.494 4901
2.912 7.240 1.470 3891
2.916 7.251 1.448 2446
3.212 7.986 1.556 2331
3.249 8.077 1.547 1652
3.548 8.820 1.649 1441
3.552 8.832 1.622 1904
3.554 8.836 1.595 2282
3.550 8.825 1.565 2168
3.653 9.083 1.578 1959
3.640 9.051 1.544 2021
3.639 9.047 1.514 1603
4.079 10.142 1.649 1647
4.081 10.146 1.617 2191
4.083 10.150 1.585 2345
4.084 10.154 1.554 2046
4.141 10.296 1.541 2244
4.119 10.242 1.501 2468
4.118 10.238 1.468 2266
4.114 10.227 1.434 1549
4.150 10.318 1.413 1169
4.574 11.373 1.507 1519
4.614 11.471 1.483 1647
4.612 11.467 1.446 1773
4.617 11.478 1.411 1407
4.618 11.482 1.375 979
4.675 11.624 1.353 777
4.680 11.634 1.318 746
4.693 11.667 1.284 773
4.694 11.670 1.248 612
4.727 11.753 1.218 642
4.726 11.749 1.181 543
4.727 11.752 1.144 433
4.728 11.754 1.107 292
3.811 9.475 0.057 361
3.808 9.467 0.027 464
3.805 9.459 -0.002 494
3.802 9.452 -0.032 544
3.801 9.451 -0.061 415
3.798 9.443 -0.091 293
3.795 9.435 -0.120 307
3.774 9.383 -0.148 365
3.794 9.434 -0.179 682
3.794 9.433 -0.208 1043
3.791 9.424 -0.238 1230
3.787 9.416 -0.267 1421
3.784 9.408 -0.296 1215
3.778 9.392 -0.325 1117
3.771 9.376 -0.353 1106
3.768 9.367 -0.382 1222
3.767 9.365 -0.412 1155
3.760 9.349 -0.440 1097
3.748 9.318 -0.467 1047
3.744 9.309 -0.496 1075
3.747 9.315 -0.526 1077
3.749 9.320 -0.555 1087
3.748 9.318 -0.585 1087
3.744 9.309 -0.613 895
1.275 3.171 -0.124 873
1.275 3.170 -0.134 908
1.275 3.169 -0.144 908
1.275 3.169 -0.153 946
1.274 3.168 -0.163 985
1.274 3.167 -0.173 914
1.274 3.166 -0.183 843
1.273 3.165 -0.193 700
1.273 3.164 -0.202 558
1.272 3.163 -0.212 558
1.272 3.162 -0.222 453
1.272 3.161 -0.232 348
0.856 2.104 1.750 4750
0.858 2.108 1.744 9501
0.859 2.113 1.737 9501
0.866 2.129 1.740 10554
0.870 2.139 1.738 12197
0.874 2.149 1.736 10226
0.881 2.166 1.738 9555
0.883 2.170 1.732 9555
0.904 2.223 1.761 11178
0.906 2.227 1.754 15133
0.910 2.237 1.752 13886
0.912 2.242 1.745 12826
0.914 2.246 1.738 8724
0.910 2.238 1.722 4757
0.945 2.322 1.772 4455
0.949 2.332 1.769 3822
0.953 2.343 1.767 3432
0.952 2.341 1.755 2981
0.929 2.284 1.705 3177
0.951 2.338 1.732 4111
0.953 2.342 1.725 5775
0.954 2.346 1.718 5635
0.959 2.357 1.715 5601
0.986 2.423 1.749 4525
0.987 2.427 1.742 4450
1.002 2.463 1.755 5766
1.006 2.473 1.752 8271
1.008 2.478 1.744 9225
1.010 2.482 1.737 10178
1.011 2.486 1.729 7683
1.018 2.503 1.729 5468
1.020 2.507 1.722 4878
1.022 2.512 1.714 4289
1.057 2.598 1.758 5015
1.046 2.571 1.730 7155
1.048 2.575 1.722 8477
1.054 2.592 1.722 9145
1.064 2.615 1.726 9990
1.068 2.626 1.722 9161
1.073 2.637 1.718 8945
1.072 2.635 1.706 8664
1.105 2.716 1.744 9579
1.104 2.714 1.732 11587
1.108 2.724 1.727 12092
1.110 2.729 1.719 10772
1.114 2.739 1.714 8113
1.137 2.795 1.735 8853
1.139 2.800 1.727 8964
1.138 2.797 1.714 6718
1.124 2.763 1.684 4863
1.126 2.767 1.675 5674
1.127 2.771 1.666 5801
1.132 2.782 1.661 5244
1.205 2.962 1.750 5083
1.212 2.979 1.748 6134
1.216 2.990 1.743 5901
1.197 2.942 1.705 6136
1.201 2.953 1.699 6842
1.208 2.970 1.697 7179
1.218 2.994 1.699 8022
1.225 3.012 1.696 10823
1.224 3.009 1.683 11184
1.226 3.013 1.674 7637
1.262 3.104 1.709 7621
1.272 3.128 1.710 9639
1.285 3.158 1.713 10538
1.281 3.149 1.697 11463
1.280 3.147 1.684 13722
1.282 3.151 1.674 17143
