11.629 8.533 0.149 358
11.623 8.529 0.107 312
11.623 8.529 0.065 309
1.847 1.344 1.759 4663
1.850 1.347 1.753 9326
1.854 1.350 1.746 9326
1.863 1.356 1.744 9651
1.867 1.359 1.738 10107
1.871 1.362 1.731 11906
1.875 1.365 1.725 13704
1.878 1.367 1.718 13704
1.882 1.370 1.711 15029
1.886 1.373 1.705 16353
1.895 1.379 1.703 17212
1.904 1.386 1.700 18387
1.907 1.389 1.694 16844
1.911 1.391 1.687 15301
1.915 1.394 1.680 12444
1.950 1.420 1.700 10488
1.949 1.419 1.688 10410
1.958 1.425 1.686 10309
1.967 1.432 1.683 10599
1.976 1.438 1.680 9119
1.985 1.445 1.678 8280
1.999 1.455 1.679 6473
2.046 1.489 1.706 6972
2.060 1.500 1.707 6546
2.075 1.511 1.708 6735
2.073 1.509 1.697 6533
2.077 1.512 1.690 6496
2.086 1.519 1.686 5922
2.095 1.525 1.683 5836
2.077 1.512 1.659 6764
2.080 1.515 1.652 8514
2.095 1.525 1.653 9574
2.104 1.532 1.649 11584
2.113 1.538 1.646 10298
2.133 1.553 1.650 10785
2.126 1.548 1.635 11449
2.135 1.554 1.631 9491
2.144 1.561 1.628 7882
2.131 1.551 1.608 6956
2.129 1.550 1.597 6690
2.126 1.548 1.586 5095
2.342 1.705 1.725 5258
2.346 1.708 1.716 5459
2.423 1.764 1.758 4679
2.432 1.771 1.753 5490
2.430 1.769 1.740 6389
2.428 1.768 1.728 7412
2.438 1.775 1.723 7365
2.447 1.781 1.718 7004
2.451 1.784 1.709 6606
2.455 1.787 1.701 6827
2.515 1.831 1.729 8171
2.519 1.834 1.720 9948
2.522 1.836 1.711 8798
2.520 1.835 1.698 10167
2.524 1.838 1.689 12851
2.528 1.840 1.680 13854
2.531 1.843 1.671 14627
2.535 1.845 1.662 14398
2.590 1.886 1.685 12294
2.588 1.884 1.672 17431
2.592 1.887 1.663 21121
2.590 1.885 1.650 18002
2.599 1.892 1.644 12937
2.608 1.899 1.639 11636
2.618 1.906 1.633 12293
2.621 1.908 1.623 17379
2.625 1.911 1.614 22985
2.628 1.913 1.605 20727
2.637 1.920 1.599 16465
2.641 1.922 1.589 13096
2.650 1.929 1.583 13640
2.653 1.932 1.574 13150
2.657 1.934 1.564 10354
2.666 1.941 1.558 10696
2.669 1.943 1.549 11297
2.679 1.950 1.542 9408
2.688 1.957 1.536 9845
2.691 1.959 1.526 11575
2.688 1.957 1.514 12089
2.686 1.955 1.501 15324
2.695 1.962 1.494 15566
2.698 1.964 1.485 9406
2.689 1.958 1.469 6954
2.692 1.960 1.460 9153
2.696 1.962 1.450 10144
2.705 1.969 1.444 12041
2.708 1.971 1.434 13769
2.717 1.978 1.427 9753
2.720 1.980 1.417 4080
2.729 1.986 1.411 2944
2.732 1.989 1.401 5508
2.729 1.986 1.388 7436
2.732 1.989 1.379 7148
2.747 1.999 1.375 11643
2.755 2.006 1.367 18927
2.758 2.008 1.358 18071
2.755 2.006 1.345 11386
2.752 2.003 1.333 10979
2.761 2.010 1.326 14676
2.758 2.007 1.313 11617
2.766 2.014 1.306 7446
2.781 2.025 1.301 8512
2.790 2.031 1.294 13563
2.793 2.033 1.284 16230
2.801 2.039 1.277 12980
2.810 2.046 1.269 12148
2.807 2.043 1.257 11095
2.809 2.045 1.247 10708
2.818 2.052 1.239 8455
2.839 2.067 1.236 4281
2.848 2.073 1.229 3916
2.850 2.075 1.218 6106
2.847 2.072 1.206 8645
2.849 2.074 1.196 10824
2.858 2.080 1.188 10793
2.860 2.082 1.178 8010
2.863 2.084 1.168 5281
2.896 2.108 1.169 3671
2.911 2.119 1.163 3181
2.901 2.112 1.148 3900
4.166 3.033 1.579 5481
4.169 3.035 1.564 6813
4.172 3.037 1.549 8069
4.182 3.044 1.536 8304
4.185 3.047 1.521 7510
4.182 3.045 1.504 7539
4.198 3.056 1.493 8459
4.195 3.054 1.476 10422
4.204 3.061 1.463 7999
4.182 3.045 1.440 5436
4.186 3.047 1.425 6685
4.189 3.049 1.410 6334
4.192 3.051 1.395 6961
4.194 3.054 1.380 5906
4.216 3.069 1.371 5162
2.792 2.033 0.940 5430
2.794 2.034 0.930 7254
2.796 2.035 0.920 7964
2.798 2.037 0.910 7369
2.800 2.038 0.900 4918
4.277 3.113 1.292 2936
2.878 2.095 0.901 2423
2.880 2.097 0.890 2132
4.416 3.215 1.281 2999
4.588 3.340 1.308 2500
5.155 3.753 1.435 2513
5.164 3.760 1.418 2982
5.167 3.762 1.400 3395
5.101 3.714 1.364 6471
5.098 3.711 1.345 13342
5.101 3.713 1.326 16549
5.103 3.715 1.308 12739
5.106 3.717 1.290 9711
5.115 3.724 1.273 12301
5.118 3.726 1.255 16286
5.120 3.728 1.236 16315
5.123 3.729 1.218 12191
5.132 3.736 1.201 8166
5.134 3.738 1.182 5718
6.286 4.576 1.395 4827
6.289 4.579 1.373 4341
6.286 4.576 1.349 2299
6.213 4.523 1.312 2956
6.222 4.529 1.291 3887
6.231 4.536 1.270 4115
6.240 4.543 1.249 3536
6.185 4.503 1.216 4889
6.182 4.500 1.193 4314
6.159 4.484 1.167 4239
6.148 4.476 1.142 5475
6.144 4.473 1.119 6631
6.147 4.475 1.097 4750
6.155 4.481 1.076 2633
6.075 4.422 1.042 2958
6.090 4.433 1.022 3506
6.174 4.495 1.012 3788
6.170 4.492 0.989 2932
6.121 4.456 0.960 3014
6.117 4.453 0.937 3472
6.112 4.450 0.914 3093
6.108 4.446 0.891 2428
6.383 4.647 0.903 2013
6.385 4.648 0.880 1944
6.476 4.715 0.867 2064
6.459 4.702 0.842 2990
6.428 4.680 0.815 3073
6.424 4.676 0.791 2431
6.431 4.682 0.769 2219
6.439 4.688 0.746 1669
6.568 4.782 0.735 1340
6.570 4.783 0.711 1364
6.494 4.728 0.681 1119
6.911 5.031 0.691 995
6.893 5.018 0.665 1056
8.613 6.270 0.766 1011
8.608 6.266 0.735 1055
8.609 6.267 0.704 1033
8.611 6.268 0.673 947
8.605 6.265 0.641 784
8.428 6.135 0.601 767
8.429 6.136 0.570 922
11.499 8.371 0.687 826
11.488 8.363 0.645 1041
11.483 8.359 0.603 1316
11.484 8.360 0.562 1221
11.453 8.337 0.520 885
11.428 8.319 0.478 766
11.441 8.329 0.437 760
11.448 8.334 0.396 610
11.635 8.470 0.358 644
11.641 8.475 0.316 673
11.655 8.484 0.275 734
11.661 8.489 0.233 642
11.661 8.489 0.191 555
11.655 8.485 0.149 480
11.655 8.485 0.107 389
11.655 8.485 0.065 368
11.655 8.485 0.023 253
1.851 1.338 1.759 5166
1.855 1.340 1.753 10333
1.859 1.343 1.746 10333
1.868 1.350 1.744 10299
1.877 1.356 1.742 10423
1.876 1.355 1.731 11389
1.874 1.354 1.720 12501
1.878 1.357 1.713 12501
1.887 1.363 1.711 13331
1.891 1.366 1.705 14211
1.900 1.373 1.703 15016
1.909 1.379 1.700 16156
1.912 1.382 1.694 14746
1.916 1.384 1.687 13336
1.946 1.406 1.702 11885
1.955 1.413 1.700 11339
1.954 1.412 1.688 11247
1.963 1.418 1.686 10632
1.972 1.425 1.683 10334
1.981 1.431 1.680 9241
1.995 1.442 1.682 9085
2.010 1.452 1.684 7640
2.040 1.474 1.698 7183
2.066 1.493 1.707 6461
2.080 1.503 1.708 6368
2.079 1.502 1.697 6347
2.082 1.505 1.690 6369
2.091 1.511 1.686 5965
2.106 1.522 1.687 6020
2.099 1.516 1.672 6238
2.086 1.507 1.652 7359
2.106 1.522 1.657 9333
2.110 1.524 1.649 11860
2.124 1.535 1.650 11071
2.139 1.545 1.650 12368
2.137 1.544 1.639 12943
2.146 1.551 1.635 11112
2.149 1.553 1.628 9649
2.147 1.552 1.616 8239
2.140 1.546 1.601 7653
2.138 1.544 1.589 5664
2.348 1.697 1.725 4575
2.347 1.695 1.712 4795
2.429 1.755 1.758 4285
2.433 1.758 1.749 4937
2.437 1.760 1.740 5507
2.440 1.763 1.732 6077
2.444 1.766 1.723 6321
2.453 1.773 1.718 6619
2.463 1.780 1.713 6783
2.467 1.782 1.704 5793
2.522 1.822 1.729 8343
2.525 1.825 1.720 9751
2.523 1.823 1.707 8777
2.527 1.826 1.698 10273
2.531 1.829 1.689 12707
2.534 1.831 1.680 14042
2.538 1.834 1.671 15328
2.542 1.836 1.662 15279
2.551 1.843 1.657 12413
2.595 1.875 1.672 18306
2.599 1.878 1.663 22769
2.602 1.880 1.654 19576
2.611 1.887 1.648 14453
2.615 1.889 1.639 11746
2.624 1.896 1.633 11137
2.628 1.899 1.623 15956
2.631 1.901 1.614 21401
2.635 1.904 1.605 19960
2.644 1.911 1.599 15895
2.648 1.913 1.589 11839
2.657 1.920 1.583 11789
2.660 1.922 1.574 12040
2.664 1.925 1.564 10359
2.667 1.927 1.555 11023
2.670 1.929 1.545 11648
2.680 1.936 1.539 8816
2.689 1.943 1.533 8124
2.686 1.941 1.520 11089
2.678 1.935 1.504 12654
2.693 1.946 1.501 14932
2.702 1.952 1.494 14791
2.705 1.954 1.485 9418
2.696 1.948 1.469 7882
2.699 1.950 1.460 11294
2.703 1.953 1.450 13024
2.706 1.955 1.441 15145
2.709 1.957 1.431 15884
2.712 1.959 1.421 11329
2.715 1.962 1.412 5947
2.706 1.955 1.396 3858
2.715 1.962 1.390 5049
2.724 1.968 1.383 8054
2.733 1.974 1.376 8590
2.754 1.990 1.375 11248
2.757 1.992 1.365 17634
2.759 1.994 1.355 17519
2.762 1.996 1.345 11330
2.765 1.998 1.335 11542
2.768 2.000 1.326 16318
2.765 1.998 1.313 14342
2.767 2.000 1.303 9262
2.788 2.015 1.301 9004
2.797 2.021 1.294 15282
2.800 2.023 1.284 19481
2.809 2.029 1.277 16089
2.811 2.031 1.267 12799
2.814 2.033 1.257 11488
2.811 2.031 1.244 11048
2.813 2.033 1.234 8498
2.828 2.043 1.229 3642
2.855 2.063 1.229 3591
2.852 2.060 1.216 5995
2.848 2.058 1.204 8762
2.850 2.060 1.194 10002
2.865 2.070 1.188 9429
2.868 2.072 1.178 7475
2.864 2.069 1.165 5095
2.879 2.080 1.160 4240
2.887 2.086 1.152 4873
2.896 2.092 1.144 4291
4.177 3.018 1.579 4126
4.180 3.020 1.564 4799
4.183 3.023 1.549 5816
4.187 3.025 1.534 6628
4.190 3.027 1.519 8002
4.193 3.030 1.504 8392
4.203 3.036 1.491 7767
4.199 3.034 1.474 9368
4.196 3.032 1.457 7258
4.193 3.030 1.440 7784
4.196 3.032 1.425 9822
4.199 3.034 1.410 6106
4.202 3.036 1.395 4107
2.796 2.020 0.960 4561
2.798 2.021 0.950 6964
2.800 2.023 0.940 9436
2.801 2.024 0.930 10372
2.803 2.025 0.920 8160
2.805 2.027 0.910 5144
4.279 3.092 1.306 3220
4.281 3.093 1.290 2931
2.886 2.085 0.901 2134
4.419 3.193 1.295 2524
4.428 3.199 1.281 3641
4.437 3.206 1.266 2950
4.445 3.212 1.252 2257
5.171 3.737 1.417 1989
5.111 3.693 1.383 4004
5.114 3.695 1.364 8066
5.111 3.693 1.345 14708
5.114 3.695 1.326 17506
5.117 3.697 1.308 13274
5.119 3.699 1.290 10607
5.128 3.705 1.273 13901
5.137 3.712 1.256 18250
5.134 3.709 1.236 17022
5.136 3.711 1.218 11423
5.145 3.718 1.201 7840
5.148 3.719 1.182 5908
6.303 4.554 1.395 4062
6.306 4.556 1.373 3348
6.213 4.489 1.332 2553
6.216 4.492 1.310 3144
6.219 4.493 1.287 3657
6.247 4.514 1.270 3675
6.186 4.470 1.236 4757
6.195 4.476 1.215 5670
6.191 4.473 1.192 4532
6.156 4.448 1.163 4169
6.158 4.449 1.141 5215
6.160 4.451 1.119 6330
6.150 4.444 1.095 4827
6.095 4.404 1.065 3298
6.091 4.401 1.042 4199
6.099 4.407 1.021 4634
6.108 4.413 1.000 3815
6.135 4.433 0.982 2674
6.137 4.434 0.960 3428
6.133 4.431 0.937 4274
6.128 4.428 0.914 4090
6.124 4.424 0.891 3330
6.119 4.421 0.869 2469
6.127 4.427 0.848 2350
6.493 4.691 0.867 2239
6.482 4.683 0.842 3353
6.451 4.661 0.816 3012
6.447 4.658 0.792 2250
6.455 4.664 0.769 2199
6.482 4.683 0.749 2114
6.489 4.689 0.726 1670
6.504 4.699 0.704 1540
6.498 4.695 0.680 1365
6.481 4.682 0.655 1197
6.488 4.688 0.633 1117
8.635 6.239 0.766 1162
8.630 6.236 0.735 1248
8.632 6.237 0.704 1285
8.633 6.238 0.673 1232
8.628 6.234 0.641 1038
6.808 4.919 0.511 840
6.809 4.920 0.486 965
11.536 8.335 0.687 890
11.518 8.322 0.645 1238
11.519 8.323 0.604 1640
11.520 8.324 0.562 1503
11.521 8.324 0.521 1011
9.950 7.189 0.433 889
11.478 8.293 0.437 832
11.478 8.293 0.396 720
11.665 8.428 0.358 609
11.665 8.429 0.316 627
11.678 8.438 0.275 666
11.685 8.443 0.233 630
11.692 8.448 0.191 603
11.685 8.443 0.149 559
11.685 8.443 0.107 460
11.685 8.443 0.065 401
11.685 8.443 0.023 267
1.861 1.336 1.764 5462
1.865 1.338 1.757 10925
1.869 1.341 1.751 10925
1.872 1.344 1.744 10494
1.881 1.350 1.742 10341
1.880 1.349 1.731 10810
1.878 1.348 1.720 11627
1.882 1.351 1.713 11627
1.891 1.357 1.711 12051
1.895 1.360 1.705 12545
1.904 1.366 1.703 13159
1.924 1.381 1.709 14219
1.938 1.391 1.711 13025
1.947 1.397 1.709 11969
1.956 1.404 1.706 11536
1.960 1.407 1.700 11138
1.964 1.409 1.693 11070
1.967 1.412 1.686 10065
1.976 1.418 1.683 9252
1.985 1.425 1.680 8663
2.011 1.443 1.691 9357
2.020 1.450 1.688 8391
2.034 1.460 1.689 7701
2.065 1.482 1.703 5994
2.080 1.493 1.704 5605
2.083 1.495 1.697 5638
2.087 1.498 1.690 5671
2.102 1.508 1.690 5604
2.111 1.515 1.687 5850
2.109 1.514 1.676 6208
2.107 1.512 1.664 6815
2.116 1.519 1.661 9250
2.120 1.521 1.653 11827
2.129 1.528 1.650 11315
2.144 1.539 1.650 12916
2.142 1.537 1.639 13537
2.151 1.544 1.635 12110
2.154 1.546 1.628 11003
2.158 1.549 1.620 9387
2.150 1.543 1.605 8403
2.148 1.542 1.593 6147
2.354 1.689 1.725 3682
2.352 1.688 1.712 3948
2.305 1.654 1.670 4067
2.314 1.661 1.665 4622
2.442 1.753 1.740 4738
2.446 1.755 1.732 5163
2.455 1.762 1.727 5591
2.465 1.769 1.722 6415
2.480 1.780 1.721 7258
2.501 1.795 1.723 6177
2.527 1.814 1.729 7943
2.531 1.817 1.720 8722
2.518 1.807 1.700 8602
2.521 1.810 1.691 10477
2.531 1.816 1.686 12027
2.534 1.819 1.677 13741
2.538 1.822 1.668 15640
2.542 1.824 1.659 15824
2.551 1.831 1.653 12717
2.601 1.867 1.672 17660
2.604 1.869 1.663 22248
2.614 1.876 1.657 19307
2.617 1.879 1.648 14671
2.621 1.881 1.639 10907
2.630 1.888 1.633 9497
2.634 1.890 1.623 13591
2.637 1.893 1.614 18241
2.641 1.895 1.605 17165
2.650 1.902 1.599 13527
2.654 1.905 1.589 9688
2.663 1.911 1.583 9346
2.666 1.914 1.574 10451
2.658 1.908 1.558 10971
2.667 1.914 1.552 12956
2.671 1.917 1.542 14432
2.674 1.919 1.533 11474
2.683 1.926 1.526 8521
2.681 1.924 1.514 10195
2.684 1.926 1.504 12704
2.687 1.928 1.495 13838
2.702 1.939 1.491 12703
2.711 1.946 1.485 8249
2.703 1.940 1.469 8344
2.700 1.938 1.457 13811
2.703 1.940 1.447 16210
2.706 1.942 1.438 17772
2.715 1.949 1.431 18132
2.718 1.951 1.421 14132
2.721 1.953 1.412 8836
2.712 1.946 1.396 7317
2.715 1.949 1.387 9453
2.724 1.955 1.380 11936
2.733 1.961 1.373 11569
2.754 1.976 1.372 10603
2.763 1.983 1.365 14961
2.766 1.985 1.355 15286
2.769 1.987 1.345 10652
2.772 1.989 1.335 11512
2.774 1.991 1.326 15712
2.771 1.989 1.313 14464
2.774 1.991 1.303 9961
2.789 2.001 1.299 9008
2.804 2.012 1.294 15399
2.806 2.014 1.284 20006
2.815 2.020 1.277 16925
2.818 2.022 1.267 13150
2.814 2.020 1.254 11553
2.817 2.022 1.244 11185
2.814 2.019 1.232 9643
2.822 2.026 1.224 5072
2.849 2.045 1.224 3310
2.858 2.051 1.216 5182
2.854 2.049 1.204 7970
2.857 2.050 1.194 8356
2.866 2.057 1.186 8315
2.868 2.058 1.176 8093
2.864 2.056 1.163 6483
2.873 2.062 1.155 5812
2.888 2.073 1.149 6613
2.890 2.074 1.139 4985
2.892 2.076 1.129 2862
2.889 2.073 1.117 2301
4.193 3.009 1.549 3418
4.196 3.012 1.534 4948
4.199 3.014 1.519 7797
4.203 3.016 1.504 7854
4.200 3.014 1.487 5802
4.203 3.016 1.472 7437
4.200 3.014 1.455 6698
4.197 3.012 1.438 9162
4.200 3.014 1.423 11499
4.203 3.016 1.408 6463
2.813 2.019 0.974 4233
2.815 2.020 0.964 5933
2.817 2.021 0.954 5489
4.152 2.980 1.330 4749
4.167 2.991 1.319 4811
4.164 2.988 1.303 3708
4.160 2.986 1.286 3370
4.176 2.997 1.275 4338
4.172 2.994 1.258 3805
4.162 2.987 1.240 2000
4.227 3.034 1.242 3527
4.230 3.036 1.227 4112
4.226 3.033 1.210 3353
4.235 3.040 1.197 2970
5.127 3.679 1.402 2486
5.123 3.677 1.383 4992
5.126 3.679 1.364 8710
5.123 3.677 1.345 14185
5.126 3.679 1.326 16158
5.128 3.681 1.308 11926
5.131 3.683 1.290 9279
5.140 3.689 1.273 12361
5.149 3.696 1.256 16568
5.145 3.693 1.236 15021
5.148 3.695 1.218 9632
5.157 3.701 1.201 7055
5.159 3.703 1.182 5794
5.168 3.709 1.165 3511
6.314 4.531 1.372 2725
6.215 4.461 1.330 2841
6.224 4.467 1.309 3328
6.227 4.469 1.286 3541
6.185 4.439 1.256 4202
6.194 4.446 1.235 5673
6.203 4.452 1.214 5918
6.199 4.449 1.191 4466
6.170 4.428 1.163 4338
6.172 4.430 1.141 4438
6.168 4.427 1.118 5248
6.164 4.424 1.095 4483
6.109 4.384 1.065 4783
6.105 4.381 1.042 5448
6.113 4.387 1.021 5593
6.115 4.389 0.999 4467
6.124 4.395 0.978 2757
6.081 4.364 0.950 3471
6.153 4.416 0.938 4553
6.149 4.413 0.915 4654
6.138 4.405 0.891 3775
6.133 4.402 0.869 2743
6.135 4.403 0.847 2673
6.104 4.381 0.821 2761
6.497 4.663 0.842 3458
6.498 4.664 0.819 3029
6.192 4.444 0.765 2331
6.501 4.666 0.773 2523
6.496 4.663 0.749 2622
6.498 4.664 0.726 1992
6.519 4.678 0.704 1724
6.494 4.661 0.679 1775
6.495 4.662 0.655 2000
6.503 4.667 0.633 2102
6.498 4.663 0.609 1491
8.650 6.208 0.735 1320
8.651 6.209 0.704 1462
8.653 6.210 0.673 1468
8.654 6.211 0.642 1283
6.689 4.801 0.503 1043
6.696 4.806 0.480 944
6.819 4.894 0.462 979
11.551 8.290 0.645 1200
11.545 8.286 0.604 1697
11.546 8.287 0.562 1627
11.547 8.287 0.521 1105
6.880 4.938 0.342 901
11.504 8.256 0.437 779
11.575 8.308 0.397 841
11.576 8.308 0.356 867
11.583 8.313 0.315 693
11.596 8.322 0.273 543
11.706 8.401 0.233 474
11.712 8.406 0.191 500
11.712 8.406 0.149 507
11.712 8.406 0.107 446
11.718 8.410 0.065 382
11.712 8.406 0.023 255
9.516 6.829 -0.774 266
9.514 6.828 -0.808 255
1.865 1.329 1.764 5696
1.869 1.332 1.757 11392
1.873 1.335 1.751 11392
1.882 1.341 1.749 10564
1.886 1.344 1.742 9997
1.884 1.343 1.731 10497
1.883 1.342 1.720 11428
1.887 1.345 1.713 11428
1.896 1.351 1.711 11683
1.905 1.358 1.709 12056
1.946 1.387 1.734 12125
1.944 1.386 1.723 12851
1.959 1.396 1.725 12078
1.968 1.402 1.722 11609
1.966 1.401 1.711 10717
1.964 1.400 1.700 9967
1.968 1.403 1.693 9965
1.972 1.405 1.686 8681
1.981 1.412 1.683 7427
1.990 1.418 1.680 7435
2.021 1.440 1.695 9424
2.030 1.447 1.692 8709
2.034 1.449 1.685 8030
2.032 1.448 1.674 5499
2.090 1.490 1.708 4444
2.094 1.492 1.701 4435
2.098 1.495 1.694 4426
2.112 1.505 1.695 4963
2.121 1.512 1.691 5706
2.114 1.507 1.676 6300
2.118 1.509 1.668 7171
2.121 1.512 1.661 9416
2.130 1.518 1.657 11667
2.140 1.525 1.654 11235
2.149 1.532 1.650 12420
2.147 1.530 1.639 13024
2.156 1.537 1.635 12093
2.159 1.539 1.628 11477
2.163 1.542 1.620 9806
2.155 1.536 1.605 8597
2.159 1.539 1.597 6371
2.162 1.541 1.590 3800
2.267 1.616 1.651 3854
2.310 1.647 1.670 4301
2.320 1.653 1.665 4891
2.448 1.745 1.740 4135
2.452 1.747 1.732 4606
2.461 1.754 1.727 5197
2.476 1.765 1.726 6522
2.491 1.776 1.724 8102
2.512 1.791 1.726 7365
2.528 1.801 1.725 7562
2.537 1.808 1.720 7354
2.524 1.799 1.700 8798
2.527 1.801 1.691 10848
2.537 1.808 1.686 11295
2.540 1.811 1.677 12793
2.544 1.813 1.668 14878
2.548 1.816 1.659 15466
2.557 1.822 1.653 12172
2.607 1.858 1.672 15800
2.611 1.861 1.663 19658
2.620 1.867 1.657 17171
2.629 1.874 1.651 13006
2.633 1.877 1.642 8936
2.642 1.883 1.636 7385
2.640 1.882 1.623 10175
2.644 1.884 1.614 13627
2.647 1.887 1.605 12693
2.657 1.893 1.599 10112
2.666 1.900 1.592 7649
2.669 1.902 1.583 7000
2.655 1.892 1.564 9417
2.658 1.895 1.555 12914
2.662 1.897 1.545 15870
2.671 1.904 1.539 17648
2.674 1.906 1.530 15652
2.678 1.908 1.520 11206
2.681 1.911 1.511 9215
2.690 1.917 1.504 10926
2.693 1.920 1.495 12119
2.708 1.930 1.491 10018
2.712 1.933 1.482 6613
2.703 1.926 1.466 9057
2.706 1.929 1.457 15957
2.709 1.931 1.447 18911
2.712 1.933 1.438 19488
2.715 1.935 1.428 19499
2.724 1.942 1.421 16107
2.727 1.944 1.412 10968
2.724 1.942 1.399 10263
2.727 1.944 1.390 13460
2.730 1.946 1.380 16229
2.733 1.948 1.370 14904
2.748 1.959 1.366 10404
2.769 1.974 1.365 11227
2.766 1.972 1.352 12099
2.769 1.974 1.343 9679
2.778 1.980 1.335 10839
2.781 1.982 1.326 12672
2.778 1.980 1.313 11505
2.780 1.982 1.303 8913
2.795 1.992 1.299 8562
2.810 2.003 1.294 14114
2.813 2.005 1.284 17851
2.822 2.011 1.277 15713
2.825 2.013 1.267 12467
2.821 2.011 1.254 10696
2.824 2.013 1.244 10368
2.820 2.010 1.232 10532
2.829 2.016 1.224 7043
2.831 2.018 1.214 4541
2.846 2.029 1.209 5074
2.855 2.035 1.201 6834
2.858 2.037 1.191 6735
2.866 2.043 1.183 7647
2.869 2.045 1.173 8930
2.871 2.046 1.163 7922
2.880 2.052 1.155 6807
2.888 2.059 1.147 6737
2.897 2.065 1.139 5934
2.899 2.066 1.129 5711
2.895 2.064 1.117 4946
2.904 2.070 1.109 2756
2.950 2.102 1.113 3269
4.209 3.000 1.519 5770
4.206 2.998 1.502 5361
4.203 2.996 1.485 3764
4.207 2.998 1.470 5303
4.203 2.996 1.453 5267
4.207 2.998 1.438 9049
4.210 3.000 1.423 11573
4.213 3.003 1.408 6700
2.813 2.005 0.972 4794
2.815 2.006 0.962 7532
2.817 2.008 0.952 7613
4.155 2.962 1.329 6226
4.165 2.968 1.316 5818
4.167 2.970 1.301 4641
4.164 2.968 1.284 4826
4.179 2.979 1.273 6493
4.182 2.980 1.258 5515
4.172 2.973 1.240 2880
4.244 3.025 1.243 4555
4.240 3.022 1.227 5606
4.236 3.019 1.210 5419
4.245 3.026 1.197 5166
4.248 3.027 1.181 3336
5.135 3.660 1.383 5184
5.138 3.662 1.364 8402
5.141 3.664 1.346 12158
5.138 3.662 1.326 12837
5.147 3.668 1.309 8761
5.150 3.670 1.291 6125
5.152 3.672 1.273 8332
5.161 3.679 1.256 11751
5.164 3.680 1.238 10857
5.160 3.678 1.218 7285
5.169 3.684 1.201 6122
5.172 3.686 1.182 5448
5.180 3.692 1.165 3389
5.654 4.030 1.239 2807
6.230 4.440 1.330 2961
6.239 4.447 1.309 3240
6.242 4.449 1.286 3117
6.200 4.419 1.256 4282
6.209 4.425 1.235 5842
6.218 4.432 1.214 5516
6.201 4.420 1.189 4357
6.114 4.358 1.152 4562
6.116 4.359 1.130 5186
6.119 4.361 1.108 5061
6.115 4.358 1.085 5402
6.117 4.360 1.064 6342
6.119 4.361 1.042 6426
6.121 4.363 1.020 6183
6.130 4.369 0.999 4848
6.100 4.347 0.973 3768
6.095 4.344 0.950 4778
6.097 4.346 0.929 5148
6.163 4.393 0.915 4435
6.146 4.380 0.891 3641
6.147 4.381 0.869 2650
6.130 4.369 0.845 2841
6.119 4.361 0.821 3745
6.512 4.641 0.842 3355
6.507 4.638 0.818 3064
6.200 4.419 0.764 2869
6.510 4.640 0.772 2864
6.512 4.641 0.749 3100
6.513 4.642 0.726 2413
6.508 4.639 0.702 2081
6.503 4.635 0.678 2331
6.504 4.636 0.655 2747
6.518 4.646 0.633 2970
6.513 4.642 0.609 2141
6.714 4.785 0.600 1375
8.672 6.181 0.704 1462
8.673 6.182 0.673 1477
6.704 4.778 0.527 1353
6.705 4.779 0.503 1367
6.712 4.784 0.480 1221
6.719 4.789 0.456 1072
11.571 8.247 0.645 1044
11.579 8.253 0.604 1537
11.580 8.253 0.562 1568
11.581 8.254 0.521 1199
10.003 7.129 0.433 878
11.582 8.255 0.438 912
11.596 8.265 0.397 1042
11.603 8.270 0.356 1084
11.610 8.275 0.315 875
11.617 8.280 0.273 699
11.617 8.280 0.232 515
11.727 8.358 0.191 372
11.727 8.358 0.149 390
11.727 8.358 0.107 324
11.746 8.372 0.065 262
9.542 6.801 -0.603 251
9.546 6.804 -0.638 312
9.551 6.807 -0.672 387
9.549 6.806 -0.706 387
9.540 6.800 -0.740 394
9.538 6.798 -0.774 410
9.536 6.797 -0.808 404
9.534 6.795 -0.842 397
9.531 6.793 -0.876 365
9.529 6.791 -0.910 333
9.526 6.790 -0.944 274
1.869 1.324 1.764 5658
1.873 1.327 1.757 11316
1.877 1.330 1.751 11316
1.886 1.336 1.749 10204
1.895 1.343 1.747 9378
1.888 1.338 1.731 10209
1.887 1.337 1.720 11489
1.890 1.339 1.713 11489
1.899 1.346 1.711 11817
1.908 1.352 1.709 12308
1.912 1.355 1.703 11534
1.953 1.384 1.727 11474
1.962 1.390 1.725 11054
1.972 1.397 1.722 10865
1.975 1.400 1.715 9645
1.979 1.402 1.708 8425
1.977 1.401 1.697 8409
1.981 1.404 1.690 6887
2.044 1.449 1.731 5998
2.043 1.447 1.719 7490
2.036 1.442 1.703 9640
2.039 1.445 1.696 8793
2.043 1.448 1.689 7946
2.036 1.442 1.674 5353
2.100 1.488 1.713 3770
2.103 1.490 1.705 3339
2.113 1.497 1.702 3015
2.122 1.503 1.699 4121
2.131 1.510 1.695 5287
2.124 1.505 1.680 6122
2.122 1.503 1.668 7302
2.126 1.506 1.661 9151
2.135 1.513 1.657 11110
2.144 1.519 1.654 10392
2.153 1.526 1.650 11030
2.151 1.524 1.639 11665
2.160 1.531 1.635 11165
2.169 1.537 1.632 11119
2.167 1.536 1.620 9422
2.165 1.534 1.609 8223
2.169 1.537 1.601 6311
2.246 1.591 1.644 4014
2.266 1.606 1.647 4094
2.315 1.640 1.670 4233
2.324 1.647 1.665 4813
2.453 1.738 1.740 3660
2.457 1.741 1.732 4334
2.466 1.747 1.727 5126
2.487 1.762 1.729 7049
2.502 1.773 1.728 9056
2.517 1.784 1.726 8337
2.527 1.790 1.721 7381
2.525 1.789 1.709 6340
2.529 1.792 1.700 8661
2.532 1.794 1.691 10816
2.536 1.797 1.682 10649
2.540 1.799 1.673 11560
2.549 1.806 1.668 13438
2.553 1.809 1.659 14391
2.562 1.815 1.653 11187
2.618 1.855 1.675 13708
2.622 1.857 1.666 16545
2.631 1.864 1.660 14492
2.617 1.854 1.641 10774
2.615 1.853 1.628 7484
2.654 1.880 1.639 6084
2.651 1.878 1.627 7149
2.643 1.873 1.611 9038
2.652 1.879 1.605 8071
2.662 1.886 1.599 7377
2.659 1.884 1.586 7178
2.657 1.882 1.573 7372
2.654 1.881 1.561 10913
2.664 1.887 1.555 14416
2.667 1.890 1.545 17080
2.670 1.892 1.536 18415
2.674 1.894 1.526 17004
2.683 1.901 1.520 12070
2.680 1.899 1.508 7390
2.689 1.906 1.501 7632
2.699 1.912 1.495 8825
2.708 1.919 1.488 6751
2.717 1.925 1.482 5197
2.696 1.910 1.460 10079
2.705 1.917 1.454 16788
2.715 1.923 1.447 19166
2.718 1.926 1.438 19003
2.721 1.928 1.428 18966
2.724 1.930 1.419 15719
2.733 1.936 1.412 10795
2.730 1.934 1.399 10974
2.733 1.936 1.390 15142
2.736 1.938 1.380 18551
2.739 1.940 1.370 16837
2.748 1.947 1.364 10777
2.757 1.953 1.357 8901
2.772 1.964 1.352 8918
2.769 1.962 1.340 8172
2.777 1.968 1.333 10443
2.780 1.970 1.323 9665
2.783 1.972 1.313 7425
2.786 1.974 1.303 6315
2.801 1.984 1.299 7100
2.816 1.995 1.294 11435
2.819 1.997 1.284 14195
2.821 1.999 1.274 13381
2.824 2.001 1.264 10392
2.827 2.003 1.254 8131
2.823 2.000 1.242 8628
2.826 2.002 1.232 10050
2.828 2.004 1.222 8085
2.837 2.010 1.214 6812
2.840 2.012 1.204 6793
2.848 2.018 1.197 7195
2.851 2.020 1.187 7232
2.866 2.030 1.181 8002
2.874 2.037 1.173 9524
2.877 2.038 1.163 8354
2.879 2.040 1.153 6503
2.894 2.051 1.147 5355
2.903 2.057 1.139 5352
2.905 2.058 1.129 6602
2.901 2.056 1.117 6555
2.903 2.057 1.106 4450
2.906 2.059 1.096 3820
2.927 2.074 1.092 3754
2.948 2.089 1.088 3679
2.912 2.064 1.065 4826
2.915 2.065 1.055 6467
2.917 2.067 1.045 5594
4.215 2.986 1.438 7669
4.218 2.989 1.423 9865
2.829 2.005 0.985 10892
2.825 2.002 0.974 15078
2.827 2.003 0.964 16661
2.829 2.004 0.954 13872
2.831 2.006 0.944 10467
2.833 2.007 0.934 8076
4.169 2.954 1.299 5513
4.172 2.956 1.284 6266
4.187 2.967 1.273 7843
4.190 2.969 1.258 6424
4.180 2.962 1.240 3161
4.252 3.013 1.243 4785
4.248 3.010 1.227 6274
4.251 3.012 1.212 7090
4.247 3.009 1.195 6955
4.250 3.011 1.180 4572
5.146 3.646 1.383 4151
5.148 3.648 1.364 6798
5.151 3.650 1.346 9317
5.154 3.652 1.328 9243
5.157 3.654 1.309 6080
5.166 3.660 1.293 3663
5.169 3.662 1.274 4398
5.172 3.664 1.256 6383
5.174 3.666 1.238 6618
5.177 3.668 1.219 5559
5.179 3.670 1.201 5505
5.182 3.671 1.182 5158
5.191 3.678 1.165 3349
5.659 4.009 1.238 2921
5.189 3.677 1.127 3047
6.251 4.429 1.309 2840
6.133 4.345 1.264 2750
6.212 4.401 1.256 3868
6.221 4.408 1.235 5244
6.224 4.410 1.213 4734
6.130 4.343 1.174 4590
6.126 4.341 1.152 5229
6.129 4.342 1.130 6018
6.131 4.344 1.108 5910
6.127 4.341 1.085 6592
6.129 4.343 1.064 7353
6.131 4.344 1.042 6736
6.133 4.346 1.020 6150
6.142 4.352 0.999 4786
6.105 4.326 0.972 4597
6.107 4.327 0.950 5710
6.103 4.324 0.928 5887
6.098 4.321 0.905 4939
6.094 4.317 0.883 3273
6.115 4.332 0.863 2515
6.123 4.338 0.842 3272
6.124 4.339 0.821 4614
6.120 4.336 0.798 4038
6.520 4.620 0.818 2919
6.206 4.397 0.763 3375
6.523 4.622 0.772 3009
6.525 4.623 0.749 3335
6.520 4.619 0.725 2765
6.515 4.616 0.701 2571
6.509 4.612 0.678 2880
6.517 4.618 0.655 3291
6.525 4.623 0.632 3515
6.526 4.624 0.609 2537
6.721 4.762 0.599 1473
6.715 4.758 0.575 1585
6.710 4.754 0.551 1746
6.717 4.759 0.527 1882
6.718 4.760 0.503 1771
6.725 4.765 0.480 1557
6.726 4.766 0.456 1249
6.843 4.848 0.437 953
11.602 8.220 0.604 1305
11.603 8.221 0.562 1406
11.604 8.222 0.521 1187
11.605 8.222 0.480 867
11.606 8.223 0.438 991
11.619 8.232 0.397 1073
11.626 8.237 0.356 1110
11.633 8.242 0.315 908
11.646 8.252 0.273 751
11.640 8.247 0.232 550
11.750 8.325 0.191 393
11.744 8.321 0.149 379
11.744 8.321 0.107 258
9.565 6.777 -0.638 284
9.570 6.780 -0.672 354
9.568 6.779 -0.706 354
9.559 6.773 -0.740 370
9.557 6.771 -0.774 389
9.555 6.770 -0.808 372
9.553 6.768 -0.842 355
9.550 6.767 -0.876 328
9.548 6.765 -0.910 301
9.545 6.763 -0.944 254
1.875 1.316 1.764 5523
1.879 1.318 1.757 11046
1.883 1.321 1.751 11046
1.892 1.327 1.749 9702
1.901 1.334 1.747 8815
1.894 1.329 1.731 9807
1.893 1.328 1.720 11449
1.897 1.331 1.713 11449
1.906 1.337 1.711 11972
1.915 1.343 1.709 12692
1.918 1.346 1.703 11406
1.917 1.345 1.691 10207
1.969 1.381 1.725 9850
1.978 1.388 1.722 9858
1.987 1.394 1.720 8458
2.002 1.404 1.721 7426
2.006 1.407 1.714 7419
2.036 1.429 1.729 6457
2.051 1.439 1.731 6894
2.049 1.438 1.719 8414
2.048 1.437 1.708 10331
2.046 1.436 1.696 9063
2.050 1.438 1.689 7877
2.042 1.433 1.674 5164
2.112 1.482 1.717 3359
2.033 1.427 1.647 2935
2.042 1.433 1.644 2590
2.134 1.498 1.703 3647
2.138 1.500 1.695 4768
2.136 1.499 1.684 5743
2.129 1.494 1.668 6977
2.138 1.500 1.665 8540
2.142 1.503 1.657 10159
2.151 1.509 1.654 9085
2.166 1.519 1.654 9049
2.158 1.514 1.639 9585
2.167 1.521 1.635 9519
2.176 1.527 1.632 10060
2.225 1.561 1.655 8832
2.234 1.568 1.651 8130
2.238 1.570 1.644 7263
2.247 1.577 1.640 4633
2.273 1.595 1.647 4189
2.322 1.629 1.670 3971
2.332 1.636 1.665 4536
2.461 1.727 1.740 3354
2.470 1.733 1.735 4393
2.474 1.736 1.727 5412
2.495 1.751 1.729 7918
2.510 1.761 1.728 10162
2.526 1.772 1.726 9125
2.529 1.775 1.718 7251
2.533 1.777 1.709 5723
2.537 1.780 1.700 8188
2.541 1.783 1.691 10273
2.544 1.785 1.682 9893
2.548 1.788 1.673 10229
2.557 1.794 1.668 11718
2.561 1.797 1.659 13032
2.570 1.803 1.653 10113
2.632 1.847 1.679 12316
2.636 1.849 1.670 14341
2.640 1.852 1.660 12709
2.608 1.830 1.631 11273
2.612 1.832 1.622 10918
2.615 1.835 1.612 10691
2.613 1.833 1.600 9741
2.610 1.832 1.587 7703
2.643 1.855 1.595 5742
2.653 1.861 1.589 6592
2.656 1.864 1.579 7880
2.660 1.866 1.570 9179
2.663 1.868 1.561 12994
2.672 1.875 1.555 16227
2.676 1.877 1.545 18801
2.679 1.880 1.536 20253
2.682 1.882 1.526 19416
2.686 1.884 1.517 14114
2.683 1.882 1.505 8132
2.686 1.885 1.495 7510
2.696 1.891 1.489 7092
2.711 1.902 1.485 4729
2.702 1.896 1.470 5410
2.699 1.894 1.457 12006
2.714 1.904 1.454 16610
2.723 1.911 1.447 17681
2.727 1.913 1.438 17282
2.730 1.915 1.428 17239
2.733 1.917 1.419 14165
2.736 1.919 1.409 9380
2.739 1.922 1.399 10044
2.742 1.924 1.390 14949
2.745 1.926 1.380 19262
2.748 1.928 1.370 17148
2.751 1.930 1.361 11080
2.741 1.923 1.346 9739
2.750 1.930 1.339 8047
2.759 1.936 1.332 7433
2.774 1.947 1.327 10941
2.777 1.948 1.318 10141
2.774 1.946 1.305 5823
2.789 1.957 1.301 3423
2.810 1.972 1.299 4961
2.825 1.982 1.294 8282
2.828 1.984 1.284 10555
2.830 1.986 1.274 11254
2.827 1.984 1.262 8146
2.830 1.985 1.252 4986
2.832 1.987 1.242 6476
2.829 1.985 1.229 8863
2.838 1.991 1.222 8222
2.846 1.997 1.214 8258
2.849 1.999 1.204 8471
2.851 2.001 1.194 8747
2.854 2.002 1.184 9338
2.863 2.008 1.177 9876
2.878 2.019 1.171 10118
2.886 2.025 1.163 8324
2.889 2.027 1.153 5920
2.885 2.024 1.141 4292
2.906 2.039 1.137 4207
2.908 2.040 1.127 5909
2.904 2.038 1.114 6763
2.913 2.044 1.106 5166
2.915 2.045 1.096 4818
2.930 2.056 1.090 4713
2.945 2.066 1.084 4277
2.922 2.050 1.065 5502
2.924 2.052 1.055 7599
2.926 2.053 1.045 6720
2.929 2.055 1.035 6451
4.232 2.969 1.423 7178
2.832 1.987 0.984 6548
2.834 1.988 0.974 11153
2.836 1.990 0.964 13668
2.838 1.991 0.954 10592
2.840 1.993 0.944 7497
2.836 1.989 0.932 6906
4.183 2.935 1.299 5759
4.192 2.941 1.286 6831
4.201 2.948 1.273 7927
4.210 2.954 1.260 6307
4.263 2.991 1.258 3304
4.272 2.998 1.245 4396
4.262 2.991 1.227 6066
4.259 2.988 1.210 7993
4.261 2.990 1.195 7922
4.264 2.991 1.180 5337
5.162 3.622 1.383 2676
5.165 3.624 1.364 4604
5.168 3.626 1.346 6348
5.171 3.628 1.328 6318
5.180 3.635 1.311 4888
5.183 3.636 1.293 4435
5.186 3.638 1.274 4765
5.188 3.640 1.256 4826
5.191 3.642 1.238 4915
5.194 3.644 1.219 4996
5.203 3.650 1.202 5484
5.199 3.648 1.182 5317
5.208 3.654 1.165 3498
5.677 3.983 1.238 2832
5.686 3.990 1.219 3018
5.567 3.906 1.176 2966
6.153 4.317 1.264 3022
6.232 4.373 1.256 3108
6.235 4.375 1.234 4234
6.244 4.381 1.213 3782
6.144 4.311 1.173 5119
6.146 4.312 1.152 5634
6.149 4.314 1.130 7051
6.144 4.311 1.107 7292
6.147 4.313 1.085 6762
6.149 4.314 1.064 7634
6.145 4.311 1.041 7153
6.140 4.308 1.018 6345
6.123 4.296 0.994 4589
6.112 4.289 0.970 4539
6.127 4.299 0.950 5089
6.123 4.296 0.928 5659
6.112 4.288 0.904 5782
6.113 4.289 0.883 4176
6.122 4.295 0.862 3013
6.136 4.305 0.842 3701
6.138 4.306 0.820 5293
6.133 4.303 0.798 4685
6.128 4.300 0.775 3238
6.226 4.369 0.763 3710
6.538 4.587 0.771 2953
6.540 4.588 0.748 3346
6.541 4.589 0.725 2970
6.529 4.581 0.701 2955
6.524 4.578 0.677 3324
6.532 4.583 0.654 3691
6.546 4.593 0.632 3882
6.547 4.594 0.609 2801
6.555 4.599 0.586 1428
6.737 4.727 0.575 1558
6.738 4.728 0.551 1847
6.739 4.728 0.527 1887
6.740 4.729 0.503 1708
6.741 4.729 0.479 1489
6.748 4.735 0.456 1217
6.742 4.731 0.432 928
6.711 4.708 0.406 1126
11.647 8.172 0.563 1209
11.661 8.182 0.522 1090
11.662 8.182 0.480 833
11.643 8.169 0.438 847
11.657 8.179 0.397 839
11.670 8.188 0.356 943
11.677 8.193 0.315 852
11.684 8.198 0.273 786
11.685 8.198 0.232 576
11.678 8.194 0.190 381
11.782 8.266 0.149 289
7.226 5.070 0.120 260
9.602 6.737 -0.536 279
9.593 6.731 -0.569 332
9.592 6.730 -0.603 387
9.590 6.728 -0.637 418
9.594 6.732 -0.672 459
9.592 6.730 -0.706 459
9.590 6.729 -0.740 501
9.588 6.727 -0.774 544
9.586 6.726 -0.808 573
9.584 6.724 -0.842 602
9.581 6.722 -0.876 527
9.579 6.721 -0.910 452
9.576 6.719 -0.944 358
9.567 6.713 -0.977 266
9.564 6.711 -1.011 266
1.879 1.310 1.764 5284
1.883 1.312 1.757 10569
1.887 1.315 1.751 10569
1.901 1.325 1.754 9185
1.905 1.328 1.747 8251
1.899 1.323 1.731 9174
1.897 1.322 1.720 11014
1.901 1.325 1.713 11014
1.910 1.331 1.711 11708
1.919 1.337 1.709 12624
1.917 1.336 1.698 11193
1.921 1.339 1.691 9853
1.973 1.375 1.725 8551
1.982 1.381 1.722 8672
2.002 1.395 1.728 7379
2.017 1.406 1.730 7300
2.026 1.412 1.727 7658
2.041 1.422 1.729 7315
2.056 1.433 1.731 7813
2.054 1.431 1.719 9400
2.052 1.430 1.708 11252
2.056 1.433 1.701 9520
2.054 1.432 1.689 7789
2.053 1.430 1.678 4983
2.034 1.418 1.654 3120
2.126 1.482 1.714 2931
2.135 1.488 1.710 2832
2.139 1.491 1.703 3637
2.143 1.493 1.695 4441
2.147 1.496 1.688 5554
2.150 1.498 1.680 6667
2.143 1.493 1.665 7849
2.146 1.496 1.657 9084
2.150 1.498 1.650 7556
2.171 1.513 1.654 6762
2.163 1.507 1.639 7170
2.178 1.518 1.639 7529
2.221 1.548 1.659 9810
2.230 1.554 1.655 9160
2.239 1.560 1.651 8641
2.243 1.563 1.644 7809
2.252 1.569 1.640 4953
2.279 1.588 1.647 4091
2.407 1.678 1.723 3967
2.337 1.629 1.665 4081
2.472 1.723 1.744 3526
2.476 1.725 1.735 4987
2.485 1.732 1.731 6223
2.501 1.743 1.729 9159
2.516 1.753 1.728 11451
2.531 1.764 1.726 9793
2.541 1.771 1.721 7086
2.539 1.769 1.709 5122
2.543 1.772 1.700 7427
2.546 1.774 1.691 9389
2.550 1.777 1.682 9047
2.554 1.780 1.673 8711
2.563 1.786 1.668 9593
2.567 1.789 1.659 10973
2.652 1.848 1.699 9655
2.650 1.847 1.686 12355
2.648 1.845 1.673 13730
2.651 1.848 1.664 12373
2.608 1.818 1.627 13082
2.612 1.820 1.618 14621
2.621 1.827 1.612 16408
2.619 1.825 1.600 14666
2.622 1.827 1.591 10053
2.638 1.838 1.588 6488
2.653 1.849 1.585 7855
2.662 1.855 1.579 8925
2.666 1.858 1.570 10419
2.669 1.860 1.561 14156
2.678 1.866 1.555 16367
2.682 1.869 1.545 18433
2.685 1.871 1.536 19844
2.688 1.873 1.526 19868
2.686 1.872 1.514 15707
2.683 1.870 1.501 10691
2.686 1.872 1.492 9967
2.690 1.874 1.483 8290
2.693 1.876 1.473 4864
2.696 1.879 1.464 7620
2.705 1.885 1.457 14691
2.714 1.891 1.451 16184
2.723 1.898 1.444 15394
2.733 1.904 1.438 14947
2.730 1.902 1.425 14925
2.739 1.909 1.419 11748
2.742 1.911 1.409 7285
2.745 1.913 1.399 8063
2.748 1.915 1.390 13767
2.745 1.913 1.377 19004
2.754 1.919 1.370 16296
2.751 1.917 1.358 11369
2.747 1.915 1.346 12468
2.750 1.917 1.336 11040
2.759 1.923 1.329 9549
2.768 1.929 1.322 12341
2.777 1.935 1.315 12605
2.774 1.933 1.303 7784
2.771 1.931 1.290 3129
2.822 1.967 1.301 2516
2.831 1.973 1.294 4914
2.834 1.975 1.284 7427
2.825 1.968 1.269 10360
2.821 1.966 1.257 9186
2.830 1.972 1.249 4448
2.839 1.978 1.242 4858
2.835 1.976 1.229 7905
2.844 1.982 1.222 7837
2.847 1.984 1.212 8478
2.855 1.990 1.204 8949
2.858 1.991 1.194 10052
2.860 1.993 1.184 11798
2.863 1.995 1.174 12586
2.878 2.005 1.169 11494
2.886 2.011 1.161 8307
2.889 2.013 1.151 5888
2.885 2.010 1.138 4781
2.900 2.021 1.133 4544
2.909 2.027 1.125 5696
2.911 2.028 1.114 6211
2.913 2.030 1.104 5136
2.915 2.032 1.094 5378
2.930 2.042 1.088 5792
2.933 2.044 1.078 5845
2.929 2.041 1.065 5281
2.931 2.042 1.055 6327
2.927 2.039 1.043 6141
2.941 2.050 1.037 4785
2.843 1.981 0.995 6806
2.845 1.982 0.985 9836
2.840 1.979 0.974 11900
2.842 1.981 0.964 8575
4.184 2.915 1.343 4730
3.801 2.649 1.218 4809
3.804 2.651 1.204 4161
4.199 2.926 1.301 5053
4.201 2.928 1.286 6054
4.210 2.934 1.273 6641
4.226 2.945 1.262 5411
4.260 2.969 1.255 3565
4.282 2.984 1.245 3424
4.272 2.977 1.227 5119
4.268 2.974 1.210 7929
4.271 2.976 1.195 7656
4.273 2.978 1.180 5229
4.269 2.975 1.163 2738
5.177 3.607 1.364 2620
5.180 3.609 1.346 3899
5.189 3.616 1.329 4379
5.192 3.618 1.311 4799
5.195 3.620 1.293 5972
5.197 3.622 1.274 7091
5.200 3.624 1.256 7418
5.203 3.625 1.238 6663
5.212 3.632 1.221 5912
5.214 3.634 1.202 6260
5.210 3.631 1.182 5972
5.219 3.637 1.165 3983
5.568 3.880 1.214 2712
5.577 3.886 1.196 3460
5.580 3.888 1.176 3656
6.166 4.297 1.264 2922
5.559 3.874 1.132 2946
6.249 4.355 1.234 3044
6.161 4.294 1.196 3207
6.151 4.286 1.172 4995
6.153 4.288 1.151 5390
6.149 4.285 1.128 6167
6.152 4.287 1.106 7953
6.154 4.288 1.084 7667
6.163 4.295 1.064 6107
6.159 4.292 1.041 5210
6.154 4.289 1.018 5575
6.124 4.268 0.992 4979
6.132 4.273 0.971 5263
6.147 4.284 0.951 6111
6.136 4.276 0.928 6261
6.125 4.268 0.904 6621
6.121 4.265 0.882 4782
6.135 4.275 0.862 3301
6.143 4.281 0.841 3998
6.145 4.282 0.819 5659
6.140 4.279 0.797 5042
6.135 4.275 0.774 3632
6.240 4.349 0.763 3816
6.242 4.350 0.741 3088
6.554 4.567 0.748 3193
6.556 4.568 0.725 3025
6.544 4.560 0.701 3177
6.539 4.557 0.677 3564
6.547 4.562 0.654 3829
6.554 4.567 0.632 3930
6.562 4.573 0.609 2829
6.569 4.578 0.586 1430
6.752 4.705 0.575 1261
6.753 4.706 0.551 1597
6.754 4.707 0.527 1681
6.749 4.703 0.503 1673
6.762 4.712 0.480 1570
6.776 4.722 0.456 1242
6.861 4.781 0.436 1026
6.855 4.777 0.412 987
11.673 8.135 0.563 938
11.687 8.144 0.522 1013
11.688 8.145 0.480 840
11.689 8.145 0.439 678
11.703 8.155 0.398 672
11.710 8.160 0.356 898
11.710 8.160 0.315 886
11.710 8.160 0.273 875
11.711 8.161 0.232 624
7.145 4.979 0.170 410
7.125 4.965 0.145 366
7.125 4.965 0.120 338
7.125 4.965 0.095 278
9.615 6.700 -0.569 261
9.613 6.699 -0.603 337
9.618 6.702 -0.638 398
9.622 6.705 -0.672 474
9.620 6.704 -0.706 474
9.612 6.698 -0.740 446
9.610 6.697 -0.774 423
9.607 6.695 -0.808 410
9.599 6.689 -0.841 399
9.603 6.692 -0.876 397
9.607 6.695 -0.911 400
9.598 6.688 -0.944 326
9.595 6.686 -0.978 256
9.592 6.684 -1.012 256
1.888 1.308 1.769 4958
1.892 1.310 1.762 9916
1.896 1.313 1.756 9916
1.905 1.319 1.754 8731
1.914 1.326 1.752 7926
1.902 1.317 1.731 8465
1.901 1.316 1.720 10235
1.905 1.319 1.713 10235
1.914 1.325 1.711 11058
1.923 1.332 1.709 12114
1.921 1.331 1.698 10813
1.925 1.333 1.691 9531
1.929 1.336 1.685 7712
1.981 1.372 1.718 7412
2.012 1.393 1.733 6896
2.027 1.404 1.735 7428
2.036 1.410 1.732 7944
2.045 1.416 1.729 7923
2.060 1.427 1.731 8449
2.058 1.425 1.719 10122
2.056 1.424 1.708 11945
2.060 1.427 1.701 9813
2.064 1.429 1.693 7680
2.062 1.428 1.682 4974
2.127 1.473 1.721 2808
2.130 1.475 1.714 3072
2.134 1.478 1.706 3336
2.149 1.488 1.707 3818
2.097 1.452 1.658 4397
2.157 1.493 1.692 5557
2.160 1.496 1.685 6760
2.147 1.487 1.665 7169
2.145 1.486 1.653 8100
2.154 1.492 1.650 6161
2.175 1.506 1.654 4600
2.167 1.501 1.639 4817
2.227 1.542 1.671 7135
2.231 1.545 1.663 9491
2.235 1.548 1.655 9011
2.244 1.554 1.651 8630
2.247 1.556 1.644 7868
2.257 1.563 1.640 5009
2.408 1.668 1.732 3960
2.412 1.671 1.723 5185
2.416 1.673 1.715 4902
2.437 1.688 1.718 4357
2.481 1.718 1.735 6043
2.490 1.725 1.731 7386
2.506 1.735 1.729 10423
2.515 1.742 1.724 12591
2.531 1.753 1.723 10060
2.546 1.763 1.721 6753
2.544 1.762 1.709 4489
2.548 1.764 1.700 6428
2.551 1.767 1.691 8241
2.555 1.770 1.682 8117
2.559 1.772 1.673 7188
2.568 1.779 1.668 7453
2.654 1.838 1.708 9774
2.657 1.840 1.699 11308
2.655 1.839 1.686 13657
2.659 1.841 1.677 14544
2.657 1.840 1.664 13773
2.619 1.814 1.631 15148
2.623 1.816 1.622 17675
2.626 1.819 1.612 20701
2.630 1.821 1.603 18929
2.633 1.824 1.594 12444
2.643 1.830 1.588 7700
2.658 1.841 1.585 8352
2.668 1.847 1.579 8662
2.665 1.846 1.567 10239
2.668 1.848 1.558 14165
2.678 1.855 1.551 15648
2.687 1.861 1.545 16339
2.691 1.863 1.536 17349
2.688 1.861 1.523 18474
2.691 1.864 1.514 16942
2.683 1.858 1.498 14240
2.686 1.860 1.489 13460
2.689 1.862 1.480 10855
2.692 1.864 1.470 6979
2.701 1.871 1.464 10160
2.705 1.873 1.454 17848
2.714 1.879 1.448 17242
2.723 1.886 1.441 14039
2.726 1.888 1.432 13279
2.729 1.890 1.422 12828
2.738 1.896 1.416 9192
2.753 1.907 1.412 4960
2.750 1.905 1.399 6133
2.747 1.903 1.387 12941
2.750 1.905 1.377 18765
2.753 1.907 1.368 15890
2.756 1.909 1.358 12474
2.753 1.907 1.346 14642
2.750 1.904 1.333 13944
2.759 1.911 1.326 12206
2.774 1.921 1.322 13930
2.777 1.923 1.312 14550
2.786 1.929 1.305 10084
2.795 1.935 1.298 4480
2.779 1.924 1.281 2809
2.831 1.961 1.291 2501
2.834 1.962 1.281 5196
2.824 1.956 1.267 10297
2.827 1.958 1.257 11611
2.829 1.959 1.247 6970
2.832 1.961 1.237 5174
2.841 1.967 1.229 7375
2.843 1.969 1.219 7612
2.852 1.975 1.212 7964
2.855 1.977 1.202 8331
2.864 1.983 1.194 10578
2.866 1.985 1.184 13853
2.869 1.987 1.174 15092
2.877 1.993 1.166 13244
2.886 1.999 1.159 8593
2.888 2.000 1.149 6358
2.885 1.998 1.136 5797
2.900 2.008 1.131 5840
2.908 2.014 1.123 6837
2.910 2.016 1.112 5962
2.919 2.022 1.104 4907
2.915 2.019 1.092 5405
2.924 2.025 1.084 6725
2.932 2.031 1.076 8384
2.934 2.032 1.065 6669
2.937 2.034 1.055 5890
2.939 2.035 1.045 5868
2.954 2.046 1.038 3373
2.962 2.051 1.030 2693
2.863 1.983 0.989 4957
2.859 1.980 0.977 5711
2.855 1.977 0.965 6164
2.856 1.978 0.956 6048
3.809 2.638 1.218 4977
3.811 2.639 1.204 4378
4.207 2.914 1.301 3660
4.210 2.915 1.286 4283
4.225 2.926 1.275 4610
4.247 2.941 1.265 4252
4.262 2.952 1.253 3467
3.915 2.711 1.147 3307
4.280 2.964 1.227 4110
4.277 2.962 1.210 6922
4.273 2.959 1.193 6439
4.282 2.965 1.180 4447
4.284 2.967 1.165 2553
4.517 3.128 1.205 2704
4.519 3.130 1.189 3220
4.522 3.131 1.173 3798
5.202 3.603 1.311 4439
5.205 3.605 1.293 6340
5.208 3.607 1.274 8083
5.211 3.608 1.256 9101
5.213 3.610 1.238 8292
5.216 3.612 1.219 6975
5.225 3.618 1.202 7263
5.227 3.620 1.184 6976
5.230 3.622 1.165 4975
5.573 3.859 1.213 2940
5.588 3.870 1.196 3632
5.591 3.872 1.176 4042
5.593 3.874 1.157 3102
5.563 3.853 1.131 3743
5.559 3.850 1.110 3694
6.167 4.271 1.195 2837
6.163 4.268 1.172 4352
6.166 4.270 1.151 4491
6.162 4.267 1.128 5946
6.158 4.265 1.105 7012
6.167 4.271 1.084 5172
6.175 4.277 1.064 5217
6.158 4.265 1.039 6151
6.141 4.253 1.014 7632
6.130 4.245 0.991 6823
6.132 4.247 0.969 5391
6.153 4.261 0.950 4799
6.142 4.254 0.927 5911
6.131 4.246 0.904 7224
6.133 4.247 0.882 5143
6.141 4.253 0.861 3280
6.149 4.259 0.840 4016
6.151 4.260 0.819 5704
6.146 4.257 0.796 5162
6.148 4.258 0.774 3859
6.149 4.259 0.753 3818
6.157 4.264 0.732 3164
6.567 4.548 0.748 2822
6.562 4.545 0.724 2911
6.557 4.541 0.701 3206
6.546 4.533 0.677 3604
6.553 4.538 0.654 3634
6.568 4.548 0.632 3570
6.569 4.549 0.609 2560
6.583 4.559 0.586 1265
6.759 4.681 0.574 912
6.767 4.686 0.551 1326
6.761 4.682 0.527 1462
6.762 4.683 0.503 1564
6.789 4.702 0.480 1739
6.796 4.707 0.457 1607
6.810 4.716 0.433 1053
6.726 4.658 0.406 1172
6.740 4.668 0.383 1077
6.740 4.668 0.359 997
11.718 8.115 0.480 816
11.719 8.116 0.439 643
11.733 8.125 0.398 628
11.733 8.126 0.356 801
11.734 8.126 0.315 814
11.734 8.126 0.273 827
11.734 8.127 0.232 627
7.114 4.927 0.170 588
7.140 4.945 0.145 466
7.146 4.949 0.120 402
7.140 4.945 0.095 275
9.628 6.668 -0.569 255
9.626 6.666 -0.603 298
9.631 6.670 -0.637 344
9.635 6.673 -0.672 411
9.633 6.671 -0.706 411
9.631 6.670 -0.740 474
9.629 6.669 -0.774 536
9.627 6.667 -0.808 545
9.625 6.665 -0.842 555
9.622 6.664 -0.876 461
9.620 6.662 -0.910 367
9.617 6.660 -0.944 310
9.615 6.658 -0.978 253
9.612 6.657 -1.012 253
1.892 1.302 1.769 4621
1.896 1.304 1.762 9242
1.900 1.307 1.756 9242
1.909 1.313 1.754 8332
1.919 1.320 1.752 7783
1.917 1.319 1.740 7717
1.905 1.310 1.720 8907
1.909 1.313 1.713 8907
1.913 1.316 1.707 9853
1.922 1.322 1.705 11017
1.926 1.324 1.698 9965
1.924 1.323 1.687 8916
1.933 1.330 1.685 7001
2.013 1.384 1.740 6206
2.022 1.391 1.737 6591
2.037 1.401 1.739 7518
2.040 1.403 1.732 8178
2.044 1.406 1.725 8369
2.059 1.416 1.726 8917
2.057 1.415 1.715 10653
2.061 1.418 1.708 12469
2.065 1.420 1.701 10055
2.074 1.427 1.698 7683
2.072 1.425 1.686 5161
2.109 1.451 1.704 2845
2.113 1.453 1.697 3245
2.133 1.467 1.702 3841
2.154 1.481 1.707 4244
2.163 1.488 1.704 4830
2.167 1.490 1.696 5922
2.171 1.493 1.689 7014
2.158 1.484 1.669 6344
2.150 1.479 1.653 6866
2.148 1.477 1.642 4892
2.230 1.534 1.690 3014
2.234 1.537 1.683 3839
2.232 1.535 1.671 6411
2.236 1.538 1.663 8653
2.240 1.540 1.655 8289
2.249 1.547 1.651 8017
2.252 1.549 1.644 7380
2.262 1.556 1.640 4769
2.414 1.660 1.732 4896
2.418 1.663 1.723 6385
2.421 1.665 1.715 6147
2.437 1.676 1.714 5544
2.486 1.710 1.735 7429
2.496 1.717 1.731 8721
2.505 1.723 1.726 11386
2.521 1.734 1.724 13168
2.530 1.740 1.719 10041
2.563 1.763 1.729 6431
2.567 1.766 1.720 4444
2.553 1.756 1.700 5369
2.551 1.755 1.687 6950
2.555 1.757 1.678 7118
2.559 1.760 1.670 5652
2.656 1.827 1.717 7758
2.654 1.825 1.704 10999
2.657 1.828 1.695 12809
2.661 1.830 1.686 15024
2.665 1.833 1.677 15429
2.651 1.823 1.657 15712
2.631 1.810 1.634 16775
2.629 1.808 1.622 19771
2.632 1.810 1.612 23740
2.636 1.813 1.603 22061
2.639 1.815 1.594 14635
2.655 1.826 1.591 8313
2.664 1.832 1.585 7936
2.668 1.835 1.576 7893
2.671 1.837 1.567 9154
2.674 1.839 1.558 13025
2.678 1.842 1.548 14167
2.687 1.848 1.542 12970
2.685 1.846 1.530 12917
2.688 1.849 1.520 15544
2.691 1.851 1.511 17253
2.688 1.849 1.498 17101
2.692 1.851 1.489 17323
2.695 1.854 1.480 14038
2.698 1.856 1.470 9011
2.701 1.858 1.461 12299
2.705 1.860 1.451 20980
2.714 1.867 1.445 20578
2.717 1.869 1.435 16126
2.720 1.871 1.426 14058
2.723 1.873 1.417 13417
2.720 1.871 1.404 10318
2.723 1.873 1.395 6749
2.738 1.883 1.391 7017
2.747 1.890 1.384 13029
2.756 1.896 1.377 18872
2.759 1.898 1.368 17182
2.762 1.900 1.358 14490
2.759 1.898 1.346 15777
2.762 1.900 1.336 15283
2.765 1.902 1.326 13737
2.780 1.912 1.322 15141
2.783 1.914 1.312 16071
2.792 1.920 1.305 11881
2.801 1.926 1.298 6395
2.804 1.928 1.288 4719
2.812 1.934 1.281 3854
2.821 1.941 1.274 4696
2.824 1.942 1.264 9871
2.833 1.949 1.257 12750
2.836 1.950 1.247 9612
2.832 1.948 1.234 6207
2.841 1.954 1.227 6778
2.850 1.960 1.219 7265
2.859 1.966 1.212 6855
2.861 1.968 1.202 6543
2.864 1.970 1.192 9919
2.872 1.976 1.184 14533
2.881 1.982 1.177 16218
2.884 1.983 1.166 14029
2.892 1.989 1.159 8493
2.889 1.987 1.146 6445
2.891 1.988 1.136 6628
2.906 1.999 1.131 6781
2.915 2.005 1.123 7975
2.923 2.011 1.114 6089
2.932 2.017 1.106 4919
2.922 2.009 1.092 4954
2.930 2.015 1.084 7419
2.932 2.017 1.074 11086
2.941 2.023 1.065 10075
2.949 2.029 1.057 8004
2.945 2.026 1.045 6257
2.929 2.014 1.029 4674
2.861 1.968 0.997 4107
2.863 1.969 0.987 4512
2.878 1.979 0.981 6847
2.874 1.976 0.969 7649
2.869 1.973 0.957 5850
3.811 2.621 1.216 4468
3.813 2.623 1.203 3910
3.727 2.563 1.165 3544
3.742 2.574 1.155 3294
4.241 2.917 1.276 2555
3.823 2.630 1.149 3771
3.928 2.702 1.163 3255
3.924 2.699 1.147 3523
3.926 2.700 1.133 3257
4.286 2.948 1.210 4973
4.289 2.950 1.195 4441
4.291 2.952 1.180 3205
4.530 3.116 1.222 2291
4.520 3.109 1.203 2928
4.529 3.115 1.189 3336
4.532 3.117 1.173 3651
4.541 3.123 1.158 4045
5.217 3.588 1.293 5506
5.219 3.590 1.274 7529
5.222 3.592 1.256 9211
5.225 3.594 1.238 8638
5.227 3.595 1.219 7037
5.236 3.602 1.202 7605
5.239 3.603 1.184 7853
5.241 3.605 1.165 6253
5.244 3.607 1.147 4222
5.594 3.848 1.195 3515
5.597 3.850 1.175 4015
5.573 3.833 1.151 3353
5.569 3.831 1.130 4723
5.565 3.828 1.109 5233
5.561 3.825 1.088 3981
5.647 3.884 1.083 2945
6.186 4.255 1.152 3179
6.182 4.252 1.129 4346
6.171 4.245 1.105 4746
6.167 4.242 1.082 4742
6.176 4.248 1.062 4977
6.159 4.236 1.037 5362
6.148 4.229 1.013 7226
6.143 4.226 0.991 7191
6.146 4.227 0.969 5732
6.154 4.233 0.949 4037
6.149 4.230 0.926 5446
6.145 4.226 0.904 7239
6.140 4.223 0.881 5093
6.155 4.233 0.861 2988
6.163 4.239 0.840 3678
6.165 4.240 0.819 5299
6.160 4.237 0.796 4946
6.155 4.233 0.774 3875
6.156 4.234 0.752 3882
6.158 4.235 0.730 3089
6.445 4.433 0.735 2322
6.447 4.434 0.713 2712
6.448 4.435 0.690 3103
6.554 4.508 0.676 3423
6.555 4.509 0.653 3246
6.582 4.527 0.632 2865
6.583 4.528 0.609 2091
6.552 4.506 0.583 1071
6.605 4.543 0.564 992
6.547 4.503 0.537 1181
6.548 4.504 0.514 1050
6.797 4.675 0.504 1269
6.804 4.680 0.480 1535
6.811 4.685 0.457 1409
6.734 4.632 0.429 1065
6.735 4.632 0.406 1139
6.761 4.650 0.383 1070
6.768 4.655 0.359 1107
6.769 4.656 0.335 889
11.751 8.083 0.439 670
11.765 8.092 0.398 673
11.766 8.093 0.356 745
11.760 8.089 0.315 708
11.760 8.089 0.273 684
7.116 4.895 0.195 664
7.116 4.895 0.170 694
7.116 4.895 0.145 525
7.097 4.881 0.120 366
7.123 4.899 0.095 338
7.129 4.904 0.070 334
7.129 4.903 0.045 267
9.657 6.642 -0.535 273
9.649 6.637 -0.569 333
9.647 6.636 -0.603 393
9.652 6.639 -0.637 466
9.657 6.642 -0.672 566
9.655 6.641 -0.706 566
9.653 6.639 -0.740 626
9.650 6.638 -0.774 686
9.648 6.636 -0.808 689
9.646 6.635 -0.842 692
9.643 6.633 -0.876 584
9.641 6.631 -0.910 477
9.638 6.629 -0.944 388
9.629 6.623 -0.977 300
9.627 6.621 -1.011 300
9.630 6.624 -1.046 250
1.898 1.293 1.769 4324
1.902 1.296 1.762 8648
1.906 1.298 1.756 8648
1.915 1.305 1.754 8031
1.925 1.311 1.752 7726
1.929 1.314 1.745 7013
1.911 1.302 1.720 7167
1.915 1.304 1.713 7167
1.919 1.307 1.707 8227
1.928 1.313 1.705 9350
1.932 1.316 1.698 8722
1.935 1.318 1.691 8094
1.939 1.321 1.685 6249
