1.036 9.622 0.427 2093
1.036 9.623 0.399 1641
1.064 9.884 0.377 1375
1.064 9.884 0.348 1296
1.027 9.539 0.313 1585
1.026 9.531 0.285 1845
1.025 9.524 0.257 1832
1.024 9.516 0.229 1651
1.024 9.516 0.201 1659
1.024 9.516 0.173 1668
1.015 9.430 0.146 1477
1.014 9.422 0.118 1670
1.014 9.422 0.091 1453
1.013 9.414 0.063 994
0.130 1.204 0.127 939
0.130 1.204 0.123 1168
0.130 1.204 0.120 1291
0.130 1.204 0.117 1378
0.130 1.204 0.113 1471
0.130 1.204 0.110 1530
0.130 1.204 0.107 1556
0.130 1.204 0.103 1541
0.130 1.204 0.100 1443
0.130 1.204 0.096 1307
0.130 1.211 0.093 1147
0.113 1.054 0.096 1121
0.113 1.054 0.093 1313
0.113 1.054 0.090 1603
0.113 1.054 0.087 1755
0.113 1.053 0.084 2211
0.113 1.053 0.081 2667
0.113 1.053 0.079 2608
0.113 1.053 0.076 2549
0.113 1.053 0.073 2302
0.113 1.053 0.070 2054
0.113 1.052 0.067 2082
0.113 1.052 0.064 2134
0.113 1.052 0.061 2217
0.113 1.052 0.058 2276
0.113 1.051 0.055 1665
0.113 1.051 0.052 1054
0.113 1.051 0.049 1011
0.113 1.051 0.046 969
0.113 1.050 0.043 805
0.113 1.050 0.040 544
0.875 8.129 -0.688 489
0.226 2.098 -0.076 550
0.226 2.098 -0.082 620
0.225 2.089 -0.087 627
0.225 2.089 -0.093 634
0.225 2.088 -0.099 833
0.245 2.207 1.713 2851
0.245 2.211 1.706 5702
0.246 2.216 1.700 5702
0.246 2.220 1.694 7297
0.248 2.231 1.692 9182
0.250 2.248 1.695 9386
0.251 2.259 1.693 10416
0.251 2.264 1.686 10311
0.252 2.268 1.680 8240
0.262 2.364 1.736 8081
0.263 2.368 1.729 8109
0.260 2.340 1.700 8450
0.260 2.345 1.694 8835
0.260 2.343 1.682 9288
0.269 2.426 1.728 8976
0.270 2.430 1.721 11636
0.270 2.428 1.710 11559
0.270 2.433 1.703 11057
0.268 2.411 1.679 10615
0.273 2.462 1.702 11586
0.274 2.466 1.695 13226
0.274 2.471 1.688 14167
0.275 2.475 1.681 15108
0.275 2.480 1.674 11910
0.276 2.491 1.671 8841
0.278 2.509 1.672 9697
0.279 2.513 1.665 10593
0.279 2.518 1.657 9313
0.279 2.515 1.646 8157
0.280 2.526 1.643 6552
0.291 2.625 1.693 8069
0.293 2.636 1.689 8659
0.293 2.641 1.682 9275
0.294 2.652 1.678 8044
0.298 2.684 1.686 7530
0.298 2.688 1.679 8493
0.299 2.693 1.671 7441
0.299 2.697 1.663 6166
0.303 2.729 1.671 5575
0.306 2.754 1.675 6738
0.305 2.751 1.663 8055
0.306 2.756 1.655 8648
0.313 2.822 1.682 9639
0.314 2.827 1.674 12337
0.314 2.831 1.665 12297
0.315 2.836 1.657 10063
0.314 2.833 1.645 8283
0.315 2.837 1.637 7797
0.329 2.967 1.696 6992
0.330 2.971 1.687 6844
0.331 2.983 1.682 5094
0.331 2.980 1.670 4215
0.331 2.985 1.661 5233
0.332 2.996 1.656 7457
0.335 3.014 1.655 10819
0.336 3.026 1.650 11432
0.336 3.030 1.641 9111
0.347 3.126 1.678 8691
0.349 3.145 1.676 9154
0.349 3.149 1.667 7878
0.349 3.146 1.655 6372
0.349 3.144 1.642 6523
0.350 3.155 1.636 6873
0.351 3.160 1.627 6054
0.360 3.242 1.655 7130
0.360 3.239 1.643 8083
0.362 3.258 1.640 8601
0.364 3.277 1.637 9162
0.365 3.288 1.631 6760
0.367 3.307 1.628 5939
0.369 3.325 1.625 6268
0.371 3.344 1.622 6981
0.372 3.348 1.612 7054
0.373 3.360 1.606 6627
0.375 3.378 1.602 6799
0.375 3.383 1.593 6388
0.385 3.466 1.617 7886
0.388 3.492 1.617 8249
0.393 3.540 1.625 8045
0.397 3.573 1.627 10366
0.399 3.592 1.623 13014
0.401 3.611 1.618 13534
0.402 3.623 1.611 10538
0.403 3.627 1.600 8100
0.404 3.638 1.593 6921
0.411 3.701 1.606 9169
0.412 3.713 1.598 7207
0.421 3.797 1.619 4874
0.423 3.809 1.611 6529
0.423 3.813 1.600 5942
0.435 3.920 1.629 5671
0.436 3.932 1.620 5816
0.439 3.958 1.617 4193
0.442 3.985 1.614 3628
0.439 3.960 1.591 3452
0.441 3.971 1.583 2735
0.466 4.197 1.652 2819
0.467 4.209 1.643 4389
0.470 4.236 1.638 6159
0.471 4.247 1.629 4846
0.465 4.192 1.595 3186
0.483 4.353 1.638 3205
0.474 4.275 1.597 3448
0.488 4.398 1.625 4388
0.487 4.388 1.607 5818
0.493 4.444 1.612 5794
0.495 4.456 1.602 6014
0.497 4.475 1.594 5855
0.496 4.472 1.578 6233
0.496 4.469 1.563 6898
0.496 4.465 1.548 8447
0.495 4.462 1.532 10929
0.495 4.458 1.517 10677
0.494 4.455 1.502 6526
0.497 4.481 1.496 3428
0.496 4.470 1.478 3723
0.496 4.466 1.463 3893
0.540 4.870 1.569 4516
0.541 4.874 1.554 6545
0.541 4.878 1.540 8138
0.542 4.882 1.526 8623
0.541 4.879 1.510 8543
0.543 4.890 1.498 8150
0.544 4.902 1.486 6152
0.544 4.906 1.471 3605
0.596 5.373 1.583 3790
0.595 5.362 1.563 5407
0.596 5.366 1.548 6687
0.598 5.385 1.536 7002
0.598 5.389 1.520 5567
0.610 5.493 1.530 3926
0.615 5.542 1.525 2741
0.628 5.661 1.538 2898
0.628 5.657 1.520 3566
0.640 5.768 1.529 3790
0.641 5.772 1.512 2860
0.656 5.907 1.526 3801
0.655 5.903 1.507 3696
0.660 5.945 1.499 3735
0.659 5.941 1.480 3491
0.690 6.222 1.525 2437
0.691 6.226 1.507 1851
0.702 6.330 1.510 2705
0.705 6.357 1.497 2859
0.741 6.676 1.545 2916
0.741 6.680 1.526 4712
0.743 6.692 1.508 6099
0.743 6.696 1.489 6502
0.744 6.700 1.469 6851
0.745 6.711 1.451 7016
0.745 6.715 1.431 6127
0.746 6.719 1.412 4458
0.765 6.893 1.424 3640
0.766 6.904 1.406 3540
0.824 7.427 1.480 3755
0.824 7.423 1.457 4062
0.826 7.442 1.438 2716
0.855 7.702 1.460 2277
0.856 7.713 1.439 2273
0.860 7.748 1.422 1688
0.890 8.023 1.444 2108
0.892 8.035 1.422 2280
0.917 8.264 1.434 2525
0.899 8.105 1.384 2276
0.930 8.380 1.402 2096
0.930 8.384 1.377 2861
0.920 8.286 1.338 3385
0.920 8.290 1.314 4739
1.007 9.073 1.399 5266
1.007 9.076 1.372 7063
1.008 9.080 1.346 6885
1.009 9.091 1.320 5152
1.009 9.094 1.294 4701
1.009 9.090 1.266 4356
1.008 9.085 1.239 3238
1.185 10.675 1.400 2988
1.184 10.671 1.368 2397
1.195 10.768 1.348 2499
1.194 10.756 1.314 2969
1.195 10.767 1.284 2376
1.187 10.700 1.245 1583
1.370 12.347 1.380 1763
1.388 12.507 1.359 2222
1.388 12.511 1.322 2471
1.389 12.514 1.286 2249
1.400 12.611 1.257 2144
1.401 12.622 1.221 1866
1.480 13.339 1.244 1577
1.480 13.334 1.204 1708
1.479 13.330 1.164 1279
1.398 12.595 1.070 1062
1.483 13.359 1.088 1222
1.483 13.362 1.049 1269
0.146 1.319 0.222 1042
0.146 1.320 0.218 1055
0.146 1.320 0.215 1013
0.146 1.312 0.211 915
0.146 1.312 0.207 779
0.146 1.313 0.203 638
1.170 10.540 0.640 614
1.169 10.533 0.608 627
0.147 1.321 0.192 730
0.147 1.321 0.189 998
1.069 9.633 0.484 1287
1.069 9.634 0.455 1540
1.068 9.627 0.427 1542
1.068 9.620 0.399 1260
0.147 1.322 0.170 1005
1.065 9.597 0.342 1137
1.067 9.614 0.314 1356
1.057 9.528 0.285 1534
1.057 9.528 0.257 1501
1.057 9.521 0.229 1272
1.056 9.513 0.201 1047
1.055 9.505 0.173 885
1.046 9.427 0.146 971
1.045 9.419 0.118 1197
1.045 9.419 0.091 1054
0.134 1.204 0.130 1164
0.133 1.196 0.127 1332
0.133 1.196 0.123 1695
0.134 1.204 0.120 1894
0.134 1.204 0.117 2097
0.134 1.204 0.113 2310
0.134 1.204 0.110 2482
0.134 1.204 0.107 2647
0.134 1.204 0.103 2696
0.134 1.203 0.100 2623
0.134 1.211 0.096 2465
0.134 1.211 0.093 2197
0.134 1.211 0.089 1929
0.133 1.203 0.086 1594
0.133 1.203 0.083 1262
0.117 1.053 0.087 1217
0.117 1.053 0.084 1572
0.117 1.053 0.081 1926
0.117 1.053 0.079 1928
0.117 1.053 0.076 1930
0.117 1.052 0.073 1811
0.117 1.052 0.070 1693
0.117 1.052 0.067 1707
0.117 1.052 0.064 1742
0.117 1.052 0.061 1808
0.117 1.051 0.058 1853
0.117 1.051 0.055 1358
0.117 1.051 0.052 863
0.117 1.051 0.049 814
0.117 1.050 0.046 765
0.117 1.050 0.043 629
0.116 1.050 0.040 411
0.116 1.049 0.038 303
0.901 8.116 -0.711 332
0.900 8.113 -0.735 332
0.232 2.089 -0.087 322
0.232 2.088 -0.093 375
0.232 2.087 -0.099 497
0.247 2.206 1.713 3011
0.248 2.211 1.706 6022
0.248 2.215 1.700 6022
0.250 2.226 1.698 7366
0.250 2.231 1.692 8781
0.251 2.242 1.690 8693
0.253 2.259 1.693 9518
0.254 2.264 1.686 9420
0.254 2.268 1.680 7620
0.266 2.370 1.741 9382
0.266 2.374 1.734 8775
0.268 2.392 1.736 8277
0.267 2.384 1.720 8084
0.263 2.349 1.687 9534
0.265 2.360 1.684 9190
0.272 2.430 1.721 10250
0.273 2.435 1.714 10239
0.271 2.413 1.690 10131
0.271 2.417 1.683 10525
0.275 2.455 1.698 10539
0.277 2.466 1.695 12211
0.277 2.471 1.688 13936
0.278 2.475 1.681 15662
0.279 2.486 1.678 12848
0.280 2.497 1.675 10101
0.281 2.508 1.672 10699
0.282 2.513 1.665 11323
0.282 2.517 1.657 9484
0.282 2.515 1.646 7809
0.283 2.526 1.643 6375
0.295 2.632 1.697 7618
0.296 2.636 1.689 7999
0.296 2.641 1.682 8380
0.297 2.652 1.678 7968
0.300 2.677 1.682 7724
0.301 2.688 1.679 8525
0.303 2.699 1.675 7102
0.304 2.710 1.671 5717
0.306 2.729 1.671 5015
0.313 2.788 1.694 6004
0.308 2.751 1.663 6746
0.309 2.756 1.655 7698
0.316 2.822 1.682 9419
0.317 2.826 1.674 12394
0.317 2.831 1.665 12825
0.318 2.835 1.657 11011
0.318 2.840 1.649 8915
0.319 2.844 1.641 7292
0.333 2.966 1.696 6915
0.334 2.978 1.691 6511
0.334 2.982 1.682 4864
0.324 2.889 1.623 4325
0.335 2.984 1.661 5298
0.336 2.996 1.656 6505
0.338 3.014 1.655 8777
0.339 3.025 1.650 9831
0.341 3.037 1.645 9079
0.350 3.126 1.678 9347
0.352 3.137 1.673 9967
0.353 3.149 1.667 8513
0.354 3.153 1.658 6649
0.353 3.150 1.646 6249
0.355 3.162 1.640 7664
0.353 3.152 1.624 7782
0.364 3.242 1.655 6830
0.364 3.246 1.646 7857
0.366 3.265 1.643 7686
0.367 3.276 1.637 7679
0.369 3.295 1.634 4901
0.372 3.321 1.635 3631
0.373 3.325 1.625 4127
0.375 3.344 1.622 5079
0.375 3.348 1.612 5874
0.377 3.359 1.606 6025
0.379 3.378 1.602 6403
0.379 3.382 1.593 6303
0.389 3.466 1.617 7070
0.392 3.492 1.617 7995
0.398 3.547 1.628 8798
0.400 3.566 1.624 10914
0.403 3.592 1.623 12407
0.405 3.611 1.618 12413
0.406 3.622 1.611 9596
0.407 3.626 1.600 7140
0.411 3.667 1.605 7354
0.414 3.693 1.603 10065
0.415 3.705 1.595 7334
0.425 3.790 1.616 4014
0.427 3.809 1.611 6265
0.428 3.820 1.603 7160
0.440 3.927 1.631 5606
0.441 3.932 1.620 6063
0.444 3.958 1.617 4619
0.448 3.999 1.619 5052
0.452 4.033 1.619 4994
0.453 4.037 1.607 4364
0.450 4.012 1.585 4042
0.470 4.194 1.637 4551
0.472 4.205 1.628 4699
0.477 4.254 1.631 2873
0.488 4.355 1.653 2932
0.472 4.211 1.589 3757
0.476 4.245 1.587 3089
0.494 4.405 1.628 4616
0.493 4.395 1.610 5874
0.497 4.429 1.607 5084
0.500 4.463 1.604 5442
0.503 4.482 1.596 6227
0.503 4.486 1.583 5743
0.502 4.475 1.565 6110
0.501 4.465 1.548 9548
0.500 4.461 1.532 12733
0.500 4.458 1.517 12008
0.500 4.462 1.504 6840
0.502 4.481 1.496 3104
0.501 4.469 1.478 4096
0.501 4.466 1.463 4459
0.546 4.870 1.569 3325
0.547 4.874 1.554 5446
0.547 4.878 1.540 6081
0.547 4.874 1.524 6153
0.547 4.878 1.510 6028
0.549 4.897 1.500 5402
0.550 4.901 1.486 4192
0.516 4.602 1.388 3367
0.602 5.365 1.581 4992
0.601 5.361 1.563 5677
0.602 5.373 1.550 6375
0.605 5.392 1.538 6350
0.604 5.389 1.520 5045
0.605 5.393 1.505 3999
0.627 5.587 1.537 2752
0.634 5.653 1.536 2643
0.634 5.657 1.520 2929
0.646 5.760 1.527 3903
0.646 5.764 1.511 3303
0.664 5.921 1.530 3962
0.664 5.917 1.511 3553
0.666 5.937 1.497 4034
0.666 5.941 1.480 3545
0.698 6.221 1.525 2954
0.696 6.210 1.503 2153
0.707 6.306 1.505 2300
0.706 6.294 1.484 2635
0.749 6.683 1.547 2246
0.749 6.679 1.526 3347
0.750 6.691 1.508 4483
0.751 6.695 1.489 5355
0.751 6.699 1.469 5858
0.752 6.711 1.451 5690
0.753 6.714 1.431 4692
0.753 6.718 1.412 3204
0.773 6.892 1.424 3529
0.774 6.903 1.406 3255
0.832 7.418 1.478 3185
0.831 7.414 1.455 3232
0.836 7.457 1.441 2138
0.863 7.693 1.459 2189
0.846 7.542 1.410 2351
0.845 7.537 1.387 1875
0.888 7.922 1.427 2204
0.901 8.034 1.422 2252
0.926 8.255 1.432 1980
0.932 8.313 1.417 1987
0.938 8.364 1.400 3074
0.939 8.375 1.376 3596
0.940 8.379 1.352 3708
0.940 8.382 1.327 5048
1.017 9.071 1.399 5584
1.018 9.075 1.372 7384
1.017 9.071 1.345 7294
1.018 9.082 1.319 5411
1.020 9.093 1.294 4782
1.019 9.089 1.266 4375
1.020 9.092 1.240 3112
1.199 10.689 1.402 2625
1.208 10.771 1.380 2051
1.207 10.767 1.348 2933
1.207 10.762 1.315 3366
1.207 10.766 1.284 2744
1.200 10.698 1.245 1585
1.384 12.345 1.380 2275
1.384 12.341 1.343 2251
1.403 12.509 1.322 2483
1.403 12.512 1.286 2374
1.403 12.516 1.249 1854
1.496 13.342 1.283 1620
1.496 13.337 1.244 2377
1.496 13.341 1.205 2568
1.495 13.336 1.165 2050
1.496 13.339 1.126 1491
1.498 13.357 1.088 1456
1.498 13.360 1.049 1444
1.498 13.362 1.010 1078
1.240 11.056 0.826 610
1.241 11.066 0.795 509
0.148 1.320 0.211 514
0.148 1.320 0.207 1043
0.149 1.328 0.204 1690
0.149 1.328 0.200 2153
0.149 1.329 0.197 2794
0.149 1.329 0.193 3631
0.149 1.329 0.189 4219
0.149 1.329 0.185 4431
0.149 1.329 0.182 4540
0.149 1.329 0.178 4680
0.149 1.329 0.174 4555
0.149 1.329 0.170 4153
0.149 1.330 0.167 3570
0.149 1.330 0.163 3143
0.149 1.330 0.159 2533
0.149 1.330 0.155 1705
0.149 1.330 0.152 1238
0.149 1.330 0.148 775
0.135 1.204 0.144 768
0.134 1.196 0.140 819
0.134 1.196 0.137 863
0.134 1.196 0.134 1055
0.135 1.204 0.130 1265
0.134 1.196 0.127 1677
0.135 1.204 0.123 2659
0.135 1.204 0.120 3281
0.135 1.204 0.117 3999
0.135 1.204 0.113 4720
0.136 1.211 0.110 5285
0.136 1.211 0.106 5901
0.135 1.203 0.103 6118
0.135 1.203 0.100 6037
0.136 1.211 0.096 5771
0.136 1.211 0.093 5181
0.136 1.211 0.089 4592
0.135 1.203 0.086 3823
0.135 1.203 0.083 3068
0.136 1.210 0.079 2335
0.136 1.210 0.076 1637
0.136 1.210 0.072 1168
0.118 1.053 0.079 1136
0.118 1.052 0.076 1126
0.118 1.052 0.073 1051
0.118 1.052 0.070 976
0.118 1.052 0.067 992
0.118 1.052 0.064 1022
0.118 1.051 0.061 1135
0.118 1.051 0.058 1232
0.118 1.051 0.055 926
0.118 1.051 0.052 619
0.118 1.050 0.049 572
0.118 1.050 0.046 526
0.118 1.050 0.043 458
0.118 1.050 0.040 340
0.118 1.049 0.038 285
0.118 1.049 0.035 264
0.118 1.048 0.029 250
0.118 1.048 0.026 250
0.255 2.212 1.717 2790
0.256 2.216 1.711 5580
0.256 2.221 1.705 5580
0.257 2.225 1.698 7051
0.257 2.230 1.692 8521
0.259 2.247 1.695 8442
0.260 2.258 1.693 9193
0.262 2.269 1.691 9163
0.271 2.351 1.738 7547
0.273 2.369 1.741 10133
0.274 2.374 1.734 9105
0.276 2.398 1.740 8668
0.275 2.389 1.725 8628
0.272 2.361 1.696 9629
0.273 2.366 1.689 9293
0.273 2.370 1.682 8958
0.274 2.375 1.675 8874
0.278 2.412 1.690 9483
0.279 2.417 1.683 10245
0.282 2.447 1.693 9226
0.284 2.465 1.695 10290
0.285 2.470 1.688 12533
0.286 2.481 1.685 15015
0.287 2.485 1.678 12551
0.289 2.503 1.679 10294
0.289 2.508 1.672 10771
0.290 2.512 1.665 11247
0.290 2.516 1.657 9281
0.290 2.514 1.646 7429
0.293 2.539 1.651 6501
0.303 2.631 1.697 7297
0.304 2.635 1.689 7474
0.304 2.633 1.678 7657
0.303 2.631 1.666 8126
0.308 2.669 1.678 8154
0.309 2.680 1.675 8764
0.310 2.691 1.671 6888
0.313 2.716 1.675 5382
0.321 2.782 1.702 4387
0.321 2.787 1.694 5659
0.323 2.798 1.690 5824
0.326 2.830 1.698 6908
0.325 2.821 1.682 8347
0.326 2.825 1.674 11374
0.325 2.823 1.662 12357
0.326 2.827 1.653 11044
0.327 2.839 1.649 8847
0.330 2.864 1.652 6929
0.342 2.965 1.696 6448
0.344 2.984 1.695 5850
0.344 2.981 1.682 4314
0.343 2.972 1.666 4085
0.344 2.983 1.661 5044
0.345 2.995 1.656 5556
0.348 3.020 1.659 7200
0.350 3.031 1.653 8870
0.351 3.043 1.648 8854
0.360 3.125 1.678 9225
0.362 3.136 1.673 9911
0.362 3.141 1.664 8497
0.363 3.145 1.655 6702
0.364 3.156 1.649 6328
0.364 3.161 1.640 8735
0.363 3.151 1.624 9976
0.364 3.155 1.615 6694
0.375 3.252 1.649 7134
0.378 3.278 1.650 6614
0.378 3.282 1.641 6442
0.379 3.287 1.631 4856
0.309 2.682 1.343 3535
0.310 2.686 1.335 3261
0.392 3.400 1.648 2999
0.388 3.361 1.619 4915
0.388 3.365 1.609 5367
0.389 3.377 1.602 5081
0.390 3.381 1.593 5355
0.399 3.465 1.617 5871
0.403 3.498 1.620 7275
0.409 3.546 1.628 9295
0.411 3.564 1.624 11468
0.413 3.583 1.620 12022
0.416 3.609 1.618 11379
0.417 3.621 1.611 8643
0.419 3.632 1.603 6189
0.423 3.666 1.605 7634
0.425 3.685 1.600 9940
0.426 3.696 1.592 6746
0.449 3.898 1.660 3334
0.439 3.807 1.611 6085
0.440 3.819 1.603 7806
0.442 3.830 1.595 5918
0.453 3.930 1.620 6142
0.447 3.876 1.586 5481
0.462 4.005 1.622 6115
0.465 4.031 1.619 6643
0.464 4.028 1.604 5820
0.462 4.010 1.585 4899
0.482 4.177 1.632 4691
0.483 4.189 1.622 4633
0.483 4.186 1.608 3752
0.484 4.198 1.598 3907
0.485 4.209 1.589 4109
0.500 4.340 1.620 3568
0.507 4.396 1.625 4738
0.507 4.401 1.612 5898
0.508 4.405 1.600 4518
0.516 4.476 1.609 4123
0.517 4.488 1.599 5806
0.518 4.492 1.586 5227
0.517 4.481 1.568 4805
0.514 4.456 1.545 8552
0.514 4.460 1.532 11541
0.514 4.456 1.517 10714
0.514 4.460 1.504 5969
0.522 4.524 1.509 2788
0.515 4.468 1.478 3699
0.515 4.464 1.463 5301
0.515 4.468 1.450 4785
0.561 4.864 1.552 3910
0.561 4.869 1.538 3797
0.572 4.963 1.550 4414
0.572 4.960 1.533 3581
0.568 4.926 1.508 3550
0.530 4.596 1.401 3091
0.617 5.351 1.594 3512
0.617 5.355 1.579 5445
0.617 5.352 1.561 5373
0.619 5.371 1.550 5393
0.622 5.398 1.540 5180
0.621 5.387 1.520 4219
0.621 5.383 1.503 4282
0.645 5.593 1.539 2773
0.649 5.628 1.530 2371
0.663 5.746 1.542 3069
0.664 5.758 1.527 3687
0.665 5.770 1.512 3559
0.667 5.789 1.499 4779
0.667 5.785 1.481 4390
0.684 5.935 1.497 4091
0.685 5.939 1.480 3319
0.717 6.219 1.525 2996
0.714 6.192 1.500 2382
0.726 6.296 1.504 2460
0.726 6.300 1.485 2639
0.733 6.358 1.478 2153
0.746 6.469 1.482 2283
0.787 6.827 1.537 3554
0.773 6.700 1.490 4012
0.773 6.704 1.471 4552
0.773 6.708 1.451 4308
0.774 6.712 1.431 3500
0.790 6.855 1.438 2720
0.813 7.052 1.455 3005
0.813 7.048 1.433 3037
0.855 7.415 1.478 2679
0.854 7.404 1.454 2901
0.852 7.392 1.430 2409
0.870 7.543 1.434 2402
0.869 7.539 1.410 2837
0.869 7.535 1.387 2504
0.913 7.919 1.427 2210
0.913 7.915 1.403 2090
0.960 8.330 1.445 1780
0.960 8.326 1.419 2604
0.962 8.345 1.397 3996
0.964 8.357 1.374 4293
0.965 8.368 1.351 4184
0.965 8.371 1.326 5522
0.967 8.390 1.304 5660
1.046 9.072 1.372 6744
1.045 9.068 1.345 6821
1.047 9.079 1.319 5051
1.048 9.090 1.294 4390
1.047 9.078 1.265 4015
1.047 9.081 1.239 2724
1.232 10.685 1.402 2193
1.241 10.767 1.380 1995
1.241 10.763 1.348 2803
1.240 10.758 1.315 3194
1.241 10.762 1.284 2654
1.422 12.337 1.416 1617
1.423 12.341 1.380 2394
1.422 12.337 1.343 2417
1.533 13.295 1.397 2081
1.532 13.291 1.358 2313
1.532 13.287 1.318 2013
1.537 13.329 1.283 2005
1.537 13.333 1.244 2841
1.538 13.336 1.205 3043
1.538 13.339 1.165 2575
1.538 13.342 1.126 1939
1.539 13.345 1.087 1676
1.539 13.347 1.048 1581
1.539 13.350 1.009 1195
1.538 13.337 0.969 518
0.148 1.280 0.212 318
0.152 1.319 0.211 673
0.153 1.328 0.208 1820
0.153 1.328 0.204 3208
0.153 1.328 0.200 4235
0.153 1.328 0.197 5660
0.152 1.320 0.192 7333
0.152 1.321 0.189 8403
0.153 1.329 0.185 8776
0.152 1.321 0.181 8740
0.152 1.321 0.178 8680
0.153 1.329 0.174 8225
0.153 1.329 0.170 7105
0.153 1.329 0.167 5771
0.153 1.329 0.163 4910
0.153 1.329 0.159 3838
0.153 1.329 0.155 2617
0.153 1.329 0.152 1972
0.154 1.337 0.148 1405
0.154 1.337 0.144 984
0.155 1.345 0.140 820
0.138 1.196 0.137 707
0.139 1.203 0.134 1217
0.139 1.203 0.130 1807
0.139 1.203 0.127 2645
0.139 1.203 0.123 4499
0.139 1.203 0.120 5614
0.139 1.203 0.117 6805
0.139 1.203 0.113 7990
0.140 1.211 0.110 8774
0.140 1.211 0.106 9473
0.139 1.203 0.103 9654
0.139 1.203 0.100 9419
0.140 1.211 0.096 8893
0.140 1.210 0.093 7955
0.139 1.202 0.090 7022
0.139 1.202 0.086 5876
0.139 1.202 0.083 4730
0.139 1.210 0.079 3595
0.139 1.210 0.076 2536
0.139 1.209 0.072 1774
0.139 1.209 0.069 994
0.139 1.209 0.066 696
0.121 1.052 0.073 553
0.140 1.216 0.058 500
0.140 1.216 0.055 561
0.140 1.216 0.051 602
0.140 1.216 0.048 648
0.121 1.051 0.058 601
0.139 1.207 0.042 528
0.140 1.215 0.038 417
0.121 1.050 0.049 369
0.121 1.050 0.046 404
0.121 1.049 0.043 363
0.121 1.049 0.040 305
0.121 1.049 0.038 290
0.121 1.049 0.035 273
0.121 1.048 0.032 250
0.264 2.217 1.722 2215
0.264 2.222 1.716 4430
0.265 2.226 1.709 4430
0.265 2.225 1.698 5710
0.265 2.229 1.692 7009
0.268 2.253 1.699 7430
0.270 2.270 1.702 9180
0.271 2.275 1.695 9180
0.279 2.344 1.734 8828
0.281 2.361 1.736 10945
0.282 2.373 1.734 9446
0.285 2.397 1.740 8858
0.283 2.382 1.720 8957
0.282 2.373 1.704 10233
0.281 2.365 1.689 9653
0.282 2.369 1.682 9245
0.282 2.374 1.675 9080
0.287 2.411 1.690 8828
0.288 2.422 1.687 9978
0.289 2.433 1.685 8214
0.293 2.464 1.695 7758
0.294 2.475 1.692 10294
0.296 2.486 1.689 13303
0.297 2.498 1.686 11390
0.298 2.509 1.683 9831
0.299 2.513 1.676 10352
0.299 2.518 1.669 10873
0.300 2.522 1.662 9049
0.299 2.513 1.646 7273
0.303 2.544 1.655 7102
0.312 2.623 1.693 7359
0.313 2.627 1.685 7525
0.311 2.618 1.669 8001
0.313 2.629 1.666 8940
0.317 2.661 1.674 8993
0.319 2.679 1.675 9382
0.319 2.683 1.667 7133
0.323 2.715 1.675 5071
0.331 2.781 1.702 3944
0.332 2.792 1.698 4910
0.336 2.824 1.706 4714
0.337 2.836 1.701 6005
0.337 2.833 1.689 6344
0.335 2.817 1.670 9239
0.336 2.822 1.662 11023
0.336 2.826 1.653 10192
0.337 2.830 1.645 8180
0.347 2.918 1.682 7915
0.348 2.929 1.677 6708
0.355 2.982 1.695 5071
0.349 2.931 1.657 4770
0.349 2.936 1.648 4068
0.355 2.982 1.661 4326
0.355 2.986 1.653 4454
0.360 3.026 1.662 6319
0.361 3.037 1.657 8446
0.362 3.042 1.648 8604
0.372 3.123 1.678 8903
0.373 3.135 1.673 9646
0.373 3.139 1.664 8379
0.374 3.144 1.655 6910
0.374 3.148 1.646 6707
0.375 3.152 1.636 9909
0.375 3.150 1.624 12001
0.375 3.154 1.615 8176
0.380 3.194 1.623 7336
0.391 3.291 1.657 6337
0.390 3.281 1.641 5986
0.390 3.278 1.628 5957
0.390 3.282 1.618 4792
0.389 3.272 1.602 4112
0.402 3.377 1.638 5238
0.402 3.381 1.628 7350
0.401 3.371 1.612 5331
0.401 3.368 1.599 3743
0.402 3.380 1.593 4253
0.405 3.405 1.592 5889
0.417 3.504 1.623 6197
0.422 3.544 1.628 9958
0.424 3.563 1.624 12739
0.425 3.574 1.617 12281
0.429 3.608 1.618 10210
0.431 3.619 1.611 7514
0.433 3.638 1.606 5652
0.435 3.657 1.602 7694
0.437 3.676 1.597 9005
0.438 3.680 1.586 6649
0.437 3.677 1.573 4437
0.466 3.915 1.654 6467
0.455 3.824 1.606 8005
0.461 3.873 1.612 6968
0.460 3.870 1.598 6325
0.461 3.874 1.586 6149
0.476 4.003 1.622 6599
0.479 4.030 1.619 8128
0.480 4.034 1.607 6751
0.494 4.156 1.639 5005
0.496 4.168 1.629 4197
0.498 4.187 1.622 4045
0.499 4.192 1.610 4708
0.499 4.196 1.598 4543
0.517 4.349 1.638 4077
0.516 4.338 1.620 4808
0.525 4.417 1.633 4737
0.525 4.414 1.618 6140
0.521 4.381 1.592 4832
0.518 4.355 1.570 4145
0.535 4.501 1.604 4688
0.536 4.505 1.591 4629
0.528 4.442 1.556 4260
0.530 4.454 1.545 6095
0.530 4.458 1.532 7900
0.531 4.462 1.519 7248
0.532 4.473 1.509 4222
0.538 4.522 1.509 2948
0.552 4.639 1.531 3755
0.532 4.470 1.465 4571
0.531 4.466 1.450 4816
0.586 4.930 1.572 3677
0.589 4.950 1.562 3923
0.590 4.961 1.550 5435
0.590 4.958 1.533 4208
0.588 4.939 1.513 3606
0.589 4.951 1.500 3772
0.635 5.341 1.592 3542
0.637 5.353 1.579 5021
0.635 5.342 1.559 4391
0.636 5.346 1.543 3906
0.641 5.388 1.538 3470
0.638 5.362 1.514 3548
0.639 5.373 1.501 3867
0.680 5.713 1.570 2593
0.680 5.717 1.553 3807
0.682 5.736 1.540 3602
0.685 5.756 1.527 2975
0.687 5.775 1.514 3653
0.687 5.779 1.497 5629
0.688 5.783 1.481 5390
0.706 5.932 1.497 4013
0.708 5.951 1.484 3279
0.741 6.231 1.528 2728
0.736 6.189 1.500 2353
0.750 6.301 1.505 2246
0.759 6.382 1.504 2319
0.756 6.355 1.478 2417
0.769 6.466 1.482 2845
0.216 1.819 0.504 2813
0.216 1.820 0.498 3449
0.218 1.829 0.495 4148
0.218 1.830 0.489 4364
0.218 1.831 0.484 3814
0.837 7.037 1.474 3354
0.838 7.049 1.455 3506
0.839 7.053 1.434 3586
0.838 7.049 1.412 2694
0.878 7.385 1.451 2834
0.879 7.389 1.430 2753
0.897 7.540 1.434 2902
0.896 7.536 1.410 3383
0.896 7.532 1.387 3506
0.896 7.535 1.365 2702
0.989 8.315 1.468 2063
0.990 8.319 1.443 2784
0.990 8.323 1.419 3725
0.991 8.334 1.396 5085
0.992 8.338 1.372 5202
0.994 8.357 1.350 4626
0.995 8.368 1.326 5484
0.998 8.387 1.304 5198
1.078 9.060 1.371 5201
1.078 9.064 1.345 5601
1.080 9.075 1.319 4152
1.080 9.078 1.293 3592
1.079 9.074 1.265 3304
1.080 9.077 1.239 2095
0.173 1.453 0.306 1993
0.173 1.453 0.301 1990
1.281 10.766 1.349 2288
1.280 10.762 1.316 2544
1.281 10.765 1.285 2164
1.467 12.332 1.416 1426
1.467 12.336 1.380 2160
1.466 12.324 1.342 2232
1.580 13.282 1.397 2297
1.579 13.278 1.357 2686
1.578 13.266 1.317 2532
1.582 13.300 1.281 2276
1.585 13.327 1.244 3026
1.586 13.330 1.205 3190
1.586 13.333 1.165 2827
1.586 13.336 1.126 2200
1.587 13.339 1.087 1795
1.587 13.342 1.048 1654
1.587 13.344 1.009 1295
0.156 1.311 0.218 1145
0.157 1.319 0.215 1581
0.157 1.319 0.211 2734
0.157 1.319 0.207 5400
0.158 1.327 0.204 8228
0.157 1.319 0.200 10353
0.157 1.320 0.196 13037
0.157 1.320 0.192 15629
0.157 1.320 0.189 16892
0.158 1.328 0.185 16607
0.158 1.328 0.182 14527
0.157 1.320 0.178 12046
0.157 1.320 0.174 9846
0.157 1.321 0.170 6817
0.157 1.321 0.166 3759
0.156 1.313 0.163 2333
0.156 1.313 0.159 1442
0.156 1.313 0.155 1021
0.157 1.321 0.152 960
0.158 1.329 0.148 717
0.142 1.195 0.144 610
0.142 1.195 0.140 726
0.143 1.203 0.137 1009
0.143 1.203 0.134 1991
0.143 1.203 0.130 3050
0.143 1.203 0.127 4391
0.143 1.203 0.123 7180
0.143 1.203 0.120 8771
0.143 1.203 0.117 10359
0.143 1.203 0.113 11942
0.143 1.203 0.110 12862
0.143 1.203 0.107 13595
0.143 1.202 0.103 13738
0.143 1.202 0.100 13341
0.144 1.210 0.096 12499
0.144 1.210 0.093 11182
0.143 1.202 0.090 9929
0.143 1.202 0.086 8403
0.143 1.202 0.083 6877
0.143 1.201 0.080 5353
0.144 1.209 0.076 3895
0.144 1.209 0.072 2772
0.143 1.201 0.069 1625
0.144 1.209 0.066 1049
0.145 1.216 0.062 507
0.146 1.224 0.058 488
0.146 1.224 0.054 460
0.145 1.215 0.051 513
0.145 1.223 0.047 581
0.145 1.215 0.045 558
0.144 1.207 0.042 551
0.144 1.206 0.038 444
0.144 1.214 0.034 344
0.125 1.049 0.046 350
0.125 1.049 0.043 320
0.125 1.049 0.040 275
0.125 1.048 0.038 258
0.125 1.048 0.035 265
0.125 1.048 0.032 276
0.125 1.048 0.029 278
0.125 1.047 0.026 279
0.278 2.235 1.736 2413
0.279 2.239 1.730 4826
0.280 2.244 1.723 4826
0.281 2.255 1.721 4664
0.282 2.266 1.719 4772
0.287 2.303 1.736 7256
0.289 2.320 1.738 10558
0.290 2.325 1.732 10558
0.291 2.336 1.729 11266
0.293 2.353 1.732 12633
0.295 2.364 1.729 10150
0.298 2.395 1.740 8278
0.296 2.374 1.716 9104
0.295 2.365 1.700 10770
0.294 2.363 1.689 10426
0.295 2.368 1.682 10292
0.295 2.372 1.675 10134
0.298 2.390 1.677 7982
0.303 2.434 1.696 9306
0.306 2.458 1.702 6993
0.308 2.469 1.699 6209
0.312 2.507 1.713 7678
0.312 2.505 1.702 10213
0.313 2.516 1.699 9718
0.314 2.520 1.692 9256
0.315 2.525 1.684 9253
0.314 2.523 1.673 9284
0.316 2.534 1.670 8321
0.316 2.538 1.662 7392
0.318 2.549 1.659 8091
0.320 2.567 1.660 9035
0.325 2.612 1.677 9186
0.328 2.637 1.682 9743
0.327 2.628 1.666 10809
0.330 2.652 1.670 10463
0.333 2.670 1.671 11387
0.334 2.682 1.667 10020
0.335 2.686 1.659 8203
0.335 2.690 1.651 6117
0.336 2.695 1.644 4031
0.337 2.706 1.640 4789
0.355 2.848 1.709 4857
0.341 2.735 1.636 4679
0.351 2.815 1.670 5609
0.350 2.813 1.658 7641
0.351 2.817 1.650 6986
0.362 2.905 1.687 9091
0.362 2.909 1.678 9278
0.365 2.927 1.677 7473
0.361 2.897 1.650 5903
0.361 2.901 1.642 6148
0.362 2.906 1.634 4763
0.377 3.029 1.687 3849
0.377 3.026 1.675 3778
0.378 3.031 1.666 5847
0.379 3.042 1.661 7936
0.380 3.047 1.652 7803
0.389 3.121 1.678 7926
0.389 3.126 1.669 8790
0.390 3.130 1.660 8673
0.390 3.134 1.651 7636
0.387 3.111 1.628 7209
0.392 3.150 1.636 10346
0.392 3.147 1.624 12963
0.394 3.159 1.618 9771
0.396 3.177 1.616 9581
0.397 3.189 1.610 8642
0.404 3.243 1.624 9235
0.406 3.261 1.621 9697
0.408 3.273 1.615 8503
0.418 3.356 1.641 8721
0.419 3.360 1.632 11638
0.421 3.379 1.628 11670
0.421 3.383 1.619 7286
0.423 3.395 1.612 4644
0.423 3.399 1.602 5161
0.425 3.410 1.595 5196
0.441 3.537 1.638 5987
0.442 3.549 1.631 10965
0.444 3.561 1.624 15020
0.445 3.572 1.617 14656
0.448 3.598 1.615 11663
0.451 3.617 1.611 8242
0.453 3.636 1.606 6092
0.455 3.655 1.602 7494
0.458 3.673 1.597 6925
0.465 3.736 1.610 7046
0.458 3.674 1.573 6884
0.487 3.913 1.654 6259
0.487 3.910 1.640 7569
0.483 3.878 1.614 9335
0.483 3.874 1.600 7120
0.482 3.871 1.586 6141
0.483 3.875 1.575 6211
0.503 4.034 1.622 8155
0.503 4.039 1.610 7091
0.503 4.035 1.595 5722
0.504 4.047 1.586 4708
0.528 4.236 1.641 4720
0.531 4.263 1.637 4767
0.532 4.275 1.627 4393
0.531 4.264 1.609 4209
0.539 4.328 1.617 4585
0.540 4.332 1.605 4960
0.541 4.344 1.595 6820
0.541 4.340 1.580 7740
0.545 4.374 1.577 5298
0.549 4.408 1.574 4617
0.569 4.569 1.612 5572
0.571 4.581 1.602 4696
0.572 4.593 1.591 3464
0.571 4.582 1.573 4645
0.572 4.594 1.562 6177
0.573 4.598 1.548 4424
0.583 4.677 1.558 4113
0.578 4.644 1.533 5866
0.580 4.655 1.522 6081
0.583 4.682 1.515 4867
0.615 4.935 1.574 4241
0.590 4.735 1.501 4351
0.618 4.958 1.550 4161
0.596 4.780 1.484 4105
0.647 5.193 1.585 3719
0.650 5.220 1.576 3969
0.651 5.224 1.561 4809
0.677 5.433 1.601 4220
0.677 5.437 1.586 4792
0.665 5.335 1.541 4652
0.664 5.331 1.524 4466
0.665 5.335 1.508 3433
0.691 5.545 1.546 4208
0.690 5.541 1.527 3270
0.711 5.705 1.551 5655
0.711 5.709 1.535 4976
0.709 5.691 1.512 2748
0.713 5.725 1.503 3266
0.716 5.744 1.490 4728
0.718 5.763 1.477 4130
0.720 5.783 1.464 3125
0.744 5.970 1.489 4146
0.745 5.982 1.473 4144
0.748 6.001 1.459 3367
0.746 5.990 1.438 2328
0.794 6.377 1.504 1940
0.792 6.358 1.480 2259
0.804 6.454 1.481 2282
0.833 6.689 1.510 2514
0.836 6.708 1.493 2323
0.855 6.866 1.505 2143
0.834 6.693 1.450 2220
0.875 7.021 1.493 2579
0.875 7.025 1.472 3226
0.878 7.052 1.456 3333
0.879 7.056 1.436 3839
0.879 7.059 1.415 2567
0.932 7.481 1.469 2877
0.937 7.523 1.454 3266
0.953 7.651 1.454 3727
0.954 7.662 1.433 3662
0.938 7.526 1.387 4672
0.938 7.530 1.365 3853
1.035 8.309 1.468 2753
1.036 8.313 1.443 3679
1.036 8.317 1.419 4499
1.037 8.321 1.395 5611
1.038 8.332 1.372 5724
1.038 8.336 1.347 4579
1.040 8.347 1.324 3658
1.044 8.381 1.304 2863
1.145 9.194 1.390 2313
1.108 8.894 1.323 2370
1.144 9.186 1.334 2046
1.146 9.197 1.309 2124
1.130 9.068 1.265 1718
0.156 1.248 0.285 1523
0.156 1.249 0.281 2487
0.156 1.249 0.278 2897
0.156 1.250 0.274 2673
0.156 1.250 0.271 1958
1.503 12.062 1.424 1735
1.502 12.058 1.388 1627
1.521 12.210 1.368 1821
1.522 12.222 1.333 2334
1.651 13.257 1.395 2217
1.652 13.261 1.356 2771
1.650 13.249 1.316 2680
1.650 13.244 1.277 2391
1.659 13.318 1.244 2193
1.659 13.321 1.205 2262
1.660 13.324 1.165 2111
1.659 13.319 1.126 1755
1.661 13.330 1.087 1353
1.660 13.325 1.048 1169
1.660 13.327 1.009 923
1.661 13.330 0.970 461
0.215 1.726 0.239 673
0.215 1.726 0.234 1016
0.165 1.326 0.208 1805
0.165 1.326 0.204 3061
0.165 1.326 0.200 3985
0.165 1.327 0.197 5218
0.165 1.327 0.193 6527
0.165 1.327 0.189 7181
0.165 1.327 0.185 7211
0.165 1.327 0.182 6607
0.164 1.319 0.178 5823
0.165 1.327 0.174 5149
0.165 1.328 0.170 4059
0.164 1.320 0.166 2865
0.164 1.320 0.163 2206
0.164 1.320 0.159 1545
0.164 1.320 0.155 895
0.163 1.312 0.151 595
0.148 1.186 0.147 464
0.149 1.194 0.144 582
0.150 1.202 0.140 1216
0.150 1.202 0.137 1931
0.150 1.202 0.134 3293
0.150 1.202 0.130 4600
0.150 1.202 0.127 6148
0.150 1.202 0.123 9352
0.150 1.202 0.120 11140
0.150 1.202 0.117 12621
0.150 1.202 0.113 14095
0.150 1.202 0.110 14840
0.150 1.202 0.107 15096
0.150 1.202 0.103 14789
0.150 1.202 0.100 14034
0.150 1.201 0.096 12904
0.150 1.201 0.093 11288
0.150 1.201 0.090 9864
0.150 1.201 0.086 8263
0.150 1.201 0.083 6662
0.150 1.201 0.080 5214
0.150 1.200 0.076 3766
0.150 1.200 0.073 2698
0.149 1.200 0.069 1629
0.149 1.200 0.066 1050
0.150 1.207 0.062 480
0.151 1.215 0.058 376
0.152 1.223 0.054 277
0.151 1.215 0.051 350
0.151 1.214 0.048 433
0.150 1.206 0.045 451
0.149 1.198 0.042 481
0.150 1.206 0.038 434
0.150 1.205 0.035 389
0.131 1.049 0.046 418
0.131 1.048 0.043 361
0.131 1.048 0.040 280
0.283 2.221 1.727 2342
0.283 2.226 1.720 4685
0.284 2.231 1.714 4685
0.287 2.254 1.721 3735
0.289 2.272 1.724 3775
0.294 2.308 1.740 6760
0.295 2.319 1.738 10605
0.296 2.324 1.732 10605
0.297 2.335 1.729 11584
0.299 2.346 1.727 12833
0.300 2.357 1.725 9842
0.306 2.401 1.745 7344
0.301 2.366 1.711 8273
0.301 2.364 1.700 9819
0.301 2.362 1.689 9871
0.301 2.367 1.682 10015
0.302 2.371 1.675 9943
0.302 2.376 1.668 7770
0.310 2.439 1.700 8392
0.314 2.464 1.706 7172
0.315 2.475 1.703 6605
0.319 2.506 1.713 7092
0.319 2.510 1.706 8850
0.321 2.522 1.703 9079
0.324 2.546 1.708 9833
0.324 2.544 1.697 8874
0.323 2.542 1.685 8025
0.324 2.546 1.678 7388
0.324 2.544 1.667 6795
0.329 2.582 1.680 7996
0.329 2.586 1.672 9243
0.332 2.611 1.677 9149
0.336 2.643 1.686 10672
0.334 2.627 1.666 10672
0.337 2.652 1.670 10547
0.340 2.670 1.671 12635
0.341 2.681 1.667 12607
0.343 2.692 1.663 11741
0.343 2.696 1.655 9384
0.345 2.708 1.651 7055
0.345 2.712 1.644 7126
0.346 2.716 1.636 5924
0.347 2.727 1.632 4997
0.357 2.807 1.666 4258
0.357 2.805 1.654 5688
0.368 2.892 1.691 7205
0.369 2.897 1.683 10060
0.370 2.908 1.678 9639
0.368 2.892 1.659 7301
0.368 2.889 1.647 6285
0.369 2.900 1.642 6532
0.370 2.905 1.634 5116
0.386 3.035 1.691 3424
0.377 2.962 1.642 3261
0.386 3.030 1.666 5061
0.387 3.041 1.661 7018
0.388 3.045 1.652 6753
0.396 3.113 1.675 6679
0.398 3.125 1.669 7174
0.397 3.122 1.657 7871
0.396 3.112 1.641 7845
0.396 3.110 1.628 7314
0.400 3.142 1.633 9476
0.400 3.139 1.621 11656
0.403 3.165 1.622 9297
0.405 3.183 1.619 9866
0.406 3.188 1.610 9377
0.413 3.242 1.624 10570
0.415 3.260 1.621 11064
0.415 3.265 1.612 9685
0.427 3.355 1.641 10735
0.427 3.359 1.632 13146
0.429 3.371 1.625 11842
0.431 3.389 1.622 7964
0.432 3.394 1.612 6438
0.432 3.398 1.602 6115
0.433 3.402 1.592 4430
0.450 3.536 1.638 5853
0.451 3.548 1.631 10028
0.453 3.559 1.624 14119
0.454 3.571 1.617 14544
0.458 3.597 1.615 12305
0.459 3.608 1.608 8633
0.463 3.635 1.606 6020
0.465 3.653 1.602 7060
0.475 3.730 1.621 7558
0.475 3.735 1.610 8975
0.472 3.710 1.587 6943
0.474 3.729 1.582 5528
0.496 3.901 1.637 7401
0.494 3.884 1.617 9530
0.493 3.873 1.600 6827
0.492 3.863 1.584 5854
0.492 3.867 1.572 6376
0.514 4.040 1.624 7236
0.515 4.045 1.613 7744
0.514 4.042 1.598 6835
0.513 4.031 1.581 4709
0.539 4.235 1.641 5334
0.542 4.261 1.637 5609
0.544 4.273 1.627 5083
0.544 4.277 1.614 4208
0.551 4.334 1.620 4184
0.550 4.323 1.602 4264
0.553 4.342 1.595 6166
0.552 4.339 1.580 8213
0.556 4.365 1.574 6071
0.560 4.399 1.572 4471
0.582 4.575 1.615 5292
0.583 4.580 1.602 5378
0.584 4.591 1.591 4923
0.585 4.596 1.577 5735
0.584 4.592 1.562 6225
0.585 4.596 1.548 4097
0.594 4.668 1.556 4129
0.591 4.642 1.533 5730
0.592 4.654 1.522 5513
0.604 4.748 1.535 6387
0.605 4.752 1.521 4837
0.602 4.733 1.501 5027
0.605 4.752 1.491 3988
0.608 4.779 1.484 3874
0.662 5.199 1.587 4139
0.664 5.218 1.576 5032
0.665 5.222 1.561 5891
0.690 5.423 1.599 6272
0.692 5.435 1.586 6571
0.693 5.447 1.572 5080
0.678 5.330 1.524 4165
0.695 5.463 1.542 4180
0.694 5.452 1.522 5112
0.694 5.456 1.506 4119
0.726 5.703 1.551 5031
0.726 5.708 1.535 4344
0.724 5.689 1.512 3300
0.728 5.723 1.503 4701
0.730 5.735 1.488 5458
0.747 5.869 1.502 3391
0.762 5.987 1.511 2705
0.761 5.984 1.492 4222
0.761 5.980 1.473 4613
0.762 5.991 1.457 3910
0.762 5.988 1.438 2787
0.795 6.245 1.475 1632
0.809 6.356 1.480 1950
0.849 6.675 1.528 2410
0.851 6.687 1.510 3205
0.231 1.818 0.498 3344
0.232 1.827 0.495 4629
0.233 1.828 0.489 5472
0.233 1.829 0.484 5537
0.233 1.830 0.479 5423
0.234 1.838 0.475 4484
0.234 1.839 0.470 3196
0.931 7.312 1.462 2367
0.953 7.486 1.471 2918
0.958 7.528 1.456 3300
0.973 7.648 1.454 4145
0.975 7.660 1.433 3713
0.957 7.524 1.387 4359
0.958 7.528 1.365 3614
0.973 7.647 1.362 2798
0.976 7.666 1.342 4109
0.977 7.678 1.321 3905
1.059 8.318 1.395 4670
1.060 8.329 1.372 4716
1.060 8.333 1.347 3585
1.061 8.336 1.323 2318
1.097 8.620 1.338 1730
1.169 9.183 1.389 1800
1.169 9.187 1.362 1852
0.186 1.465 0.324 3025
0.185 1.458 0.319 3876
0.186 1.458 0.315 3529
0.186 1.459 0.311 2205
0.161 1.264 0.283 2785
0.160 1.257 0.279 6072
0.160 1.257 0.275 9405
0.160 1.257 0.272 10708
0.159 1.250 0.267 8946
0.159 1.250 0.264 6237
0.159 1.251 0.260 4087
0.160 1.259 0.258 4135
0.160 1.259 0.254 5347
0.160 1.260 0.251 4935
0.159 1.252 0.246 3495
0.158 1.245 0.242 2380
0.158 1.245 0.239 1769
1.538 12.088 1.106 1586
1.694 13.312 1.165 1401
1.694 13.315 1.126 1220
1.696 13.325 1.087 875
1.695 13.320 1.048 691
0.167 1.309 0.222 768
0.168 1.317 0.218 1533
0.169 1.325 0.215 2164
0.168 1.318 0.211 3560
0.169 1.326 0.208 6276
0.169 1.326 0.204 8674
0.169 1.326 0.200 10174
0.169 1.326 0.197 11808
0.169 1.326 0.193 12558
0.168 1.319 0.189 12545
0.169 1.327 0.185 11731
0.168 1.319 0.181 9733
0.168 1.319 0.178 7950
0.168 1.319 0.174 6677
0.168 1.319 0.170 5103
0.168 1.319 0.166 3809
0.168 1.319 0.163 3210
0.168 1.319 0.159 2532
0.168 1.319 0.155 1869
0.168 1.320 0.152 1439
0.169 1.327 0.148 922
0.297 2.333 0.148 663
0.152 1.194 0.140 936
0.153 1.202 0.137 1470
0.153 1.202 0.134 2637
0.153 1.202 0.130 3753
0.152 1.194 0.127 5127
0.153 1.202 0.123 7960
0.153 1.202 0.120 9564
0.153 1.202 0.117 10948
0.153 1.201 0.113 12311
0.153 1.201 0.110 13118
0.153 1.201 0.107 13553
0.153 1.201 0.103 13328
0.153 1.201 0.100 12522
0.153 1.201 0.096 11391
0.153 1.201 0.093 9695
0.153 1.201 0.090 8179
0.153 1.201 0.086 6591
0.153 1.200 0.083 5003
0.153 1.200 0.080 3726
0.153 1.200 0.076 2450
0.153 1.200 0.073 1678
0.153 1.200 0.069 907
0.153 1.199 0.066 563
0.134 1.050 0.061 302
0.134 1.049 0.058 358
0.133 1.049 0.055 312
0.133 1.049 0.052 266
0.133 1.049 0.049 307
0.133 1.048 0.046 348
0.133 1.048 0.043 284
0.289 2.188 1.704 3152
0.289 2.193 1.697 6305
0.290 2.197 1.691 6305
0.289 2.189 1.675 4130
0.301 2.283 1.733 3456
0.305 2.313 1.745 6578
0.307 2.324 1.743 10586
0.307 2.329 1.736 10586
0.308 2.334 1.729 11810
0.309 2.345 1.727 13166
0.310 2.349 1.720 9826
0.311 2.360 1.718 6680
0.311 2.358 1.707 7549
0.312 2.363 1.700 8614
0.312 2.367 1.693 9341
0.312 2.365 1.682 10091
0.313 2.370 1.675 10079
0.313 2.374 1.668 8014
0.324 2.458 1.713 7858
0.326 2.469 1.711 7139
0.326 2.473 1.703 6499
0.330 2.504 1.713 6116
0.332 2.516 1.710 7390
0.332 2.520 1.703 8681
0.336 2.545 1.708 10606
0.336 2.549 1.701 9086
0.339 2.567 1.702 7663
0.339 2.572 1.695 7274
0.340 2.576 1.687 6885
0.340 2.580 1.680 7819
0.341 2.585 1.672 8753
0.348 2.637 1.693 9316
0.349 2.648 1.690 11847
0.350 2.652 1.682 10640
0.351 2.663 1.678 11550
0.353 2.675 1.675 15294
0.354 2.686 1.671 16923
0.355 2.690 1.663 17193
0.355 2.695 1.655 14298
0.357 2.706 1.651 11460
0.358 2.710 1.644 10546
0.358 2.715 1.636 7675
0.360 2.726 1.632 5956
0.382 2.895 1.716 4119
0.377 2.858 1.684 5159
0.381 2.891 1.691 8066
0.382 2.895 1.683 11335
0.382 2.899 1.674 10330
0.380 2.883 1.655 7918
0.380 2.881 1.643 6942
0.381 2.892 1.638 7092
0.383 2.903 1.634 5667
0.383 2.900 1.622 3910
0.391 2.961 1.642 3022
0.399 3.028 1.666 4202
0.400 3.032 1.657 6071
0.401 3.044 1.652 5785
0.402 3.048 1.643 5546
0.403 3.052 1.634 5588
0.409 3.099 1.646 6458
0.409 3.103 1.637 7719
0.410 3.108 1.628 7011
0.412 3.126 1.626 8622
0.414 3.137 1.621 9588
0.418 3.170 1.625 7654
0.421 3.189 1.623 9570
0.422 3.200 1.617 9644
0.427 3.240 1.624 11302
0.430 3.258 1.621 12330
0.430 3.263 1.612 11166
0.442 3.353 1.641 11262
0.443 3.357 1.632 12769
0.444 3.369 1.625 10220
0.447 3.387 1.622 7898
0.447 3.392 1.612 7869
0.448 3.396 1.602 6759
0.449 3.407 1.595 5743
0.452 3.426 1.592 6652
0.469 3.553 1.634 9011
0.470 3.564 1.627 12509
0.472 3.576 1.620 13436
0.474 3.595 1.615 12218
0.476 3.606 1.608 8882
0.479 3.632 1.606 5694
0.483 3.658 1.605 6259
0.493 3.736 1.624 8878
0.493 3.740 1.613 10256
0.491 3.722 1.593 6827
0.493 3.741 1.588 5318
0.513 3.892 1.634 6471
0.513 3.889 1.620 8551
0.512 3.878 1.603 5973
0.508 3.853 1.581 5800
0.510 3.865 1.572 6229
0.534 4.045 1.627 6066
0.533 4.042 1.613 7958
0.532 4.032 1.595 7140
0.547 4.147 1.624 4917
0.559 4.240 1.644 5230
0.546 4.140 1.594 5905
0.564 4.278 1.629 5106
0.569 4.312 1.627 3405
0.572 4.339 1.623 4038
0.574 4.350 1.612 3535
0.573 4.347 1.597 5297
0.573 4.344 1.582 8953
0.575 4.355 1.572 7194
0.578 4.382 1.567 4766
0.604 4.580 1.617 4119
0.604 4.577 1.602 5160
0.604 4.581 1.588 5935
0.607 4.600 1.580 6726
0.607 4.604 1.566 5861
0.607 4.601 1.551 3471
0.614 4.658 1.553 4062
0.615 4.662 1.540 4602
0.624 4.734 1.547 7401
0.625 4.738 1.533 8921
0.625 4.742 1.519 6271
0.624 4.730 1.501 4896
0.646 4.900 1.535 4477
0.649 4.920 1.525 3225
0.685 5.196 1.587 3851
0.688 5.215 1.576 5590
0.688 5.219 1.561 6537
0.715 5.420 1.599 7822
0.717 5.432 1.586 8564
0.717 5.436 1.570 6516
0.716 5.425 1.550 4966
0.718 5.444 1.538 5551
0.719 5.448 1.522 6218
0.719 5.452 1.506 4782
0.751 5.692 1.549 2987
0.752 5.704 1.535 3097
0.752 5.701 1.516 3614
0.754 5.720 1.503 5128
0.756 5.731 1.488 4949
0.786 5.957 1.524 3648
0.788 5.976 1.510 3301
0.790 5.988 1.494 3972
0.788 5.976 1.473 4555
0.816 6.187 1.502 4835
0.817 6.191 1.484 3784
0.821 6.226 1.472 2497
0.828 6.276 1.464 2264
0.881 6.679 1.529 2681
0.882 6.683 1.510 3413
0.864 6.548 1.462 2633
0.898 6.806 1.494 2686
0.900 6.826 1.477 2524
0.884 6.698 1.431 2164
0.911 6.910 1.452 1928
0.911 6.906 1.430 2580
0.967 7.335 1.489 2735
0.964 7.308 1.462 2970
0.993 7.528 1.479 2679
1.008 7.640 1.476 3579
1.008 7.644 1.454 4160
1.010 7.655 1.433 3136
0.992 7.520 1.387 3645
0.992 7.523 1.365 2890
1.008 7.643 1.362 3445
1.011 7.662 1.342 5044
1.011 7.665 1.319 4526
1.097 8.313 1.395 2900
1.098 8.324 1.372 2846
1.098 8.328 1.347 2030
0.193 1.462 0.341 1886
0.193 1.462 0.337 1936
0.193 1.463 0.332 1599
1.211 9.181 1.362 1761
1.272 9.644 1.396 1707
0.193 1.464 0.320 2433
0.193 1.465 0.316 3387
0.167 1.263 0.287 3449
0.167 1.263 0.283 7409
0.166 1.256 0.279 10194
0.166 1.256 0.275 10356
0.166 1.257 0.272 7830
0.166 1.257 0.268 4837
0.166 1.257 0.265 3967
0.166 1.258 0.261 4501
0.165 1.250 0.257 4714
0.165 1.251 0.253 4235
0.164 1.243 0.249 3570
0.164 1.244 0.246 2960
0.164 1.244 0.242 2295
1.698 12.875 1.208 2101
1.593 12.080 1.106 1975
1.698 12.874 1.132 1674
1.699 12.884 1.094 1207
0.173 1.308 0.229 923
0.173 1.308 0.225 678
0.173 1.308 0.222 674
0.174 1.316 0.218 1289
0.174 1.317 0.215 1852
0.174 1.317 0.211 2705
0.174 1.317 0.207 3907
0.174 1.317 0.204 4288
0.174 1.317 0.200 4360
0.173 1.310 0.196 4223
0.173 1.310 0.192 4160
0.174 1.318 0.189 5035
0.175 1.326 0.185 6152
0.175 1.326 0.182 7569
0.175 1.326 0.178 9015
0.175 1.326 0.174 9340
0.175 1.326 0.170 8840
0.175 1.326 0.167 8042
0.175 1.326 0.163 7296
0.175 1.326 0.159 6030
0.175 1.327 0.155 4332
0.175 1.327 0.152 3278
0.175 1.327 0.148 2160
0.175 1.327 0.144 1284
0.176 1.334 0.140 832
0.310 2.347 0.134 561
0.157 1.193 0.134 602
0.158 1.201 0.130 906
0.157 1.193 0.127 1367
0.157 1.193 0.123 2314
0.158 1.201 0.120 2855
0.157 1.193 0.117 3446
0.157 1.193 0.113 4036
0.158 1.201 0.110 4425
0.158 1.201 0.107 4757
0.158 1.201 0.103 4767
0.158 1.200 0.100 4623
0.158 1.200 0.096 4303
0.158 1.200 0.093 3721
0.158 1.200 0.090 3205
0.157 1.192 0.087 2666
0.157 1.192 0.083 2136
0.157 1.192 0.080 1674
0.158 1.199 0.076 1232
0.158 1.199 0.073 897
0.157 1.191 0.070 563
0.157 1.191 0.067 412
0.157 1.191 0.063 261
0.295 2.187 1.704 3699
0.296 2.192 1.697 7399
0.297 2.196 1.691 7399
0.296 2.195 1.680 4882
0.307 2.276 1.729 3307
0.313 2.319 1.749 6492
0.314 2.323 1.743 10004
0.314 2.328 1.736 10004
0.315 2.333 1.729 11273
0.317 2.344 1.727 12636
0.317 2.348 1.720 9451
0.319 2.359 1.718 6396
0.318 2.357 1.707 6938
0.319 2.362 1.700 7608
0.320 2.367 1.693 8749
0.320 2.371 1.686 9889
0.320 2.369 1.675 9859
0.321 2.373 1.668 8120
0.334 2.470 1.722 7463
0.333 2.468 1.711 6418
0.334 2.472 1.703 5397
0.338 2.503 1.713 5468
0.339 2.508 1.706 6391
0.340 2.519 1.703 8314
0.343 2.537 1.704 10535
0.343 2.541 1.697 8840
0.345 2.553 1.694 7270
0.347 2.570 1.695 6710
0.348 2.575 1.687 6206
0.348 2.579 1.680 6862
0.349 2.584 1.672 7519
0.358 2.649 1.701 9499
0.358 2.653 1.694 12287
0.359 2.658 1.686 11084
0.361 2.669 1.682 12537
0.362 2.680 1.679 16723
0.363 2.685 1.671 19290
0.363 2.689 1.663 20115
0.364 2.694 1.655 16912
0.365 2.705 1.651 13802
0.366 2.709 1.644 12346
0.367 2.714 1.636 8643
0.368 2.725 1.632 6604
0.369 2.729 1.624 4282
0.386 2.857 1.684 5564
0.389 2.882 1.687 8593
0.390 2.887 1.679 11969
0.391 2.891 1.671 10760
0.389 2.882 1.655 8522
0.389 2.879 1.643 7569
0.390 2.891 1.638 7388
0.392 2.902 1.634 5812
0.392 2.899 1.622 4130
0.408 3.022 1.675 2929
0.409 3.027 1.666 4608
0.409 3.031 1.657 6526
0.411 3.042 1.652 6188
0.413 3.054 1.647 6934
0.413 3.058 1.638 7860
0.415 3.070 1.632 7876
0.417 3.088 1.630 7283
0.420 3.106 1.628 6392
0.421 3.118 1.623 7804
0.423 3.129 1.617 8065
0.435 3.218 1.649 6672
0.432 3.202 1.629 8861
0.433 3.206 1.620 8947
0.437 3.239 1.624 10589
0.439 3.250 1.618 12098
0.441 3.261 1.612 11117
0.453 3.351 1.641 9857
0.454 3.363 1.635 10735
0.455 3.367 1.625 8246
0.458 3.393 1.625 7279
0.458 3.390 1.612 7760
0.459 3.394 1.602 6617
0.462 3.420 1.602 6874
0.464 3.432 1.595 8421
0.480 3.551 1.634 8195
0.481 3.563 1.627 10454
0.484 3.582 1.623 11333
0.484 3.586 1.612 10738
0.486 3.598 1.605 8223
0.490 3.624 1.603 4998
0.499 3.693 1.620 5957
0.504 3.734 1.624 9317
0.506 3.746 1.616 9827
0.513 3.801 1.625 7417
0.512 3.791 1.608 5356
0.525 3.890 1.634 5195
0.526 3.894 1.623 6822
0.527 3.899 1.612 5295
0.519 3.844 1.578 5514
0.523 3.870 1.575 5684
0.547 4.051 1.630 5307
0.547 4.048 1.615 7385
0.554 4.104 1.622 6456
0.558 4.130 1.619 4555
0.559 4.135 1.606 4659
0.559 4.139 1.594 6874
0.562 4.158 1.588 4705
0.581 4.303 1.625 3312
0.586 4.337 1.623 3654
0.588 4.356 1.615 4926
0.589 4.360 1.602 8094
0.589 4.357 1.587 9966
0.588 4.354 1.572 7066
0.592 4.380 1.567 4096
0.592 4.384 1.554 3814
0.617 4.568 1.599 4691
0.619 4.579 1.588 5694
0.621 4.598 1.580 6460
0.622 4.603 1.566 5461
0.623 4.614 1.555 3376
0.633 4.686 1.563 4515
0.636 4.705 1.553 5824
0.639 4.732 1.547 8307
0.640 4.736 1.533 9287
0.639 4.732 1.517 6112
0.661 4.894 1.549 4484
0.663 4.906 1.537 5352
0.664 4.918 1.525 3909
0.702 5.194 1.587 2646
0.704 5.213 1.576 4594
0.705 5.217 1.561 5550
0.732 5.418 1.599 7976
0.735 5.437 1.588 10009
0.734 5.434 1.570 7764
0.734 5.430 1.552 6898
0.735 5.442 1.538 6867
0.736 5.446 1.522 5582
0.735 5.443 1.504 3413
0.770 5.698 1.551 2192
0.771 5.709 1.537 3355
0.771 5.706 1.518 3707
0.771 5.710 1.501 3989
0.785 5.813 1.508 4200
0.803 5.947 1.522 4068
0.803 5.943 1.503 3611
0.810 5.993 1.496 3386
0.836 6.188 1.521 5903
0.835 6.185 1.502 8122
0.836 6.189 1.484 6520
0.837 6.192 1.465 3555
0.849 6.288 1.467 2015
0.902 6.676 1.529 2355
0.902 6.680 1.510 2915
0.885 6.553 1.464 2817
0.916 6.780 1.489 3037
0.922 6.823 1.477 2935
0.928 6.873 1.466 2348
0.930 6.884 1.447 1846
0.951 7.042 1.456 2280
0.990 7.332 1.489 2968
0.987 7.305 1.462 3199
0.988 7.316 1.442 2305
1.032 7.637 1.476 3437
1.032 7.640 1.454 3714
1.034 7.652 1.433 2538
1.016 7.524 1.388 3056
1.016 7.520 1.365 2137
1.032 7.640 1.362 3350
1.035 7.659 1.342 4885
1.035 7.662 1.319 4215
1.100 8.147 1.370 2795
1.099 8.135 1.344 2468
1.097 8.122 1.318 2185
0.198 1.469 0.342 2227
0.197 1.462 0.337 2907
0.198 1.462 0.332 2836
0.198 1.463 0.328 2648
0.198 1.463 0.324 2765
0.197 1.456 0.319 2440
0.196 1.449 0.314 2337
0.197 1.457 0.311 2393
0.198 1.465 0.307 1913
0.171 1.263 0.280 3034
0.171 1.264 0.276 4635
0.171 1.264 0.273 5610
0.171 1.264 0.269 5140
0.170 1.257 0.265 4310
0.169 1.249 0.260 3361
0.170 1.258 0.258 2644
0.170 1.258 0.254 3099
0.170 1.258 0.251 3548
0.169 1.251 0.246 3152
0.169 1.251 0.243 2296
1.739 12.870 1.208 2230
1.738 12.865 1.169 1987
1.738 12.868 1.132 1839
1.740 12.879 1.094 1378
0.176 1.299 0.228 767
0.176 1.300 0.225 736
0.176 1.300 0.221 578
0.177 1.308 0.218 665
0.234 1.731 0.240 1430
0.234 1.731 0.235 1923
0.233 1.724 0.229 2023
0.233 1.724 0.224 1687
0.178 1.317 0.200 1692
0.179 1.325 0.197 3171
0.179 1.325 0.193 6099
0.179 1.325 0.189 8501
0.179 1.325 0.185 9922
0.179 1.325 0.182 11307
0.179 1.326 0.178 12390
0.179 1.326 0.174 12342
0.179 1.326 0.170 11243
0.179 1.326 0.167 9671
0.179 1.326 0.163 8521
0.179 1.326 0.159 6929
0.179 1.326 0.155 4898
0.179 1.326 0.152 3723
0.180 1.334 0.148 2562
0.179 1.326 0.144 1631
0.180 1.334 0.140 1150
0.315 2.330 0.134 786
0.315 2.330 0.128 681
0.315 2.330 0.121 470
0.284 2.103 0.117 524
0.284 2.103 0.111 592
0.285 2.110 0.105 656
0.285 2.110 0.098 647
0.162 1.200 0.113 738
0.162 1.200 0.110 866
0.162 1.200 0.107 930
0.161 1.192 0.103 900
0.161 1.192 0.100 846
0.161 1.192 0.097 728
0.161 1.192 0.093 720
0.161 1.192 0.090 733
0.162 1.199 0.086 741
0.162 1.199 0.083 752
0.162 1.199 0.080 615
0.163 1.207 0.076 480
0.163 1.206 0.072 314
0.304 2.199 1.713 4140
0.305 2.204 1.706 8280
0.306 2.208 1.700 8280
0.309 2.232 1.708 5931
0.310 2.243 1.706 4026
0.321 2.318 1.749 6264
0.322 2.329 1.747 8915
0.323 2.333 1.741 8915
0.324 2.338 1.734 10180
0.324 2.343 1.727 11445
0.325 2.347 1.720 8781
0.326 2.358 1.718 6285
0.327 2.363 1.711 6646
0.328 2.367 1.704 7007
0.327 2.365 1.693 8471
0.328 2.370 1.686 9962
0.328 2.368 1.675 9924
0.328 2.372 1.668 8494
0.343 2.475 1.726 7445
0.344 2.487 1.723 6100
0.346 2.498 1.721 4914
0.346 2.502 1.713 5585
0.346 2.500 1.702 6323
0.348 2.511 1.699 8095
0.349 2.522 1.696 10060
0.352 2.540 1.697 8380
0.352 2.545 1.690 7013
0.356 2.569 1.695 5814
0.357 2.580 1.691 5337
0.358 2.585 1.684 5767
0.365 2.636 1.705 6577
0.367 2.654 1.705 9668
0.369 2.666 1.702 12895
0.370 2.670 1.694 12277
0.370 2.675 1.686 13743
0.371 2.679 1.679 17616
0.372 2.690 1.675 20756
0.373 2.695 1.667 22008
0.374 2.699 1.659 18688
0.374 2.704 1.651 15369
