0.575 2.029 0.370 3265
0.575 2.030 0.364 4541
0.575 2.030 0.358 5243
0.578 2.039 0.352 5036
0.578 2.039 0.346 4516
0.576 2.032 0.340 3981
0.576 2.033 0.334 3045
2.908 10.263 1.110 2462
2.904 10.251 1.077 2851
2.907 10.261 1.047 3280
2.869 10.127 1.004 5605
2.872 10.137 0.974 6314
2.870 10.132 0.943 5255
2.867 10.119 0.911 4372
2.869 10.128 0.881 3326
2.838 10.016 0.843 3176
2.840 10.026 0.813 4138
2.845 10.043 0.784 5558
2.846 10.045 0.753 6017
2.846 10.046 0.723 5182
2.847 10.048 0.693 3909
2.845 10.042 0.662 3524
2.852 10.066 0.633 3170
2.854 10.075 0.603 3008
2.835 10.008 0.569 2826
2.846 10.047 0.541 3198
2.844 10.041 0.510 2846
2.840 10.026 0.479 2218
2.839 10.020 0.449 1684
2.832 9.998 0.418 1112
2.828 9.983 0.387 978
2.831 9.991 0.357 819
2.833 10.000 0.327 671
2.835 10.008 0.297 451
1.526 5.385 0.208 355
1.526 5.385 0.192 444
1.523 5.378 0.175 533
1.526 5.385 0.159 625
1.526 5.385 0.143 718
1.526 5.385 0.127 722
1.523 5.378 0.111 744
1.523 5.378 0.095 766
1.523 5.377 0.078 644
1.519 5.362 0.063 532
1.519 5.362 0.046 535
1.517 5.354 0.030 541
1.514 5.346 0.015 437
1.506 5.315 -0.001 360
1.510 5.330 -0.017 341
1.510 5.329 -0.033 334
1.510 5.329 -0.049 257
1.147 4.050 -0.016 266
1.145 4.042 -0.027 303
1.145 4.041 -0.039 339
1.145 4.041 -0.052 336
0.698 2.465 0.017 347
0.700 2.472 0.009 495
0.700 2.472 0.002 646
0.702 2.479 -0.006 767
0.702 2.479 -0.014 903
0.702 2.478 -0.021 891
0.702 2.478 -0.028 878
0.702 2.477 -0.036 711
0.704 2.485 -0.044 548
0.704 2.484 -0.051 396
1.725 6.090 -0.352 279
0.877 3.096 -0.136 331
0.875 3.088 -0.145 425
0.875 3.087 -0.154 433
0.874 3.086 -0.163 442
0.874 3.085 -0.172 344
0.615 2.113 1.699 3863
0.616 2.118 1.693 7726
0.618 2.122 1.686 7726
0.642 2.207 1.740 7967
0.644 2.211 1.733 9896
0.647 2.222 1.731 13439
0.648 2.226 1.725 17021
0.649 2.231 1.718 17021
0.652 2.241 1.716 19348
0.654 2.246 1.709 21721
0.655 2.250 1.703 18020
0.654 2.248 1.691 14400
0.663 2.278 1.702 13134
0.670 2.301 1.709 15311
0.675 2.318 1.711 13371
0.678 2.329 1.708 12208
0.679 2.333 1.701 12087
0.688 2.363 1.712 8735
0.693 2.380 1.713 9863
0.696 2.391 1.711 10425
0.697 2.395 1.703 11295
0.697 2.393 1.692 9278
0.696 2.391 1.681 7749
0.729 2.505 1.745 6975
0.730 2.510 1.738 7241
0.726 2.495 1.718 7520
0.725 2.493 1.706 8589
0.725 2.490 1.695 7891
0.720 2.475 1.675 8041
0.725 2.493 1.676 9226
0.727 2.497 1.668 10841
0.730 2.508 1.665 9574
0.733 2.519 1.661 8327
0.732 2.516 1.650 5939
0.791 2.717 1.762 5518
0.792 2.722 1.754 5342
0.792 2.720 1.742 7251
0.793 2.724 1.734 9504
0.796 2.735 1.730 11206
0.799 2.746 1.726 13515
0.799 2.744 1.713 15097
0.800 2.749 1.705 17057
0.799 2.746 1.693 17406
0.803 2.757 1.689 17478
0.808 2.775 1.688 18716
0.807 2.773 1.676 14494
0.834 2.864 1.717 11423
0.833 2.862 1.704 9304
0.811 2.785 1.651 7301
0.812 2.790 1.643 7220
0.846 2.908 1.697 8340
0.848 2.913 1.688 9660
0.847 2.910 1.676 8633
0.848 2.915 1.667 7439
0.853 2.932 1.666 7519
0.857 2.943 1.661 9190
0.862 2.961 1.659 7236
0.889 3.054 1.696 7683
0.892 3.065 1.690 9589
0.893 3.070 1.681 9230
0.924 3.176 1.724 10543
0.926 3.181 1.714 15357
0.929 3.192 1.708 15813
0.930 3.196 1.699 16350
0.932 3.201 1.689 20838
0.935 3.212 1.683 25778
0.936 3.216 1.673 26340
0.939 3.227 1.667 22392
0.941 3.232 1.657 19991
0.942 3.236 1.648 22278
0.941 3.233 1.635 19658
0.942 3.237 1.625 15164
0.945 3.249 1.619 10250
1.009 3.468 1.708 5994
1.011 3.473 1.698 7302
1.010 3.470 1.684 7189
1.011 3.474 1.674 8075
1.010 3.472 1.660 7715
1.032 3.546 1.681 7989
1.033 3.550 1.670 8791
1.032 3.547 1.656 5984
1.034 3.552 1.646 4949
1.035 3.556 1.635 5871
1.071 3.680 1.675 6539
1.072 3.684 1.664 7321
1.067 3.667 1.644 11599
1.069 3.671 1.633 17507
1.068 3.669 1.619 15549
1.071 3.680 1.611 10773
1.070 3.677 1.597 8969
1.071 3.681 1.586 8384
1.072 3.685 1.575 5872
1.134 3.895 1.645 5181
1.137 3.907 1.636 4897
1.140 3.918 1.627 5783
1.139 3.915 1.613 6316
1.143 3.926 1.603 4443
1.163 3.995 1.616 6366
1.166 4.006 1.606 5937
1.198 4.117 1.634 8839
1.204 4.136 1.627 7484
1.207 4.147 1.617 5009
1.242 4.266 1.646 3940
1.253 4.307 1.646 3276
1.259 4.325 1.638 4456
1.258 4.322 1.622 4861
1.257 4.319 1.607 4045
1.265 4.345 1.601 3835
1.268 4.356 1.591 3998
1.267 4.353 1.575 3698
1.300 4.466 1.598 3533
1.326 4.557 1.613 3339
1.323 4.546 1.594 2967
1.335 4.587 1.592 2874
1.330 4.569 1.572 3198
1.359 4.668 1.588 4499
1.366 4.694 1.580 4820
1.374 4.719 1.573 3811
1.409 4.840 1.594 3028
1.414 4.859 1.584 2704
1.415 4.863 1.570 2287
1.470 5.050 1.609 2233
1.482 5.090 1.604 2502
1.485 5.102 1.591 2958
1.458 5.011 1.548 4776
1.459 5.015 1.533 3777
1.561 5.364 1.614 4695
1.562 5.368 1.598 5912
1.561 5.364 1.580 7993
1.565 5.376 1.566 7049
1.596 5.483 1.577 5060
1.597 5.487 1.560 5957
1.594 5.476 1.540 4919
1.640 5.635 1.563 4721
1.603 5.506 1.512 4040
1.647 5.658 1.533 4976
1.648 5.662 1.516 8250
1.649 5.665 1.498 7087
1.650 5.669 1.481 3883
1.655 5.688 1.468 2750
1.732 5.951 1.511 2303
1.733 5.955 1.493 3110
1.732 5.951 1.473 2566
1.727 5.933 1.451 2258
1.726 5.929 1.431 1881
1.967 6.759 1.592 1926
1.970 6.770 1.573 2881
1.972 6.774 1.553 3196
1.968 6.763 1.529 3797
1.972 6.774 1.510 4310
2.047 7.032 1.541 4560
2.048 7.036 1.520 5167
2.045 7.025 1.496 4966
2.046 7.029 1.474 4718
2.047 7.032 1.453 3188
2.183 7.500 1.518 4612
2.182 7.496 1.494 5517
2.181 7.493 1.470 3910
2.184 7.504 1.448 2718
2.187 7.515 1.427 3250
2.188 7.519 1.404 2496
2.421 8.318 1.514 1604
2.424 8.329 1.490 1432
2.430 8.348 1.467 1300
2.748 9.441 1.613 1664
2.747 9.438 1.583 2811
2.750 9.449 1.556 3740
2.756 9.468 1.530 3527
2.759 9.480 1.502 3281
2.756 9.469 1.471 2843
2.753 9.457 1.441 2483
3.056 10.501 1.553 2128
2.996 10.294 1.493 2157
3.127 10.743 1.519 2417
3.060 10.513 1.457 2775
3.127 10.743 1.453 2814
3.128 10.746 1.421 2536
0.589 2.025 0.370 2100
0.590 2.026 0.364 2622
0.590 2.026 0.358 2734
0.590 2.027 0.352 2492
0.590 2.027 0.346 2252
0.590 2.028 0.340 2057
0.590 2.029 0.334 1708
2.981 10.242 1.110 1552
2.977 10.230 1.077 1731
2.938 10.096 1.034 2069
2.941 10.106 1.004 3123
2.944 10.116 0.974 3287
2.941 10.103 0.943 2967
2.937 10.090 0.911 3114
2.937 10.092 0.880 2462
2.914 10.011 0.844 2813
2.914 10.013 0.814 3924
2.915 10.015 0.783 5469
2.913 10.009 0.753 5926
2.916 10.018 0.723 5092
2.918 10.027 0.693 3630
2.928 10.059 0.664 3311
2.928 10.061 0.634 3491
2.929 10.062 0.603 3091
2.905 9.980 0.569 2631
2.923 10.042 0.541 2695
2.919 10.028 0.510 2627
2.908 9.991 0.479 2609
2.904 9.976 0.448 2415
2.904 9.977 0.418 2294
2.904 9.978 0.388 2361
2.906 9.986 0.358 1680
2.909 9.994 0.328 1059
2.909 9.995 0.297 800
2.909 9.995 0.267 468
2.905 9.980 0.237 404
1.562 5.367 0.175 331
1.564 5.374 0.159 369
1.564 5.374 0.143 413
1.562 5.367 0.127 477
1.562 5.367 0.111 508
1.566 5.382 0.094 469
1.560 5.359 0.079 504
1.557 5.351 0.063 554
1.555 5.343 0.047 456
1.546 5.312 0.031 373
1.551 5.327 0.015 366
1.550 5.327 -0.001 371
1.548 5.319 -0.017 292
1.176 4.042 -0.003 307
1.176 4.041 -0.016 377
1.174 4.033 -0.027 409
1.174 4.033 -0.039 447
0.721 2.476 0.023 468
0.718 2.468 0.016 625
0.718 2.467 0.009 680
0.718 2.467 0.002 735
0.718 2.467 -0.006 736
0.716 2.459 -0.013 738
0.718 2.466 -0.020 857
0.720 2.473 -0.028 979
0.720 2.472 -0.036 1031
0.722 2.479 -0.044 1094
0.721 2.479 -0.051 977
0.724 2.486 -0.059 862
0.721 2.478 -0.066 641
0.717 2.462 -0.072 429
0.719 2.469 -0.080 443
0.721 2.476 -0.088 463
0.720 2.475 -0.095 463
0.720 2.475 -0.103 397
0.720 2.474 -0.110 332
0.623 2.118 1.704 3684
0.624 2.122 1.697 7369
0.626 2.126 1.691 7369
0.649 2.205 1.740 8277
0.650 2.209 1.733 10007
0.653 2.220 1.731 12889
0.655 2.224 1.725 15960
0.656 2.229 1.718 15960
0.659 2.239 1.716 17749
0.660 2.244 1.709 19594
0.663 2.254 1.707 15679
0.667 2.265 1.705 11956
0.672 2.282 1.707 12597
0.677 2.299 1.709 15025
0.682 2.316 1.711 12898
0.685 2.327 1.708 11504
0.684 2.325 1.697 11440
0.697 2.367 1.716 7875
0.700 2.378 1.713 9038
0.703 2.389 1.711 9573
0.704 2.393 1.703 10200
0.704 2.391 1.692 8367
0.737 2.505 1.757 7043
0.738 2.509 1.749 6729
0.743 2.527 1.750 6482
0.735 2.499 1.722 7043
0.733 2.490 1.706 8365
0.734 2.495 1.699 7550
0.730 2.480 1.679 7034
0.733 2.490 1.676 8074
0.734 2.495 1.668 9144
0.737 2.506 1.665 8143
0.740 2.516 1.661 7337
0.796 2.704 1.766 5367
0.799 2.715 1.762 6030
0.802 2.726 1.758 6078
0.802 2.724 1.746 7904
0.803 2.729 1.738 9746
0.804 2.733 1.730 12830
0.807 2.744 1.726 16001
0.807 2.742 1.713 17073
0.808 2.746 1.705 18233
0.807 2.744 1.693 17843
0.811 2.755 1.689 17087
0.814 2.766 1.684 17512
0.815 2.770 1.676 13261
0.840 2.855 1.713 10706
0.818 2.779 1.660 9701
0.819 2.783 1.651 10462
0.820 2.787 1.643 10532
0.855 2.906 1.697 9134
0.856 2.910 1.688 9682
0.856 2.908 1.676 8610
0.857 2.912 1.667 8193
0.864 2.937 1.669 9982
0.865 2.941 1.661 12063
0.871 2.959 1.659 9424
0.900 3.058 1.699 8402
0.901 3.063 1.690 10441
0.902 3.067 1.681 10114
0.936 3.180 1.727 12530
0.937 3.185 1.718 17970
0.940 3.196 1.712 18138
0.942 3.201 1.702 19058
0.943 3.205 1.693 23994
0.944 3.209 1.683 28618
0.946 3.214 1.673 29681
0.949 3.225 1.667 26141
0.950 3.229 1.657 23127
0.951 3.233 1.648 25091
0.951 3.231 1.635 22493
0.952 3.235 1.625 17623
0.955 3.246 1.619 12007
0.954 3.243 1.606 7129
1.021 3.470 1.698 8373
1.020 3.467 1.684 8261
1.021 3.471 1.674 9027
1.021 3.469 1.660 7961
1.045 3.550 1.684 7454
1.048 3.561 1.676 7145
1.055 3.586 1.675 5956
1.055 3.584 1.661 4861
1.048 3.560 1.638 4152
1.086 3.691 1.681 4815
1.079 3.667 1.658 6429
1.078 3.664 1.644 11666
1.079 3.668 1.633 15901
1.079 3.665 1.619 14408
1.082 3.677 1.611 11108
1.081 3.674 1.597 10219
1.082 3.678 1.586 9503
1.098 3.731 1.595 6783
1.145 3.892 1.645 5907
1.149 3.903 1.636 4809
1.152 3.914 1.627 5617
1.151 3.911 1.613 6531
1.152 3.916 1.601 4593
1.172 3.984 1.613 5125
1.174 3.988 1.601 5070
1.211 4.114 1.634 8086
1.216 4.132 1.627 6885
1.219 4.144 1.617 4666
1.250 4.248 1.641 5445
1.251 4.253 1.628 3741
1.276 4.336 1.643 3310
1.279 4.347 1.632 4033
1.278 4.344 1.617 4909
1.280 4.348 1.604 5405
1.315 4.468 1.630 4917
1.307 4.443 1.606 5685
1.309 4.447 1.593 4854
1.314 4.466 1.584 3460
1.343 4.564 1.602 3834
1.344 4.568 1.588 3812
1.345 4.572 1.574 3354
1.372 4.664 1.588 3756
1.378 4.682 1.578 3808
1.418 4.817 1.604 3558
1.421 4.829 1.592 3405
1.469 4.993 1.626 2370
1.471 4.997 1.611 3358
1.480 5.031 1.604 2638
1.488 5.057 1.596 2764
1.474 5.010 1.566 3893
1.473 5.006 1.548 7536
1.472 5.003 1.531 6646
1.579 5.366 1.616 4599
1.576 5.356 1.596 6703
1.577 5.360 1.580 8090
1.583 5.379 1.568 6470
1.588 5.397 1.555 5009
1.615 5.490 1.562 4073
1.610 5.471 1.540 3650
1.611 5.475 1.523 3524
1.617 5.494 1.511 3965
1.663 5.653 1.533 4089
1.665 5.657 1.516 6711
1.666 5.661 1.498 5573
1.728 5.872 1.531 4470
1.731 5.883 1.515 3287
1.745 5.931 1.508 3668
1.749 5.942 1.491 3908
1.748 5.939 1.472 3383
1.746 5.935 1.452 2555
1.914 6.503 1.559 2145
1.917 6.515 1.540 1844
1.990 6.764 1.573 2734
1.994 6.776 1.554 3097
1.929 6.556 1.488 3566
1.933 6.567 1.469 3948
2.070 7.033 1.542 4045
2.069 7.030 1.520 4406
2.068 7.026 1.497 4253
2.069 7.030 1.476 4348
2.208 7.505 1.543 3293
2.205 7.494 1.518 4629
2.204 7.490 1.494 5507
2.203 7.486 1.470 3545
2.204 7.490 1.447 2393
2.207 7.501 1.426 3159
2.210 7.512 1.404 2565
2.443 8.303 1.513 1631
2.449 8.322 1.490 1341
2.463 8.371 1.472 1429
2.778 9.441 1.614 1680
2.777 9.437 1.585 2709
2.778 9.441 1.556 3563
2.784 9.460 1.530 3431
2.785 9.464 1.501 3227
2.784 9.460 1.471 2819
2.783 9.457 1.442 2583
3.085 10.484 1.552 2352
3.086 10.488 1.520 2288
3.090 10.500 1.489 2482
3.088 10.496 1.456 3185
3.090 10.500 1.424 2874
3.384 11.499 1.512 2722
3.389 11.518 1.479 2400
3.393 11.529 1.445 1922
3.394 11.533 1.410 1619
0.598 2.033 0.352 1333
0.598 2.033 0.346 1292
0.598 2.034 0.340 1215
0.601 2.042 0.335 1089
0.601 2.042 0.329 923
3.008 10.221 1.077 820
2.962 10.065 1.032 1540
2.967 10.082 1.003 1986
2.974 10.107 0.974 2129
2.973 10.102 0.943 2126
2.967 10.081 0.911 2189
2.943 10.000 0.874 3070
2.941 9.995 0.843 3401
2.944 10.004 0.814 4058
2.940 9.991 0.782 4304
2.938 9.985 0.752 4376
2.939 9.987 0.721 3959
2.941 9.996 0.692 3165
2.937 9.982 0.660 2784
2.933 9.969 0.629 3243
2.934 9.970 0.599 3592
2.936 9.979 0.569 3286
2.937 9.980 0.539 3378
2.930 9.958 0.508 3729
2.931 9.959 0.478 4125
2.931 9.960 0.448 3514
2.931 9.961 0.418 2552
2.931 9.962 0.388 2200
2.934 9.970 0.358 1538
2.936 9.978 0.327 901
2.934 9.971 0.297 867
2.927 9.949 0.267 680
2.921 9.926 0.236 506
2.919 9.919 0.206 312
1.580 5.370 0.143 254
1.448 4.922 0.128 299
1.448 4.922 0.113 407
1.448 4.921 0.098 498
1.448 4.921 0.084 589
1.446 4.914 0.069 598
1.446 4.913 0.054 548
1.446 4.913 0.039 499
1.446 4.913 0.024 454
1.446 4.912 0.010 409
1.445 4.912 -0.005 344
1.445 4.912 -0.020 280
1.793 6.094 -0.114 290
1.183 4.022 -0.039 325
1.183 4.021 -0.051 336
1.183 4.021 -0.063 348
0.725 2.465 0.009 410
0.725 2.465 0.002 525
0.727 2.472 -0.006 564
0.727 2.472 -0.014 607
0.727 2.471 -0.021 497
0.729 2.478 -0.029 389
0.731 2.485 -0.037 461
0.733 2.492 -0.045 552
0.733 2.492 -0.052 647
0.733 2.491 -0.060 742
0.733 2.491 -0.067 612
0.731 2.483 -0.074 497
0.728 2.474 -0.081 342
0.632 2.115 1.704 3659
0.633 2.119 1.697 7319
0.634 2.124 1.691 7319
0.656 2.196 1.735 8285
0.659 2.207 1.733 9554
0.662 2.217 1.731 11614
0.663 2.222 1.725 13963
0.665 2.226 1.718 13963
0.668 2.237 1.716 15110
0.671 2.247 1.714 16574
0.674 2.258 1.711 13262
0.677 2.269 1.709 10422
0.683 2.286 1.711 11811
0.686 2.296 1.709 14088
0.689 2.307 1.706 12003
0.692 2.318 1.704 10553
0.693 2.322 1.697 10509
0.708 2.371 1.720 6887
0.711 2.382 1.718 8107
0.713 2.386 1.711 8206
0.714 2.391 1.703 8305
0.713 2.389 1.692 6808
0.747 2.502 1.757 7335
0.748 2.506 1.749 6775
0.752 2.517 1.746 6296
0.745 2.496 1.722 6840
0.745 2.494 1.710 8116
0.746 2.498 1.703 7218
0.743 2.490 1.687 6532
0.745 2.494 1.680 6981
0.746 2.498 1.672 7431
0.747 2.503 1.665 6676
0.752 2.520 1.665 6160
0.775 2.596 1.702 5440
0.810 2.712 1.762 6157
0.813 2.723 1.758 6315
0.812 2.721 1.746 7825
0.814 2.725 1.738 9265
0.815 2.730 1.730 13182
0.816 2.734 1.722 17100
0.818 2.739 1.713 17559
0.819 2.743 1.705 18018
0.820 2.747 1.697 16989
0.822 2.752 1.689 14928
0.825 2.763 1.684 14425
0.826 2.767 1.676 10983
0.851 2.851 1.713 9237
0.829 2.776 1.660 10271
0.832 2.786 1.655 12975
0.831 2.784 1.643 12926
0.835 2.795 1.638 10609
0.868 2.907 1.688 9210
0.867 2.904 1.676 8245
0.869 2.909 1.667 8321
0.876 2.933 1.669 11218
0.877 2.937 1.661 13460
0.880 2.948 1.655 10547
0.912 3.055 1.699 8799
0.913 3.059 1.690 11088
0.917 3.070 1.685 10975
0.951 3.183 1.731 13370
0.952 3.188 1.721 19034
0.953 3.192 1.712 19229
0.955 3.197 1.702 19772
0.956 3.201 1.693 23907
0.957 3.205 1.683 27694
0.958 3.210 1.673 29526
0.960 3.214 1.664 27214
0.961 3.218 1.654 23851
0.964 3.229 1.648 25101
0.963 3.227 1.635 22551
0.965 3.231 1.625 17679
0.966 3.235 1.615 12208
0.967 3.239 1.606 7593
1.035 3.466 1.698 8623
1.036 3.470 1.687 8695
1.035 3.467 1.674 9410
1.035 3.465 1.660 7655
1.057 3.539 1.681 6042
1.066 3.571 1.682 6862
1.072 3.589 1.678 7477
1.073 3.594 1.667 6824
1.083 3.626 1.668 5603
1.097 3.672 1.675 5265
1.094 3.663 1.658 7228
1.093 3.660 1.644 11426
1.092 3.657 1.630 12553
1.093 3.661 1.619 10823
1.097 3.672 1.611 9442
1.096 3.669 1.597 9736
1.097 3.673 1.586 9247
1.113 3.727 1.595 7355
1.161 3.887 1.645 6455
1.162 3.891 1.633 4504
1.165 3.903 1.624 5166
1.167 3.907 1.613 6549
1.170 3.918 1.603 4694
1.184 3.965 1.608 4948
1.185 3.969 1.596 4557
1.227 4.109 1.634 6774
1.232 4.128 1.627 6119
1.268 4.246 1.656 4992
1.267 4.243 1.641 6585
1.273 4.262 1.633 4172
1.302 4.360 1.653 3610
1.303 4.364 1.640 3782
1.326 4.440 1.651 5588
1.329 4.451 1.641 6476
1.328 4.448 1.625 6667
1.325 4.438 1.606 7534
1.326 4.442 1.593 6130
1.330 4.453 1.582 4000
1.359 4.552 1.599 4764
1.363 4.563 1.588 4459
1.364 4.567 1.574 3970
1.421 4.760 1.620 4086
1.427 4.778 1.610 3057
1.437 4.812 1.604 3910
1.436 4.808 1.588 3702
1.487 4.980 1.624 2828
1.488 4.984 1.609 3969
1.494 5.003 1.598 2656
1.506 5.044 1.593 2702
1.494 5.004 1.566 4123
1.493 5.000 1.548 7702
1.492 4.997 1.531 8447
1.491 4.993 1.514 6300
1.600 5.357 1.598 5974
1.601 5.361 1.582 6521
1.604 5.372 1.568 4981
1.603 5.369 1.549 4308
1.600 5.358 1.529 3142
1.671 5.597 1.574 3178
1.633 5.469 1.523 3616
1.636 5.480 1.509 4144
1.686 5.646 1.533 2969
1.687 5.650 1.516 4692
1.748 5.853 1.547 5324
1.749 5.857 1.529 4723
1.757 5.883 1.517 4077
1.767 5.917 1.506 4821
1.770 5.928 1.490 4223
1.771 5.932 1.472 3829
1.770 5.928 1.452 2856
1.940 6.496 1.559 2658
1.943 6.507 1.540 2583
1.978 6.623 1.545 2247
2.021 6.768 1.554 2520
1.958 6.556 1.489 3996
1.959 6.560 1.469 5195
1.960 6.563 1.449 4227
2.041 6.835 1.483 4210
2.040 6.832 1.461 4247
2.097 7.022 1.476 3839
2.243 7.511 1.546 3043
2.235 7.485 1.518 4056
2.234 7.481 1.494 4693
2.271 7.604 1.493 3551
2.276 7.623 1.472 2847
2.235 7.485 1.424 2641
2.240 7.503 1.404 2253
2.476 8.293 1.513 1546
2.627 8.799 1.570 1415
2.635 8.826 1.547 1774
2.816 9.430 1.614 1411
2.815 9.426 1.585 2191
2.816 9.430 1.556 2871
2.822 9.449 1.530 2850
2.823 9.453 1.501 2711
2.822 9.449 1.471 2312
2.820 9.445 1.442 2180
3.127 10.472 1.552 2172
3.128 10.476 1.520 2366
3.078 10.307 1.466 2752
3.130 10.483 1.456 3316
3.131 10.487 1.424 2869
3.430 11.485 1.512 3251
3.435 11.504 1.479 2859
3.439 11.516 1.445 2181
3.440 11.519 1.410 1793
3.438 11.515 1.374 1365
3.435 11.503 1.338 1074
3.438 11.514 1.304 1123
3.444 11.533 1.270 961
0.607 2.033 0.328 807
0.607 2.033 0.322 768
3.000 10.045 1.032 1017
3.005 10.063 1.002 1021
3.015 10.095 0.974 1032
3.013 10.090 0.943 1276
3.002 10.054 0.910 1771
2.983 9.988 0.874 3165
2.983 9.990 0.844 4234
2.984 9.992 0.814 4677
2.984 9.994 0.783 4048
2.974 9.958 0.751 3309
2.983 9.990 0.722 3153
2.986 9.999 0.692 2887
2.986 10.001 0.662 2476
2.987 10.002 0.632 2470
2.985 9.996 0.601 3161
2.983 9.990 0.570 3883
2.976 9.968 0.539 3164
2.965 9.931 0.508 3865
2.968 9.940 0.478 3941
2.971 9.948 0.448 3291
2.975 9.964 0.418 2454
2.976 9.965 0.388 1784
2.974 9.958 0.358 1365
2.965 9.928 0.327 1157
2.965 9.929 0.297 1171
2.963 9.922 0.266 785
2.960 9.914 0.236 410
2.942 9.854 0.206 302
2.940 9.846 0.176 269
1.468 4.916 0.143 353
1.466 4.908 0.128 472
1.466 4.908 0.113 594
1.466 4.908 0.098 655
1.466 4.908 0.084 688
1.465 4.908 0.069 661
1.465 4.907 0.054 600
1.465 4.907 0.039 540
1.465 4.907 0.024 479
1.465 4.907 0.010 418
1.465 4.906 -0.005 334
1.832 6.134 -0.060 273
1.831 6.133 -0.079 272
1.815 6.078 -0.150 259
1.396 4.675 -0.097 266
0.740 2.477 0.008 288
0.740 2.477 0.001 356
0.742 2.484 -0.007 301
1.811 6.065 -0.242 251
0.742 2.483 -0.022 271
0.741 2.483 -0.029 291
0.741 2.482 -0.037 280
0.739 2.474 -0.044 270
0.741 2.481 -0.052 250
0.741 2.480 -0.066 305
0.740 2.480 -0.074 378
0.740 2.479 -0.081 368
0.738 2.471 -0.088 360
0.738 2.470 -0.095 360
0.737 2.470 -0.103 282
0.658 2.181 1.755 3782
0.659 2.185 1.748 7565
0.660 2.190 1.742 7565
0.662 2.194 1.735 8194
0.663 2.199 1.729 8823
0.666 2.209 1.727 9936
0.670 2.220 1.725 11430
0.671 2.224 1.718 11430
0.676 2.241 1.720 12043
0.685 2.271 1.732 13676
0.684 2.269 1.720 11305
0.697 2.311 1.740 10407
0.689 2.284 1.711 10658
0.690 2.288 1.704 12502
0.693 2.299 1.702 10663
0.699 2.316 1.704 9292
0.698 2.314 1.693 9256
0.716 2.375 1.725 5872
0.718 2.380 1.718 6718
0.719 2.384 1.711 6217
0.720 2.389 1.703 5717
0.751 2.489 1.760 6075
0.752 2.493 1.753 7856
0.755 2.504 1.749 7654
0.757 2.509 1.742 7480
0.756 2.507 1.730 7626
0.754 2.498 1.714 8294
0.755 2.503 1.707 7322
0.754 2.501 1.695 6418
0.754 2.498 1.684 6107
0.753 2.496 1.672 5877
0.776 2.572 1.709 5412
0.775 2.570 1.698 5387
0.784 2.600 1.706 5529
0.790 2.618 1.706 6199
0.791 2.622 1.699 6458
0.820 2.719 1.746 7031
0.819 2.716 1.734 8076
0.823 2.727 1.730 12418
0.824 2.732 1.722 16845
0.825 2.736 1.713 16704
0.827 2.741 1.705 16563
0.828 2.745 1.697 14890
0.829 2.749 1.689 11308
0.835 2.767 1.688 9860
0.834 2.765 1.676 9229
0.835 2.769 1.668 8625
0.839 2.780 1.663 12140
0.840 2.784 1.655 15226
0.839 2.782 1.643 14586
0.842 2.793 1.638 11732
0.878 2.911 1.692 8284
0.873 2.895 1.672 7649
0.877 2.906 1.667 7940
0.886 2.938 1.673 11399
0.885 2.935 1.661 13534
0.889 2.946 1.655 10804
0.921 3.052 1.699 8991
0.922 3.056 1.690 11640
0.925 3.068 1.685 11931
0.959 3.181 1.731 13635
0.961 3.185 1.721 19228
0.964 3.197 1.715 19239
0.966 3.201 1.706 18335
0.965 3.198 1.693 20968
0.968 3.210 1.686 23820
0.969 3.214 1.677 26917
0.969 3.211 1.664 26424
0.970 3.216 1.654 22813
0.973 3.227 1.648 23043
0.972 3.224 1.635 20069
0.974 3.228 1.625 15380
0.975 3.232 1.615 10829
0.976 3.236 1.606 6893
1.044 3.463 1.698 7679
1.046 3.467 1.687 8090
1.045 3.464 1.674 9317
1.044 3.462 1.660 6993
1.066 3.536 1.681 5296
1.076 3.568 1.682 7006
1.082 3.586 1.678 9057
1.087 3.605 1.673 8924
1.095 3.630 1.671 7847
1.105 3.662 1.672 7019
1.106 3.666 1.661 8749
1.105 3.664 1.647 10743
1.106 3.668 1.636 9597
1.108 3.672 1.625 8679
1.109 3.676 1.614 8278
1.106 3.666 1.597 8166
1.111 3.684 1.592 8241
1.123 3.724 1.595 7619
1.184 3.927 1.662 7248
1.190 3.945 1.655 4846
1.176 3.899 1.624 4772
1.177 3.904 1.613 6614
1.183 3.922 1.606 4908
1.195 3.962 1.608 5205
1.192 3.951 1.591 4959
1.241 4.113 1.637 5432
1.244 4.124 1.627 5714
1.278 4.236 1.653 5756
1.277 4.233 1.638 7390
1.289 4.273 1.638 4786
1.314 4.356 1.653 4444
1.335 4.425 1.662 4273
1.336 4.429 1.649 6098
1.339 4.440 1.638 7216
1.338 4.437 1.622 7930
1.338 4.434 1.606 8817
1.339 4.438 1.593 7047
1.342 4.450 1.582 4422
1.372 4.548 1.599 4872
1.373 4.552 1.585 4423
1.376 4.563 1.574 4281
1.435 4.756 1.620 4401
1.438 4.767 1.608 2922
1.448 4.800 1.602 3315
1.449 4.804 1.588 2854
1.499 4.969 1.621 2922
1.502 4.980 1.609 3992
1.497 4.962 1.587 2965
1.487 4.930 1.562 3246
1.515 5.021 1.572 3777
1.509 5.003 1.551 5562
1.504 4.985 1.529 9283
1.505 4.989 1.514 9603
1.506 4.993 1.499 7905
1.507 4.997 1.484 8643
1.506 4.993 1.467 7770
1.507 4.997 1.452 5900
1.506 4.993 1.435 3868
1.687 5.593 1.574 4121
1.648 5.464 1.523 3231
1.654 5.483 1.511 3327
1.762 5.841 1.582 2750
1.765 5.852 1.566 4365
1.764 5.849 1.547 5033
1.759 5.830 1.524 5077
1.784 5.915 1.525 4603
1.783 5.912 1.506 4870
1.784 5.916 1.488 3737
1.785 5.919 1.470 3785
1.787 5.923 1.452 2994
1.960 6.498 1.560 3082
1.963 6.509 1.542 3183
1.958 6.491 1.518 2341
1.977 6.554 1.511 2676
1.974 6.543 1.488 3921
1.975 6.547 1.468 6389
1.976 6.550 1.448 5959
2.060 6.830 1.483 4103
2.061 6.833 1.462 4479
2.062 6.837 1.441 3857
2.286 7.579 1.560 3269
2.154 7.143 1.455 4300
2.286 7.579 1.513 4014
2.292 7.598 1.493 4319
2.297 7.617 1.472 3843
2.308 7.650 1.454 2569
2.309 7.654 1.431 2016
2.301 7.628 1.403 1629
2.650 8.784 1.568 2133
2.660 8.818 1.547 2552
2.661 8.822 1.520 1802
2.841 9.418 1.585 1322
2.806 9.302 1.538 2094
2.805 9.299 1.509 2588
2.806 9.302 1.480 2416
2.791 9.254 1.445 1872
3.153 10.452 1.582 1417
3.106 10.298 1.529 1757
3.157 10.467 1.520 2194
3.106 10.298 1.466 2910
3.160 10.475 1.456 3175
3.456 11.457 1.545 2888
3.462 11.476 1.512 3481
3.467 11.495 1.479 2981
3.471 11.506 1.445 2287
3.472 11.510 1.410 1910
3.470 11.505 1.374 1458
3.469 11.501 1.339 1174
3.472 11.512 1.304 1313
3.476 11.523 1.270 1164
3.477 11.526 1.235 956
3.503 11.612 1.208 681
1.287 4.267 0.516 528
1.287 4.268 0.503 750
1.288 4.269 0.490 834
3.027 10.036 0.940 943
3.030 10.046 0.910 1357
3.013 9.988 0.875 2612
3.013 9.990 0.844 3836
3.014 9.992 0.814 3979
3.012 9.986 0.783 3212
3.013 9.988 0.753 2289
3.013 9.989 0.723 2428
3.016 9.998 0.693 2582
3.016 10.000 0.662 2576
3.017 10.001 0.632 3254
3.010 9.980 0.601 4057
3.006 9.966 0.570 4680
3.004 9.960 0.539 3734
3.000 9.946 0.508 3350
3.003 9.954 0.479 3513
3.005 9.963 0.449 3218
3.010 9.979 0.419 2547
3.010 9.979 0.388 1921
3.008 9.972 0.358 1616
2.997 9.935 0.327 1622
2.992 9.920 0.297 1486
2.974 9.860 0.266 881
2.963 9.823 0.235 737
2.963 9.823 0.206 616
2.965 9.831 0.176 501
1.479 4.904 0.143 464
1.479 4.904 0.128 548
1.479 4.904 0.113 632
1.479 4.904 0.098 636
1.479 4.904 0.084 531
1.477 4.896 0.069 426
1.477 4.896 0.054 366
1.479 4.903 0.039 307
1.481 4.910 0.024 353
1.481 4.910 0.009 404
1.479 4.902 -0.005 372
1.479 4.902 -0.020 345
1.478 4.901 -0.035 258
0.751 2.491 0.015 306
0.751 2.491 0.007 377
0.751 2.490 -0.000 448
0.751 2.490 -0.008 508
0.751 2.489 -0.015 569
0.751 2.489 -0.023 521
0.748 2.481 -0.029 477
0.750 2.488 -0.037 355
1.054 3.493 -0.121 339
1.053 3.492 -0.131 346
1.053 3.491 -0.142 316
1.053 3.491 -0.152 286
0.745 2.470 -0.073 270
1.556 5.158 -0.325 283
1.555 5.156 -0.341 289
1.555 5.155 -0.356 296
0.804 2.666 -0.179 273
0.669 2.184 1.759 3918
0.670 2.189 1.753 7837
0.671 2.193 1.746 7837
0.671 2.191 1.735 7842
0.672 2.196 1.729 7889
0.675 2.206 1.727 8332
0.679 2.217 1.725 8912
0.680 2.222 1.718 8912
0.697 2.276 1.747 10874
0.698 2.280 1.741 13239
0.705 2.303 1.747 11681
0.708 2.314 1.745 11195
0.708 2.312 1.733 10085
0.700 2.285 1.704 10740
0.703 2.296 1.702 9332
0.706 2.307 1.700 8219
0.707 2.311 1.693 8168
0.730 2.385 1.733 5420
0.729 2.383 1.722 5778
0.731 2.388 1.715 4663
0.759 2.481 1.768 3946
0.761 2.486 1.760 6297
0.762 2.490 1.753 8648
0.766 2.501 1.749 9056
0.767 2.506 1.742 9694
0.768 2.510 1.734 9199
0.768 2.508 1.723 8739
0.771 2.519 1.719 7703
0.778 2.543 1.724 6852
0.782 2.554 1.721 6201
0.787 2.571 1.721 5733
0.786 2.569 1.709 5178
0.816 2.664 1.758 4878
0.795 2.597 1.706 5315
0.828 2.706 1.762 6119
0.802 2.619 1.699 6430
0.831 2.715 1.746 6085
0.830 2.713 1.734 6856
0.832 2.717 1.726 11066
0.835 2.729 1.722 15311
0.837 2.733 1.713 14854
0.838 2.737 1.705 14398
0.839 2.742 1.697 12185
0.843 2.753 1.693 8141
0.854 2.790 1.703 7487
0.847 2.768 1.680 8468
0.847 2.766 1.668 10377
0.850 2.776 1.663 13500
0.851 2.781 1.655 15747
0.852 2.785 1.647 14576
0.854 2.789 1.638 11331
0.892 2.914 1.696 7139
0.885 2.892 1.672 6736
0.897 2.930 1.682 7176
0.898 2.934 1.673 10325
0.897 2.931 1.661 12130
0.901 2.942 1.655 9914
0.935 3.055 1.703 9041
0.936 3.059 1.694 11994
0.938 3.064 1.685 12548
0.975 3.184 1.734 13875
0.976 3.188 1.725 19102
0.979 3.199 1.719 18585
0.979 3.197 1.706 15727
0.978 3.194 1.693 16399
0.981 3.206 1.686 19127
0.983 3.210 1.677 22852
0.982 3.207 1.664 23519
0.983 3.212 1.654 19680
0.989 3.230 1.651 19296
0.988 3.227 1.638 15773
0.987 3.224 1.625 11368
0.988 3.228 1.615 8039
1.055 3.447 1.705 5143
1.059 3.458 1.698 6245
1.058 3.456 1.684 6892
1.059 3.460 1.674 8367
1.077 3.520 1.688 8018
1.081 3.531 1.681 6609
1.091 3.564 1.682 7749
1.096 3.582 1.678 9644
1.102 3.600 1.673 9808
1.112 3.632 1.674 8900
1.120 3.658 1.672 8285
1.121 3.662 1.661 9978
1.122 3.666 1.650 10306
1.123 3.670 1.639 9649
1.125 3.675 1.628 10795
1.128 3.686 1.620 9843
1.125 3.676 1.603 7486
1.170 3.821 1.648 7551
1.177 3.847 1.645 8099
1.203 3.929 1.664 7977
1.208 3.947 1.658 6031
1.220 3.987 1.660 5243
1.193 3.899 1.613 6440
1.201 3.924 1.609 4912
1.211 3.957 1.608 5258
1.206 3.939 1.588 5373
1.264 4.129 1.645 5231
1.263 4.126 1.629 6012
1.251 4.087 1.601 6039
1.292 4.220 1.635 7275
1.308 4.275 1.641 4943
1.327 4.336 1.648 4563
1.300 4.247 1.602 5012
1.352 4.416 1.646 5809
1.355 4.428 1.636 7099
1.357 4.432 1.622 8124
1.356 4.429 1.606 8988
1.357 4.433 1.593 6776
1.363 4.451 1.584 3911
1.388 4.535 1.597 4686
1.392 4.546 1.585 3861
1.450 4.739 1.632 3845
1.456 4.757 1.622 4311
1.460 4.769 1.610 2938
1.468 4.794 1.602 2531
1.484 4.849 1.603 2109
1.486 4.853 1.589 2692
1.520 4.967 1.606 3290
1.515 4.949 1.585 3661
1.516 4.953 1.570 3756
1.528 4.993 1.566 3690
1.525 4.983 1.546 4601
1.522 4.972 1.527 9558
1.523 4.976 1.512 11390
1.526 4.987 1.499 8882
1.525 4.983 1.482 9300
1.527 4.987 1.467 9951
1.528 4.991 1.452 8278
1.527 4.987 1.435 4784
1.710 5.586 1.574 4877
1.709 5.582 1.555 3422
1.681 5.491 1.514 2308
1.781 5.819 1.579 2293
1.782 5.823 1.561 3796
1.781 5.819 1.541 5012
1.782 5.823 1.524 6024
1.781 5.819 1.504 4571
1.807 5.905 1.506 3888
1.784 5.827 1.469 3086
1.810 5.912 1.470 3227
1.976 6.456 1.573 3225
1.986 6.490 1.560 3475
1.985 6.486 1.539 3246
1.982 6.475 1.516 2542
1.999 6.531 1.507 2769
1.996 6.520 1.485 4286
1.999 6.531 1.466 7371
2.000 6.535 1.446 7107
1.999 6.531 1.425 4475
2.002 6.542 1.407 4424
2.006 6.553 1.388 3935
2.317 7.570 1.560 3424
2.181 7.126 1.454 4021
2.319 7.577 1.514 3765
2.323 7.589 1.493 4654
2.326 7.600 1.471 4204
2.339 7.641 1.454 2661
2.434 7.951 1.483 2508
2.435 7.955 1.459 1725
2.685 8.773 1.568 2564
2.694 8.800 1.545 2991
2.699 8.819 1.521 1980
2.703 8.830 1.495 1348
2.844 9.291 1.538 1980
2.845 9.295 1.510 2407
2.846 9.298 1.481 2368
2.850 9.310 1.454 1806
3.200 10.454 1.584 1349
3.148 10.285 1.529 1446
3.202 10.462 1.521 1900
3.151 10.293 1.467 2775
3.202 10.462 1.456 2998
3.503 11.443 1.545 2801
3.508 11.462 1.512 3316
3.514 11.480 1.479 2738
3.518 11.492 1.445 2098
3.516 11.488 1.409 1817
3.515 11.484 1.373 1396
3.516 11.487 1.339 1123
3.519 11.498 1.304 1316
3.523 11.509 1.270 1181
3.526 11.519 1.236 964
3.550 11.598 1.208 693
3.553 11.608 1.173 521
1.305 4.263 0.503 504
1.305 4.264 0.490 689
3.066 10.016 0.939 831
3.062 10.003 0.907 1124
3.053 9.975 0.875 2121
3.052 9.970 0.844 3063
3.052 9.972 0.814 3065
3.048 9.958 0.782 2668
3.046 9.953 0.752 2288
3.047 9.954 0.721 2202
3.050 9.963 0.692 1962
3.050 9.965 0.661 1830
3.051 9.966 0.631 2882
3.051 9.968 0.601 3927
3.049 9.961 0.570 4052
3.047 9.955 0.540 3248
3.043 9.941 0.509 3058
3.043 9.942 0.479 3506
3.046 9.950 0.449 2859
3.051 9.966 0.419 2072
3.051 9.967 0.388 1842
3.030 9.900 0.357 1699
3.026 9.885 0.326 1970
3.028 9.893 0.296 1625
3.007 9.825 0.265 1040
3.003 9.810 0.235 1037
3.003 9.811 0.206 822
3.001 9.803 0.176 608
3.005 9.818 0.146 414
3.019 9.864 0.116 370
3.017 9.856 0.086 380
3.003 9.811 0.057 449
1.501 4.905 0.084 486
1.501 4.905 0.069 555
1.501 4.905 0.054 522
1.501 4.905 0.039 489
1.501 4.904 0.024 377
1.876 6.130 -0.023 289
1.876 6.129 -0.042 280
0.762 2.488 0.015 296
0.761 2.487 0.007 395
0.759 2.480 0.000 499
0.759 2.479 -0.007 513
1.066 3.484 -0.078 620
1.066 3.483 -0.089 739
1.066 3.482 -0.099 800
1.066 3.482 -0.110 862
1.068 3.489 -0.121 871
1.068 3.488 -0.131 892
1.067 3.487 -0.142 809
1.065 3.479 -0.152 738
1.065 3.478 -0.162 639
1.064 3.477 -0.173 540
1.064 3.476 -0.183 540
1.066 3.483 -0.194 413
1.066 3.482 -0.205 293
0.817 2.670 -0.180 280
0.678 2.181 1.759 4144
0.679 2.186 1.753 8288
0.680 2.190 1.746 8288
0.682 2.195 1.740 7701
0.683 2.199 1.733 7114
0.685 2.204 1.727 7064
0.705 2.270 1.765 9446
0.707 2.275 1.759 9446
0.708 2.279 1.752 11559
0.711 2.290 1.750 13693
0.715 2.300 1.747 12714
0.718 2.311 1.745 12355
0.721 2.322 1.742 10199
0.707 2.276 1.700 8900
0.710 2.287 1.698 8131
0.714 2.297 1.695 7478
0.713 2.295 1.684 7449
0.742 2.388 1.738 5360
0.743 2.393 1.731 5320
0.747 2.404 1.728 4393
0.756 2.433 1.738 3993
0.771 2.483 1.760 6737
0.771 2.481 1.748 10050
0.774 2.492 1.745 11088
0.777 2.502 1.742 12652
0.779 2.507 1.734 11184
0.782 2.518 1.731 9935
0.786 2.529 1.728 8867
0.791 2.546 1.728 7986
0.792 2.550 1.721 7148
0.794 2.555 1.713 6309
0.795 2.559 1.705 5008
0.827 2.661 1.758 4397
0.834 2.685 1.762 4772
0.838 2.696 1.758 5892
0.813 2.616 1.699 5743
0.816 2.627 1.695 5252
0.840 2.703 1.730 5447
0.843 2.714 1.726 8969
0.845 2.718 1.718 12763
0.848 2.729 1.713 12172
0.849 2.734 1.705 11739
0.853 2.745 1.701 9196
0.864 2.782 1.712 9249
0.866 2.787 1.703 10920
0.861 2.771 1.684 10546
0.858 2.762 1.668 12424
0.861 2.773 1.663 14541
0.863 2.777 1.655 15347
0.864 2.781 1.647 13671
0.865 2.786 1.638 10167
0.869 2.796 1.634 6421
0.937 3.016 1.741 6695
0.942 3.033 1.740 7666
0.944 3.038 1.730 8456
0.909 2.928 1.661 9694
0.913 2.939 1.655 8233
0.948 3.051 1.703 9126
0.949 3.055 1.694 12247
0.951 3.060 1.685 13009
0.990 3.186 1.738 13816
0.991 3.191 1.728 18461
0.993 3.195 1.719 17377
0.994 3.200 1.709 12636
0.995 3.204 1.699 11492
0.997 3.208 1.690 14005
0.998 3.213 1.680 17822
0.997 3.210 1.667 18390
0.999 3.214 1.657 13961
1.004 3.232 1.654 13085
1.003 3.230 1.641 9899
1.047 3.372 1.696 7470
1.047 3.369 1.683 6514
1.048 3.374 1.673 4934
1.054 3.392 1.669 4717
1.070 3.444 1.681 5159
1.086 3.497 1.692 7221
1.094 3.522 1.691 9377
1.098 3.534 1.684 8396
1.103 3.552 1.679 9049
1.109 3.570 1.675 9527
1.117 3.595 1.673 9616
1.127 3.628 1.674 8561
1.133 3.646 1.669 8698
1.138 3.664 1.664 10666
1.140 3.668 1.653 9724
1.141 3.673 1.642 9965
1.142 3.677 1.631 13150
1.144 3.681 1.620 12028
1.143 3.678 1.606 8225
1.183 3.809 1.646 7452
1.191 3.835 1.643 7935
1.219 3.924 1.664 8480
1.222 3.935 1.655 7488
1.235 3.975 1.657 5854
1.210 3.894 1.613 6063
1.218 3.919 1.609 4595
1.225 3.945 1.605 5532
1.220 3.927 1.585 5493
1.283 4.131 1.647 6001
1.282 4.128 1.632 6790
1.275 4.104 1.609 6330
1.309 4.215 1.635 6316
1.277 4.112 1.584 4598
1.321 4.252 1.620 3836
1.320 4.249 1.605 5951
1.366 4.396 1.641 5392
1.372 4.415 1.633 5997
1.375 4.426 1.622 7120
1.374 4.423 1.606 7912
1.375 4.427 1.593 5321
1.406 4.525 1.611 5314
1.407 4.529 1.597 6371
1.408 4.533 1.583 5791
1.414 4.552 1.574 5158
1.415 4.556 1.560 4919
1.414 4.552 1.544 3559
1.485 4.781 1.600 2728
1.502 4.836 1.601 2483
1.499 4.825 1.582 3086
1.498 4.822 1.565 3351
1.535 4.942 1.585 4160
1.537 4.947 1.570 5361
1.540 4.958 1.557 5081
1.539 4.954 1.540 6055
1.540 4.958 1.525 10408
1.544 4.969 1.512 12378
1.545 4.973 1.497 7357
1.544 4.970 1.480 7699
1.550 4.988 1.469 11499
1.551 4.992 1.454 9584
1.550 4.988 1.437 4082
1.731 5.571 1.572 5075
1.727 5.561 1.552 3823
1.742 5.609 1.546 3264
1.737 5.590 1.523 3189
1.797 5.786 1.554 4504
1.803 5.804 1.540 5636
1.804 5.808 1.522 6209
1.806 5.812 1.504 5206
1.807 5.816 1.487 4438
1.810 5.827 1.471 3939
1.809 5.823 1.452 2752
2.003 6.448 1.573 3664
2.011 6.474 1.559 3953
2.010 6.471 1.537 2974
2.007 6.460 1.514 2851
2.013 6.478 1.498 4247
2.018 6.497 1.481 5552
2.022 6.508 1.463 8361
2.025 6.519 1.445 8308
2.139 6.887 1.498 5163
2.030 6.534 1.407 4510
2.146 6.909 1.459 3441
2.349 7.560 1.560 3021
2.211 7.117 1.454 2962
2.346 7.553 1.511 3548
2.350 7.564 1.490 4751
2.349 7.560 1.466 4505
2.466 7.937 1.507 2900
2.469 7.948 1.484 3186
2.470 7.952 1.460 2341
2.724 8.770 1.570 2654
2.730 8.788 1.545 3104
2.734 8.800 1.520 1969
2.740 8.819 1.495 1582
2.885 9.286 1.539 1755
2.886 9.290 1.511 1939
2.887 9.294 1.482 1975
3.175 10.219 1.585 1818
3.246 10.448 1.585 1669
3.033 9.762 1.460 1874
3.248 10.456 1.522 1697
3.249 10.460 1.490 2611
3.248 10.456 1.457 2896
3.550 11.428 1.545 2366
3.558 11.454 1.513 2737
3.562 11.466 1.479 2105
3.563 11.469 1.444 1599
3.562 11.465 1.408 1474
3.561 11.461 1.373 1143
3.564 11.472 1.339 901
3.570 11.491 1.305 1215
3.571 11.494 1.270 1087
3.574 11.505 1.236 872
3.598 11.583 1.208 755
3.599 11.586 1.173 651
3.617 11.641 1.142 648
3.620 11.652 1.107 681
1.328 4.274 0.479 551
1.326 4.268 0.465 725
3.093 9.955 0.874 1697
3.091 9.949 0.843 2567
3.087 9.936 0.812 2708
3.085 9.930 0.781 2917
3.083 9.925 0.751 2967
3.084 9.926 0.720 2550
3.082 9.920 0.690 2073
3.082 9.922 0.660 2025
3.083 9.923 0.629 1970
3.088 9.940 0.600 1887
3.088 9.941 0.570 1856
3.089 9.942 0.540 2211
3.084 9.928 0.509 2772
3.085 9.929 0.479 3025
3.085 9.930 0.448 2501
3.087 9.938 0.418 1996
3.064 9.864 0.386 2143
3.064 9.864 0.356 2008
3.065 9.865 0.326 1873
3.065 9.865 0.296 1343
3.044 9.798 0.265 951
3.037 9.775 0.235 1069
3.034 9.768 0.205 924
3.032 9.760 0.176 825
3.035 9.768 0.146 607
3.060 9.851 0.116 541
3.051 9.821 0.086 663
3.044 9.798 0.057 889
3.044 9.798 0.027 914
3.044 9.797 -0.003 648
3.044 9.797 -0.033 381
1.522 4.898 0.039 344
1.519 4.890 0.024 297
1.519 4.890 0.010 250
1.364 4.391 0.010 270
1.364 4.391 -0.004 290
1.364 4.390 -0.017 258
1.079 3.474 -0.036 361
1.079 3.473 -0.047 483
1.081 3.480 -0.058 622
1.081 3.480 -0.068 765
1.081 3.479 -0.078 876
1.081 3.479 -0.089 987
1.080 3.478 -0.099 1026
1.080 3.477 -0.110 1064
1.082 3.484 -0.121 1052
1.082 3.483 -0.131 1043
1.082 3.483 -0.142 936
1.082 3.482 -0.152 830
1.081 3.481 -0.163 724
1.081 3.480 -0.173 617
1.081 3.479 -0.184 617
1.081 3.478 -0.194 486
1.080 3.477 -0.205 355
0.828 2.666 -0.180 269
0.684 2.179 1.759 4133
0.685 2.184 1.753 8267
0.687 2.188 1.746 8267
0.688 2.193 1.740 7428
0.689 2.197 1.733 6589
0.710 2.263 1.772 6846
0.712 2.268 1.765 9852
0.713 2.273 1.759 9852
0.714 2.277 1.752 11791
0.718 2.288 1.750 13993
0.721 2.298 1.747 13183
0.726 2.315 1.749 13082
0.730 2.326 1.747 10605
0.733 2.337 1.744 8720
0.719 2.291 1.702 7001
0.720 2.295 1.695 6839
0.719 2.293 1.684 6830
0.749 2.386 1.738 5556
0.752 2.397 1.735 5392
0.755 2.408 1.732 5223
0.761 2.425 1.733 5262
0.776 2.474 1.756 7172
0.778 2.478 1.748 11133
0.781 2.489 1.745 12493
0.784 2.500 1.742 14581
0.788 2.511 1.739 12354
0.791 2.522 1.735 10673
0.795 2.533 1.732 9627
0.798 2.544 1.728 8833
0.799 2.548 1.721 7909
0.801 2.553 1.713 6985
0.802 2.557 1.705 5270
0.834 2.659 1.758 3849
0.805 2.566 1.690 4313
0.845 2.694 1.758 5347
0.846 2.698 1.750 4946
0.846 2.696 1.738 4290
0.845 2.694 1.726 4265
0.849 2.705 1.722 7252
0.852 2.716 1.718 10441
0.853 2.720 1.710 10111
0.857 2.731 1.705 9871
0.867 2.762 1.712 7588
0.874 2.786 1.716 11006
0.873 2.784 1.703 13664
0.871 2.775 1.687 12517
0.866 2.760 1.668 13138
0.869 2.770 1.663 14474
0.873 2.781 1.659 14311
0.872 2.779 1.647 12371
0.875 2.790 1.642 8943
0.879 2.801 1.637 5761
0.945 3.013 1.741 7614
0.949 3.024 1.736 8922
0.950 3.029 1.727 9868
0.951 3.033 1.718 9701
0.955 3.044 1.712 7823
0.956 3.048 1.703 9102
0.960 3.060 1.697 12127
0.961 3.064 1.688 12904
0.999 3.184 1.738 13362
1.000 3.188 1.728 17626
1.004 3.199 1.722 16373
1.005 3.204 1.712 11115
1.004 3.201 1.699 9179
1.008 3.212 1.693 11443
1.009 3.217 1.683 14926
1.008 3.214 1.670 14804
1.014 3.232 1.667 9565
1.022 3.257 1.667 8679
1.025 3.268 1.661 6616
1.057 3.369 1.696 9144
1.056 3.366 1.683 8195
1.055 3.364 1.670 6423
1.059 3.375 1.663 5874
1.062 3.386 1.656 4707
1.103 3.515 1.702 7042
1.106 3.526 1.694 9560
1.077 3.433 1.640 10086
1.111 3.542 1.676 9182
1.119 3.567 1.675 8838
1.123 3.578 1.667 8585
1.128 3.597 1.662 7726
1.141 3.636 1.666 8064
1.149 3.661 1.664 10141
1.154 3.679 1.659 9860
1.156 3.684 1.648 10131
1.152 3.674 1.631 12881
1.154 3.678 1.620 11857
1.153 3.675 1.606 8122
1.194 3.806 1.646 6700
1.200 3.824 1.640 7017
1.230 3.920 1.664 8353
1.233 3.932 1.655 8304
1.241 3.957 1.652 6005
1.254 3.997 1.653 5762
1.231 3.923 1.612 4336
1.239 3.948 1.608 5784
1.235 3.938 1.591 5133
1.295 4.127 1.647 6573
1.296 4.131 1.635 6972
1.291 4.114 1.614 6182
1.287 4.104 1.597 5638
1.289 4.108 1.584 5214
1.333 4.248 1.620 3862
1.332 4.245 1.605 6022
1.376 4.385 1.639 5214
1.379 4.397 1.628 5051
1.387 4.422 1.622 5936
1.386 4.419 1.606 6435
1.415 4.510 1.622 4904
1.421 4.528 1.613 7247
1.420 4.525 1.597 8622
1.423 4.536 1.585 8562
1.427 4.548 1.574 7780
1.428 4.552 1.560 6473
1.429 4.556 1.547 4935
1.428 4.552 1.530 3263
1.513 4.824 1.599 2892
1.512 4.821 1.582 3270
1.509 4.811 1.563 2740
1.549 4.938 1.585 4469
1.550 4.942 1.570 6134
1.554 4.953 1.557 6198
1.553 4.950 1.540 6484
1.554 4.954 1.525 10006
1.558 4.965 1.512 12568
1.559 4.969 1.497 7951
1.555 4.958 1.478 7908
1.563 4.984 1.469 11927
1.565 4.987 1.454 9042
1.563 4.984 1.437 4288
1.746 5.567 1.572 4431
1.743 5.556 1.552 3567
1.758 5.604 1.546 3876
1.755 5.593 1.525 3970
1.813 5.781 1.554 4788
1.817 5.792 1.538 5550
1.821 5.803 1.522 5404
1.822 5.807 1.504 4787
1.823 5.811 1.487 4378
1.826 5.822 1.471 3966
1.825 5.818 1.452 2846
2.023 6.450 1.575 3667
2.027 6.461 1.557 4278
2.028 6.465 1.537 3499
2.029 6.469 1.518 3870
2.031 6.473 1.498 5683
2.034 6.484 1.480 5894
2.040 6.502 1.463 8531
2.041 6.506 1.443 8945
2.042 6.510 1.424 5083
2.162 6.892 1.478 4095
2.166 6.903 1.459 3102
2.367 7.546 1.559 2544
2.289 7.297 1.489 3370
2.293 7.308 1.468 3755
2.366 7.543 1.487 4530
2.370 7.554 1.466 4195
2.488 7.930 1.507 2728
2.491 7.941 1.484 3225
2.492 7.945 1.460 2445
2.749 8.762 1.570 2281
2.752 8.773 1.544 2750
2.756 8.785 1.519 1829
2.764 8.811 1.495 1670
2.763 8.807 1.468 1720
2.914 9.290 1.512 1523
3.199 10.199 1.615 2036
3.201 10.203 1.584 2287
0.999 3.183 0.575 2029
3.060 9.754 1.460 2376
3.061 9.757 1.430 2018
3.278 10.451 1.490 2308
3.280 10.454 1.458 2761
3.278 10.450 1.425 2092
3.588 11.437 1.512 2031
3.594 11.456 1.479 1486
3.536 11.272 1.423 1650
3.535 11.268 1.387 1371
3.668 11.692 1.399 971
3.612 11.515 1.344 758
3.606 11.496 1.307 1032
1.333 4.249 0.555 1130
1.333 4.251 0.542 1280
1.334 4.252 0.529 1338
1.334 4.253 0.516 967
3.642 11.609 1.140 658
3.654 11.649 1.108 650
3.655 11.652 1.072 479
3.129 9.974 0.907 675
3.120 9.946 0.874 1290
3.119 9.941 0.843 1886
3.114 9.928 0.812 1957
3.113 9.922 0.781 1896
3.111 9.916 0.751 1625
3.114 9.925 0.721 1171
3.102 9.889 0.689 881
3.100 9.883 0.658 1097
3.099 9.877 0.628 1275
3.097 9.871 0.597 1515
3.092 9.857 0.566 1701
3.107 9.903 0.538 1800
3.112 9.919 0.509 2661
3.112 9.920 0.479 2740
3.112 9.921 0.448 2331
3.094 9.862 0.416 1775
3.092 9.855 0.386 2004
3.089 9.848 0.356 1594
3.090 9.849 0.326 1199
3.087 9.842 0.296 923
3.061 9.759 0.265 895
3.059 9.752 0.235 1151
3.059 9.752 0.205 1162
3.062 9.760 0.176 1181
3.066 9.775 0.146 930
3.078 9.812 0.116 865
3.074 9.797 0.086 1079
3.071 9.789 0.057 1252
3.071 9.789 0.027 1194
3.069 9.781 -0.003 814
3.049 9.720 -0.032 568
1.377 4.388 0.050 456
1.377 4.388 0.036 474
1.376 4.387 0.023 492
1.376 4.387 0.010 469
1.376 4.387 -0.004 446
1.376 4.386 -0.017 332
1.091 3.479 -0.016 289
1.091 3.479 -0.026 427
1.091 3.478 -0.037 648
1.091 3.478 -0.047 869
1.091 3.477 -0.058 1118
1.091 3.477 -0.068 1368
1.091 3.476 -0.078 1590
1.090 3.476 -0.089 1813
1.090 3.475 -0.099 1923
1.090 3.474 -0.110 2034
1.092 3.481 -0.121 2051
1.092 3.480 -0.131 2086
1.092 3.480 -0.142 1908
1.089 3.471 -0.152 1740
1.089 3.470 -0.162 1545
1.088 3.470 -0.173 1351
1.088 3.469 -0.183 1351
1.090 3.475 -0.194 1081
1.090 3.474 -0.205 818
1.090 3.473 -0.215 574
1.087 3.465 -0.225 334
0.838 2.672 -0.181 257
0.695 2.183 1.764 4086
0.696 2.187 1.757 8173
0.697 2.192 1.751 8173
0.697 2.190 1.740 7172
0.698 2.194 1.733 6177
0.719 2.261 1.772 7161
0.721 2.265 1.765 10233
0.722 2.270 1.759 10233
0.724 2.274 1.752 11961
0.727 2.285 1.750 14119
0.730 2.295 1.747 13487
0.736 2.312 1.749 13523
0.739 2.323 1.747 10919
0.743 2.334 1.744 9106
0.746 2.345 1.742 6595
0.729 2.292 1.695 6570
0.731 2.297 1.688 6529
0.758 2.383 1.738 6059
0.762 2.394 1.735 5671
0.765 2.405 1.732 6227
0.767 2.409 1.725 6908
0.782 2.458 1.747 7957
0.786 2.469 1.744 12405
0.791 2.486 1.745 13937
0.795 2.497 1.742 16442
0.798 2.508 1.739 13466
0.801 2.519 1.735 11212
0.805 2.530 1.732 10372
0.808 2.540 1.728 9645
0.808 2.538 1.717 8841
0.807 2.536 1.705 8112
0.808 2.541 1.697 6331
0.810 2.545 1.690 4549
0.811 2.549 1.682 4555
0.858 2.697 1.762 4248
0.860 2.701 1.754 3917
0.857 2.693 1.738 3002
0.854 2.684 1.722 2948
0.860 2.702 1.722 5331
0.863 2.713 1.718 7971
0.865 2.717 1.710 8110
0.868 2.728 1.705 8277
0.884 2.778 1.724 8051
0.886 2.783 1.716 12402
0.885 2.781 1.703 15638
0.882 2.772 1.687 13791
0.877 2.756 1.668 13106
0.883 2.774 1.667 14022
0.884 2.778 1.659 13109
0.883 2.775 1.647 11041
0.887 2.786 1.642 8066
0.956 3.005 1.750 6497
0.960 3.016 1.745 8892
0.961 3.020 1.736 10485
0.962 3.025 1.727 11482
0.964 3.029 1.718 11011
0.967 3.040 1.712 8440
0.971 3.051 1.707 9137
0.972 3.056 1.697 12038
0.974 3.060 1.688 12857
0.975 3.064 1.679 13393
1.013 3.184 1.728 16243
1.017 3.195 1.722 15437
1.020 3.206 1.716 10849
1.022 3.211 1.706 8417
1.023 3.215 1.696 10134
1.024 3.219 1.687 13098
1.026 3.224 1.677 12679
1.034 3.249 1.677 7415
1.037 3.260 1.671 5864
1.067 3.353 1.703 7101
1.071 3.365 1.696 10413
1.070 3.362 1.683 9998
1.069 3.359 1.670 8807
1.070 3.364 1.660 8204
1.074 3.375 1.653 6178
1.119 3.517 1.705 6989
1.090 3.425 1.651 9017
1.093 3.436 1.644 11703
1.126 3.537 1.676 8471
1.129 3.549 1.668 7979
1.135 3.567 1.664 7468
1.141 3.585 1.659 7150
1.153 3.624 1.663 6900
1.163 3.656 1.664 8768
1.169 3.675 1.659 10144
1.173 3.686 1.651 9915
1.167 3.669 1.631 10920
1.167 3.666 1.617 10221
1.170 3.677 1.609 7074
1.209 3.801 1.646 5590
1.213 3.812 1.637 5732
1.246 3.915 1.664 7513
1.249 3.927 1.655 8639
1.251 3.931 1.643 6485
1.239 3.892 1.615 5738
1.260 3.960 1.628 4530
1.255 3.943 1.608 5775
1.310 4.118 1.660 5862
1.312 4.122 1.647 6977
1.313 4.126 1.635 6736
1.312 4.123 1.620 5571
1.307 4.106 1.599 5124
1.306 4.103 1.584 5274
1.352 4.250 1.623 3686
1.351 4.247 1.607 5651
1.394 4.380 1.639 5172
1.397 4.391 1.628 4532
1.403 4.410 1.620 4961
1.404 4.414 1.606 4883
1.435 4.511 1.624 5672
1.439 4.522 1.613 8957
1.440 4.527 1.599 10592
1.442 4.531 1.585 10868
1.445 4.542 1.574 10107
1.446 4.546 1.560 8035
1.448 4.550 1.547 6187
1.447 4.546 1.530 4224
1.533 4.818 1.599 3143
1.534 4.822 1.584 3362
1.566 4.921 1.598 2264
1.569 4.932 1.585 4572
1.571 4.936 1.570 5920
1.579 4.962 1.561 7488
1.585 4.980 1.551 7668
1.579 4.962 1.529 9007
1.578 4.959 1.512 12361
1.581 4.970 1.499 10929
1.583 4.974 1.484 10387
1.584 4.977 1.469 12067
1.587 4.988 1.456 9763
1.586 4.985 1.439 6414
1.585 4.981 1.422 4341
1.763 5.541 1.550 3107
1.781 5.597 1.546 3881
1.780 5.593 1.527 4737
1.781 5.597 1.510 4374
1.785 5.608 1.495 6750
1.786 5.612 1.478 7941
1.789 5.623 1.463 6523
1.790 5.627 1.445 4200
1.850 5.814 1.471 3364
1.959 6.157 1.531 3306
2.050 6.441 1.575 3330
2.053 6.453 1.557 4187
2.055 6.457 1.537 4278
2.058 6.468 1.519 5573
2.059 6.472 1.500 7126
2.063 6.483 1.481 5955
2.066 6.494 1.463 8781
2.068 6.498 1.443 9682
2.066 6.494 1.422 4895
2.195 6.898 1.481 3272
2.198 6.909 1.461 2584
2.311 7.261 1.507 2697
2.319 7.287 1.489 4167
2.322 7.299 1.468 4839
2.324 7.302 1.446 4016
2.398 7.537 1.464 3310
2.515 7.905 1.505 2127
2.524 7.931 1.484 2720
2.527 7.942 1.462 2196
2.595 8.154 1.472 1714
2.786 8.755 1.543 2230
2.789 8.766 1.518 1890
2.800 8.800 1.495 1805
2.801 8.803 1.469 1629
3.237 10.174 1.645 1719
3.241 10.185 1.615 2244
3.242 10.190 1.584 2450
3.103 9.752 1.492 2325
3.100 9.741 1.460 2703
3.101 9.745 1.430 2318
3.323 10.445 1.491 1903
3.322 10.441 1.458 2647
3.323 10.444 1.426 2212
3.327 10.455 1.395 1267
3.583 11.261 1.458 1717
3.580 11.250 1.422 2059
3.581 11.253 1.387 1725
3.584 11.264 1.354 1091
0.922 2.898 0.439 1161
0.922 2.899 0.430 1108
0.925 2.907 0.422 988
0.925 2.908 0.413 941
3.678 11.558 1.208 873
3.681 11.568 1.173 992
1.354 4.256 0.504 1066
1.355 4.257 0.491 1136
1.355 4.258 0.478 1066
1.355 4.259 0.465 804
3.168 9.956 0.876 456
3.164 9.943 0.844 510
3.160 9.930 0.813 424
3.151 9.902 0.781 401
3.154 9.911 0.751 379
3.154 9.912 0.721 446
3.164 9.944 0.692 725
3.165 9.946 0.662 902
3.139 9.864 0.628 1065
3.139 9.866 0.598 1180
3.132 9.844 0.566 1185
3.145 9.883 0.538 1093
3.150 9.899 0.508 1354
3.150 9.900 0.478 1318
3.148 9.893 0.448 1489
3.134 9.849 0.416 1641
3.132 9.842 0.386 1563
3.132 9.843 0.356 1147
3.130 9.836 0.326 742
3.128 9.829 0.296 834
3.101 9.746 0.265 1158
3.097 9.731 0.235 1433
3.101 9.747 0.205 1565
3.104 9.754 0.176 1768
3.109 9.770 0.146 1417
3.111 9.777 0.116 1160
3.111 9.777 0.086 1412
3.109 9.769 0.057 1541
3.109 9.769 0.027 1440
3.106 9.761 -0.003 991
3.089 9.708 -0.032 1018
3.087 9.700 -0.061 741
3.086 9.699 -0.091 468
1.392 4.374 0.023 423
1.392 4.374 0.010 380
1.392 4.374 -0.003 336
1.392 4.373 -0.017 300
1.394 4.380 -0.030 268
1.106 3.475 -0.005 255
1.106 3.475 -0.016 446
1.106 3.474 -0.026 637
1.105 3.474 -0.037 917
1.103 3.466 -0.047 1198
1.105 3.473 -0.058 1508
1.105 3.472 -0.068 1820
1.105 3.472 -0.078 2096
1.105 3.471 -0.089 2372
1.104 3.470 -0.099 2497
1.104 3.470 -0.110 2622
1.106 3.477 -0.121 2646
1.106 3.476 -0.131 2695
1.106 3.475 -0.142 2468
1.103 3.467 -0.152 2257
1.103 3.466 -0.162 2035
1.103 3.465 -0.173 1814
1.102 3.464 -0.183 1814
1.104 3.471 -0.194 1489
1.104 3.470 -0.205 1171
1.104 3.469 -0.215 844
1.101 3.460 -0.225 526
1.101 3.459 -0.235 359
0.701 2.181 1.764 4033
0.702 2.185 1.757 8067
0.703 2.190 1.751 8067
0.703 2.188 1.740 7021
0.704 2.193 1.733 6072
0.726 2.259 1.772 7232
0.727 2.263 1.765 10155
0.729 2.268 1.759 10155
0.732 2.278 1.756 11762
0.733 2.283 1.750 13824
0.737 2.293 1.747 13454
0.740 2.304 1.745 13582
0.746 2.321 1.747 10869
0.751 2.338 1.749 9338
0.761 2.368 1.759 7209
0.764 2.378 1.756 7014
0.764 2.377 1.745 7293
0.765 2.381 1.738 6564
0.766 2.385 1.731 5739
0.772 2.403 1.732 6667
0.773 2.407 1.725 7751
0.787 2.450 1.743 8742
0.792 2.467 1.744 13507
0.798 2.484 1.745 15075
0.801 2.495 1.742 17786
