6.358 5.206 1.492 2934
2.147 1.758 0.582 3985
2.148 1.759 0.574 5220
2.149 1.760 0.566 5745
2.150 1.760 0.558 5170
2.151 1.761 0.550 4242
6.242 5.111 1.323 3931
6.238 5.108 1.299 3219
6.223 5.095 1.272 2800
6.335 5.187 1.268 1737
2.167 1.775 0.512 2114
2.174 1.780 0.505 2630
2.175 1.781 0.497 2676
2.176 1.782 0.489 2442
2.177 1.782 0.481 2197
2.177 1.783 0.473 2012
9.119 7.467 1.524 1867
9.128 7.474 1.490 2054
1.954 1.600 0.416 3096
1.955 1.601 0.409 3880
1.956 1.601 0.402 4208
1.956 1.602 0.395 4224
1.957 1.602 0.388 3814
1.957 1.603 0.380 3017
1.537 1.259 0.322 2378
1.531 1.254 0.315 2607
1.532 1.254 0.310 2685
1.532 1.255 0.304 2859
1.526 1.250 0.298 2810
1.521 1.245 0.292 3307
1.521 1.245 0.286 4014
1.521 1.246 0.281 4228
1.522 1.246 0.275 3869
1.528 1.251 0.270 2697
2.390 1.957 0.337 1244
2.391 1.957 0.328 1152
1.835 1.502 0.276 928
1.835 1.502 0.270 1533
1.841 1.508 0.263 1923
1.835 1.503 0.256 2386
1.842 1.508 0.250 3100
1.842 1.508 0.243 3245
1.842 1.509 0.236 3139
1.843 1.509 0.229 2754
1.843 1.509 0.223 1819
1.837 1.504 0.216 1326
1.837 1.504 0.209 1024
1.837 1.504 0.202 679
1.837 1.504 0.195 606
1.843 1.509 0.189 514
1.850 1.515 0.182 462
1.507 1.234 0.168 544
1.507 1.234 0.163 576
1.507 1.234 0.157 571
2.285 1.871 0.158 617
2.285 1.871 0.150 665
2.279 1.866 0.141 677
2.285 1.871 0.133 626
2.279 1.866 0.125 506
2.279 1.866 0.116 390
2.279 1.866 0.108 296
1.513 1.239 0.102 252
1.513 1.239 0.096 284
1.513 1.239 0.091 280
1.513 1.238 0.085 276
1.585 1.297 0.036 263
1.584 1.297 0.030 384
1.590 1.302 0.024 528
1.590 1.302 0.018 669
1.590 1.302 0.012 728
1.595 1.306 0.006 840
1.595 1.306 -0.000 943
1.601 1.311 -0.006 1005
1.601 1.311 -0.012 1064
1.600 1.310 -0.018 1040
1.600 1.310 -0.024 1016
1.599 1.310 -0.030 852
1.599 1.309 -0.036 689
1.599 1.309 -0.042 532
2.324 1.903 -0.135 397
1.598 1.308 -0.053 360
2.323 1.902 -0.152 282
1.280 1.048 -0.023 321
1.280 1.048 -0.028 415
1.279 1.048 -0.033 588
1.279 1.047 -0.037 762
1.279 1.047 -0.042 898
1.278 1.047 -0.047 1358
1.723 1.399 1.713 4962
1.727 1.402 1.706 9924
1.731 1.405 1.700 9924
1.779 1.445 1.735 9145
1.783 1.448 1.729 9158
1.791 1.455 1.727 9758
1.795 1.457 1.720 10406
1.799 1.460 1.713 10406
1.802 1.463 1.707 9140
1.801 1.462 1.696 8043
1.809 1.469 1.694 7053
1.818 1.476 1.691 6294
1.821 1.479 1.685 6111
1.835 1.490 1.687 6143
1.849 1.501 1.689 4584
1.914 1.554 1.735 4406
1.917 1.557 1.727 4615
1.916 1.556 1.716 5444
1.919 1.558 1.709 6221
1.923 1.561 1.702 6143
1.926 1.564 1.695 6065
1.930 1.567 1.688 9525
1.933 1.570 1.681 12985
1.927 1.564 1.665 12175
1.925 1.563 1.654 12299
1.928 1.566 1.647 10072
1.958 1.590 1.660 9631
1.945 1.580 1.641 8771
1.944 1.578 1.630 9187
1.947 1.581 1.622 8634
1.950 1.584 1.615 8081
2.028 1.646 1.665 8518
2.026 1.645 1.653 11096
2.013 1.635 1.634 12709
2.017 1.638 1.626 15703
2.025 1.645 1.623 16218
2.023 1.643 1.612 15175
2.027 1.646 1.604 14155
2.030 1.648 1.597 14067
2.033 1.651 1.589 13979
2.037 1.654 1.582 13672
2.040 1.656 1.574 11106
2.043 1.659 1.567 8848
2.046 1.662 1.559 6799
2.244 1.822 1.688 5662
2.307 1.873 1.721 4475
2.321 1.885 1.720 5508
2.325 1.888 1.712 5357
2.350 1.908 1.718 3849
2.424 1.968 1.757 5176
2.422 1.967 1.745 5915
2.382 1.934 1.707 5705
2.364 1.920 1.683 4907
2.466 2.002 1.740 6468
2.470 2.005 1.730 9498
2.462 1.999 1.714 9703
2.460 1.998 1.702 7770
2.464 2.001 1.692 6496
2.484 2.017 1.694 7182
2.548 2.069 1.723 10579
2.557 2.076 1.717 13822
2.561 2.079 1.708 13611
2.570 2.087 1.702 10266
2.573 2.089 1.692 6195
2.577 2.092 1.682 5541
2.580 2.095 1.673 5864
2.578 2.093 1.660 8126
2.587 2.101 1.654 11879
2.602 2.113 1.651 13667
2.611 2.120 1.645 14390
2.609 2.118 1.632 13052
2.601 2.112 1.615 15083
2.604 2.114 1.606 19571
2.607 2.117 1.596 17370
2.611 2.120 1.587 8746
2.603 2.113 1.571 5047
2.612 2.121 1.564 5780
2.626 2.132 1.561 6877
2.635 2.140 1.554 6828
2.649 2.151 1.550 7093
2.653 2.154 1.541 10435
2.661 2.161 1.534 15180
2.665 2.164 1.524 19444
2.668 2.166 1.514 22475
2.665 2.164 1.501 24141
2.674 2.171 1.494 23325
2.671 2.169 1.481 16353
2.674 2.172 1.472 10163
2.695 2.188 1.470 8456
2.709 2.200 1.466 10057
2.706 2.197 1.453 15838
2.703 2.195 1.440 20999
2.701 2.193 1.427 20261
2.709 2.200 1.420 14671
2.718 2.207 1.413 12976
2.721 2.209 1.403 11467
2.724 2.212 1.393 9041
2.732 2.219 1.385 7990
2.735 2.221 1.375 5365
2.738 2.223 1.365 3466
2.717 2.207 1.345 6652
2.726 2.214 1.337 13080
2.735 2.220 1.330 16104
2.743 2.227 1.322 17835
2.746 2.230 1.312 18438
2.748 2.232 1.302 15533
2.751 2.234 1.291 14612
2.748 2.231 1.279 11002
2.733 2.219 1.261 7093
2.735 2.221 1.251 7785
2.744 2.228 1.243 6321
2.746 2.230 1.233 5126
2.760 2.241 1.228 4972
2.745 2.229 1.211 5251
2.748 2.231 1.200 5706
2.750 2.233 1.190 4149
2.764 2.244 1.185 2983
4.228 3.433 1.730 2398
4.238 3.441 1.716 3381
4.247 3.449 1.703 3639
4.251 3.452 1.687 4165
4.260 3.459 1.673 5441
4.264 3.462 1.657 6458
4.261 3.460 1.639 8775
4.265 3.463 1.623 9665
4.268 3.466 1.608 5951
4.253 3.454 1.586 4393
4.352 3.534 1.602 4308
4.367 3.546 1.590 6688
4.376 3.553 1.575 8571
4.385 3.561 1.561 7558
4.240 3.443 1.497 5444
4.768 3.871 1.648 6993
4.771 3.874 1.631 5315
5.127 4.163 1.723 2519
5.238 4.253 1.737 2748
5.242 4.256 1.717 2459
5.371 4.361 1.735 2551
5.368 4.359 1.713 2590
5.636 4.576 1.770 3661
5.639 4.579 1.749 5052
5.649 4.587 1.730 4349
5.659 4.595 1.710 3630
5.680 4.612 1.694 3271
5.708 4.635 1.679 3712
5.729 4.652 1.663 4804
5.733 4.655 1.642 5014
5.748 4.667 1.623 2997
5.788 4.700 1.611 3542
5.785 4.697 1.588 3942
6.120 4.969 1.649 3816
5.791 4.703 1.545 4174
5.801 4.710 1.525 3574
6.632 5.385 1.699 3176
6.387 5.186 1.616 3113
6.391 5.189 1.593 4123
6.394 5.192 1.569 2675
6.621 5.376 1.594 2964
2.152 1.748 0.598 2711
2.153 1.748 0.590 4197
2.154 1.749 0.582 5666
2.155 1.750 0.574 7483
2.156 1.751 0.566 8609
2.157 1.752 0.558 8207
2.158 1.752 0.550 7141
2.159 1.753 0.542 5675
2.160 1.754 0.534 4133
6.238 5.065 1.271 3428
6.240 5.067 1.247 2079
6.170 5.010 1.211 3206
6.166 5.007 1.187 3080
6.174 5.014 1.165 2212
6.183 5.020 1.143 1806
6.405 5.200 1.155 1166
9.036 7.338 1.541 1168
8.997 7.305 1.501 1236
9.000 7.308 1.467 1649
9.168 7.444 1.457 1484
1.962 1.593 0.409 1756
1.962 1.593 0.402 1836
1.963 1.594 0.395 1773
1.963 1.594 0.388 1632
1.964 1.595 0.380 1336
1.542 1.252 0.322 1354
1.543 1.253 0.316 1816
1.543 1.253 0.310 2227
1.537 1.248 0.304 2390
1.532 1.244 0.298 2401
1.526 1.239 0.292 2464
1.526 1.239 0.286 2558
1.526 1.239 0.281 2597
1.527 1.240 0.275 2347
1.527 1.240 0.269 1622
2.392 1.942 0.336 982
2.392 1.943 0.327 963
1.853 1.505 0.277 1126
1.853 1.505 0.271 1488
1.854 1.505 0.264 1611
1.854 1.505 0.257 1610
1.854 1.506 0.250 1612
1.861 1.511 0.244 1648
1.855 1.506 0.236 1710
1.855 1.506 0.230 1752
1.855 1.506 0.223 1584
1.849 1.501 0.216 1446
1.849 1.502 0.209 1192
1.849 1.502 0.202 730
1.505 1.222 0.185 913
1.506 1.223 0.179 1063
1.512 1.228 0.174 1196
1.512 1.228 0.168 1318
1.512 1.228 0.163 1331
1.512 1.228 0.157 1223
1.512 1.228 0.152 1092
1.512 1.228 0.146 919
2.286 1.857 0.141 839
2.293 1.862 0.133 794
2.286 1.857 0.125 663
2.286 1.856 0.116 541
2.286 1.856 0.108 423
2.286 1.856 0.099 305
1.590 1.291 0.042 319
1.590 1.291 0.036 393
1.590 1.291 0.030 427
1.589 1.291 0.024 485
1.595 1.295 0.018 551
1.595 1.295 0.012 586
1.595 1.295 0.006 954
1.600 1.300 -0.000 1310
1.600 1.299 -0.006 1492
1.600 1.299 -0.012 1662
1.599 1.299 -0.018 1488
1.605 1.303 -0.024 1355
1.605 1.303 -0.030 1006
1.604 1.303 -0.036 657
1.610 1.307 -0.042 425
1.295 1.052 -0.039 313
1.289 1.047 -0.043 450
1.288 1.046 -0.048 755
1.774 1.429 1.755 5626
1.778 1.432 1.748 11253
1.781 1.435 1.742 11253
1.785 1.438 1.735 10949
1.788 1.440 1.729 10646
1.797 1.447 1.727 10731
1.801 1.450 1.720 10853
1.804 1.453 1.713 10853
1.808 1.456 1.707 9766
1.806 1.455 1.696 8791
1.815 1.462 1.694 7587
1.824 1.469 1.691 6519
1.832 1.476 1.689 6661
1.846 1.487 1.691 6955
1.860 1.498 1.693 5576
1.920 1.546 1.735 5159
1.918 1.545 1.723 5303
1.922 1.548 1.716 6384
1.920 1.547 1.705 7502
1.929 1.554 1.702 7122
1.943 1.565 1.703 7129
1.947 1.568 1.696 9391
1.945 1.566 1.685 11709
1.948 1.569 1.678 10511
1.931 1.555 1.654 10626
1.987 1.600 1.689 10020
1.969 1.586 1.665 10051
1.957 1.576 1.645 8099
1.950 1.570 1.630 7883
1.953 1.573 1.622 7240
2.041 1.644 1.680 7290
2.029 1.634 1.661 9869
2.027 1.632 1.649 13123
2.020 1.627 1.634 15038
2.023 1.629 1.626 17829
2.032 1.636 1.623 17906
2.030 1.635 1.612 16543
2.033 1.638 1.604 15181
2.037 1.640 1.597 15028
2.040 1.643 1.589 14875
2.043 1.646 1.582 14547
2.046 1.648 1.574 11801
2.050 1.651 1.567 9383
2.053 1.653 1.559 7269
2.062 1.660 1.555 5185
2.330 1.877 1.733 4421
2.328 1.875 1.720 5669
2.338 1.883 1.716 5282
2.357 1.899 1.718 3916
2.421 1.950 1.750 4390
2.397 1.931 1.723 5874
2.390 1.925 1.707 6244
2.388 1.923 1.694 5101
2.479 1.997 1.743 6056
2.478 1.995 1.730 9177
2.476 1.994 1.718 9298
2.474 1.992 1.705 7356
2.472 1.991 1.692 6030
2.475 1.994 1.683 6501
2.556 2.059 1.723 9631
2.560 2.062 1.714 13559
2.569 2.069 1.708 13642
2.572 2.072 1.698 10926
2.582 2.079 1.692 8217
2.585 2.082 1.682 6452
2.589 2.085 1.673 5014
2.586 2.083 1.660 6440
2.590 2.086 1.651 9883
2.605 2.098 1.648 11848
2.614 2.105 1.641 12382
2.611 2.103 1.628 12545
2.609 2.101 1.615 16368
2.612 2.104 1.606 20762
2.616 2.107 1.596 19086
2.613 2.105 1.583 10672
2.617 2.107 1.574 5991
2.626 2.115 1.567 7323
2.635 2.122 1.561 8908
2.643 2.129 1.554 7416
2.658 2.141 1.550 5820
2.661 2.143 1.541 7711
2.670 2.150 1.534 11271
2.673 2.153 1.524 15226
2.671 2.151 1.511 18605
2.674 2.153 1.501 21263
2.677 2.156 1.491 23247
2.674 2.154 1.479 19395
2.666 2.147 1.463 14495
2.669 2.149 1.453 11674
2.672 2.152 1.443 8498
2.709 2.182 1.450 11158
2.706 2.180 1.437 16189
2.709 2.182 1.427 16104
2.718 2.189 1.420 10813
2.721 2.191 1.410 9489
2.718 2.189 1.397 9593
2.733 2.201 1.393 6642
2.741 2.208 1.385 4956
2.744 2.210 1.375 4664
2.741 2.208 1.363 4753
2.726 2.196 1.345 8142
2.735 2.203 1.337 13575
2.743 2.209 1.330 14640
2.752 2.216 1.322 13339
2.755 2.219 1.312 13392
2.757 2.221 1.302 13331
2.760 2.223 1.291 13211
2.757 2.220 1.279 9539
2.742 2.208 1.261 6917
2.750 2.215 1.254 7670
2.758 2.222 1.246 6360
2.767 2.228 1.238 5123
2.787 2.245 1.235 5040
2.754 2.218 1.211 4927
2.757 2.220 1.200 5962
2.759 2.222 1.190 4584
2.767 2.229 1.182 2970
2.775 2.235 1.174 2141
4.246 3.419 1.714 2541
4.083 3.289 1.637 2678
4.087 3.291 1.622 3005
4.274 3.442 1.673 3270
4.278 3.445 1.657 4259
4.275 3.443 1.639 5847
4.278 3.446 1.623 6830
4.282 3.448 1.608 4789
4.142 3.336 1.543 4399
4.169 3.358 1.535 6556
4.178 3.365 1.522 7259
4.390 3.536 1.575 6570
4.400 3.543 1.561 5467
4.253 3.426 1.497 6219
4.783 3.852 1.648 6648
4.786 3.855 1.631 5167
5.143 4.142 1.723 3582
5.141 4.140 1.702 3476
5.150 4.148 1.684 2400
5.382 4.335 1.733 2275
5.374 4.328 1.710 2947
5.371 4.326 1.688 4731
5.658 4.557 1.749 5880
5.661 4.560 1.728 5027
5.671 4.567 1.709 3971
5.693 4.585 1.693 3323
5.720 4.607 1.678 3468
5.754 4.634 1.665 4326
1.777 1.431 0.596 4435
1.784 1.437 0.591 6872
1.785 1.438 0.584 8381
1.792 1.443 0.579 9296
1.793 1.444 0.573 9117
1.788 1.440 0.565 7747
1.795 1.446 0.560 5901
1.796 1.446 0.553 3694
1.870 1.506 0.563 3771
1.871 1.507 0.556 5183
1.872 1.507 0.550 6396
1.872 1.508 0.543 7271
1.873 1.509 0.536 7070
1.874 1.509 0.529 5847
2.161 1.741 0.582 4537
2.162 1.741 0.574 6518
2.163 1.742 0.566 8049
2.164 1.743 0.558 8300
2.165 1.744 0.550 7800
2.166 1.744 0.542 6605
2.167 1.745 0.534 5068
2.168 1.746 0.526 3598
2.169 1.747 0.518 2407
6.190 4.985 1.211 3889
6.174 4.972 1.185 3860
6.194 4.989 1.165 2841
6.197 4.991 1.142 2326
6.425 5.175 1.155 1169
6.734 5.423 1.179 1124
9.014 7.260 1.499 1203
9.029 7.272 1.467 1640
9.050 7.289 1.436 1289
9.200 7.410 1.423 1304
9.203 7.412 1.388 1323
9.206 7.415 1.354 1332
9.209 7.417 1.320 1255
9.218 7.424 1.286 919
1.971 1.587 0.373 993
9.788 7.883 1.283 1116
1.548 1.247 0.310 1431
1.548 1.247 0.305 1654
1.536 1.237 0.298 1564
1.531 1.233 0.292 1481
1.525 1.228 0.285 1441
1.525 1.228 0.280 1498
2.405 1.937 0.354 1578
2.405 1.937 0.346 1987
2.406 1.938 0.337 2132
2.406 1.938 0.328 2074
2.407 1.938 0.319 1785
2.407 1.939 0.310 1549
2.408 1.939 0.301 1251
2.408 1.939 0.292 716
1.866 1.503 0.250 708
1.860 1.498 0.243 1094
1.861 1.499 0.236 1388
1.855 1.494 0.229 1632
1.855 1.494 0.223 1654
1.855 1.494 0.216 1546
1.855 1.494 0.209 1304
1.849 1.489 0.202 865
1.516 1.221 0.185 1000
1.517 1.221 0.179 1114
1.517 1.222 0.174 1166
1.517 1.222 0.168 1174
1.517 1.222 0.163 1091
1.517 1.222 0.157 884
1.517 1.222 0.152 730
2.294 1.847 0.150 594
2.294 1.847 0.141 671
2.294 1.847 0.133 631
2.300 1.852 0.124 532
2.300 1.852 0.116 435
2.294 1.847 0.108 331
1.619 1.304 0.017 297
1.619 1.304 0.011 343
1.612 1.298 0.005 512
1.612 1.298 -0.001 663
1.611 1.298 -0.006 685
1.611 1.298 -0.012 710
1.611 1.297 -0.018 560
1.610 1.297 -0.024 410
1.616 1.302 -0.031 317
1.628 1.311 -0.044 329
1.621 1.306 -0.049 425
1.621 1.305 -0.055 428
1.620 1.305 -0.061 416
1.620 1.305 -0.067 402
1.619 1.304 -0.073 318
1.293 1.041 -0.048 388
1.779 1.422 1.755 6450
1.783 1.425 1.748 12900
1.787 1.428 1.742 12900
1.790 1.431 1.735 12408
1.799 1.437 1.733 11924
1.803 1.440 1.727 11570
1.806 1.443 1.720 11215
1.810 1.446 1.713 11215
1.814 1.449 1.707 10305
1.817 1.452 1.700 9394
1.821 1.455 1.694 8010
1.850 1.478 1.709 7220
1.874 1.497 1.720 8085
1.878 1.500 1.713 9070
1.891 1.511 1.715 7398
1.921 1.535 1.730 6312
1.924 1.538 1.723 6374
1.923 1.536 1.712 7621
1.926 1.539 1.705 8870
1.935 1.546 1.702 8593
1.949 1.557 1.703 9069
1.953 1.560 1.696 10167
1.956 1.563 1.689 11265
1.960 1.566 1.682 10096
1.995 1.594 1.700 9643
1.993 1.592 1.689 9717
1.981 1.583 1.669 10307
1.968 1.573 1.649 7567
1.956 1.563 1.630 6222
2.039 1.629 1.684 6270
2.048 1.636 1.680 8025
2.035 1.626 1.661 10336
2.033 1.625 1.649 14107
2.026 1.619 1.634 16348
2.029 1.622 1.626 18782
2.033 1.624 1.619 18455
2.036 1.627 1.612 16725
2.040 1.630 1.604 14995
2.043 1.632 1.597 14684
2.046 1.635 1.589 14372
2.050 1.638 1.582 14083
2.053 1.640 1.574 11405
2.056 1.643 1.567 9016
2.059 1.645 1.559 7005
2.068 1.652 1.555 5031
2.338 1.868 1.733 4523
2.336 1.866 1.720 6027
2.345 1.873 1.716 5433
2.365 1.889 1.718 4024
2.401 1.919 1.732 4221
2.405 1.921 1.723 5928
2.403 1.920 1.710 6286
2.401 1.918 1.698 4969
2.487 1.987 1.743 5304
2.485 1.986 1.730 8460
2.483 1.984 1.718 8789
2.481 1.983 1.705 7426
2.491 1.990 1.699 6665
2.489 1.988 1.687 7100
2.564 2.049 1.723 7779
2.568 2.052 1.714 10593
2.577 2.059 1.708 10630
2.581 2.062 1.698 9680
2.584 2.065 1.689 9599
2.588 2.067 1.679 9040
2.591 2.070 1.670 7613
2.589 2.069 1.657 6802
2.598 2.076 1.651 8121
2.607 2.083 1.644 9613
2.622 2.095 1.641 9634
2.614 2.088 1.625 11597
2.617 2.091 1.615 17096
2.615 2.089 1.603 21332
2.618 2.092 1.593 19983
2.622 2.095 1.583 12373
2.625 2.097 1.574 7980
2.634 2.104 1.567 9954
2.643 2.112 1.561 11265
2.652 2.119 1.554 7647
2.666 2.130 1.550 4629
2.670 2.133 1.541 5909
2.673 2.135 1.531 8248
2.682 2.143 1.524 10932
2.679 2.141 1.511 14152
2.676 2.138 1.498 17665
2.680 2.141 1.488 22843
2.677 2.139 1.476 24555
2.674 2.137 1.463 21540
2.677 2.139 1.453 17883
2.680 2.141 1.443 12870
2.695 2.153 1.439 8235
2.715 2.169 1.437 10297
2.718 2.172 1.427 10612
2.727 2.179 1.420 6711
2.718 2.172 1.405 6696
2.715 2.169 1.392 9183
2.718 2.171 1.382 7482
2.721 2.174 1.372 7620
2.735 2.185 1.367 8869
2.738 2.188 1.357 8648
2.729 2.180 1.342 10798
2.738 2.187 1.334 13632
2.746 2.194 1.327 12085
2.761 2.206 1.322 8222
2.763 2.208 1.312 8207
2.766 2.210 1.302 10219
2.769 2.212 1.291 10910
2.765 2.209 1.279 7568
2.750 2.197 1.261 6878
2.765 2.209 1.256 8355
2.767 2.211 1.246 6632
2.781 2.222 1.240 5376
2.790 2.229 1.233 5500
2.769 2.212 1.213 4759
2.765 2.209 1.200 5485
2.773 2.216 1.193 4387
2.711 2.166 1.157 2697
2.707 2.163 1.145 2924
2.703 2.160 1.133 2280
4.096 3.273 1.637 3794
4.094 3.271 1.620 4607
4.103 3.278 1.607 3528
4.059 3.243 1.574 3859
4.068 3.250 1.561 3647
4.083 3.262 1.551 4029
4.092 3.270 1.537 5064
4.155 3.320 1.543 5686
4.176 3.337 1.533 7904
4.191 3.349 1.522 8329
4.105 3.280 1.477 5119
4.120 3.292 1.466 4807
4.261 3.404 1.495 5567
4.252 3.397 1.475 5597
4.231 3.380 1.452 5137
4.234 3.383 1.436 4117
5.163 4.125 1.703 3956
5.167 4.128 1.684 2882
5.279 4.217 1.697 2535
5.373 4.293 1.704 3239
5.388 4.305 1.688 5436
5.675 4.534 1.749 5747
5.679 4.537 1.728 4942
5.683 4.540 1.707 3984
5.710 4.562 1.693 3583
5.732 4.580 1.676 3436
5.802 4.636 1.673 4360
5.824 4.653 1.656 3602
1.783 1.425 0.589 3437
5.818 4.649 1.610 4299
5.828 4.656 1.590 6578
5.825 4.654 1.566 6760
5.828 4.657 1.545 7405
5.838 4.664 1.525 7564
1.874 1.498 0.570 6450
1.875 1.498 0.563 9608
1.876 1.499 0.556 12231
1.877 1.500 0.550 14325
1.878 1.501 0.543 15623
1.879 1.501 0.536 14529
1.880 1.502 0.529 11456
1.881 1.503 0.522 8232
2.169 1.733 0.574 8266
2.170 1.734 0.566 11030
2.171 1.734 0.558 11946
2.172 1.735 0.550 11682
2.173 1.736 0.542 10404
2.174 1.737 0.534 8458
2.175 1.737 0.526 6225
2.175 1.738 0.518 4068
6.203 4.956 1.210 4334
6.193 4.948 1.185 4463
6.201 4.955 1.163 3340
6.210 4.962 1.141 2658
6.188 4.944 1.114 1504
6.755 5.397 1.179 1357
2.230 1.782 0.470 1541
2.231 1.782 0.462 1774
2.232 1.783 0.453 1713
2.232 1.784 0.445 1251
8.937 7.140 1.348 1079
1.975 1.578 0.395 1111
1.976 1.579 0.388 1155
1.976 1.579 0.380 1164
1.977 1.580 0.373 1138
1.977 1.580 0.366 1182
9.815 7.842 1.246 1147
9.817 7.844 1.210 1238
9.296 7.427 1.118 1211
9.298 7.429 1.083 1509
9.300 7.430 1.049 1309
9.197 7.348 1.004 1362
9.193 7.345 0.969 1547
9.188 7.341 0.935 1710
9.190 7.343 0.900 1364
1.858 1.485 0.284 1173
1.852 1.480 0.276 1898
1.853 1.480 0.270 2788
1.859 1.486 0.263 3143
1.853 1.481 0.256 3119
1.854 1.481 0.249 2739
1.854 1.481 0.243 2029
1.848 1.476 0.235 1578
1.848 1.477 0.229 1104
2.293 1.832 0.242 1017
1.521 1.215 0.202 1209
1.521 1.215 0.196 1452
1.521 1.215 0.190 1723
1.521 1.215 0.185 2162
1.521 1.216 0.179 2361
1.521 1.216 0.174 2531
1.521 1.216 0.168 2630
1.522 1.216 0.163 2597
1.522 1.216 0.157 2452
1.522 1.216 0.152 2299
1.522 1.216 0.146 2089
1.522 1.216 0.141 1614
1.515 1.211 0.135 1312
1.522 1.216 0.130 1022
1.522 1.216 0.124 773
1.522 1.216 0.119 596
1.522 1.216 0.113 420
1.528 1.221 0.107 329
1.929 1.541 0.071 260
1.929 1.541 0.064 309
1.929 1.541 0.056 352
1.929 1.541 0.049 396
1.928 1.541 0.042 422
1.928 1.541 0.035 449
1.928 1.540 0.028 441
1.928 1.540 0.021 432
1.927 1.540 0.014 385
1.927 1.540 0.007 338
1.927 1.539 0.000 273
1.605 1.282 0.012 268
1.605 1.282 0.006 330
1.604 1.282 0.001 389
1.610 1.287 -0.006 339
1.604 1.281 -0.011 288
1.615 1.290 -0.036 293
1.620 1.295 -0.042 349
1.626 1.299 -0.049 415
1.626 1.299 -0.055 412
1.631 1.303 -0.062 373
1.631 1.303 -0.068 345
1.630 1.303 -0.074 259
2.503 2.000 -0.200 251
2.502 1.999 -0.209 281
1.297 1.036 -0.048 273
1.785 1.415 1.755 6964
1.789 1.418 1.748 13928
1.792 1.421 1.742 13928
1.796 1.424 1.735 13295
1.805 1.431 1.733 12664
1.808 1.434 1.727 11998
1.812 1.436 1.720 11332
1.815 1.439 1.713 11332
1.819 1.442 1.707 10747
1.823 1.445 1.700 10163
1.847 1.464 1.711 8809
1.876 1.487 1.727 9559
1.880 1.490 1.720 10613
1.888 1.497 1.718 11747
1.897 1.504 1.715 9340
1.911 1.515 1.717 7500
1.909 1.514 1.706 7456
1.929 1.529 1.712 8715
1.932 1.532 1.705 10108
1.941 1.539 1.702 10468
1.950 1.546 1.699 11605
1.959 1.553 1.696 11591
1.962 1.556 1.689 11702
1.966 1.558 1.682 10392
1.974 1.565 1.679 9144
1.983 1.572 1.676 9622
1.987 1.575 1.669 10212
2.001 1.586 1.670 7322
2.036 1.614 1.687 6437
2.050 1.625 1.688 7138
2.059 1.632 1.685 8757
2.036 1.614 1.657 10044
2.034 1.613 1.645 14080
2.032 1.611 1.634 16546
2.036 1.614 1.626 18487
2.039 1.616 1.619 17830
2.042 1.619 1.612 15648
2.046 1.622 1.604 13465
2.049 1.624 1.597 12837
2.052 1.627 1.589 12209
2.056 1.630 1.582 12056
2.059 1.632 1.574 9741
2.062 1.635 1.567 7579
2.066 1.638 1.559 5836
2.074 1.644 1.555 4125
2.345 1.859 1.733 4826
2.343 1.857 1.720 6772
2.352 1.865 1.716 5976
2.372 1.880 1.718 4379
2.408 1.909 1.732 4363
2.412 1.912 1.723 5936
2.410 1.911 1.710 6084
2.414 1.914 1.701 4638
2.489 1.973 1.740 4635
2.493 1.976 1.730 7433
2.485 1.970 1.714 8113
2.494 1.978 1.709 8363
2.498 1.980 1.699 8725
2.496 1.979 1.687 8518
2.500 1.982 1.678 7569
2.581 2.046 1.717 6082
2.585 2.049 1.708 5954
2.588 2.052 1.698 5869
2.586 2.050 1.685 7640
2.590 2.053 1.676 9218
2.593 2.056 1.666 8998
2.591 2.054 1.653 7777
2.595 2.057 1.644 8297
2.609 2.069 1.641 8583
2.613 2.071 1.631 7262
2.616 2.074 1.622 10103
2.625 2.081 1.615 16211
2.623 2.079 1.603 20673
2.626 2.082 1.593 18640
2.630 2.085 1.583 12422
2.633 2.087 1.574 9472
2.642 2.094 1.567 11976
2.645 2.097 1.558 13449
2.648 2.100 1.548 8919
2.646 2.098 1.535 4242
2.678 2.123 1.541 4456
2.681 2.125 1.531 6036
2.690 2.132 1.524 6886
2.681 2.126 1.508 9568
2.679 2.124 1.495 13957
2.682 2.126 1.485 21610
2.685 2.129 1.476 28238
2.682 2.126 1.463 27394
2.685 2.129 1.453 23572
2.688 2.131 1.443 17212
2.685 2.129 1.430 8977
2.723 2.159 1.437 4565
2.732 2.166 1.430 5150
2.729 2.164 1.417 3996
2.709 2.147 1.396 6830
2.717 2.154 1.389 10146
2.720 2.157 1.379 10005
2.723 2.159 1.369 12058
2.738 2.170 1.365 13076
2.740 2.172 1.355 12412
2.737 2.170 1.342 14806
2.746 2.177 1.334 15421
2.754 2.184 1.327 10860
2.763 2.190 1.319 5219
2.766 2.193 1.309 5320
2.774 2.199 1.302 8392
2.777 2.201 1.291 9399
2.774 2.199 1.279 6560
2.764 2.192 1.264 7046
2.773 2.198 1.256 9224
2.781 2.205 1.248 7105
2.790 2.212 1.240 6255
2.798 2.218 1.233 6444
2.795 2.216 1.220 4902
2.702 2.142 1.173 5839
2.711 2.149 1.165 5161
2.719 2.155 1.157 4199
2.721 2.157 1.147 4316
4.141 3.283 1.665 3129
4.097 3.248 1.632 4976
4.094 3.246 1.615 7372
4.091 3.244 1.598 5502
4.071 3.227 1.574 5317
4.080 3.235 1.561 4139
4.095 3.247 1.551 3361
4.099 3.249 1.535 5638
4.090 3.242 1.516 7576
4.183 3.316 1.531 7754
4.096 3.247 1.486 8376
4.123 3.269 1.479 9227
4.138 3.281 1.468 7745
4.147 3.288 1.454 4900
4.253 3.371 1.471 5039
4.237 3.359 1.450 5363
4.247 3.367 1.436 4593
4.153 3.292 1.391 4075
5.182 4.108 1.684 2804
5.295 4.197 1.697 2739
5.389 4.272 1.704 3387
5.404 4.284 1.688 5202
5.693 4.513 1.749 4521
5.690 4.511 1.726 4050
5.694 4.514 1.705 3707
5.722 4.536 1.691 3493
5.737 4.548 1.673 3269
5.826 4.618 1.674 4255
1.794 1.422 0.597 4413
1.795 1.423 0.591 8085
1.796 1.424 0.584 10782
1.803 1.429 0.579 12648
1.798 1.425 0.571 11932
1.799 1.426 0.565 9042
5.855 4.642 1.525 8119
1.880 1.491 0.570 8991
1.881 1.491 0.563 13173
1.882 1.492 0.556 16619
1.883 1.493 0.550 19454
1.884 1.494 0.543 21495
1.885 1.494 0.536 20668
1.886 1.495 0.529 17242
1.887 1.496 0.522 13069
1.888 1.496 0.515 8847
2.176 1.725 0.566 10065
2.177 1.726 0.558 10987
2.178 1.727 0.550 10929
2.179 1.728 0.542 9891
2.180 1.728 0.534 8198
2.181 1.729 0.526 6249
2.182 1.730 0.518 4227
6.209 4.923 1.208 3406
6.212 4.924 1.185 3812
6.214 4.926 1.162 3127
6.223 4.933 1.140 2676
6.213 4.925 1.115 1948
6.215 4.927 1.092 1436
6.568 5.207 1.122 1227
2.238 1.774 0.462 1195
2.232 1.770 0.453 1374
8.949 7.094 1.380 1112
8.933 7.082 1.344 993
8.985 7.123 1.317 948
9.000 7.135 1.286 1007
6.706 5.316 0.967 1106
6.708 5.318 0.942 932
9.094 7.210 1.196 912
9.838 7.799 1.246 775
9.439 7.483 1.165 868
9.324 7.392 1.118 1139
9.320 7.388 1.083 1405
1.955 1.550 0.327 1251
1.955 1.550 0.320 1475
1.956 1.550 0.312 1569
1.956 1.551 0.305 1651
1.957 1.551 0.298 1572
1.963 1.556 0.292 1511
1.957 1.552 0.284 1376
1.858 1.473 0.270 1767
1.859 1.474 0.263 2187
1.859 1.474 0.256 2452
1.859 1.474 0.249 2796
1.859 1.474 0.243 2700
1.860 1.474 0.236 2487
1.860 1.474 0.229 2040
2.300 1.824 0.242 1435
2.301 1.824 0.234 1221
2.301 1.824 0.226 1051
1.526 1.210 0.190 1190
1.532 1.215 0.185 1606
1.526 1.210 0.179 1828
1.526 1.210 0.174 2037
1.532 1.215 0.168 2205
1.526 1.210 0.163 2311
1.526 1.210 0.157 2388
1.526 1.210 0.152 2335
1.526 1.210 0.146 2164
1.526 1.210 0.141 1716
1.526 1.210 0.135 1412
1.526 1.210 0.130 1092
1.526 1.210 0.124 798
1.526 1.210 0.119 576
1.526 1.210 0.113 354
1.935 1.534 0.099 295
1.935 1.534 0.092 402
1.935 1.534 0.085 547
1.941 1.539 0.077 698
1.935 1.534 0.071 844
1.935 1.534 0.064 995
1.935 1.534 0.056 1120
1.934 1.534 0.049 1244
1.934 1.533 0.042 1295
1.940 1.538 0.035 1348
1.934 1.533 0.028 1299
1.933 1.533 0.021 1253
1.933 1.533 0.014 1095
1.933 1.532 0.007 936
1.933 1.532 0.000 749
1.932 1.532 -0.007 562
1.932 1.532 -0.014 411
1.932 1.531 -0.021 259
2.513 1.992 -0.172 282
2.512 1.992 -0.182 374
2.512 1.991 -0.191 374
2.511 1.990 -0.200 442
2.510 1.990 -0.209 509
2.509 1.989 -0.218 254
1.792 1.406 1.755 7151
1.795 1.409 1.748 14302
1.799 1.412 1.742 14302
1.803 1.415 1.735 13565
1.806 1.418 1.729 12827
1.815 1.425 1.727 11950
1.819 1.428 1.720 11092
1.822 1.430 1.713 11092
1.826 1.433 1.707 10993
1.835 1.440 1.705 10990
1.859 1.459 1.716 10338
1.878 1.474 1.723 11349
1.887 1.481 1.720 12295
1.896 1.488 1.718 13427
1.904 1.495 1.715 10552
1.918 1.506 1.717 8336
1.922 1.509 1.710 8282
1.936 1.520 1.712 9565
1.940 1.522 1.705 11083
1.948 1.529 1.702 11921
1.957 1.536 1.699 13436
1.961 1.539 1.692 12870
1.964 1.542 1.685 12304
1.968 1.545 1.678 10877
1.977 1.552 1.675 9497
1.980 1.554 1.668 9582
1.994 1.565 1.669 9809
2.009 1.576 1.670 7837
2.039 1.600 1.683 7943
2.047 1.607 1.680 8290
2.067 1.622 1.685 9387
2.038 1.600 1.653 10311
2.037 1.598 1.641 13343
2.035 1.597 1.630 15818
2.043 1.604 1.626 17193
2.047 1.607 1.619 16474
2.050 1.609 1.612 13848
2.054 1.612 1.604 11222
2.057 1.614 1.597 10230
2.060 1.617 1.589 9238
2.064 1.620 1.582 9338
2.067 1.622 1.574 7645
2.070 1.625 1.567 5853
2.074 1.627 1.559 4452
2.355 1.849 1.745 3325
2.354 1.847 1.733 5518
2.352 1.846 1.720 7854
2.361 1.853 1.716 6896
2.381 1.869 1.718 5024
2.418 1.898 1.732 4555
2.416 1.896 1.719 6018
2.414 1.895 1.707 5917
2.418 1.897 1.698 4393
2.493 1.957 1.736 4490
2.497 1.960 1.727 6238
2.500 1.963 1.718 7118
2.510 1.970 1.712 9168
2.508 1.968 1.699 10248
2.506 1.967 1.687 9739
2.509 1.969 1.678 7810
2.518 1.977 1.672 5316
1.877 1.473 1.266 4720
1.880 1.475 1.260 5010
2.585 2.029 1.678 5776
2.594 2.036 1.672 8647
2.598 2.039 1.663 9603
2.596 2.037 1.650 8909
2.599 2.040 1.641 9660
2.608 2.047 1.634 9343
2.617 2.054 1.628 7696
2.626 2.061 1.622 8902
2.630 2.064 1.612 14314
2.633 2.067 1.603 19184
2.636 2.069 1.593 16481
2.640 2.072 1.583 11778
2.643 2.074 1.574 10585
2.652 2.082 1.567 12885
2.655 2.084 1.558 14817
2.653 2.082 1.545 11029
2.650 2.080 1.532 6797
2.642 2.074 1.516 6023
2.674 2.099 1.522 5408
2.689 2.110 1.518 4220
2.686 2.108 1.505 6268
2.678 2.102 1.489 11062
2.686 2.109 1.482 19490
2.689 2.111 1.473 28685
2.693 2.113 1.463 29101
2.696 2.116 1.453 25673
2.699 2.118 1.443 19374
2.696 2.116 1.430 10702
2.699 2.118 1.421 5533
2.707 2.125 1.414 4502
2.716 2.132 1.406 4766
2.719 2.134 1.396 7515
2.722 2.136 1.387 10663
2.725 2.139 1.377 11444
2.728 2.141 1.367 14677
2.736 2.148 1.359 15149
2.745 2.154 1.352 14222
2.748 2.157 1.342 17792
2.756 2.163 1.334 17961
2.765 2.170 1.327 11723
2.768 2.172 1.317 5255
2.770 2.174 1.307 5109
2.779 2.181 1.299 7633
2.788 2.188 1.291 8819
2.790 2.190 1.281 7013
2.775 2.178 1.264 7759
2.784 2.185 1.256 9627
2.792 2.191 1.248 8061
2.795 2.193 1.238 7979
2.803 2.200 1.230 7497
2.806 2.202 1.220 4883
2.713 2.129 1.173 6163
2.721 2.136 1.165 5674
2.723 2.138 1.155 4720
2.732 2.144 1.147 4718
4.157 3.263 1.665 3486
4.106 3.223 1.630 5860
4.104 3.221 1.613 9319
4.101 3.219 1.596 7477
4.087 3.207 1.574 6504
4.084 3.205 1.557 4204
4.087 3.208 1.542 3020
4.102 3.220 1.531 6850
4.099 3.218 1.514 9788
4.103 3.220 1.499 10173
4.106 3.222 1.484 12188
4.121 3.234 1.473 11003
4.148 3.256 1.466 7956
4.151 3.258 1.450 4637
4.160 3.265 1.437 3999
4.260 3.343 1.452 4538
4.154 3.260 1.403 4790
4.163 3.267 1.389 6181
4.172 3.274 1.376 3079
5.315 4.172 1.697 2233
5.410 4.246 1.704 3011
5.425 4.258 1.688 4241
5.435 4.266 1.670 3293
5.700 4.474 1.723 3442
5.703 4.477 1.702 3545
5.731 4.498 1.688 2815
5.747 4.511 1.670 2632
5.848 4.590 1.674 3455
5.864 4.602 1.656 3294
5.721 4.490 1.597 2282
5.871 4.608 1.613 3949
1.810 1.421 0.579 6631
1.811 1.421 0.573 9333
1.806 1.417 0.565 9790
1.813 1.423 0.560 8766
1.887 1.481 0.570 9702
1.888 1.482 0.563 14092
1.889 1.483 0.556 17876
1.890 1.484 0.550 21292
1.891 1.484 0.543 23971
1.892 1.485 0.536 23381
1.893 1.486 0.529 19745
1.894 1.487 0.522 15104
1.895 1.487 0.515 10312
2.185 1.715 0.566 7178
2.186 1.716 0.558 8164
2.187 1.716 0.550 8474
2.188 1.717 0.542 7990
2.189 1.718 0.534 6900
2.190 1.718 0.526 5397
2.190 1.719 0.518 3837
6.153 4.829 1.194 3842
6.229 4.889 1.184 2826
6.232 4.891 1.161 2612
6.234 4.893 1.138 2476
6.230 4.890 1.114 2124
6.232 4.892 1.091 1858
6.210 4.874 1.065 1371
6.292 4.939 1.053 1343
6.288 4.936 1.029 1044
2.043 1.604 0.417 1156
2.044 1.604 0.410 1472
2.045 1.605 0.402 1512
2.039 1.600 0.394 1318
2.040 1.601 0.386 889
9.121 7.159 1.229 863
9.129 7.165 1.196 973
6.886 5.405 0.909 943
1.967 1.544 0.349 1249
1.955 1.535 0.340 1596
1.956 1.535 0.333 1967
1.956 1.535 0.326 2403
1.957 1.536 0.319 2539
1.963 1.541 0.312 2511
1.964 1.541 0.305 2228
1.964 1.542 0.298 1741
1.964 1.542 0.291 1521
9.276 7.280 0.833 1528
9.277 7.281 0.799 1509
1.866 1.464 0.263 1583
1.860 1.460 0.256 1769
1.860 1.460 0.249 2006
1.860 1.460 0.242 1918
1.861 1.460 0.235 1795
1.861 1.461 0.229 1526
2.309 1.812 0.242 1479
1.531 1.202 0.202 2092
1.531 1.202 0.196 2570
1.532 1.202 0.190 3131
1.532 1.202 0.185 4030
1.532 1.202 0.179 4426
1.532 1.202 0.174 4727
1.532 1.202 0.168 4888
1.532 1.202 0.163 4774
1.532 1.203 0.157 4355
1.532 1.203 0.152 3969
1.532 1.203 0.146 3463
1.526 1.198 0.141 2461
1.526 1.198 0.135 1916
1.532 1.203 0.130 1378
1.532 1.203 0.124 944
1.532 1.202 0.119 667
1.532 1.202 0.113 389
1.949 1.530 0.077 311
1.949 1.529 0.070 423
1.948 1.529 0.063 535
1.948 1.529 0.056 646
1.942 1.524 0.049 760
1.948 1.529 0.042 817
1.948 1.529 0.035 878
1.947 1.528 0.028 843
1.947 1.528 0.021 809
1.941 1.523 0.014 716
1.940 1.523 0.007 629
1.946 1.528 -0.000 519
1.946 1.527 -0.007 417
1.946 1.527 -0.014 315
4.143 3.252 -0.238 306
4.136 3.246 -0.253 284
4.123 3.236 -0.267 295
4.122 3.235 -0.282 295
1.798 1.399 1.755 6929
1.801 1.401 1.748 13859
1.805 1.404 1.742 13859
1.809 1.407 1.735 13258
1.813 1.410 1.729 12657
1.821 1.417 1.727 11880
1.825 1.420 1.720 11178
1.829 1.423 1.713 11178
1.837 1.429 1.711 11560
1.851 1.440 1.714 12323
1.865 1.451 1.716 11868
1.884 1.466 1.723 12584
1.893 1.473 1.720 13242
1.902 1.480 1.718 14417
1.916 1.491 1.720 11444
1.925 1.497 1.717 9040
1.928 1.500 1.710 9006
1.937 1.507 1.707 10294
1.946 1.514 1.705 11805
1.955 1.521 1.702 13072
1.959 1.524 1.695 14920
1.962 1.527 1.688 14108
1.971 1.533 1.685 13358
1.975 1.536 1.678 11721
1.978 1.539 1.671 10084
1.982 1.542 1.663 9747
1.990 1.549 1.660 9436
2.015 1.568 1.670 8345
2.045 1.591 1.683 9454
2.049 1.594 1.676 10069
2.047 1.593 1.664 10705
2.040 1.587 1.649 11067
2.038 1.586 1.637 12256
2.042 1.588 1.630 14365
2.045 1.591 1.622 15338
2.054 1.598 1.619 14759
2.057 1.600 1.612 11769
2.066 1.607 1.608 8918
2.069 1.610 1.601 7150
2.067 1.608 1.589 5484
2.071 1.611 1.582 5840
2.254 1.754 1.701 6576
2.258 1.756 1.693 5077
2.327 1.810 1.731 3640
2.363 1.839 1.745 4208
2.367 1.842 1.737 6695
2.365 1.840 1.724 9347
2.374 1.847 1.719 8161
2.389 1.859 1.718 5811
2.420 1.883 1.728 4909
2.424 1.886 1.719 6275
2.417 1.880 1.703 6208
2.492 1.939 1.741 5030
2.496 1.942 1.732 4672
2.511 1.953 1.730 4951
2.514 1.956 1.721 6337
2.524 1.963 1.716 10125
2.516 1.957 1.699 11358
2.514 1.956 1.687 10716
2.523 1.963 1.681 7902
2.544 1.979 1.682 6279
2.547 1.982 1.673 6761
2.556 1.989 1.667 6868
2.582 2.009 1.672 6549
2.597 2.021 1.669 7974
2.601 2.023 1.660 8937
2.599 2.022 1.647 8823
2.608 2.029 1.641 9916
2.617 2.036 1.634 9777
2.620 2.038 1.625 8387
2.629 2.046 1.619 7868
2.633 2.048 1.609 12192
2.636 2.051 1.599 17924
2.640 2.053 1.590 15200
2.643 2.056 1.580 11827
2.646 2.059 1.571 12124
2.655 2.066 1.564 13424
2.664 2.073 1.558 15519
2.662 2.071 1.545 13396
2.653 2.064 1.529 10143
2.651 2.062 1.516 10182
2.660 2.069 1.510 7701
2.669 2.076 1.503 4768
2.672 2.079 1.493 7385
2.675 2.081 1.483 10777
2.690 2.092 1.480 16901
2.699 2.099 1.473 25738
2.702 2.102 1.463 26752
2.705 2.104 1.453 24186
2.708 2.106 1.443 19263
2.705 2.104 1.430 13300
2.708 2.107 1.421 10863
2.717 2.113 1.414 10073
2.719 2.116 1.404 8516
2.728 2.122 1.396 8211
2.731 2.125 1.387 9065
2.728 2.122 1.374 11859
2.731 2.125 1.364 17302
2.734 2.127 1.354 17821
2.742 2.134 1.347 16449
2.751 2.140 1.339 19586
2.766 2.152 1.334 19566
2.774 2.158 1.327 13385
2.771 2.156 1.314 6685
2.774 2.158 1.304 5665
2.788 2.169 1.299 7222
2.797 2.176 1.291 8449
2.800 2.178 1.281 7723
2.790 2.171 1.266 8393
2.793 2.173 1.256 9298
2.801 2.179 1.248 8867
2.804 2.181 1.238 9358
2.812 2.188 1.230 7511
2.815 2.190 1.220 4325
2.728 2.122 1.175 5499
2.730 2.124 1.165 4928
2.733 2.126 1.155 3930
2.741 2.132 1.147 3956
4.099 3.189 1.639 4539
4.114 3.201 1.628 6917
4.118 3.203 1.613 10397
4.115 3.201 1.596 9844
4.100 3.190 1.574 8402
4.098 3.188 1.557 6391
4.095 3.186 1.540 6883
4.110 3.197 1.529 9392
4.113 3.200 1.514 10980
4.110 3.198 1.497 11596
4.119 3.205 1.484 14590
4.123 3.207 1.469 13482
4.126 3.210 1.454 9283
4.129 3.212 1.439 6427
4.144 3.224 1.427 4005
4.147 3.226 1.412 3746
4.162 3.238 1.401 5535
4.171 3.245 1.387 6365
4.180 3.252 1.374 2789
1.961 1.526 0.704 2259
1.962 1.527 0.697 2776
1.964 1.528 0.690 2997
5.697 4.432 1.739 3100
5.707 4.440 1.720 3839
5.723 4.452 1.702 3968
5.732 4.460 1.683 2566
5.754 4.477 1.666 2236
1.806 1.405 0.604 2736
1.807 1.406 0.597 3146
1.814 1.411 0.592 3859
1.815 1.412 0.586 4793
1.816 1.413 0.579 5508
1.817 1.414 0.573 5137
1.818 1.414 0.566 3855
1.893 1.472 0.577 4659
1.894 1.473 0.570 9046
1.895 1.474 0.563 13634
1.896 1.475 0.556 17412
1.897 1.476 0.550 20462
1.898 1.476 0.543 22403
1.899 1.477 0.536 20919
1.899 1.478 0.529 16800
1.900 1.478 0.522 12447
1.901 1.479 0.515 8354
1.902 1.480 0.508 5111
6.158 4.791 1.330 5801
6.161 4.793 1.308 7799
6.157 4.790 1.284 6939
6.172 4.802 1.263 4843
6.181 4.809 1.242 3810
6.171 4.801 1.217 4613
6.167 4.798 1.193 5053
6.170 4.800 1.171 3442
6.247 4.860 1.160 2140
6.249 4.861 1.137 2208
6.251 4.863 1.114 2236
6.241 4.855 1.089 2346
6.224 4.842 1.064 2013
6.227 4.844 1.041 1542
6.241 4.855 1.020 1341
6.262 4.871 0.999 1129
2.051 1.596 0.410 1293
2.051 1.596 0.402 1420
2.046 1.592 0.394 1423
2.040 1.587 0.386 1263
6.893 5.363 0.958 1161
6.895 5.364 0.933 1177
6.903 5.370 0.908 1103
6.886 5.357 0.881 984
6.881 5.354 0.855 1104
9.393 7.308 1.083 1091
1.969 1.532 0.327 1106
1.969 1.532 0.320 1280
9.300 7.235 0.970 1444
9.302 7.236 0.936 1956
9.303 7.238 0.902 1934
9.299 7.234 0.867 1820
9.300 7.235 0.833 1713
9.302 7.237 0.799 1503
1.872 1.456 0.263 1096
1.866 1.452 0.256 1285
1.866 1.452 0.249 1550
1.867 1.452 0.242 1555
1.867 1.452 0.235 1484
2.317 1.802 0.251 1376
1.536 1.195 0.207 1603
1.536 1.195 0.202 2717
1.537 1.195 0.196 3331
1.537 1.196 0.190 4006
1.537 1.196 0.185 5073
1.537 1.196 0.179 5538
1.537 1.196 0.174 5855
1.537 1.196 0.168 5992
1.537 1.196 0.163 5845
1.537 1.196 0.157 5326
1.537 1.196 0.152 4846
1.537 1.196 0.146 4248
1.537 1.196 0.141 3052
1.531 1.191 0.135 2407
1.537 1.196 0.130 1749
1.537 1.196 0.124 1207
1.537 1.196 0.119 859
1.537 1.196 0.113 511
1.537 1.196 0.108 335
1.949 1.516 0.078 252
1.942 1.511 0.057 265
1.942 1.511 0.050 296
1.942 1.511 0.043 284
1.948 1.515 0.035 277
2.524 1.964 -0.181 256
2.523 1.963 -0.190 256
2.529 1.967 -0.200 295
2.528 1.967 -0.209 337
1.803 1.391 1.755 6419
1.807 1.394 1.748 12838
1.811 1.397 1.742 12838
1.814 1.400 1.735 12448
1.818 1.403 1.729 12059
1.827 1.410 1.727 11803
1.831 1.412 1.720 11632
1.834 1.415 1.713 11632
1.843 1.422 1.711 12526
1.857 1.433 1.714 14171
1.871 1.444 1.716 13418
1.880 1.450 1.714 13521
1.889 1.457 1.711 13312
1.913 1.476 1.722 14342
1.922 1.483 1.720 11593
1.884 1.453 1.678 9985
1.887 1.456 1.671 9821
1.943 1.499 1.707 10609
1.947 1.502 1.700 12088
1.956 1.509 1.698 13524
1.965 1.516 1.695 15427
1.968 1.519 1.688 14666
1.972 1.521 1.681 13906
1.975 1.524 1.674 12197
1.974 1.523 1.662 10523
1.982 1.530 1.659 9898
1.991 1.536 1.656 9408
2.022 1.560 1.670 8499
2.041 1.575 1.675 10500
2.045 1.578 1.667 11925
2.048 1.580 1.660 13351
2.041 1.575 1.645 11933
2.034 1.569 1.629 11610
2.042 1.576 1.626 12813
2.051 1.583 1.622 13321
2.060 1.590 1.619 12892
2.064 1.592 1.612 9950
2.072 1.599 1.608 7091
2.223 1.715 1.706 4850
2.243 1.730 1.710 4901
2.252 1.737 1.706 5645
2.261 1.745 1.701 6467
2.265 1.747 1.693 5409
2.362 1.822 1.750 3756
2.376 1.833 1.749 5535
2.374 1.832 1.737 8182
2.373 1.831 1.724 10962
2.382 1.838 1.719 9483
2.396 1.849 1.718 6460
2.428 1.873 1.728 5023
2.420 1.868 1.712 6372
2.418 1.866 1.699 6830
2.411 1.860 1.683 5861
2.509 1.936 1.736 4584
2.524 1.948 1.734 4624
2.528 1.950 1.725 6545
2.537 1.958 1.719 10817
2.530 1.952 1.703 11781
2.522 1.946 1.687 10911
2.531 1.953 1.681 7887
2.557 1.973 1.686 6485
2.561 1.976 1.677 7646
2.570 1.983 1.671 7935
2.590 1.999 1.672 7928
2.600 2.006 1.666 8027
2.603 2.009 1.656 8077
2.607 2.011 1.647 7737
2.616 2.018 1.641 8394
2.619 2.021 1.631 8569
2.623 2.024 1.622 7867
2.632 2.031 1.615 6677
2.635 2.033 1.606 10248
2.639 2.036 1.596 16366
2.642 2.038 1.587 15328
2.645 2.041 1.577 13195
2.649 2.044 1.567 13493
2.658 2.051 1.561 12649
2.672 2.062 1.558 13983
2.670 2.060 1.545 13794
2.662 2.054 1.529 12967
2.653 2.047 1.513 13832
2.662 2.054 1.507 10450
2.671 2.061 1.500 6734
2.680 2.068 1.493 7806
2.683 2.070 1.483 9583
2.698 2.082 1.480 13609
2.701 2.084 1.470 20493
2.704 2.086 1.460 21981
2.713 2.093 1.453 20176
2.716 2.096 1.443 17228
2.713 2.093 1.430 14978
2.716 2.096 1.421 14658
2.725 2.103 1.414 13415
2.728 2.105 1.404 10915
2.737 2.112 1.396 7660
2.740 2.114 1.387 6618
2.731 2.107 1.371 12065
2.734 2.109 1.361 19654
2.736 2.111 1.351 22281
2.745 2.118 1.344 20851
2.760 2.129 1.339 20176
2.768 2.136 1.332 18652
2.777 2.143 1.324 14264
2.780 2.145 1.314 8173
2.782 2.147 1.304 5286
2.797 2.158 1.299 5816
2.806 2.165 1.291 7473
2.802 2.162 1.279 7940
2.799 2.160 1.266 8746
2.802 2.162 1.256 8913
2.810 2.168 1.248 9288
2.807 2.166 1.236 9730
2.815 2.172 1.228 6650
2.824 2.179 1.220 4493
2.826 2.181 1.210 4617
2.841 2.192 1.204 3913
2.849 2.198 1.196 2946
4.108 3.170 1.654 3780
4.117 3.177 1.641 6168
4.121 3.180 1.626 7328
4.130 3.187 1.613 9175
4.128 3.185 1.596 10932
4.119 3.178 1.576 10301
4.116 3.176 1.559 8466
4.114 3.174 1.542 8927
4.123 3.181 1.529 9339
4.126 3.183 1.514 10452
4.123 3.181 1.497 11443
4.126 3.184 1.482 14659
4.123 3.181 1.465 15889
4.126 3.184 1.450 11987
4.141 3.195 1.439 7301
4.144 3.198 1.424 5526
4.153 3.205 1.410 5756
4.169 3.216 1.399 6280
4.178 3.223 1.386 5638
4.162 3.211 1.365 2533
1.961 1.513 0.702 2253
1.962 1.514 0.695 2787
1.964 1.515 0.688 2977
5.715 4.409 1.739 2988
5.731 4.422 1.721 4141
5.734 4.424 1.700 4156
5.738 4.427 1.679 2707
5.766 4.449 1.665 1705
1.811 1.398 0.604 1920
5.220 4.028 1.479 2512
5.758 4.443 1.597 2351
5.909 4.559 1.613 2455
5.912 4.562 1.591 3091
5.238 4.042 1.405 2755
1.824 1.407 0.566 2405
1.899 1.465 0.577 2455
1.900 1.466 0.570 4415
1.901 1.466 0.563 6275
1.902 1.467 0.556 7601
1.903 1.468 0.550 8598
1.903 1.469 0.543 9376
1.904 1.469 0.536 9305
1.905 1.470 0.529 8370
1.906 1.471 0.522 6883
1.907 1.471 0.515 5074
6.168 4.759 1.352 4085
6.171 4.761 1.329 6791
6.174 4.763 1.306 8729
6.176 4.766 1.284 7297
6.179 4.768 1.261 4619
6.175 4.765 1.237 3495
6.184 4.771 1.216 4980
6.187 4.773 1.193 5677
6.183 4.770 1.169 4036
1.722 1.329 0.415 2912
1.723 1.329 0.409 3028
1.724 1.330 0.402 2873
6.248 4.821 1.087 3083
6.244 4.818 1.064 2638
6.246 4.819 1.041 2028
6.248 4.821 1.018 1610
6.275 4.842 0.998 1142
6.302 4.862 0.979 1253
2.064 1.593 0.403 1273
2.058 1.588 0.395 1355
2.053 1.584 0.386 1565
2.053 1.584 0.379 1621
1.973 1.522 0.362 1783
1.980 1.527 0.356 2362
1.980 1.528 0.349 3420
1.974 1.523 0.341 6323
1.975 1.524 0.334 10158
1.975 1.524 0.327 14076
1.982 1.529 0.320 15950
1.982 1.529 0.313 17346
1.983 1.530 0.306 19171
1.983 1.530 0.299 19325
1.983 1.530 0.292 19049
1.984 1.531 0.284 17829
1.984 1.531 0.277 14664
1.984 1.531 0.270 10460
1.985 1.531 0.263 8200
1.985 1.531 0.256 6450
1.985 1.532 0.249 3460
1.985 1.532 0.241 2220
1.986 1.532 0.234 1490
1.541 1.189 0.207 2151
1.541 1.189 0.202 3787
1.541 1.189 0.196 4713
1.542 1.189 0.190 5794
1.542 1.189 0.185 7702
1.542 1.190 0.179 8638
1.542 1.190 0.174 9344
1.542 1.190 0.168 9802
1.542 1.190 0.163 9795
1.542 1.190 0.157 9224
1.548 1.195 0.152 8519
1.542 1.190 0.146 7568
1.542 1.190 0.141 5563
1.542 1.190 0.135 4404
1.542 1.190 0.130 3309
1.542 1.190 0.124 2319
1.542 1.190 0.119 1652
1.542 1.190 0.113 985
1.542 1.190 0.108 619
1.968 1.518 0.091 455
1.968 1.518 0.084 686
1.961 1.513 0.077 920
1.961 1.513 0.070 1265
1.961 1.513 0.063 1610
1.955 1.508 0.056 1930
1.954 1.508 0.049 2275
1.954 1.508 0.042 2422
1.960 1.512 0.035 2602
1.960 1.512 0.028 2494
1.953 1.507 0.021 2412
1.953 1.507 0.014 2113
1.953 1.507 0.007 1813
1.953 1.507 0.000 1465
1.958 1.511 -0.007 1127
1.958 1.511 -0.014 828
1.958 1.511 -0.022 529
1.957 1.510 -0.029 361
2.544 1.963 -0.182 250
2.544 1.963 -0.192 250
2.543 1.962 -0.201 293
2.542 1.961 -0.210 336
1.806 1.377 1.750 5983
1.810 1.380 1.744 11967
1.814 1.383 1.737 11967
1.822 1.390 1.735 11969
1.831 1.396 1.733 12041
1.835 1.399 1.727 12856
1.839 1.402 1.720 13670
1.842 1.405 1.713 13670
1.851 1.411 1.711 15281
1.865 1.422 1.714 18032
1.869 1.425 1.707 16867
1.878 1.432 1.705 16037
1.881 1.434 1.698 15377
1.880 1.433 1.687 14967
1.883 1.436 1.680 13906
1.887 1.439 1.673 12845
1.890 1.441 1.667 12466
1.889 1.440 1.655 13217
1.892 1.443 1.649 14359
1.964 1.498 1.698 13831
1.973 1.505 1.695 15314
1.977 1.507 1.688 14693
1.975 1.506 1.676 14200
1.979 1.509 1.669 12334
1.982 1.511 1.662 10468
1.991 1.518 1.659 9844
2.000 1.525 1.656 9506
2.030 1.548 1.670 8718
2.045 1.559 1.671 11861
2.048 1.562 1.663 14355
2.057 1.569 1.660 16886
2.055 1.567 1.649 13738
2.043 1.557 1.629 11038
2.051 1.564 1.626 10755
2.060 1.571 1.622 9956
2.069 1.578 1.619 9836
2.073 1.580 1.612 7755
2.229 1.699 1.714 6780
2.227 1.698 1.702 5982
2.225 1.697 1.690 5426
2.262 1.725 1.706 5191
2.265 1.727 1.698 6112
2.275 1.734 1.693 5747
2.389 1.821 1.761 5264
2.387 1.820 1.749 7938
2.385 1.818 1.737 10555
2.389 1.821 1.728 13441
2.392 1.824 1.719 11598
2.407 1.835 1.718 7625
2.416 1.842 1.713 5316
2.426 1.849 1.708 7106
2.424 1.848 1.696 8228
2.422 1.846 1.683 7763
2.431 1.853 1.678 5781
2.552 1.946 1.745 5051
2.545 1.940 1.728 5981
2.548 1.943 1.719 9467
2.546 1.941 1.707 11130
2.539 1.936 1.690 10724
2.537 1.934 1.678 8678
2.563 1.954 1.682 6553
2.572 1.961 1.677 8095
2.581 1.968 1.671 9040
2.602 1.984 1.672 9797
2.611 1.991 1.666 9894
2.609 1.989 1.653 10039
2.618 1.996 1.647 9181
2.622 1.999 1.637 8463
2.625 2.001 1.628 8972
2.623 2.000 1.615 9532
2.626 2.002 1.606 7802
2.641 2.014 1.603 7778
2.645 2.016 1.593 12464
2.648 2.019 1.583 15505
2.651 2.021 1.574 15588
2.655 2.024 1.564 14965
2.664 2.031 1.558 12101
2.678 2.042 1.554 9650
2.676 2.040 1.542 10802
2.668 2.034 1.526 14553
2.671 2.036 1.516 15712
2.674 2.039 1.507 12117
2.677 2.041 1.497 8666
2.663 2.030 1.478 7998
2.666 2.033 1.469 7764
2.698 2.057 1.474 7328
2.713 2.068 1.470 11464
2.710 2.066 1.457 14255
2.719 2.073 1.450 12711
2.722 2.075 1.440 11994
2.719 2.073 1.428 14444
2.728 2.080 1.421 15815
2.737 2.087 1.414 13189
2.740 2.089 1.404 10202
2.743 2.091 1.394 9230
2.740 2.089 1.381 9917
2.737 2.087 1.369 14017
2.740 2.089 1.359 21059
2.748 2.096 1.351 25937
2.751 2.098 1.341 25606
2.760 2.104 1.334 20518
2.781 2.120 1.332 12146
2.789 2.127 1.324 10765
2.786 2.124 1.312 9592
2.783 2.122 1.299 5040
2.797 2.133 1.294 3407
2.818 2.149 1.291 5013
2.821 2.151 1.281 6672
2.799 2.134 1.261 8964
2.814 2.145 1.256 8375
2.817 2.147 1.246 8409
2.819 2.149 1.236 8061
2.834 2.160 1.230 4921
2.842 2.167 1.222 4547
2.845 2.169 1.212 4684
2.853 2.175 1.204 3187
2.862 2.182 1.196 2540
4.126 3.146 1.654 3805
4.130 3.149 1.639 6345
4.139 3.156 1.626 6489
4.137 3.154 1.609 5181
4.134 3.152 1.591 9587
4.137 3.154 1.576 11588
4.141 3.157 1.561 8378
4.144 3.159 1.546 7179
4.141 3.157 1.529 6093
4.138 3.155 1.512 8120
4.141 3.157 1.497 12552
4.144 3.160 1.482 17240
4.141 3.158 1.465 20929
4.138 3.155 1.448 16557
4.148 3.162 1.435 10166
4.157 3.169 1.422 9649
4.166 3.176 1.408 9712
4.169 3.178 1.393 8289
4.184 3.190 1.382 6451
4.187 3.192 1.367 4665
4.208 3.208 1.357 4953
4.211 3.210 1.342 3935
4.220 3.217 1.328 2406
1.814 1.383 0.636 3403
1.821 1.388 0.632 5397
1.822 1.389 0.625 6635
1.823 1.390 0.619 6674
1.824 1.391 0.612 5195
5.234 3.991 1.497 3388
5.243 3.998 1.479 4108
1.828 1.393 0.592 4706
5.163 3.936 1.420 4157
5.172 3.943 1.402 3034
2.814 2.145 0.811 3189
5.265 4.014 1.385 2453
5.193 3.959 1.349 2352
5.190 3.957 1.328 2850
5.106 3.893 1.290 3335
5.127 3.909 1.275 3085
6.283 4.790 1.510 3319
6.268 4.779 1.483 3626
6.252 4.767 1.456 3353
6.299 4.802 1.443 3616
6.295 4.800 1.418 4246
6.180 4.712 1.372 4109
6.183 4.714 1.349 4749
6.192 4.721 1.328 7016
6.195 4.723 1.305 7790
6.197 4.725 1.283 5783
6.194 4.722 1.259 3996
6.190 4.720 1.235 3726
6.205 4.731 1.215 4652
6.208 4.733 1.192 5244
6.204 4.730 1.168 4090
1.724 1.314 0.414 3420
1.731 1.319 0.409 4099
1.725 1.315 0.401 4733
1.725 1.316 0.395 5051
1.726 1.316 0.389 4184
1.727 1.316 0.383 2933
6.276 4.785 1.018 1802
6.315 4.815 1.000 1004
6.323 4.821 0.978 1343
6.244 4.761 0.944 1176
1.967 1.500 0.382 1029
1.968 1.500 0.375 1700
1.962 1.496 0.367 1808
1.963 1.496 0.360 1448
1.963 1.497 0.353 1204
1.481 1.129 0.294 1833
1.475 1.124 0.288 2815
1.481 1.129 0.283 3495
1.984 1.513 0.327 4295
1.991 1.518 0.320 5009
1.991 1.518 0.313 5297
1.991 1.518 0.306 5351
1.992 1.519 0.299 4727
1.992 1.519 0.292 4337
1.992 1.519 0.284 3868
1.987 1.515 0.277 2970
1.993 1.520 0.270 2130
1.987 1.515 0.262 1746
1.994 1.520 0.256 1395
11.384 8.680 0.774 1201
1.548 1.180 0.218 1616
1.548 1.180 0.213 2423
1.548 1.180 0.207 3960
1.548 1.180 0.202 6872
1.548 1.180 0.196 8514
1.548 1.181 0.190 10229
1.548 1.181 0.185 13158
1.549 1.181 0.179 14547
1.549 1.181 0.174 15436
1.549 1.181 0.168 15881
1.549 1.181 0.163 15707
1.549 1.181 0.157 14589
1.555 1.186 0.152 13392
1.549 1.181 0.146 11908
1.549 1.181 0.141 8808
1.549 1.181 0.135 7022
1.549 1.181 0.130 5345
1.549 1.181 0.124 3824
1.549 1.181 0.119 2798
1.549 1.181 0.113 1772
1.549 1.181 0.108 1189
1.958 1.493 0.092 1043
1.964 1.497 0.085 1367
1.964 1.497 0.078 1705
1.964 1.497 0.071 2067
1.963 1.497 0.064 2430
1.963 1.497 0.056 2690
1.957 1.492 0.050 2959
1.963 1.497 0.042 3003
1.963 1.496 0.035 3056
1.962 1.496 0.028 2829
1.962 1.496 0.021 2603
1.962 1.496 0.014 2199
1.962 1.496 0.007 1795
1.961 1.495 0.000 1382
1.961 1.495 -0.007 969
1.961 1.495 -0.014 671
1.960 1.494 -0.021 372
2.563 1.954 -0.174 252
2.562 1.953 -0.183 338
2.561 1.953 -0.192 338
2.560 1.952 -0.202 434
2.560 1.952 -0.211 530
2.559 1.951 -0.220 265
1.811 1.371 1.750 5758
1.814 1.374 1.744 11517
1.818 1.377 1.737 11517
1.827 1.384 1.735 11445
1.836 1.390 1.733 11827
1.840 1.393 1.727 13094
1.843 1.396 1.720 14360
1.847 1.399 1.713 14360
1.856 1.405 1.711 16344
1.865 1.412 1.709 19381
1.873 1.419 1.707 18353
1.877 1.422 1.700 17338
1.875 1.420 1.689 17011
1.879 1.423 1.682 16919
1.883 1.426 1.676 15581
1.886 1.429 1.669 14243
1.890 1.431 1.662 13731
1.893 1.434 1.655 14671
1.897 1.437 1.649 16123
1.900 1.439 1.642 14379
1.978 1.498 1.695 13838
1.976 1.497 1.684 13413
1.980 1.500 1.676 13140
1.984 1.502 1.669 11420
1.987 1.505 1.662 9699
1.996 1.512 1.659 9210
2.005 1.519 1.656 9139
2.035 1.542 1.670 8676
2.050 1.552 1.671 11988
2.059 1.559 1.667 15007
2.062 1.562 1.660 18098
2.060 1.560 1.649 14635
2.058 1.559 1.637 11301
2.056 1.558 1.626 9556
2.065 1.564 1.622 7694
2.074 1.571 1.619 7702
2.078 1.574 1.612 6491
2.234 1.692 1.714 7417
2.233 1.691 1.702 6238
2.231 1.689 1.690 5439
2.262 1.713 1.702 4921
2.271 1.720 1.698 5736
2.280 1.727 1.693 5649
2.394 1.813 1.761 6147
2.398 1.816 1.753 8912
2.396 1.815 1.740 11389
2.394 1.813 1.728 14257
2.404 1.820 1.723 12305
2.413 1.828 1.718 8069
2.422 1.835 1.713 5576
2.426 1.837 1.704 7519
2.430 1.840 1.696 8997
2.428 1.839 1.683 8670
