0.658 3.655 1.612 5332
0.683 3.792 1.668 1326
0.654 3.630 1.589 3351
0.680 3.775 1.648 1667
0.673 3.736 1.619 3705
0.648 3.598 1.564 2322
0.675 3.747 1.611 6941
0.700 3.885 1.666 1900
0.674 3.744 1.598 6302
0.699 3.882 1.652 2835
0.678 3.763 1.592 4181
0.702 3.901 1.646 2398
0.682 3.789 1.590 3815
0.707 3.927 1.644 2143
0.697 3.873 1.610 4736
0.722 4.012 1.663 2232
0.697 3.870 1.595 5014
0.722 4.009 1.648 2755
0.698 3.874 1.584 5180
0.724 4.020 1.639 2293
0.698 3.878 1.573 3683
0.725 4.025 1.628 2178
0.725 4.029 1.616 3408
0.700 3.890 1.564 1315
0.737 4.092 1.626 4511
0.712 3.953 1.574 2267
0.738 4.096 1.614 4772
0.712 3.957 1.563 2333
0.740 4.108 1.604 2903
0.715 3.968 1.554 1651
0.759 4.215 1.629 4609
0.731 4.060 1.574 1330
0.760 4.219 1.617 4774
0.735 4.079 1.567 1118
0.759 4.216 1.602 3414
0.755 4.190 1.579 3741
0.780 4.330 1.628 1033
0.757 4.202 1.569 5372
0.782 4.342 1.618 1125
0.760 4.221 1.562 6259
0.785 4.361 1.610 1439
0.763 4.240 1.555 5496
0.805 4.469 1.632 1267
0.769 4.273 1.552 5617
0.828 4.599 1.661 1760
0.772 4.285 1.542 5689
0.829 4.603 1.648 2177
0.774 4.296 1.532 5274
0.824 4.578 1.625 2505
0.776 4.308 1.522 4264
0.822 4.567 1.606 2978
0.839 4.661 1.622 5175
0.779 4.326 1.514 3721
0.844 4.687 1.615 4696
0.778 4.323 1.499 2959
0.847 4.706 1.606 4407
0.822 4.565 1.562 1496
0.847 4.703 1.590 3729
0.846 4.700 1.574 3770
0.872 4.841 1.618 1820
0.852 4.734 1.569 5455
0.878 4.875 1.613 2359
0.852 4.730 1.553 5304
0.877 4.872 1.596 2745
0.886 4.921 1.595 2842
0.851 4.727 1.537 2588
0.887 4.925 1.581 3019
0.861 4.783 1.539 1327
0.873 4.847 1.542 3344
0.898 4.989 1.584 1747
0.894 4.964 1.560 3865
0.868 4.821 1.519 2028
0.895 4.968 1.546 4640
0.894 4.964 1.529 5460
0.920 5.107 1.570 1144
0.895 4.968 1.515 3753
0.920 5.111 1.555 1342
0.912 5.062 1.525 2603
0.937 5.205 1.564 1071
0.946 5.254 1.562 2189
0.904 5.021 1.498 2068
0.939 5.213 1.534 3317
0.965 5.356 1.573 1869
0.942 5.232 1.523 5265
0.968 5.375 1.561 1419
0.955 5.304 1.525 4530
0.925 5.138 1.481 1492
0.965 5.361 1.523 4839
0.991 5.504 1.561 2638
0.965 5.357 1.506 5942
0.991 5.501 1.543 4191
0.963 5.346 1.486 4812
0.991 5.505 1.527 4166
0.991 5.501 1.508 5791
0.965 5.357 1.472 3094
0.990 5.497 1.490 5332
1.017 5.649 1.528 3173
1.017 5.645 1.510 2687
0.991 5.501 1.474 2254
1.031 5.725 1.511 3151
1.005 5.581 1.476 2435
1.030 5.721 1.493 5263
1.056 5.865 1.527 2492
1.030 5.718 1.474 3852
1.057 5.869 1.510 3318
1.062 5.896 1.498 3771
1.021 5.668 1.445 2607
1.068 5.930 1.487 3168
1.042 5.786 1.454 1450
1.086 6.033 1.492 3030
1.037 5.759 1.430 1303
1.090 6.052 1.478 4148
1.121 6.227 1.517 2097
1.123 6.239 1.501 2788
1.091 6.056 1.460 2539
1.123 6.235 1.481 2326
1.088 6.044 1.439 1143
1.122 6.231 1.461 2174
1.148 6.376 1.492 1580
1.147 6.372 1.471 2117
1.121 6.227 1.441 1183
1.147 6.368 1.451 1963
1.180 6.552 1.489 1255
1.142 6.342 1.426 1848
1.176 6.533 1.465 1513
1.205 6.689 1.477 1864
1.170 6.498 1.438 1476
1.183 6.571 1.433 1737
1.209 6.716 1.461 1503
1.195 6.636 1.425 1688
1.254 6.965 1.489 1124
1.320 7.328 1.538 1840
1.230 6.831 1.442 1591
1.233 6.850 1.425 2527
1.273 7.072 1.467 2067
1.280 7.106 1.452 2373
1.234 6.853 1.405 1981
1.315 7.302 1.466 2478
1.280 7.110 1.431 2059
1.322 7.344 1.452 3252
1.356 7.528 1.485 2082
1.324 7.355 1.431 2934
1.355 7.524 1.461 2490
1.353 7.513 1.437 1958
1.300 7.221 1.386 1748
1.355 7.524 1.416 1717
1.409 7.824 1.467 1330
1.357 7.535 1.395 1418
1.394 7.743 1.430 1380
1.441 8.000 1.449 1490
1.396 7.754 1.408 1470
1.495 8.304 1.474 1261
1.522 8.450 1.497 1235
1.520 8.439 1.470 2249
1.493 8.292 1.447 1579
1.519 8.435 1.444 2590
1.590 8.828 1.505 1175
1.520 8.439 1.419 2902
1.590 8.831 1.479 1714
1.519 8.434 1.393 2458
1.591 8.835 1.453 1680
1.524 8.461 1.371 1984
1.593 8.847 1.428 1979
1.594 8.850 1.402 2581
1.526 8.472 1.348 2111
1.593 8.846 1.375 2547
1.655 9.194 1.424 1625
1.595 8.858 1.350 2189
1.656 9.197 1.396 1724
1.597 8.869 1.325 1702
1.658 9.209 1.370 1589
1.659 9.212 1.343 1395
1.596 8.864 1.297 1225
1.662 9.231 1.318 1129
1.595 8.860 1.270 1018
0.403 2.207 1.708 3549
0.425 2.327 1.796 1414
0.404 2.212 1.702 7098
0.426 2.332 1.789 2884
0.405 2.216 1.695 7098
0.427 2.337 1.782 2940
0.407 2.227 1.693 5884
0.429 2.348 1.780 2502
0.409 2.238 1.691 4840
0.431 2.359 1.778 2263
0.425 2.325 1.744 4266
0.403 2.204 1.658 2276
0.426 2.330 1.737 5645
0.404 2.208 1.651 1866
0.427 2.335 1.730 5645
0.404 2.213 1.645 1549
0.429 2.346 1.728 6656
0.406 2.223 1.643 1201
0.432 2.363 1.730 8068
0.440 2.406 1.750 7058
0.417 2.284 1.666 1300
0.441 2.411 1.743 6260
0.418 2.288 1.659 1045
0.441 2.415 1.736 5239
0.439 2.401 1.716 4693
0.443 2.425 1.722 4575
0.449 2.455 1.732 6163
0.450 2.460 1.725 7467
0.452 2.471 1.722 8480
0.454 2.482 1.719 9769
0.453 2.480 1.708 9965
0.454 2.484 1.700 10175
0.455 2.489 1.693 8066
0.453 2.480 1.678 6131
0.454 2.485 1.670 4627
0.455 2.489 1.663 3124
0.478 2.615 1.742 1210
0.467 2.553 1.693 3617
0.490 2.679 1.772 1066
0.466 2.551 1.682 4802
0.489 2.677 1.760 1836
0.465 2.542 1.666 5207
0.488 2.669 1.744 2936
0.464 2.540 1.655 6194
0.489 2.673 1.736 3720
0.464 2.537 1.643 4980
0.489 2.678 1.728 4123
0.490 2.682 1.720 4525
0.463 2.535 1.632 3968
0.485 2.653 1.693 6452
0.462 2.526 1.616 2274
0.484 2.651 1.681 9307
0.491 2.689 1.693 10061
0.468 2.561 1.617 1774
0.493 2.700 1.689 11892
0.470 2.572 1.614 1415
0.494 2.705 1.681 9918
0.496 2.716 1.677 6691
0.500 2.734 1.677 5745
0.476 2.605 1.603 1167
0.502 2.745 1.673 5330
0.478 2.616 1.599 1287
0.504 2.756 1.669 4986
0.480 2.627 1.596 1511
0.504 2.761 1.661 5129
0.481 2.631 1.588 1706
0.507 2.772 1.657 5342
0.483 2.642 1.584 2158
0.510 2.790 1.656 4542
0.486 2.660 1.584 2778
0.517 2.829 1.667 3551
0.493 2.698 1.595 3216
0.528 2.888 1.689 3686
0.495 2.709 1.591 3050
0.536 2.933 1.703 4577
0.497 2.720 1.587 2164
0.537 2.938 1.694 5490
0.504 2.759 1.598 2055
0.538 2.942 1.686 7055
0.502 2.749 1.582 2347
0.542 2.967 1.688 8976
0.502 2.747 1.571 1894
0.544 2.979 1.683 9991
0.499 2.730 1.552 1624
0.550 3.011 1.689 8630
0.526 2.879 1.620 1982
0.555 3.036 1.691 8746
0.531 2.904 1.622 2252
0.556 3.041 1.682 7652
0.532 2.909 1.614 2454
0.559 3.059 1.680 6797
0.535 2.927 1.613 2396
0.565 3.091 1.686 6233
0.541 2.959 1.618 1664
0.567 3.103 1.680 7143
0.543 2.970 1.613 1498
0.569 3.114 1.675 7869
0.545 2.981 1.608 1454
0.569 3.111 1.662 10588
0.569 3.116 1.653 12748
0.594 3.249 1.719 1003
0.571 3.127 1.647 13062
0.596 3.260 1.713 1229
0.574 3.138 1.642 13090
0.598 3.272 1.707 2645
0.574 3.143 1.632 12352
0.599 3.276 1.697 3742
0.578 3.161 1.630 10029
0.602 3.295 1.694 4691
0.595 3.257 1.664 13128
0.571 3.123 1.601 3734
0.599 3.276 1.662 17212
0.574 3.141 1.598 3196
0.602 3.294 1.659 20025
0.577 3.160 1.596 3005
0.601 3.291 1.646 16927
0.577 3.157 1.583 2003
0.601 3.289 1.633 14586
0.602 3.293 1.623 13838
0.603 3.297 1.614 12404
0.634 3.468 1.691 1023
0.603 3.301 1.604 10477
0.628 3.437 1.665 1650
0.605 3.313 1.598 7776
0.630 3.448 1.658 3394
0.609 3.331 1.594 6902
0.640 3.502 1.670 4141
0.619 3.385 1.607 6486
0.643 3.521 1.666 5179
0.622 3.404 1.603 5740
0.647 3.540 1.662 4866
0.625 3.422 1.599 5229
0.650 3.558 1.658 3639
0.641 3.505 1.623 5996
0.616 3.369 1.564 1982
0.643 3.517 1.616 8146
0.668 3.653 1.674 2763
0.646 3.535 1.612 6283
0.671 3.672 1.670 3675
0.663 3.626 1.638 6475
0.635 3.475 1.574 3547
0.665 3.637 1.630 6919
0.640 3.501 1.573 2861
0.665 3.642 1.619 7132
0.691 3.779 1.676 1343
0.668 3.653 1.612 5659
0.693 3.790 1.668 1165
0.663 3.628 1.589 3882
0.691 3.780 1.651 1753
0.690 3.777 1.637 3757
0.661 3.618 1.573 3495
0.686 3.753 1.614 6047
0.711 3.890 1.669 1851
0.687 3.757 1.603 5345
0.712 3.895 1.658 2322
0.695 3.805 1.609 4903
0.721 3.943 1.664 1337
0.692 3.787 1.590 4268
0.717 3.925 1.644 2047
0.707 3.871 1.610 4119
0.733 4.010 1.663 1970
0.708 3.876 1.598 4348
0.734 4.014 1.651 2571
0.708 3.872 1.584 5032
0.734 4.018 1.639 2179
0.708 3.877 1.573 3858
0.734 4.015 1.625 1902
0.735 4.020 1.613 3292
0.709 3.881 1.561 1545
0.747 4.090 1.626 5296
0.722 3.951 1.574 2198
0.748 4.094 1.614 5819
0.723 3.955 1.563 2068
0.750 4.106 1.604 4117
0.776 4.245 1.655 1542
0.770 4.213 1.629 4724
0.744 4.073 1.579 2040
0.769 4.210 1.614 5273
0.744 4.070 1.565 1643
0.769 4.206 1.599 4352
0.743 4.067 1.550 1205
0.769 4.211 1.587 3763
0.770 4.215 1.575 4511
0.796 4.355 1.623 1295
0.771 4.219 1.562 4911
0.797 4.359 1.610 2286
0.772 4.223 1.550 3600
0.797 4.363 1.597 2332
0.781 4.271 1.552 4440
0.822 4.501 1.629 2672
0.781 4.275 1.540 6279
0.827 4.527 1.623 2278
0.783 4.287 1.530 7420
0.833 4.561 1.620 2456
0.790 4.320 1.527 5562
0.834 4.565 1.606 3046
0.851 4.658 1.622 5294
0.793 4.339 1.519 4613
0.855 4.678 1.613 4273
0.792 4.336 1.504 3747
0.858 4.697 1.604 3933
0.793 4.340 1.491 1971
0.858 4.693 1.588 4241
0.858 4.698 1.574 4373
0.884 4.839 1.618 1874
0.865 4.731 1.569 5897
0.891 4.873 1.613 2159
0.865 4.736 1.555 5589
0.891 4.877 1.598 2487
0.873 4.777 1.553 2800
0.899 4.919 1.595 2215
0.879 4.811 1.547 2715
0.905 4.953 1.590 2036
0.883 4.830 1.538 3179
0.909 4.972 1.579 2194
0.907 4.961 1.560 3371
0.881 4.819 1.519 2258
0.907 4.965 1.546 4404
0.907 4.962 1.529 5171
0.933 5.104 1.570 1174
0.909 4.973 1.517 4122
0.923 5.052 1.523 3263
0.949 5.195 1.562 1278
0.924 5.056 1.508 2907
0.961 5.259 1.564 2027
0.951 5.203 1.532 3147
0.977 5.346 1.571 2559
0.957 5.237 1.525 4327
0.923 5.049 1.474 1688
0.970 5.309 1.527 4759
0.940 5.143 1.483 1497
0.979 5.358 1.523 5367
1.005 5.502 1.561 1849
0.979 5.355 1.506 6897
1.005 5.498 1.543 2871
0.978 5.351 1.488 5534
1.004 5.495 1.525 2920
1.005 5.499 1.508 4751
0.977 5.347 1.470 3500
1.004 5.495 1.490 4784
0.978 5.351 1.455 3202
1.030 5.635 1.508 2452
1.003 5.491 1.472 1943
1.025 5.609 1.484 3237
1.051 5.753 1.519 2006
1.045 5.719 1.493 5068
1.071 5.863 1.527 2493
1.044 5.715 1.474 3733
1.076 5.889 1.515 2496
1.080 5.908 1.501 4027
1.038 5.681 1.448 2571
1.083 5.928 1.487 4084
1.040 5.692 1.433 1200
1.102 6.030 1.492 3339
1.142 6.251 1.542 1296
1.104 6.042 1.476 4764
1.137 6.224 1.517 2339
1.105 6.046 1.459 3152
1.140 6.236 1.501 2936
1.142 6.247 1.484 2261
1.104 6.042 1.439 1266
1.156 6.327 1.482 1903
1.160 6.346 1.466 1901
1.160 6.350 1.448 1646
1.195 6.541 1.487 1303
1.157 6.331 1.424 2024
1.192 6.522 1.463 1448
1.222 6.686 1.477 1859
1.159 6.342 1.407 1661
1.203 6.583 1.436 2042
1.270 6.950 1.508 1397
1.208 6.610 1.421 2081
1.271 6.954 1.488 1330
1.291 7.065 1.488 1895
1.340 7.332 1.540 1729
1.250 6.839 1.424 2467
1.293 7.076 1.469 2422
1.297 7.095 1.451 2563
1.252 6.850 1.405 2258
1.335 7.306 1.468 2781
1.299 7.107 1.431 2094
1.341 7.340 1.452 3669
1.374 7.517 1.484 2175
1.343 7.352 1.431 3472
1.373 7.513 1.460 2960
1.372 7.509 1.437 1998
1.346 7.363 1.411 1975
1.374 7.520 1.416 1491
1.345 7.359 1.388 1141
1.378 7.539 1.396 1452
1.413 7.731 1.428 1350
1.461 7.996 1.449 1658
1.416 7.750 1.408 1447
1.461 7.993 1.424 1276
1.518 8.308 1.475 1264
1.520 8.319 1.452 1941
1.557 8.519 1.483 1481
1.541 8.431 1.444 1697
1.612 8.823 1.505 1050
1.540 8.427 1.418 2064
1.644 8.997 1.505 1437
1.645 9.001 1.478 1729
1.541 8.430 1.393 1665
1.561 8.542 1.384 1848
1.672 9.151 1.473 1657
1.615 8.839 1.401 2099
1.562 8.546 1.359 1844
1.616 8.842 1.375 2314
1.679 9.189 1.424 1843
1.646 9.008 1.371 1923
1.616 8.846 1.349 1915
1.682 9.204 1.370 1642
1.647 9.011 1.344 1404
1.684 9.215 1.344 1380
1.685 9.219 1.317 1060
0.409 2.206 1.708 3294
0.432 2.326 1.796 1438
0.410 2.211 1.702 6588
0.432 2.331 1.789 2951
0.411 2.215 1.695 6588
0.433 2.336 1.782 3026
0.413 2.226 1.693 5618
0.435 2.347 1.780 3147
0.415 2.237 1.691 4808
0.437 2.358 1.778 3267
0.436 2.350 1.762 4154
0.413 2.228 1.676 3887
0.433 2.335 1.742 4852
0.411 2.214 1.656 2194
0.434 2.340 1.735 4852
0.411 2.218 1.650 1889
0.443 2.389 1.759 5748
0.419 2.261 1.670 2233
0.445 2.400 1.757 7138
0.423 2.278 1.672 1242
0.445 2.399 1.745 7208
0.446 2.403 1.738 7321
0.447 2.408 1.731 5953
0.444 2.393 1.711 5052
0.451 2.430 1.726 4748
0.455 2.454 1.732 6378
0.456 2.459 1.725 7659
0.458 2.470 1.722 8607
0.459 2.474 1.715 9875
0.460 2.479 1.708 10372
0.461 2.483 1.700 10869
0.460 2.481 1.689 8408
0.459 2.472 1.673 6493
0.459 2.477 1.666 4980
0.460 2.481 1.659 3468
0.484 2.607 1.738 1238
0.464 2.499 1.660 3285
0.487 2.625 1.739 1662
0.473 2.550 1.682 3992
0.496 2.676 1.760 1921
0.469 2.527 1.658 4948
0.495 2.667 1.744 3026
0.468 2.525 1.646 6197
0.496 2.672 1.736 3758
0.469 2.529 1.639 5334
0.496 2.676 1.728 4037
0.469 2.527 1.628 4485
0.497 2.681 1.720 4317
0.487 2.625 1.676 6072
0.463 2.498 1.600 1545
0.490 2.643 1.677 8598
0.514 2.771 1.753 1162
0.499 2.688 1.693 9230
0.475 2.560 1.617 2142
0.501 2.699 1.689 11278
0.477 2.571 1.614 1595
0.501 2.703 1.681 9498
0.504 2.715 1.677 6708
0.480 2.586 1.603 1004
0.508 2.739 1.681 6003
0.484 2.611 1.607 1458
0.509 2.744 1.673 5404
0.485 2.615 1.599 1405
0.510 2.748 1.665 4805
0.486 2.619 1.592 1352
0.512 2.759 1.661 4451
0.488 2.630 1.588 1610
0.515 2.777 1.661 4237
0.491 2.648 1.588 1969
0.507 2.734 1.626 3634
0.531 2.864 1.698 1663
0.527 2.841 1.675 3289
0.503 2.711 1.603 2668
0.532 2.866 1.677 3342
0.502 2.708 1.591 2324
0.545 2.939 1.706 4208
0.504 2.719 1.587 1811
0.546 2.943 1.698 5131
0.510 2.751 1.594 1882
0.547 2.948 1.689 6759
0.510 2.748 1.582 2172
0.550 2.966 1.688 8721
0.509 2.745 1.571 1731
0.552 2.977 1.683 9803
0.528 2.846 1.614 1568
0.557 3.003 1.685 8662
0.533 2.871 1.616 1777
0.562 3.028 1.687 8660
0.537 2.896 1.619 1948
0.564 3.039 1.682 7581
0.539 2.907 1.614 2089
0.568 3.064 1.684 7744
0.543 2.925 1.613 1881
0.573 3.090 1.686 7966
0.549 2.957 1.618 1192
0.575 3.101 1.680 8461
0.551 2.969 1.613 1307
0.576 3.105 1.671 8833
0.551 2.973 1.604 1107
0.577 3.110 1.662 11037
0.578 3.114 1.653 12867
0.602 3.247 1.719 1125
0.580 3.126 1.647 13289
0.604 3.259 1.713 1521
0.582 3.137 1.642 13273
0.607 3.270 1.707 2269
0.583 3.141 1.632 12315
0.609 3.282 1.700 2858
0.586 3.160 1.630 9954
0.611 3.293 1.694 3942
0.604 3.255 1.664 13082
0.579 3.122 1.601 3370
0.607 3.274 1.662 15797
0.582 3.140 1.598 2598
0.609 3.285 1.655 17679
0.585 3.151 1.592 2191
0.610 3.290 1.646 15331
0.585 3.155 1.583 1570
0.610 3.287 1.633 14178
0.609 3.284 1.620 13998
0.610 3.288 1.610 12577
0.640 3.452 1.685 1188
0.612 3.300 1.604 11049
0.637 3.435 1.665 1908
0.614 3.311 1.598 8750
0.639 3.446 1.658 3796
0.616 3.322 1.591 7554
0.648 3.493 1.667 4494
0.621 3.348 1.591 5546
0.653 3.519 1.666 4815
0.655 3.531 1.659 4641
0.630 3.395 1.600 4353
0.656 3.535 1.649 4027
0.631 3.399 1.590 3797
0.651 3.511 1.626 5229
0.626 3.375 1.568 2124
0.652 3.515 1.616 7917
0.677 3.651 1.674 2581
0.655 3.534 1.612 6844
0.681 3.670 1.670 3526
0.660 3.559 1.610 7159
0.687 3.703 1.671 4805
0.674 3.636 1.630 6820
0.649 3.499 1.573 2247
0.675 3.640 1.619 7246
0.701 3.777 1.676 1388
0.677 3.651 1.612 5809
0.703 3.789 1.668 1106
0.671 3.619 1.586 4480
0.701 3.779 1.651 1990
0.672 3.624 1.576 4318
0.700 3.776 1.637 4049
0.698 3.765 1.620 5073
0.673 3.628 1.565 2633
0.706 3.806 1.623 4983
0.680 3.668 1.569 1632
0.705 3.803 1.609 5755
0.731 3.941 1.664 1131
0.704 3.793 1.593 4727
0.729 3.931 1.646 1525
0.725 3.906 1.624 2818
0.699 3.768 1.570 1730
0.720 3.881 1.601 3512
0.746 4.019 1.654 2252
0.718 3.871 1.584 4894
0.745 4.016 1.639 2073
0.719 3.875 1.573 3970
0.747 4.028 1.630 1546
0.755 4.069 1.632 3069
0.722 3.893 1.567 2076
0.758 4.088 1.626 5879
0.732 3.949 1.574 2186
0.760 4.099 1.616 7070
0.733 3.953 1.563 1742
0.763 4.111 1.607 5886
0.788 4.250 1.657 1384
0.763 4.115 1.595 4838
0.789 4.255 1.645 2426
0.782 4.215 1.617 4763
0.756 4.075 1.567 2411
0.781 4.212 1.602 3923
0.753 4.057 1.547 1578
0.774 4.172 1.574 3342
0.800 4.312 1.623 2542
0.794 4.279 1.597 5260
0.768 4.139 1.549 1639
0.795 4.283 1.585 5757
0.821 4.423 1.633 1697
0.808 4.354 1.595 3780
0.834 4.494 1.642 2657
0.830 4.476 1.622 3588
0.804 4.336 1.575 2790
0.797 4.295 1.547 4309
0.838 4.517 1.621 2745
0.798 4.299 1.535 4823
0.844 4.551 1.617 2316
0.801 4.318 1.527 3246
0.863 4.652 1.635 3058
0.864 4.656 1.622 5011
0.805 4.337 1.519 3016
0.851 4.586 1.584 4349
0.802 4.326 1.501 2569
0.868 4.679 1.599 3665
0.803 4.330 1.489 1916
0.870 4.691 1.588 4314
0.867 4.673 1.567 4548
0.893 4.814 1.611 2442
0.877 4.729 1.569 5251
0.904 4.871 1.613 1755
0.878 4.733 1.555 5005
0.904 4.875 1.598 2167
0.887 4.782 1.555 3783
0.913 4.924 1.597 1408
0.891 4.801 1.545 3785
0.917 4.943 1.587 1617
0.894 4.820 1.536 3266
0.920 4.962 1.577 2139
0.921 4.966 1.563 2829
0.895 4.824 1.521 2562
0.919 4.955 1.544 4091
0.917 4.944 1.525 5442
0.952 5.132 1.578 1140
0.923 4.978 1.519 4477
0.955 5.151 1.567 1321
0.935 5.042 1.521 4805
0.962 5.185 1.560 1813
0.936 5.046 1.506 4066
0.965 5.204 1.549 1985
0.965 5.201 1.532 3320
0.991 5.344 1.571 2828
0.984 5.302 1.543 5386
0.957 5.159 1.504 2434
0.984 5.306 1.527 5467
0.956 5.156 1.487 1683
0.992 5.348 1.521 5870
1.031 5.559 1.577 1697
0.993 5.352 1.506 8095
1.035 5.578 1.564 2391
0.991 5.341 1.486 6952
1.036 5.583 1.548 1992
0.991 5.345 1.470 4282
1.019 5.496 1.508 3411
1.019 5.492 1.490 3948
0.992 5.349 1.455 3157
1.035 5.579 1.495 2335
1.064 5.738 1.534 2256
1.040 5.606 1.484 3345
1.067 5.750 1.519 2636
1.060 5.716 1.493 4194
1.087 5.860 1.527 2571
1.058 5.704 1.472 3223
1.098 5.917 1.522 2317
1.098 5.921 1.505 4087
1.055 5.686 1.450 2441
1.099 5.925 1.487 4741
1.055 5.689 1.433 1335
1.103 5.944 1.473 3745
1.159 6.248 1.542 1445
1.120 6.039 1.476 4895
1.154 6.221 1.517 2379
1.121 6.043 1.459 3359
1.156 6.233 1.501 2773
1.160 6.252 1.485 2038
1.133 6.107 1.454 1153
1.170 6.309 1.478 2383
1.171 6.313 1.460 2097
1.170 6.309 1.440 1772
1.211 6.530 1.486 1484
1.172 6.320 1.423 2134
1.209 6.519 1.463 1749
1.238 6.675 1.475 2010
1.176 6.339 1.407 1832
1.223 6.595 1.439 2415
1.289 6.946 1.508 1731
1.225 6.606 1.421 2417
1.286 6.935 1.485 1607
1.311 7.069 1.490 1911
1.361 7.336 1.541 1492
1.313 7.080 1.470 2649
1.268 6.835 1.424 2267
1.314 7.084 1.449 2983
1.269 6.839 1.404 2313
1.355 7.302 1.468 2663
1.318 7.103 1.431 2192
1.361 7.337 1.452 3707
1.392 7.505 1.482 2129
1.363 7.348 1.431 3936
1.393 7.509 1.460 3313
1.365 7.360 1.411 2520
1.394 7.513 1.438 2058
1.364 7.355 1.388 1247
1.396 7.524 1.417 1152
1.433 7.728 1.428 1290
1.478 7.966 1.468 1259
1.481 7.985 1.447 1614
1.436 7.739 1.407 1447
1.579 8.511 1.509 1468
1.468 7.912 1.411 1388
1.581 8.523 1.485 2110
1.544 8.323 1.453 1807
1.580 8.519 1.458 2106
1.545 8.327 1.428 1231
1.580 8.515 1.432 1681
1.668 8.992 1.505 1523
1.582 8.526 1.408 2000
1.669 8.996 1.478 1814
1.584 8.538 1.384 2720
1.669 9.000 1.452 1619
1.584 8.541 1.359 2566
1.639 8.834 1.401 1710
1.638 8.830 1.374 2120
1.671 9.007 1.399 1870
1.670 9.003 1.371 1994
1.703 9.181 1.395 1831
1.731 9.331 1.388 1629
1.704 9.184 1.368 1420
1.732 9.334 1.360 1339
1.704 9.188 1.341 1015
0.443 2.318 1.791 2465
0.420 2.198 1.703 2399
0.444 2.322 1.784 4931
0.421 2.202 1.697 4799
0.445 2.327 1.778 4931
0.421 2.206 1.691 4799
0.447 2.338 1.775 5089
0.424 2.217 1.689 4425
0.449 2.349 1.773 5335
0.426 2.228 1.687 4254
0.450 2.354 1.766 6708
0.426 2.232 1.680 3447
0.449 2.352 1.755 8088
0.426 2.231 1.669 2467
0.450 2.357 1.748 8088
0.427 2.235 1.663 2283
0.452 2.368 1.746 7474
0.429 2.246 1.661 1624
0.448 2.347 1.721 7036
0.456 2.390 1.741 8272
0.457 2.394 1.734 9817
0.457 2.392 1.723 8326
0.457 2.390 1.711 7112
0.459 2.401 1.709 6301
0.467 2.445 1.728 7047
0.469 2.456 1.725 8136
0.470 2.461 1.718 8536
0.472 2.472 1.715 9421
0.448 2.347 1.634 1445
0.473 2.476 1.708 9688
0.474 2.481 1.700 9955
0.471 2.465 1.681 8240
0.471 2.463 1.669 7012
0.473 2.474 1.666 5438
0.484 2.532 1.692 4331
0.477 2.496 1.660 4179
0.501 2.622 1.739 1447
0.479 2.507 1.657 4105
0.503 2.633 1.735 2093
0.478 2.505 1.646 4944
0.509 2.665 1.744 2542
0.479 2.509 1.638 5787
0.510 2.669 1.736 3298
0.481 2.520 1.635 5354
0.511 2.674 1.728 3573
0.482 2.524 1.628 5023
0.513 2.685 1.724 3875
0.498 2.609 1.668 6630
0.523 2.737 1.745 2309
0.499 2.614 1.661 8507
0.524 2.741 1.737 3314
0.500 2.618 1.653 7049
0.524 2.746 1.729 3343
0.515 2.696 1.689 8645
0.491 2.568 1.614 1674
0.516 2.701 1.681 7562
0.518 2.712 1.677 5767
0.521 2.730 1.677 5105
0.497 2.601 1.603 1526
0.520 2.721 1.661 4631
0.544 2.850 1.735 1006
0.519 2.718 1.650 4390
0.544 2.847 1.723 1299
0.529 2.770 1.669 3962
0.504 2.641 1.596 1853
0.531 2.781 1.664 4967
0.507 2.652 1.592 1196
0.535 2.799 1.664 4923
0.560 2.929 1.736 1753
0.539 2.824 1.667 4221
0.564 2.954 1.739 2294
0.543 2.842 1.666 3831
0.568 2.972 1.738 2144
0.562 2.943 1.710 4478
0.537 2.812 1.639 2344
0.563 2.947 1.702 5713
0.522 2.734 1.587 2559
0.563 2.945 1.689 6692
0.523 2.738 1.579 2395
0.565 2.956 1.684 7422
0.540 2.825 1.615 2126
0.568 2.974 1.683 8013
0.543 2.843 1.614 2752
0.573 3.000 1.685 7369
0.548 2.868 1.616 2228
0.580 3.039 1.695 8067
0.551 2.886 1.615 1891
0.584 3.057 1.693 8951
0.559 2.925 1.625 1681
0.586 3.068 1.687 9973
0.561 2.936 1.620 1491
0.590 3.087 1.686 10289
0.564 2.954 1.618 1562
0.592 3.098 1.680 9744
0.567 2.966 1.613 1814
0.593 3.102 1.671 9845
0.567 2.970 1.604 1495
0.593 3.107 1.662 12208
0.594 3.111 1.653 14470
0.621 3.251 1.722 1042
0.596 3.122 1.647 14284
0.622 3.255 1.713 1503
0.599 3.134 1.642 12881
0.624 3.267 1.707 1815
0.601 3.145 1.636 11657
0.626 3.278 1.700 1695
0.603 3.156 1.630 9282
0.628 3.290 1.694 2678
0.620 3.245 1.661 13597
0.594 3.111 1.597 2068
0.622 3.257 1.655 13699
0.596 3.123 1.591 1079
0.626 3.275 1.652 12780
0.625 3.272 1.639 11775
0.651 3.407 1.702 1247
0.626 3.277 1.630 12375
0.652 3.411 1.692 1115
0.627 3.281 1.620 12773
0.652 3.416 1.682 1239
0.628 3.285 1.610 11603
0.653 3.420 1.672 1688
0.628 3.289 1.601 10554
0.654 3.424 1.662 2285
0.632 3.308 1.598 8957
0.658 3.443 1.658 3804
0.634 3.319 1.591 8206
0.664 3.476 1.661 4778
0.636 3.330 1.584 6355
0.670 3.509 1.663 4003
0.645 3.377 1.594 3649
0.674 3.527 1.659 3342
0.647 3.389 1.587 3110
0.677 3.546 1.655 3055
0.677 3.543 1.642 4886
0.651 3.407 1.583 2953
0.676 3.540 1.628 7312
0.650 3.404 1.570 2325
0.678 3.552 1.621 7305
0.704 3.688 1.679 2602
0.679 3.556 1.610 7425
0.705 3.692 1.668 4005
0.694 3.632 1.630 6156
0.720 3.769 1.687 1519
0.695 3.636 1.619 6900
0.721 3.773 1.676 1198
0.697 3.648 1.612 5787
0.723 3.785 1.668 1063
0.691 3.616 1.586 4789
0.717 3.753 1.642 2895
0.691 3.620 1.576 5491
0.722 3.779 1.640 4314
0.724 3.791 1.632 4019
0.694 3.631 1.568 3844
0.725 3.795 1.621 5185
0.699 3.657 1.566 1786
0.724 3.792 1.607 6424
0.751 3.930 1.661 1053
0.725 3.796 1.595 5047
0.751 3.934 1.649 1694
0.748 3.917 1.629 2656
0.722 3.778 1.576 1902
0.741 3.877 1.601 3838
0.767 4.015 1.654 1811
0.740 3.874 1.587 4790
0.775 4.056 1.656 1747
0.739 3.871 1.573 3912
0.778 4.075 1.650 2672
0.778 4.072 1.635 3655
0.743 3.890 1.567 2620
0.781 4.091 1.628 5942
0.751 3.930 1.569 2821
0.784 4.103 1.619 8015
0.752 3.934 1.557 2157
0.784 4.107 1.607 8078
0.811 4.246 1.657 1559
0.785 4.111 1.595 7521
0.812 4.250 1.645 2277
0.786 4.115 1.583 6146
0.813 4.255 1.632 2475
0.788 4.127 1.573 4648
0.815 4.266 1.623 3060
0.819 4.285 1.615 5912
0.790 4.138 1.564 3091
0.818 4.282 1.600 6019
0.845 4.422 1.648 2642
0.833 4.360 1.613 4882
0.806 4.220 1.565 2511
0.852 4.460 1.632 4424
0.825 4.320 1.585 3322
0.854 4.472 1.622 5003
0.822 4.302 1.565 2420
0.854 4.469 1.606 3654
0.824 4.313 1.555 1973
0.861 4.510 1.605 3012
0.823 4.310 1.539 1911
0.865 4.529 1.597 3160
0.820 4.292 1.520 2366
0.887 4.644 1.619 4393
0.860 4.503 1.574 2579
0.878 4.596 1.589 4214
0.905 4.737 1.634 1774
0.892 4.667 1.597 3744
0.865 4.526 1.552 1638
0.897 4.694 1.590 4331
0.870 4.553 1.546 1330
0.899 4.705 1.578 5075
0.926 4.847 1.622 1112
0.895 4.687 1.558 4403
0.922 4.829 1.601 1740
0.908 4.751 1.562 2982
0.913 4.777 1.555 4041
0.940 4.919 1.597 1033
0.915 4.789 1.543 4457
0.942 4.931 1.585 1504
0.918 4.808 1.533 3506
0.945 4.950 1.575 1591
0.928 4.857 1.532 2604
0.955 4.999 1.573 1613
0.938 4.913 1.533 4466
0.966 5.055 1.574 1458
0.939 4.917 1.519 6087
0.966 5.059 1.559 1673
0.944 4.943 1.510 3810
0.971 5.086 1.550 2607
0.961 5.030 1.519 5387
0.988 5.172 1.558 2138
0.963 5.041 1.506 3867
0.996 5.214 1.553 2167
1.014 5.308 1.562 4349
0.987 5.165 1.524 3233
1.013 5.305 1.545 5906
0.986 5.162 1.507 3347
1.014 5.309 1.529 5098
0.985 5.158 1.489 2096
1.019 5.335 1.519 5076
1.046 5.478 1.557 1503
1.021 5.347 1.506 7630
1.063 5.565 1.562 2248
1.019 5.336 1.486 7520
1.064 5.569 1.546 2651
1.018 5.332 1.468 4964
1.062 5.558 1.526 2710
1.031 5.396 1.468 3330
1.060 5.547 1.505 2767
1.095 5.732 1.534 3120
1.065 5.574 1.495 2506
1.096 5.736 1.517 3796
1.068 5.593 1.482 2770
1.094 5.725 1.496 3430
1.121 5.869 1.531 2936
1.123 5.881 1.515 3044
1.096 5.737 1.481 2153
1.131 5.922 1.507 3260
1.085 5.680 1.450 1608
1.133 5.934 1.491 4042
1.086 5.684 1.433 1632
1.143 5.983 1.484 4619
1.191 6.234 1.541 1041
1.151 6.025 1.475 3928
1.183 6.192 1.512 1525
1.153 6.036 1.459 2642
1.188 6.219 1.499 1571
1.187 6.215 1.479 1467
1.152 6.033 1.439 1115
1.204 6.303 1.478 2464
1.152 6.029 1.420 1156
1.203 6.299 1.458 2385
1.264 6.619 1.526 1517
1.204 6.303 1.440 2035
1.245 6.516 1.484 1499
1.244 6.512 1.463 2119
1.206 6.314 1.423 1821
1.272 6.661 1.473 2493
1.242 6.501 1.441 1359
1.275 6.672 1.455 2887
1.324 6.932 1.507 1469
1.318 6.897 1.479 2205
1.261 6.600 1.421 2200
1.350 7.069 1.491 2098
1.321 6.917 1.462 2011
1.334 6.981 1.453 2858
1.303 6.821 1.422 2045
1.349 7.062 1.446 3720
1.304 6.825 1.402 2111
1.348 7.058 1.424 2671
1.389 7.272 1.464 2128
1.400 7.329 1.452 2863
1.431 7.490 1.481 2056
1.402 7.341 1.431 3453
1.433 7.502 1.460 3347
1.404 7.352 1.411 2308
1.435 7.513 1.439 2006
1.467 7.678 1.445 1572
1.512 7.916 1.485 1254
1.510 7.904 1.459 1553
1.469 7.689 1.423 1328
1.471 7.701 1.402 1505
1.508 7.892 1.433 1482
1.624 8.503 1.509 1600
1.508 7.896 1.410 1496
1.626 8.514 1.485 2615
1.572 8.230 1.439 1663
1.626 8.510 1.458 2680
1.571 8.226 1.414 2028
1.625 8.507 1.432 2102
1.571 8.222 1.388 1974
1.627 8.518 1.408 2452
1.677 8.779 1.447 1655
1.629 8.529 1.384 3428
1.679 8.791 1.422 1500
1.630 8.533 1.359 3059
1.778 9.310 1.471 1514
1.631 8.536 1.334 1796
1.720 9.006 1.400 1744
1.718 8.994 1.371 1809
1.746 9.141 1.391 1624
1.781 9.322 1.388 1583
1.744 9.129 1.362 1238
1.781 9.325 1.360 1396
0.448 2.316 1.791 2849
0.425 2.196 1.703 1993
0.449 2.321 1.784 5699
0.426 2.201 1.697 3986
0.450 2.326 1.778 5699
0.427 2.205 1.691 3986
0.451 2.331 1.771 5684
0.428 2.210 1.684 3602
0.453 2.342 1.769 5705
0.430 2.221 1.682 3480
0.454 2.346 1.762 7487
0.431 2.225 1.676 2741
0.455 2.351 1.755 9270
0.432 2.229 1.669 2002
0.456 2.356 1.748 9270
0.432 2.234 1.663 1870
0.454 2.347 1.732 8557
0.431 2.225 1.648 1003
0.454 2.345 1.721 8410
0.461 2.382 1.736 8924
0.438 2.260 1.652 1014
0.462 2.387 1.730 10466
0.463 2.391 1.723 9078
0.463 2.389 1.711 7791
0.465 2.400 1.709 7017
0.473 2.444 1.728 7074
0.474 2.448 1.721 8083
0.476 2.459 1.718 8199
0.452 2.335 1.636 1149
0.478 2.471 1.715 8741
0.454 2.346 1.634 1660
0.479 2.475 1.708 8715
0.455 2.350 1.627 1119
0.478 2.466 1.692 8819
0.477 2.464 1.681 7868
0.478 2.469 1.673 6925
0.480 2.480 1.670 5472
0.490 2.530 1.692 5095
0.484 2.502 1.664 4654
0.509 2.628 1.743 1151
0.485 2.506 1.657 4685
0.510 2.632 1.735 1759
0.485 2.504 1.646 5001
0.509 2.630 1.723 2079
0.484 2.501 1.634 5434
0.517 2.668 1.736 2686
0.486 2.512 1.631 5078
0.519 2.679 1.732 2956
0.489 2.523 1.628 4924
0.520 2.684 1.724 3251
0.504 2.601 1.664 6374
0.528 2.728 1.741 2348
0.504 2.606 1.657 8170
0.529 2.733 1.733 3221
0.505 2.610 1.649 7054
0.530 2.738 1.725 3356
0.522 2.695 1.689 7156
0.497 2.567 1.614 1643
0.524 2.706 1.685 6582
0.526 2.717 1.681 5254
0.501 2.589 1.607 1014
0.530 2.735 1.681 4658
0.505 2.607 1.607 1961
0.530 2.740 1.673 4026
0.506 2.611 1.599 1694
0.526 2.717 1.650 3760
0.551 2.846 1.723 1421
0.536 2.769 1.669 3919
0.511 2.640 1.596 2026
0.538 2.780 1.664 4969
0.513 2.651 1.592 1242
0.540 2.791 1.660 4640
0.566 2.921 1.732 1763
0.548 2.830 1.671 3754
0.573 2.960 1.742 2108
0.551 2.848 1.670 3449
0.526 2.718 1.599 2516
0.569 2.941 1.710 4718
0.528 2.729 1.594 2970
0.570 2.946 1.702 6190
0.529 2.733 1.587 2853
0.570 2.943 1.689 6780
0.530 2.737 1.579 2348
0.571 2.948 1.681 6825
0.531 2.741 1.571 1991
0.576 2.973 1.683 6793
0.550 2.842 1.614 2422
0.580 2.998 1.685 6282
0.555 2.867 1.616 2303
0.588 3.037 1.695 7694
0.559 2.885 1.615 1880
0.592 3.055 1.693 9617
0.566 2.924 1.625 1739
0.594 3.067 1.687 10614
0.568 2.935 1.620 1576
0.597 3.085 1.686 10417
0.572 2.953 1.618 1733
0.600 3.096 1.680 9355
0.574 2.964 1.613 1928
0.599 3.094 1.668 9687
0.573 2.962 1.601 1249
0.600 3.098 1.658 12259
0.602 3.110 1.653 14638
0.604 3.121 1.647 14088
0.630 3.254 1.713 1240
0.608 3.139 1.645 12282
0.634 3.272 1.710 1206
0.609 3.144 1.636 11191
0.634 3.277 1.700 1407
0.626 3.232 1.667 9128
0.600 3.099 1.603 3496
0.628 3.244 1.661 13543
0.602 3.110 1.597 1773
0.630 3.255 1.655 12966
0.656 3.389 1.718 1024
0.632 3.266 1.649 11288
0.658 3.400 1.712 1039
0.633 3.271 1.639 10427
0.659 3.405 1.702 1146
0.634 3.275 1.630 11000
0.660 3.409 1.692 1423
0.635 3.279 1.620 11472
0.661 3.414 1.682 1879
0.636 3.283 1.610 10510
0.662 3.418 1.672 2221
0.637 3.288 1.601 9505
0.663 3.423 1.662 2480
0.640 3.306 1.598 8101
0.666 3.441 1.658 3565
0.642 3.317 1.591 7980
0.671 3.467 1.658 4661
0.646 3.336 1.588 6495
0.678 3.500 1.660 3705
0.655 3.383 1.597 4545
0.681 3.518 1.656 2950
0.657 3.394 1.590 3658
0.689 3.559 1.661 2922
0.686 3.541 1.642 4744
0.659 3.405 1.583 3231
0.685 3.539 1.628 6989
0.659 3.402 1.570 2290
0.687 3.550 1.621 6905
0.714 3.686 1.679 2112
0.688 3.554 1.610 6947
0.715 3.691 1.668 3417
0.703 3.630 1.630 5741
0.676 3.494 1.573 1280
0.704 3.635 1.619 6419
0.706 3.646 1.612 5445
0.732 3.783 1.668 1118
0.700 3.614 1.586 4551
0.726 3.751 1.642 3484
0.701 3.618 1.576 5541
0.731 3.777 1.640 4496
0.734 3.789 1.632 4087
0.703 3.630 1.568 4038
0.734 3.793 1.621 5326
0.705 3.641 1.560 1734
0.734 3.790 1.607 6354
0.760 3.928 1.661 1110
0.735 3.794 1.595 4907
0.761 3.932 1.649 1763
0.749 3.871 1.612 3606
0.776 4.009 1.666 1252
0.750 3.875 1.601 4483
0.777 4.013 1.654 1602
0.750 3.872 1.587 4702
0.776 4.011 1.639 1794
0.749 3.869 1.573 3899
0.789 4.073 1.650 2841
0.789 4.077 1.638 3585
0.753 3.888 1.567 2722
0.793 4.096 1.631 5593
0.759 3.921 1.566 2923
0.794 4.101 1.619 7799
0.761 3.932 1.557 2475
0.795 4.105 1.607 8145
0.768 3.966 1.557 1890
0.796 4.109 1.595 7585
0.823 4.248 1.645 1731
0.796 4.113 1.583 6525
0.823 4.253 1.632 1892
0.799 4.125 1.573 5312
0.828 4.279 1.628 3124
0.829 4.283 1.615 5720
0.801 4.136 1.564 3077
0.830 4.287 1.603 5023
0.857 4.427 1.651 3447
0.858 4.431 1.638 4543
0.829 4.284 1.587 2859
0.862 4.451 1.630 4783
0.835 4.310 1.582 2998
0.864 4.462 1.619 5050
0.837 4.322 1.572 3246
0.863 4.459 1.604 3791
0.836 4.319 1.557 2634
0.873 4.508 1.605 3421
0.846 4.367 1.559 2028
0.874 4.512 1.592 3469
0.901 4.652 1.638 2593
0.897 4.634 1.617 4562
0.870 4.494 1.572 2380
0.894 4.616 1.596 4092
0.867 4.475 1.551 1727
0.902 4.658 1.594 3672
0.874 4.517 1.550 1450
0.908 4.692 1.590 4047
0.881 4.550 1.546 1420
0.911 4.703 1.578 5036
0.883 4.562 1.535 1178
0.907 4.685 1.558 4377
0.936 4.834 1.603 1153
0.908 4.689 1.544 2681
0.935 4.830 1.587 1643
0.927 4.790 1.559 3790
0.900 4.648 1.517 1136
0.930 4.801 1.547 3797
0.957 4.943 1.590 1246
0.932 4.813 1.536 2912
0.959 4.955 1.577 1273
0.950 4.907 1.547 2543
0.922 4.765 1.506 1050
0.951 4.911 1.533 4308
0.978 5.053 1.574 1406
0.952 4.915 1.519 5761
0.979 5.057 1.559 1500
0.954 4.926 1.506 3417
0.981 5.068 1.546 2806
0.973 5.027 1.519 4461
1.001 5.170 1.558 1850
0.974 5.031 1.504 3628
1.010 5.219 1.555 2108
1.027 5.306 1.562 3921
0.976 5.043 1.491 3106
1.027 5.302 1.545 4860
0.999 5.159 1.507 3111
1.027 5.306 1.529 4234
0.998 5.156 1.489 1942
1.031 5.325 1.517 4671
1.059 5.468 1.555 1557
1.033 5.337 1.504 6964
1.077 5.563 1.562 2105
1.044 5.393 1.501 7585
1.078 5.567 1.546 2707
1.045 5.397 1.486 4878
1.077 5.563 1.527 2550
1.046 5.401 1.470 3522
1.073 5.544 1.505 3042
1.090 5.631 1.510 3043
1.049 5.420 1.458 2206
1.109 5.726 1.515 3733
1.081 5.582 1.480 2306
1.108 5.722 1.496 3461
1.136 5.866 1.531 2783
1.135 5.863 1.512 3553
1.107 5.719 1.478 2081
1.142 5.897 1.501 2986
1.099 5.677 1.450 1799
1.162 5.999 1.507 3906
1.101 5.688 1.435 1946
1.159 5.988 1.486 4472
1.162 5.999 1.470 3174
1.191 6.151 1.504 1338
1.167 6.026 1.457 2322
1.195 6.170 1.489 1249
1.167 6.030 1.439 1504
1.201 6.205 1.477 1433
1.220 6.300 1.478 2101
1.167 6.026 1.420 1303
1.220 6.303 1.460 2069
1.281 6.615 1.526 1551
1.220 6.300 1.440 1790
1.259 6.505 1.483 1580
1.260 6.509 1.463 2092
1.288 6.654 1.493 1409
1.289 6.658 1.473 2387
1.254 6.475 1.436 1346
1.291 6.669 1.455 2789
1.248 6.448 1.411 1635
1.335 6.894 1.479 2510
1.295 6.688 1.439 2056
1.338 6.913 1.462 2171
1.368 7.066 1.491 2124
1.367 7.062 1.469 2754
1.319 6.810 1.421 1970
1.365 7.051 1.445 3699
1.321 6.821 1.402 1932
1.367 7.062 1.426 2752
1.404 7.253 1.461 2404
1.404 7.249 1.438 2365
1.449 7.487 1.481 1981
1.452 7.498 1.460 3129
1.421 7.337 1.431 2828
1.484 7.663 1.466 2108
1.423 7.349 1.411 1915
1.486 7.674 1.445 1961
1.532 7.912 1.485 1378
1.530 7.900 1.459 1625
1.487 7.678 1.422 1494
1.489 7.689 1.401 1569
1.526 7.881 1.432 1454
1.645 8.499 1.509 1470
1.592 8.222 1.464 1412
1.648 8.510 1.485 2474
1.593 8.226 1.439 1717
1.647 8.506 1.458 2595
1.590 8.214 1.413 2202
1.591 8.218 1.388 2152
1.646 8.502 1.432 2054
1.648 8.514 1.408 2324
1.698 8.768 1.446 1963
1.651 8.525 1.384 3239
1.700 8.779 1.421 1667
1.651 8.529 1.359 2841
1.802 9.306 1.471 1455
1.743 9.002 1.400 1600
1.652 8.532 1.334 1599
1.767 9.129 1.390 1621
1.739 8.982 1.370 1570
1.804 9.317 1.388 1379
1.765 9.117 1.361 1215
1.805 9.321 1.360 1221
0.456 2.308 1.786 3630
0.428 2.163 1.680 1727
0.457 2.313 1.780 7261
0.429 2.168 1.674 3454
0.458 2.318 1.773 7261
0.429 2.172 1.668 3454
0.459 2.322 1.766 6994
0.435 2.202 1.680 2694
0.461 2.333 1.764 6756
0.437 2.213 1.678 2544
0.462 2.338 1.757 9184
0.438 2.217 1.671 1935
0.463 2.343 1.751 11612
0.439 2.221 1.665 1325
0.464 2.347 1.744 11612
0.440 2.226 1.659 1212
0.464 2.345 1.732 11189
0.440 2.224 1.648 1021
0.463 2.344 1.721 11136
0.469 2.374 1.732 10793
0.445 2.252 1.648 1275
0.472 2.385 1.730 12051
0.471 2.383 1.718 10521
0.472 2.387 1.711 9027
0.474 2.398 1.709 8473
0.475 2.403 1.702 7985
0.484 2.447 1.721 8614
0.459 2.323 1.639 1070
0.474 2.399 1.679 9059
0.499 2.523 1.761 1040
0.475 2.403 1.672 10239
0.500 2.527 1.753 1124
0.477 2.414 1.669 8387
0.502 2.539 1.750 1730
0.483 2.445 1.679 7875
0.487 2.462 1.681 7474
0.489 2.473 1.678 7378
0.494 2.498 1.683 6379
0.500 2.528 1.692 6526
0.497 2.513 1.672 6334
0.496 2.511 1.661 6728
0.521 2.637 1.739 1163
0.496 2.508 1.650 5923
0.521 2.635 1.727 1444
0.494 2.499 1.634 5463
0.519 2.626 1.712 1920
0.498 2.517 1.635 5128
0.529 2.677 1.732 1983
0.501 2.535 1.636 5074
0.530 2.682 1.724 2205
0.513 2.592 1.660 5982
0.538 2.720 1.737 1865
0.515 2.604 1.657 7659
0.540 2.731 1.733 2185
0.516 2.608 1.649 6823
0.541 2.736 1.725 2339
0.522 2.639 1.657 6013
0.547 2.767 1.733 1156
0.524 2.650 1.654 6447
0.524 2.648 1.642 5098
0.549 2.776 1.716 1207
0.540 2.733 1.681 4315
0.515 2.605 1.607 2340
0.541 2.738 1.673 3917
0.516 2.609 1.599 1955
0.525 2.654 1.615 3724
0.553 2.796 1.696 2877
0.527 2.665 1.611 3330
0.554 2.801 1.688 2788
0.537 2.717 1.630 2976
0.563 2.846 1.702 1734
0.558 2.823 1.679 2997
0.533 2.694 1.607 2300
0.563 2.848 1.682 3336
0.537 2.718 1.610 3077
0.538 2.723 1.602 3835
0.583 2.948 1.726 3628
0.582 2.946 1.714 5592
0.539 2.727 1.594 3606
0.583 2.950 1.705 7584
0.540 2.731 1.587 2629
0.583 2.948 1.693 7446
0.557 2.817 1.623 2127
0.581 2.939 1.677 6253
0.542 2.739 1.571 1658
0.583 2.950 1.672 4664
0.609 3.081 1.741 1559
0.592 2.996 1.685 4433
0.566 2.865 1.616 2455
0.601 3.042 1.698 7578
0.570 2.883 1.615 1935
0.604 3.053 1.693 11228
0.578 2.921 1.625 2103
0.606 3.064 1.687 11955
0.580 2.933 1.620 1901
0.608 3.076 1.682 10616
0.582 2.944 1.615 1523
0.612 3.094 1.680 8336
0.586 2.962 1.613 1945
0.610 3.085 1.664 9564
0.584 2.952 1.597 1026
0.612 3.096 1.658 12591
0.614 3.107 1.653 14955
0.588 2.975 1.587 1017
0.617 3.119 1.647 13720
0.619 3.130 1.642 11288
0.645 3.263 1.707 1461
0.622 3.148 1.639 10526
0.649 3.281 1.704 1037
0.639 3.230 1.667 8860
0.612 3.096 1.603 3492
0.641 3.241 1.661 13222
0.614 3.107 1.597 1618
0.643 3.252 1.655 11879
0.644 3.257 1.645 9589
0.670 3.391 1.708 1187
0.646 3.268 1.639 8830
0.673 3.402 1.702 1206
0.647 3.272 1.630 9274
0.674 3.407 1.692 2370
0.648 3.277 1.620 9552
0.674 3.411 1.682 3525
0.650 3.288 1.614 8930
0.677 3.423 1.675 3284
0.650 3.285 1.601 7543
0.676 3.420 1.662 3371
0.653 3.304 1.598 6336
0.680 3.439 1.658 3286
0.657 3.322 1.594 7353
0.686 3.471 1.661 4353
0.660 3.340 1.591 6608
0.687 3.476 1.651 3733
0.668 3.380 1.597 6355
0.702 3.551 1.672 2638
0.676 3.420 1.602 5464
0.704 3.563 1.664 2787
0.690 3.489 1.620 5254
0.719 3.639 1.685 1494
0.698 3.529 1.625 6194
0.671 3.393 1.567 1901
0.703 3.554 1.624 6073
0.730 3.691 1.682 1405
0.702 3.551 1.610 6319
0.729 3.688 1.668 2425
0.717 3.627 1.630 5477
0.690 3.491 1.573 1445
0.718 3.632 1.619 6082
0.720 3.643 1.612 5375
0.747 3.780 1.668 1649
0.743 3.756 1.645 4731
0.715 3.619 1.589 4058
0.715 3.615 1.576 5321
0.745 3.767 1.637 5173
0.751 3.800 1.637 4811
0.717 3.627 1.568 4183
0.751 3.797 1.623 5939
0.718 3.631 1.557 1693
0.750 3.794 1.609 6089
0.777 3.932 1.664 1336
0.751 3.799 1.598 4639
0.778 3.936 1.652 1912
0.765 3.868 1.612 5828
0.792 4.006 1.666 1690
0.766 3.872 1.601 5699
0.793 4.010 1.654 1664
0.765 3.869 1.587 4897
0.792 4.007 1.639 2441
0.764 3.866 1.573 4067
0.805 4.070 1.650 2722
0.808 4.089 1.643 3435
0.767 3.877 1.564 2875
0.809 4.093 1.631 5105
0.773 3.911 1.564 3064
0.810 4.097 1.619 6889
0.777 3.929 1.557 2853
0.811 4.102 1.607 7483
0.783 3.963 1.557 2495
0.812 4.106 1.595 7272
0.784 3.967 1.545 1757
0.813 4.110 1.583 6789
0.866 4.381 1.679 2117
0.815 4.121 1.573 5841
0.847 4.283 1.630 3475
0.846 4.280 1.615 5349
0.816 4.126 1.561 2751
0.873 4.416 1.648 5251
0.846 4.277 1.600 4240
0.876 4.428 1.638 6572
0.848 4.288 1.590 2735
0.876 4.432 1.625 5522
0.849 4.292 1.577 2431
0.874 4.422 1.607 5195
0.847 4.282 1.560 1887
0.875 4.426 1.594 3872
0.907 4.588 1.648 2177
0.891 4.504 1.605 4108
0.863 4.364 1.559 1807
0.891 4.508 1.592 4052
0.919 4.649 1.638 2720
0.914 4.623 1.615 5848
0.886 4.483 1.569 2134
0.915 4.628 1.601 5133
0.887 4.487 1.556 2139
0.919 4.647 1.592 3557
0.891 4.506 1.547 1489
0.924 4.673 1.585 3405
0.928 4.692 1.576 4388
0.900 4.551 1.532 1120
0.923 4.666 1.553 4570
0.923 4.670 1.540 3314
0.951 4.812 1.582 2326
0.949 4.801 1.564 3980
0.921 4.660 1.521 2040
0.954 4.828 1.556 3311
0.925 4.678 1.512 1567
0.966 4.884 1.557 2751
0.938 4.742 1.516 1303
0.971 4.910 1.550 2807
0.943 4.768 1.508 1342
0.970 4.907 1.533 3663
0.998 5.049 1.574 1256
0.969 4.903 1.516 4872
0.998 5.045 1.557 1650
0.969 4.900 1.500 3521
1.003 5.072 1.548 2937
1.005 5.083 1.535 4503
0.973 4.919 1.490 2161
1.009 5.102 1.525 3829
1.037 5.245 1.564 2144
0.996 5.039 1.491 4580
1.030 5.211 1.538 2676
0.999 5.050 1.478 3632
1.048 5.298 1.545 2583
1.039 5.257 1.517 2629
1.068 5.400 1.555 1885
1.049 5.306 1.514 3643
1.080 5.464 1.555 1538
1.054 5.332 1.504 5175
1.098 5.551 1.560 2331
1.066 5.389 1.501 7726
1.100 5.562 1.546 3069
1.066 5.393 1.486 5297
1.096 5.544 1.524 2876
1.115 5.638 1.530 4125
1.086 5.495 1.494 3518
1.113 5.627 1.510 3676
1.069 5.408 1.456 2310
1.131 5.722 1.515 3075
1.103 5.578 1.480 2452
1.131 5.718 1.496 3155
1.159 5.862 1.531 2669
1.158 5.858 1.512 4087
1.125 5.692 1.472 2466
1.158 5.854 1.493 3909
1.122 5.673 1.450 2772
1.187 6.002 1.508 4191
1.158 5.858 1.475 2749
1.186 5.998 1.489 4201
1.158 5.854 1.456 2062
1.184 5.987 1.468 2865
1.215 6.146 1.504 1471
1.189 6.014 1.455 2354
1.218 6.158 1.487 1552
1.190 6.017 1.438 1946
1.218 6.162 1.469 1847
1.221 6.173 1.452 1703
1.249 6.318 1.483 1322
1.274 6.443 1.490 1616
1.307 6.610 1.526 1433
1.278 6.462 1.475 2040
1.309 6.622 1.508 1348
1.284 6.496 1.462 2039
1.313 6.641 1.491 1208
1.315 6.652 1.473 1815
1.278 6.462 1.435 1734
1.275 6.450 1.413 2230
1.316 6.656 1.454 2136
1.364 6.896 1.480 2883
1.276 6.454 1.394 2404
1.367 6.916 1.463 2529
1.396 7.060 1.491 1711
1.394 7.049 1.467 2238
1.345 6.805 1.421 1869
1.394 7.053 1.446 3205
1.434 7.251 1.484 1968
1.435 7.255 1.462 3101
1.400 7.079 1.430 2655
1.432 7.244 1.438 2901
1.404 7.098 1.412 1743
1.481 7.492 1.460 2517
1.453 7.347 1.434 2127
1.514 7.657 1.466 2499
1.485 7.511 1.441 1683
1.515 7.661 1.443 2674
1.562 7.898 1.484 1470
1.515 7.664 1.421 1963
1.559 7.886 1.458 1632
1.518 7.676 1.399 1759
1.548 7.829 1.425 1493
1.624 8.216 1.464 1497
1.518 7.679 1.377 1486
1.680 8.496 1.483 2018
1.625 8.220 1.439 1650
1.681 8.500 1.458 2334
1.623 8.208 1.413 2207
1.624 8.212 1.388 2233
1.681 8.504 1.433 2023
1.729 8.745 1.444 2488
1.682 8.507 1.408 2009
1.684 8.519 1.384 2533
1.731 8.757 1.419 1984
1.685 8.522 1.359 2104
1.718 8.691 1.383 1366
1.798 9.095 1.414 1540
1.838 9.295 1.442 1307
1.797 9.091 1.386 1651
1.832 9.268 1.410 1179
1.797 9.087 1.358 1305
1.836 9.287 1.385 1270
1.838 9.298 1.358 1112
0.462 2.307 1.786 3871
0.433 2.162 1.680 1561
0.463 2.312 1.780 7743
0.434 2.167 1.674 3122
0.464 2.317 1.773 7743
0.435 2.171 1.668 3122
0.465 2.321 1.766 7380
0.437 2.182 1.666 2307
0.466 2.326 1.760 7016
0.441 2.205 1.673 1818
0.468 2.337 1.757 9734
0.444 2.216 1.671 1637
0.469 2.342 1.751 12497
0.445 2.220 1.665 1451
0.470 2.346 1.744 12497
0.445 2.225 1.659 1374
0.469 2.344 1.732 12252
0.445 2.223 1.648 1236
0.470 2.349 1.726 12334
0.446 2.227 1.641 1339
0.474 2.366 1.728 11665
0.449 2.244 1.644 1308
0.476 2.377 1.725 12500
0.477 2.382 1.718 10886
0.479 2.393 1.716 9276
0.480 2.397 1.709 8995
0.481 2.402 1.702 8714
0.482 2.406 1.695 8667
0.480 2.398 1.679 9741
0.481 2.402 1.672 10897
0.506 2.526 1.753 1002
0.483 2.413 1.669 8701
0.508 2.537 1.750 1543
0.488 2.437 1.675 6986
0.513 2.562 1.755 1018
0.491 2.455 1.676 6817
0.496 2.479 1.682 7597
0.500 2.496 1.683 6873
0.506 2.527 1.692 7061
0.503 2.512 1.672 7427
0.504 2.516 1.665 8321
0.505 2.521 1.658 7067
0.504 2.518 1.646 5892
0.536 2.678 1.744 1021
0.506 2.529 1.643 5623
0.537 2.683 1.736 1209
0.509 2.540 1.640 5537
0.538 2.687 1.728 1397
0.517 2.585 1.656 5850
0.543 2.712 1.733 1468
0.520 2.596 1.653 7285
0.545 2.723 1.729 1753
0.522 2.607 1.649 6342
0.547 2.734 1.725 1707
0.527 2.631 1.654 6002
0.552 2.759 1.729 1059
0.529 2.642 1.650 6509
0.528 2.640 1.638 5495
0.554 2.768 1.713 1256
0.528 2.637 1.627 4699
0.554 2.766 1.701 1670
0.530 2.648 1.623 4269
0.556 2.777 1.696 1634
0.531 2.653 1.615 3928
0.562 2.809 1.704 2195
0.533 2.664 1.611 3641
0.563 2.813 1.695 2328
0.545 2.722 1.634 3649
0.571 2.851 1.706 1954
0.544 2.720 1.622 3191
0.572 2.856 1.698 2815
0.570 2.847 1.682 3618
0.544 2.717 1.610 3192
0.590 2.947 1.726 3908
0.545 2.721 1.602 3675
0.591 2.951 1.718 6114
0.546 2.725 1.594 3347
0.592 2.956 1.709 8319
0.566 2.826 1.638 2756
0.590 2.947 1.693 7762
0.564 2.816 1.623 2251
0.587 2.930 1.673 5890
0.547 2.731 1.567 1377
0.583 2.914 1.654 4192
0.612 3.059 1.730 1995
0.602 3.008 1.692 3201
0.576 2.877 1.624 2560
0.609 3.040 1.698 7727
0.582 2.909 1.630 1926
0.611 3.052 1.693 11869
0.585 2.920 1.625 2336
0.613 3.063 1.687 12244
0.587 2.931 1.620 2102
0.614 3.067 1.678 10244
0.588 2.936 1.611 1215
0.615 3.072 1.670 7636
0.641 3.204 1.737 1044
0.616 3.076 1.661 9197
0.642 3.208 1.727 1029
0.620 3.094 1.658 12425
0.593 2.962 1.592 1045
0.622 3.106 1.653 14520
0.595 2.973 1.587 1095
0.623 3.110 1.644 12848
0.649 3.243 1.709 1026
0.626 3.128 1.642 10111
0.653 3.261 1.707 1819
0.630 3.147 1.639 9766
0.657 3.280 1.704 1552
0.646 3.228 1.667 7752
0.620 3.095 1.603 3673
0.649 3.240 1.661 12072
0.622 3.106 1.597 1710
0.649 3.244 1.652 10722
0.676 3.378 1.715 1023
0.652 3.255 1.645 8354
0.679 3.389 1.708 1076
0.657 3.281 1.646 7943
0.630 3.147 1.583 1145
0.656 3.278 1.633 8384
0.683 3.412 1.695 2691
0.657 3.282 1.623 8458
0.684 3.417 1.685 4033
0.659 3.294 1.617 8428
0.686 3.428 1.678 3580
0.660 3.298 1.607 6529
0.687 3.433 1.668 2841
0.662 3.309 1.601 5236
0.690 3.444 1.661 2891
0.665 3.320 1.594 6640
0.695 3.470 1.661 3872
0.671 3.353 1.597 6685
0.698 3.488 1.657 3175
0.676 3.379 1.597 7199
0.711 3.550 1.672 2489
0.684 3.418 1.602 6421
0.713 3.561 1.664 2490
0.697 3.480 1.617 6133
0.724 3.616 1.676 1585
0.703 3.513 1.619 5829
0.730 3.649 1.677 1493
0.711 3.553 1.624 5555
0.712 3.557 1.613 6447
0.739 3.693 1.671 1404
0.726 3.626 1.630 5493
0.699 3.489 1.573 1737
0.727 3.630 1.619 5981
0.699 3.493 1.563 1109
0.729 3.641 1.612 5428
0.756 3.778 1.668 2191
0.752 3.754 1.645 5501
0.724 3.617 1.589 3729
0.739 3.693 1.608 5878
0.767 3.830 1.663 2301
0.740 3.697 1.597 5859
0.768 3.835 1.652 3808
0.761 3.803 1.626 6470
0.734 3.665 1.572 1844
0.759 3.793 1.609 5609
0.787 3.930 1.664 1382
0.775 3.869 1.627 4769
0.747 3.731 1.573 1261
0.774 3.866 1.612 7003
0.802 4.004 1.666 1868
0.775 3.870 1.601 6115
0.803 4.008 1.654 1867
0.774 3.867 1.587 4597
0.802 4.006 1.639 2842
0.774 3.864 1.573 3846
0.801 4.003 1.625 2866
0.820 4.094 1.646 3390
0.776 3.876 1.564 2870
0.819 4.091 1.631 4904
0.783 3.909 1.564 2838
0.820 4.095 1.619 5858
0.786 3.927 1.557 2799
0.821 4.100 1.607 6190
0.793 3.961 1.557 2433
0.822 4.104 1.595 6337
0.794 3.965 1.545 1580
0.822 4.108 1.583 6486
0.877 4.379 1.679 2408
0.825 4.119 1.573 5954
0.861 4.303 1.638 3589
0.858 4.285 1.618 4578
0.826 4.124 1.561 2828
0.884 4.414 1.648 5856
0.856 4.275 1.600 4316
0.886 4.426 1.638 7522
0.858 4.286 1.590 4031
0.885 4.423 1.622 5789
0.857 4.283 1.575 3132
0.882 4.405 1.602 5560
0.854 4.265 1.555 1692
0.884 4.417 1.591 4482
0.917 4.579 1.645 2410
0.895 4.472 1.595 4103
0.923 4.613 1.642 1541
0.902 4.506 1.592 4081
0.930 4.647 1.638 2719
0.925 4.621 1.615 6353
0.897 4.481 1.569 2024
0.926 4.625 1.601 5217
0.898 4.485 1.556 2192
0.930 4.644 1.592 3118
0.902 4.504 1.547 1540
0.934 4.663 1.583 3123
0.931 4.653 1.565 4407
0.932 4.657 1.551 4773
0.935 4.668 1.540 3606
0.963 4.810 1.582 2499
0.962 4.806 1.566 4265
0.934 4.665 1.524 2615
0.968 4.833 1.559 2962
0.936 4.676 1.512 1776
0.977 4.881 1.557 2540
0.983 4.908 1.550 2827
0.954 4.766 1.508 1333
0.982 4.904 1.533 3032
1.010 5.046 1.574 1026
0.980 4.893 1.514 4031
1.008 5.036 1.555 1621
0.982 4.905 1.502 3565
1.016 5.077 1.550 2669
1.017 5.081 1.535 4270
0.989 4.939 1.496 2576
1.020 5.092 1.522 3961
1.048 5.235 1.562 2217
1.008 5.036 1.491 4932
1.044 5.216 1.540 2508
1.011 5.048 1.478 3589
1.051 5.250 1.533 2945
1.050 5.247 1.515 4006
1.079 5.390 1.553 1543
1.051 5.251 1.500 3669
1.080 5.394 1.537 1367
1.061 5.300 1.496 4502
1.109 5.541 1.558 2323
1.078 5.387 1.501 6712
1.110 5.545 1.542 3095
1.079 5.390 1.486 4991
1.126 5.624 1.545 3278
1.128 5.636 1.530 4960
1.100 5.492 1.494 3939
1.128 5.632 1.511 3836
1.099 5.489 1.476 2885
1.124 5.613 1.489 2682
1.095 5.470 1.454 1842
1.143 5.708 1.494 2665
1.171 5.851 1.529 2616
1.171 5.848 1.510 3989
1.137 5.681 1.470 2574
1.172 5.852 1.493 4092
1.135 5.670 1.450 3180
1.201 5.999 1.508 3865
1.172 5.855 1.475 3266
1.202 6.003 1.491 3685
1.173 5.859 1.458 2714
1.198 5.984 1.468 2678
1.230 6.144 1.504 1523
1.202 6.003 1.454 2463
1.231 6.147 1.485 2093
1.230 6.144 1.466 2453
1.201 5.999 1.434 1819
1.235 6.170 1.452 1894
1.299 6.489 1.521 1187
1.291 6.448 1.492 1768
1.320 6.592 1.523 1080
1.293 6.459 1.475 2403
1.264 6.315 1.444 1152
1.294 6.463 1.456 2182
1.293 6.459 1.435 2112
1.354 6.764 1.497 1270
1.291 6.447 1.413 2480
1.376 6.874 1.498 1624
1.380 6.893 1.480 2814
1.293 6.459 1.395 2537
1.384 6.912 1.463 2514
1.344 6.714 1.425 1595
1.389 6.939 1.447 1922
1.360 6.794 1.419 1570
1.411 7.049 1.446 2897
1.451 7.248 1.484 2074
1.450 7.244 1.461 3267
1.418 7.084 1.431 2725
1.450 7.240 1.438 3086
1.420 7.095 1.412 1778
1.499 7.489 1.460 1875
1.470 7.343 1.434 1757
1.532 7.653 1.466 2621
1.474 7.362 1.415 1694
1.533 7.657 1.443 2943
1.579 7.887 1.483 1331
1.534 7.661 1.421 2115
1.570 7.844 1.452 1406
1.536 7.672 1.399 1712
1.605 8.017 1.456 1627
1.644 8.212 1.464 1555
1.538 7.683 1.378 1450
1.672 8.354 1.461 1576
1.643 8.208 1.438 1512
1.702 8.503 1.459 1988
1.643 8.204 1.413 1942
1.746 8.722 1.467 2175
1.642 8.200 1.387 2034
1.748 8.734 1.443 2725
1.702 8.503 1.408 1669
1.752 8.753 1.419 2175
1.705 8.514 1.384 1811
1.739 8.687 1.383 1601
1.705 8.518 1.359 1392
1.817 9.075 1.412 1678
1.857 9.275 1.440 1385
