-0.741 3.359 1.629 9968
-0.771 3.494 1.690 2364
-0.740 3.356 1.616 6786
-0.770 3.491 1.677 3950
-0.774 3.509 1.673 8480
-0.744 3.375 1.613 4920
-0.775 3.514 1.662 11684
-0.745 3.379 1.603 4450
-0.771 3.497 1.643 12385
-0.801 3.632 1.702 2016
-0.774 3.508 1.635 9670
-0.744 3.373 1.577 1913
-0.780 3.534 1.634 8399
-0.750 3.398 1.576 1930
-0.779 3.531 1.621 8423
-0.809 3.667 1.679 2170
-0.780 3.535 1.610 5206
-0.810 3.671 1.668 3254
-0.798 3.618 1.633 8948
-0.828 3.754 1.690 1202
-0.798 3.615 1.619 13170
-0.828 3.751 1.676 1769
-0.802 3.634 1.615 15616
-0.832 3.770 1.671 2087
-0.806 3.652 1.610 16219
-0.836 3.789 1.666 1665
-0.808 3.664 1.602 10617
-0.838 3.800 1.657 1845
-0.812 3.682 1.597 6756
-0.842 3.819 1.652 3042
-0.813 3.686 1.586 5166
-0.845 3.830 1.643 4459
-0.848 3.842 1.635 4285
-0.813 3.683 1.572 3981
-0.852 3.861 1.629 5312
-0.815 3.694 1.564 3805
-0.851 3.858 1.615 5313
-0.821 3.720 1.562 3106
-0.838 3.797 1.579 4250
-0.868 3.934 1.632 3313
-0.840 3.808 1.570 3598
-0.870 3.946 1.623 2694
-0.841 3.812 1.559 3152
-0.871 3.950 1.611 1973
-0.861 3.903 1.580 3819
-0.892 4.041 1.632 1413
-0.865 3.922 1.574 4666
-0.896 4.060 1.626 2730
-0.873 3.955 1.573 5380
-0.903 4.093 1.624 3088
-0.898 4.068 1.602 6083
-0.867 3.930 1.551 3369
-0.900 4.080 1.592 8067
-0.869 3.941 1.542 1978
-0.899 4.077 1.578 8586
-0.930 4.215 1.627 1438
-0.897 4.066 1.560 6897
-0.928 4.205 1.610 2808
-0.901 4.085 1.554 6712
-0.932 4.224 1.602 3261
-0.907 4.111 1.549 5767
-0.938 4.250 1.597 1562
-0.927 4.203 1.567 3855
-0.896 4.063 1.519 1223
-0.928 4.207 1.555 3346
-0.897 4.067 1.507 1280
-0.927 4.203 1.540 4963
-0.935 4.237 1.537 7152
-0.904 4.097 1.491 1008
-0.936 4.241 1.525 5506
-0.932 4.223 1.505 5160
-0.962 4.362 1.551 2926
-0.937 4.249 1.500 7197
-0.968 4.389 1.545 1757
-0.933 4.230 1.480 6687
-0.964 4.370 1.525 1781
-0.934 4.234 1.468 4088
-0.970 4.397 1.519 2082
-0.974 4.415 1.511 2677
-0.943 4.275 1.467 1624
-0.978 4.434 1.502 3504
-0.937 4.249 1.445 1450
-0.981 4.445 1.492 2582
-0.937 4.245 1.430 1478
-0.988 4.479 1.488 2648
-1.080 4.894 1.614 1241
-0.977 4.431 1.459 3383
-1.090 4.942 1.613 1077
-0.983 4.457 1.452 2463
-1.078 4.887 1.581 1040
-0.992 4.497 1.450 1791
-1.079 4.891 1.566 1509
-1.059 4.799 1.524 1259
-1.098 4.977 1.576 1087
-1.049 4.754 1.450 1080
-1.050 4.758 1.436 1076
-1.052 4.769 1.424 1274
-1.053 4.773 1.410 1235
-1.054 4.776 1.396 1036
-1.056 4.788 1.384 2233
-1.117 5.065 1.456 1850
-1.118 5.068 1.441 2921
-1.059 4.799 1.371 2135
-1.121 5.079 1.428 2320
-1.255 5.687 1.584 1139
-1.126 5.106 1.419 2000
-1.259 5.706 1.571 1802
-1.261 5.718 1.556 3300
-1.130 5.124 1.408 2062
-1.264 5.729 1.541 4323
-1.131 5.128 1.393 1626
-1.266 5.741 1.526 4134
-1.298 5.883 1.561 2235
-1.267 5.745 1.509 3228
-1.299 5.888 1.543 2295
-1.270 5.756 1.494 2540
-1.301 5.899 1.528 2311
-1.299 5.888 1.507 2475
-1.341 6.076 1.551 2114
-1.350 6.118 1.542 2348
-1.300 5.892 1.489 1936
-1.356 6.145 1.529 3058
-1.324 6.001 1.496 2102
-1.331 6.035 1.485 3288
-1.363 6.179 1.517 2474
-1.377 6.243 1.512 2840
-1.331 6.032 1.465 2523
-1.376 6.239 1.492 4265
-1.331 6.035 1.447 1625
-1.374 6.228 1.470 3422
-1.451 6.576 1.545 2239
-1.450 6.573 1.524 2874
-1.407 6.376 1.482 2082
-1.451 6.576 1.505 3201
-1.407 6.380 1.464 1926
-1.453 6.588 1.487 2405
-1.413 6.406 1.449 1446
-1.459 6.614 1.472 3077
-1.491 6.759 1.501 1745
-1.458 6.611 1.451 4079
-1.490 6.755 1.480 2322
-1.458 6.607 1.430 3831
-1.509 6.842 1.476 2289
-1.460 6.618 1.412 2510
-1.537 6.967 1.479 2197
-1.543 6.994 1.463 3822
-1.489 6.751 1.417 1472
-1.544 6.998 1.442 3785
-1.619 7.340 1.506 1766
-1.618 7.336 1.483 1961
-1.543 6.994 1.420 1887
-1.624 7.363 1.466 2327
-1.587 7.195 1.435 1933
-1.630 7.389 1.448 2967
-1.676 7.595 1.484 1799
-1.631 7.393 1.426 2761
-1.675 7.591 1.461 2102
-1.632 7.397 1.404 2463
-1.674 7.587 1.437 1806
-1.720 7.797 1.449 1989
-1.786 8.094 1.499 1768
-1.721 7.801 1.426 2082
-1.787 8.098 1.475 2054
-1.789 8.110 1.452 1818
-1.720 7.797 1.401 1747
-1.755 7.953 1.403 1509
-1.795 8.136 1.432 1430
-1.754 7.949 1.378 1245
-1.796 8.140 1.408 1195
-1.921 8.709 1.471 1341
-1.754 7.952 1.354 1149
-1.926 8.728 1.447 1796
-1.928 8.740 1.422 2502
-1.926 8.728 1.394 2528
-1.873 8.491 1.360 1030
-1.925 8.724 1.367 1568
-1.874 8.494 1.335 1392
-1.873 8.490 1.308 1175
-1.932 8.758 1.345 1009
-1.936 8.777 1.322 1443
-1.935 8.772 1.294 1369
-1.931 8.753 1.265 1039
-1.642 7.441 0.961 1220
-1.709 7.748 0.995 1045
-1.642 7.443 0.939 1412
-1.712 7.758 0.973 1141
-1.641 7.438 0.916 1553
-1.641 7.440 0.894 2062
-1.644 7.450 0.873 3284
-1.644 7.452 0.851 3990
-1.644 7.454 0.828 4035
-1.643 7.448 0.806 3474
-1.644 7.450 0.784 2735
-1.644 7.452 0.761 2355
-1.646 7.461 0.740 1896
-1.646 7.463 0.718 1575
-1.647 7.465 0.696 1221
-0.475 2.180 1.699 5367
-0.476 2.184 1.692 10734
-0.502 2.304 1.780 1618
-0.477 2.189 1.686 10734
-0.503 2.308 1.773 1618
-0.479 2.199 1.684 9591
-0.506 2.319 1.771 1572
-0.486 2.229 1.696 9348
-0.460 2.109 1.610 1094
-0.488 2.240 1.694 8538
-0.462 2.119 1.608 1021
-0.491 2.251 1.692 8073
-0.491 2.255 1.685 8073
-0.502 2.304 1.710 6326
-0.476 2.183 1.625 2052
-0.505 2.315 1.708 7989
-0.478 2.193 1.623 2453
-0.507 2.326 1.705 7722
-0.480 2.204 1.621 2065
-0.508 2.330 1.699 7498
-0.481 2.208 1.615 1249
-0.510 2.341 1.696 8325
-0.484 2.219 1.613 1177
-0.511 2.346 1.689 9256
-0.538 2.468 1.772 1547
-0.514 2.357 1.687 9935
-0.540 2.479 1.770 1346
-0.516 2.367 1.684 10776
-0.543 2.490 1.767 2105
-0.516 2.365 1.673 10710
-0.542 2.489 1.755 3187
-0.515 2.363 1.662 9790
-0.542 2.487 1.743 3210
-0.516 2.368 1.655 8935
-0.543 2.491 1.736 3043
-0.517 2.372 1.648 6932
-0.544 2.496 1.729 3226
-0.519 2.383 1.645 5018
-0.548 2.513 1.730 3412
-0.550 2.524 1.727 4665
-0.520 2.387 1.638 3529
-0.553 2.536 1.724 6006
-0.517 2.372 1.619 2109
-0.554 2.540 1.716 8322
-0.581 2.665 1.796 1770
-0.555 2.545 1.709 10638
-0.582 2.670 1.788 2613
-0.553 2.536 1.693 9206
-0.580 2.661 1.772 3585
-0.554 2.540 1.686 8429
-0.584 2.679 1.772 4116
-0.569 2.611 1.719 7739
-0.542 2.485 1.641 1312
-0.570 2.615 1.712 8687
-0.598 2.741 1.789 1389
-0.571 2.620 1.704 7218
-0.599 2.746 1.781 1344
-0.573 2.631 1.700 5826
-0.601 2.757 1.777 1219
-0.574 2.635 1.693 4269
-0.602 2.762 1.769 1513
-0.593 2.720 1.733 2918
-0.565 2.593 1.657 1174
-0.595 2.731 1.729 4270
-0.568 2.604 1.653 1417
-0.598 2.742 1.725 5751
-0.570 2.615 1.650 1306
-0.597 2.740 1.713 4872
-0.625 2.868 1.787 1600
-0.594 2.725 1.693 4242
-0.622 2.852 1.767 2212
-0.595 2.729 1.685 4408
-0.627 2.877 1.771 2378
-0.597 2.740 1.681 5175
-0.627 2.875 1.758 3884
-0.600 2.751 1.677 6360
-0.628 2.880 1.750 5092
-0.604 2.769 1.676 5855
-0.632 2.898 1.749 4712
-0.610 2.801 1.683 6284
-0.639 2.929 1.756 2323
-0.629 2.887 1.721 5913
-0.601 2.758 1.649 3316
-0.633 2.905 1.720 6357
-0.605 2.775 1.648 2934
-0.634 2.909 1.711 6704
-0.606 2.780 1.640 2444
-0.635 2.914 1.703 5941
-0.607 2.784 1.632 1696
-0.639 2.932 1.702 5302
-0.611 2.802 1.631 1144
-0.643 2.950 1.700 5073
-0.615 2.820 1.630 1295
-0.650 2.982 1.706 6872
-0.622 2.851 1.637 1133
-0.651 2.986 1.698 8169
-0.682 3.130 1.774 1408
-0.652 2.991 1.689 9462
-0.680 3.121 1.758 2466
-0.654 3.002 1.684 9748
-0.683 3.133 1.752 3851
-0.673 3.089 1.718 9539
-0.645 2.958 1.650 2761
-0.680 3.121 1.723 8342
-0.652 2.990 1.655 5267
-0.687 3.153 1.728 9250
-0.659 3.022 1.661 4528
-0.688 3.158 1.719 9274
-0.660 3.026 1.652 4474
-0.689 3.162 1.710 10215
-0.661 3.031 1.643 3633
-0.690 3.167 1.700 9182
-0.661 3.035 1.634 2226
-0.685 3.143 1.677 7848
-0.656 3.011 1.611 1093
-0.700 3.210 1.699 6922
-0.671 3.078 1.633 2151
-0.701 3.215 1.689 8280
-0.700 3.212 1.677 9640
-0.703 3.224 1.671 9781
-0.732 3.357 1.735 1004
-0.708 3.249 1.671 15672
-0.679 3.116 1.607 1279
-0.711 3.260 1.665 18497
-0.740 3.394 1.728 1388
-0.716 3.286 1.665 18099
-0.745 3.419 1.728 1031
-0.717 3.290 1.656 15137
-0.746 3.424 1.718 1384
-0.720 3.302 1.649 10468
-0.749 3.435 1.711 1577
-0.728 3.341 1.656 12699
-0.729 3.345 1.646 15003
-0.730 3.350 1.636 14044
-0.759 3.484 1.697 2022
-0.733 3.361 1.629 11621
-0.762 3.496 1.690 3486
-0.732 3.358 1.616 8851
-0.764 3.507 1.683 4889
-0.767 3.518 1.676 8998
-0.734 3.369 1.610 5906
-0.769 3.530 1.669 11823
-0.740 3.395 1.609 5039
-0.764 3.506 1.646 11777
-0.735 3.371 1.587 3073
-0.767 3.517 1.639 9682
-0.737 3.382 1.580 2830
-0.771 3.536 1.634 9376
-0.741 3.400 1.576 2092
-0.770 3.533 1.621 10107
-0.800 3.669 1.679 2685
-0.787 3.609 1.641 8298
-0.757 3.473 1.583 1878
-0.787 3.613 1.630 11676
-0.758 3.477 1.573 1120
-0.790 3.624 1.622 13893
-0.820 3.760 1.679 1088
-0.792 3.636 1.615 16264
-0.822 3.772 1.671 1470
-0.796 3.654 1.610 17319
-0.826 3.791 1.666 1535
-0.799 3.666 1.602 11355
-0.829 3.802 1.657 1809
-0.803 3.684 1.597 7032
-0.833 3.821 1.652 2175
-0.805 3.696 1.589 5029
-0.837 3.840 1.646 3768
-0.839 3.851 1.638 4400
-0.803 3.685 1.572 3838
-0.842 3.863 1.629 5613
-0.806 3.697 1.564 3861
-0.843 3.867 1.618 5727
-0.813 3.730 1.565 3265
-0.853 3.915 1.623 5788
-0.823 3.777 1.570 2196
-0.854 3.919 1.612 6404
-0.824 3.781 1.559 1773
-0.853 3.916 1.597 5332
-0.823 3.778 1.545 1700
-0.853 3.913 1.583 5102
-0.883 4.051 1.635 1189
-0.855 3.924 1.574 5947
-0.885 4.062 1.626 1948
-0.859 3.943 1.568 5070
-0.889 4.081 1.619 2969
-0.876 4.020 1.583 5459
-0.888 4.075 1.590 6066
-0.858 3.936 1.540 1057
-0.889 4.079 1.578 7075
-0.885 4.061 1.558 6435
-0.915 4.200 1.607 1870
-0.886 4.065 1.546 6348
-0.916 4.204 1.595 3075
-0.896 4.113 1.549 5452
-0.927 4.252 1.597 1124
-0.915 4.198 1.565 4901
-0.885 4.058 1.517 1438
-0.917 4.209 1.555 3693
-0.887 4.070 1.507 1363
-0.915 4.198 1.537 5149
-0.908 4.166 1.513 7090
-0.938 4.305 1.559 1742
-0.912 4.184 1.505 6644
-0.942 4.324 1.552 2004
-0.918 4.210 1.500 7346
-0.948 4.350 1.546 2598
-0.920 4.221 1.490 6965
-0.951 4.362 1.536 2289
-0.921 4.225 1.478 5429
-0.952 4.365 1.523 1833
-0.922 4.229 1.465 3162
-0.957 4.392 1.517 2071
-0.964 4.425 1.513 2772
-0.934 4.285 1.469 1228
-0.965 4.429 1.500 3610
-0.925 4.244 1.443 1164
-0.965 4.425 1.485 2788
-0.927 4.255 1.432 1147
-0.959 4.400 1.463 3776
-0.990 4.540 1.506 1070
-0.963 4.418 1.454 4635
-0.994 4.559 1.497 1005
-0.972 4.459 1.452 2989
-0.979 4.492 1.448 2816
-0.948 4.351 1.406 1326
-0.977 4.481 1.430 1681
-1.046 4.801 1.524 1092
-1.036 4.753 1.464 1194
-1.035 4.750 1.448 1257
-1.038 4.761 1.436 1067
-1.038 4.764 1.422 1260
-1.038 4.761 1.406 1362
-1.038 4.764 1.392 1287
-1.042 4.783 1.382 2011
-1.104 5.067 1.456 1218
-1.105 5.071 1.441 2040
-1.045 4.794 1.369 1725
-1.109 5.090 1.430 1470
-1.150 5.277 1.478 1396
-1.118 5.131 1.425 1902
-1.151 5.281 1.463 1674
-1.247 5.721 1.556 2686
-1.118 5.127 1.408 2342
-1.249 5.732 1.541 3898
-1.118 5.131 1.393 1784
-1.254 5.751 1.528 3421
-1.285 5.894 1.563 1623
-1.254 5.755 1.511 2170
-1.286 5.898 1.545 1860
-1.257 5.767 1.495 2166
-1.288 5.910 1.529 1786
-1.256 5.763 1.477 2216
-1.287 5.906 1.510 1928
-1.287 5.903 1.491 2174
-1.255 5.759 1.458 1638
-1.314 6.027 1.501 2769
-1.355 6.216 1.544 2044
-1.316 6.039 1.485 4068
-1.349 6.190 1.519 2131
-1.315 6.035 1.465 3425
-1.362 6.247 1.512 2392
-1.361 6.243 1.492 3497
-1.316 6.039 1.447 2226
-1.360 6.239 1.472 2660
-1.434 6.580 1.545 2037
-1.433 6.576 1.524 2459
-1.392 6.387 1.484 2231
-1.433 6.573 1.503 2809
-1.393 6.391 1.465 2071
-1.435 6.584 1.485 2138
-1.397 6.410 1.449 1507
-1.442 6.618 1.472 2837
-1.474 6.762 1.501 1530
-1.442 6.614 1.451 4075
-1.473 6.759 1.480 1723
-1.442 6.618 1.431 3642
-1.509 6.922 1.491 2662
-1.511 6.933 1.472 2678
-1.445 6.629 1.413 2131
-1.525 6.998 1.463 3487
-1.472 6.755 1.417 1562
-1.526 7.002 1.442 3471
-1.601 7.344 1.506 1883
-1.603 7.355 1.486 2167
-1.525 6.998 1.420 1755
-1.606 7.367 1.466 2905
-1.569 7.199 1.435 1982
-1.608 7.378 1.445 3370
-1.656 7.599 1.484 1972
-1.612 7.397 1.426 2779
-1.656 7.595 1.461 2386
-1.611 7.393 1.403 2190
-1.655 7.592 1.437 2095
-1.700 7.801 1.449 1688
-1.764 8.091 1.498 1565
-1.628 7.469 1.370 1929
-1.764 8.095 1.474 1883
-1.627 7.465 1.347 1704
-1.765 8.099 1.450 1597
-1.691 7.759 1.371 1322
-1.731 7.942 1.400 1158
-1.814 8.320 1.435 1179
-1.729 7.930 1.374 1132
-1.821 8.355 1.415 1448
-1.901 8.722 1.472 1287
-1.905 8.741 1.448 1665
-1.825 8.374 1.393 1328
-1.908 8.752 1.423 2236
-1.781 8.170 1.338 1186
-1.902 8.725 1.393 2361
-1.903 8.729 1.367 1802
-1.852 8.499 1.335 1304
-1.913 8.778 1.348 1474
-1.781 8.173 1.264 1220
-1.916 8.789 1.323 1972
-1.784 8.183 1.240 1243
-1.918 8.800 1.297 1774
-1.694 7.772 1.161 1201
-1.690 7.752 1.135 1450
-1.920 8.811 1.272 1394
-1.689 7.747 1.111 1934
-1.732 7.947 1.136 1303
-1.688 7.742 1.087 2169
-1.736 7.965 1.115 1186
-1.686 7.737 1.063 1531
-1.685 7.732 1.040 1415
-1.654 7.586 1.022 1067
-1.689 7.750 1.018 1914
-1.654 7.589 1.000 1158
-1.691 7.760 0.996 2222
-1.692 7.763 0.973 1936
-1.653 7.586 0.954 1083
-1.692 7.765 0.950 1581
-1.651 7.573 0.930 1449
-1.651 7.575 0.907 1857
-1.695 7.775 0.928 1706
-1.625 7.454 0.873 2915
-1.693 7.770 0.904 1591
-1.625 7.456 0.851 3586
-1.692 7.764 0.880 1348
-1.626 7.458 0.828 3561
-1.694 7.774 0.858 1344
-1.626 7.460 0.806 2920
-1.693 7.768 0.834 1013
-1.625 7.454 0.784 1844
-1.627 7.464 0.762 1117
-1.629 7.473 0.741 1092
-1.628 7.467 0.718 1288
-1.628 7.469 0.696 1345
-1.628 7.470 0.673 1197
-0.469 2.181 1.699 5277
-0.470 2.185 1.692 10554
-0.496 2.305 1.780 1772
-0.471 2.190 1.686 10554
-0.497 2.310 1.773 1772
-0.473 2.201 1.684 9463
-0.499 2.321 1.771 1688
-0.477 2.218 1.687 8807
-0.481 2.235 1.690 7653
-0.483 2.246 1.687 6896
-0.509 2.367 1.773 1026
-0.484 2.250 1.681 6896
-0.510 2.371 1.766 1026
-0.498 2.318 1.719 6768
-0.472 2.197 1.634 2658
-0.499 2.323 1.712 8629
-0.473 2.201 1.628 2640
-0.500 2.327 1.705 7936
-0.474 2.205 1.621 1890
-0.503 2.338 1.703 7258
-0.476 2.216 1.619 1553
-0.504 2.343 1.696 8292
-0.530 2.465 1.780 1221
-0.506 2.354 1.694 9448
-0.532 2.476 1.777 1427
-0.507 2.358 1.687 10334
-0.533 2.481 1.770 1427
-0.509 2.369 1.684 11288
-0.536 2.492 1.767 2072
-0.509 2.367 1.673 11254
-0.535 2.490 1.755 3029
-0.508 2.365 1.662 10433
-0.535 2.488 1.743 3026
-0.509 2.369 1.655 9645
-0.536 2.493 1.736 2813
-0.512 2.380 1.652 7356
-0.538 2.504 1.733 2726
-0.514 2.391 1.650 5194
-0.542 2.521 1.734 3070
-0.543 2.526 1.727 4451
-0.515 2.395 1.643 3524
-0.546 2.537 1.724 5846
-0.516 2.399 1.636 1854
-0.547 2.542 1.716 7847
-0.518 2.410 1.633 1739
-0.547 2.546 1.709 9847
-0.574 2.671 1.788 2511
-0.547 2.544 1.697 8833
-0.574 2.669 1.776 3628
-0.547 2.542 1.686 8288
-0.575 2.674 1.768 4385
-0.563 2.619 1.723 7612
-0.536 2.493 1.646 1576
-0.563 2.617 1.712 8827
-0.590 2.743 1.789 1273
-0.564 2.621 1.704 7147
-0.591 2.748 1.781 1177
-0.566 2.633 1.700 5498
-0.567 2.637 1.693 4486
-0.594 2.764 1.769 1465
-0.569 2.648 1.689 3516
-0.597 2.775 1.765 1649
-0.591 2.746 1.737 4462
-0.563 2.619 1.661 2602
-0.591 2.751 1.729 5891
-0.564 2.623 1.654 1878
-0.595 2.769 1.728 5061
-0.568 2.641 1.654 1942
-0.602 2.800 1.736 5227
-0.575 2.672 1.662 1658
-0.602 2.798 1.724 5015
-0.592 2.755 1.689 5139
-0.620 2.884 1.762 3814
-0.593 2.760 1.681 6323
-0.621 2.888 1.754 4908
-0.597 2.778 1.680 6297
-0.625 2.906 1.753 4119
-0.603 2.802 1.683 7029
-0.630 2.931 1.756 2185
-0.604 2.807 1.675 6150
-0.631 2.936 1.747 3001
-0.625 2.906 1.720 5927
-0.597 2.777 1.648 2595
-0.626 2.911 1.711 6521
-0.598 2.781 1.640 2111
-0.627 2.915 1.703 6173
-0.599 2.786 1.632 1496
-0.629 2.927 1.698 5867
-0.657 3.057 1.768 1248
-0.633 2.945 1.697 5848
-0.640 2.977 1.703 7261
-0.671 3.121 1.780 1352
-0.642 2.988 1.698 8577
-0.672 3.125 1.771 1995
-0.643 2.992 1.689 9052
-0.672 3.123 1.758 3128
-0.647 3.011 1.687 8444
-0.676 3.141 1.756 3738
-0.666 3.098 1.722 9813
-0.638 2.967 1.653 2502
-0.672 3.123 1.723 8968
-0.643 2.992 1.655 4220
-0.678 3.155 1.728 10026
-0.650 3.024 1.661 4393
-0.678 3.153 1.715 10427
-0.650 3.021 1.648 4444
-0.679 3.157 1.706 11099
-0.651 3.025 1.639 3321
-0.680 3.162 1.697 9223
-0.651 3.030 1.631 1567
-0.676 3.145 1.677 7853
-0.705 3.278 1.743 1118
-0.692 3.219 1.702 6409
-0.664 3.087 1.637 2568
-0.692 3.217 1.689 8780
-0.663 3.084 1.624 1115
-0.691 3.214 1.677 10047
-0.720 3.347 1.741 1113
-0.695 3.233 1.674 9151
-0.667 3.100 1.610 1017
-0.701 3.258 1.674 15781
-0.672 3.125 1.611 1291
-0.703 3.269 1.668 20220
-0.732 3.403 1.732 1139
-0.708 3.295 1.669 21339
-0.737 3.428 1.732 1021
-0.708 3.292 1.656 18225
-0.737 3.426 1.718 1470
-0.710 3.304 1.649 12901
-0.739 3.437 1.711 1280
-0.719 3.343 1.656 13316
-0.721 3.354 1.649 14962
-0.722 3.359 1.639 14352
-0.751 3.493 1.700 2351
-0.725 3.370 1.633 12648
-0.754 3.505 1.693 3968
-0.724 3.367 1.620 9942
-0.756 3.516 1.686 5560
-0.759 3.528 1.679 9043
-0.725 3.372 1.610 6364
-0.760 3.532 1.669 11384
-0.730 3.397 1.609 4780
-0.754 3.508 1.646 10783
-0.725 3.373 1.587 3300
-0.764 3.555 1.654 9472
-0.735 3.420 1.595 5988
-0.761 3.538 1.634 9861
-0.732 3.402 1.576 2231
-0.759 3.528 1.618 11176
-0.788 3.664 1.676 3705
-0.776 3.611 1.641 12173
-0.747 3.475 1.583 2440
-0.777 3.615 1.630 14219
-0.748 3.479 1.573 1403
-0.778 3.619 1.619 14569
-0.749 3.483 1.563 1100
-0.782 3.638 1.615 16272
-0.812 3.774 1.671 1142
-0.786 3.656 1.610 17429
-0.816 3.793 1.666 1469
-0.790 3.675 1.605 11625
-0.820 3.812 1.660 1308
-0.794 3.694 1.600 7238
-0.831 3.867 1.669 1539
-0.795 3.698 1.589 4805
-0.829 3.856 1.652 3533
-0.830 3.861 1.641 4472
-0.793 3.687 1.572 3728
-0.831 3.865 1.629 5511
-0.795 3.699 1.564 4037
-0.834 3.877 1.621 6014
-0.802 3.732 1.565 3446
-0.841 3.910 1.621 7503
-0.810 3.765 1.565 1935
-0.842 3.914 1.609 9019
-0.812 3.776 1.556 1596
-0.843 3.918 1.597 7489
-0.813 3.780 1.545 1934
-0.843 3.922 1.586 6451
-0.814 3.784 1.534 1612
-0.844 3.926 1.574 7301
-0.874 4.065 1.626 1354
-0.845 3.930 1.563 5829
-0.875 4.069 1.614 2596
-0.863 4.015 1.580 5994
-0.833 3.876 1.530 1183
-0.864 4.019 1.569 5252
-0.878 4.081 1.578 5526
-0.848 3.942 1.528 1264
-0.872 4.056 1.555 6090
-0.902 4.195 1.604 1546
-0.871 4.053 1.541 6730
-0.901 4.192 1.589 3078
-0.890 4.137 1.557 5355
-0.860 3.998 1.508 2296
-0.902 4.193 1.562 5283
-0.872 4.053 1.514 1852
-0.896 4.168 1.540 4101
-0.897 4.171 1.528 6148
-0.898 4.175 1.515 7972
-0.933 4.337 1.569 1221
-0.900 4.187 1.505 7651
-0.930 4.327 1.552 1574
-0.906 4.213 1.500 8772
-0.936 4.353 1.546 2037
-0.907 4.217 1.488 7359
-0.937 4.357 1.533 1979
-0.906 4.213 1.473 4218
-0.936 4.353 1.518 2001
-0.945 4.394 1.517 2395
-0.905 4.209 1.458 2342
-0.950 4.420 1.511 2932
-0.904 4.206 1.444 1520
-0.951 4.424 1.498 4131
-0.908 4.224 1.436 1256
-0.951 4.421 1.483 3966
-0.947 4.402 1.463 5668
-0.949 4.413 1.452 6256
-0.979 4.554 1.494 1005
-0.948 4.410 1.437 4334
-0.979 4.551 1.479 1058
-0.947 4.406 1.422 3419
-0.950 4.417 1.411 2570
-0.951 4.421 1.398 1983
-0.950 4.417 1.382 1290
-1.021 4.749 1.462 1278
-1.020 4.745 1.446 1325
-1.025 4.767 1.422 1040
-1.023 4.756 1.404 1364
-1.025 4.767 1.392 1275
-1.029 4.786 1.382 1586
-1.134 5.273 1.510 1315
-1.030 4.789 1.367 1396
-1.135 5.277 1.494 1370
-1.135 5.281 1.478 1960
-1.136 5.284 1.463 2383
-1.106 5.142 1.427 1729
-1.105 5.138 1.410 1996
-1.137 5.288 1.447 1760
-1.235 5.743 1.543 2811
-1.106 5.141 1.394 1464
-1.237 5.755 1.528 2914
-1.268 5.898 1.563 1208
-1.235 5.744 1.507 1942
-1.269 5.902 1.545 1661
-1.238 5.755 1.492 2134
-1.270 5.906 1.528 1586
-1.238 5.759 1.475 2604
-1.269 5.902 1.508 1652
-1.272 5.914 1.493 2245
-1.239 5.763 1.458 1834
-1.298 6.038 1.503 2899
-1.333 6.197 1.539 2140
-1.299 6.042 1.485 4394
-1.332 6.193 1.519 2041
-1.298 6.039 1.465 3931
-1.339 6.228 1.507 1940
-1.299 6.042 1.447 2716
-1.340 6.232 1.489 2341
-1.342 6.243 1.472 1925
-1.302 6.054 1.431 1614
-1.374 6.391 1.484 2325
-1.412 6.565 1.521 1837
-1.413 6.569 1.502 2507
-1.377 6.402 1.467 2205
-1.412 6.565 1.481 2290
-1.443 6.709 1.510 1817
-1.422 6.615 1.470 2686
-1.453 6.759 1.500 1535
-1.423 6.618 1.451 3794
-1.487 6.915 1.510 1924
-1.424 6.622 1.431 3134
-1.489 6.926 1.491 2874
-1.490 6.930 1.470 2825
-1.438 6.687 1.423 1843
-1.507 7.010 1.464 2775
-1.448 6.736 1.412 1350
-1.513 7.036 1.448 2945
-1.580 7.348 1.506 1905
-1.586 7.375 1.489 2247
-1.519 7.063 1.431 1894
-1.587 7.379 1.467 3139
-1.551 7.211 1.437 1990
-1.588 7.383 1.445 3612
-1.551 7.215 1.415 1881
-1.590 7.394 1.424 2689
-1.634 7.600 1.461 2239
-1.635 7.604 1.438 2102
-1.591 7.398 1.403 1821
-1.634 7.600 1.414 1544
-1.677 7.798 1.448 1489
-1.607 7.474 1.370 2602
-1.742 8.100 1.474 1536
-1.608 7.477 1.348 2353
-1.672 7.775 1.396 1480
-1.661 7.725 1.365 1367
-1.714 7.970 1.404 1263
-1.795 8.348 1.439 1596
-1.662 7.729 1.342 1329
-1.798 8.360 1.415 2020
-1.691 7.862 1.339 1227
-1.800 8.371 1.392 1715
-1.889 8.784 1.454 1630
-1.890 8.788 1.428 2404
-1.806 8.397 1.370 1110
-1.884 8.761 1.397 2145
-1.881 8.749 1.369 1588
-1.759 8.182 1.289 1374
-1.755 8.162 1.262 1552
-1.885 8.768 1.345 1462
-1.893 8.802 1.324 2009
-1.761 8.188 1.240 1294
-1.893 8.806 1.297 2168
-1.717 7.984 1.189 1238
-1.716 7.980 1.164 1830
-1.894 8.809 1.271 1764
-1.716 7.982 1.140 1547
-1.756 8.167 1.164 1546
-1.717 7.985 1.117 1248
-1.663 7.732 1.085 1054
-1.665 7.742 1.063 1331
-1.628 7.573 1.043 1157
-1.631 7.583 1.022 2433
-1.675 7.791 1.046 1346
-1.629 7.578 0.998 3489
-1.668 7.755 1.018 1330
-1.628 7.573 0.975 3623
-1.666 7.750 0.994 1632
-1.629 7.575 0.952 3253
-1.665 7.744 0.971 1514
-1.631 7.585 0.931 3082
-1.600 7.439 0.915 1727
-1.631 7.587 0.908 2691
-1.600 7.441 0.893 2118
-1.602 7.451 0.872 1798
-1.634 7.597 0.886 1695
-1.601 7.445 0.849 1672
-1.632 7.592 0.863 1301
-1.603 7.455 0.828 1928
-1.634 7.601 0.841 1245
-1.603 7.457 0.806 1769
-1.635 7.603 0.819 1301
-1.604 7.459 0.784 1390
-1.635 7.605 0.796 1244
-0.459 2.176 1.694 5120
-0.484 2.296 1.782 1047
-0.460 2.181 1.688 10240
-0.485 2.301 1.775 2095
-0.461 2.185 1.682 10240
-0.486 2.305 1.768 2095
-0.463 2.196 1.680 9262
-0.489 2.316 1.766 2128
-0.467 2.213 1.682 8491
-0.492 2.334 1.769 1431
-0.468 2.218 1.676 7430
-0.493 2.338 1.762 2753
-0.470 2.228 1.674 6406
-0.496 2.349 1.760 3294
-0.474 2.245 1.676 6339
-0.499 2.367 1.762 2010
-0.491 2.327 1.723 7621
-0.465 2.205 1.639 2995
-0.490 2.325 1.712 9227
-0.465 2.203 1.628 2403
-0.493 2.336 1.710 8032
-0.467 2.214 1.626 2124
-0.494 2.340 1.703 6888
-0.468 2.218 1.619 1418
-0.496 2.351 1.701 8072
-0.470 2.228 1.617 1204
-0.497 2.355 1.694 9361
-0.523 2.478 1.777 1487
-0.498 2.360 1.687 10606
-0.524 2.483 1.770 1487
-0.500 2.371 1.684 11870
-0.526 2.494 1.767 2031
-0.500 2.369 1.673 11861
-0.526 2.492 1.755 2870
-0.501 2.373 1.666 11075
-0.527 2.497 1.748 2443
-0.502 2.377 1.659 10280
-0.528 2.501 1.740 2235
-0.502 2.382 1.652 7748
-0.529 2.506 1.733 2498
-0.505 2.393 1.650 5356
-0.531 2.517 1.730 2847
-0.533 2.528 1.727 4176
-0.506 2.397 1.643 3520
-0.534 2.533 1.719 5516
-0.507 2.401 1.636 1683
-0.537 2.544 1.716 7138
-0.510 2.419 1.637 1682
-0.538 2.548 1.709 8811
-0.564 2.674 1.788 2358
-0.537 2.546 1.697 8166
-0.564 2.672 1.776 3625
-0.537 2.544 1.686 7856
-0.563 2.670 1.764 4566
-0.553 2.621 1.723 7391
-0.526 2.495 1.646 1379
-0.553 2.619 1.712 8718
-0.579 2.745 1.789 1088
-0.553 2.624 1.704 6875
-0.556 2.635 1.700 5039
-0.557 2.639 1.693 4572
-0.584 2.766 1.769 1328
-0.559 2.650 1.689 4210
-0.586 2.777 1.765 1623
-0.560 2.655 1.681 4411
-0.587 2.782 1.757 3202
-0.582 2.760 1.733 5585
-0.555 2.632 1.657 2610
-0.586 2.778 1.732 5487
-0.559 2.650 1.658 2368
-0.591 2.803 1.736 6779
-0.564 2.675 1.662 1491
-0.591 2.800 1.724 7357
-0.592 2.805 1.716 6285
-0.619 2.933 1.789 1161
-0.586 2.775 1.688 6478
-0.613 2.904 1.761 4014
-0.588 2.787 1.684 6727
-0.615 2.915 1.757 3374
-0.592 2.805 1.683 7507
-0.619 2.934 1.756 2161
-0.593 2.809 1.675 6290
-0.620 2.938 1.747 2952
-0.615 2.916 1.724 5362
-0.588 2.786 1.652 2732
-0.615 2.913 1.711 6122
-0.587 2.784 1.640 1665
-0.616 2.918 1.703 6041
-0.643 3.048 1.774 1416
-0.618 2.929 1.698 6047
-0.645 3.059 1.768 1373
-0.622 2.947 1.697 6696
-0.649 3.077 1.767 1138
-0.627 2.972 1.699 7910
-0.657 3.116 1.776 1760
-0.629 2.984 1.694 8704
-0.660 3.128 1.771 2524
-0.632 2.995 1.689 8337
-0.659 3.126 1.758 3712
-0.655 3.103 1.734 7820
-0.627 2.972 1.666 3199
-0.656 3.107 1.725 10121
-0.628 2.976 1.657 2257
-0.659 3.126 1.723 9507
-0.632 2.994 1.655 3150
-0.665 3.151 1.725 10673
-0.637 3.019 1.657 3812
-0.666 3.155 1.715 11268
-0.638 3.024 1.648 4143
-0.667 3.160 1.706 11982
-0.639 3.028 1.639 3001
-0.666 3.157 1.693 10467
-0.638 3.025 1.627 1212
-0.666 3.155 1.681 9077
-0.693 3.287 1.746 1151
-0.668 3.166 1.675 6948
-0.696 3.299 1.740 1844
-0.679 3.220 1.689 8711
-0.651 3.087 1.624 1291
-0.679 3.217 1.677 9726
-0.707 3.350 1.741 1279
-0.680 3.221 1.667 8545
-0.708 3.354 1.731 1394
-0.689 3.268 1.678 15255
-0.661 3.134 1.614 1337
-0.690 3.272 1.668 20413
-0.718 3.406 1.732 1303
-0.696 3.298 1.669 22501
-0.667 3.164 1.606 1177
-0.695 3.295 1.656 19611
-0.723 3.429 1.718 1444
-0.698 3.306 1.649 14435
-0.726 3.440 1.711 1036
-0.706 3.346 1.656 13475
-0.708 3.357 1.649 14747
-0.737 3.492 1.711 1247
-0.711 3.369 1.643 14387
-0.739 3.503 1.704 2516
-0.712 3.373 1.633 13039
-0.740 3.508 1.693 4116
-0.711 3.370 1.620 10068
-0.741 3.512 1.683 5792
-0.745 3.531 1.679 8664
-0.712 3.374 1.610 6172
-0.747 3.542 1.672 10532
-0.719 3.407 1.612 4742
-0.741 3.511 1.646 9729
-0.712 3.376 1.587 3223
-0.752 3.565 1.657 9229
-0.724 3.430 1.598 6338
-0.745 3.534 1.631 9730
-0.774 3.669 1.689 2171
-0.745 3.531 1.618 11478
-0.774 3.667 1.676 4275
-0.762 3.614 1.641 14866
-0.734 3.478 1.583 3147
-0.763 3.618 1.630 15419
-0.735 3.482 1.573 1628
-0.764 3.622 1.619 14171
-0.793 3.759 1.676 1192
-0.768 3.641 1.615 15444
-0.797 3.777 1.671 1145
-0.774 3.667 1.613 16814
-0.745 3.530 1.557 1259
-0.776 3.678 1.605 11254
-0.780 3.697 1.600 6894
-0.818 3.877 1.672 1446
-0.798 3.780 1.621 5199
-0.769 3.643 1.566 2463
-0.806 3.821 1.624 4607
-0.777 3.683 1.570 3736
-0.818 3.875 1.632 5178
-0.781 3.702 1.564 4567
-0.822 3.894 1.626 6212
-0.788 3.735 1.565 3935
-0.825 3.913 1.621 8585
-0.795 3.768 1.565 2369
-0.826 3.917 1.609 10595
-0.797 3.779 1.556 2315
-0.827 3.921 1.597 8762
-0.798 3.783 1.545 2574
-0.828 3.925 1.586 7349
-0.799 3.787 1.534 2040
-0.829 3.930 1.574 8174
-0.858 4.068 1.626 1010
-0.830 3.934 1.563 6963
-0.859 4.072 1.614 1953
-0.846 4.011 1.578 7084
-0.875 4.149 1.628 1146
-0.847 4.015 1.566 6892
-0.876 4.154 1.616 1087
-0.848 4.019 1.554 4870
-0.877 4.158 1.604 2049
-0.855 4.052 1.553 6342
-0.884 4.191 1.602 1705
-0.853 4.042 1.536 7754
-0.882 4.181 1.584 3544
-0.853 4.046 1.524 5896
-0.883 4.185 1.572 4814
-0.884 4.189 1.560 5191
-0.854 4.049 1.512 2378
-0.877 4.156 1.535 5351
-0.881 4.175 1.528 6529
-0.882 4.179 1.515 7768
-0.917 4.348 1.572 1087
-0.886 4.198 1.508 7559
-0.918 4.352 1.559 1301
-0.889 4.216 1.500 8895
-0.919 4.356 1.546 1531
-0.890 4.220 1.488 7154
-0.920 4.360 1.533 1484
-0.888 4.209 1.471 3497
-0.918 4.350 1.516 1941
-0.926 4.390 1.515 2614
-0.887 4.206 1.456 1993
-0.930 4.409 1.506 3465
-0.890 4.217 1.446 1976
-0.933 4.420 1.496 5071
-0.890 4.220 1.433 1784
-0.932 4.417 1.480 5355
-0.894 4.239 1.426 1285
-0.928 4.398 1.460 7364
-0.893 4.235 1.411 1448
-0.930 4.410 1.450 8004
-0.894 4.239 1.398 1203
-0.930 4.406 1.435 6179
-0.929 4.402 1.419 5435
-0.931 4.413 1.409 4012
-0.933 4.424 1.398 3207
-0.933 4.420 1.382 2176
-1.001 4.745 1.460 1210
-1.002 4.749 1.446 1412
-1.004 4.760 1.404 1202
-1.003 4.756 1.388 1209
-1.115 5.285 1.512 1200
-1.007 4.775 1.378 1014
-1.116 5.289 1.496 1173
-1.117 5.292 1.480 1778
-1.117 5.296 1.465 2161
-1.087 5.153 1.429 1368
-1.086 5.150 1.411 1500
-1.117 5.293 1.447 1435
-1.224 5.801 1.556 2715
-1.087 5.153 1.396 1054
-1.213 5.752 1.526 2506
-1.211 5.741 1.505 2252
-1.246 5.907 1.545 1404
-1.214 5.752 1.490 2282
-1.250 5.926 1.531 1419
-1.216 5.764 1.475 2572
-1.253 5.937 1.516 1518
-1.250 5.926 1.494 2314
-1.217 5.767 1.458 1741
-1.275 6.043 1.503 2781
-1.310 6.210 1.541 1770
-1.276 6.047 1.485 4223
-1.309 6.206 1.521 1814
-1.275 6.044 1.465 4010
-1.313 6.225 1.506 1727
-1.276 6.047 1.447 2923
-1.313 6.222 1.485 2272
-1.313 6.225 1.467 2144
-1.278 6.059 1.431 1778
-1.351 6.404 1.486 2312
-1.385 6.563 1.519 1564
-1.353 6.415 1.468 2507
-1.385 6.567 1.500 2409
-1.385 6.563 1.479 2375
-1.415 6.707 1.509 1915
-1.398 6.628 1.472 2615
-1.464 6.939 1.535 1358
-1.399 6.631 1.452 3429
-1.462 6.928 1.511 2171
-1.413 6.696 1.445 3038
-1.462 6.932 1.491 2949
-1.463 6.936 1.470 2924
-1.412 6.692 1.423 1944
-1.486 7.046 1.470 2620
-1.456 6.901 1.443 1266
-1.489 7.057 1.451 2988
-1.552 7.355 1.506 1744
-1.560 7.397 1.492 2351
-1.493 7.076 1.433 2184
-1.560 7.393 1.468 3123
-1.524 7.225 1.438 2089
-1.560 7.397 1.446 3548
-1.527 7.236 1.418 2177
-1.572 7.454 1.434 2749
-1.608 7.622 1.463 1836
-1.605 7.610 1.438 1776
-1.565 7.419 1.405 1742
-1.576 7.469 1.391 1790
-1.606 7.614 1.415 1510
-1.578 7.480 1.370 3100
-1.639 7.770 1.418 1786
-1.577 7.476 1.347 2719
-1.642 7.782 1.396 1800
-1.767 8.374 1.468 1618
-1.631 7.732 1.365 1440
-1.766 8.371 1.441 1996
-1.632 7.735 1.342 1415
-1.767 8.374 1.417 2443
-1.658 7.861 1.338 1279
-1.769 8.386 1.393 2009
-1.858 8.807 1.456 1637
-1.859 8.811 1.430 2211
-1.771 8.397 1.369 1277
-1.860 8.814 1.404 1961
-1.724 8.170 1.311 1420
-1.723 8.166 1.286 2599
-1.844 8.741 1.367 1435
-1.723 8.169 1.262 3091
-1.685 7.985 1.236 1798
-1.727 8.188 1.239 2808
-1.685 7.988 1.212 2175
-1.726 8.183 1.214 2675
-1.686 7.991 1.189 2325
-1.720 8.155 1.186 2486
-1.688 8.002 1.166 2006
-1.648 7.812 1.118 2224
-1.721 8.158 1.162 1537
-1.641 7.777 1.090 2675
-1.671 7.923 1.108 1267
-1.640 7.772 1.066 2688
-1.597 7.572 1.042 1297
-1.635 7.751 1.040 2760
-1.599 7.582 1.021 2275
-1.636 7.754 1.017 4675
-1.600 7.584 0.998 3128
-1.638 7.764 0.995 6115
-1.601 7.587 0.976 3177
-1.637 7.759 0.972 5849
-1.601 7.589 0.953 2620
-1.636 7.753 0.948 4011
-1.605 7.607 0.932 2679
-1.605 7.609 0.910 3238
-1.574 7.463 0.895 2688
-1.572 7.449 0.871 3293
-1.604 7.603 0.886 2671
-1.570 7.444 0.848 4069
-1.603 7.598 0.863 2591
-1.572 7.453 0.827 4136
-1.603 7.600 0.841 2885
-1.573 7.455 0.805 3566
-1.604 7.602 0.818 2560
-1.575 7.465 0.784 2683
-1.606 7.611 0.796 1847
-1.575 7.467 0.761 1988
-1.606 7.613 0.774 1293
-1.559 7.391 0.733 1445
-1.558 7.385 0.711 1609
-1.560 7.394 0.689 1606
-1.560 7.396 0.667 1461
-1.557 7.382 0.644 1000
-0.450 2.172 1.690 4838
-0.474 2.292 1.777 1067
-0.451 2.176 1.683 9676
-0.475 2.296 1.771 2135
-0.451 2.181 1.677 9676
-0.476 2.301 1.764 2135
-0.454 2.191 1.675 8900
-0.479 2.312 1.762 2407
-0.457 2.209 1.678 8354
-0.482 2.329 1.764 1973
-0.459 2.219 1.676 7602
-0.484 2.340 1.762 3281
-0.479 2.313 1.733 7747
-0.454 2.192 1.647 4052
-0.480 2.318 1.726 7747
-0.455 2.196 1.641 3212
-0.482 2.328 1.723 8879
-0.457 2.207 1.639 2881
-0.483 2.333 1.717 10078
-0.458 2.211 1.632 2621
-0.484 2.337 1.710 8161
-0.459 2.215 1.626 1964
-0.486 2.348 1.707 6246
-0.461 2.226 1.624 1741
-0.487 2.353 1.701 7414
-0.512 2.475 1.784 1156
-0.489 2.364 1.698 8713
-0.517 2.500 1.790 1522
-0.490 2.368 1.691 10578
-0.518 2.504 1.783 1522
-0.490 2.366 1.680 12488
-0.515 2.490 1.762 2217
-0.491 2.371 1.673 12466
-0.516 2.494 1.755 2706
-0.492 2.375 1.666 11763
-0.517 2.499 1.748 2333
-0.493 2.379 1.659 11081
-0.518 2.503 1.740 2177
-0.493 2.384 1.652 8104
-0.519 2.508 1.733 2423
-0.497 2.401 1.654 5334
-0.523 2.526 1.734 2472
-0.522 2.524 1.723 3594
-0.497 2.399 1.643 3378
-0.525 2.535 1.719 4643
-0.497 2.403 1.636 1429
-0.527 2.546 1.716 5795
-0.501 2.421 1.637 1608
-0.529 2.557 1.713 7197
-0.503 2.431 1.634 1987
-0.527 2.548 1.697 6979
-0.553 2.674 1.776 3621
-0.528 2.553 1.690 7122
-0.554 2.678 1.768 4741
-0.544 2.630 1.727 7004
-0.518 2.504 1.650 1547
-0.543 2.621 1.712 8283
-0.545 2.632 1.708 6368
-0.546 2.637 1.700 4495
-0.548 2.648 1.697 4684
-0.574 2.775 1.773 1013
-0.549 2.652 1.689 4978
-0.575 2.780 1.765 1621
-0.550 2.657 1.681 5157
-0.576 2.784 1.757 3116
-0.573 2.769 1.737 5033
-0.547 2.641 1.661 3339
-0.577 2.787 1.736 6170
-0.550 2.659 1.662 2763
-0.579 2.798 1.732 9056
-0.553 2.670 1.658 1409
-0.580 2.803 1.724 10407
-0.581 2.807 1.716 8599
-0.608 2.936 1.789 1110
-0.576 2.784 1.692 7210
-0.603 2.913 1.765 3317
-0.577 2.789 1.684 7395
-0.604 2.918 1.757 3192
-0.581 2.807 1.683 7810
-0.608 2.936 1.756 2254
-0.582 2.811 1.675 6284
-0.609 2.941 1.747 2898
-0.587 2.836 1.678 4564
-0.614 2.966 1.750 4184
-0.598 2.888 1.696 4973
-0.625 3.018 1.768 2945
-0.604 2.920 1.703 5107
-0.631 3.050 1.774 1644
-0.607 2.931 1.698 5521
-0.634 3.061 1.768 1564
-0.611 2.950 1.697 7715
-0.638 3.080 1.767 1479
-0.613 2.961 1.692 9312
-0.643 3.105 1.769 2318
-0.615 2.972 1.687 8944
-0.647 3.124 1.767 3090
-0.620 2.997 1.689 7334
-0.648 3.128 1.758 4277
-0.643 3.105 1.734 8261
-0.616 2.974 1.666 2380
-0.644 3.110 1.725 10469
-0.617 2.978 1.657 1483
-0.648 3.128 1.723 10068
-0.620 2.997 1.655 1904
-0.653 3.153 1.725 10943
-0.626 3.022 1.657 2956
-0.652 3.151 1.712 11429
-0.625 3.019 1.645 3100
-0.653 3.155 1.703 13043
-0.626 3.023 1.636 2300
-0.654 3.160 1.693 13141
-0.627 3.028 1.627 1246
-0.655 3.164 1.684 12115
-0.682 3.297 1.750 1176
-0.657 3.176 1.678 9752
-0.685 3.308 1.744 1793
-0.666 3.215 1.686 7690
-0.638 3.082 1.621 1236
-0.666 3.219 1.677 7758
-0.694 3.352 1.741 1399
-0.682 3.294 1.701 8404
-0.654 3.161 1.637 3802
-0.677 3.270 1.678 13418
-0.649 3.137 1.614 1194
-0.679 3.282 1.672 18685
-0.652 3.148 1.608 1237
-0.683 3.300 1.669 21097
-0.655 3.166 1.606 1443
-0.684 3.305 1.659 18931
-0.656 3.171 1.596 1172
-0.686 3.316 1.653 14994
-0.693 3.349 1.656 12945
-0.697 3.367 1.652 14111
-0.725 3.501 1.714 1352
-0.698 3.371 1.643 13810
-0.726 3.506 1.704 2390
-0.699 3.376 1.633 12305
-0.727 3.510 1.693 3656
-0.700 3.380 1.623 9043
-0.728 3.515 1.683 5765
-0.731 3.533 1.679 7942
-0.701 3.384 1.613 5087
-0.734 3.545 1.672 9154
-0.706 3.410 1.612 4075
-0.729 3.521 1.649 8358
-0.701 3.385 1.590 2996
-0.730 3.525 1.639 8194
-0.702 3.389 1.580 2806
-0.732 3.537 1.631 8805
-0.760 3.672 1.689 2648
-0.730 3.526 1.615 10646
-0.758 3.662 1.673 5535
-0.749 3.617 1.641 15976
-0.720 3.481 1.583 4195
-0.750 3.621 1.630 14526
-0.721 3.485 1.573 1838
-0.749 3.618 1.616 11877
-0.777 3.754 1.673 1840
-0.756 3.651 1.618 13555
-0.784 3.788 1.674 1121
-0.760 3.670 1.613 15066
-0.731 3.533 1.557 1018
-0.763 3.688 1.608 10031
-0.781 3.772 1.629 6174
-0.752 3.635 1.574 2755
-0.785 3.790 1.623 8741
-0.756 3.653 1.569 2451
-0.789 3.809 1.618 6724
-0.760 3.672 1.564 3249
-0.768 3.712 1.567 5530
-0.804 3.886 1.635 4527
-0.808 3.905 1.629 5912
-0.774 3.738 1.565 4718
-0.811 3.916 1.621 8644
-0.781 3.771 1.565 2866
-0.812 3.920 1.609 10718
-0.783 3.782 1.556 3074
-0.811 3.917 1.595 9165
-0.782 3.779 1.543 2859
-0.813 3.929 1.586 7616
-0.785 3.790 1.534 2523
-0.814 3.933 1.574 8220
-0.785 3.794 1.523 1055
-0.815 3.937 1.563 7814
-0.844 4.075 1.614 1448
-0.829 4.007 1.575 8799
-0.858 4.145 1.626 1108
-0.830 4.011 1.563 8495
-0.859 4.150 1.613 1353
-0.833 4.022 1.554 6229
-0.861 4.161 1.604 2127
-0.839 4.055 1.553 7523
-0.868 4.195 1.602 1487
-0.837 4.045 1.536 9352
-0.866 4.184 1.584 2834
-0.837 4.041 1.521 7162
-0.865 4.181 1.569 3948
-0.862 4.163 1.550 5040
-0.833 4.023 1.502 2546
-0.860 4.152 1.532 6474
-0.862 4.164 1.523 6189
-0.867 4.190 1.518 6489
-0.870 4.201 1.508 6062
-0.906 4.378 1.566 1106
-0.873 4.220 1.500 6589
-0.909 4.389 1.556 1126
-0.876 4.231 1.490 4882
-0.874 4.220 1.473 3278
-0.906 4.375 1.523 1477
-0.874 4.224 1.461 2783
-0.910 4.394 1.515 2469
-0.913 4.413 1.506 4216
-0.874 4.220 1.446 2626
-0.914 4.417 1.493 6578
-0.874 4.224 1.433 2392
-0.912 4.406 1.476 7211
-0.877 4.235 1.423 2085
-0.911 4.402 1.460 9225
-0.877 4.238 1.411 2714
-0.912 4.406 1.448 10148
-0.877 4.235 1.396 2112
-0.911 4.402 1.432 8713
-0.876 4.231 1.381 1254
-0.912 4.406 1.419 7248
-0.875 4.227 1.367 1308
-0.914 4.417 1.409 4882
-0.876 4.230 1.354 1293
-0.917 4.428 1.398 4070
-0.878 4.241 1.344 1223
-0.916 4.424 1.382 2963
-0.915 4.420 1.367 1530
-0.981 4.741 1.458 1090
-0.919 4.438 1.358 1413
-0.982 4.745 1.444 1393
-0.981 4.741 1.398 1221
-0.982 4.745 1.384 1638
-0.983 4.748 1.370 1274
-1.195 5.774 1.621 1017
-1.196 5.778 1.603 1196
-1.195 5.775 1.584 1160
-1.185 5.726 1.554 1961
-1.202 5.805 1.556 3049
-1.204 5.817 1.541 2806
-1.207 5.828 1.525 1866
-1.200 5.795 1.499 2458
-1.231 5.946 1.535 1471
-1.197 5.783 1.478 2309
-1.241 5.995 1.528 2118
-1.232 5.954 1.500 2521
-1.276 6.165 1.549 1759
-1.232 5.950 1.480 2781
-1.277 6.169 1.530 1708
-1.253 6.052 1.485 3365
-1.286 6.211 1.521 2324
-1.252 6.048 1.465 3430
-1.287 6.215 1.502 2254
-1.253 6.052 1.447 2507
-1.295 6.257 1.492 2252
-1.294 6.253 1.472 1940
-1.257 6.071 1.433 1484
-1.328 6.416 1.487 2167
-1.358 6.560 1.518 1428
-1.331 6.428 1.470 2774
-1.360 6.572 1.500 2090
-1.357 6.553 1.476 2174
-1.386 6.697 1.506 1885
-1.378 6.656 1.477 2806
-1.439 6.952 1.537 1492
-1.393 6.728 1.470 3118
-1.437 6.941 1.513 2098
-1.395 6.739 1.452 3410
-1.436 6.937 1.491 2450
-1.438 6.949 1.472 2401
-1.388 6.705 1.425 1917
-1.458 7.044 1.469 2262
-1.517 7.326 1.522 1367
-1.462 7.063 1.451 2671
-1.538 7.429 1.519 1895
-1.537 7.425 1.496 2770
-1.466 7.082 1.433 2320
-1.535 7.414 1.471 3137
-1.467 7.086 1.412 2095
-1.535 7.418 1.449 3512
-1.499 7.242 1.418 2254
-1.543 7.452 1.433 3326
-1.582 7.643 1.466 1387
-1.540 7.440 1.408 2521
-1.578 7.624 1.439 1469
-1.547 7.475 1.391 2410
-1.577 7.620 1.415 1444
-1.550 7.486 1.370 3607
-1.611 7.784 1.420 2107
-1.549 7.482 1.347 3041
-1.611 7.780 1.395 1972
-1.737 8.389 1.469 1848
-1.600 7.730 1.364 1536
-1.736 8.385 1.443 2262
-1.602 7.741 1.342 1455
-1.736 8.389 1.418 2635
-1.686 8.143 1.380 1561
-1.737 8.392 1.393 2018
-1.826 8.822 1.458 1625
-1.827 8.825 1.431 1975
-1.652 7.981 1.307 1735
-1.694 8.184 1.312 2586
-1.653 7.985 1.283 2308
-1.692 8.172 1.286 3685
-1.654 7.988 1.260 2787
-1.694 8.183 1.263 3554
-1.654 7.991 1.236 3419
-1.655 7.994 1.212 4098
-1.696 8.194 1.239 3172
-1.655 7.997 1.189 4171
-1.690 8.166 1.211 3144
-1.654 7.993 1.164 3342
-1.608 7.769 1.135 3063
-1.609 7.772 1.112 4333
-1.655 7.995 1.140 2253
-1.609 7.775 1.089 3584
-1.656 7.998 1.117 1500
-1.624 7.847 1.075 3762
-1.575 7.608 1.046 1550
-1.607 7.765 1.041 4424
-1.574 7.603 1.022 1769
-1.606 7.760 1.017 5532
-1.574 7.606 1.000 2531
-1.607 7.762 0.994 6666
-1.575 7.608 0.977 3396
-1.609 7.772 0.972 6706
-1.575 7.611 0.955 3433
-1.608 7.767 0.949 4877
-1.574 7.605 0.932 3322
-1.575 7.607 0.909 3937
-1.532 7.399 0.888 2596
-1.574 7.602 0.886 4804
-1.532 7.401 0.866 2692
-1.574 7.604 0.863 4838
-1.540 7.442 0.848 3896
-1.542 7.452 0.826 5071
-1.574 7.606 0.841 4629
-1.544 7.461 0.805 5011
-1.575 7.608 0.818 3903
-1.546 7.471 0.784 4398
-1.577 7.618 0.796 2660
-1.547 7.473 0.761 3470
-1.577 7.619 0.774 1779
-1.531 7.397 0.733 2688
-1.528 7.383 0.710 2546
-1.529 7.385 0.688 2613
-1.531 7.394 0.667 2171
-1.528 7.380 0.644 1518
-1.528 7.382 0.622 1439
-1.523 7.360 0.599 1208
-1.522 7.353 0.576 1009
-1.498 7.238 0.548 1013
-1.419 6.853 0.242 1100
-1.419 6.854 0.222 1172
-1.395 6.738 0.101 1017
-1.377 6.650 -0.037 1019
-1.314 6.349 -0.198 1040
-1.267 6.120 -0.458 1108
-1.265 6.111 -0.476 1298
-1.265 6.109 -0.494 1226
-1.266 6.115 -0.513 1169
-1.265 6.113 -0.531 1169
-1.259 6.080 -0.545 1012
-1.255 6.063 -0.561 1062
-0.445 2.173 1.690 4509
-0.446 2.177 1.683 9019
-0.470 2.297 1.771 1890
-0.446 2.182 1.677 9019
-0.471 2.302 1.764 1890
-0.449 2.192 1.675 8361
-0.473 2.313 1.762 2254
-0.452 2.210 1.678 8043
-0.477 2.330 1.764 1917
-0.454 2.220 1.676 7534
-0.479 2.341 1.762 3443
-0.474 2.314 1.733 8383
-0.449 2.193 1.647 3874
-0.475 2.319 1.726 8383
-0.450 2.197 1.641 3052
-0.477 2.330 1.723 9152
-0.452 2.208 1.639 2780
-0.478 2.334 1.717 10113
-0.453 2.212 1.632 2505
-0.479 2.339 1.710 7922
-0.454 2.216 1.626 1871
-0.480 2.343 1.703 5731
-0.454 2.221 1.619 1236
-0.482 2.354 1.701 6719
-0.507 2.477 1.784 1069
-0.484 2.365 1.698 7888
-0.512 2.501 1.790 1457
-0.485 2.369 1.691 10114
-0.513 2.505 1.783 1457
-0.484 2.367 1.680 12374
-0.510 2.491 1.762 2071
-0.485 2.372 1.673 12357
-0.511 2.495 1.755 2510
-0.486 2.376 1.666 11736
-0.512 2.500 1.748 2256
-0.487 2.380 1.659 11132
-0.513 2.505 1.740 2209
-0.488 2.385 1.652 8001
-0.513 2.509 1.733 2380
-0.492 2.402 1.654 5078
-0.517 2.527 1.734 2123
-0.491 2.400 1.643 3166
-0.517 2.525 1.723 3113
-0.518 2.529 1.715 3831
-0.492 2.404 1.636 1266
-0.521 2.547 1.716 4785
-0.496 2.422 1.637 1540
-0.524 2.558 1.713 6133
-0.498 2.433 1.634 1964
-0.523 2.556 1.701 6207
-0.549 2.682 1.780 3072
-0.523 2.554 1.690 6578
-0.548 2.680 1.768 4667
-0.540 2.638 1.731 6665
-0.514 2.512 1.654 1826
-0.538 2.629 1.716 7719
-0.539 2.634 1.708 5927
-0.540 2.638 1.700 4136
-0.542 2.649 1.697 4596
-0.544 2.660 1.693 5141
-0.570 2.788 1.769 1331
-0.545 2.665 1.685 5333
-0.571 2.792 1.761 2658
-0.546 2.669 1.677 4952
-0.572 2.797 1.752 3985
-0.571 2.788 1.736 6348
-0.544 2.660 1.662 2765
-0.573 2.799 1.732 9916
-0.547 2.671 1.658 1560
-0.572 2.797 1.720 11537
-0.575 2.808 1.716 9398
-0.601 2.937 1.789 1002
-0.570 2.786 1.692 7498
-0.596 2.914 1.765 3041
-0.586 2.865 1.726 7482
-0.560 2.736 1.653 2302
-0.586 2.863 1.714 7991
-0.559 2.733 1.641 1561
-0.581 2.840 1.690 6355
-0.608 2.969 1.762 2766
-0.582 2.844 1.682 5052
-0.609 2.974 1.754 4255
-0.589 2.876 1.689 5416
-0.615 3.006 1.760 4039
-0.595 2.908 1.695 4614
-0.622 3.038 1.766 1988
-0.604 2.953 1.709 5118
-0.631 3.083 1.780 1100
-0.604 2.951 1.697 7888
-0.631 3.081 1.767 1595
-0.606 2.962 1.692 9681
-0.636 3.107 1.769 2503
-0.607 2.967 1.683 8824
-0.638 3.118 1.763 3191
-0.614 2.999 1.689 6461
-0.640 3.130 1.758 4300
-0.637 3.114 1.738 8167
-0.610 2.982 1.669 2602
-0.637 3.111 1.725 10253
-0.610 2.980 1.657 1687
-0.640 3.130 1.723 10055
-0.614 2.998 1.655 1724
-0.644 3.148 1.721 10571
-0.617 3.016 1.654 2239
-0.645 3.152 1.712 10831
-0.618 3.020 1.645 2586
-0.646 3.157 1.703 13138
-0.619 3.025 1.636 2066
-0.647 3.161 1.693 14347
-0.620 3.029 1.627 1327
-0.649 3.173 1.688 13672
-0.622 3.040 1.622 1449
-0.650 3.177 1.678 11267
-0.677 3.310 1.744 1983
-0.654 3.196 1.676 7385
-0.681 3.328 1.741 2145
-0.674 3.291 1.711 6515
-0.646 3.158 1.646 4934
-0.674 3.295 1.701 7757
-0.647 3.162 1.637 3647
-0.671 3.279 1.681 11465
-0.644 3.145 1.617 1310
-0.672 3.283 1.672 16220
-0.645 3.150 1.608 1220
-0.676 3.302 1.669 18615
-0.648 3.168 1.606 1381
-0.677 3.306 1.659 17038
-0.649 3.172 1.596 1133
-0.679 3.317 1.653 14549
-0.684 3.343 1.653 12683
-0.689 3.369 1.652 12984
-0.717 3.503 1.714 1255
-0.690 3.373 1.643 12646
-0.718 3.508 1.704 2058
-0.693 3.384 1.636 11125
-0.720 3.519 1.696 3151
-0.693 3.389 1.626 8019
-0.721 3.524 1.686 5544
-0.722 3.528 1.676 7509
-0.694 3.393 1.616 4455
-0.726 3.547 1.672 8239
-0.698 3.411 1.612 3555
-0.721 3.522 1.649 7684
-0.693 3.387 1.590 2461
-0.720 3.520 1.635 7584
-0.748 3.655 1.694 2220
-0.723 3.531 1.628 7907
-0.750 3.667 1.686 2943
-0.738 3.607 1.648 9767
-0.710 3.471 1.590 4854
-0.740 3.618 1.641 15015
-0.713 3.482 1.583 4699
-0.743 3.630 1.633 12852
-0.715 3.493 1.576 2069
-0.745 3.641 1.625 9838
-0.773 3.778 1.682 1179
-0.749 3.660 1.621 11873
-0.753 3.679 1.616 13232
-0.755 3.690 1.608 9124
-0.772 3.774 1.629 6899
-0.744 3.636 1.574 2194
-0.776 3.792 1.623 10195
-0.748 3.655 1.569 2350
-0.778 3.804 1.615 7992
-0.750 3.666 1.561 2836
-0.760 3.714 1.567 5950
-0.797 3.895 1.638 3858
-0.799 3.906 1.629 5232
-0.765 3.740 1.565 5005
-0.803 3.925 1.623 7812
-0.774 3.780 1.568 3096
-0.803 3.922 1.609 9508
-0.774 3.784 1.556 3245
-0.802 3.919 1.595 8326
-0.774 3.781 1.543 3144
-0.804 3.930 1.586 6969
-0.776 3.792 1.534 2722
-0.807 3.942 1.577 7364
-0.778 3.803 1.526 1217
-0.818 3.997 1.584 8478
-0.790 3.858 1.533 1084
-0.820 4.008 1.575 9749
-0.821 4.013 1.563 8887
-0.850 4.152 1.613 1268
-0.822 4.017 1.551 6373
-0.850 4.156 1.601 2418
-0.830 4.057 1.553 7950
-0.859 4.197 1.602 1247
-0.827 4.039 1.533 9898
-0.855 4.179 1.582 2529
-0.827 4.043 1.521 7556
-0.856 4.183 1.569 2988
-0.851 4.157 1.547 4586
-0.822 4.018 1.499 2530
-0.850 4.154 1.532 6541
-0.851 4.158 1.520 5803
-0.858 4.192 1.518 5502
-0.859 4.195 1.505 5006
-0.865 4.229 1.503 4700
-0.869 4.248 1.495 3770
-0.872 4.259 1.485 3520
-0.900 4.399 1.530 1191
-0.874 4.270 1.475 3281
-0.903 4.411 1.519 2151
-0.902 4.407 1.504 4435
-0.864 4.222 1.446 2645
-0.903 4.411 1.491 6997
-0.865 4.226 1.433 2321
-0.902 4.408 1.476 7427
-0.867 4.237 1.423 2402
-0.901 4.404 1.460 9113
-0.866 4.233 1.409 3510
-0.902 4.408 1.448 10541
-0.867 4.237 1.396 2475
-0.901 4.404 1.432 9660
-0.865 4.225 1.379 1180
-0.902 4.408 1.419 7607
-0.865 4.229 1.367 1214
-0.904 4.419 1.409 4659
-0.866 4.232 1.354 1346
-0.907 4.430 1.398 3929
-0.868 4.243 1.344 1535
-0.906 4.426 1.382 3074
-0.869 4.247 1.331 1228
-0.903 4.415 1.365 1853
-0.868 4.243 1.317 1085
-0.907 4.433 1.356 1783
-0.970 4.740 1.442 1296
-0.909 4.444 1.345 1393
-0.868 4.242 1.290 1031
-0.867 4.238 1.275 1142
-0.968 4.728 1.394 1547
-0.971 4.747 1.384 1914
-0.972 4.750 1.370 1559
-1.182 5.776 1.621 1337
-1.183 5.781 1.603 1439
-1.083 5.292 1.478 1247
-1.182 5.777 1.584 1401
-0.973 4.753 1.326 1002
-1.179 5.759 1.562 1991
-1.189 5.808 1.556 2865
-1.193 5.827 1.542 3015
-1.192 5.824 1.523 2772
-1.190 5.812 1.503 3146
-1.219 5.956 1.537 1545
-1.227 5.998 1.528 2637
-1.193 5.831 1.489 2555
-1.225 5.987 1.507 2626
-1.262 6.168 1.549 1864
-1.220 5.960 1.482 2692
-1.263 6.172 1.530 1988
-1.272 6.214 1.521 2784
-1.239 6.055 1.485 2690
-1.238 6.051 1.465 2830
-1.272 6.218 1.502 2779
-1.283 6.267 1.494 2499
-1.239 6.055 1.447 2084
-1.279 6.248 1.470 2112
-1.313 6.415 1.506 1587
-1.315 6.427 1.489 2141
-1.345 6.571 1.519 1267
-1.316 6.431 1.470 2774
-1.346 6.575 1.500 1932
-1.339 6.541 1.473 2408
-1.368 6.685 1.502 1991
-1.363 6.659 1.477 3088
-1.425 6.963 1.538 1448
-1.379 6.739 1.472 3170
-1.423 6.952 1.515 1781
-1.381 6.750 1.454 3507
-1.422 6.948 1.492 1995
-1.426 6.967 1.475 2049
-1.374 6.716 1.426 1935
-1.441 7.040 1.467 2092
-1.374 6.712 1.405 1451
-1.445 7.059 1.449 2399
-1.521 7.432 1.519 1856
-1.520 7.429 1.496 2762
-1.448 7.078 1.431 2193
-1.520 7.425 1.472 3112
-1.451 7.089 1.412 2112
-1.520 7.429 1.450 3338
-1.483 7.245 1.418 2021
-1.524 7.448 1.431 3384
-1.565 7.647 1.466 1081
-1.523 7.444 1.408 2816
-1.558 7.612 1.437 1209
-1.529 7.470 1.390 2530
-1.559 7.616 1.414 1304
-1.531 7.482 1.369 3475
-1.594 7.788 1.420 2039
-1.532 7.485 1.347 2840
-1.587 7.753 1.390 1990
-1.716 8.385 1.468 1889
-1.583 7.734 1.364 1496
-1.717 8.389 1.443 2190
-1.585 7.745 1.342 1305
-1.718 8.392 1.418 2554
-1.672 8.170 1.384 1933
-1.673 8.174 1.360 3273
-1.718 8.396 1.393 2124
-1.675 8.185 1.336 3361
-1.634 7.985 1.307 2780
-1.635 7.988 1.283 3726
-1.677 8.196 1.313 3516
-1.635 7.992 1.260 4267
-1.676 8.191 1.288 3284
-1.636 7.995 1.236 4992
-1.666 8.141 1.256 3163
-1.637 7.998 1.212 5751
-1.667 8.144 1.232 3414
-1.637 8.001 1.189 4999
-1.667 8.147 1.208 2406
-1.636 7.996 1.164 3663
-1.595 7.796 1.138 2399
-1.594 7.791 1.114 3395
-1.637 7.999 1.140 3197
-1.595 7.794 1.091 3722
-1.638 8.002 1.117 2504
-1.607 7.851 1.075 3502
-1.556 7.604 1.045 2905
-1.607 7.853 1.051 3524
-1.557 7.607 1.022 3355
-1.559 7.617 1.001 3140
-1.589 7.763 1.017 3007
-1.589 7.766 0.994 3715
-1.559 7.619 0.978 3303
-1.590 7.768 0.972 3767
-1.560 7.622 0.956 3717
-1.557 7.609 0.932 3721
-1.522 7.439 0.914 2716
-1.558 7.611 0.909 4344
-1.521 7.433 0.891 3083
-1.556 7.605 0.886 5470
-1.522 7.435 0.869 3355
-1.557 7.607 0.863 5278
-1.522 7.438 0.847 4269
-1.557 7.609 0.841 4942
-1.521 7.432 0.824 4694
-1.558 7.611 0.818 4299
-1.521 7.434 0.802 4003
-1.530 7.474 0.784 3364
-1.560 7.621 0.796 2994
-1.530 7.476 0.761 3167
-1.560 7.623 0.774 1929
-1.513 7.393 0.732 2887
-1.559 7.617 0.751 1012
-1.512 7.387 0.710 2744
-1.510 7.381 0.688 3103
-1.509 7.374 0.665 2738
-1.505 7.353 0.642 1779
-1.510 7.377 0.621 1416
-1.505 7.355 0.598 1516
-1.482 7.241 0.569 1528
-1.512 7.388 0.578 1016
-1.484 7.249 0.548 1693
-1.482 7.243 0.527 1294
-1.405 6.864 0.242 1480
-1.405 6.865 0.222 1576
-1.403 6.857 0.201 1255
-1.387 6.780 0.181 1104
-1.386 6.772 0.161 1145
-1.384 6.764 0.141 1222
-1.381 6.749 0.121 1273
-1.380 6.741 0.101 1346
-1.379 6.741 0.081 1210
-1.362 6.653 -0.037 1282
-1.362 6.653 -0.056 1174
-1.339 6.542 -0.130 1094
-1.340 6.549 -0.150 1060
-1.340 6.548 -0.169 1039
-1.300 6.353 -0.179 1138
-1.298 6.345 -0.197 1346
-1.298 6.344 -0.216 1113
-1.304 6.373 -0.237 1029
-1.304 6.372 -0.256 1029
-1.254 6.127 -0.422 1281
-1.253 6.125 -0.440 1281
-1.253 6.123 -0.458 1504
-1.251 6.114 -0.476 1766
