2.975 1.373 1.718 8512
3.098 1.429 1.784 2945
2.986 1.378 1.712 7309
3.109 1.434 1.778 3322
3.081 1.421 1.751 6670
2.958 1.365 1.685 3342
3.098 1.429 1.748 8068
2.975 1.373 1.683 1252
3.102 1.431 1.738 9112
2.979 1.374 1.673 1153
3.119 1.439 1.735 15033
2.996 1.382 1.671 1217
3.130 1.444 1.728 26912
3.006 1.387 1.664 1129
3.134 1.446 1.718 30431
3.284 1.515 1.795 1290
3.145 1.451 1.712 29747
3.289 1.517 1.785 1315
3.149 1.453 1.702 30661
3.299 1.522 1.778 1334
3.153 1.455 1.692 27642
3.029 1.398 1.630 2007
3.144 1.451 1.675 22686
3.269 1.508 1.737 2277
3.148 1.453 1.665 20101
3.273 1.510 1.727 2300
3.152 1.454 1.655 19934
3.277 1.512 1.716 1735
3.163 1.459 1.649 17426
3.367 1.553 1.748 1704
3.167 1.461 1.639 12408
3.365 1.552 1.734 3103
3.178 1.466 1.632 7841
3.369 1.554 1.723 4021
3.241 1.495 1.650 5368
3.366 1.553 1.709 4077
3.245 1.497 1.640 4837
3.384 1.561 1.705 4796
3.394 1.566 1.697 5269
3.262 1.505 1.635 4450
3.392 1.565 1.683 4806
3.266 1.507 1.625 4400
3.396 1.567 1.673 5253
3.270 1.509 1.615 3202
3.400 1.569 1.662 4851
3.586 1.655 1.746 3631
3.404 1.571 1.651 3545
3.597 1.660 1.738 3212
3.601 1.662 1.727 3209
3.475 1.603 1.670 2720
3.592 1.657 1.709 5101
3.465 1.599 1.653 1741
3.596 1.659 1.698 6350
3.469 1.601 1.642 1562
3.607 1.664 1.689 5412
3.734 1.723 1.745 1831
3.618 1.669 1.681 5142
3.745 1.728 1.736 2458
3.629 1.674 1.672 5222
3.756 1.733 1.727 1665
3.626 1.673 1.658 3230
3.753 1.732 1.712 1491
3.731 1.721 1.689 2373
3.603 1.662 1.635 1426
3.768 1.739 1.691 3294
3.773 1.741 1.679 4050
3.900 1.800 1.732 1489
3.743 1.727 1.653 4305
3.871 1.786 1.706 1921
3.740 1.726 1.639 6034
3.868 1.785 1.691 1666
3.758 1.734 1.632 6108
3.926 1.812 1.700 2780
3.775 1.742 1.626 4180
3.931 1.814 1.688 3289
3.955 1.825 1.683 3863
3.826 1.765 1.632 3203
3.986 1.839 1.681 7348
3.857 1.780 1.631 3489
3.997 1.844 1.671 9236
3.868 1.785 1.621 1877
4.001 1.846 1.659 6359
4.130 1.906 1.708 2088
4.012 1.851 1.648 2519
4.141 1.911 1.698 2142
4.063 1.875 1.654 2578
4.240 1.956 1.720 1068
4.061 1.874 1.638 3067
4.231 1.952 1.702 1583
4.235 1.954 1.688 3849
4.058 1.872 1.623 2753
4.246 1.959 1.677 4853
4.068 1.877 1.612 2884
4.263 1.967 1.669 4539
4.134 1.907 1.622 2762
4.261 1.966 1.653 6115
4.131 1.906 1.606 2234
4.265 1.968 1.639 6205
4.135 1.908 1.593 1418
4.344 2.004 1.652 9469
4.214 1.944 1.606 1491
4.348 2.006 1.638 12452
4.478 2.066 1.684 1599
4.345 2.005 1.622 13318
4.475 2.065 1.667 3307
4.349 2.007 1.608 14730
4.479 2.067 1.653 4587
4.353 2.008 1.595 12227
4.483 2.069 1.639 4542
4.357 2.010 1.581 7591
4.487 2.070 1.625 4351
4.360 2.012 1.567 6155
4.491 2.072 1.610 4959
4.495 2.074 1.596 5359
4.364 2.014 1.553 4851
4.513 2.082 1.586 3782
4.678 2.159 1.640 3199
4.489 2.071 1.563 2507
4.703 2.170 1.632 2398
4.493 2.073 1.549 2313
4.665 2.153 1.603 1936
4.877 2.250 1.654 2319
4.704 2.170 1.599 1902
4.901 2.261 1.645 2679
4.728 2.182 1.591 2279
4.898 2.260 1.627 3246
4.718 2.177 1.572 1686
4.909 2.265 1.613 3839
4.927 2.273 1.602 4441
4.980 2.298 1.601 4128
5.111 2.358 1.640 2640
4.990 2.303 1.587 3707
5.122 2.363 1.626 3310
5.112 2.359 1.605 3148
4.980 2.298 1.567 2324
5.234 2.415 1.623 3738
5.102 2.354 1.585 2557
5.238 2.417 1.606 6335
5.392 2.488 1.649 2132
5.242 2.419 1.589 5206
5.409 2.496 1.636 3223
5.434 2.507 1.625 4109
5.302 2.446 1.588 2477
5.431 2.506 1.605 7322
5.243 2.419 1.554 1420
5.428 2.505 1.586 7273
5.254 2.424 1.539 1060
5.432 2.506 1.569 4349
5.844 2.697 1.678 1475
5.457 2.518 1.557 3999
5.855 2.702 1.662 2016
5.467 2.523 1.542 4847
5.866 2.707 1.645 2040
5.471 2.524 1.524 3982
5.898 2.721 1.633 1785
5.482 2.529 1.508 2716
5.895 2.720 1.613 2154
6.018 2.777 1.624 2803
5.885 2.715 1.590 1859
6.008 2.772 1.601 4297
6.219 2.869 1.653 1415
6.012 2.774 1.582 2908
6.230 2.874 1.634 1707
6.353 2.931 1.643 2827
6.220 2.870 1.611 1979
6.371 2.940 1.626 3554
6.238 2.878 1.595 2570
6.417 2.961 1.616 5501
6.262 2.889 1.580 1950
6.421 2.963 1.595 6613
6.576 3.034 1.630 1729
6.432 2.968 1.576 5383
6.714 3.098 1.640 2156
6.443 2.973 1.557 3275
6.718 3.099 1.618 2612
6.447 2.974 1.537 2683
6.729 3.105 1.598 2422
6.457 2.979 1.518 3145
6.937 3.201 1.621 2105
6.948 3.206 1.600 3359
7.082 3.268 1.629 2201
6.959 3.211 1.579 3747
7.093 3.273 1.607 3314
7.083 3.268 1.582 4274
6.949 3.206 1.554 2026
7.080 3.266 1.558 4508
7.617 3.514 1.666 2582
7.083 3.268 1.535 4041
7.621 3.516 1.642 2837
7.087 3.270 1.513 2913
7.625 3.518 1.618 2777
7.608 3.510 1.589 4057
7.091 3.272 1.490 1953
7.625 3.518 1.567 4124
8.029 3.705 1.644 2488
8.026 3.703 1.617 3686
7.636 3.523 1.544 3355
8.023 3.702 1.590 3292
7.633 3.522 1.519 3247
8.162 3.766 1.588 3342
7.644 3.527 1.496 3252
8.180 3.774 1.565 4125
7.640 3.525 1.470 2126
8.183 3.776 1.538 3526
7.651 3.530 1.447 1193
8.137 3.755 1.504 2591
8.148 3.759 1.479 2516
8.159 3.764 1.454 2434
8.155 3.763 1.427 1780
2.100 0.958 1.754 3765
2.104 0.960 1.748 7530
2.109 0.961 1.741 7530
2.113 0.963 1.734 7152
2.225 1.014 1.821 1045
2.123 0.968 1.732 6833
2.235 1.019 1.819 1315
2.127 0.970 1.726 5067
2.239 1.021 1.812 1697
2.214 1.010 1.782 3374
2.102 0.958 1.696 2122
2.219 1.012 1.775 3374
2.106 0.960 1.690 2122
2.140 0.976 1.706 3837
2.253 1.027 1.790 3231
2.251 1.027 1.779 4591
2.138 0.975 1.694 4447
2.261 1.031 1.776 4683
2.142 0.977 1.688 4244
2.290 1.044 1.787 5478
2.146 0.979 1.681 4041
2.294 1.046 1.780 5217
2.150 0.980 1.674 3857
2.310 1.054 1.781 4983
2.160 0.985 1.672 3703
2.315 1.056 1.774 4983
2.164 0.987 1.665 3627
2.301 1.049 1.754 6198
2.174 0.992 1.663 3557
2.305 1.051 1.746 7443
2.185 0.996 1.660 3470
2.310 1.053 1.739 7154
2.189 0.998 1.653 2198
2.320 1.058 1.736 6990
2.435 1.110 1.817 1218
2.318 1.057 1.725 4887
2.440 1.112 1.810 1299
2.353 1.073 1.738 3226
2.468 1.126 1.819 1552
2.351 1.072 1.727 3854
2.473 1.128 1.811 1528
2.337 1.066 1.707 4776
2.477 1.130 1.803 1505
2.347 1.070 1.704 4379
2.476 1.129 1.791 3047
2.480 1.131 1.784 4614
2.357 1.075 1.701 3995
2.490 1.136 1.780 6904
2.361 1.077 1.693 2729
2.501 1.140 1.776 9471
2.372 1.082 1.690 1490
2.499 1.140 1.764 9010
2.382 1.086 1.686 1385
2.485 1.133 1.744 9233
2.514 1.146 1.753 8056
2.631 1.200 1.830 1573
2.531 1.154 1.753 8099
2.648 1.208 1.829 1737
2.547 1.162 1.753 7517
2.665 1.215 1.829 1351
2.558 1.166 1.749 7635
2.676 1.220 1.825 1245
2.562 1.168 1.741 5705
2.680 1.222 1.816 1648
2.616 1.193 1.764 5203
2.498 1.139 1.689 1355
2.646 1.206 1.772 6781
2.527 1.152 1.697 2554
2.650 1.208 1.763 11396
2.531 1.154 1.689 1755
2.648 1.207 1.751 14009
2.767 1.262 1.825 1246
2.658 1.212 1.747 12382
2.778 1.267 1.820 1665
2.663 1.214 1.738 10402
2.782 1.269 1.812 1910
2.661 1.213 1.726 11146
2.780 1.268 1.799 2307
2.665 1.215 1.718 11912
2.791 1.273 1.794 2499
2.675 1.220 1.713 11764
2.795 1.275 1.785 3076
2.680 1.222 1.705 9072
2.800 1.277 1.776 6018
2.798 1.276 1.764 8862
2.677 1.221 1.692 5904
2.802 1.278 1.755 8047
2.681 1.223 1.684 4162
2.800 1.277 1.742 7260
2.679 1.222 1.672 2381
2.804 1.279 1.734 5451
2.683 1.224 1.663 1716
2.866 1.307 1.758 4839
2.857 1.303 1.741 5947
2.979 1.358 1.811 1596
2.862 1.305 1.732 4705
2.983 1.360 1.801 2401
2.962 1.351 1.778 3851
2.840 1.295 1.709 2324
2.941 1.341 1.754 3463
2.958 1.349 1.752 3742
3.080 1.405 1.819 1190
2.969 1.354 1.746 4590
3.091 1.409 1.813 1444
2.973 1.356 1.737 4996
3.095 1.412 1.804 1412
2.977 1.358 1.727 7442
3.100 1.414 1.794 2051
2.981 1.359 1.718 8001
3.104 1.416 1.784 2722
2.986 1.361 1.708 6522
3.109 1.418 1.774 3299
3.087 1.408 1.751 7170
2.964 1.351 1.685 3295
3.091 1.410 1.741 10465
2.968 1.353 1.676 1190
3.095 1.412 1.731 11654
2.972 1.355 1.666 1103
3.119 1.422 1.731 13620
2.995 1.366 1.667 1687
3.130 1.427 1.725 22084
3.141 1.432 1.718 25854
3.291 1.501 1.795 1042
3.151 1.437 1.712 25724
3.295 1.503 1.785 1112
3.156 1.439 1.702 26946
3.306 1.508 1.778 1193
3.160 1.441 1.692 24493
3.284 1.498 1.754 1494
3.151 1.437 1.675 20038
3.275 1.494 1.737 2469
3.155 1.439 1.665 17752
3.280 1.496 1.727 2713
3.165 1.443 1.659 17943
3.290 1.500 1.720 1583
3.169 1.445 1.649 15923
3.374 1.538 1.748 1723
3.173 1.447 1.639 11071
3.371 1.537 1.734 3356
3.191 1.455 1.635 6817
3.376 1.539 1.723 4335
3.241 1.478 1.647 4542
3.373 1.538 1.709 4491
3.391 1.546 1.705 5783
3.205 1.462 1.618 4079
3.395 1.548 1.694 6556
3.262 1.488 1.632 4342
3.392 1.547 1.680 5503
3.266 1.489 1.622 5252
3.396 1.549 1.670 5567
3.270 1.491 1.612 3921
3.407 1.554 1.662 6012
3.593 1.639 1.746 4197
3.411 1.555 1.651 5038
3.598 1.641 1.735 3537
3.422 1.560 1.643 3531
3.609 1.646 1.727 3442
3.599 1.641 1.709 4985
3.432 1.565 1.635 1792
3.604 1.643 1.698 5510
3.731 1.701 1.754 1563
3.608 1.645 1.686 5027
3.735 1.703 1.742 2342
3.619 1.650 1.678 5675
3.746 1.708 1.733 3022
3.636 1.658 1.672 5586
3.764 1.716 1.727 1584
3.647 1.663 1.664 3141
3.685 1.680 1.666 1671
3.812 1.738 1.720 1566
3.776 1.722 1.691 2949
3.648 1.664 1.638 1054
3.773 1.721 1.676 3958
3.902 1.779 1.729 1634
3.751 1.710 1.653 4899
3.926 1.790 1.725 1820
3.748 1.709 1.639 7069
3.937 1.795 1.715 1391
3.759 1.714 1.629 6800
3.941 1.797 1.703 1743
3.769 1.719 1.620 4598
3.939 1.796 1.688 2524
3.963 1.807 1.683 4339
3.794 1.730 1.616 3341
3.994 1.821 1.681 8809
3.811 1.738 1.610 3182
3.998 1.823 1.669 10818
3.788 1.727 1.587 2336
4.009 1.828 1.659 7419
4.138 1.887 1.708 2762
4.020 1.833 1.648 3340
4.149 1.892 1.698 2897
4.133 1.885 1.677 2827
4.004 1.826 1.628 1408
4.144 1.890 1.666 3521
4.014 1.831 1.618 1566
4.162 1.898 1.658 4855
4.032 1.839 1.610 2080
4.172 1.903 1.647 5011
4.302 1.962 1.695 1964
4.176 1.904 1.634 4702
4.306 1.964 1.681 2665
4.269 1.947 1.653 5894
4.139 1.888 1.606 2884
4.280 1.952 1.642 5815
4.150 1.892 1.595 2078
4.353 1.985 1.652 7644
4.222 1.925 1.606 1880
4.357 1.987 1.638 9452
4.487 2.046 1.684 1267
4.361 1.989 1.625 9442
4.491 2.048 1.670 2800
4.358 1.987 1.608 10386
4.489 2.047 1.653 4175
4.369 1.992 1.597 8340
4.499 2.052 1.641 4028
4.476 2.041 1.618 5119
4.345 1.981 1.574 3648
4.480 2.043 1.603 4924
4.349 1.983 1.560 2513
4.497 2.051 1.594 4809
4.366 1.991 1.551 2501
4.515 2.059 1.584 3545
4.695 2.141 1.642 2222
4.498 2.051 1.563 2337
4.726 2.155 1.636 1944
4.502 2.053 1.549 1817
4.848 2.211 1.658 1721
4.887 2.228 1.654 2168
4.713 2.149 1.599 1898
4.988 2.274 1.668 2283
4.835 2.205 1.621 2148
4.992 2.276 1.652 3211
4.846 2.210 1.608 2539
4.989 2.275 1.634 3035
4.850 2.212 1.592 1843
4.951 2.258 1.606 4067
5.104 2.327 1.652 1329
4.990 2.275 1.601 4490
5.122 2.336 1.640 3379
5.112 2.331 1.619 4163
4.980 2.271 1.581 3382
5.116 2.333 1.603 4260
4.983 2.272 1.565 2136
5.134 2.341 1.591 4334
5.266 2.401 1.629 3033
5.270 2.403 1.612 3944
5.403 2.464 1.649 2419
5.344 2.437 1.615 4482
5.476 2.497 1.652 2269
5.452 2.486 1.627 4776
5.320 2.426 1.590 3441
5.442 2.482 1.605 6847
5.310 2.421 1.569 1986
5.425 2.474 1.582 6366
5.415 2.469 1.562 4010
5.828 2.658 1.671 1384
5.405 2.465 1.541 3749
5.860 2.672 1.660 1668
5.486 2.501 1.543 4572
5.878 2.681 1.645 1667
5.489 2.503 1.526 3442
5.861 2.673 1.621 1868
5.851 2.668 1.599 2711
5.500 2.508 1.510 2226
6.003 2.737 1.617 2611
5.869 2.676 1.583 1541
6.020 2.745 1.601 3907
6.154 2.806 1.634 1433
6.017 2.744 1.580 2418
6.207 2.831 1.626 1819
6.366 2.903 1.643 2991
6.232 2.842 1.611 1900
6.377 2.908 1.624 3753
6.243 2.847 1.593 2058
6.423 2.929 1.614 5938
6.275 2.862 1.580 1834
6.434 2.934 1.595 7237
6.589 3.005 1.630 1696
6.445 2.939 1.576 5339
6.727 3.068 1.640 1808
6.456 2.944 1.557 3163
6.731 3.070 1.618 2390
6.460 2.946 1.537 2757
6.742 3.075 1.598 2128
6.478 2.954 1.519 3091
6.612 3.015 1.548 2167
6.969 3.178 1.602 3608
7.104 3.239 1.630 2068
6.973 3.180 1.579 4016
7.108 3.241 1.607 3447
7.097 3.236 1.582 4609
6.963 3.175 1.554 2141
7.094 3.235 1.558 5213
7.632 3.480 1.666 2362
7.105 3.240 1.537 4964
7.637 3.482 1.642 2511
7.109 3.241 1.514 3624
7.640 3.484 1.618 2464
7.630 3.479 1.590 3474
7.105 3.240 1.490 2265
7.648 3.488 1.569 3718
8.039 3.666 1.642 2058
7.652 3.489 1.544 3211
8.050 3.671 1.618 2850
7.656 3.491 1.520 3120
8.047 3.669 1.591 2467
8.185 3.733 1.589 3837
7.659 3.493 1.496 3081
8.196 3.738 1.565 4828
7.656 3.491 1.470 2013
8.200 3.739 1.538 4086
7.666 3.496 1.447 1134
8.190 3.734 1.510 2797
8.172 3.726 1.480 2407
8.175 3.728 1.454 2049
8.172 3.726 1.427 1581
2.103 0.951 1.754 4290
2.107 0.953 1.748 8580
2.111 0.955 1.741 8580
2.116 0.957 1.734 8229
2.120 0.959 1.728 7877
2.232 1.010 1.814 1154
2.124 0.961 1.721 6094
2.237 1.012 1.807 1694
2.128 0.963 1.714 4311
2.241 1.014 1.800 2234
2.133 0.965 1.708 4311
2.245 1.016 1.793 2234
2.137 0.967 1.701 3955
2.250 1.018 1.786 3492
2.254 1.020 1.779 4751
2.141 0.968 1.694 3599
2.265 1.024 1.776 4973
2.145 0.970 1.688 3413
2.287 1.034 1.782 5806
2.137 0.967 1.672 3332
2.291 1.036 1.775 5353
2.153 0.974 1.674 3716
2.296 1.038 1.768 4901
2.163 0.979 1.672 4258
2.300 1.040 1.761 4901
2.167 0.980 1.665 4113
2.304 1.042 1.754 6560
2.177 0.985 1.663 4039
2.302 1.042 1.742 8154
2.188 0.990 1.660 3996
2.313 1.046 1.739 7850
2.192 0.991 1.653 2552
2.317 1.048 1.732 7738
2.432 1.100 1.813 1425
2.321 1.050 1.725 5511
2.437 1.102 1.805 1534
2.356 1.066 1.738 3393
2.472 1.118 1.819 1790
2.354 1.065 1.727 4341
2.470 1.117 1.807 1695
2.346 1.061 1.711 5566
2.481 1.122 1.803 1572
2.356 1.066 1.708 4988
2.479 1.121 1.791 3025
2.483 1.123 1.784 4484
2.361 1.068 1.701 4433
2.494 1.128 1.780 7006
2.365 1.070 1.693 2810
2.504 1.133 1.776 9818
2.344 1.060 1.669 1414
2.503 1.132 1.764 9502
2.385 1.079 1.686 1202
2.495 1.128 1.748 9803
2.612 1.182 1.826 1042
2.511 1.136 1.748 8410
2.629 1.189 1.825 1792
2.534 1.146 1.753 7946
2.652 1.200 1.829 1618
2.551 1.154 1.753 7139
2.433 1.100 1.676 1279
2.568 1.161 1.753 7362
2.572 1.163 1.745 5594
2.690 1.217 1.820 1345
2.620 1.185 1.764 5717
2.501 1.131 1.689 1615
2.643 1.195 1.768 6521
2.524 1.142 1.693 2391
2.654 1.200 1.763 10421
2.534 1.146 1.689 1779
2.652 1.199 1.751 12762
2.771 1.253 1.825 1257
2.656 1.201 1.743 11570
2.775 1.255 1.816 2079
2.654 1.200 1.731 10316
2.773 1.255 1.804 2830
2.664 1.205 1.726 11295
2.784 1.259 1.799 3042
2.669 1.207 1.718 12409
2.795 1.264 1.794 3639
2.673 1.209 1.709 12074
2.799 1.266 1.785 3671
2.683 1.214 1.705 9271
2.804 1.268 1.776 5636
2.802 1.267 1.764 7838
2.681 1.213 1.692 6019
2.806 1.269 1.755 7318
2.685 1.215 1.684 4284
2.810 1.271 1.746 6799
2.689 1.216 1.676 2550
2.808 1.270 1.734 5247
2.687 1.215 1.663 1848
2.870 1.298 1.758 4470
2.868 1.297 1.745 5344
2.989 1.352 1.814 1487
2.872 1.299 1.736 4628
2.994 1.354 1.805 2493
2.947 1.333 1.767 4984
2.825 1.278 1.698 1898
2.945 1.332 1.754 4566
2.823 1.277 1.686 1365
2.956 1.337 1.748 4828
3.078 1.392 1.816 1421
2.973 1.345 1.746 6173
3.095 1.400 1.813 1408
2.983 1.350 1.740 5942
3.106 1.405 1.807 1164
2.981 1.349 1.727 7252
3.104 1.404 1.794 1895
2.979 1.348 1.714 7286
3.102 1.403 1.780 2711
2.983 1.349 1.705 5629
3.106 1.405 1.771 2907
3.085 1.395 1.747 7922
2.961 1.340 1.682 3055
3.089 1.397 1.737 12598
2.965 1.341 1.672 1210
3.093 1.399 1.728 13886
3.217 1.455 1.792 1142
3.117 1.410 1.728 12199
2.993 1.354 1.664 1830
3.134 1.418 1.725 16563
3.010 1.362 1.661 1167
3.145 1.423 1.718 20035
3.156 1.427 1.712 20361
3.160 1.429 1.702 21503
3.311 1.498 1.778 1001
3.164 1.431 1.692 19080
3.289 1.488 1.754 1278
3.155 1.427 1.675 15688
3.280 1.484 1.737 2349
3.159 1.429 1.665 14251
3.284 1.486 1.727 2842
3.170 1.434 1.659 14857
3.295 1.490 1.720 1869
3.180 1.439 1.652 13017
3.378 1.528 1.748 1637
3.191 1.443 1.645 8588
3.383 1.530 1.737 3336
3.202 1.448 1.638 5361
3.387 1.532 1.726 4317
3.385 1.531 1.712 4655
3.245 1.468 1.647 3743
3.389 1.533 1.702 6571
3.249 1.470 1.636 3233
3.393 1.535 1.691 7717
3.267 1.478 1.632 4109
3.397 1.537 1.680 6164
3.271 1.479 1.622 5750
3.401 1.538 1.670 5783
3.574 1.617 1.749 4370
3.405 1.540 1.659 6736
3.592 1.625 1.743 4485
3.416 1.545 1.651 5936
3.603 1.630 1.735 3691
3.426 1.550 1.643 4159
3.614 1.635 1.727 3460
3.604 1.630 1.709 4738
3.424 1.549 1.629 2057
3.609 1.632 1.698 4804
3.736 1.690 1.754 1567
3.606 1.631 1.684 4944
3.733 1.689 1.739 2754
3.617 1.636 1.675 6431
3.744 1.694 1.730 3455
3.641 1.647 1.672 5938
3.769 1.705 1.727 1537
3.659 1.655 1.666 3322
3.690 1.669 1.666 2413
3.818 1.727 1.720 1403
3.721 1.683 1.666 2984
3.849 1.741 1.719 1011
3.772 1.706 1.673 4136
3.920 1.773 1.735 1561
3.756 1.699 1.653 5243
3.931 1.778 1.725 1908
3.753 1.698 1.639 7559
3.949 1.786 1.718 1200
3.750 1.696 1.624 7129
4.001 1.810 1.725 1422
3.774 1.707 1.620 4673
3.937 1.781 1.685 1717
3.962 1.792 1.681 4252
3.799 1.718 1.616 4212
3.993 1.806 1.679 9188
3.803 1.720 1.604 4287
4.004 1.811 1.669 11181
3.793 1.716 1.587 3620
4.021 1.819 1.661 7899
4.151 1.878 1.711 3061
4.026 1.821 1.648 4182
4.155 1.879 1.698 3631
4.146 1.875 1.679 3487
4.016 1.817 1.631 2094
4.150 1.877 1.666 4499
4.020 1.818 1.618 1697
4.167 1.885 1.658 6673
4.037 1.826 1.610 1971
4.178 1.890 1.647 7059
4.308 1.949 1.695 2217
4.189 1.895 1.637 6002
4.319 1.954 1.684 2476
4.193 1.897 1.623 6177
4.323 1.956 1.670 3421
4.204 1.902 1.613 5165
4.334 1.961 1.659 4336
4.352 1.969 1.650 5957
4.215 1.906 1.602 2200
4.370 1.977 1.641 6756
4.239 1.917 1.595 1635
4.374 1.978 1.627 5924
4.504 2.038 1.672 2088
4.371 1.977 1.611 6539
4.502 2.036 1.655 3127
4.375 1.979 1.597 5426
4.506 2.038 1.641 3410
4.475 2.024 1.615 5247
4.344 1.965 1.572 1535
4.472 2.023 1.599 4838
4.707 2.129 1.676 1307
4.497 2.034 1.591 3798
4.697 2.125 1.657 1425
4.514 2.042 1.582 2900
4.722 2.136 1.649 1536
4.497 2.034 1.561 2053
4.747 2.147 1.640 1691
4.772 2.158 1.632 1675
4.931 2.230 1.682 1568
4.817 2.179 1.630 2609
4.949 2.239 1.671 1636
4.828 2.184 1.617 2830
4.988 2.256 1.666 2443
4.992 2.258 1.650 3542
4.853 2.195 1.608 2845
4.996 2.260 1.634 3251
4.815 2.178 1.580 2455
4.979 2.252 1.612 4017
5.111 2.312 1.652 2047
4.997 2.260 1.601 4599
5.129 2.320 1.640 3864
5.105 2.309 1.615 5050
4.973 2.249 1.577 2634
5.116 2.314 1.601 5757
5.269 2.384 1.645 2440
5.134 2.322 1.589 5475
5.266 2.382 1.627 3244
5.305 2.400 1.620 3126
5.152 2.330 1.577 2799
5.365 2.427 1.619 5922
5.009 2.266 1.519 2088
5.362 2.425 1.600 6043
5.495 2.486 1.636 3175
5.450 2.465 1.605 5596
5.317 2.405 1.569 2472
5.419 2.451 1.579 6248
5.286 2.391 1.543 1267
5.416 2.450 1.560 4503
5.836 2.640 1.671 1549
5.405 2.445 1.539 4529
5.840 2.642 1.653 1475
5.493 2.485 1.543 3852
5.360 2.424 1.509 1313
5.504 2.490 1.528 2899
5.848 2.645 1.615 2044
5.859 2.650 1.599 3428
6.197 2.803 1.683 1742
6.011 2.719 1.617 2191
5.863 2.652 1.580 2099
6.029 2.727 1.601 3124
6.170 2.791 1.635 2252
6.202 2.805 1.623 2238
6.026 2.726 1.580 1957
6.382 2.887 1.645 2882
6.248 2.826 1.613 1977
6.393 2.892 1.626 3819
6.259 2.831 1.595 2094
6.432 2.910 1.614 5995
6.298 2.849 1.583 1779
6.436 2.911 1.593 7112
6.598 2.985 1.630 1428
6.447 2.916 1.575 4546
6.609 2.990 1.611 1438
6.472 2.928 1.559 2729
6.741 3.049 1.618 1821
6.476 2.929 1.538 2622
6.617 2.993 1.569 2071
6.486 2.934 1.519 2697
6.621 2.995 1.548 2227
6.979 3.157 1.602 3437
7.113 3.218 1.630 2058
6.983 3.159 1.579 3775
7.117 3.219 1.607 3415
7.107 3.215 1.582 4537
6.972 3.154 1.554 2024
7.104 3.213 1.558 5113
7.643 3.457 1.666 1922
7.115 3.218 1.537 4858
7.647 3.459 1.642 1913
7.111 3.217 1.513 3467
7.580 3.429 1.604 1938
7.641 3.456 1.590 2664
7.115 3.218 1.490 2071
7.659 3.464 1.569 2967
8.043 3.638 1.641 1560
7.663 3.466 1.544 2732
8.061 3.646 1.618 2051
7.666 3.468 1.520 2677
8.200 3.709 1.617 2127
8.197 3.708 1.589 4176
7.670 3.469 1.496 2545
8.201 3.709 1.563 5260
7.666 3.468 1.470 1613
8.211 3.714 1.538 4229
8.201 3.710 1.510 2993
8.190 3.705 1.481 2450
8.179 3.700 1.453 1963
8.183 3.701 1.427 1473
2.105 0.946 1.754 4558
2.110 0.947 1.748 9117
2.114 0.949 1.741 9117
2.118 0.951 1.734 9031
2.123 0.953 1.728 8946
2.127 0.955 1.721 7255
2.239 1.006 1.807 1524
2.131 0.957 1.714 5564
2.244 1.008 1.800 2186
2.135 0.959 1.708 5564
2.248 1.010 1.793 2186
2.139 0.961 1.701 4510
2.253 1.012 1.786 3586
2.263 1.016 1.783 5006
2.143 0.963 1.694 3457
2.273 1.021 1.781 5314
2.142 0.962 1.683 3188
2.290 1.028 1.782 6028
2.140 0.961 1.672 3024
2.294 1.030 1.775 5381
2.156 0.968 1.674 3831
2.166 0.973 1.672 4917
2.298 1.032 1.768 4733
2.303 1.034 1.761 4733
2.176 0.977 1.670 4647
2.307 1.036 1.754 6806
2.180 0.979 1.663 4491
2.305 1.035 1.742 8844
2.190 0.984 1.660 4416
2.310 1.037 1.735 8690
2.194 0.985 1.653 2897
2.320 1.042 1.732 8746
2.204 0.990 1.651 1513
2.324 1.044 1.725 6373
2.440 1.096 1.805 1728
2.359 1.059 1.738 4105
2.475 1.111 1.819 1802
2.357 1.058 1.727 5092
2.473 1.111 1.807 1654
2.355 1.058 1.715 6310
2.478 1.113 1.799 1465
2.359 1.059 1.708 5423
2.476 1.112 1.787 2962
2.474 1.111 1.775 4623
2.357 1.059 1.696 4382
2.497 1.121 1.780 7043
2.374 1.066 1.697 2811
2.507 1.126 1.776 9971
2.390 1.073 1.698 1314
2.506 1.125 1.764 9790
2.388 1.072 1.686 1150
2.498 1.122 1.748 10072
2.615 1.174 1.826 1012
2.514 1.129 1.748 8674
2.632 1.182 1.825 1681
2.531 1.137 1.749 7891
2.649 1.190 1.825 1790
2.560 1.150 1.757 7013
2.442 1.097 1.680 1603
2.571 1.154 1.753 7239
2.606 1.170 1.765 5762
2.488 1.117 1.689 1713
2.617 1.175 1.760 6081
2.498 1.122 1.685 1482
2.640 1.186 1.764 5941
2.521 1.132 1.689 2118
2.657 1.193 1.763 8487
2.537 1.140 1.689 1742
2.655 1.192 1.751 10378
2.774 1.246 1.825 1324
2.659 1.194 1.743 9869
2.779 1.248 1.816 2271
2.651 1.190 1.727 9798
2.771 1.244 1.800 3479
2.661 1.195 1.722 10857
2.788 1.252 1.799 3605
2.672 1.200 1.718 12288
2.798 1.257 1.794 4562
2.676 1.202 1.709 11755
2.803 1.259 1.785 4312
2.693 1.209 1.708 8841
2.813 1.263 1.780 5027
2.703 1.214 1.704 6390
2.824 1.268 1.775 5849
2.816 1.265 1.759 6000
2.695 1.210 1.688 4170
2.814 1.264 1.746 5873
2.686 1.206 1.672 2427
2.818 1.266 1.737 4480
2.697 1.211 1.667 1857
2.880 1.293 1.761 4369
2.884 1.295 1.752 5335
2.946 1.323 1.776 5037
2.824 1.268 1.707 2353
2.944 1.322 1.763 5993
2.822 1.267 1.695 1926
2.948 1.324 1.754 5526
2.826 1.269 1.686 1608
2.985 1.340 1.762 5909
2.862 1.285 1.695 2121
2.983 1.340 1.749 7674
3.105 1.395 1.817 1115
2.987 1.341 1.740 6849
3.110 1.397 1.807 1175
2.985 1.340 1.727 6920
3.108 1.396 1.794 1680
2.983 1.339 1.714 6224
3.106 1.395 1.780 2178
3.052 1.370 1.739 4525
2.928 1.315 1.674 1507
3.082 1.384 1.744 8695
2.958 1.329 1.678 2394
3.093 1.389 1.737 14066
2.969 1.333 1.672 1334
3.097 1.391 1.728 15196
2.973 1.335 1.663 1156
3.101 1.393 1.718 11627
3.138 1.409 1.725 10547
3.014 1.353 1.661 1221
3.149 1.414 1.718 13180
3.153 1.416 1.708 13834
3.164 1.421 1.702 14371
3.168 1.423 1.692 12290
3.293 1.479 1.754 1038
3.165 1.422 1.679 10093
3.291 1.478 1.740 1483
3.236 1.453 1.701 10032
3.110 1.397 1.639 1286
3.233 1.452 1.688 11333
3.211 1.442 1.665 10575
3.383 1.519 1.748 1459
3.215 1.444 1.654 6704
3.387 1.521 1.737 3096
3.239 1.454 1.654 4571
3.391 1.523 1.726 4031
3.389 1.522 1.712 4693
3.256 1.462 1.650 3942
3.386 1.521 1.699 7343
3.260 1.464 1.640 3401
3.390 1.523 1.688 8713
3.264 1.466 1.629 4251
3.401 1.527 1.680 6796
3.275 1.471 1.622 5725
3.405 1.529 1.670 5942
3.579 1.607 1.749 4525
3.409 1.531 1.659 7082
3.596 1.615 1.743 4456
3.427 1.539 1.654 6419
3.607 1.620 1.735 3615
3.431 1.541 1.643 4428
3.611 1.622 1.724 3403
3.609 1.621 1.709 4553
3.428 1.539 1.629 2122
3.613 1.623 1.698 4550
3.486 1.565 1.642 1683
3.610 1.621 1.684 5380
3.738 1.679 1.739 2731
3.621 1.626 1.675 7274
3.749 1.684 1.730 3358
3.646 1.637 1.672 6371
3.773 1.695 1.727 1739
3.670 1.648 1.669 3976
3.714 1.668 1.675 3519
3.586 1.610 1.621 1178
3.732 1.676 1.668 4549
3.763 1.690 1.668 4700
3.932 1.766 1.737 1321
3.760 1.689 1.653 5591
3.936 1.768 1.725 1677
3.751 1.684 1.636 8092
3.880 1.742 1.688 1089
3.755 1.686 1.624 7754
4.033 1.811 1.735 1628
3.765 1.691 1.615 4823
4.037 1.813 1.723 1768
3.803 1.708 1.616 5066
3.967 1.781 1.681 3894
3.998 1.795 1.679 8665
3.800 1.707 1.602 5708
4.009 1.800 1.669 10509
3.791 1.702 1.584 4927
4.026 1.808 1.661 7923
4.156 1.866 1.711 3418
4.037 1.813 1.651 4778
4.167 1.871 1.700 3796
4.110 1.846 1.664 4042
4.239 1.904 1.713 2149
4.162 1.869 1.669 5031
4.032 1.810 1.620 1960
4.172 1.874 1.658 8040
4.042 1.815 1.610 1815
4.190 1.882 1.650 8951
4.320 1.940 1.697 2138
4.194 1.883 1.637 7134
4.324 1.942 1.684 2698
4.191 1.882 1.621 6742
4.322 1.941 1.668 3748
4.209 1.890 1.613 5855
4.339 1.949 1.659 3968
4.357 1.957 1.650 4765
4.227 1.898 1.604 2650
4.375 1.965 1.641 5177
4.244 1.906 1.595 1854
4.455 2.001 1.653 3775
4.324 1.942 1.608 1460
4.452 1.999 1.637 4624
4.321 1.940 1.592 1354
4.463 2.004 1.625 5189
4.332 1.945 1.581 1703
4.467 2.006 1.611 5575
4.335 1.947 1.567 1104
4.464 2.005 1.594 5480
4.713 2.116 1.676 1363
4.468 2.006 1.580 3541
4.724 2.121 1.664 1214
4.465 2.005 1.564 2286
4.804 2.157 1.673 1521
4.808 2.159 1.658 2113
4.482 2.013 1.554 1943
4.798 2.155 1.639 3014
4.944 2.220 1.685 1515
4.816 2.163 1.628 4553
4.955 2.225 1.671 1618
4.820 2.165 1.612 4408
4.994 2.243 1.666 2175
4.796 2.154 1.589 3760
5.005 2.248 1.652 3502
4.814 2.162 1.578 4186
5.002 2.246 1.634 3499
4.818 2.163 1.562 4268
4.985 2.239 1.612 4142
4.996 2.243 1.599 4650
5.128 2.303 1.638 4299
5.111 2.295 1.615 6183
4.979 2.236 1.577 2805
5.122 2.300 1.601 7398
4.989 2.241 1.563 2400
5.133 2.305 1.587 6615
5.287 2.374 1.631 2468
5.151 2.313 1.575 3174
5.319 2.389 1.622 2750
5.379 2.415 1.621 7013
5.015 2.252 1.519 1830
5.376 2.414 1.602 8162
5.509 2.474 1.638 2344
5.386 2.419 1.586 7094
5.520 2.479 1.623 1249
5.404 2.427 1.573 6489
5.271 2.367 1.537 1229
5.422 2.435 1.560 4492
5.843 2.624 1.671 1759
5.412 2.430 1.539 4842
5.833 2.620 1.649 2006
5.409 2.429 1.520 4626
5.816 2.612 1.625 2013
5.419 2.434 1.504 2995
5.841 2.623 1.612 2484
5.859 2.631 1.597 3712
6.197 2.783 1.682 1891
6.187 2.779 1.658 2677
5.870 2.636 1.580 2658
6.184 2.777 1.637 3146
6.036 2.711 1.601 2118
6.202 2.785 1.621 2687
6.033 2.709 1.580 1576
6.397 2.873 1.646 2601
6.263 2.812 1.615 2117
6.408 2.878 1.628 3927
6.274 2.817 1.596 2212
6.433 2.889 1.612 5996
6.299 2.829 1.581 1694
6.437 2.891 1.592 6548
6.571 2.951 1.622 1013
6.419 2.883 1.567 4025
6.717 3.016 1.633 1339
6.494 2.916 1.562 2292
6.728 3.021 1.613 1380
6.477 2.908 1.537 2401
6.625 2.975 1.569 1799
6.480 2.910 1.516 2165
6.629 2.977 1.548 2009
6.994 3.141 1.603 2849
7.129 3.202 1.632 1775
7.112 3.194 1.604 3327
6.977 3.133 1.576 2900
7.116 3.196 1.582 4133
6.981 3.135 1.554 1684
7.112 3.194 1.558 4698
7.560 3.395 1.648 1783
7.123 3.199 1.537 4584
7.571 3.400 1.625 2187
7.127 3.201 1.514 3381
7.582 3.405 1.602 2195
7.131 3.202 1.491 2182
7.593 3.410 1.580 2122
7.661 3.440 1.567 2058
7.134 3.204 1.469 1467
7.679 3.448 1.546 1950
8.071 3.624 1.618 1453
8.210 3.687 1.617 2316
7.683 3.450 1.521 2031
8.207 3.685 1.589 4282
7.679 3.449 1.496 1824
8.211 3.687 1.563 5411
7.676 3.447 1.470 1096
8.214 3.689 1.537 4042
8.211 3.687 1.510 2767
8.215 3.689 1.484 2228
8.189 3.678 1.453 1863
8.193 3.679 1.427 1487
2.108 0.939 1.754 4699
2.113 0.941 1.748 9399
2.117 0.943 1.741 9399
2.121 0.945 1.734 9602
2.125 0.947 1.728 9805
2.130 0.948 1.721 8064
2.248 1.001 1.812 1365
2.134 0.950 1.714 6322
2.247 1.001 1.800 2091
2.138 0.952 1.708 6322
2.251 1.003 1.793 2091
2.142 0.954 1.701 4891
2.262 1.007 1.790 3579
2.266 1.009 1.783 5091
2.140 0.953 1.690 3570
2.277 1.014 1.781 5406
2.145 0.955 1.683 3256
2.287 1.018 1.778 5971
2.155 0.960 1.681 2994
2.291 1.020 1.771 5221
2.165 0.964 1.679 4009
2.169 0.966 1.672 5089
2.296 1.022 1.764 4472
2.179 0.970 1.670 4825
2.300 1.024 1.756 4472
2.304 1.026 1.749 6776
2.183 0.972 1.663 4635
2.309 1.028 1.742 9112
2.193 0.977 1.660 4509
2.313 1.030 1.735 9185
2.197 0.979 1.653 3028
2.323 1.035 1.732 9464
2.207 0.983 1.651 1664
2.327 1.036 1.725 7052
2.443 1.088 1.805 1861
2.368 1.055 1.743 5038
2.484 1.106 1.823 1723
2.366 1.054 1.731 5906
2.483 1.106 1.811 1583
2.364 1.053 1.719 6849
2.487 1.108 1.803 1375
2.369 1.055 1.712 5604
2.485 1.107 1.791 2692
2.471 1.101 1.771 4674
2.354 1.049 1.692 3907
2.494 1.111 1.776 6624
2.377 1.059 1.697 2710
2.505 1.116 1.772 9591
2.387 1.063 1.694 1247
2.509 1.117 1.764 9602
2.392 1.065 1.686 1115
2.501 1.114 1.748 9993
2.518 1.121 1.748 8673
2.636 1.174 1.825 1473
2.528 1.126 1.745 7833
2.646 1.179 1.821 1857
2.570 1.145 1.761 7000
2.451 1.092 1.685 1847
2.580 1.149 1.757 7215
2.462 1.096 1.681 1356
2.597 1.157 1.757 6057
2.478 1.104 1.681 1368
2.620 1.167 1.760 6282
2.501 1.114 1.685 1508
2.637 1.175 1.760 5056
2.518 1.121 1.685 1754
2.654 1.182 1.759 6091
2.535 1.129 1.685 1461
2.658 1.184 1.751 7405
2.778 1.237 1.825 1370
2.656 1.183 1.739 7775
2.776 1.236 1.813 2580
2.654 1.182 1.727 8606
2.774 1.236 1.800 3646
2.665 1.187 1.722 9686
2.791 1.243 1.799 3900
2.675 1.192 1.718 11217
2.802 1.248 1.794 5026
2.680 1.193 1.709 10532
2.813 1.253 1.789 4682
2.697 1.201 1.708 7785
2.817 1.255 1.780 4731
2.707 1.206 1.704 5701
2.828 1.260 1.775 4939
2.820 1.256 1.759 4968
2.699 1.202 1.688 3592
2.818 1.255 1.746 5010
2.690 1.198 1.672 2145
2.822 1.257 1.737 3738
2.694 1.200 1.663 1647
2.884 1.284 1.761 4184
2.762 1.230 1.692 1200
2.895 1.289 1.756 5620
2.773 1.235 1.687 1419
2.937 1.308 1.769 5379
2.815 1.254 1.700 1937
2.948 1.313 1.763 6383
2.826 1.259 1.695 1991
2.953 1.315 1.754 5953
2.830 1.260 1.686 1643
2.989 1.331 1.762 6624
2.866 1.277 1.695 2333
2.993 1.333 1.753 8162
2.998 1.335 1.744 7113
2.995 1.334 1.731 6601
3.119 1.389 1.797 1237
3.006 1.339 1.725 5508
3.130 1.394 1.791 1133
3.056 1.361 1.739 4596
2.932 1.306 1.674 1489
3.086 1.374 1.744 8917
2.963 1.319 1.678 2236
3.097 1.379 1.737 14127
2.973 1.324 1.672 1558
3.101 1.381 1.728 15067
2.977 1.326 1.663 1361
3.106 1.383 1.718 11250
2.981 1.328 1.654 1014
3.136 1.397 1.722 7067
3.012 1.341 1.658 1063
3.153 1.404 1.718 7731
3.157 1.406 1.708 8246
3.168 1.411 1.702 8173
3.179 1.416 1.695 6596
3.236 1.441 1.711 7613
3.111 1.385 1.649 1555
3.240 1.443 1.701 9673
3.238 1.442 1.688 11057
3.235 1.441 1.674 10062
3.361 1.497 1.735 1228
3.246 1.446 1.667 6143
3.392 1.510 1.737 2578
3.256 1.450 1.660 4670
3.396 1.512 1.726 3480
3.267 1.455 1.653 4805
3.393 1.511 1.712 4555
3.384 1.507 1.695 7885
3.258 1.451 1.636 3834
3.395 1.512 1.688 9283
3.268 1.456 1.629 4274
3.399 1.514 1.677 7065
3.272 1.457 1.619 4997
3.417 1.522 1.673 5897
3.577 1.593 1.746 4286
3.414 1.520 1.659 6836
3.541 1.577 1.716 4631
3.431 1.528 1.654 6223
3.559 1.585 1.711 3387
3.529 1.572 1.685 4617
3.402 1.515 1.628 2426
3.527 1.571 1.671 4589
3.654 1.627 1.727 2372
3.618 1.611 1.698 4290
3.490 1.554 1.642 1897
3.615 1.610 1.684 5424
3.743 1.667 1.739 2601
3.626 1.615 1.675 7314
3.754 1.672 1.730 3176
3.657 1.629 1.675 6459
3.785 1.686 1.730 1721
3.675 1.637 1.669 4510
3.803 1.694 1.723 1192
3.726 1.660 1.677 4846
3.598 1.602 1.624 1637
3.744 1.667 1.671 6348
3.615 1.610 1.618 1206
3.755 1.672 1.662 5834
3.759 1.674 1.650 6198
3.942 1.755 1.725 1225
3.749 1.670 1.633 8562
3.878 1.727 1.685 1215
3.753 1.671 1.621 8174
4.038 1.799 1.735 1807
3.771 1.679 1.615 5063
4.043 1.800 1.723 2064
3.802 1.693 1.614 5348
3.999 1.781 1.691 3255
4.003 1.783 1.679 7119
3.799 1.692 1.599 6366
4.014 1.788 1.669 8832
3.796 1.691 1.584 5500
4.032 1.796 1.661 7223
3.800 1.692 1.572 3552
4.043 1.801 1.651 4555
4.173 1.858 1.700 3663
4.108 1.830 1.661 4841
4.238 1.888 1.710 2441
4.160 1.853 1.666 4700
3.941 1.755 1.585 1777
4.178 1.861 1.658 8081
4.308 1.919 1.706 1708
4.196 1.869 1.650 9872
4.326 1.927 1.697 2437
4.200 1.870 1.637 7521
4.330 1.929 1.684 2849
4.197 1.869 1.621 6615
4.328 1.927 1.668 4037
4.215 1.877 1.613 5744
4.346 1.935 1.659 4123
4.370 1.946 1.652 4231
4.239 1.888 1.606 2945
4.381 1.951 1.641 4654
4.250 1.893 1.595 1966
4.454 1.984 1.651 4275
4.220 1.879 1.570 1554
4.458 1.985 1.637 5118
4.327 1.927 1.592 1449
4.462 1.987 1.623 5625
4.331 1.929 1.578 1585
4.466 1.989 1.608 6131
4.335 1.930 1.565 1094
4.470 1.991 1.594 5877
4.615 2.055 1.642 1461
4.467 1.989 1.578 3893
4.751 2.116 1.671 1356
4.471 1.991 1.564 2691
4.804 2.139 1.671 2119
4.801 2.138 1.654 3174
4.481 1.996 1.552 2051
4.805 2.140 1.639 4132
4.951 2.205 1.685 1163
4.823 2.148 1.628 6055
4.955 2.207 1.669 1286
4.820 2.146 1.610 5719
5.001 2.227 1.666 1483
4.796 2.136 1.587 4723
5.005 2.229 1.650 2995
4.814 2.144 1.576 5403
5.002 2.228 1.632 3929
4.824 2.149 1.562 6154
4.992 2.223 1.612 4503
5.003 2.228 1.599 4747
5.135 2.287 1.638 3934
5.118 2.279 1.615 6169
4.986 2.220 1.577 2846
5.129 2.284 1.601 7825
4.996 2.225 1.563 2497
5.140 2.289 1.587 7011
5.007 2.230 1.549 2050
5.151 2.294 1.573 3176
5.319 2.369 1.620 2569
5.386 2.399 1.621 6955
5.022 2.236 1.519 1401
5.383 2.397 1.602 8624
5.516 2.457 1.638 1770
5.394 2.402 1.586 7772
5.405 2.407 1.571 6818
5.840 2.601 1.688 1030
5.409 2.409 1.554 4279
5.852 2.606 1.671 1862
5.419 2.414 1.539 4373
5.834 2.598 1.647 2324
5.423 2.415 1.522 4638
5.824 2.594 1.625 2578
5.427 2.417 1.504 3260
5.842 2.602 1.610 2716
5.867 2.613 1.597 3366
6.199 2.761 1.680 2063
6.196 2.759 1.658 3186
5.885 2.621 1.582 2777
6.193 2.758 1.637 3659
5.889 2.623 1.563 1575
6.204 2.763 1.619 2806
6.409 2.854 1.668 1382
6.406 2.853 1.646 2443
6.271 2.793 1.615 1996
6.424 2.861 1.629 3939
6.289 2.801 1.598 2137
6.435 2.866 1.611 5630
6.300 2.806 1.580 1462
6.439 2.868 1.590 5761
6.240 2.779 1.545 1174
6.435 2.866 1.568 3895
6.719 2.992 1.632 1717
6.468 2.880 1.554 2421
6.723 2.994 1.610 2029
6.478 2.885 1.535 2192
6.705 2.986 1.584 1615
6.482 2.887 1.515 1879
6.638 2.956 1.548 1701
7.004 3.119 1.603 2008
7.139 3.179 1.632 1525
7.129 3.175 1.606 2516
6.994 3.115 1.578 2213
7.119 3.170 1.580 3203
7.467 3.325 1.651 2009
7.122 3.172 1.558 3568
7.478 3.330 1.629 1792
7.133 3.177 1.537 3424
7.582 3.377 1.625 2382
7.600 3.385 1.604 2448
7.137 3.178 1.514 2387
7.611 3.390 1.581 2255
7.155 3.186 1.494 1404
7.836 3.490 1.598 1534
7.664 3.413 1.566 1462
8.160 3.634 1.632 1947
7.847 3.495 1.575 1335
8.214 3.658 1.615 2354
7.686 3.423 1.520 1457
8.218 3.660 1.589 4015
7.690 3.425 1.496 1197
8.215 3.659 1.562 4991
8.219 3.660 1.536 3668
8.222 3.662 1.510 2394
8.233 3.667 1.485 1897
8.201 3.652 1.453 1624
8.204 3.654 1.427 1437
2.105 0.930 1.750 5027
2.110 0.932 1.743 10054
1.998 0.882 1.656 1028
2.114 0.934 1.736 10054
2.002 0.884 1.649 1028
2.118 0.936 1.730 10427
2.122 0.938 1.723 10799
2.133 0.942 1.721 8509
2.251 0.995 1.812 1193
2.137 0.944 1.714 6375
2.262 0.999 1.809 1939
2.141 0.946 1.708 6375
2.266 1.001 1.802 1939
2.145 0.948 1.701 4767
2.265 1.000 1.790 3480
2.269 1.002 1.783 5027
2.131 0.942 1.681 3428
2.280 1.007 1.781 5436
2.153 0.951 1.688 3295
2.290 1.012 1.778 5911
2.158 0.953 1.681 3429
2.294 1.014 1.771 5047
2.168 0.958 1.679 4195
2.178 0.962 1.676 5004
2.299 1.015 1.764 4182
2.182 0.964 1.670 4798
2.303 1.017 1.756 4182
2.307 1.019 1.749 6666
2.192 0.968 1.667 4598
2.312 1.021 1.742 9181
2.196 0.970 1.660 4513
2.316 1.023 1.735 9485
2.200 0.972 1.653 3064
2.326 1.028 1.732 9968
2.442 1.079 1.813 1730
2.330 1.029 1.725 7601
2.447 1.081 1.805 2031
2.402 1.061 1.764 6185
2.286 1.010 1.683 1280
2.376 1.049 1.735 6877
2.492 1.101 1.815 1522
2.380 1.051 1.728 7707
2.497 1.103 1.808 1311
2.378 1.051 1.716 5903
2.495 1.102 1.796 2432
2.469 1.090 1.767 5180
2.351 1.039 1.688 3301
2.498 1.103 1.776 6695
2.380 1.051 1.697 2697
2.508 1.108 1.772 9515
2.391 1.056 1.694 1361
2.506 1.107 1.760 9690
2.504 1.106 1.748 10056
2.521 1.114 1.748 8901
2.639 1.166 1.825 1257
2.532 1.118 1.745 8130
2.650 1.171 1.821 1515
2.573 1.137 1.761 7257
2.455 1.084 1.685 1733
2.584 1.141 1.757 7407
2.465 1.089 1.681 1477
2.595 1.146 1.753 6366
2.476 1.094 1.677 1306
2.618 1.156 1.756 6494
2.498 1.104 1.681 1217
2.616 1.155 1.744 4574
2.735 1.208 1.819 1478
2.658 1.174 1.759 3574
2.538 1.121 1.685 1164
2.662 1.176 1.751 4081
2.782 1.229 1.825 1386
2.660 1.175 1.739 5476
2.780 1.228 1.813 2695
2.658 1.174 1.727 7082
2.778 1.227 1.800 3886
2.675 1.182 1.726 8173
2.795 1.235 1.799 4137
2.679 1.184 1.718 9580
2.806 1.240 1.794 5333
2.690 1.188 1.713 8864
2.810 1.242 1.785 5006
2.700 1.193 1.708 6483
2.821 1.246 1.780 4633
2.711 1.197 1.704 4831
2.832 1.251 1.775 4311
2.823 1.247 1.759 4368
2.702 1.194 1.688 3022
2.821 1.246 1.746 4551
2.687 1.187 1.668 1919
2.832 1.251 1.741 3320
2.954 1.305 1.811 1697
2.901 1.281 1.769 3678
2.779 1.227 1.699 1845
2.905 1.283 1.760 5330
2.783 1.229 1.690 2017
2.941 1.299 1.769 5321
2.819 1.245 1.700 2499
2.952 1.304 1.763 6425
2.830 1.250 1.695 2152
2.963 1.309 1.757 6200
2.840 1.255 1.689 1978
2.993 1.322 1.762 7179
2.870 1.268 1.695 2342
2.997 1.324 1.753 8393
2.874 1.270 1.686 1019
3.002 1.326 1.744 7429
3.006 1.328 1.734 6927
2.883 1.273 1.668 1027
3.023 1.336 1.732 5686
2.900 1.281 1.665 1412
3.047 1.346 1.733 4565
2.923 1.291 1.667 1723
3.090 1.365 1.744 8308
2.966 1.310 1.678 2176
3.101 1.370 1.737 12800
2.977 1.315 1.672 1506
3.105 1.372 1.728 13448
2.981 1.317 1.663 1369
3.110 1.374 1.718 10133
2.985 1.319 1.654 1005
3.114 1.376 1.708 6082
3.125 1.380 1.702 4510
3.142 1.388 1.698 3922
3.192 1.410 1.712 2850
3.223 1.424 1.715 3690
3.097 1.368 1.653 1024
3.234 1.428 1.708 6464
3.238 1.430 1.698 8714
3.235 1.429 1.684 10154
3.361 1.485 1.745 1049
3.239 1.431 1.674 9210
3.365 1.487 1.735 1135
3.250 1.436 1.667 5445
3.389 1.497 1.734 1920
3.261 1.440 1.660 4946
3.394 1.499 1.723 2895
3.271 1.445 1.653 5895
3.398 1.501 1.712 4324
3.382 1.494 1.692 8049
3.256 1.438 1.633 4598
3.393 1.499 1.685 9399
3.266 1.443 1.626 4077
3.404 1.504 1.677 6943
3.277 1.448 1.619 3732
3.428 1.514 1.676 5527
3.555 1.570 1.733 3964
3.419 1.510 1.659 6111
3.546 1.566 1.716 5260
3.537 1.562 1.699 5684
3.409 1.506 1.642 4183
3.534 1.561 1.685 5235
3.406 1.505 1.628 2245
3.531 1.560 1.671 4653
3.659 1.616 1.727 1935
3.623 1.600 1.698 3735
3.495 1.544 1.642 1977
3.620 1.599 1.684 4968
3.748 1.656 1.739 2379
3.631 1.604 1.675 6763
3.759 1.661 1.730 2985
3.662 1.618 1.675 6445
3.790 1.674 1.730 2126
3.680 1.626 1.669 5051
3.808 1.682 1.723 1708
3.738 1.651 1.680 6616
3.609 1.595 1.627 1987
3.749 1.656 1.671 8573
3.620 1.599 1.618 1194
3.760 1.661 1.662 7452
3.757 1.660 1.648 7558
3.754 1.658 1.633 9571
3.758 1.660 1.621 8464
4.044 1.786 1.735 1841
3.776 1.668 1.615 5375
4.041 1.785 1.720 2296
3.807 1.682 1.614 5382
4.025 1.778 1.699 2700
3.804 1.680 1.599 6318
4.009 1.771 1.679 5131
4.026 1.779 1.671 6738
3.801 1.679 1.584 5440
4.044 1.787 1.664 6046
3.914 1.729 1.614 4226
3.932 1.737 1.607 4420
4.137 1.828 1.685 3803
4.114 1.817 1.661 5325
3.943 1.742 1.597 4936
4.104 1.813 1.643 4733
3.947 1.743 1.585 4017
4.184 1.848 1.658 6973
3.950 1.745 1.572 2408
4.208 1.859 1.652 9796
4.339 1.917 1.700 2207
4.206 1.858 1.637 7046
4.336 1.916 1.684 2923
4.189 1.850 1.616 5767
4.320 1.908 1.663 4816
4.324 1.910 1.649 5321
4.193 1.852 1.603 4144
4.300 1.900 1.626 4028
4.431 1.958 1.672 2440
4.387 1.938 1.641 4115
4.256 1.880 1.595 1905
4.460 1.970 1.651 4348
4.329 1.912 1.606 1735
4.464 1.972 1.637 4991
4.333 1.914 1.592 1326
4.468 1.974 1.623 5507
4.337 1.916 1.578 1450
4.472 1.976 1.608 6270
4.604 2.034 1.652 1788
4.476 1.977 1.594 5874
4.615 2.039 1.640 2334
4.473 1.976 1.578 3828
4.612 2.037 1.623 1838
4.477 1.978 1.564 2661
4.789 2.116 1.664 2557
4.793 2.117 1.649 4041
4.487 1.982 1.552 2001
4.804 2.122 1.636 5096
4.822 2.130 1.626 7042
4.812 2.126 1.606 6718
5.000 2.209 1.664 1331
4.795 2.118 1.584 5207
5.004 2.211 1.648 3083
4.813 2.126 1.573 6282
5.008 2.213 1.632 4814
4.824 2.131 1.560 7304
5.005 2.211 1.614 5187
5.009 2.213 1.599 5034
4.814 2.126 1.541 4450
5.125 2.264 1.615 5146
4.810 2.125 1.524 3267
5.136 2.269 1.601 6953
5.003 2.210 1.563 2409
5.140 2.271 1.585 6310
5.273 2.329 1.623 2251
5.305 2.344 1.614 3099
5.151 2.275 1.571 2884
5.407 2.389 1.624 5836
5.260 2.324 1.584 1910
5.390 2.381 1.602 7002
5.250 2.319 1.563 2076
5.394 2.383 1.584 6727
5.239 2.315 1.543 1333
5.412 2.391 1.571 6268
5.848 2.583 1.688 1072
5.409 2.389 1.552 4091
5.866 2.592 1.673 1820
5.427 2.397 1.539 3639
5.835 2.578 1.645 2078
5.437 2.402 1.523 3761
5.825 2.573 1.623 2519
5.441 2.404 1.506 2822
5.843 2.581 1.608 2678
5.854 2.586 1.591 2824
6.200 2.739 1.678 2386
6.204 2.741 1.658 3378
5.893 2.603 1.582 2529
6.208 2.742 1.639 3599
5.904 2.608 1.565 1873
6.212 2.744 1.619 2504
6.007 2.654 1.570 1528
6.421 2.837 1.648 2078
6.280 2.774 1.615 1739
6.432 2.842 1.629 3539
6.291 2.779 1.596 1844
6.443 2.846 1.611 4988
6.266 2.768 1.570 1297
6.447 2.848 1.590 5015
6.738 2.977 1.656 1429
6.451 2.850 1.570 3536
6.728 2.972 1.632 2331
6.725 2.971 1.609 3244
6.533 2.886 1.567 2424
6.721 2.969 1.586 2812
6.480 2.863 1.534 1950
6.704 2.962 1.560 2215
6.477 2.861 1.511 1603
6.722 2.970 1.542 1851
7.504 3.315 1.706 1386
7.508 3.317 1.682 2137
6.740 2.977 1.523 1846
7.491 3.309 1.654 2197
7.135 3.152 1.582 2054
7.132 3.151 1.558 2244
7.474 3.302 1.626 1741
7.592 3.354 1.625 2256
7.143 3.155 1.537 2182
7.617 3.365 1.605 2395
7.146 3.157 1.514 1426
7.628 3.370 1.582 2206
7.814 3.452 1.618 1175
7.846 3.466 1.598 1817
8.146 3.598 1.654 1743
8.171 3.610 1.632 2903
7.857 3.471 1.575 1616
8.168 3.608 1.605 2881
8.025 3.545 1.579 1079
8.222 3.632 1.588 3305
8.226 3.634 1.562 3988
8.230 3.635 1.536 2969
8.233 3.637 1.510 1890
8.258 3.648 1.487 1612
8.212 3.628 1.453 1362
8.215 3.629 1.427 1306
2.108 0.924 1.750 5030
2.112 0.925 1.743 10061
2.000 0.876 1.656 1013
2.117 0.927 1.736 10061
2.004 0.878 1.649 1013
2.121 0.929 1.730 10251
2.125 0.931 1.723 10440
2.129 0.933 1.717 7966
2.278 0.998 1.830 1171
2.140 0.937 1.714 5579
2.277 0.997 1.818 2022
2.144 0.939 1.708 5579
2.281 0.999 1.811 2022
2.148 0.941 1.701 4114
2.274 0.996 1.795 3480
2.278 0.998 1.788 5002
2.134 0.935 1.681 2898
2.283 1.000 1.781 5445
2.156 0.945 1.688 3117
2.287 1.002 1.774 5889
2.161 0.946 1.681 3584
2.297 1.006 1.771 4921
2.171 0.951 1.679 4077
2.181 0.955 1.676 4742
2.302 1.008 1.764 3974
2.191 0.960 1.674 4632
2.306 1.010 1.756 3974
2.310 1.012 1.749 6415
2.195 0.962 1.667 4532
2.315 1.014 1.742 8876
2.199 0.963 1.660 4513
2.319 1.016 1.735 9393
2.203 0.965 1.653 3048
2.329 1.020 1.732 10043
2.445 1.071 1.813 1810
2.334 1.022 1.725 7779
2.450 1.073 1.805 2089
2.411 1.056 1.768 7235
2.295 1.005 1.688 1800
2.403 1.053 1.752 7534
2.520 1.104 1.832 1162
2.395 1.049 1.736 8413
2.512 1.101 1.816 1226
2.387 1.046 1.720 6006
2.505 1.097 1.800 2070
2.472 1.083 1.767 5376
2.355 1.031 1.688 2838
2.495 1.093 1.772 6623
2.377 1.041 1.693 2387
2.505 1.097 1.768 9010
2.388 1.046 1.690 1077
2.510 1.099 1.760 9314
2.514 1.101 1.752 9617
2.525 1.106 1.748 8779
2.643 1.158 1.825 1121
2.535 1.111 1.745 8274
2.654 1.162 1.821 1264
2.577 1.129 1.761 7432
2.458 1.077 1.685 1536
2.581 1.131 1.753 7450
2.462 1.079 1.677 1226
2.598 1.138 1.753 6359
2.479 1.086 1.677 1327
2.621 1.148 1.756 6400
2.502 1.096 1.681 1155
2.619 1.147 1.744 4635
2.739 1.200 1.819 1429
2.624 1.149 1.736 2596
2.743 1.202 1.810 1667
2.741 1.201 1.798 2313
2.621 1.148 1.724 2165
2.746 1.203 1.789 4618
2.626 1.150 1.716 2926
2.744 1.202 1.777 6272
2.624 1.149 1.704 3003
2.678 1.173 1.726 6865
2.799 1.226 1.799 4138
2.683 1.175 1.718 7961
2.810 1.231 1.794 5292
2.693 1.180 1.713 7184
2.821 1.236 1.789 5034
2.704 1.184 1.708 5088
2.825 1.238 1.780 4410
2.714 1.189 1.704 3758
2.836 1.242 1.775 3679
2.827 1.239 1.759 3828
2.706 1.185 1.688 2398
2.825 1.238 1.746 4116
2.947 1.291 1.817 1874
2.830 1.240 1.737 3026
2.951 1.293 1.807 2292
2.911 1.275 1.772 3493
2.789 1.222 1.703 2178
2.909 1.274 1.760 4693
2.787 1.221 1.690 2255
2.945 1.290 1.769 4825
2.823 1.237 1.700 3084
2.956 1.295 1.763 5952
2.834 1.241 1.695 2417
2.967 1.300 1.757 6230
2.844 1.246 1.689 2010
2.991 1.310 1.759 7458
2.868 1.256 1.691 1995
3.002 1.315 1.753 8270
3.006 1.317 1.744 7512
3.010 1.319 1.734 7040
3.034 1.329 1.735 5646
2.910 1.275 1.669 1551
3.051 1.337 1.733 4363
2.927 1.282 1.667 1878
3.101 1.358 1.747 7477
2.977 1.304 1.682 2038
3.105 1.360 1.737 10995
2.981 1.306 1.672 1174
3.103 1.359 1.724 11452
3.107 1.361 1.714 9012
3.112 1.363 1.705 5614
3.109 1.362 1.692 3853
3.113 1.364 1.682 2852
3.238 1.419 1.745 1365
3.210 1.406 1.718 2758
3.084 1.351 1.656 1140
3.240 1.419 1.721 2705
3.231 1.416 1.705 5354
3.229 1.414 1.691 7742
3.355 1.470 1.753 1148
3.240 1.419 1.684 9104
3.366 1.474 1.745 1282
3.244 1.421 1.674 8080
3.370 1.476 1.735 1194
3.261 1.429 1.670 4660
3.387 1.484 1.731 1570
3.265 1.430 1.660 5248
3.392 1.486 1.720 2495
3.269 1.432 1.650 7048
3.396 1.488 1.709 4233
3.387 1.484 1.692 7932
3.260 1.428 1.633 5973
3.391 1.485 1.682 9110
3.264 1.430 1.623 3803
3.402 1.490 1.674 6482
3.529 1.546 1.732 2685
3.439 1.507 1.679 5001
3.566 1.562 1.736 3664
3.530 1.547 1.707 6176
3.403 1.491 1.650 4673
3.541 1.551 1.699 6191
3.414 1.495 1.642 3595
3.539 1.550 1.685 5586
3.411 1.494 1.628 1975
3.536 1.549 1.671 4645
3.664 1.605 1.727 1548
3.534 1.548 1.657 3330
3.661 1.604 1.713 1827
3.618 1.585 1.681 4333
3.747 1.641 1.736 2367
3.636 1.593 1.675 5904
3.764 1.649 1.730 2775
3.667 1.606 1.675 6256
3.796 1.663 1.730 2392
3.685 1.614 1.669 5372
3.813 1.670 1.723 2025
3.743 1.640 1.680 7806
3.614 1.583 1.627 1981
3.754 1.644 1.671 9834
3.625 1.588 1.618 1109
3.758 1.646 1.659 8462
3.762 1.648 1.648 8827
3.759 1.647 1.633 10381
3.763 1.649 1.621 8383
4.049 1.774 1.735 1654
3.795 1.662 1.620 5408
3.924 1.719 1.671 2458
3.812 1.670 1.614 5083
3.942 1.727 1.664 3374
3.932 1.723 1.647 6135
3.802 1.666 1.596 5238
3.936 1.724 1.634 7559
3.806 1.667 1.584 4745
3.933 1.723 1.619 7481
4.063 1.780 1.669 4651
3.937 1.725 1.607 7256
4.129 1.809 1.679 4296
3.948 1.729 1.597 7735
4.113 1.802 1.659 5289
3.952 1.731 1.585 6396
4.110 1.800 1.643 4740
4.210 1.844 1.666 5584
3.956 1.733 1.572 4167
4.214 1.846 1.652 8832
3.953 1.732 1.557 2820
4.211 1.845 1.637 6321
4.342 1.902 1.684 2820
4.188 1.834 1.614 5107
4.319 1.892 1.660 5104
4.323 1.894 1.647 6008
4.192 1.836 1.600 3134
4.320 1.892 1.631 4729
4.451 1.950 1.676 1804
4.310 1.888 1.612 3379
4.441 1.946 1.658 2915
4.459 1.953 1.648 3785
4.328 1.896 1.603 2395
4.463 1.955 1.634 4179
4.332 1.898 1.590 1224
4.481 1.963 1.625 4762
4.613 2.021 1.669 1612
4.478 1.962 1.608 5804
4.617 2.022 1.654 2696
4.482 1.963 1.594 5311
4.614 2.021 1.638 3294
4.479 1.962 1.578 3266
4.618 2.023 1.623 2463
4.782 2.095 1.660 2704
4.483 1.964 1.564 2259
4.786 2.097 1.645 4254
4.494 1.968 1.552 1720
4.804 2.104 1.634 5125
4.815 2.109 1.621 6846
4.996 2.189 1.678 1009
4.798 2.102 1.600 7206
5.000 2.190 1.662 1931
4.795 2.100 1.582 5501
5.004 2.192 1.646 3873
4.813 2.108 1.571 6546
5.015 2.197 1.632 5441
4.816 2.110 1.556 7635
5.019 2.199 1.617 5698
5.023 2.200 1.601 5358
4.813 2.108 1.539 5200
4.810 2.107 1.522 4218
5.027 2.202 1.585 4017
5.143 2.253 1.601 5238
5.276 2.311 1.639 3168
5.147 2.255 1.585 5035
5.280 2.313 1.623 2980
5.305 2.324 1.612 3993
5.151 2.256 1.569 2458
5.415 2.372 1.624 4436
5.281 2.313 1.587 2713
5.405 2.368 1.603 4020
5.264 2.306 1.565 2775
5.401 2.366 1.584 4372
5.268 2.308 1.548 2141
5.412 2.371 1.569 4548
5.279 2.312 1.534 1183
5.430 2.379 1.556 3754
5.860 2.567 1.669 1707
5.434 2.380 1.539 3612
5.907 2.587 1.662 1962
5.918 2.592 1.645 2834
5.459 2.391 1.527 2800
5.851 2.563 1.608 2656
5.448 2.387 1.506 1900
5.862 2.568 1.591 2840
6.201 2.717 1.676 2410
6.213 2.721 1.658 3119
5.908 2.588 1.583 2157
6.217 2.723 1.639 3133
5.912 2.590 1.565 1993
6.221 2.725 1.619 2059
6.008 2.632 1.568 1785
6.416 2.811 1.645 1665
6.189 2.711 1.591 1539
6.448 2.825 1.631 2841
6.285 2.753 1.593 1608
6.452 2.826 1.611 4113
6.261 2.743 1.567 1229
6.456 2.828 1.590 4260
6.754 2.959 1.658 1500
6.460 2.830 1.570 2951
6.730 2.948 1.630 2690
6.734 2.950 1.609 4118
6.542 2.866 1.567 2878
6.724 2.945 1.584 3780
6.546 2.867 1.546 2258
6.720 2.944 1.562 3088
6.891 3.019 1.598 1463
6.731 2.949 1.542 2755
7.522 3.295 1.708 1321
6.749 2.957 1.523 2610
7.519 3.294 1.682 2174
6.760 2.961 1.504 2493
7.516 3.292 1.657 2256
7.470 3.272 1.623 1724
7.619 3.338 1.653 1559
7.616 3.336 1.628 1951
7.152 3.133 1.537 1387
7.642 3.348 1.608 2104
7.506 3.288 1.582 1389
7.653 3.352 1.585 2039
7.846 3.437 1.622 1224
7.857 3.442 1.598 2023
8.164 3.576 1.656 2010
8.175 3.581 1.631 3357
7.882 3.453 1.577 2093
8.179 3.583 1.605 3099
7.900 3.461 1.555 1553
8.240 3.610 1.589 2407
7.997 3.503 1.546 1337
8.237 3.608 1.562 2684
8.234 3.607 1.535 2168
8.245 3.612 1.510 1560
8.262 3.619 1.486 1416
8.223 3.602 1.453 1254
8.226 3.604 1.427 1168
2.112 0.914 1.750 4591
2.117 0.916 1.743 9183
2.121 0.918 1.736 9183
2.125 0.919 1.730 9381
2.124 0.919 1.719 9635
2.128 0.921 1.712 7365
2.283 0.988 1.830 1294
2.126 0.920 1.701 5105
2.287 0.990 1.823 2161
2.130 0.922 1.694 5105
