2.659 4.838 1.491 2975
2.581 4.697 1.451 2773
2.664 4.848 1.477 1855
2.742 4.990 1.517 1835
2.729 4.966 1.493 2545
2.659 4.838 1.458 1783
2.727 4.963 1.475 3580
2.798 5.091 1.509 1837
2.778 5.054 1.482 3027
2.889 5.257 1.536 1709
2.906 5.287 1.526 2632
2.783 5.064 1.467 1884
2.923 5.318 1.516 3457
2.785 5.068 1.450 1321
2.936 5.342 1.503 2961
2.865 5.213 1.470 1586
2.949 5.365 1.491 2531
2.878 5.237 1.458 1910
3.025 5.504 1.507 2575
2.951 5.369 1.473 2196
3.027 5.508 1.489 3206
2.956 5.379 1.457 2306
3.033 5.518 1.472 2201
2.962 5.389 1.441 1899
3.158 5.746 1.508 1843
3.034 5.522 1.454 1597
3.074 5.593 1.452 2240
3.167 5.763 1.492 2004
3.079 5.603 1.435 2762
3.184 5.793 1.479 2638
3.201 5.824 1.466 2940
3.074 5.593 1.413 2082
3.214 5.848 1.452 3543
3.326 6.052 1.498 1918
3.234 5.885 1.440 3779
3.328 6.055 1.478 2561
3.229 5.875 1.418 2905
3.333 6.065 1.460 2404
3.463 6.301 1.490 2785
3.358 6.110 1.448 2157
3.468 6.311 1.470 2724
3.378 6.147 1.435 2239
3.403 6.191 1.424 2972
3.478 6.328 1.452 2063
3.408 6.201 1.405 3819
3.483 6.338 1.433 1969
3.414 6.212 1.385 3251
3.485 6.341 1.412 2639
3.487 6.345 1.391 2743
3.682 6.700 1.461 2567
3.583 6.519 1.403 2694
3.722 6.772 1.453 2180
3.577 6.508 1.379 2185
3.682 6.700 1.416 1975
3.688 6.710 1.395 2493
3.759 6.840 1.419 1760
3.765 6.850 1.398 2163
3.629 6.603 1.352 1998
3.770 6.860 1.377 2032
3.872 7.045 1.410 1471
3.990 7.261 1.425 1528
3.772 6.863 1.354 1516
3.954 7.195 1.389 2180
4.056 7.381 1.421 1200
3.960 7.205 1.366 1724
4.099 7.459 1.410 1306
4.097 7.456 1.384 1733
4.111 7.479 1.362 1549
4.243 7.720 1.402 1161
4.120 7.496 1.340 1376
4.554 8.286 1.467 1249
4.556 8.290 1.440 1348
4.569 8.314 1.416 1289
4.388 7.984 1.365 1136
4.556 8.289 1.384 1580
4.385 7.980 1.337 1184
4.554 8.286 1.355 1969
4.380 7.969 1.309 1225
4.555 8.289 1.328 2020
4.476 8.144 1.307 1012
4.557 8.292 1.300 1636
1.002 1.811 1.583 2836
1.004 1.815 1.578 5673
1.088 1.967 1.702 1917
1.009 1.824 1.576 5632
1.090 1.971 1.695 1917
1.011 1.828 1.570 5676
1.096 1.981 1.693 2677
1.013 1.832 1.564 5741
1.098 1.985 1.687 3461
1.021 1.847 1.567 4572
1.097 1.983 1.676 3553
1.036 1.873 1.579 3841
1.099 1.987 1.669 3690
1.035 1.871 1.569 4195
1.101 1.991 1.663 3580
1.034 1.869 1.558 4814
1.113 2.012 1.670 3324
1.036 1.873 1.552 4814
1.131 2.045 1.686 4137
1.038 1.876 1.546 4244
1.133 2.049 1.679 3707
1.040 1.880 1.540 3674
1.145 2.070 1.685 3444
1.163 2.103 1.701 4529
1.083 1.958 1.591 3772
1.165 2.107 1.694 6460
1.085 1.962 1.585 3973
1.167 2.111 1.687 7626
1.090 1.972 1.583 3794
1.169 2.114 1.680 8793
1.092 1.975 1.576 3616
1.168 2.113 1.669 8686
1.091 1.973 1.565 2849
1.167 2.111 1.658 8896
1.061 1.919 1.516 2427
1.169 2.115 1.651 9214
1.073 1.940 1.523 2436
1.168 2.113 1.640 7436
1.075 1.943 1.516 2471
1.183 2.140 1.650 6134
1.080 1.952 1.514 2078
1.189 2.150 1.647 7258
1.085 1.962 1.512 1713
1.191 2.153 1.640 8391
1.090 1.971 1.510 1573
1.190 2.151 1.629 8718
1.095 1.981 1.508 1142
1.192 2.155 1.622 9179
1.197 2.165 1.619 10756
1.203 2.174 1.616 13097
1.205 2.178 1.609 13307
1.207 2.182 1.602 13517
1.209 2.186 1.594 11227
1.214 2.195 1.591 9102
1.216 2.199 1.584 7882
1.225 2.215 1.585 6186
1.227 2.218 1.578 5446
1.239 2.240 1.582 5297
1.319 2.384 1.677 1180
1.224 2.214 1.555 5103
1.351 2.442 1.705 1634
1.243 2.247 1.568 4926
1.353 2.446 1.697 2793
1.248 2.257 1.564 4966
1.355 2.450 1.689 3189
1.250 2.261 1.557 4368
1.361 2.460 1.685 2988
1.252 2.264 1.550 3770
1.366 2.470 1.681 2915
1.368 2.474 1.672 4152
1.251 2.262 1.538 2725
1.370 2.478 1.664 5389
1.253 2.265 1.531 2036
1.373 2.482 1.656 5901
1.258 2.275 1.527 2331
1.378 2.492 1.652 6935
1.442 2.608 1.724 2414
1.384 2.502 1.647 7633
1.448 2.618 1.719 2664
1.386 2.506 1.639 6721
1.450 2.622 1.710 3793
1.432 2.589 1.679 7630
1.368 2.473 1.609 4524
1.414 2.556 1.649 7029
1.478 2.673 1.719 1686
1.426 2.578 1.651 7228
1.491 2.695 1.721 1217
1.438 2.601 1.654 8546
1.374 2.484 1.584 1723
1.447 2.617 1.653 9208
1.512 2.734 1.722 2153
1.460 2.639 1.655 7142
1.395 2.522 1.586 2792
1.482 2.680 1.668 5698
1.417 2.563 1.600 4235
1.484 2.684 1.659 6118
1.419 2.567 1.591 2898
1.483 2.682 1.647 6659
1.548 2.799 1.714 1815
1.485 2.686 1.638 6610
1.550 2.803 1.705 2161
1.487 2.689 1.629 5807
1.553 2.807 1.696 1955
1.493 2.699 1.624 5234
1.558 2.818 1.690 1805
1.526 2.759 1.646 6861
1.591 2.878 1.712 2345
1.532 2.769 1.640 8079
1.597 2.888 1.706 3428
1.537 2.779 1.635 9154
1.603 2.898 1.700 4817
1.539 2.783 1.626 8868
1.608 2.908 1.694 5327
1.566 2.831 1.640 7780
1.631 2.950 1.704 2930
1.571 2.841 1.634 6487
1.637 2.960 1.698 3515
1.601 2.895 1.652 7616
1.667 3.014 1.715 2514
1.596 2.886 1.635 9811
1.662 3.006 1.698 4591
1.602 2.896 1.629 8181
1.668 3.016 1.692 4842
1.660 3.001 1.672 8182
1.594 2.881 1.610 4216
1.679 3.037 1.679 9201
1.613 2.917 1.617 2713
1.685 3.047 1.672 8545
1.619 2.927 1.610 2574
1.687 3.051 1.662 9769
1.621 2.930 1.601 1815
1.693 3.061 1.655 9684
1.626 2.940 1.594 1526
1.699 3.071 1.648 6598
1.632 2.951 1.588 1538
1.711 3.094 1.647 4211
1.717 3.104 1.640 3467
1.715 3.102 1.627 4567
1.718 3.106 1.617 5921
1.785 3.227 1.676 1187
1.748 3.160 1.631 4802
1.750 3.164 1.621 3947
1.734 3.136 1.595 4379
1.802 3.258 1.653 1503
1.747 3.159 1.594 5091
1.814 3.281 1.651 1875
1.756 3.175 1.590 6023
1.824 3.297 1.646 1671
1.769 3.198 1.588 6519
1.840 3.327 1.647 2786
1.789 3.234 1.592 9509
1.856 3.356 1.648 3857
1.798 3.251 1.587 9457
1.866 3.373 1.643 4126
1.807 3.267 1.582 6629
1.875 3.390 1.637 4365
1.873 3.387 1.623 5104
1.806 3.265 1.569 4017
1.872 3.385 1.609 4620
1.804 3.262 1.555 3028
1.870 3.382 1.595 4786
1.802 3.259 1.542 1890
1.876 3.392 1.587 4733
1.804 3.263 1.531 1418
1.900 3.435 1.593 5946
1.831 3.311 1.540 1334
1.905 3.445 1.584 6333
1.837 3.322 1.532 1523
1.893 3.423 1.562 5887
1.961 3.546 1.614 1456
1.895 3.426 1.551 5445
1.970 3.563 1.608 1872
1.933 3.495 1.566 3360
1.949 3.525 1.565 4764
2.018 3.648 1.616 1220
1.966 3.554 1.564 6739
1.897 3.430 1.514 1585
1.975 3.571 1.558 8372
1.906 3.447 1.508 1946
1.981 3.581 1.549 8690
2.049 3.705 1.598 2131
1.993 3.604 1.545 6695
2.062 3.729 1.594 2063
1.999 3.615 1.536 3281
2.068 3.739 1.584 1199
2.030 3.671 1.544 3055
2.099 3.795 1.592 1037
2.036 3.681 1.534 4267
2.105 3.805 1.582 1777
2.041 3.691 1.525 3559
2.110 3.816 1.572 1671
2.083 3.767 1.540 3931
2.152 3.892 1.587 1589
2.129 3.849 1.557 5418
2.060 3.724 1.510 2633
2.124 3.840 1.539 8498
2.193 3.965 1.586 1459
2.122 3.837 1.524 8717
2.202 3.982 1.577 2739
2.106 3.807 1.500 4115
2.208 3.992 1.567 3305
2.214 4.002 1.556 3446
2.100 3.797 1.482 2628
2.205 3.986 1.536 4220
2.135 3.860 1.491 1819
2.203 3.983 1.520 4929
2.133 3.857 1.476 1411
2.219 4.013 1.516 4586
2.289 4.139 1.560 1662
2.251 4.070 1.521 3916
2.170 3.924 1.471 1361
2.256 4.080 1.510 5240
2.326 4.206 1.553 1995
2.317 4.190 1.532 4452
2.247 4.063 1.490 3480
2.319 4.193 1.519 3751
2.249 4.067 1.477 2562
2.321 4.197 1.505 3136
2.391 4.323 1.546 1835
2.375 4.293 1.521 3949
2.305 4.167 1.480 1597
2.380 4.304 1.509 4017
2.450 4.430 1.550 1310
2.386 4.314 1.497 3475
2.456 4.441 1.538 1746
2.402 4.344 1.491 2715
2.484 4.491 1.538 2251
2.408 4.354 1.479 4113
2.486 4.494 1.523 2559
2.469 4.464 1.498 4174
2.399 4.337 1.459 2811
2.478 4.481 1.487 4727
2.567 4.642 1.536 1919
2.554 4.619 1.513 4414
2.484 4.491 1.474 2729
2.560 4.629 1.499 6427
2.490 4.502 1.461 1867
2.566 4.639 1.486 6726
2.659 4.807 1.535 3158
2.571 4.649 1.473 5811
2.664 4.817 1.521 4004
2.577 4.659 1.459 4503
2.670 4.827 1.507 4184
2.746 4.965 1.529 3328
2.594 4.690 1.451 3246
2.744 4.962 1.511 2898
2.674 4.834 1.475 1622
2.743 4.959 1.493 3100
2.672 4.831 1.458 1606
2.741 4.956 1.475 3755
2.812 5.084 1.509 1818
2.791 5.047 1.482 3336
2.910 5.262 1.540 1667
2.920 5.280 1.526 2777
2.804 5.070 1.470 2210
2.926 5.290 1.510 3233
2.802 5.067 1.452 1380
2.954 5.341 1.505 2671
2.883 5.212 1.472 1632
2.963 5.358 1.491 2801
2.892 5.229 1.458 1713
3.040 5.496 1.507 2617
2.965 5.361 1.473 2363
3.042 5.500 1.489 3180
2.971 5.371 1.457 2077
3.036 5.490 1.467 2159
2.965 5.361 1.436 1543
3.034 5.486 1.447 1684
3.173 5.737 1.508 1558
3.089 5.585 1.452 2278
3.179 5.747 1.490 2104
3.199 5.785 1.479 2702
3.090 5.588 1.433 2547
3.224 5.829 1.470 3055
3.085 5.578 1.412 2164
3.233 5.846 1.453 3643
3.342 6.043 1.498 1866
3.250 5.876 1.440 4361
3.344 6.046 1.478 2568
3.244 5.866 1.418 3271
3.350 6.057 1.460 2486
3.483 6.298 1.491 2699
3.370 6.094 1.447 1989
3.485 6.302 1.470 2680
3.395 6.138 1.435 2324
3.419 6.182 1.424 2953
3.498 6.325 1.454 2278
3.425 6.192 1.405 3516
3.500 6.329 1.433 2382
3.498 6.325 1.410 2993
3.427 6.196 1.384 2718
3.500 6.328 1.389 2711
3.715 6.717 1.467 2232
3.740 6.762 1.453 2259
3.600 6.509 1.403 2129
3.666 6.628 1.404 1854
3.594 6.499 1.379 1771
3.653 6.604 1.377 2138
3.724 6.734 1.401 1395
3.647 6.594 1.352 2174
3.783 6.840 1.398 1607
3.940 7.124 1.426 1629
3.788 6.850 1.377 1614
3.953 7.147 1.406 1701
3.790 6.853 1.354 1238
3.974 7.185 1.389 2270
4.087 7.390 1.425 1061
3.979 7.195 1.366 1860
4.112 7.435 1.407 1265
4.114 7.438 1.383 1658
4.261 7.705 1.428 1056
4.263 7.708 1.402 1466
4.123 7.455 1.360 1300
4.265 7.712 1.376 1382
4.144 7.492 1.341 1237
4.407 7.969 1.391 1117
4.574 8.271 1.439 1089
4.405 7.965 1.364 1300
4.576 8.274 1.411 1052
4.578 8.277 1.384 1430
4.403 7.961 1.336 1069
4.576 8.273 1.355 1731
4.574 8.270 1.327 1665
4.501 8.139 1.308 1062
4.579 8.279 1.300 1309
1.024 1.828 1.602 3055
1.026 1.832 1.596 6110
1.099 1.961 1.702 1982
1.028 1.836 1.590 6110
1.101 1.965 1.695 1982
1.021 1.823 1.570 5371
1.106 1.975 1.693 2769
1.023 1.826 1.564 4948
1.109 1.979 1.687 3559
1.108 1.977 1.676 3683
1.025 1.830 1.558 3577
1.068 1.907 1.611 4037
1.129 2.015 1.696 2346
1.064 1.900 1.596 3725
1.125 2.008 1.681 3068
1.057 1.886 1.576 4142
1.124 2.006 1.670 3488
1.059 1.890 1.570 4142
1.139 2.033 1.681 4123
1.141 2.037 1.674 3715
1.051 1.876 1.551 3479
1.088 1.943 1.593 3411
1.156 2.064 1.685 3362
1.178 2.102 1.705 5233
1.091 1.947 1.587 3553
1.177 2.100 1.694 7333
1.096 1.956 1.585 3844
1.179 2.104 1.687 8116
1.101 1.966 1.583 3693
1.181 2.108 1.680 8899
1.103 1.969 1.576 3556
1.183 2.112 1.673 8881
1.102 1.967 1.565 2898
1.182 2.110 1.662 9147
1.098 1.959 1.550 2563
1.178 2.102 1.646 9741
1.090 1.945 1.531 2238
1.177 2.100 1.635 7861
1.085 1.937 1.516 2147
1.175 2.098 1.624 6268
1.090 1.947 1.514 1817
1.197 2.137 1.643 6658
1.099 1.962 1.516 1570
1.203 2.147 1.640 7651
1.101 1.965 1.510 1423
1.202 2.145 1.629 9030
1.106 1.975 1.508 1090
1.204 2.149 1.622 10415
1.209 2.158 1.619 11582
1.214 2.168 1.616 13361
1.217 2.172 1.609 13331
1.219 2.175 1.602 13302
1.221 2.179 1.594 11210
1.223 2.183 1.587 9119
1.228 2.192 1.584 8123
1.237 2.208 1.585 6605
1.236 2.206 1.574 5683
1.234 2.203 1.563 5637
1.375 2.455 1.729 1092
1.236 2.207 1.555 5597
1.364 2.435 1.705 1717
1.252 2.235 1.564 4999
1.363 2.433 1.693 2669
1.257 2.244 1.560 4908
1.362 2.431 1.681 3053
1.259 2.248 1.553 4248
1.364 2.435 1.673 2786
1.261 2.251 1.546 3588
1.366 2.439 1.665 2518
1.263 2.255 1.538 2901
1.375 2.454 1.665 2712
1.384 2.470 1.664 3083
1.265 2.259 1.531 2470
1.386 2.474 1.656 3902
1.271 2.268 1.527 2790
1.388 2.478 1.648 5354
1.453 2.594 1.720 2652
1.394 2.488 1.644 6009
1.459 2.604 1.715 3084
1.382 2.468 1.621 6160
1.447 2.583 1.692 5872
1.446 2.581 1.679 7303
1.381 2.465 1.609 4658
1.438 2.567 1.660 6929
1.373 2.451 1.590 1361
1.447 2.583 1.659 6575
1.382 2.467 1.589 1895
1.459 2.605 1.661 7816
1.394 2.489 1.592 2478
1.465 2.615 1.656 8139
1.400 2.498 1.587 2197
1.474 2.631 1.655 6710
1.409 2.514 1.586 2088
1.483 2.647 1.653 5156
1.418 2.530 1.585 1781
1.496 2.670 1.655 5715
1.430 2.553 1.588 1551
1.498 2.674 1.647 6751
1.563 2.791 1.714 1555
1.496 2.671 1.634 7023
1.562 2.789 1.701 1838
1.499 2.675 1.625 6160
1.564 2.793 1.692 1565
1.504 2.685 1.620 5384
1.570 2.803 1.686 1873
1.513 2.701 1.618 5825
1.611 2.875 1.715 1936
1.550 2.767 1.644 7330
1.616 2.885 1.709 2785
1.552 2.771 1.635 9350
1.619 2.889 1.700 4364
1.551 2.769 1.622 9790
1.624 2.900 1.694 5011
1.560 2.785 1.620 8237
1.626 2.903 1.684 5467
1.576 2.814 1.624 6743
1.643 2.932 1.688 5618
1.613 2.880 1.648 7374
1.680 2.999 1.712 3551
1.612 2.878 1.635 9970
1.679 2.997 1.698 5154
1.614 2.881 1.626 8259
1.681 3.001 1.689 5001
1.666 2.973 1.662 8017
1.599 2.854 1.600 3162
1.696 3.027 1.679 8559
1.629 2.908 1.617 2561
1.705 3.044 1.675 8159
1.635 2.918 1.610 2496
1.704 3.041 1.662 9414
1.637 2.922 1.601 1727
1.710 3.052 1.655 9353
1.642 2.932 1.594 1324
1.722 3.075 1.654 6973
1.655 2.954 1.594 1689
1.728 3.085 1.647 5101
1.734 3.095 1.640 4464
1.732 3.092 1.627 5621
1.738 3.102 1.620 7818
1.747 3.119 1.616 7012
1.756 3.135 1.612 4651
1.755 3.133 1.598 4693
1.823 3.254 1.656 1052
1.761 3.143 1.591 5006
1.829 3.264 1.648 1438
1.781 3.179 1.596 5304
1.852 3.307 1.655 1565
1.797 3.208 1.597 6611
1.865 3.330 1.653 3013
1.806 3.224 1.592 9368
1.875 3.346 1.648 4265
1.816 3.241 1.587 9375
1.884 3.363 1.643 4288
1.821 3.251 1.580 6778
1.890 3.373 1.635 4910
1.888 3.371 1.621 5817
1.820 3.248 1.566 3966
1.890 3.374 1.609 5614
1.822 3.252 1.555 3176
1.892 3.378 1.598 5085
1.824 3.256 1.545 1941
1.898 3.388 1.590 4874
1.915 3.418 1.590 6670
1.924 3.434 1.584 6229
1.855 3.311 1.532 1392
1.908 3.406 1.559 5401
1.977 3.529 1.611 1818
1.913 3.416 1.551 5957
1.983 3.539 1.602 1994
1.923 3.432 1.545 4119
1.999 3.569 1.601 1551
1.958 3.494 1.557 3787
2.034 3.631 1.614 1583
1.989 3.550 1.567 5339
1.919 3.426 1.517 2014
1.994 3.560 1.558 7238
2.064 3.684 1.608 2303
1.996 3.564 1.546 8058
2.066 3.688 1.596 2827
2.013 3.594 1.545 6570
2.083 3.718 1.594 2368
2.019 3.604 1.536 3493
2.088 3.728 1.584 1922
2.065 3.686 1.554 3203
2.067 3.689 1.542 4482
2.076 3.706 1.535 4396
2.100 3.749 1.537 4032
2.170 3.873 1.585 1344
2.146 3.831 1.555 4876
2.076 3.706 1.508 2082
2.144 3.828 1.539 8126
2.214 3.953 1.586 1530
2.146 3.832 1.527 8693
2.220 3.963 1.575 3132
2.145 3.829 1.512 4016
2.226 3.973 1.564 3772
2.228 3.977 1.551 3684
2.117 3.779 1.480 2248
2.223 3.967 1.533 4374
2.152 3.842 1.489 1482
2.221 3.964 1.518 4501
2.291 4.090 1.562 1978
2.241 4.001 1.516 3741
2.312 4.127 1.560 1903
2.273 4.057 1.521 4172
2.188 3.905 1.469 1138
2.275 4.061 1.508 4766
2.345 4.187 1.551 2414
2.340 4.177 1.532 4932
2.269 4.051 1.490 3215
2.342 4.180 1.519 4354
2.271 4.055 1.477 2373
2.340 4.177 1.503 3456
2.411 4.303 1.544 1879
2.349 4.194 1.493 3112
2.420 4.320 1.534 1850
2.411 4.304 1.514 3343
2.340 4.178 1.473 1550
2.413 4.307 1.499 3434
2.484 4.434 1.540 1832
2.426 4.331 1.491 3520
2.508 4.477 1.538 2332
2.432 4.341 1.479 4790
2.503 4.468 1.519 2268
2.486 4.438 1.494 5145
2.415 4.311 1.455 2216
2.495 4.454 1.483 5269
2.604 4.648 1.542 2132
2.580 4.605 1.513 5018
2.508 4.478 1.474 3094
2.582 4.608 1.497 5912
2.510 4.481 1.459 2224
2.628 4.692 1.506 5846
2.700 4.819 1.543 2022
2.634 4.702 1.492 5358
2.705 4.829 1.529 3275
2.621 4.679 1.469 4343
2.692 4.806 1.505 3973
2.769 4.944 1.527 3645
2.619 4.675 1.451 3500
2.771 4.947 1.511 3537
2.700 4.820 1.475 1675
2.773 4.951 1.495 3442
2.702 4.823 1.459 1671
2.771 4.947 1.476 3412
2.896 5.169 1.537 1921
2.822 5.038 1.484 3364
2.898 5.173 1.520 2649
2.900 5.176 1.503 2865
2.828 5.048 1.469 2060
2.943 5.254 1.505 3060
2.800 4.998 1.438 1448
2.986 5.331 1.507 3037
3.066 5.473 1.543 1608
2.988 5.335 1.489 3707
3.083 5.503 1.532 1812
2.994 5.345 1.473 2765
3.070 5.480 1.507 2543
3.064 5.470 1.485 3132
2.992 5.341 1.454 1837
3.062 5.466 1.466 2168
2.983 5.324 1.431 1323
3.049 5.443 1.441 1656
3.121 5.571 1.472 1560
3.206 5.723 1.489 2197
3.123 5.574 1.453 1848
3.272 5.842 1.497 2806
3.200 5.713 1.467 2080
3.263 5.825 1.473 3337
3.111 5.554 1.410 1935
3.269 5.835 1.455 3731
3.117 5.564 1.393 1678
3.282 5.859 1.440 4906
3.381 6.035 1.480 2182
3.280 5.855 1.419 3550
3.386 6.045 1.461 2219
3.517 6.279 1.491 2222
3.407 6.082 1.448 1949
3.428 6.120 1.435 2262
3.527 6.296 1.473 2223
3.453 6.164 1.424 2418
3.536 6.313 1.455 2126
3.455 6.167 1.403 2637
3.535 6.310 1.433 2299
3.533 6.306 1.410 2847
3.460 6.177 1.384 1890
3.534 6.309 1.389 2454
3.755 6.704 1.468 1847
3.776 6.741 1.453 1941
3.639 6.496 1.404 1672
3.698 6.602 1.403 1761
3.626 6.472 1.378 1383
3.692 6.591 1.378 2074
3.975 7.095 1.474 1305
3.686 6.581 1.354 1947
3.977 7.099 1.450 1548
3.982 7.109 1.428 1777
3.680 6.570 1.329 1315
3.992 7.126 1.406 1839
3.820 6.819 1.351 1109
4.017 7.170 1.390 2066
4.022 7.180 1.367 1915
4.137 7.385 1.403 1375
4.150 7.409 1.381 1405
4.303 7.682 1.428 1141
4.305 7.685 1.402 1672
4.307 7.688 1.376 1501
4.460 7.962 1.421 1124
4.458 7.958 1.393 1311
4.448 7.941 1.364 1328
4.602 8.215 1.406 1017
4.619 8.245 1.383 1247
4.621 8.248 1.355 1492
4.619 8.245 1.327 1306
4.546 8.114 1.308 1129
1.032 1.831 1.607 3234
1.035 1.835 1.601 6468
1.107 1.964 1.706 1889
1.037 1.839 1.595 6468
1.110 1.968 1.700 1889
1.039 1.842 1.589 4869
1.112 1.972 1.693 2682
1.028 1.823 1.564 3777
1.114 1.976 1.687 3476
1.072 1.901 1.617 3912
1.132 2.008 1.703 2194
1.071 1.899 1.606 4490
1.131 2.006 1.692 2659
1.069 1.897 1.596 4738
1.130 2.005 1.681 3021
1.065 1.889 1.581 5356
1.129 2.003 1.670 3436
1.067 1.893 1.574 5356
1.144 2.030 1.681 3973
1.069 1.896 1.568 4091
1.147 2.034 1.674 3696
1.181 2.095 1.712 3808
1.058 1.877 1.544 3339
1.180 2.093 1.701 5630
1.096 1.944 1.587 3307
1.182 2.097 1.694 7560
1.101 1.953 1.585 3509
1.185 2.101 1.687 8001
1.107 1.963 1.583 3363
1.190 2.111 1.684 8536
1.112 1.972 1.580 3271
1.189 2.109 1.673 8489
1.111 1.970 1.570 2733
1.185 2.101 1.658 9054
1.103 1.956 1.550 2531
1.184 2.099 1.646 10033
1.102 1.954 1.540 2110
1.182 2.097 1.635 8069
1.100 1.952 1.529 1734
1.181 2.095 1.624 6443
1.109 1.967 1.531 1651
1.203 2.134 1.643 6268
1.108 1.965 1.521 1493
1.205 2.138 1.636 7133
1.110 1.968 1.514 1329
1.207 2.141 1.629 8795
1.112 1.972 1.508 1043
1.210 2.145 1.622 10457
1.215 2.155 1.619 11327
1.217 2.159 1.612 12686
1.219 2.162 1.605 12624
1.221 2.166 1.597 12562
1.227 2.176 1.594 10882
1.229 2.179 1.587 9306
1.234 2.189 1.584 8242
1.240 2.199 1.581 6783
1.232 2.184 1.562 6268
1.240 2.200 1.563 5990
1.365 2.421 1.709 1154
1.242 2.204 1.555 5930
1.371 2.431 1.705 1645
1.248 2.213 1.552 4945
1.366 2.423 1.689 2276
1.257 2.229 1.553 4321
1.362 2.415 1.673 2753
1.262 2.238 1.549 3872
1.364 2.419 1.665 2653
1.264 2.242 1.542 3426
1.369 2.429 1.661 2595
1.266 2.246 1.534 2798
1.365 2.420 1.646 2478
1.364 2.418 1.634 2763
1.268 2.249 1.527 2275
1.369 2.428 1.630 3008
1.274 2.259 1.523 2430
1.381 2.450 1.633 4270
1.446 2.565 1.705 3187
1.384 2.454 1.625 5357
1.449 2.569 1.696 4170
1.389 2.464 1.621 6003
1.454 2.579 1.692 5406
1.450 2.571 1.676 6960
1.384 2.455 1.605 4356
1.448 2.569 1.663 6711
1.383 2.453 1.593 1971
1.464 2.597 1.670 6302
1.399 2.481 1.600 3766
1.470 2.607 1.665 7360
1.404 2.491 1.595 2922
1.476 2.617 1.660 7241
1.410 2.501 1.591 2375
1.485 2.633 1.658 6479
1.419 2.517 1.590 1955
1.487 2.637 1.650 5494
1.553 2.754 1.718 2079
1.500 2.659 1.652 5747
1.565 2.776 1.720 1219
1.502 2.663 1.643 6915
1.568 2.780 1.710 1464
1.504 2.667 1.634 7472
1.570 2.784 1.701 1681
1.506 2.671 1.625 6499
1.572 2.788 1.692 1392
1.512 2.681 1.620 5300
1.578 2.798 1.686 2046
1.517 2.691 1.615 5373
1.584 2.809 1.681 2627
1.561 2.769 1.647 6756
1.628 2.887 1.713 2326
1.560 2.767 1.635 9182
1.627 2.885 1.700 3841
1.559 2.764 1.622 10303
1.625 2.883 1.687 4611
1.564 2.774 1.616 8949
1.631 2.893 1.681 5440
1.577 2.797 1.617 7211
1.644 2.915 1.681 6370
1.642 2.913 1.668 7006
1.575 2.794 1.605 5172
1.616 2.867 1.632 9233
1.683 2.986 1.695 5891
1.661 2.946 1.662 8329
1.594 2.827 1.600 4504
1.667 2.956 1.656 8168
1.599 2.837 1.594 2714
1.708 3.029 1.682 7360
1.641 2.910 1.620 2715
1.721 3.052 1.682 7521
1.643 2.913 1.610 2532
1.712 3.037 1.662 8910
1.645 2.917 1.601 1787
1.718 3.047 1.655 9304
1.650 2.927 1.594 1281
1.731 3.070 1.654 6846
1.663 2.950 1.594 1525
1.737 3.080 1.647 5142
1.742 3.090 1.640 4736
1.741 3.088 1.627 6032
1.747 3.098 1.620 9035
1.756 3.114 1.616 8976
1.762 3.124 1.609 5779
1.767 3.134 1.601 5095
1.784 3.164 1.603 5081
1.807 3.206 1.610 5217
1.876 3.327 1.667 1157
1.810 3.209 1.600 6972
1.878 3.331 1.656 3091
1.815 3.219 1.592 9081
1.884 3.341 1.648 4476
1.821 3.230 1.584 8850
1.890 3.351 1.640 4138
1.827 3.240 1.577 6822
1.895 3.362 1.632 4683
1.890 3.353 1.615 6586
1.821 3.230 1.560 4560
1.900 3.369 1.609 6490
1.831 3.247 1.555 3689
1.902 3.373 1.598 5254
1.833 3.250 1.545 2239
1.911 3.389 1.593 4749
1.842 3.267 1.539 1318
1.924 3.412 1.590 6565
1.933 3.429 1.584 5849
1.864 3.306 1.532 1215
1.917 3.400 1.559 4931
1.987 3.523 1.611 2038
1.923 3.410 1.551 5833
1.992 3.534 1.602 2135
1.932 3.427 1.545 4715
2.009 3.563 1.601 1807
1.960 3.476 1.552 3877
2.040 3.619 1.611 1934
2.002 3.551 1.570 4171
1.933 3.428 1.519 2360
2.004 3.555 1.558 6017
2.074 3.678 1.608 2537
2.006 3.558 1.546 7181
2.076 3.682 1.596 2950
2.023 3.588 1.545 5984
2.093 3.712 1.594 2522
2.025 3.591 1.533 3215
2.095 3.715 1.582 2848
2.082 3.693 1.559 3638
2.012 3.569 1.511 1316
2.084 3.697 1.547 4985
2.014 3.572 1.499 1230
2.090 3.707 1.537 5360
2.092 3.710 1.525 4525
2.162 3.835 1.572 1710
2.153 3.819 1.552 3912
2.083 3.694 1.505 1986
2.155 3.822 1.539 7194
2.225 3.947 1.586 1656
2.157 3.826 1.527 8257
2.231 3.957 1.575 3385
2.166 3.842 1.519 4308
2.237 3.967 1.564 4231
2.235 3.964 1.549 4079
2.165 3.839 1.504 2337
2.230 3.955 1.531 4173
2.159 3.830 1.486 1384
2.228 3.952 1.516 3620
2.299 4.077 1.560 2435
2.301 4.080 1.546 3786
2.230 3.955 1.502 2004
2.284 4.051 1.521 3827
2.355 4.176 1.565 1055
2.286 4.055 1.508 3592
2.357 4.180 1.551 2329
2.348 4.164 1.530 4855
2.277 4.038 1.488 2335
2.350 4.167 1.516 4431
2.279 4.042 1.474 1625
2.333 4.138 1.492 4085
2.404 4.264 1.533 2434
2.354 4.174 1.489 2785
2.425 4.300 1.530 1782
2.419 4.291 1.511 3129
2.348 4.164 1.471 1279
2.425 4.301 1.499 3791
2.496 4.427 1.540 1849
2.434 4.317 1.489 3428
2.506 4.444 1.529 2138
2.444 4.334 1.479 4293
2.515 4.461 1.519 2242
2.498 4.431 1.494 5662
2.427 4.304 1.455 1855
2.504 4.441 1.481 5070
2.617 4.641 1.542 2316
2.600 4.611 1.517 4901
2.528 4.484 1.478 2972
2.594 4.601 1.497 5044
2.666 4.728 1.535 2272
2.645 4.691 1.508 6440
2.743 4.865 1.559 1364
2.651 4.701 1.494 6378
2.768 4.909 1.554 2907
2.774 4.919 1.540 4393
2.638 4.678 1.471 4384
2.776 4.923 1.524 4231
2.628 4.661 1.449 3360
2.785 4.939 1.511 4048
2.713 4.812 1.475 1709
2.791 4.950 1.497 4005
2.904 5.151 1.552 2011
2.793 4.953 1.480 3339
2.906 5.154 1.535 2297
2.836 5.030 1.484 3584
2.912 5.165 1.520 2969
2.914 5.168 1.503 2937
2.842 5.040 1.469 2352
2.958 5.245 1.505 2731
2.817 4.997 1.440 1575
3.001 5.323 1.507 3047
3.081 5.464 1.543 1673
3.003 5.326 1.489 4059
3.106 5.508 1.535 2145
3.047 5.404 1.490 2746
3.119 5.532 1.522 1541
3.075 5.454 1.484 2792
3.003 5.326 1.452 1548
3.077 5.458 1.466 2037
3.210 5.694 1.524 1082
3.220 5.711 1.508 1696
3.136 5.562 1.472 1679
3.222 5.714 1.489 2294
3.142 5.572 1.455 1463
3.289 5.833 1.497 3122
3.216 5.704 1.467 2396
3.279 5.816 1.473 3570
3.363 5.964 1.507 1666
3.292 5.839 1.458 3725
3.365 5.968 1.487 1829
3.298 5.849 1.440 5062
3.401 6.032 1.481 1754
3.296 5.846 1.419 3620
3.407 6.042 1.463 1891
3.321 5.890 1.409 1879
3.424 6.073 1.448 1851
3.430 6.083 1.430 2106
3.548 6.293 1.475 1661
3.466 6.147 1.422 1712
3.554 6.303 1.455 1684
3.556 6.307 1.434 1973
3.472 6.157 1.403 1736
3.550 6.296 1.410 2422
3.477 6.167 1.384 1196
3.552 6.299 1.389 1963
3.678 6.524 1.434 1489
3.795 6.731 1.453 1574
3.887 6.894 1.485 1299
3.720 6.598 1.404 1518
4.039 7.163 1.513 1175
3.714 6.588 1.379 1704
3.994 7.084 1.474 1440
4.000 7.095 1.451 1695
3.705 6.570 1.354 1452
4.002 7.098 1.428 1907
3.699 6.560 1.329 1004
4.008 7.108 1.405 1840
4.036 7.159 1.390 1736
4.046 7.176 1.368 1829
4.134 7.332 1.395 1378
4.128 7.322 1.369 1458
4.055 7.192 1.347 1065
4.326 7.673 1.402 1638
4.488 7.960 1.449 1160
4.328 7.676 1.376 1464
4.486 7.956 1.422 1370
4.480 7.946 1.393 1341
4.553 8.076 1.414 1330
4.470 7.928 1.364 1260
4.555 8.079 1.387 1246
4.522 8.020 1.351 1105
4.524 8.023 1.324 1170
4.647 8.242 1.356 1162
4.572 8.109 1.309 1022
1.043 1.832 1.611 3619
1.045 1.836 1.605 7238
1.106 1.943 1.692 1770
1.047 1.840 1.599 7238
1.108 1.947 1.686 1770
1.053 1.849 1.598 5539
1.117 1.962 1.689 2458
1.061 1.864 1.601 4228
1.122 1.971 1.687 3202
1.073 1.885 1.608 4636
1.134 1.992 1.694 2668
1.075 1.889 1.602 5195
1.136 1.996 1.687 2777
1.074 1.887 1.591 5904
1.135 1.994 1.676 3038
1.073 1.885 1.581 6727
1.137 1.998 1.670 3182
1.075 1.888 1.574 6727
1.153 2.025 1.681 3803
1.077 1.892 1.568 5020
1.152 2.023 1.670 3645
1.186 2.084 1.707 4590
1.066 1.873 1.544 3774
1.189 2.088 1.701 6121
1.101 1.934 1.582 3245
1.191 2.092 1.694 7652
1.106 1.943 1.580 3187
1.193 2.096 1.687 7592
1.115 1.958 1.583 2929
1.199 2.106 1.684 7577
1.120 1.967 1.580 2830
1.198 2.104 1.673 7555
1.119 1.965 1.570 2425
1.193 2.096 1.658 8694
1.111 1.952 1.550 2319
1.192 2.094 1.646 9952
1.113 1.955 1.544 1932
1.188 2.086 1.631 7628
1.118 1.965 1.542 1547
1.190 2.090 1.624 5723
1.120 1.968 1.535 1590
1.212 2.129 1.643 5779
1.119 1.966 1.525 1453
1.214 2.133 1.636 6592
1.121 1.969 1.518 1281
1.216 2.137 1.629 8226
1.123 1.973 1.512 1034
1.215 2.134 1.617 9869
1.220 2.144 1.615 10409
1.226 2.154 1.612 11169
1.228 2.157 1.605 11480
1.230 2.161 1.597 11791
1.236 2.171 1.594 10673
1.238 2.174 1.587 9857
1.247 2.190 1.588 8659
1.249 2.194 1.581 7191
1.241 2.179 1.562 7278
1.246 2.189 1.559 6784
1.375 2.415 1.709 1253
1.251 2.199 1.555 6616
1.381 2.425 1.705 1533
1.254 2.202 1.548 5271
1.369 2.405 1.681 1917
1.259 2.212 1.545 3942
1.368 2.403 1.669 2291
1.268 2.227 1.545 3725
1.374 2.413 1.665 2597
1.270 2.231 1.538 3656
1.376 2.417 1.657 2962
1.378 2.421 1.649 3158
1.272 2.234 1.531 3078
1.377 2.419 1.638 3486
1.274 2.238 1.523 2326
1.379 2.423 1.630 3225
1.283 2.253 1.523 2259
1.388 2.438 1.629 3951
1.457 2.559 1.705 2929
1.390 2.442 1.621 5158
1.463 2.569 1.700 3649
1.399 2.458 1.621 6061
1.465 2.573 1.692 4943
1.457 2.559 1.672 6714
1.391 2.444 1.601 3982
1.462 2.569 1.667 6633
1.397 2.453 1.597 3143
1.475 2.591 1.670 6666
1.409 2.475 1.600 4537
1.481 2.601 1.665 7271
1.415 2.485 1.595 3587
1.486 2.611 1.660 6840
1.420 2.495 1.591 2604
1.499 2.633 1.662 6878
1.433 2.517 1.593 1894
1.498 2.631 1.650 6346
1.564 2.748 1.718 2241
1.503 2.641 1.645 6359
1.570 2.758 1.712 1724
1.513 2.657 1.643 7241
1.579 2.774 1.710 1405
1.515 2.661 1.634 7977
1.581 2.778 1.701 1578
1.517 2.665 1.625 6784
1.584 2.782 1.692 1496
1.568 2.755 1.665 5162
1.501 2.638 1.599 2784
1.574 2.765 1.660 6417
1.507 2.647 1.594 2306
1.576 2.769 1.651 7202
1.509 2.651 1.585 1912
1.571 2.760 1.635 8985
1.638 2.878 1.700 3203
1.570 2.758 1.622 10893
1.637 2.876 1.687 4226
1.572 2.762 1.613 9687
1.639 2.880 1.677 5251
1.585 2.784 1.614 8065
1.663 2.921 1.688 6109
1.676 2.944 1.688 6925
1.608 2.825 1.625 6381
1.625 2.854 1.629 8207
1.692 2.973 1.692 6622
1.677 2.945 1.666 8154
1.609 2.826 1.603 4967
1.675 2.943 1.653 7527
1.607 2.824 1.590 2643
1.724 3.028 1.685 5880
1.656 2.909 1.623 2885
1.733 3.045 1.682 6656
1.658 2.913 1.614 2762
1.725 3.030 1.662 8850
1.657 2.910 1.601 1962
1.727 3.034 1.652 9798
1.740 3.056 1.651 6539
1.672 2.937 1.591 1215
1.749 3.073 1.647 4832
1.755 3.083 1.640 4608
1.753 3.080 1.627 6061
1.759 3.090 1.620 9712
1.828 3.211 1.679 1073
1.769 3.107 1.616 10530
1.778 3.123 1.612 6905
1.795 3.153 1.613 6680
1.804 3.169 1.609 5514
1.824 3.205 1.613 5329
1.755 3.083 1.557 1699
1.826 3.208 1.603 6655
1.895 3.330 1.659 2833
1.828 3.212 1.592 8227
1.897 3.333 1.648 4553
1.838 3.228 1.587 7932
1.907 3.350 1.643 3014
1.840 3.232 1.577 6586
1.909 3.354 1.632 4074
1.893 3.326 1.606 8034
1.824 3.204 1.552 3580
1.910 3.355 1.607 8024
1.840 3.233 1.552 3963
1.919 3.371 1.601 6070
1.850 3.249 1.547 3716
1.921 3.375 1.590 4583
1.852 3.253 1.537 1960
1.934 3.398 1.587 5624
1.865 3.276 1.534 1337
1.947 3.421 1.584 4777
1.878 3.299 1.532 1144
1.931 3.393 1.559 4220
2.001 3.515 1.611 1925
1.937 3.403 1.551 5011
2.007 3.525 1.602 2343
1.950 3.426 1.547 4785
2.020 3.548 1.599 2384
1.963 3.449 1.544 4626
2.033 3.572 1.595 2665
1.976 3.472 1.541 5060
2.046 3.595 1.591 4456
2.037 3.579 1.571 6428
1.967 3.456 1.521 3562
2.054 3.609 1.570 7331
1.976 3.472 1.515 3039
2.034 3.573 1.542 5679
2.104 3.697 1.591 2587
2.103 3.694 1.577 3455
2.032 3.570 1.528 3065
2.101 3.691 1.562 4300
2.031 3.567 1.513 1571
2.099 3.688 1.547 5539
2.029 3.564 1.499 1099
2.105 3.698 1.537 6093
2.034 3.574 1.490 1015
2.107 3.702 1.525 4923
2.178 3.826 1.572 2018
2.161 3.797 1.547 3283
2.090 3.672 1.500 1506
2.174 3.820 1.542 6074
2.245 3.944 1.588 1630
2.176 3.823 1.529 7519
2.247 3.948 1.575 3597
2.197 3.860 1.528 5516
2.268 3.984 1.574 3466
2.207 3.876 1.520 5019
2.278 4.001 1.565 2493
2.242 3.939 1.529 3978
2.313 4.064 1.573 1248
2.233 3.923 1.509 2993
2.304 4.048 1.553 2521
2.314 4.064 1.544 3777
2.227 3.913 1.491 1982
2.331 4.094 1.540 3131
2.256 3.963 1.494 1214
2.355 4.137 1.540 2679
2.254 3.959 1.479 1867
2.365 4.154 1.530 3768
2.293 4.029 1.488 1986
2.348 4.125 1.505 4514
2.419 4.250 1.547 1619
2.350 4.128 1.492 4929
2.421 4.254 1.533 1786
2.359 4.145 1.482 2811
2.431 4.271 1.524 2152
2.440 4.287 1.514 3368
2.369 4.161 1.473 1010
2.442 4.291 1.499 4549
2.514 4.417 1.540 1378
2.444 4.294 1.485 3311
2.516 4.420 1.525 2218
2.514 4.417 1.508 4388
2.443 4.291 1.469 1930
2.516 4.421 1.494 5546
2.588 4.547 1.533 1991
2.522 4.431 1.481 4237
2.594 4.557 1.520 2926
2.619 4.600 1.517 4449
2.524 4.434 1.466 3102
2.632 4.624 1.507 3993
2.526 4.437 1.451 2534
2.668 4.687 1.510 5555
2.786 4.894 1.571 1621
2.674 4.697 1.496 6077
2.792 4.904 1.556 3931
2.794 4.908 1.540 5695
2.657 4.667 1.471 3598
2.792 4.904 1.522 4722
2.716 4.771 1.484 2792
2.813 4.941 1.515 4164
2.741 4.814 1.479 2207
2.815 4.945 1.498 4061
2.921 5.132 1.550 2022
2.866 5.035 1.506 3337
2.794 4.908 1.471 1585
2.868 5.039 1.489 4337
2.796 4.911 1.455 2089
2.870 5.042 1.472 2768
3.015 5.297 1.540 2207
3.021 5.307 1.524 2006
2.929 5.146 1.482 1629
3.027 5.317 1.508 2729
3.107 5.458 1.545 1503
3.025 5.314 1.489 3729
3.128 5.495 1.535 1991
3.031 5.324 1.473 2640
3.134 5.506 1.519 1850
3.086 5.422 1.479 2118
3.103 5.452 1.467 1869
3.237 5.687 1.525 1283
3.247 5.704 1.509 1775
3.086 5.422 1.441 1583
3.249 5.708 1.490 2254
3.138 5.512 1.444 1447
3.309 5.812 1.495 2972
3.236 5.684 1.465 2604
3.299 5.796 1.471 3494
3.153 5.539 1.412 1455
3.301 5.799 1.452 3353
3.374 5.927 1.481 1767
3.322 5.836 1.440 4590
3.395 5.964 1.469 1327
3.324 5.839 1.421 3376
3.435 6.035 1.464 1142
3.345 5.876 1.409 1986
3.449 6.059 1.448 1327
3.362 5.907 1.395 1811
3.451 6.062 1.428 1543
3.453 6.065 1.408 1182
3.364 5.910 1.375 1110
3.582 6.292 1.434 1304
3.580 6.288 1.412 1684
3.578 6.285 1.389 1291
3.705 6.509 1.434 1071
3.421 6.010 1.314 1601
3.321 5.834 1.279 1032
3.423 6.013 1.294 1807
3.743 6.576 1.403 1164
3.421 6.009 1.272 1547
3.741 6.572 1.379 1365
4.064 7.139 1.463 1655
3.422 6.012 1.252 1369
4.031 7.081 1.428 1834
3.428 6.021 1.233 1417
4.033 7.085 1.404 1693
3.429 6.024 1.213 1231
4.073 7.156 1.392 1482
4.267 7.496 1.452 1268
4.083 7.173 1.371 1873
4.156 7.302 1.393 1617
4.154 7.298 1.368 1781
4.081 7.169 1.346 1154
4.358 7.655 1.402 1494
4.517 7.935 1.448 1046
4.581 8.047 1.440 1548
4.360 7.659 1.376 1307
4.582 8.050 1.413 1676
4.443 7.805 1.374 1169
4.588 8.060 1.387 1543
4.441 7.801 1.347 1252
4.598 8.077 1.362 1263
1.045 1.824 1.607 3798
1.047 1.828 1.601 7596
1.108 1.934 1.688 1919
1.049 1.832 1.595 7596
1.110 1.938 1.682 1919
1.054 1.841 1.593 6080
1.119 1.953 1.684 2196
1.066 1.861 1.601 5133
1.127 1.968 1.687 2813
1.075 1.876 1.604 5133
1.136 1.984 1.690 2557
1.080 1.886 1.602 5358
1.142 1.993 1.687 2454
1.079 1.884 1.591 6203
1.141 1.991 1.676 2696
1.081 1.887 1.585 7090
1.143 1.995 1.670 2854
1.083 1.891 1.579 7090
1.161 2.028 1.686 3637
1.085 1.895 1.573 5298
1.190 2.077 1.714 3855
1.192 2.081 1.707 5104
1.068 1.864 1.540 3903
1.194 2.085 1.701 6286
1.106 1.931 1.582 3310
1.193 2.083 1.689 7521
1.111 1.940 1.580 3002
1.195 2.087 1.683 7233
1.117 1.949 1.578 2543
1.194 2.085 1.671 6997
1.125 1.964 1.580 2355
1.197 2.089 1.665 6971
1.124 1.962 1.570 2031
1.196 2.087 1.653 8246
1.116 1.949 1.550 1955
1.198 2.091 1.646 9495
1.122 1.958 1.548 1651
1.193 2.083 1.631 6986
1.130 1.973 1.550 1439
1.225 2.139 1.662 5084
1.132 1.977 1.544 1475
1.221 2.131 1.647 5336
1.128 1.969 1.529 1348
1.220 2.129 1.636 5689
1.126 1.966 1.518 1189
1.219 2.127 1.624 7197
1.221 2.131 1.617 8780
1.226 2.141 1.615 8876
1.228 2.144 1.608 9199
1.234 2.154 1.605 10115
1.236 2.158 1.597 11058
1.241 2.167 1.594 10465
1.247 2.177 1.591 10262
1.252 2.187 1.588 8901
1.251 2.184 1.577 7423
1.246 2.176 1.562 7771
1.252 2.186 1.559 7280
1.381 2.412 1.709 1398
1.261 2.201 1.559 7123
1.387 2.422 1.705 1600
1.259 2.199 1.548 5396
1.376 2.402 1.681 1794
1.258 2.196 1.537 3725
1.375 2.400 1.669 1915
1.270 2.218 1.541 3684
1.380 2.410 1.665 2589
1.276 2.227 1.538 3876
1.382 2.413 1.657 3301
1.385 2.417 1.649 3686
1.274 2.225 1.527 3361
1.387 2.421 1.641 4061
1.276 2.228 1.519 2261
1.389 2.425 1.633 3365
1.455 2.539 1.706 1684
1.391 2.429 1.625 3811
1.467 2.561 1.708 2989
1.397 2.438 1.621 5035
1.469 2.565 1.700 3522
1.406 2.454 1.621 5981
1.472 2.569 1.692 4722
1.464 2.555 1.672 6604
1.398 2.440 1.601 4044
1.424 2.486 1.619 6576
1.490 2.602 1.689 4473
1.482 2.587 1.670 6991
1.416 2.472 1.600 4895
1.488 2.597 1.665 7341
1.421 2.481 1.595 3883
1.497 2.613 1.663 6961
1.430 2.497 1.594 2775
1.513 2.642 1.669 7367
1.447 2.525 1.601 2175
1.508 2.633 1.653 6770
1.575 2.749 1.722 1776
1.510 2.637 1.645 6635
1.577 2.753 1.712 1755
1.516 2.647 1.639 7027
1.583 2.764 1.707 1688
1.522 2.657 1.634 7642
1.589 2.774 1.701 1558
1.524 2.661 1.625 6378
1.591 2.778 1.692 1814
1.572 2.745 1.662 7471
1.505 2.627 1.596 2261
1.578 2.755 1.656 8343
1.511 2.637 1.591 1487
1.584 2.765 1.651 7936
1.516 2.647 1.585 1593
1.586 2.768 1.642 8702
1.653 2.886 1.707 2814
1.577 2.754 1.622 10753
1.645 2.871 1.687 4209
1.583 2.764 1.616 9587
1.651 2.882 1.681 5097
1.596 2.786 1.617 8141
1.674 2.923 1.691 6437
1.684 2.939 1.688 7175
1.616 2.821 1.625 6723
1.632 2.850 1.629 7627
1.700 2.968 1.692 6877
1.684 2.941 1.666 8000
1.616 2.822 1.603 5037
1.683 2.938 1.653 6772
1.615 2.820 1.590 2590
1.732 3.024 1.685 4986
1.664 2.905 1.623 3063
1.734 3.027 1.675 6591
1.666 2.908 1.614 3220
1.733 3.025 1.662 9093
1.664 2.906 1.601 2319
1.735 3.029 1.652 10164
1.667 2.909 1.591 1188
1.748 3.052 1.651 6345
1.679 2.932 1.591 1237
1.761 3.074 1.651 4533
1.763 3.078 1.640 4167
1.758 3.069 1.624 5597
1.768 3.086 1.620 9198
1.836 3.206 1.679 1323
1.777 3.102 1.616 10448
1.846 3.223 1.674 1450
1.786 3.119 1.612 7131
1.855 3.239 1.670 1142
1.803 3.148 1.613 7445
1.812 3.164 1.609 5807
1.833 3.200 1.613 4632
1.763 3.079 1.557 1765
1.842 3.216 1.609 5855
1.773 3.095 1.553 1938
1.888 3.296 1.633 7302
1.819 3.175 1.578 4245
1.879 3.281 1.614 9061
1.810 3.160 1.558 3455
1.885 3.291 1.606 7703
1.816 3.170 1.551 2792
1.902 3.320 1.606 8392
1.832 3.199 1.552 3459
1.919 3.350 1.607 9189
1.849 3.228 1.552 3644
1.928 3.366 1.601 7047
1.858 3.244 1.547 3811
1.930 3.370 1.590 4636
1.860 3.248 1.537 2282
1.943 3.393 1.587 4552
1.873 3.271 1.534 1671
1.938 3.384 1.570 3988
2.008 3.506 1.623 1082
1.940 3.387 1.559 3406
2.010 3.510 1.611 1858
1.990 3.475 1.583 3700
1.920 3.352 1.532 1201
1.963 3.427 1.550 4218
2.033 3.549 1.601 2537
1.980 3.456 1.549 4784
2.050 3.579 1.600 3079
2.048 3.576 1.586 5563
1.978 3.453 1.535 4991
2.054 3.586 1.576 6960
1.984 3.463 1.526 4194
2.064 3.603 1.570 7070
1.986 3.467 1.515 3091
2.044 3.568 1.542 5448
2.114 3.691 1.591 2509
2.049 3.578 1.533 3736
2.120 3.701 1.582 3615
2.115 3.692 1.564 4717
2.044 3.568 1.516 1814
2.113 3.689 1.550 5495
2.042 3.565 1.502 1153
2.115 3.692 1.537 5926
2.117 3.696 1.525 4754
2.199 3.839 1.580 2322
2.164 3.778 1.542 3514
2.235 3.902 1.589 1225
2.185 3.814 1.542 5345
2.256 3.938 1.588 1755
2.190 3.824 1.532 6989
2.262 3.948 1.577 3662
2.207 3.854 1.528 6061
2.279 3.978 1.574 3489
2.213 3.864 1.518 5360
2.285 3.988 1.563 2970
2.264 3.953 1.536 3896
2.193 3.828 1.491 2147
2.236 3.904 1.504 2556
2.307 4.028 1.548 1967
2.325 4.058 1.544 3181
2.234 3.901 1.489 1744
2.345 4.095 1.542 3248
2.266 3.957 1.494 1281
2.351 4.105 1.530 2880
2.268 3.960 1.481 1892
2.353 4.108 1.517 3230
2.282 3.983 1.474 1602
2.351 4.105 1.501 4705
2.423 4.230 1.543 1717
2.357 4.115 1.489 4801
2.429 4.241 1.531 1707
2.367 4.132 1.480 2472
2.450 4.277 1.528 2350
2.452 4.281 1.514 3104
2.454 4.284 1.499 3658
2.526 4.410 1.540 1027
2.460 4.294 1.487 2722
2.532 4.420 1.527 2143
2.530 4.417 1.510 4674
2.446 4.271 1.465 1022
2.532 4.420 1.496 4908
2.604 4.546 1.535 1847
2.534 4.424 1.481 3515
2.606 4.550 1.520 3182
2.623 4.580 1.513 3616
2.536 4.427 1.466 3328
2.652 4.630 1.511 3857
2.538 4.431 1.451 2665
2.692 4.700 1.516 5486
2.803 4.893 1.573 1895
2.690 4.697 1.498 5835
2.809 4.903 1.558 4333
2.807 4.900 1.540 5768
2.688 4.694 1.480 3575
2.805 4.897 1.522 4250
2.732 4.770 1.486 2613
2.830 4.940 1.517 3617
2.734 4.774 1.470 2759
2.832 4.944 1.500 3364
2.935 5.124 1.550 2219
2.876 5.021 1.504 3440
2.949 5.148 1.539 1539
2.886 5.038 1.491 4161
2.813 4.911 1.456 1718
2.895 5.054 1.478 3487
3.033 5.295 1.542 2235
3.047 5.319 1.530 2525
2.893 5.051 1.459 2298
3.049 5.323 1.512 2773
2.888 5.041 1.439 1847
3.043 5.313 1.491 3234
3.143 5.487 1.535 1771
3.072 5.363 1.485 2698
3.145 5.490 1.517 1900
3.082 5.380 1.470 2330
3.155 5.507 1.502 1373
3.122 5.450 1.469 1926
3.203 5.591 1.504 1481
3.147 5.494 1.461 1897
3.270 5.709 1.513 1794
3.272 5.713 1.494 2185
3.153 5.504 1.444 2096
3.270 5.709 1.473 2826
3.343 5.837 1.503 1635
3.311 5.780 1.470 3053
3.172 5.537 1.413 1434
3.293 5.750 1.443 2973
3.367 5.878 1.472 1900
3.338 5.827 1.440 3785
3.264 5.699 1.411 1278
3.340 5.830 1.421 2882
3.357 5.860 1.407 1691
3.378 5.897 1.395 1640
3.463 6.046 1.427 1143
3.380 5.901 1.375 1026
3.329 5.812 1.316 1178
3.331 5.815 1.297 1333
3.435 5.998 1.334 1260
3.437 6.001 1.314 2237
3.336 5.825 1.279 1294
3.439 6.004 1.294 2539
3.338 5.828 1.259 1314
3.441 6.007 1.274 2158
4.085 7.132 1.488 1251
3.438 6.003 1.252 1802
4.083 7.128 1.463 1642
3.444 6.012 1.233 1930
4.058 7.084 1.430 1467
3.449 6.022 1.215 1708
4.048 7.067 1.403 1318
4.287 7.484 1.452 1417
4.096 7.152 1.394 1393
4.102 7.162 1.371 1949
4.176 7.291 1.393 1747
4.170 7.280 1.366 1918
4.096 7.151 1.345 1112
4.382 7.650 1.403 1347
4.600 8.031 1.466 1015
4.602 8.035 1.440 1546
4.380 7.647 1.376 1156
4.608 8.045 1.414 1743
4.464 7.793 1.374 1127
4.614 8.055 1.388 1661
4.462 7.789 1.347 1193
4.619 8.065 1.362 1413
1.053 1.827 1.611 3476
1.055 1.830 1.605 6953
1.116 1.937 1.692 1738
1.057 1.834 1.599 6953
1.119 1.941 1.686 1738
1.066 1.849 1.602 5983
1.127 1.956 1.689 1916
1.075 1.864 1.605 5582
1.165 2.021 1.732 2212
1.080 1.873 1.604 5354
1.142 1.980 1.690 2170
1.098 1.905 1.620 5399
1.037 1.798 1.534 1889
1.087 1.886 1.596 6093
1.149 1.994 1.681 2135
1.090 1.890 1.590 6942
1.184 2.054 1.719 2694
1.092 1.894 1.583 6942
1.177 2.041 1.699 3691
1.094 1.897 1.577 5304
1.192 2.068 1.710 4565
1.198 2.078 1.707 5759
1.109 1.924 1.589 4008
1.197 2.076 1.696 6571
1.111 1.927 1.582 3494
1.199 2.080 1.689 7522
1.113 1.931 1.576 2981
1.198 2.078 1.678 7154
1.119 1.940 1.574 2317
1.197 2.076 1.667 6837
1.131 1.961 1.580 1875
1.199 2.080 1.660 6826
1.133 1.965 1.574 1607
1.201 2.084 1.653 8173
1.122 1.946 1.550 1467
1.207 2.093 1.651 9623
1.140 1.978 1.565 1321
1.219 2.115 1.657 7242
1.139 1.976 1.555 1264
1.228 2.130 1.658 6158
1.138 1.974 1.544 1263
1.230 2.134 1.651 5853
1.133 1.965 1.529 1183
1.232 2.138 1.644 5549
1.135 1.969 1.522 1065
1.228 2.130 1.629 6134
1.227 2.128 1.617 7123
1.232 2.137 1.615 7238
1.234 2.141 1.608 7566
1.240 2.151 1.605 9079
1.242 2.154 1.597 10611
1.247 2.164 1.594 10425
1.253 2.173 1.591 10586
1.259 2.183 1.588 9048
1.257 2.181 1.577 7567
1.256 2.179 1.566 8120
1.386 2.404 1.717 1051
1.261 2.188 1.563 7669
1.388 2.408 1.709 1609
1.267 2.198 1.559 7648
1.390 2.412 1.701 1804
1.269 2.201 1.552 5649
1.382 2.398 1.681 1849
1.274 2.211 1.549 3691
1.385 2.402 1.673 1697
1.280 2.220 1.545 3925
1.387 2.406 1.665 2535
1.285 2.230 1.542 4270
1.389 2.410 1.657 3372
1.391 2.413 1.649 3883
1.284 2.227 1.531 3628
1.397 2.423 1.645 4394
1.286 2.231 1.523 2085
1.399 2.427 1.637 3492
1.479 2.565 1.724 1998
1.401 2.431 1.629 3612
1.474 2.557 1.708 3349
1.403 2.435 1.621 4611
1.477 2.561 1.700 3759
1.413 2.450 1.621 5636
1.479 2.565 1.692 4743
1.471 2.551 1.672 6442
1.404 2.436 1.601 3955
1.427 2.476 1.615 6706
1.494 2.591 1.686 5281
1.489 2.583 1.670 7432
1.423 2.468 1.600 5109
1.495 2.593 1.665 7606
1.428 2.477 1.595 4039
1.508 2.615 1.667 7242
1.441 2.499 1.598 2900
1.520 2.637 1.669 7797
1.454 2.521 1.601 1978
1.516 2.629 1.653 7074
1.583 2.745 1.722 1756
1.518 2.633 1.645 6815
1.585 2.749 1.712 1751
1.523 2.643 1.639 6556
1.591 2.759 1.707 1837
1.529 2.653 1.634 6731
1.596 2.769 1.701 1683
1.574 2.730 1.668 7360
1.507 2.613 1.601 4054
1.580 2.740 1.662 10129
1.512 2.623 1.596 1955
1.585 2.750 1.656 10743
1.653 2.867 1.722 1032
1.588 2.754 1.647 9107
1.655 2.871 1.713 1451
1.586 2.752 1.635 8980
1.654 2.869 1.700 2999
1.588 2.755 1.626 10670
1.656 2.873 1.690 4189
1.594 2.765 1.620 9591
1.662 2.883 1.684 5254
1.607 2.788 1.621 8183
1.682 2.918 1.691 7095
1.692 2.935 1.688 7418
1.624 2.816 1.625 7014
1.698 2.945 1.682 7550
1.629 2.826 1.619 6790
1.696 2.942 1.669 7764
1.628 2.824 1.606 5324
1.691 2.934 1.653 5965
1.623 2.815 1.590 2338
1.737 3.013 1.682 4297
1.668 2.894 1.620 3194
1.739 3.016 1.672 6910
1.670 2.897 1.610 3426
1.738 3.014 1.659 9435
1.669 2.895 1.598 2228
1.740 3.018 1.649 10541
1.671 2.899 1.588 1046
1.749 3.034 1.645 6639
1.770 3.069 1.651 4527
1.772 3.073 1.640 3807
1.763 3.058 1.621 5025
1.832 3.178 1.680 1330
1.776 3.081 1.620 8101
1.845 3.201 1.679 1519
1.786 3.097 1.616 9447
1.855 3.217 1.674 1752
1.799 3.120 1.615 6980
1.868 3.240 1.673 1377
1.812 3.143 1.613 7377
1.818 3.153 1.606 6410
1.823 3.163 1.599 5425
1.893 3.284 1.655 1896
1.858 3.224 1.615 5692
1.789 3.103 1.558 2382
1.890 3.278 1.627 8003
1.820 3.157 1.572 3626
1.888 3.276 1.614 10531
1.819 3.155 1.558 2918
1.894 3.286 1.606 8511
1.824 3.165 1.551 2292
1.922 3.334 1.615 8154
1.852 3.213 1.560 3572
1.928 3.344 1.607 10333
1.858 3.223 1.552 3109
1.934 3.355 1.598 8056
1.864 3.233 1.545 2863
1.940 3.365 1.590 4891
1.869 3.243 1.537 2230
1.942 3.368 1.579 3741
1.871 3.246 1.526 1018
1.944 3.372 1.568 3536
2.014 3.494 1.620 1584
1.942 3.369 1.554 3248
2.013 3.491 1.606 2606
2.007 3.482 1.589 3444
1.937 3.360 1.537 1848
1.995 3.460 1.566 3845
2.065 3.583 1.618 1277
1.993 3.457 1.552 4809
2.064 3.580 1.603 3133
2.058 3.571 1.586 5859
1.988 3.448 1.535 4941
2.064 3.581 1.576 7026
1.993 3.458 1.526 3805
2.074 3.597 1.570 6533
1.999 3.468 1.518 2453
2.072 3.594 1.555 5607
2.001 3.471 1.506 1484
2.074 3.598 1.543 4575
2.145 3.721 1.592 2744
2.125 3.686 1.564 5500
2.054 3.562 1.516 1818
2.123 3.683 1.550 5416
2.125 3.687 1.537 5367
2.215 3.843 1.597 1270
2.142 3.716 1.535 4299
2.217 3.846 1.585 2584
2.171 3.765 1.540 3866
2.242 3.889 1.586 1784
2.199 3.814 1.544 4758
2.270 3.938 1.591 1732
2.205 3.825 1.534 6882
2.276 3.949 1.580 3576
2.218 3.848 1.528 6259
2.290 3.972 1.574 3589
2.273 3.943 1.549 6014
2.201 3.818 1.504 3215
2.279 3.953 1.538 4288
2.207 3.828 1.493 2429
2.285 3.963 1.527 2790
2.356 4.088 1.571 1338
2.359 4.091 1.558 2285
2.287 3.966 1.514 1959
2.361 4.095 1.544 3177
2.273 3.944 1.492 1686
2.359 4.092 1.528 3462
2.279 3.954 1.481 2037
2.361 4.095 1.515 3813
2.289 3.970 1.472 1739
2.363 4.099 1.501 4574
2.435 4.224 1.543 1785
2.372 4.115 1.492 4212
2.467 4.280 1.546 1498
2.378 4.125 1.480 2044
2.469 4.284 1.532 1970
2.464 4.274 1.514 2783
2.462 4.271 1.497 3418
2.534 4.396 1.538 1218
2.464 4.274 1.483 2814
2.540 4.406 1.525 2606
2.542 4.410 1.510 4620
2.470 4.284 1.471 1856
2.548 4.420 1.498 4234
2.472 4.287 1.457 1449
2.611 4.529 1.516 3137
2.539 4.403 1.477 2357
2.613 4.533 1.500 3649
2.540 4.407 1.462 2758
2.692 4.669 1.525 4613
2.619 4.543 1.487 2384
2.698 4.679 1.512 5448
2.816 4.885 1.573 1896
2.703 4.689 1.498 5447
2.822 4.895 1.558 4270
2.820 4.892 1.540 5516
2.701 4.686 1.480 4145
2.819 4.889 1.522 4279
2.746 4.763 1.486 2448
2.748 4.766 1.470 3089
2.847 4.939 1.519 2942
2.869 4.976 1.511 3151
2.946 5.109 1.549 2240
2.882 5.000 1.500 3716
2.955 5.126 1.535 1595
2.892 5.016 1.487 3347
2.965 5.143 1.522 1183
2.909 5.046 1.478 3276
3.048 5.287 1.542 2130
3.061 5.311 1.530 3205
2.911 5.050 1.461 2872
3.079 5.341 1.519 3312
2.913 5.053 1.444 2050
3.089 5.358 1.504 3053
3.162 5.485 1.537 1419
3.087 5.354 1.485 3171
3.160 5.482 1.517 1898
3.096 5.371 1.470 2660
3.185 5.525 1.509 1845
3.110 5.395 1.457 2015
3.187 5.529 1.490 1661
3.166 5.492 1.462 1970
3.290 5.707 1.514 1877
3.292 5.710 1.495 2257
3.168 5.495 1.444 2250
3.294 5.714 1.476 2666
3.166 5.492 1.424 1615
3.303 5.730 1.460 2780
3.377 5.858 1.490 1499
3.305 5.734 1.441 2847
3.379 5.861 1.470 1732
3.358 5.824 1.442 3071
3.284 5.697 1.413 1585
3.360 5.828 1.422 2330
3.373 5.851 1.407 1275
3.394 5.888 1.395 1245
3.345 5.803 1.316 1461
3.343 5.799 1.296 1601
3.452 5.988 1.334 1543
3.454 5.991 1.314 2668
3.349 5.809 1.278 1447
3.456 5.994 1.294 2997
3.354 5.818 1.259 1320
3.457 5.997 1.274 2642
3.352 5.814 1.239 1202
3.455 5.993 1.252 2331
4.107 7.124 1.464 1576
3.460 6.003 1.233 2416
4.105 7.120 1.439 1390
3.466 6.012 1.215 2142
4.306 7.469 1.477 1179
4.308 7.472 1.452 1558
3.464 6.008 1.193 1554
4.188 7.265 1.391 1995
4.114 7.137 1.368 1773
4.190 7.269 1.366 1873
4.116 7.140 1.345 1051
4.403 7.638 1.403 1148
4.623 8.018 1.466 1060
4.624 8.022 1.440 1425
4.405 7.641 1.378 1039
4.626 8.025 1.413 1562
4.485 7.780 1.374 1007
4.628 8.028 1.386 1548
4.483 7.777 1.347 1105
4.618 8.011 1.356 1369
4.604 7.987 1.325 1106
4.712 8.173 1.325 1060
1.090 1.880 1.657 3096
1.029 1.774 1.570 1230
1.093 1.883 1.651 6193
1.031 1.777 1.564 2460
1.095 1.887 1.645 6193
1.033 1.781 1.558 2268
1.084 1.869 1.620 5568
1.168 2.014 1.739 1746
1.083 1.867 1.610 5390
1.171 2.018 1.732 2152
1.085 1.870 1.604 5111
1.173 2.022 1.726 2031
1.103 1.902 1.620 5391
1.175 2.026 1.719 1910
1.096 1.889 1.600 5676
1.178 2.030 1.712 1910
1.098 1.893 1.594 6410
1.187 2.045 1.715 2993
1.100 1.896 1.588 6410
1.192 2.055 1.712 4146
1.106 1.906 1.586 5138
1.198 2.065 1.710 5081
1.203 2.074 1.707 6117
1.114 1.921 1.589 4291
1.202 2.073 1.696 6840
1.116 1.924 1.582 3665
1.201 2.071 1.685 7664
1.118 1.928 1.576 3039
1.200 2.069 1.674 7004
1.121 1.932 1.570 2207
1.189 2.050 1.650 6638
1.126 1.941 1.567 1441
1.205 2.077 1.660 6395
1.128 1.945 1.561 1248
1.207 2.081 1.653 7589
1.127 1.942 1.550 1077
1.216 2.096 1.655 9232
1.152 1.986 1.574 1070
1.228 2.117 1.661 7902
1.234 2.127 1.658 7388
1.239 2.136 1.655 6561
1.241 2.140 1.648 5836
1.237 2.132 1.633 5644
1.232 2.124 1.617 5956
1.241 2.140 1.619 6375
1.243 2.144 1.612 6983
1.246 2.147 1.605 8798
1.248 2.151 1.597 10613
1.253 2.161 1.594 10390
1.259 2.170 1.591 10488
1.264 2.180 1.588 8791
1.263 2.177 1.577 7432
1.262 2.175 1.566 8204
1.396 2.406 1.721 1088
1.267 2.185 1.563 7867
1.398 2.410 1.713 1702
1.273 2.194 1.559 7934
1.397 2.408 1.701 1932
1.275 2.198 1.552 5860
1.396 2.406 1.689 1944
1.280 2.207 1.549 3887
1.408 2.428 1.693 1749
1.286 2.217 1.545 4181
1.397 2.408 1.669 2427
1.295 2.232 1.546 4723
1.399 2.412 1.661 3160
1.297 2.236 1.538 3904
1.401 2.416 1.653 3769
1.421 2.449 1.664 4614
1.296 2.233 1.527 1947
1.427 2.459 1.660 3753
1.493 2.573 1.732 2092
1.481 2.553 1.708 3605
1.408 2.427 1.629 3434
1.410 2.431 1.621 4062
1.483 2.557 1.700 3967
1.423 2.453 1.624 5220
1.489 2.567 1.695 4520
1.481 2.553 1.676 6355
1.414 2.438 1.605 4527
1.490 2.569 1.675 6688
1.424 2.454 1.604 5421
1.496 2.579 1.670 7775
1.429 2.464 1.600 5118
1.498 2.583 1.661 7820
1.431 2.467 1.592 3770
1.515 2.611 1.667 7302
1.448 2.495 1.598 2819
1.524 2.627 1.666 7825
1.457 2.511 1.597 1553
1.523 2.625 1.653 7199
1.590 2.741 1.722 1647
1.521 2.623 1.641 6918
1.589 2.739 1.709 2017
1.523 2.626 1.632 5927
1.591 2.743 1.700 2825
1.575 2.716 1.673 6562
1.508 2.599 1.606 4716
1.581 2.726 1.668 8951
1.514 2.609 1.601 3836
1.587 2.736 1.662 12069
1.519 2.619 1.596 1693
1.589 2.740 1.653 12562
1.591 2.744 1.644 10285
1.659 2.861 1.709 1282
1.594 2.747 1.635 9286
