0.077 2.500 1.665 9025
0.081 2.627 1.745 4190
0.077 2.511 1.662 7676
0.081 2.639 1.741 2938
0.078 2.529 1.663 6751
0.082 2.657 1.742 2244
0.079 2.574 1.681 5571
0.083 2.702 1.759 1063
0.080 2.599 1.686 5460
0.080 2.617 1.686 5370
0.081 2.635 1.687 5743
0.085 2.764 1.764 1096
0.081 2.639 1.680 5570
0.085 2.768 1.757 1896
0.081 2.644 1.672 5397
0.085 2.773 1.749 2696
0.082 2.655 1.668 7078
0.086 2.785 1.745 2786
0.082 2.660 1.661 8797
0.086 2.789 1.737 3335
0.082 2.671 1.657 8451
0.086 2.801 1.733 2575
0.082 2.682 1.654 9593
0.086 2.812 1.729 1825
0.082 2.680 1.642 10761
0.086 2.810 1.717 3132
0.082 2.684 1.634 10308
0.086 2.815 1.709 3443
0.082 2.681 1.623 9864
0.086 2.812 1.697 3245
0.083 2.693 1.619 8449
0.087 2.838 1.700 3579
0.083 2.704 1.615 7191
0.088 2.849 1.696 4589
0.083 2.708 1.607 5312
0.089 2.909 1.718 4852
0.090 2.914 1.710 6726
0.083 2.712 1.600 2370
0.090 2.918 1.702 7367
0.086 2.786 1.630 2213
0.090 2.923 1.693 6988
0.086 2.791 1.622 2049
0.091 2.955 1.700 7699
0.087 2.823 1.629 3383
0.091 2.960 1.692 6332
0.087 2.827 1.621 2754
0.091 2.957 1.679 4983
0.087 2.824 1.609 1481
0.093 3.018 1.700 7092
0.089 2.885 1.630 2953
0.093 3.029 1.695 11379
0.089 2.896 1.626 2536
0.093 3.034 1.687 12631
0.089 2.893 1.614 2606
0.094 3.045 1.682 9755
0.089 2.905 1.609 2129
0.094 3.064 1.680 7277
0.090 2.930 1.612 1403
0.095 3.090 1.682 8369
0.091 2.955 1.614 1347
0.095 3.094 1.673 11249
0.091 2.960 1.605 1118
0.095 3.091 1.661 13888
0.095 3.096 1.652 13710
0.095 3.107 1.646 10496
0.100 3.242 1.713 1192
0.096 3.140 1.652 10180
0.101 3.275 1.718 1181
0.097 3.145 1.642 9773
0.101 3.280 1.708 1504
0.098 3.192 1.654 11079
0.094 3.056 1.589 1556
0.098 3.196 1.645 14943
0.098 3.193 1.632 15385
0.098 3.190 1.620 13018
0.102 3.326 1.684 2992
0.101 3.302 1.661 10653
0.097 3.166 1.597 8219
0.102 3.307 1.652 15517
0.097 3.170 1.588 5042
0.102 3.304 1.639 17923
0.097 3.167 1.576 2486
0.102 3.308 1.629 15672
0.097 3.172 1.567 1863
0.102 3.313 1.620 10148
0.107 3.493 1.702 1875
0.104 3.389 1.643 9447
0.100 3.252 1.581 3925
0.104 3.393 1.633 9100
0.100 3.256 1.572 1892
0.104 3.398 1.623 7709
0.109 3.535 1.684 1268
0.105 3.402 1.614 6731
0.109 3.540 1.674 2020
0.105 3.421 1.610 7224
0.109 3.559 1.670 4519
0.109 3.556 1.657 6334
0.105 3.418 1.597 5190
0.108 3.524 1.631 7071
0.104 3.386 1.572 1168
0.110 3.579 1.643 7705
0.106 3.441 1.584 3062
0.111 3.613 1.645 10363
0.107 3.474 1.586 3220
0.112 3.632 1.640 9495
0.107 3.493 1.582 4081
0.112 3.651 1.636 8910
0.108 3.512 1.578 4325
0.113 3.670 1.632 9253
0.108 3.531 1.574 2434
0.114 3.703 1.633 9956
0.110 3.564 1.576 1844
0.114 3.722 1.628 8622
0.110 3.583 1.572 1415
0.115 3.756 1.629 6417
0.111 3.617 1.573 2616
0.116 3.775 1.624 6773
0.112 3.635 1.569 2753
0.116 3.779 1.614 8308
0.112 3.640 1.558 2571
0.116 3.769 1.597 6309
0.121 3.938 1.663 1782
0.113 3.692 1.555 4062
0.118 3.840 1.612 2569
0.117 3.799 1.584 3236
0.121 3.940 1.638 2657
0.121 3.937 1.624 4617
0.117 3.796 1.570 2626
0.121 3.948 1.615 4881
0.117 3.808 1.562 2066
0.122 3.975 1.612 4572
0.118 3.834 1.559 2072
0.122 3.987 1.603 5416
0.127 4.128 1.656 2645
0.123 3.998 1.595 5319
0.127 4.139 1.647 4213
0.125 4.084 1.613 4249
0.120 3.921 1.553 3168
0.128 4.163 1.628 3642
0.121 3.925 1.542 2529
0.128 4.167 1.616 5194
0.120 3.922 1.528 2758
0.129 4.187 1.610 5544
0.124 4.045 1.559 2099
0.129 4.206 1.603 4880
0.125 4.056 1.550 1913
0.129 4.195 1.585 4329
0.133 4.337 1.635 1891
0.129 4.199 1.573 3833
0.133 4.341 1.623 1549
0.130 4.218 1.566 3446
0.134 4.361 1.615 1921
0.134 4.357 1.600 5347
0.130 4.215 1.552 2394
0.134 4.362 1.587 7606
0.139 4.512 1.638 2344
0.134 4.358 1.572 8328
0.138 4.501 1.620 4455
0.134 4.370 1.562 7721
0.139 4.513 1.609 6977
0.139 4.517 1.596 7259
0.134 4.374 1.550 5366
0.139 4.521 1.583 5909
0.135 4.378 1.537 4053
0.140 4.571 1.585 4973
0.135 4.397 1.529 3574
0.141 4.598 1.579 4811
0.135 4.409 1.519 2383
0.139 4.534 1.544 4485
0.144 4.677 1.589 3414
0.143 4.651 1.566 3971
0.139 4.508 1.522 1726
0.145 4.708 1.569 2798
0.149 4.852 1.613 1123
0.145 4.720 1.558 3520
0.145 4.724 1.544 3906
0.150 4.868 1.587 1083
0.146 4.743 1.535 4346
0.150 4.888 1.578 2088
0.149 4.861 1.555 4231
0.145 4.717 1.512 3240
0.150 4.881 1.545 4761
0.145 4.714 1.497 1909
0.150 4.885 1.531 5345
0.146 4.740 1.489 1669
0.152 4.942 1.532 4143
0.147 4.782 1.487 1506
0.152 4.954 1.520 3286
0.157 5.098 1.561 1183
0.153 4.988 1.514 2947
0.149 4.843 1.474 1563
0.153 4.992 1.500 3602
0.158 5.137 1.540 1969
0.155 5.050 1.500 3886
0.160 5.210 1.544 1685
0.160 5.214 1.529 2709
0.155 5.054 1.485 2566
0.160 5.218 1.514 3307
0.166 5.402 1.562 1423
0.162 5.260 1.509 4434
0.166 5.406 1.547 2325
0.164 5.349 1.515 7803
0.160 5.203 1.477 2863
0.165 5.360 1.502 6346
0.169 5.513 1.541 2578
0.165 5.379 1.490 4893
0.170 5.525 1.527 2794
0.165 5.383 1.475 4935
0.173 5.629 1.536 2885
0.173 5.641 1.522 3157
0.166 5.403 1.463 2603
0.172 5.583 1.490 2754
0.167 5.437 1.455 2049
0.173 5.618 1.482 3535
0.168 5.472 1.446 1373
0.173 5.645 1.471 4207
0.181 5.907 1.533 1285
0.175 5.687 1.464 3197
0.181 5.895 1.513 2308
0.178 5.807 1.474 3663
0.174 5.660 1.440 1278
0.179 5.811 1.457 3322
0.183 5.957 1.491 1644
0.184 5.984 1.479 2698
0.178 5.784 1.433 1434
0.184 5.996 1.463 2727
0.180 5.849 1.430 1083
0.185 6.031 1.453 2524
0.193 6.286 1.509 1676
0.185 6.034 1.435 2865
0.193 6.282 1.489 2694
0.186 6.038 1.418 2564
0.193 6.278 1.469 2295
0.185 6.019 1.395 2805
0.193 6.290 1.452 1906
0.194 6.301 1.436 2525
0.185 6.030 1.379 2209
0.194 6.305 1.418 3386
0.207 6.724 1.503 1237
0.194 6.309 1.399 2792
0.206 6.704 1.479 2300
0.206 6.708 1.460 3797
0.201 6.530 1.424 3112
0.201 6.533 1.405 3706
0.207 6.728 1.443 3695
0.207 6.724 1.422 3016
0.201 6.553 1.389 2762
0.208 6.774 1.412 2468
0.215 6.992 1.453 1939
0.216 7.019 1.437 2537
0.208 6.785 1.393 2497
0.216 7.015 1.415 2381
0.224 7.295 1.466 1961
0.225 7.322 1.449 2059
0.217 7.073 1.405 1300
0.218 7.084 1.385 2234
0.225 7.334 1.430 1947
0.227 7.400 1.419 2844
0.218 7.080 1.364 2235
0.227 7.388 1.395 3480
0.234 7.614 1.434 1817
0.227 7.376 1.371 2203
0.234 7.610 1.410 1921
0.241 7.832 1.425 1786
0.232 7.536 1.375 1758
0.247 8.047 1.436 2178
0.232 7.563 1.357 1952
0.247 8.043 1.411 2046
0.233 7.574 1.337 1799
0.247 8.031 1.386 1340
0.242 7.882 1.362 1103
0.257 8.379 1.415 1413
0.248 8.081 1.370 1289
0.258 8.398 1.393 1792
0.248 8.077 1.345 1231
0.259 8.417 1.371 1505
0.263 8.566 1.393 1403
0.263 8.570 1.368 1369
0.279 9.094 1.444 1280
0.273 8.887 1.388 1904
0.279 9.075 1.414 1398
0.273 8.882 1.361 2423
0.282 9.165 1.400 1749
0.281 9.145 1.370 1900
0.273 8.886 1.335 1654
0.280 9.125 1.340 1961
0.280 9.120 1.313 1527
0.283 9.210 1.297 1368
0.074 2.223 1.694 5922
0.079 2.345 1.782 1420
0.075 2.228 1.688 11845
0.079 2.350 1.775 2841
0.075 2.232 1.682 11845
0.079 2.355 1.768 2841
0.075 2.237 1.675 12134
0.079 2.360 1.762 4617
0.075 2.241 1.669 12423
0.079 2.364 1.755 6393
0.075 2.252 1.667 14304
0.080 2.376 1.753 7787
0.076 2.257 1.660 16436
0.080 2.380 1.746 9549
0.076 2.261 1.654 16498
0.080 2.385 1.739 9549
0.076 2.259 1.643 15388
0.080 2.390 1.732 8823
0.076 2.263 1.637 14454
0.080 2.394 1.726 8096
0.076 2.268 1.630 12861
0.081 2.405 1.723 8852
0.076 2.279 1.628 11527
0.081 2.410 1.716 9661
0.081 2.415 1.709 9383
0.076 2.283 1.622 9132
0.081 2.419 1.703 9104
0.077 2.287 1.615 6736
0.081 2.430 1.700 9799
0.077 2.291 1.609 4749
0.082 2.441 1.697 10736
0.077 2.289 1.598 2764
0.082 2.446 1.690 10703
0.077 2.293 1.591 1761
0.082 2.464 1.692 10162
0.083 2.488 1.698 11990
0.083 2.493 1.691 11199
0.088 2.620 1.771 1684
0.084 2.504 1.688 10574
0.088 2.631 1.768 2241
0.084 2.502 1.676 9630
0.088 2.629 1.756 3295
0.084 2.500 1.665 8953
0.088 2.627 1.745 4486
0.084 2.511 1.662 7728
0.088 2.639 1.741 2836
0.085 2.529 1.663 6855
0.089 2.657 1.742 1894
0.086 2.574 1.681 5548
0.090 2.702 1.759 1247
0.087 2.592 1.682 5191
0.091 2.720 1.760 1148
0.087 2.596 1.674 4609
0.091 2.725 1.752 1812
0.087 2.607 1.671 4064
0.092 2.736 1.748 2293
0.088 2.619 1.667 4029
0.092 2.748 1.744 2802
0.088 2.623 1.660 4037
0.092 2.759 1.741 3533
0.088 2.634 1.656 5602
0.093 2.764 1.733 4245
0.089 2.646 1.653 7334
0.093 2.775 1.729 4459
0.089 2.664 1.653 7207
0.094 2.794 1.729 3536
0.090 2.682 1.654 8228
0.094 2.812 1.729 2187
0.090 2.679 1.642 8957
0.094 2.810 1.717 3788
0.090 2.684 1.634 8584
0.094 2.814 1.709 3944
0.090 2.688 1.627 8211
0.094 2.819 1.701 3340
0.090 2.692 1.619 6932
0.095 2.844 1.704 3565
0.091 2.704 1.615 5790
0.096 2.856 1.700 4614
0.097 2.902 1.715 4803
0.091 2.708 1.607 4066
0.098 2.913 1.710 6634
0.093 2.782 1.638 1792
0.097 2.911 1.698 7874
0.093 2.779 1.626 1643
0.098 2.915 1.690 7661
0.093 2.783 1.618 1685
0.099 2.955 1.700 7468
0.094 2.822 1.629 3814
0.099 2.959 1.692 5891
0.095 2.827 1.621 3227
0.100 2.999 1.702 4608
0.096 2.866 1.631 3293
0.101 3.017 1.700 6688
0.097 2.884 1.630 3133
0.101 3.022 1.692 10540
0.097 2.889 1.622 2916
0.101 3.026 1.683 11767
0.097 2.893 1.614 3317
0.102 3.045 1.682 9152
0.097 2.904 1.609 2772
0.103 3.071 1.684 7556
0.098 2.937 1.615 1790
0.103 3.089 1.682 9081
0.099 2.955 1.614 1928
0.104 3.094 1.673 11502
0.099 2.960 1.605 1570
0.103 3.091 1.661 13170
0.104 3.096 1.652 12565
0.104 3.100 1.643 9541
0.108 3.235 1.710 1384
0.105 3.140 1.652 8624
0.105 3.137 1.639 8703
0.110 3.272 1.705 1381
0.107 3.191 1.654 10867
0.102 3.056 1.589 1533
0.107 3.196 1.645 15546
0.107 3.200 1.636 16259
0.107 3.197 1.623 13262
0.112 3.333 1.687 2275
0.110 3.295 1.658 11062
0.106 3.159 1.594 7249
0.111 3.306 1.652 15240
0.106 3.170 1.588 5098
0.111 3.311 1.642 17161
0.106 3.174 1.579 2424
0.111 3.308 1.629 14625
0.106 3.171 1.567 1895
0.114 3.392 1.656 10000
0.109 3.255 1.594 6707
0.114 3.396 1.646 9738
0.109 3.259 1.584 4995
0.114 3.400 1.636 9093
0.109 3.263 1.575 2958
0.114 3.390 1.620 7684
0.119 3.557 1.694 1426
0.114 3.395 1.610 6865
0.119 3.554 1.681 1574
0.114 3.413 1.607 7045
0.119 3.551 1.667 3385
0.115 3.447 1.610 5770
0.120 3.585 1.669 3886
0.118 3.524 1.631 7554
0.113 3.386 1.572 1281
0.118 3.535 1.624 8212
0.123 3.673 1.683 1328
0.120 3.598 1.639 10131
0.116 3.459 1.580 2493
0.121 3.624 1.637 8485
0.117 3.485 1.579 3811
0.122 3.650 1.636 7664
0.118 3.512 1.578 4592
0.123 3.684 1.638 7778
0.119 3.545 1.580 3061
0.124 3.696 1.630 9217
0.119 3.557 1.573 1635
0.124 3.700 1.619 8408
0.124 3.690 1.603 6303
0.128 3.829 1.659 1167
0.126 3.775 1.624 5722
0.122 3.635 1.569 2814
0.126 3.764 1.608 7613
0.121 3.625 1.552 2035
0.124 3.702 1.571 6692
0.129 3.842 1.626 2898
0.124 3.692 1.555 4120
0.132 3.950 1.655 3990
0.132 3.954 1.644 4788
0.127 3.792 1.581 3424
0.132 3.944 1.627 6366
0.127 3.796 1.570 2667
0.132 3.956 1.618 6236
0.128 3.815 1.565 2123
0.133 3.967 1.609 4155
0.128 3.826 1.556 2173
0.134 3.994 1.606 5029
0.138 4.135 1.659 2659
0.134 3.998 1.595 7267
0.139 4.139 1.647 4454
0.134 3.995 1.580 6418
0.139 4.151 1.638 4167
0.139 4.140 1.620 3690
0.134 3.992 1.566 3143
0.139 4.160 1.614 5261
0.131 3.921 1.528 1942
0.140 4.186 1.610 5809
0.135 4.045 1.559 2840
0.141 4.220 1.608 5481
0.136 4.071 1.555 2475
0.141 4.202 1.588 4085
0.136 4.060 1.538 1816
0.141 4.206 1.576 3352
0.146 4.348 1.625 1379
0.141 4.226 1.569 3533
0.146 4.368 1.618 1757
0.146 4.357 1.600 5277
0.141 4.215 1.552 2926
0.146 4.361 1.587 7511
0.151 4.511 1.638 2415
0.146 4.365 1.575 8237
0.151 4.508 1.622 3928
0.147 4.377 1.565 7706
0.151 4.520 1.612 5314
0.147 4.389 1.555 5443
0.152 4.532 1.601 4926
0.151 4.521 1.583 4887
0.147 4.378 1.537 3561
0.153 4.578 1.587 4757
0.147 4.397 1.529 3090
0.154 4.597 1.579 4680
0.148 4.416 1.521 2274
0.156 4.647 1.580 3889
0.151 4.503 1.535 2847
0.156 4.658 1.569 3706
0.151 4.515 1.524 1648
0.157 4.700 1.567 2598
0.162 4.844 1.611 1233
0.158 4.705 1.553 4054
0.162 4.848 1.597 1107
0.158 4.724 1.544 3574
0.163 4.868 1.587 1056
0.162 4.826 1.560 4249
0.157 4.682 1.517 1877
0.163 4.861 1.555 4648
0.158 4.717 1.512 2306
0.163 4.873 1.543 4038
0.158 4.706 1.494 1507
0.163 4.877 1.529 4257
0.168 5.021 1.571 1688
0.163 4.881 1.515 3484
0.168 5.025 1.556 2966
0.164 4.885 1.501 2862
0.169 5.045 1.546 2702
0.167 4.980 1.512 2539
0.137 4.104 1.268 1394
0.167 4.999 1.502 3072
0.172 5.144 1.542 1894
0.169 5.049 1.500 4071
0.177 5.278 1.562 1594
0.174 5.206 1.527 2568
0.169 5.053 1.485 2506
0.175 5.218 1.514 3282
0.181 5.401 1.562 1191
0.176 5.260 1.509 4752
0.171 5.114 1.470 2162
0.179 5.348 1.515 7535
0.174 5.203 1.477 2941
0.179 5.352 1.500 6538
0.184 5.505 1.539 2173
0.180 5.364 1.486 4985
0.184 5.509 1.523 3070
0.180 5.383 1.475 4897
0.189 5.636 1.538 2775
0.190 5.663 1.527 2924
0.181 5.410 1.465 2878
0.186 5.552 1.483 3660
0.191 5.698 1.519 2170
0.188 5.602 1.478 3754
0.192 5.748 1.513 2081
0.189 5.644 1.471 3617
0.198 5.906 1.533 1268
0.190 5.679 1.462 2570
0.198 5.902 1.514 2051
0.195 5.814 1.476 3336
0.190 5.668 1.442 1345
0.195 5.818 1.459 2850
0.200 5.964 1.493 2019
0.200 5.976 1.477 2900
0.193 5.775 1.432 1162
0.199 5.934 1.449 3090
0.202 6.030 1.453 3001
0.210 6.285 1.509 1922
0.211 6.289 1.490 3182
0.202 6.026 1.433 3057
0.211 6.293 1.472 2772
0.202 6.038 1.418 2421
0.211 6.305 1.456 2357
0.202 6.026 1.397 2340
0.211 6.308 1.437 2608
0.202 6.037 1.381 1947
0.211 6.312 1.419 3408
0.225 6.723 1.503 1162
0.211 6.308 1.399 3158
0.224 6.704 1.479 2536
0.225 6.708 1.460 4066
0.219 6.529 1.424 2906
0.225 6.719 1.442 3704
0.219 6.533 1.405 3464
0.225 6.715 1.421 3148
0.219 6.544 1.388 2514
0.225 6.719 1.401 2516
0.234 6.991 1.453 1842
0.227 6.785 1.393 2412
0.235 7.018 1.437 2280
0.235 7.014 1.415 2137
0.244 7.294 1.466 1628
0.245 7.329 1.451 1745
0.234 6.994 1.391 1325
0.237 7.068 1.383 2129
0.246 7.341 1.431 1727
0.247 7.391 1.418 3040
0.237 7.064 1.361 2589
0.247 7.387 1.395 3872
0.255 7.613 1.434 1744
0.247 7.375 1.371 2859
0.255 7.617 1.412 1619
0.262 7.839 1.426 2189
0.247 7.387 1.351 1573
0.262 7.828 1.401 2097
0.270 8.054 1.437 2008
0.270 8.050 1.413 1811
0.254 7.573 1.337 1531
0.260 7.757 1.343 1359
0.281 8.398 1.443 1145
0.281 8.401 1.419 1305
0.261 7.807 1.328 1152
0.281 8.405 1.394 1660
0.270 8.076 1.345 1191
0.305 9.113 1.474 1648
0.287 8.573 1.394 1524
0.287 8.585 1.370 1596
0.305 9.109 1.446 1408
0.297 8.886 1.388 1894
0.288 8.596 1.347 1594
0.297 8.882 1.361 2360
0.307 9.164 1.400 1814
0.306 9.136 1.369 2132
0.297 8.885 1.335 1645
0.306 9.132 1.341 2046
0.306 9.127 1.314 1544
0.308 9.201 1.296 1552
0.083 2.223 1.694 6213
0.087 2.345 1.782 1158
0.083 2.227 1.688 12426
0.087 2.350 1.775 2316
0.083 2.232 1.682 12426
0.088 2.355 1.768 2316
0.083 2.236 1.675 12685
0.088 2.359 1.762 4183
0.083 2.241 1.669 12943
0.088 2.364 1.755 6050
0.083 2.245 1.662 14702
0.088 2.369 1.748 7761
0.084 2.256 1.660 16672
0.088 2.380 1.746 9232
0.084 2.261 1.654 16456
0.089 2.385 1.739 9232
0.084 2.259 1.643 15049
0.089 2.383 1.728 8475
0.084 2.263 1.637 14002
0.089 2.394 1.726 7640
0.084 2.267 1.630 12124
0.089 2.405 1.723 8193
0.085 2.278 1.628 10488
0.090 2.410 1.716 8795
0.090 2.414 1.709 9012
0.085 2.283 1.622 8201
0.089 2.399 1.689 9736
0.085 2.274 1.606 5123
0.090 2.410 1.687 9674
0.085 2.285 1.604 4070
0.090 2.421 1.684 9817
0.085 2.295 1.602 2494
0.090 2.426 1.677 9815
0.085 2.293 1.591 1597
0.092 2.477 1.701 8779
0.093 2.488 1.698 11379
0.093 2.499 1.695 10980
0.098 2.626 1.776 1516
0.093 2.504 1.688 10718
0.098 2.631 1.768 2519
0.093 2.502 1.676 9679
0.098 2.629 1.756 3514
0.093 2.499 1.665 8894
0.098 2.627 1.745 4729
0.093 2.511 1.662 7874
0.098 2.638 1.741 3041
0.094 2.522 1.659 7082
0.099 2.650 1.738 1883
0.096 2.580 1.685 5278
0.101 2.708 1.763 1145
0.096 2.591 1.682 4494
0.101 2.720 1.760 1360
0.097 2.596 1.674 3991
0.101 2.725 1.752 2163
0.100 2.702 1.728 3664
0.096 2.573 1.650 2879
0.097 2.605 1.659 4164
0.102 2.734 1.736 3099
0.097 2.609 1.652 4840
0.103 2.759 1.741 3603
0.097 2.620 1.648 5346
0.103 2.757 1.729 4313
0.098 2.632 1.645 5959
0.103 2.761 1.721 5097
0.099 2.657 1.649 5920
0.104 2.787 1.725 4616
0.103 2.771 1.705 6712
0.098 2.640 1.630 4777
0.103 2.782 1.701 7000
0.099 2.652 1.626 4783
0.100 2.683 1.634 6324
0.105 2.814 1.709 4671
0.100 2.688 1.627 5940
0.105 2.819 1.701 3812
0.100 2.692 1.619 4713
0.106 2.858 1.712 3997
0.106 2.862 1.704 4845
0.101 2.703 1.615 3519
0.107 2.874 1.699 4745
0.100 2.701 1.603 2203
0.108 2.913 1.710 5976
0.103 2.781 1.638 1612
0.108 2.911 1.698 7850
0.103 2.779 1.626 1504
0.108 2.894 1.678 8518
0.113 3.026 1.750 2200
0.107 2.878 1.659 8169
0.112 3.010 1.730 4144
0.107 2.875 1.647 6113
0.112 3.008 1.718 4408
0.111 2.998 1.702 4512
0.107 2.866 1.631 3457
0.112 3.017 1.700 6527
0.107 2.884 1.630 3432
0.112 3.022 1.692 9831
0.107 2.888 1.622 3829
0.113 3.026 1.683 10863
0.108 2.893 1.614 4363
0.113 3.038 1.678 8305
0.108 2.904 1.609 3801
0.115 3.084 1.691 7758
0.110 2.951 1.622 2712
0.115 3.096 1.686 9591
0.110 2.962 1.617 2886
0.115 3.093 1.673 11211
0.110 2.959 1.605 1967
0.115 3.091 1.661 11575
0.115 3.088 1.648 10739
0.115 3.092 1.639 8654
0.120 3.227 1.706 1371
0.116 3.118 1.641 6816
0.121 3.253 1.707 1525
0.116 3.130 1.636 7386
0.121 3.265 1.701 1317
0.119 3.191 1.654 9855
0.114 3.056 1.589 1871
0.119 3.195 1.645 15121
0.119 3.200 1.636 16273
0.119 3.204 1.627 13126
0.124 3.340 1.691 1583
0.122 3.294 1.658 11193
0.117 3.158 1.594 7436
0.123 3.306 1.652 14636
0.118 3.170 1.588 4863
0.123 3.310 1.642 15894
0.118 3.174 1.579 2039
0.123 3.308 1.629 13012
0.118 3.171 1.567 1701
0.126 3.391 1.656 11310
0.121 3.254 1.594 6652
0.126 3.396 1.646 10457
0.121 3.259 1.584 5209
0.126 3.400 1.636 9391
0.121 3.263 1.575 3412
0.126 3.390 1.620 7697
0.132 3.549 1.691 1668
0.126 3.387 1.607 6824
0.132 3.539 1.674 1870
0.127 3.406 1.604 6417
0.132 3.543 1.664 3093
0.131 3.519 1.641 5948
0.126 3.381 1.581 3474
0.131 3.523 1.631 8137
0.126 3.385 1.572 1675
0.131 3.535 1.624 8965
0.126 3.397 1.565 1351
0.133 3.583 1.632 10257
0.128 3.444 1.574 2793
0.134 3.616 1.634 7434
0.129 3.478 1.576 4047
0.136 3.657 1.639 6753
0.131 3.518 1.581 5586
0.137 3.676 1.635 6739
0.132 3.537 1.577 3026
0.137 3.695 1.630 7994
0.132 3.556 1.573 1517
0.137 3.685 1.613 8081
0.136 3.667 1.594 6331
0.142 3.807 1.650 1678
0.137 3.671 1.583 5102
0.142 3.811 1.639 2087
0.138 3.705 1.584 7512
0.144 3.859 1.646 1732
0.137 3.694 1.568 7037
0.146 3.937 1.663 3556
0.147 3.949 1.655 5612
0.140 3.772 1.586 3968
0.147 3.954 1.644 6145
0.141 3.784 1.578 3865
0.147 3.951 1.629 5782
0.141 3.788 1.567 2832
0.147 3.955 1.618 5519
0.142 3.814 1.565 2177
0.147 3.959 1.607 4976
0.142 3.819 1.554 2094
0.148 3.993 1.606 5409
0.154 4.134 1.659 2650
0.149 3.997 1.595 7598
0.154 4.138 1.647 4248
0.149 4.002 1.583 7818
0.154 4.143 1.635 4196
0.149 3.998 1.569 4929
0.154 4.140 1.620 4527
0.154 4.152 1.611 5556
0.149 4.010 1.560 2757
0.156 4.201 1.615 6206
0.151 4.059 1.564 3942
0.157 4.220 1.608 6132
0.152 4.078 1.558 3110
0.157 4.217 1.593 3746
0.152 4.075 1.544 2767
0.156 4.198 1.573 2359
0.161 4.340 1.623 1366
0.159 4.277 1.587 2918
0.162 4.356 1.600 5434
0.157 4.214 1.552 3277
0.162 4.361 1.587 7163
0.157 4.218 1.539 2690
0.162 4.365 1.575 7142
0.168 4.508 1.622 3368
0.163 4.377 1.565 6862
0.168 4.519 1.612 3655
0.163 4.388 1.555 4853
0.168 4.531 1.601 2927
0.168 4.520 1.583 3569
0.163 4.377 1.537 2724
0.167 4.494 1.561 4176
0.172 4.638 1.606 2339
0.171 4.604 1.581 3783
0.164 4.423 1.524 2934
0.173 4.646 1.580 3684
0.167 4.503 1.535 2419
0.173 4.650 1.566 3348
0.168 4.507 1.522 1285
0.175 4.707 1.569 2912
0.170 4.564 1.525 1842
0.175 4.711 1.555 5494
0.170 4.568 1.512 1254
0.176 4.723 1.544 4536
0.181 4.867 1.587 1045
0.180 4.833 1.562 4358
0.174 4.689 1.519 1557
0.181 4.860 1.555 4842
0.175 4.716 1.512 2298
0.181 4.872 1.543 3061
0.176 4.728 1.501 2483
0.181 4.861 1.525 2887
0.186 5.005 1.566 1647
0.181 4.865 1.511 3371
0.187 5.032 1.558 2912
0.188 5.052 1.548 3326
0.182 4.884 1.501 2999
0.189 5.079 1.540 2605
0.183 4.934 1.499 2393
0.189 5.083 1.525 2990
0.184 4.938 1.485 1696
0.188 5.048 1.500 3818
0.197 5.300 1.569 1414
0.191 5.144 1.510 2656
0.186 4.999 1.471 1316
0.191 5.148 1.495 4300
0.197 5.293 1.534 1908
0.195 5.251 1.507 4760
0.190 5.106 1.468 1697
0.199 5.347 1.515 7046
0.193 5.202 1.477 2818
0.199 5.359 1.502 7119
0.194 5.213 1.464 1766
0.199 5.363 1.486 6758
0.205 5.524 1.527 2503
0.200 5.367 1.471 5712
0.207 5.566 1.521 2303
0.201 5.401 1.463 2890
0.206 5.547 1.499 2569
0.206 5.536 1.479 4307
0.211 5.682 1.515 2188
0.207 5.563 1.469 3464
0.213 5.724 1.508 3011
0.213 5.736 1.493 3478
0.208 5.590 1.458 1878
0.211 5.686 1.464 2187
0.219 5.879 1.509 1702
0.216 5.813 1.476 2540
0.222 5.960 1.510 1698
0.221 5.956 1.491 3026
0.216 5.809 1.457 2055
0.222 5.975 1.477 3451
0.216 5.798 1.437 1022
0.221 5.941 1.451 3446
0.224 6.029 1.453 3651
0.234 6.292 1.510 2092
0.234 6.296 1.492 3682
0.224 6.033 1.435 3599
0.234 6.292 1.472 3314
0.225 6.045 1.419 2771
0.234 6.304 1.456 2827
0.227 6.110 1.415 2239
0.235 6.315 1.439 2708
0.224 6.037 1.381 1609
0.235 6.319 1.421 3447
0.249 6.699 1.498 1062
0.235 6.315 1.401 3261
0.249 6.695 1.477 2768
0.249 6.707 1.460 4157
0.238 6.412 1.401 2514
0.250 6.718 1.442 3462
0.243 6.532 1.405 2475
0.250 6.714 1.421 3082
0.243 6.536 1.386 1984
0.249 6.702 1.398 2602
0.260 6.982 1.451 1773
0.252 6.784 1.393 1980
0.261 7.017 1.437 1812
0.259 6.967 1.406 1773
0.267 7.177 1.445 1291
0.256 6.885 1.371 1373
0.268 7.204 1.428 1276
0.262 7.059 1.381 2215
0.274 7.363 1.435 1612
0.275 7.383 1.417 3240
0.263 7.063 1.361 2894
0.274 7.379 1.394 4262
0.263 7.067 1.340 2101
0.274 7.367 1.370 3591
0.292 7.842 1.450 1698
0.291 7.838 1.426 2549
0.274 7.378 1.350 1989
0.291 7.834 1.402 2236
0.300 8.069 1.440 1744
0.288 7.736 1.363 1800
0.300 8.072 1.416 1486
0.288 7.748 1.342 1696
0.312 8.397 1.443 1312
0.312 8.400 1.419 1220
0.290 7.806 1.328 1114
0.312 8.404 1.394 1334
0.338 9.100 1.499 1205
0.339 9.112 1.474 2013
0.319 8.580 1.395 1562
0.339 9.116 1.447 1710
0.319 8.583 1.370 1688
0.330 8.877 1.386 1815
0.320 8.595 1.347 1572
0.330 8.880 1.361 2119
0.340 9.155 1.399 2036
0.340 9.135 1.369 2478
0.330 8.884 1.335 1492
0.340 9.131 1.341 2161
0.340 9.142 1.316 1581
0.342 9.192 1.295 1682
0.089 2.223 1.694 6203
0.089 2.227 1.688 12406
0.094 2.350 1.775 1949
0.089 2.232 1.682 12406
0.094 2.354 1.768 1949
0.090 2.236 1.675 12473
0.094 2.359 1.762 3854
0.090 2.241 1.669 12539
0.095 2.364 1.755 5759
0.090 2.245 1.662 14130
0.095 2.368 1.748 7508
0.090 2.256 1.660 15802
0.095 2.380 1.746 8918
0.090 2.260 1.654 15356
0.095 2.384 1.739 8918
0.090 2.258 1.643 13824
0.095 2.382 1.728 8156
0.091 2.263 1.637 12785
0.096 2.394 1.726 7227
0.091 2.267 1.630 10714
0.096 2.405 1.723 7531
0.091 2.278 1.628 8852
0.097 2.416 1.721 7955
0.096 2.407 1.705 8602
0.091 2.282 1.622 6769
0.096 2.399 1.689 10190
0.091 2.273 1.606 3966
0.096 2.410 1.687 9788
0.091 2.284 1.604 3246
0.097 2.414 1.680 9493
0.092 2.289 1.598 2052
0.097 2.419 1.673 9442
0.092 2.293 1.591 1349
0.099 2.483 1.705 7705
0.100 2.488 1.698 10577
0.100 2.499 1.695 10445
0.105 2.626 1.776 1625
0.100 2.503 1.688 10346
0.105 2.631 1.768 2629
0.100 2.501 1.676 9343
0.105 2.629 1.756 3491
0.100 2.499 1.665 8585
0.105 2.627 1.745 4625
0.100 2.510 1.662 7744
0.106 2.638 1.741 3329
0.101 2.521 1.659 7050
0.106 2.649 1.738 2417
0.103 2.580 1.685 4919
0.108 2.708 1.763 1173
0.104 2.591 1.682 3911
0.109 2.719 1.760 1399
0.104 2.596 1.674 3466
0.109 2.724 1.752 2270
0.108 2.702 1.728 4069
0.103 2.573 1.650 2452
0.105 2.625 1.671 4580
0.110 2.754 1.748 2778
0.106 2.636 1.668 6243
0.111 2.765 1.745 3308
0.105 2.627 1.652 5530
0.110 2.756 1.729 3914
0.105 2.625 1.641 5076
0.110 2.754 1.717 4739
0.111 2.766 1.713 5654
0.106 2.636 1.637 4404
0.111 2.777 1.709 6856
0.106 2.647 1.634 3956
0.111 2.782 1.701 7362
0.106 2.651 1.626 3988
0.112 2.786 1.693 6543
0.106 2.656 1.619 3615
0.111 2.784 1.681 5365
0.106 2.653 1.607 2676
0.114 2.857 1.712 4637
0.108 2.692 1.619 3506
0.115 2.862 1.704 5255
0.108 2.696 1.611 2236
0.115 2.873 1.699 4817
0.108 2.693 1.600 1457
0.117 2.913 1.710 4985
0.111 2.781 1.638 1319
0.116 2.896 1.690 7251
0.111 2.764 1.618 1151
0.116 2.887 1.675 8909
0.121 3.019 1.746 2544
0.115 2.878 1.659 8391
0.120 3.010 1.730 3880
0.115 2.868 1.643 6022
0.120 3.001 1.714 4534
0.120 3.005 1.705 4411
0.115 2.872 1.635 3541
0.121 3.017 1.700 6401
0.115 2.884 1.630 3631
0.121 3.021 1.692 9221
0.116 2.888 1.622 4489
0.121 3.019 1.679 9993
0.116 2.885 1.610 4367
0.121 3.030 1.674 7446
0.116 2.897 1.605 3975
0.123 3.084 1.691 7630
0.118 2.950 1.622 2742
0.124 3.096 1.686 9428
0.119 2.962 1.617 3077
0.124 3.093 1.673 10221
0.118 2.959 1.605 2075
0.124 3.090 1.661 9366
0.124 3.088 1.648 8321
0.124 3.085 1.636 7726
0.129 3.220 1.703 1085
0.124 3.089 1.627 7047
0.129 3.224 1.693 2712
0.124 3.094 1.618 6837
0.129 3.229 1.684 3786
0.128 3.198 1.658 8315
0.123 3.062 1.592 2378
0.128 3.202 1.648 13390
0.128 3.199 1.636 14760
0.128 3.204 1.627 12240
0.134 3.340 1.691 1444
0.132 3.287 1.654 10621
0.126 3.151 1.591 5787
0.132 3.306 1.652 13670
0.127 3.169 1.588 4354
0.132 3.303 1.639 14627
0.127 3.166 1.576 1397
0.132 3.307 1.629 11400
0.138 3.444 1.692 1374
0.136 3.391 1.656 12107
0.130 3.254 1.594 5954
0.136 3.395 1.646 10961
0.130 3.258 1.584 4707
0.136 3.407 1.639 9541
0.131 3.270 1.578 4042
0.136 3.389 1.620 7464
0.142 3.541 1.688 1802
0.135 3.379 1.604 6426
0.141 3.531 1.671 2790
0.136 3.391 1.597 5635
0.141 3.528 1.658 4143
0.141 3.518 1.641 6342
0.135 3.380 1.581 3992
0.141 3.523 1.631 8125
0.136 3.385 1.572 2301
0.142 3.542 1.627 9076
0.136 3.403 1.568 2088
0.143 3.575 1.629 10514
0.138 3.437 1.571 2932
0.143 3.579 1.619 7878
0.138 3.441 1.561 1525
0.142 3.540 1.590 6753
0.147 3.679 1.648 4955
0.147 3.668 1.632 5960
0.141 3.530 1.574 2827
0.148 3.687 1.627 6639
0.142 3.548 1.570 1386
0.148 3.684 1.613 6798
0.147 3.667 1.594 5529
0.147 3.671 1.583 4844
0.153 3.811 1.639 1325
0.148 3.705 1.584 7259
0.158 3.940 1.678 1795
0.148 3.694 1.568 6765
0.158 3.937 1.663 3540
0.158 3.949 1.655 5835
0.151 3.772 1.586 3963
0.159 3.961 1.646 6700
0.151 3.776 1.575 3967
0.158 3.950 1.629 5404
0.151 3.780 1.564 2710
0.158 3.955 1.618 4921
0.153 3.814 1.565 2146
0.159 3.966 1.609 5281
0.153 3.826 1.556 2312
0.160 3.985 1.603 5334
0.165 4.126 1.656 2533
0.160 4.004 1.597 7241
0.166 4.145 1.650 3491
0.160 4.009 1.586 7271
0.166 4.150 1.638 3568
0.166 4.139 1.620 4396
0.160 3.998 1.569 3635
0.166 4.159 1.614 5208
0.161 4.017 1.563 2581
0.168 4.200 1.615 6487
0.162 4.058 1.564 3768
0.169 4.227 1.611 6428
0.164 4.085 1.561 3440
0.169 4.224 1.596 3584
0.163 4.082 1.546 3130
0.166 4.153 1.558 2309
0.172 4.295 1.607 1395
0.172 4.284 1.589 2752
0.166 4.142 1.541 1086
0.174 4.356 1.600 5236
0.169 4.214 1.552 2965
0.175 4.360 1.587 6803
0.169 4.218 1.539 2571
0.175 4.372 1.577 5944
0.181 4.515 1.625 2871
0.175 4.384 1.567 5478
0.181 4.526 1.614 2507
0.176 4.388 1.555 3876
0.181 4.531 1.601 2678
0.181 4.512 1.581 3921
0.186 4.655 1.627 1864
0.181 4.509 1.565 4974
0.187 4.675 1.619 2301
0.181 4.513 1.552 3992
0.188 4.702 1.612 3026
0.186 4.653 1.582 3459
0.180 4.495 1.532 2320
0.186 4.650 1.566 3063
0.180 4.506 1.522 1143
0.189 4.714 1.571 2750
0.183 4.571 1.527 2189
0.189 4.719 1.558 5461
0.183 4.575 1.514 1477
0.189 4.730 1.546 4892
0.193 4.833 1.562 4279
0.188 4.689 1.519 1386
0.194 4.852 1.553 4280
0.188 4.708 1.510 1718
0.190 4.750 1.508 2403
0.196 4.894 1.550 2128
0.194 4.838 1.518 2389
0.201 5.028 1.573 1444
0.195 4.864 1.511 2982
0.201 5.032 1.558 2686
0.202 5.051 1.548 3735
0.196 4.884 1.501 2694
0.203 5.070 1.538 3552
0.197 4.926 1.497 2686
0.203 5.074 1.523 3578
0.197 4.930 1.483 1926
0.202 5.056 1.502 3283
0.212 5.292 1.567 1123
0.206 5.144 1.510 2709
0.200 4.998 1.471 1241
0.206 5.155 1.497 4499
0.212 5.300 1.536 1801
0.210 5.251 1.507 3960
0.204 5.106 1.468 1397
0.214 5.354 1.517 6272
0.209 5.209 1.479 2995
0.215 5.374 1.506 7869
0.209 5.228 1.468 1772
0.215 5.370 1.488 7920
0.222 5.546 1.533 2663
0.215 5.374 1.473 5921
0.223 5.566 1.521 3151
0.221 5.531 1.495 3170
0.216 5.385 1.459 2425
0.222 5.543 1.481 4500
0.228 5.689 1.517 2133
0.225 5.624 1.484 3463
0.231 5.770 1.519 2671
0.230 5.735 1.493 3798
0.224 5.589 1.458 1718
0.230 5.747 1.478 2614
0.236 5.893 1.513 1349
0.232 5.797 1.472 2460
0.238 5.944 1.506 2162
0.239 5.963 1.493 3616
0.233 5.816 1.459 1813
0.239 5.975 1.477 3647
0.233 5.828 1.444 1316
0.238 5.940 1.451 3775
0.241 6.029 1.453 3665
0.252 6.291 1.510 1883
0.242 6.032 1.435 3460
0.252 6.295 1.492 3444
0.252 6.299 1.474 3054
0.242 6.044 1.419 2618
0.252 6.295 1.454 2599
0.245 6.110 1.415 2296
0.252 6.307 1.437 2541
0.245 6.121 1.399 1692
0.253 6.318 1.421 3310
0.259 6.466 1.451 1176
0.253 6.322 1.402 3073
0.268 6.694 1.477 2724
0.268 6.706 1.460 3864
0.256 6.388 1.396 2373
0.269 6.718 1.442 3157
0.255 6.376 1.375 2079
0.268 6.706 1.419 2965
0.280 6.993 1.474 1744
0.268 6.702 1.398 2486
0.274 6.849 1.426 1632
0.273 6.822 1.401 1872
0.279 6.970 1.428 1430
0.277 6.911 1.396 1795
0.290 7.254 1.459 1398
0.276 6.892 1.372 1603
0.293 7.328 1.451 1526
0.283 7.059 1.381 2023
0.293 7.331 1.430 1902
0.295 7.374 1.415 3070
0.282 7.055 1.359 2812
0.295 7.370 1.392 3868
0.283 7.066 1.340 2242
0.295 7.358 1.368 3658
0.314 7.834 1.449 1616
0.314 7.838 1.426 2524
0.295 7.377 1.350 2088
0.314 7.833 1.402 2247
0.323 8.068 1.440 1597
0.310 7.736 1.363 1829
0.336 8.392 1.467 1445
0.310 7.747 1.342 1730
0.336 8.396 1.443 1393
0.336 8.399 1.419 1140
0.311 7.766 1.322 1012
0.325 8.121 1.352 1363
0.364 9.099 1.499 1253
0.365 9.111 1.474 2126
0.343 8.579 1.395 1556
0.365 9.115 1.447 1948
0.344 8.583 1.370 1547
0.366 9.150 1.425 1661
0.355 8.876 1.386 1639
0.366 9.146 1.398 2152
0.355 8.879 1.361 1754
0.365 9.126 1.368 2554
0.356 8.891 1.336 1267
0.365 9.130 1.341 2128
0.367 9.172 1.320 1597
0.368 9.184 1.294 1580
0.097 2.229 1.699 6041
0.097 2.233 1.692 12083
0.102 2.356 1.780 1597
0.097 2.238 1.686 12083
0.102 2.360 1.773 1597
0.097 2.236 1.675 11722
0.102 2.359 1.762 3735
0.097 2.240 1.669 11459
0.102 2.363 1.755 5700
0.097 2.245 1.662 12962
0.103 2.368 1.748 7544
0.098 2.249 1.656 14464
0.103 2.373 1.742 9388
0.098 2.254 1.650 13857
0.103 2.377 1.735 9388
0.098 2.258 1.643 12269
0.103 2.382 1.728 8162
0.098 2.256 1.632 11418
0.104 2.393 1.726 7134
0.098 2.267 1.630 9075
0.104 2.404 1.723 7122
0.105 2.416 1.721 7291
0.099 2.278 1.628 7000
0.104 2.407 1.705 8495
0.099 2.282 1.622 5139
0.104 2.398 1.689 10803
0.099 2.273 1.606 2734
0.104 2.403 1.683 10043
0.099 2.277 1.600 2071
0.105 2.414 1.680 9340
0.099 2.288 1.598 1533
0.105 2.412 1.669 9311
0.110 2.538 1.751 1387
0.104 2.410 1.658 6958
0.110 2.536 1.739 2430
0.108 2.487 1.698 9636
0.108 2.499 1.695 9558
0.114 2.625 1.776 1672
0.109 2.503 1.688 9508
0.114 2.630 1.768 2590
0.108 2.501 1.676 8828
0.114 2.628 1.756 3303
0.108 2.499 1.665 8356
0.114 2.626 1.745 4357
0.109 2.510 1.662 7667
0.114 2.638 1.741 3721
0.109 2.521 1.659 7074
0.115 2.649 1.738 3316
0.112 2.586 1.689 5103
0.107 2.458 1.610 1365
0.112 2.591 1.682 3840
0.118 2.719 1.760 1325
0.114 2.636 1.699 4373
0.109 2.507 1.621 1004
0.115 2.647 1.695 5707
0.120 2.776 1.773 1063
0.115 2.645 1.684 7562
0.120 2.774 1.761 1854
0.115 2.649 1.676 9437
0.120 2.779 1.753 2435
0.115 2.654 1.668 7703
0.121 2.783 1.745 2421
0.115 2.658 1.661 5969
0.121 2.788 1.737 2406
0.120 2.765 1.713 4991
0.114 2.635 1.637 3427
0.120 2.777 1.709 6534
0.115 2.647 1.634 2821
0.121 2.781 1.701 7217
0.115 2.651 1.626 3531
0.121 2.786 1.693 6977
0.115 2.655 1.619 3208
0.121 2.784 1.681 6207
0.115 2.653 1.607 2380
0.124 2.857 1.712 5588
0.117 2.705 1.627 3336
0.124 2.855 1.700 6151
0.118 2.716 1.623 2091
0.124 2.866 1.695 5175
0.119 2.735 1.623 1582
0.125 2.878 1.691 4451
0.119 2.746 1.619 1263
0.125 2.882 1.683 7025
0.131 3.014 1.755 1704
0.125 2.887 1.675 8774
0.131 3.019 1.746 2730
0.125 2.891 1.666 7950
0.131 3.023 1.738 3173
0.124 2.861 1.639 5552
0.130 3.000 1.714 4595
0.131 3.033 1.720 4523
0.123 2.837 1.616 3569
0.131 3.023 1.704 6410
0.125 2.890 1.634 4163
0.131 3.021 1.692 8827
0.125 2.888 1.622 5058
0.131 3.018 1.679 9458
0.125 2.885 1.610 4632
0.131 3.030 1.674 6861
0.126 2.896 1.605 4325
0.134 3.084 1.691 7290
0.127 2.922 1.608 2781
0.134 3.088 1.682 8816
0.128 2.954 1.614 2740
0.134 3.093 1.673 8805
0.128 2.958 1.605 2147
0.134 3.097 1.664 7139
0.128 2.963 1.597 1285
0.133 3.073 1.641 5844
0.133 3.077 1.632 6946
0.139 3.212 1.699 1270
0.134 3.089 1.627 7457
0.140 3.224 1.693 2313
0.134 3.093 1.618 6879
0.140 3.228 1.684 3151
0.139 3.197 1.658 6407
0.133 3.062 1.592 2489
0.139 3.195 1.645 10477
0.139 3.199 1.636 12051
0.139 3.196 1.623 10789
0.144 3.332 1.687 1497
0.139 3.200 1.614 10008
0.145 3.337 1.678 4068
0.143 3.298 1.648 12852
0.137 3.162 1.585 3244
0.143 3.302 1.639 13727
0.149 3.439 1.702 1376
0.146 3.379 1.662 10454
0.141 3.242 1.600 5341
0.147 3.383 1.653 13054
0.141 3.246 1.590 4845
0.147 3.395 1.646 11546
0.141 3.258 1.584 3747
0.148 3.406 1.639 9725
0.142 3.269 1.578 3416
0.147 3.396 1.623 7274
0.153 3.534 1.684 1965
0.146 3.372 1.601 5893
0.153 3.531 1.671 3751
0.153 3.528 1.658 5431
0.146 3.369 1.588 5168
0.153 3.525 1.644 7161
0.147 3.387 1.584 4612
0.153 3.522 1.631 8239
0.147 3.384 1.572 3096
0.154 3.541 1.627 9437
0.148 3.403 1.568 2708
0.155 3.567 1.626 10744
0.149 3.429 1.568 2909
0.155 3.579 1.619 8614
0.149 3.440 1.561 1734
0.153 3.539 1.590 7186
0.159 3.678 1.648 4218
0.159 3.661 1.629 5081
0.153 3.522 1.571 2758
0.160 3.702 1.633 4980
0.154 3.562 1.576 2164
0.161 3.721 1.628 6047
0.155 3.581 1.572 1247
0.162 3.740 1.624 5361
0.156 3.600 1.567 1201
0.161 3.722 1.604 4205
0.167 3.861 1.660 1057
0.161 3.711 1.587 5387
0.167 3.851 1.643 1776
0.160 3.701 1.571 4525
0.171 3.936 1.663 2770
0.171 3.948 1.655 4639
0.164 3.779 1.589 3459
0.172 3.960 1.646 5748
0.164 3.776 1.575 3506
0.171 3.950 1.629 5372
0.165 3.809 1.576 2587
0.168 3.865 1.584 5459
0.174 4.006 1.638 2571
0.172 3.966 1.609 4392
0.166 3.825 1.556 2289
0.173 3.992 1.606 4577
0.179 4.133 1.659 2231
0.174 4.004 1.597 7057
0.180 4.145 1.650 2900
0.174 4.016 1.589 6874
0.180 4.157 1.640 2726
0.175 4.035 1.582 4139
0.181 4.176 1.634 2610
0.181 4.173 1.619 4713
0.175 4.031 1.568 2490
0.182 4.207 1.618 7150
0.176 4.065 1.567 2880
0.183 4.226 1.611 7087
0.177 4.084 1.561 3406
0.183 4.230 1.598 4007
0.177 4.089 1.549 3249
0.180 4.152 1.558 2649
0.186 4.294 1.607 1309
0.182 4.186 1.556 2680
0.188 4.329 1.605 1819
0.189 4.348 1.597 4604
0.182 4.206 1.549 2422
0.189 4.352 1.585 6500
0.196 4.517 1.640 2244
0.190 4.386 1.582 5000
0.196 4.529 1.630 2290
0.190 4.391 1.570 4165
0.197 4.533 1.617 2318
0.195 4.500 1.591 4508
0.189 4.357 1.545 2417
0.195 4.504 1.578 4951
0.201 4.647 1.625 1847
0.196 4.516 1.568 6068
0.203 4.674 1.619 2657
0.196 4.520 1.555 5358
0.204 4.701 1.612 3157
0.202 4.660 1.584 3130
0.196 4.517 1.539 2835
0.202 4.649 1.566 3143
0.195 4.506 1.522 1224
0.204 4.706 1.569 2906
0.198 4.562 1.525 2036
0.205 4.718 1.558 5362
0.198 4.574 1.514 1510
0.205 4.730 1.546 4998
0.209 4.825 1.560 3909
0.203 4.681 1.517 1719
0.210 4.836 1.548 3568
0.203 4.692 1.506 1300
0.214 4.932 1.561 2430
0.206 4.742 1.505 2245
0.210 4.837 1.518 2353
0.216 4.981 1.560 1580
0.211 4.871 1.513 2823
0.219 5.046 1.563 2445
0.219 5.058 1.550 4064
0.212 4.898 1.505 2303
0.220 5.070 1.538 4468
0.214 4.925 1.497 2757
0.220 5.074 1.523 3918
0.214 4.929 1.483 2139
0.220 5.063 1.504 2732
0.223 5.150 1.512 2434
0.217 5.005 1.473 1175
0.223 5.154 1.497 4122
0.230 5.300 1.536 1870
0.224 5.158 1.482 3660
0.231 5.327 1.527 3265
0.232 5.361 1.519 5959
0.226 5.216 1.481 2691
0.233 5.381 1.508 10111
0.227 5.235 1.470 1817
0.233 5.377 1.490 9822
0.241 5.553 1.535 2995
0.233 5.373 1.473 6209
0.241 5.565 1.521 3990
0.237 5.469 1.480 3275
0.243 5.615 1.516 2498
0.240 5.535 1.479 4198
0.246 5.681 1.515 2396
0.244 5.623 1.484 4057
0.250 5.769 1.519 2813
0.249 5.735 1.493 3843
0.242 5.588 1.458 2587
0.249 5.746 1.478 2666
0.255 5.893 1.513 1350
0.253 5.827 1.479 2712
0.259 5.974 1.513 2314
0.259 5.970 1.494 4374
0.252 5.823 1.461 1789
0.259 5.974 1.477 3895
0.253 5.827 1.444 1718
0.257 5.924 1.448 4257
0.263 6.070 1.480 1248
0.257 5.935 1.432 4102
0.264 6.082 1.464 1404
0.262 6.032 1.435 3103
0.273 6.294 1.492 2656
0.262 6.043 1.419 2475
0.273 6.298 1.474 2368
0.265 6.109 1.415 2134
0.273 6.294 1.454 1823
0.278 6.407 1.458 2479
0.265 6.120 1.399 1874
0.274 6.318 1.421 2886
0.280 6.465 1.451 1426
0.274 6.329 1.404 2705
0.290 6.693 1.477 2395
0.291 6.713 1.461 3315
0.276 6.371 1.393 2243
0.292 6.724 1.443 2942
0.276 6.367 1.373 1902
0.291 6.713 1.421 2983
0.303 6.992 1.474 1760
0.291 6.709 1.400 2236
0.297 6.856 1.428 1638
0.296 6.829 1.402 2296
0.315 7.257 1.482 1378
0.298 6.879 1.391 1656
0.314 7.245 1.458 1598
0.318 7.327 1.451 2334
0.299 6.891 1.372 1727
0.318 7.330 1.430 2710
0.306 7.050 1.380 1669
0.320 7.373 1.415 2858
0.328 7.568 1.449 2680
0.319 7.361 1.391 3635
0.328 7.572 1.427 2467
0.319 7.357 1.368 3616
0.339 7.825 1.447 1407
0.340 7.836 1.426 2366
0.319 7.368 1.348 2073
0.340 7.832 1.402 2241
0.355 8.184 1.459 1628
0.335 7.735 1.363 1788
0.355 8.180 1.434 1419
0.336 7.746 1.342 1664
0.364 8.387 1.442 1324
0.363 8.383 1.416 1114
0.352 8.120 1.352 1678
0.374 8.621 1.427 1214
0.395 9.110 1.474 1960
0.352 8.124 1.328 1692
0.395 9.121 1.448 1915
0.386 8.910 1.418 1426
0.396 9.141 1.424 1747
0.385 8.875 1.386 1494
0.396 9.137 1.396 2153
0.385 8.870 1.360 1430
0.396 9.125 1.368 2413
0.385 8.890 1.336 1015
0.396 9.128 1.341 1883
0.398 9.171 1.320 1430
0.410 9.446 1.355 1103
0.398 9.182 1.294 1346
0.410 9.457 1.329 1149
0.108 2.228 1.699 5562
0.108 2.233 1.692 11124
0.114 2.355 1.780 1691
0.108 2.237 1.686 11124
0.114 2.360 1.773 1691
0.108 2.235 1.675 10310
0.114 2.358 1.762 3725
0.108 2.240 1.669 9733
0.114 2.363 1.755 5603
0.109 2.244 1.662 11160
0.115 2.368 1.748 7424
0.109 2.249 1.656 12587
0.115 2.372 1.742 9245
0.109 2.253 1.650 11895
0.115 2.377 1.735 9245
0.109 2.257 1.643 10362
0.115 2.382 1.728 7988
0.109 2.255 1.632 9751
0.116 2.393 1.726 6973
0.110 2.266 1.630 7352
0.116 2.404 1.723 6769
0.117 2.422 1.725 6729
0.110 2.277 1.628 5225
0.117 2.407 1.705 8396
0.110 2.281 1.622 3593
0.116 2.398 1.689 11055
0.110 2.273 1.606 1687
0.116 2.402 1.683 10048
0.110 2.277 1.600 1335
0.117 2.414 1.680 9057
0.111 2.288 1.598 1077
0.117 2.411 1.669 9050
0.123 2.537 1.751 1218
0.117 2.409 1.658 6364
0.123 2.535 1.739 2212
0.120 2.487 1.698 8513
0.121 2.498 1.695 8245
0.127 2.625 1.776 1567
0.122 2.509 1.692 8051
0.128 2.636 1.772 1903
0.121 2.507 1.681 7986
0.128 2.634 1.761 2358
0.121 2.505 1.669 8059
0.127 2.632 1.749 3129
0.122 2.509 1.662 7467
0.128 2.637 1.741 3872
0.126 2.601 1.709 7012
0.120 2.473 1.630 4035
0.127 2.613 1.706 5402
0.120 2.484 1.627 2888
0.129 2.658 1.723 3924
0.122 2.516 1.636 1904
0.127 2.628 1.695 5079
0.128 2.640 1.691 6518
0.134 2.769 1.769 1141
0.128 2.644 1.684 8580
0.134 2.773 1.761 1622
0.128 2.649 1.676 10641
0.135 2.778 1.753 2103
0.128 2.653 1.668 8762
0.135 2.783 1.745 2090
0.129 2.658 1.661 6882
0.135 2.787 1.737 2078
0.129 2.662 1.653 4568
0.135 2.792 1.729 3306
0.134 2.776 1.709 5537
0.128 2.646 1.634 2962
0.135 2.781 1.701 6364
0.128 2.650 1.626 3504
0.135 2.785 1.693 6815
0.129 2.655 1.619 3342
0.135 2.783 1.681 6583
0.128 2.652 1.607 2820
0.138 2.849 1.708 6250
0.131 2.711 1.630 3572
0.138 2.854 1.700 6872
0.132 2.723 1.627 2575
0.139 2.865 1.695 5667
0.132 2.734 1.623 2124
0.139 2.877 1.691 4611
0.133 2.745 1.619 1614
0.140 2.881 1.683 6684
0.146 3.013 1.755 1805
0.140 2.886 1.675 7832
0.146 3.018 1.746 2949
0.140 2.890 1.666 6906
0.146 3.023 1.738 3456
0.141 2.909 1.665 5254
0.147 3.041 1.736 3060
0.142 2.941 1.672 4735
0.136 2.808 1.601 2547
0.146 3.023 1.704 6267
0.140 2.890 1.634 4315
0.146 3.020 1.692 8404
0.140 2.887 1.622 5261
0.146 3.018 1.679 9051
0.140 2.884 1.610 4610
0.147 3.036 1.678 6565
0.141 2.903 1.609 4781
0.149 3.076 1.687 6872
0.142 2.928 1.612 2892
0.149 3.080 1.678 8065
0.143 2.946 1.610 2301
0.150 3.092 1.673 7348
0.143 2.958 1.605 1929
0.150 3.103 1.668 5521
0.144 2.969 1.600 1376
0.148 3.065 1.638 4617
0.155 3.200 1.705 1506
0.149 3.077 1.632 6179
0.156 3.211 1.699 1787
0.150 3.088 1.627 7425
0.156 3.223 1.693 2636
0.150 3.093 1.618 6645
0.156 3.228 1.684 3487
0.154 3.189 1.654 5160
0.148 3.054 1.589 2011
0.154 3.187 1.642 7926
0.155 3.191 1.632 9738
0.154 3.188 1.620 9720
0.161 3.324 1.684 1557
0.155 3.207 1.617 9843
0.162 3.343 1.681 3412
0.160 3.297 1.648 11766
0.153 3.161 1.585 3140
0.160 3.294 1.635 12903
0.166 3.431 1.698 2103
0.163 3.371 1.659 10261
0.157 3.234 1.596 4670
0.164 3.382 1.653 13434
0.157 3.246 1.590 4256
0.164 3.394 1.646 11617
0.158 3.257 1.584 2896
0.165 3.405 1.639 9515
0.158 3.268 1.578 2622
0.164 3.395 1.623 7165
0.171 3.533 1.684 1959
0.163 3.364 1.598 5174
0.171 3.530 1.671 4353
0.171 3.534 1.661 6291
0.163 3.361 1.585 4848
0.171 3.524 1.644 7638
0.164 3.386 1.584 4992
0.171 3.529 1.634 8250
0.164 3.391 1.575 3969
0.171 3.540 1.627 9430
0.165 3.402 1.568 3287
0.173 3.567 1.626 10664
0.166 3.428 1.568 3125
0.173 3.578 1.619 8821
0.167 3.440 1.561 1793
0.171 3.539 1.590 7385
0.178 3.677 1.648 3629
0.173 3.565 1.589 5375
0.179 3.704 1.647 2993
0.180 3.715 1.639 4465
0.173 3.576 1.582 2996
0.180 3.727 1.631 6135
0.173 3.580 1.572 1968
0.181 3.746 1.626 6545
0.175 3.607 1.570 1362
0.183 3.772 1.624 6011
0.176 3.633 1.569 1907
0.179 3.696 1.582 4286
0.186 3.836 1.637 2417
0.179 3.700 1.571 3918
0.187 3.862 1.635 2389
0.192 3.962 1.661 3884
0.182 3.763 1.583 2528
0.192 3.959 1.646 5309
0.182 3.767 1.572 2524
0.191 3.949 1.629 5257
0.184 3.808 1.576 2077
0.187 3.864 1.584 5565
0.194 4.005 1.638 2437
0.187 3.869 1.573 3924
0.194 4.009 1.626 2189
0.194 3.999 1.609 3668
0.201 4.147 1.664 2031
0.194 4.010 1.600 6195
0.201 4.151 1.652 2320
0.195 4.022 1.591 6400
0.202 4.163 1.643 1863
0.195 4.026 1.580 4456
0.202 4.168 1.631 2008
0.203 4.187 1.624 4321
0.195 4.030 1.568 3352
0.204 4.206 1.618 7684
0.197 4.064 1.567 2566
0.205 4.225 1.611 7770
0.198 4.083 1.561 2961
0.205 4.229 1.598 4502
0.198 4.088 1.549 2763
0.204 4.219 1.581 3183
0.197 4.077 1.532 1155
0.204 4.215 1.566 2768
0.211 4.358 1.615 1048
0.210 4.339 1.595 3976
0.203 4.197 1.547 1963
0.210 4.344 1.582 6160
0.218 4.509 1.638 2027
0.211 4.348 1.570 4831
0.219 4.513 1.625 2268
0.212 4.374 1.565 3438
0.219 4.517 1.612 2906
0.217 4.491 1.589 4984
0.209 4.326 1.535 2750
0.218 4.496 1.576 5384
0.210 4.330 1.522 1940
0.219 4.515 1.568 6237
0.226 4.665 1.616 2873
0.219 4.527 1.557 6113
0.227 4.677 1.605 3114
0.220 4.538 1.546 3971
0.227 4.682 1.591 2455
0.225 4.648 1.566 3183
0.218 4.505 1.522 1306
0.224 4.622 1.543 3070
0.231 4.766 1.588 1378
0.228 4.717 1.558 4932
0.221 4.573 1.514 1407
0.229 4.728 1.546 4955
0.222 4.585 1.503 1051
0.231 4.770 1.544 3196
0.224 4.626 1.501 1083
0.233 4.820 1.544 2908
0.240 4.964 1.586 1653
0.239 4.938 1.563 2689
0.230 4.741 1.505 2312
0.239 4.942 1.549 2916
0.232 4.798 1.507 1997
0.239 4.939 1.532 2663
0.246 5.083 1.573 1737
0.245 5.057 1.550 4025
0.238 4.912 1.509 2095
0.245 5.061 1.536 4538
0.238 4.916 1.495 2164
0.246 5.073 1.523 3871
0.239 4.928 1.483 1946
0.245 5.069 1.506 2718
0.253 5.229 1.550 1183
0.246 5.081 1.494 1959
0.254 5.249 1.539 1382
0.250 5.153 1.497 3155
0.257 5.298 1.536 2035
0.250 5.165 1.484 3374
0.258 5.325 1.527 2696
0.260 5.368 1.521 5794
0.253 5.222 1.483 2768
0.261 5.379 1.508 10982
0.253 5.234 1.470 2090
0.261 5.383 1.492 10732
0.269 5.552 1.535 3211
0.261 5.380 1.475 6359
0.269 5.564 1.521 4459
0.265 5.468 1.480 3430
0.272 5.614 1.516 2883
0.272 5.625 1.502 3881
0.265 5.479 1.466 2631
0.273 5.629 1.485 4217
0.280 5.775 1.521 2204
0.273 5.641 1.471 3493
0.280 5.787 1.506 1722
0.283 5.837 1.500 3037
0.276 5.691 1.465 2642
0.282 5.826 1.479 3202
0.289 5.972 1.513 2476
0.289 5.968 1.494 4393
0.282 5.822 1.461 1977
0.289 5.972 1.477 3810
0.282 5.826 1.444 1766
0.287 5.922 1.448 4977
0.298 6.161 1.501 1169
0.287 5.934 1.432 4701
0.298 6.150 1.480 1484
0.292 6.023 1.433 2516
0.299 6.169 1.465 1719
0.292 6.034 1.418 1959
0.299 6.181 1.449 1735
0.296 6.115 1.416 1711
0.310 6.394 1.475 1245
0.310 6.405 1.458 2541
0.296 6.119 1.399 1805
0.306 6.316 1.421 2679
0.313 6.463 1.451 1491
0.306 6.328 1.404 2522
0.324 6.692 1.477 1937
0.325 6.711 1.461 2667
0.317 6.548 1.429 2438
0.326 6.723 1.443 2811
0.316 6.529 1.405 1828
0.325 6.719 1.422 3041
0.315 6.509 1.382 1935
0.330 6.824 1.422 2195
0.323 6.676 1.394 1516
0.331 6.827 1.402 2478
0.351 7.255 1.482 1627
0.352 7.259 1.461 1771
0.329 6.784 1.374 1410
0.355 7.325 1.451 2929
0.334 6.889 1.372 1674
0.355 7.321 1.428 3178
0.366 7.562 1.471 1910
0.366 7.566 1.449 3123
0.355 7.332 1.408 2642
0.356 7.352 1.390 3191
0.367 7.570 1.427 2769
0.356 7.347 1.367 3135
0.367 7.581 1.407 1547
0.379 7.827 1.425 2110
0.356 7.351 1.346 1895
0.379 7.823 1.401 2148
0.396 8.182 1.459 1359
0.378 7.811 1.375 1855
0.359 7.413 1.312 1149
0.375 7.744 1.342 1436
0.406 8.385 1.442 1160
0.393 8.123 1.377 1161
0.423 8.740 1.471 1118
0.393 8.118 1.352 1808
0.418 8.627 1.428 1411
0.393 8.122 1.328 1662
0.441 9.116 1.475 1622
0.442 9.127 1.449 1841
0.431 8.908 1.418 1533
0.442 9.131 1.423 1875
0.431 8.896 1.390 1474
0.442 9.135 1.396 2126
0.429 8.868 1.360 1189
0.442 9.130 1.369 2221
0.442 9.134 1.342 1692
0.444 9.169 1.320 1265
0.458 9.459 1.357 1212
0.458 9.463 1.330 1357
0.445 9.180 1.294 1073
0.116 2.234 1.703 4773
0.116 2.239 1.697 9546
0.123 2.361 1.784 1547
0.117 2.243 1.691 9546
0.123 2.366 1.778 1547
0.117 2.241 1.680 8345
0.123 2.364 1.766 3347
0.116 2.233 1.664 7339
0.122 2.356 1.750 6080
0.117 2.244 1.662 8698
0.123 2.367 1.748 7317
0.117 2.248 1.656 10079
0.123 2.372 1.742 9110
0.117 2.253 1.650 9408
0.124 2.376 1.735 9110
0.117 2.251 1.639 8222
0.124 2.381 1.728 7878
0.117 2.255 1.632 7819
0.125 2.399 1.730 7050
0.125 2.403 1.723 6665
0.117 2.259 1.626 5692
0.126 2.428 1.730 6424
0.118 2.270 1.624 3601
0.125 2.406 1.705 8565
0.118 2.274 1.617 2242
0.125 2.404 1.694 11415
0.125 2.409 1.687 10203
0.125 2.413 1.680 8991
0.125 2.411 1.669 8969
0.126 2.415 1.662 5899
0.132 2.542 1.743 1555
0.129 2.486 1.698 7516
0.130 2.498 1.695 6845
0.136 2.624 1.776 1557
0.130 2.509 1.692 6408
0.137 2.636 1.772 1870
0.130 2.507 1.681 7014
0.137 2.634 1.761 2204
0.131 2.511 1.673 7768
0.137 2.639 1.753 2181
0.131 2.516 1.666 7287
0.137 2.643 1.745 3159
0.135 2.594 1.705 7184
0.128 2.466 1.626 3161
0.135 2.605 1.701 5617
0.129 2.477 1.623 2294
0.136 2.617 1.698 4151
0.129 2.488 1.620 1068
0.137 2.628 1.695 5407
0.137 2.639 1.691 6915
0.137 2.644 1.684 9060
0.144 2.773 1.761 1328
0.138 2.655 1.680 11216
0.145 2.784 1.757 1446
0.138 2.653 1.668 9431
0.145 2.782 1.745 1805
0.138 2.657 1.661 7657
0.145 2.787 1.737 1922
0.138 2.662 1.653 5222
0.145 2.792 1.729 2871
0.145 2.782 1.713 4286
0.138 2.652 1.638 3380
0.145 2.787 1.705 5045
0.138 2.657 1.630 3690
0.145 2.792 1.697 6049
0.138 2.661 1.623 3784
0.144 2.775 1.677 6577
0.138 2.645 1.603 3357
0.148 2.849 1.708 6843
0.141 2.704 1.627 3919
0.148 2.853 1.700 7649
0.140 2.695 1.611 3343
0.149 2.858 1.692 6300
0.140 2.699 1.603 2717
0.149 2.869 1.687 5020
0.142 2.738 1.615 1872
0.149 2.874 1.679 6047
0.156 3.006 1.751 2140
0.150 2.885 1.675 6186
0.157 3.017 1.746 3162
0.155 2.987 1.719 6583
0.148 2.848 1.644 4641
0.156 2.992 1.710 5610
0.148 2.839 1.628 4667
0.153 2.941 1.672 6371
0.146 2.808 1.601 2436
0.152 2.931 1.656 7358
0.159 3.064 1.726 3206
0.157 3.020 1.692 7920
0.150 2.886 1.622 5349
0.157 3.017 1.679 8682
0.150 2.884 1.610 4476
0.158 3.036 1.678 6484
0.151 2.902 1.609 4739
0.160 3.068 1.684 6626
0.152 2.927 1.612 3015
0.160 3.073 1.675 7752
0.153 2.939 1.607 2343
0.160 3.077 1.666 6620
0.153 2.943 1.598 1550
0.163 3.131 1.682 5519
0.156 2.997 1.615 1858
0.163 3.143 1.677 6079
0.156 3.008 1.610 1701
0.162 3.119 1.654 6331
0.161 3.088 1.627 6783
0.168 3.223 1.693 3529
0.161 3.092 1.618 5829
0.168 3.227 1.684 4496
0.165 3.175 1.647 5746
0.158 3.039 1.582 1083
0.165 3.165 1.631 7881
0.172 3.300 1.696 1409
0.165 3.176 1.626 9168
0.172 3.312 1.690 1168
0.165 3.181 1.616 9534
0.172 3.316 1.681 2030
0.167 3.206 1.617 9844
0.174 3.342 1.681 3902
0.171 3.297 1.648 10423
0.164 3.160 1.585 3023
0.171 3.287 1.632 11921
0.178 3.423 1.695 2874
0.175 3.363 1.656 9915
0.168 3.226 1.593 3544
0.175 3.374 1.649 13609
0.168 3.238 1.587 2877
0.176 3.386 1.643 11348
0.169 3.249 1.581 1924
0.177 3.405 1.639 8917
0.170 3.268 1.578 1634
0.177 3.409 1.630 7171
0.170 3.272 1.569 1669
0.183 3.529 1.671 4841
0.176 3.392 1.610 4759
0.184 3.534 1.661 7144
