3.422 4.510 1.579 1413
3.360 4.428 1.535 3460
3.504 4.618 1.595 1989
3.516 4.633 1.582 3206
3.386 4.462 1.528 3141
3.393 4.471 1.514 4096
3.546 4.673 1.577 3863
3.539 4.664 1.556 4705
3.390 4.468 1.496 3194
3.588 4.729 1.558 4848
3.500 4.612 1.523 1914
3.591 4.732 1.541 4798
3.502 4.616 1.506 1649
3.593 4.735 1.523 4579
3.682 4.852 1.558 1468
3.591 4.732 1.504 3036
3.694 4.868 1.544 2354
3.701 4.877 1.528 2753
3.556 4.686 1.473 1344
3.792 4.997 1.543 2003
3.698 4.874 1.508 1751
3.771 4.970 1.517 2760
3.902 5.142 1.565 1778
3.778 4.979 1.500 3132
3.965 5.225 1.568 1306
3.780 4.982 1.482 2347
4.084 5.383 1.591 1538
3.951 5.207 1.524 2378
4.092 5.392 1.573 1667
3.958 5.217 1.506 2401
4.103 5.408 1.557 1963
4.106 5.411 1.537 3056
3.979 5.244 1.494 1990
4.113 5.421 1.519 3514
3.972 5.235 1.471 1576
4.115 5.424 1.499 2908
3.970 5.232 1.451 1288
4.118 5.427 1.480 2699
4.212 5.551 1.510 1670
4.238 5.585 1.498 2264
4.120 5.430 1.460 2199
4.423 5.829 1.536 2508
4.240 5.588 1.477 2120
4.426 5.833 1.515 2571
4.336 5.715 1.487 1562
4.353 5.737 1.470 1936
4.452 5.867 1.501 1923
4.511 5.944 1.496 2258
4.600 6.062 1.524 1505
4.598 6.059 1.500 3443
4.508 5.941 1.473 2768
4.605 6.069 1.479 5100
4.694 6.187 1.506 2695
4.617 6.084 1.460 5150
4.706 6.202 1.486 3213
4.619 6.087 1.438 4784
4.708 6.205 1.463 3089
4.626 6.096 1.417 6743
4.517 5.953 1.387 1766
4.628 6.099 1.395 9762
4.798 6.323 1.441 1049
4.626 6.096 1.371 10319
4.961 6.538 1.461 1192
4.632 6.105 1.350 7355
4.973 6.553 1.440 2061
4.639 6.114 1.329 4493
5.112 6.737 1.452 2050
4.632 6.104 1.305 2592
5.119 6.746 1.428 1999
4.629 6.101 1.281 2878
5.296 6.980 1.447 2305
4.641 6.116 1.261 3056
5.308 6.996 1.424 2664
5.310 6.999 1.399 2731
4.652 6.131 1.241 1817
5.322 7.014 1.375 2515
5.156 6.795 1.337 1515
5.334 7.029 1.352 2189
5.547 7.310 1.401 1498
5.312 7.001 1.321 1415
5.554 7.320 1.375 1365
5.314 7.004 1.296 1169
5.736 7.560 1.388 1096
5.739 7.563 1.360 1036
5.741 7.566 1.333 1090
5.743 7.568 1.305 1079
1.362 1.783 1.708 4499
1.436 1.880 1.796 1184
1.364 1.787 1.702 8998
1.439 1.884 1.789 2459
1.367 1.791 1.695 8998
1.442 1.888 1.782 2549
1.374 1.799 1.693 7840
1.448 1.897 1.780 3687
1.384 1.813 1.696 7132
1.459 1.911 1.782 3983
1.391 1.822 1.694 7884
1.466 1.920 1.780 3937
1.398 1.831 1.692 8736
1.473 1.929 1.778 3945
1.401 1.834 1.685 8736
1.476 1.933 1.771 3945
1.403 1.838 1.679 7560
1.479 1.937 1.764 3826
1.446 1.894 1.717 6846
1.464 1.918 1.728 8528
1.389 1.819 1.644 2209
1.471 1.927 1.725 10817
1.395 1.828 1.641 1661
1.486 1.946 1.731 9312
1.410 1.847 1.648 1906
1.497 1.961 1.733 10020
1.421 1.861 1.650 1561
1.504 1.970 1.730 8816
1.427 1.870 1.648 1274
1.511 1.979 1.728 7617
1.513 1.982 1.721 7412
1.508 1.975 1.705 7206
1.503 1.968 1.689 7792
1.580 2.069 1.770 1423
1.510 1.977 1.686 8773
1.587 2.078 1.767 2172
1.516 1.986 1.683 10001
1.594 2.087 1.764 2593
1.519 1.990 1.676 8017
1.596 2.091 1.756 3739
1.550 2.031 1.699 7536
1.578 2.066 1.716 9577
1.500 1.965 1.637 2191
1.580 2.070 1.709 12415
1.503 1.968 1.630 1604
1.587 2.079 1.706 13177
1.509 1.977 1.627 1595
1.590 2.083 1.698 14014
1.593 2.086 1.691 16918
1.596 2.090 1.683 19821
1.598 2.093 1.676 19146
1.605 2.102 1.672 18528
1.608 2.106 1.664 15879
1.686 2.209 1.741 1563
1.615 2.115 1.661 13235
1.693 2.218 1.737 2021
1.622 2.124 1.657 13453
1.700 2.227 1.733 1748
1.637 2.144 1.661 12394
1.639 2.147 1.654 10441
1.719 2.251 1.728 1827
1.638 2.145 1.642 6262
1.717 2.249 1.716 4594
1.724 2.258 1.712 6152
1.632 2.138 1.627 2581
1.735 2.273 1.712 5315
1.656 2.169 1.638 2398
1.747 2.288 1.711 4939
1.667 2.183 1.638 3012
1.741 2.280 1.695 4197
1.661 2.176 1.623 2370
1.739 2.278 1.683 3767
1.659 2.174 1.611 1958
1.746 2.287 1.679 5349
1.666 2.182 1.607 1757
1.783 2.335 1.701 12001
1.694 2.219 1.622 2542
1.786 2.339 1.692 17610
1.693 2.217 1.610 3005
1.793 2.348 1.688 19807
1.699 2.226 1.606 2806
1.795 2.352 1.679 22149
1.706 2.235 1.601 2068
1.802 2.361 1.675 21711
1.705 2.233 1.590 1434
1.809 2.370 1.670 21411
1.890 2.476 1.739 1307
1.803 2.362 1.654 20635
1.884 2.468 1.723 2191
1.806 2.366 1.645 23295
1.887 2.472 1.714 2562
1.809 2.369 1.637 23943
1.890 2.476 1.705 3630
1.811 2.373 1.628 21930
1.893 2.479 1.696 4325
1.814 2.376 1.620 20666
1.896 2.483 1.687 4154
1.817 2.380 1.611 17461
1.920 2.515 1.696 4626
1.819 2.383 1.603 15520
1.910 2.501 1.677 4905
1.822 2.386 1.594 14388
1.943 2.544 1.692 4871
1.829 2.395 1.589 10990
1.911 2.503 1.655 6011
1.896 2.484 1.632 8743
1.814 2.376 1.566 6756
1.903 2.493 1.627 7146
1.821 2.385 1.561 5852
1.988 2.604 1.683 5494
1.906 2.496 1.618 4251
1.991 2.607 1.673 5397
1.908 2.500 1.609 2863
1.967 2.577 1.643 6227
2.063 2.702 1.718 2947
1.974 2.586 1.638 6815
2.057 2.694 1.701 4411
2.051 2.687 1.685 8081
1.968 2.578 1.622 3119
2.063 2.702 1.682 9799
1.980 2.593 1.619 1296
2.057 2.694 1.666 8756
1.974 2.585 1.603 1191
2.042 2.674 1.643 8565
2.125 2.783 1.705 1783
2.040 2.672 1.630 6727
2.145 2.810 1.708 2026
2.082 2.727 1.649 6057
2.165 2.836 1.711 2006
2.085 2.731 1.639 5373
2.168 2.840 1.700 2269
2.087 2.734 1.629 3581
2.171 2.844 1.690 2350
2.112 2.766 1.635 3027
2.196 2.876 1.696 1750
2.176 2.851 1.669 3212
2.093 2.741 1.610 2153
2.188 2.866 1.665 2857
2.104 2.756 1.606 2095
2.191 2.869 1.655 3038
2.107 2.759 1.596 1768
2.198 2.879 1.648 3308
2.114 2.769 1.589 1794
2.218 2.905 1.650 3912
2.134 2.795 1.591 1793
2.239 2.932 1.651 5986
2.154 2.822 1.593 1331
2.255 2.953 1.650 5825
2.170 2.843 1.592 2571
2.271 2.974 1.648 6368
2.186 2.863 1.591 3459
2.278 2.983 1.640 7569
2.193 2.873 1.584 2508
2.280 2.987 1.629 8537
2.196 2.876 1.573 1430
2.292 3.002 1.624 9175
2.207 2.891 1.569 1467
2.299 3.011 1.617 9803
2.214 2.900 1.561 1707
2.302 3.015 1.606 6388
2.387 3.126 1.661 1872
2.304 3.018 1.595 3963
2.394 3.135 1.652 1872
2.311 3.027 1.587 4041
2.401 3.145 1.644 2791
2.395 3.136 1.627 5245
2.309 3.025 1.573 2845
2.393 3.134 1.612 6377
2.478 3.246 1.666 2094
2.400 3.143 1.604 4293
2.485 3.255 1.657 2186
2.380 3.117 1.579 3008
2.492 3.265 1.648 2848
2.477 3.244 1.625 5200
2.391 3.132 1.573 2512
2.484 3.254 1.616 6881
2.398 3.141 1.564 2270
2.491 3.263 1.607 6361
2.406 3.151 1.555 2197
2.498 3.272 1.598 5643
2.403 3.148 1.541 1339
2.533 3.317 1.604 5937
2.447 3.205 1.554 1317
2.544 3.333 1.598 4858
2.458 3.220 1.548 1104
2.574 3.372 1.601 4165
2.488 3.259 1.551 1358
2.586 3.387 1.594 4473
2.500 3.274 1.545 1247
2.588 3.390 1.582 4726
2.675 3.503 1.631 1368
2.586 3.388 1.567 4668
2.673 3.501 1.615 1427
2.589 3.391 1.555 5412
2.684 3.516 1.608 2154
2.591 3.394 1.542 4515
2.687 3.520 1.595 3422
2.735 3.583 1.607 4810
2.598 3.403 1.532 2116
2.738 3.586 1.594 5139
2.651 3.472 1.547 1985
2.777 3.637 1.600 4771
2.690 3.524 1.554 1800
2.780 3.641 1.587 5166
2.867 3.755 1.633 2225
2.851 3.734 1.610 5077
2.764 3.620 1.564 3139
2.858 3.743 1.599 3766
2.771 3.629 1.554 2311
2.865 3.753 1.587 3609
2.778 3.639 1.543 1889
2.868 3.756 1.574 4253
2.964 3.882 1.623 1042
2.866 3.753 1.558 2789
2.967 3.886 1.608 1186
2.859 3.745 1.540 1886
2.974 3.895 1.597 1740
2.894 3.790 1.542 2196
3.046 3.989 1.616 2026
3.048 3.993 1.602 3413
2.901 3.799 1.530 2405
3.042 3.984 1.583 3748
2.954 3.869 1.541 1724
3.039 3.981 1.566 2949
2.952 3.866 1.525 1610
3.111 4.075 1.584 3888
3.024 3.960 1.543 2136
3.114 4.078 1.569 4323
3.026 3.963 1.529 1440
3.121 4.088 1.557 4204
3.170 4.152 1.563 4821
3.082 4.037 1.523 1859
3.172 4.155 1.548 4979
3.260 4.270 1.587 2079
3.179 4.164 1.535 2927
3.268 4.280 1.574 1663
3.187 4.174 1.522 2991
3.275 4.289 1.560 1516
3.189 4.177 1.507 3009
3.319 4.347 1.563 2946
3.322 4.351 1.547 4052
3.233 4.235 1.509 1677
3.329 4.360 1.533 3207
3.436 4.500 1.579 1360
3.359 4.400 1.529 3092
3.517 4.607 1.595 2512
3.529 4.623 1.582 3640
3.376 4.421 1.519 3205
3.411 4.467 1.516 4058
3.565 4.669 1.579 3726
3.572 4.678 1.564 4839
3.408 4.464 1.498 3254
3.598 4.712 1.556 5693
3.509 4.596 1.521 1738
3.595 4.709 1.537 5244
3.507 4.593 1.502 1308
3.603 4.719 1.522 4649
3.696 4.841 1.558 1288
3.605 4.722 1.504 3174
3.708 4.857 1.544 2325
3.715 4.866 1.528 3163
3.579 4.688 1.477 1438
3.713 4.863 1.508 2280
3.807 4.986 1.543 1857
3.786 4.958 1.517 2954
3.922 5.136 1.566 1537
3.793 4.968 1.500 3140
3.933 5.152 1.551 1340
3.950 5.174 1.537 1774
3.795 4.971 1.482 1754
3.962 5.189 1.522 2475
3.844 5.035 1.481 1529
3.964 5.192 1.503 2540
4.119 5.396 1.557 1667
4.122 5.399 1.537 2513
3.976 5.208 1.487 1786
4.129 5.408 1.519 2715
3.979 5.211 1.468 1471
4.132 5.411 1.499 2417
4.282 5.609 1.549 1439
4.134 5.415 1.480 2516
4.280 5.606 1.527 1956
4.254 5.572 1.498 2204
4.136 5.418 1.460 2004
4.441 5.816 1.536 2494
4.247 5.563 1.474 2014
4.443 5.819 1.515 2542
4.353 5.702 1.487 2268
4.370 5.724 1.470 2302
4.535 5.940 1.521 2121
4.528 5.931 1.496 2170
4.708 6.166 1.551 1589
4.625 6.058 1.503 2981
4.535 5.940 1.476 2507
4.637 6.073 1.484 4651
4.727 6.191 1.510 2476
4.635 6.070 1.460 5107
4.725 6.188 1.486 3728
4.637 6.073 1.438 6827
4.727 6.191 1.463 3553
4.644 6.083 1.417 8093
4.734 6.200 1.442 2082
4.651 6.092 1.396 6713
4.822 6.315 1.443 1348
4.653 6.095 1.374 5243
4.995 6.542 1.465 1075
4.651 6.091 1.350 5948
4.997 6.545 1.441 1797
4.657 6.100 1.329 6490
5.132 6.722 1.452 1748
4.655 6.097 1.306 5815
5.139 6.731 1.428 1759
4.652 6.093 1.283 5246
5.146 6.740 1.405 1819
4.654 6.096 1.260 4316
5.334 6.986 1.425 2104
4.618 6.049 1.229 2952
5.341 6.995 1.401 2158
5.357 7.017 1.379 1947
4.615 6.045 1.206 1840
5.359 7.020 1.353 1790
4.622 6.054 1.185 1668
4.624 6.056 1.163 1627
5.333 6.985 1.321 1548
4.630 6.065 1.142 2139
5.335 6.988 1.296 1154
4.632 6.067 1.120 2402
5.761 7.546 1.360 1087
4.634 6.069 1.098 1721
5.763 7.549 1.333 1244
5.765 7.551 1.305 1160
1.370 1.777 1.708 4597
1.445 1.874 1.796 1129
1.373 1.780 1.702 9195
1.448 1.877 1.789 2326
1.376 1.784 1.695 9195
1.450 1.881 1.782 2394
1.382 1.793 1.693 7968
1.457 1.890 1.780 3554
1.393 1.807 1.696 7122
1.468 1.904 1.782 3861
1.400 1.815 1.694 7902
1.475 1.913 1.780 3975
1.406 1.824 1.692 8850
1.482 1.922 1.778 4140
1.409 1.828 1.685 8850
1.485 1.926 1.771 4140
1.416 1.836 1.683 7813
1.492 1.935 1.768 3311
1.423 1.845 1.681 7123
1.499 1.944 1.766 2963
1.478 1.916 1.732 7269
1.401 1.818 1.648 2693
1.480 1.920 1.725 9290
1.404 1.821 1.641 1535
1.491 1.934 1.727 8246
1.415 1.835 1.644 1678
1.510 1.959 1.737 9121
1.430 1.854 1.650 1363
1.513 1.962 1.730 8196
1.436 1.863 1.648 1041
1.520 1.971 1.728 7063
1.519 1.970 1.716 6705
1.517 1.968 1.705 6711
1.516 1.966 1.693 6933
1.593 2.067 1.775 1031
1.519 1.970 1.686 8398
1.596 2.071 1.767 2099
1.526 1.979 1.683 9954
1.603 2.080 1.764 2573
1.529 1.982 1.676 8382
1.606 2.083 1.756 3940
1.564 2.029 1.703 7341
1.587 2.059 1.716 10273
1.509 1.958 1.637 2766
1.590 2.062 1.709 13474
1.512 1.961 1.630 2191
1.597 2.071 1.706 14073
1.519 1.970 1.627 1974
1.604 2.080 1.702 14964
1.526 1.979 1.624 1370
1.603 2.079 1.691 17889
1.605 2.082 1.683 20907
1.608 2.086 1.676 19078
1.611 2.089 1.668 17249
1.690 2.192 1.745 1071
1.618 2.098 1.664 14212
1.697 2.201 1.741 1522
1.620 2.102 1.657 11345
1.700 2.205 1.733 2160
1.632 2.116 1.657 11748
1.711 2.219 1.733 1673
1.647 2.136 1.661 11136
1.650 2.139 1.654 8981
1.729 2.243 1.728 1998
1.644 2.132 1.638 5735
1.724 2.236 1.713 5222
1.735 2.250 1.712 6849
1.642 2.130 1.627 3146
1.746 2.265 1.712 5740
1.641 2.128 1.615 2682
1.757 2.279 1.711 5361
1.639 2.126 1.603 2230
1.756 2.277 1.699 4373
1.642 2.129 1.596 2088
1.746 2.265 1.680 4215
1.665 2.160 1.607 1674
1.757 2.279 1.679 5419
1.677 2.175 1.607 1863
1.794 2.327 1.701 10587
1.700 2.205 1.618 2053
1.797 2.330 1.692 15995
1.703 2.209 1.610 2381
1.799 2.334 1.684 18972
1.718 2.229 1.613 2650
1.802 2.337 1.676 21949
1.721 2.232 1.605 2288
1.809 2.347 1.671 20766
1.890 2.452 1.741 1630
1.816 2.356 1.666 19071
1.898 2.461 1.736 1844
1.810 2.348 1.650 18483
1.892 2.454 1.720 2788
1.817 2.357 1.645 20532
1.899 2.463 1.714 2758
1.820 2.361 1.637 20238
1.902 2.467 1.705 3829
1.823 2.364 1.628 17680
1.905 2.470 1.696 4449
1.830 2.373 1.623 16913
1.912 2.479 1.691 3738
1.828 2.371 1.611 14412
1.914 2.483 1.682 4134
1.831 2.374 1.603 12767
1.917 2.487 1.673 4678
1.833 2.378 1.594 11804
1.916 2.484 1.661 4733
1.840 2.387 1.589 8915
1.923 2.494 1.655 5423
1.908 2.475 1.632 7719
1.825 2.367 1.566 5558
1.915 2.484 1.627 6150
1.832 2.376 1.561 4723
2.005 2.600 1.686 4092
1.918 2.487 1.618 3309
1.977 2.564 1.653 3772
2.069 2.683 1.724 2518
1.980 2.568 1.643 4904
2.076 2.692 1.718 2882
1.991 2.582 1.641 5480
2.074 2.690 1.705 3871
2.064 2.677 1.685 7277
1.981 2.569 1.622 2111
2.075 2.692 1.682 9096
1.992 2.584 1.619 1303
2.069 2.684 1.666 8852
1.986 2.576 1.603 1123
2.054 2.665 1.643 9575
2.138 2.773 1.705 1822
2.053 2.662 1.630 7002
2.158 2.800 1.708 1932
2.091 2.712 1.646 5166
2.174 2.820 1.707 2191
2.093 2.715 1.636 4631
2.177 2.824 1.697 2502
2.078 2.696 1.614 3255
2.162 2.805 1.674 3182
2.183 2.831 1.677 3240
2.099 2.722 1.616 2144
2.190 2.840 1.669 3255
2.106 2.731 1.610 2251
2.175 2.821 1.647 2811
2.091 2.711 1.587 1484
2.204 2.859 1.655 3206
2.120 2.749 1.596 1959
2.216 2.874 1.651 3648
2.131 2.764 1.592 2404
2.232 2.895 1.650 4171
2.147 2.785 1.591 2087
2.244 2.910 1.645 5524
2.159 2.800 1.587 1183
2.260 2.931 1.644 4926
2.175 2.821 1.586 2009
2.285 2.963 1.648 6644
2.200 2.853 1.591 3200
2.292 2.972 1.640 8782
2.207 2.862 1.584 2135
2.294 2.976 1.629 9893
2.209 2.865 1.573 1210
2.302 2.985 1.622 9852
2.216 2.875 1.566 1254
2.313 3.000 1.617 8764
2.228 2.890 1.561 1841
2.320 3.010 1.609 5247
2.235 2.899 1.554 1615
2.318 3.007 1.595 3775
2.418 3.136 1.658 2421
2.326 3.016 1.587 4851
2.425 3.145 1.649 3781
2.409 3.125 1.627 5496
2.324 3.014 1.573 3890
2.408 3.123 1.612 7326
2.493 3.234 1.666 1898
2.415 3.132 1.604 5273
2.501 3.243 1.657 1864
2.521 3.270 1.656 3133
2.417 3.135 1.592 2921
2.501 3.244 1.630 5051
2.415 3.133 1.578 2792
2.504 3.248 1.619 6494
2.418 3.136 1.567 2860
2.507 3.251 1.607 6112
2.420 3.139 1.555 2735
2.514 3.261 1.598 6082
2.427 3.148 1.547 1801
2.526 3.276 1.591 5915
2.439 3.163 1.541 1403
2.560 3.320 1.598 5212
2.451 3.179 1.534 1608
2.572 3.336 1.591 3831
2.602 3.375 1.594 4075
2.609 3.384 1.584 4382
2.700 3.502 1.636 1080
2.602 3.375 1.567 4365
2.712 3.518 1.628 1131
2.600 3.373 1.552 4949
2.697 3.497 1.605 2022
2.607 3.382 1.542 3969
2.699 3.501 1.592 3369
2.752 3.570 1.607 5468
2.665 3.457 1.560 1763
2.755 3.573 1.594 5789
2.663 3.454 1.545 1876
2.794 3.624 1.600 5231
2.707 3.511 1.554 1550
2.797 3.627 1.587 5353
2.884 3.741 1.633 2366
2.868 3.720 1.610 4400
2.781 3.607 1.564 2689
2.876 3.730 1.599 3498
2.788 3.616 1.554 2115
2.888 3.745 1.590 4201
2.800 3.631 1.545 1884
2.890 3.748 1.576 4274
2.983 3.868 1.623 1214
2.879 3.734 1.555 2519
3.013 3.908 1.622 1226
2.992 3.881 1.597 1673
2.872 3.725 1.537 1493
2.921 3.788 1.546 2173
3.064 3.975 1.616 1928
3.072 3.984 1.604 3657
2.923 3.792 1.532 2208
3.074 3.987 1.590 3741
2.986 3.873 1.547 2017
3.058 3.967 1.566 2758
3.147 4.081 1.608 1640
3.131 4.060 1.584 4221
3.042 3.946 1.543 2019
3.133 4.064 1.569 4276
3.045 3.949 1.529 1300
3.140 4.073 1.557 3895
3.148 4.082 1.544 4001
3.283 4.258 1.605 1188
3.187 4.134 1.546 3998
3.281 4.255 1.587 1592
3.199 4.149 1.535 2332
3.316 4.301 1.586 1968
3.272 4.243 1.550 2965
3.183 4.128 1.512 1604
3.335 4.325 1.561 3661
3.209 4.162 1.507 2743
3.347 4.341 1.549 4021
3.258 4.226 1.511 1620
3.387 4.393 1.549 2937
3.513 4.557 1.602 1348
3.394 4.402 1.535 3441
3.535 4.584 1.593 2696
3.551 4.606 1.582 3491
3.396 4.405 1.519 3056
3.558 4.615 1.567 3410
3.432 4.451 1.516 3026
3.613 4.686 1.571 5217
3.439 4.460 1.502 3204
3.601 4.671 1.549 7103
3.690 4.786 1.584 2051
3.613 4.686 1.535 5968
3.702 4.802 1.570 1192
3.625 4.701 1.522 4362
3.719 4.824 1.558 1136
3.627 4.705 1.504 2917
3.731 4.839 1.544 2118
3.733 4.842 1.526 3092
3.644 4.726 1.493 1770
3.731 4.839 1.507 2279
3.825 4.962 1.542 1659
3.804 4.934 1.515 2840
3.894 5.051 1.548 1603
3.807 4.937 1.497 2714
3.977 5.158 1.558 1562
3.975 5.155 1.537 1965
3.871 5.020 1.501 1500
3.986 5.170 1.522 2491
3.878 5.029 1.484 1668
3.979 5.161 1.500 2635
4.150 5.382 1.558 1371
3.982 5.164 1.481 2170
4.143 5.373 1.536 1997
4.150 5.383 1.517 1831
3.998 5.186 1.467 1703
4.148 5.380 1.496 2035
4.304 5.582 1.548 1555
4.155 5.389 1.478 2279
4.307 5.586 1.527 2264
4.281 5.552 1.498 2267
4.390 5.693 1.533 1960
4.273 5.543 1.474 2304
4.378 5.678 1.507 2218
4.385 5.687 1.488 2858
4.475 5.804 1.516 2005
4.397 5.703 1.470 2726
4.563 5.919 1.521 2000
4.732 6.138 1.549 1980
4.547 5.897 1.494 1887
4.739 6.147 1.528 2531
4.578 5.937 1.480 2369
4.670 6.058 1.485 3807
4.575 5.934 1.457 2463
4.749 6.160 1.484 4315
4.659 6.042 1.459 2889
4.751 6.163 1.462 4572
4.656 6.039 1.435 3081
4.658 6.042 1.413 3942
4.749 6.159 1.438 3331
4.670 6.057 1.394 4395
4.761 6.175 1.418 1465
4.677 6.066 1.373 5082
4.768 6.184 1.397 1436
4.675 6.063 1.349 4473
4.765 6.181 1.373 1745
4.658 6.041 1.322 4801
5.030 6.524 1.417 1624
4.664 6.050 1.301 6914
5.181 6.719 1.431 1336
4.671 6.059 1.280 6818
5.178 6.716 1.405 1485
4.649 6.030 1.252 4602
5.768 7.482 1.522 1588
4.651 6.033 1.230 2987
5.374 6.970 1.401 1626
4.653 6.035 1.208 1999
5.400 7.004 1.381 1485
4.660 6.044 1.187 2856
5.397 7.000 1.354 1308
4.662 6.046 1.165 3986
5.366 6.960 1.321 1278
4.659 6.043 1.142 4388
5.795 7.516 1.388 1188
4.661 6.045 1.120 3737
5.797 7.518 1.360 1243
4.658 6.041 1.097 2496
5.799 7.521 1.333 1475
5.801 7.524 1.305 1300
4.659 6.043 1.074 1212
1.379 1.770 1.708 4271
1.455 1.866 1.796 1166
1.382 1.773 1.702 8542
1.458 1.870 1.789 2385
1.385 1.777 1.695 8542
1.461 1.874 1.782 2436
1.396 1.791 1.698 7396
1.471 1.888 1.785 3137
1.403 1.799 1.696 6606
1.478 1.896 1.782 3830
1.409 1.808 1.694 7446
1.485 1.905 1.780 4151
1.416 1.817 1.692 8377
1.492 1.914 1.778 4507
1.419 1.820 1.685 8377
1.495 1.918 1.771 4507
1.426 1.829 1.683 7637
1.502 1.927 1.768 3337
1.433 1.838 1.681 7428
1.509 1.936 1.766 2886
1.484 1.903 1.728 6237
1.407 1.805 1.644 1961
1.491 1.912 1.725 7709
1.414 1.814 1.641 1552
1.506 1.931 1.731 7026
1.429 1.833 1.648 1925
1.521 1.951 1.737 8180
1.444 1.852 1.654 1277
1.524 1.954 1.730 7591
1.526 1.958 1.723 6641
1.529 1.962 1.716 6255
1.528 1.960 1.705 6510
1.527 1.958 1.693 6789
1.605 2.058 1.775 1006
1.534 1.967 1.691 8587
1.612 2.067 1.771 1652
1.536 1.971 1.683 10436
1.614 2.071 1.764 2498
1.539 1.974 1.676 9218
1.617 2.075 1.756 3904
1.546 1.983 1.673 8089
1.624 2.084 1.753 4466
1.594 2.045 1.712 10711
1.516 1.944 1.633 2205
1.601 2.054 1.709 13949
1.522 1.953 1.630 2347
1.604 2.058 1.701 14148
1.525 1.956 1.623 1624
1.615 2.072 1.702 14593
1.536 1.970 1.624 1519
1.614 2.070 1.691 17719
1.617 2.074 1.683 20847
1.619 2.077 1.676 18448
1.622 2.081 1.668 16048
1.629 2.090 1.664 12988
1.709 2.192 1.741 1389
1.632 2.093 1.657 10167
1.712 2.196 1.733 1974
1.643 2.107 1.657 10386
1.723 2.210 1.733 1551
1.658 2.127 1.661 9788
1.690 2.169 1.681 8017
1.771 2.271 1.756 1017
1.651 2.118 1.634 6321
1.736 2.226 1.713 5325
1.747 2.241 1.712 6940
1.658 2.127 1.630 4912
1.758 2.255 1.712 5840
1.656 2.125 1.619 3723
1.774 2.275 1.715 5770
1.659 2.128 1.611 2558
1.772 2.273 1.703 4692
1.657 2.126 1.600 2059
1.754 2.250 1.676 5002
1.656 2.124 1.588 1463
1.769 2.270 1.679 5512
1.688 2.166 1.607 2019
1.806 2.317 1.701 9162
1.704 2.185 1.610 1883
1.809 2.321 1.692 13946
1.728 2.216 1.621 2243
1.812 2.324 1.684 17476
1.730 2.220 1.613 2977
1.815 2.328 1.676 21005
1.733 2.223 1.605 2697
1.817 2.331 1.667 19457
1.899 2.436 1.737 1773
1.820 2.335 1.659 17090
1.902 2.440 1.728 2388
1.823 2.338 1.650 16271
1.905 2.444 1.720 2652
1.826 2.342 1.642 18180
1.908 2.447 1.711 3264
1.833 2.351 1.637 16858
1.915 2.456 1.705 3769
1.835 2.354 1.628 13451
1.918 2.460 1.696 4244
1.842 2.363 1.623 13028
1.925 2.469 1.691 3355
1.845 2.367 1.615 11135
1.928 2.473 1.682 3823
1.839 2.359 1.599 10158
1.930 2.476 1.673 4506
1.846 2.368 1.594 9125
1.929 2.474 1.661 4804
1.918 2.461 1.641 6721
1.835 2.354 1.575 4783
1.921 2.464 1.632 6943
1.838 2.358 1.566 3934
1.928 2.473 1.627 5396
1.845 2.367 1.561 3303
1.988 2.550 1.662 4033
1.852 2.375 1.556 1981
1.991 2.553 1.653 3395
2.078 2.666 1.721 2577
2.024 2.596 1.667 4480
2.108 2.704 1.731 2111
2.014 2.583 1.648 5799
2.097 2.690 1.711 3436
2.074 2.660 1.682 6468
1.990 2.553 1.618 1458
2.090 2.681 1.682 8038
2.006 2.573 1.619 1628
2.079 2.667 1.662 8782
2.163 2.775 1.725 1222
2.069 2.654 1.643 9853
2.153 2.762 1.705 1822
2.067 2.651 1.630 6674
2.169 2.782 1.705 1900
2.105 2.700 1.646 4572
2.189 2.809 1.707 2048
2.103 2.698 1.633 4545
2.188 2.807 1.694 2696
2.097 2.690 1.617 3677
2.182 2.799 1.677 3184
2.202 2.825 1.680 3158
2.104 2.699 1.610 2298
2.187 2.806 1.657 3065
2.102 2.697 1.597 1818
2.185 2.803 1.644 3447
2.101 2.694 1.584 1341
2.197 2.818 1.640 3387
2.112 2.709 1.581 1192
2.231 2.862 1.651 3554
2.146 2.753 1.592 2847
2.247 2.883 1.650 4114
2.162 2.773 1.591 2595
2.255 2.892 1.642 5097
2.169 2.783 1.584 1266
2.262 2.901 1.635 4317
2.176 2.792 1.577 1410
2.300 2.951 1.648 6510
2.210 2.835 1.588 3129
2.303 2.954 1.637 9089
2.217 2.844 1.581 2091
2.310 2.964 1.629 10119
2.225 2.854 1.573 1330
2.318 2.973 1.622 9992
2.232 2.863 1.566 1377
2.329 2.988 1.617 7949
2.243 2.878 1.561 1787
2.336 2.997 1.609 4494
2.250 2.887 1.554 1514
2.334 2.995 1.595 3786
2.434 3.123 1.658 2823
2.337 2.998 1.584 5217
2.437 3.126 1.646 4746
2.431 3.118 1.629 5502
2.344 3.007 1.576 4652
2.424 3.110 1.612 7440
2.511 3.221 1.666 1879
2.427 3.113 1.601 5716
2.518 3.230 1.657 1874
2.534 3.251 1.653 3104
2.429 3.116 1.590 2962
2.519 3.231 1.630 4735
2.432 3.120 1.578 2989
2.521 3.234 1.619 5674
2.435 3.123 1.567 3532
2.529 3.244 1.609 5621
2.442 3.132 1.558 3490
2.527 3.241 1.595 6283
2.440 3.130 1.544 2070
2.534 3.250 1.586 5480
2.447 3.139 1.535 1525
2.578 3.307 1.598 4751
2.468 3.165 1.534 1941
2.585 3.316 1.588 3920
2.611 3.349 1.589 4454
2.622 3.364 1.582 4178
2.616 3.355 1.564 3806
2.703 3.468 1.613 1080
2.618 3.359 1.552 4382
2.715 3.483 1.605 2034
2.630 3.374 1.545 3489
2.769 3.551 1.620 3194
2.771 3.555 1.607 5635
2.683 3.442 1.560 2015
2.774 3.558 1.594 5491
2.681 3.440 1.545 2371
2.818 3.615 1.603 5536
2.679 3.437 1.530 1342
2.816 3.612 1.587 5138
2.904 3.725 1.633 2400
2.888 3.705 1.610 3568
2.800 3.592 1.564 2141
2.900 3.720 1.601 3215
2.812 3.607 1.556 1987
2.912 3.736 1.592 4393
2.824 3.622 1.547 1652
2.915 3.739 1.578 4027
3.012 3.864 1.627 1347
2.885 3.700 1.549 2060
3.010 3.862 1.611 1396
3.027 3.883 1.603 1579
2.938 3.769 1.560 1383
2.946 3.779 1.549 2403
3.086 3.958 1.616 1605
3.098 3.974 1.606 3716
2.948 3.782 1.535 2335
3.100 3.977 1.592 3994
3.011 3.863 1.550 1626
3.136 4.022 1.593 2644
3.047 3.908 1.551 1261
3.148 4.038 1.582 4135
3.059 3.924 1.541 1494
3.150 4.041 1.567 3963
3.162 4.056 1.557 3136
3.169 4.065 1.544 3693
3.319 4.258 1.611 1008
3.205 4.111 1.544 3980
3.327 4.267 1.598 1359
3.217 4.126 1.533 2647
3.339 4.283 1.586 2141
3.285 4.214 1.546 3767
3.374 4.328 1.585 1719
3.358 4.308 1.561 4414
3.231 4.145 1.507 2623
3.365 4.317 1.547 4879
3.233 4.148 1.491 1278
3.415 4.381 1.551 4203
3.504 4.495 1.588 1329
3.422 4.390 1.537 4530
3.540 4.541 1.585 2975
3.547 4.551 1.571 3309
3.415 4.381 1.517 3108
3.630 4.657 1.586 3195
3.517 4.511 1.541 2799
3.633 4.660 1.569 5308
3.467 4.448 1.504 2446
3.626 4.651 1.549 8152
3.716 4.767 1.584 2019
3.638 4.667 1.535 6701
3.548 4.551 1.500 1471
3.650 4.682 1.522 4128
3.802 4.877 1.580 1484
3.657 4.691 1.506 2838
3.752 4.813 1.542 1853
3.698 4.743 1.503 3868
3.788 4.859 1.537 1806
3.700 4.746 1.486 2299
3.809 4.886 1.526 1770
3.826 4.908 1.513 2459
3.916 5.024 1.546 1646
3.833 4.917 1.497 2315
4.004 5.137 1.558 1752
4.002 5.134 1.537 1874
3.897 4.999 1.501 1644
4.014 5.149 1.522 2288
3.900 5.003 1.482 1747
4.012 5.146 1.501 2712
3.921 5.030 1.470 1487
4.009 5.143 1.481 2625
4.162 5.339 1.532 1778
4.021 5.158 1.465 2013
4.169 5.348 1.514 1520
4.172 5.351 1.495 2116
4.334 5.559 1.548 1692
4.336 5.563 1.527 2745
4.179 5.360 1.477 2183
4.315 5.535 1.499 2439
4.420 5.670 1.533 2116
4.418 5.667 1.510 2307
4.303 5.520 1.474 2222
4.420 5.670 1.490 3027
4.511 5.787 1.518 1729
4.427 5.679 1.470 2853
4.557 5.845 1.509 1706
4.549 5.836 1.485 2177
4.770 6.118 1.551 2094
4.772 6.122 1.528 2565
4.518 5.796 1.454 2332
4.775 6.125 1.506 3132
4.626 5.934 1.463 2762
4.777 6.128 1.483 4008
4.609 5.913 1.436 2132
4.784 6.137 1.462 4813
4.693 6.020 1.437 2661
4.782 6.134 1.438 3840
4.691 6.017 1.413 2186
4.664 5.983 1.383 2257
4.779 6.131 1.414 2054
4.666 5.986 1.361 3550
4.786 6.140 1.393 1853
4.673 5.995 1.340 5359
4.789 6.143 1.370 2442
4.719 6.053 1.329 6030
5.055 6.485 1.415 1516
4.697 6.025 1.301 6993
5.029 6.451 1.384 1122
4.684 6.009 1.275 7251
5.296 6.793 1.425 1294
4.677 5.999 1.251 7592
5.808 7.451 1.522 1421
4.679 6.002 1.229 7880
5.811 7.454 1.495 1365
4.681 6.004 1.207 5851
5.828 7.476 1.471 1286
4.683 6.007 1.185 5617
5.830 7.479 1.443 1240
4.684 6.009 1.163 7341
5.832 7.482 1.416 1229
4.691 6.018 1.142 6169
5.835 7.485 1.388 1222
4.693 6.020 1.120 4026
5.837 7.487 1.360 1320
4.695 6.022 1.098 3237
5.839 7.490 1.333 1560
4.696 6.024 1.075 2123
5.841 7.493 1.305 1330
4.708 6.039 1.055 1174
4.714 6.047 1.034 1173
4.711 6.043 1.011 1036
1.386 1.764 1.708 4193
1.461 1.861 1.796 1187
1.389 1.768 1.702 8387
1.464 1.864 1.789 2404
1.392 1.772 1.695 8387
1.467 1.868 1.782 2433
1.402 1.785 1.698 7264
1.478 1.882 1.785 2963
1.433 1.825 1.723 6564
1.416 1.803 1.694 7323
1.492 1.900 1.780 4228
1.423 1.811 1.692 8293
1.499 1.909 1.778 4811
1.426 1.815 1.685 8293
1.502 1.913 1.771 4811
1.432 1.824 1.683 7581
1.509 1.921 1.768 3425
1.439 1.832 1.681 7433
1.516 1.930 1.766 2799
1.446 1.841 1.679 5654
1.523 1.939 1.763 2966
1.498 1.907 1.725 6140
1.420 1.808 1.641 1743
1.509 1.921 1.727 5655
1.431 1.822 1.644 1889
1.528 1.945 1.737 6650
1.446 1.841 1.650 1277
1.531 1.949 1.730 6303
1.533 1.952 1.723 5519
1.528 1.946 1.708 5140
1.535 1.954 1.705 5763
1.538 1.958 1.698 6443
1.541 1.962 1.691 8451
1.619 2.061 1.771 1716
1.543 1.965 1.683 10459
1.622 2.065 1.764 2487
1.546 1.969 1.676 9509
1.625 2.069 1.756 3909
1.557 1.983 1.678 8683
1.636 2.083 1.757 3602
1.593 2.029 1.704 11155
1.514 1.928 1.624 1195
1.604 2.043 1.705 14309
1.525 1.942 1.626 1972
1.611 2.052 1.701 13945
1.532 1.951 1.623 1858
1.618 2.061 1.698 13812
1.539 1.960 1.620 1279
1.621 2.064 1.691 16912
1.624 2.068 1.683 20013
1.627 2.071 1.676 17258
1.630 2.075 1.668 14503
1.632 2.078 1.660 11644
1.712 2.180 1.737 1432
1.639 2.087 1.657 8937
1.720 2.189 1.733 1848
1.646 2.096 1.653 8706
1.727 2.198 1.729 1848
1.666 2.121 1.661 8109
1.698 2.162 1.681 8349
1.779 2.265 1.756 1124
1.663 2.117 1.638 6803
1.744 2.220 1.713 5123
1.759 2.240 1.716 6638
1.666 2.121 1.630 6630
1.779 2.265 1.723 6008
1.668 2.124 1.623 4844
1.786 2.274 1.719 6291
1.671 2.127 1.615 3057
1.785 2.272 1.707 5409
1.704 2.169 1.634 2209
1.758 2.238 1.672 6206
1.676 2.134 1.600 1483
1.769 2.252 1.671 5812
1.687 2.148 1.599 1982
1.810 2.305 1.697 8438
1.729 2.201 1.625 2183
1.818 2.314 1.692 12048
1.736 2.210 1.621 2680
1.816 2.312 1.680 15896
1.734 2.208 1.609 3102
1.819 2.316 1.672 20001
1.737 2.211 1.601 2856
1.822 2.319 1.663 18744
1.739 2.215 1.593 1783
1.824 2.323 1.655 15800
1.907 2.428 1.725 2343
1.827 2.326 1.647 14113
1.910 2.431 1.716 2718
1.830 2.330 1.638 15770
1.912 2.435 1.707 3523
1.837 2.339 1.633 13566
1.920 2.444 1.702 4218
1.840 2.342 1.625 9652
1.922 2.447 1.693 4583
1.860 2.368 1.630 9176
1.943 2.473 1.698 2450
1.849 2.354 1.611 7995
1.932 2.460 1.678 3490
1.847 2.352 1.599 7609
1.931 2.458 1.666 4586
1.854 2.361 1.594 6660
1.938 2.467 1.661 4805
1.927 2.454 1.641 6564
1.844 2.348 1.575 3448
1.930 2.457 1.632 6357
1.847 2.351 1.566 2664
1.937 2.466 1.627 4836
2.021 2.573 1.692 2587
1.997 2.543 1.662 4498
2.081 2.649 1.727 1878
2.004 2.552 1.656 3838
2.088 2.659 1.721 2730
2.038 2.595 1.671 5856
1.945 2.476 1.600 2481
2.041 2.598 1.661 7034
2.125 2.705 1.725 2362
2.079 2.647 1.678 5684
1.995 2.540 1.615 1148
2.086 2.656 1.672 6795
2.084 2.654 1.659 9155
2.169 2.761 1.722 1589
2.078 2.646 1.643 10097
2.163 2.754 1.705 1755
2.081 2.649 1.633 6418
2.175 2.769 1.701 1939
2.110 2.687 1.643 4877
2.195 2.795 1.704 2245
2.113 2.690 1.633 5324
2.198 2.799 1.694 2595
2.111 2.688 1.620 4452
2.196 2.796 1.681 3365
2.181 2.777 1.658 3527
2.096 2.669 1.597 1874
2.179 2.775 1.644 3461
2.094 2.666 1.584 1244
2.196 2.795 1.644 3592
2.110 2.687 1.584 1583
2.185 2.782 1.624 3677
2.270 2.891 1.683 1054
2.183 2.779 1.611 3978
2.269 2.888 1.669 2125
2.253 2.869 1.647 4085
2.168 2.760 1.588 2761
2.252 2.867 1.633 4946
2.337 2.976 1.691 1602
2.268 2.887 1.632 3891
2.182 2.778 1.574 1331
2.307 2.937 1.645 5805
2.221 2.827 1.588 3125
2.314 2.946 1.637 8363
2.228 2.836 1.581 2070
2.321 2.955 1.629 9240
2.235 2.845 1.573 1436
2.324 2.959 1.619 9372
2.238 2.849 1.563 1289
2.331 2.968 1.611 7265
2.245 2.858 1.555 1222
2.343 2.983 1.606 3945
2.434 3.099 1.663 1190
2.341 2.980 1.592 3946
2.441 3.108 1.655 3230
2.448 3.117 1.646 5548
2.348 2.989 1.584 5359
2.437 3.103 1.627 5721
2.351 2.993 1.573 4476
2.431 3.095 1.610 7383
2.518 3.206 1.663 2064
2.434 3.098 1.598 6044
2.530 3.221 1.657 2039
2.542 3.236 1.650 3165
2.441 3.108 1.590 2882
2.535 3.228 1.633 4638
2.448 3.117 1.581 2574
2.533 3.225 1.619 4851
2.446 3.114 1.567 3169
2.540 3.234 1.609 4435
2.453 3.123 1.558 3111
2.543 3.238 1.598 4958
2.456 3.126 1.547 2498
2.546 3.241 1.586 4335
2.458 3.130 1.535 2104
2.590 3.297 1.598 4287
2.484 3.162 1.537 2471
2.611 3.324 1.596 4596
2.523 3.212 1.546 1111
2.618 3.333 1.586 5953
2.630 3.348 1.579 4549
2.623 3.340 1.562 3346
2.772 3.529 1.643 1151
2.631 3.349 1.552 3824
2.783 3.544 1.635 1799
2.642 3.364 1.545 3163
2.782 3.541 1.620 3105
2.789 3.551 1.609 5100
2.701 3.438 1.562 2339
2.787 3.548 1.594 4809
2.698 3.436 1.547 2189
2.831 3.605 1.603 5718
2.701 3.439 1.535 1307
2.834 3.608 1.590 4929
2.922 3.721 1.635 2018
2.855 3.635 1.586 3458
2.944 3.748 1.631 1895
2.876 3.662 1.582 2959
2.965 3.775 1.627 2270
2.930 3.731 1.594 4164
2.842 3.618 1.550 2037
2.928 3.728 1.578 3979
3.022 3.847 1.625 1358
2.879 3.666 1.539 2381
3.024 3.851 1.611 1706
3.041 3.872 1.603 1521
2.952 3.759 1.560 1433
2.955 3.762 1.546 2634
3.109 3.959 1.621 1905
3.117 3.968 1.609 3573
2.962 3.771 1.535 2680
3.119 3.972 1.594 3706
3.026 3.852 1.550 1524
3.146 4.005 1.590 2965
3.153 4.014 1.578 4045
3.160 4.023 1.565 3609
3.177 4.045 1.557 2421
3.208 4.084 1.555 3205
3.215 4.093 1.542 4099
3.347 4.261 1.600 1271
3.288 4.187 1.557 3433
3.199 4.072 1.518 1548
3.296 4.196 1.544 4718
3.385 4.310 1.583 1691
3.374 4.295 1.561 4531
3.255 4.145 1.511 2605
3.376 4.299 1.545 5299
3.466 4.413 1.583 1375
3.440 4.380 1.555 4902
3.350 4.266 1.517 1321
3.443 4.383 1.539 5119
3.552 4.522 1.584 2876
3.554 4.526 1.567 3680
3.464 4.411 1.530 3531
3.600 4.583 1.567 3470
3.472 4.420 1.516 3357
3.621 4.611 1.558 5629
3.479 4.429 1.502 2099
3.643 4.638 1.549 8551
3.733 4.753 1.584 2028
3.655 4.653 1.535 7051
3.565 4.538 1.500 1809
3.667 4.669 1.522 3869
3.819 4.863 1.580 1838
3.698 4.708 1.515 3117
3.822 4.866 1.562 1990
3.710 4.724 1.501 4207
3.801 4.839 1.535 1866
3.717 4.733 1.486 2191
3.836 4.885 1.529 1620
3.834 4.882 1.510 2125
3.930 5.003 1.544 1672
3.841 4.891 1.493 1854
4.023 5.122 1.558 1745
4.021 5.119 1.537 1774
3.920 4.991 1.502 1746
4.028 5.128 1.520 2138
3.923 4.994 1.484 1583
4.030 5.131 1.501 2871
3.940 5.016 1.470 1397
4.033 5.135 1.482 2926
4.177 5.317 1.531 1668
4.260 5.424 1.538 2101
4.035 5.138 1.464 2093
4.186 5.330 1.493 2499
4.277 5.446 1.523 1596
4.193 5.339 1.475 2189
4.429 5.638 1.550 2150
4.325 5.507 1.496 2101
4.436 5.648 1.531 1846
4.438 5.651 1.510 1974
4.318 5.498 1.473 1848
4.446 5.660 1.491 2651
4.537 5.776 1.519 2376
4.443 5.657 1.469 2729
4.563 5.810 1.505 2066
4.571 5.819 1.485 2703
4.436 5.648 1.445 2586
4.530 5.767 1.451 3092
4.664 5.939 1.490 2710
4.657 5.930 1.466 3101
4.537 5.776 1.431 2946
4.799 6.110 1.483 3458
4.708 5.994 1.457 1933
4.802 6.113 1.461 3694
4.696 5.978 1.431 1980
4.693 5.975 1.408 2857
4.804 6.117 1.438 2782
4.695 5.978 1.386 3723
4.826 6.144 1.421 1860
4.703 5.987 1.365 4101
4.804 6.116 1.392 2440
4.710 5.996 1.344 7186
4.811 6.125 1.370 2651
4.721 6.011 1.325 9999
4.818 6.134 1.349 1926
4.733 6.026 1.305 8686
4.956 6.309 1.360 1092
4.706 5.992 1.275 6549
5.316 6.768 1.424 1244
4.703 5.988 1.252 9378
5.840 7.436 1.523 1194
4.705 5.991 1.230 10437
5.838 7.433 1.495 1139
4.707 5.993 1.208 8929
5.855 7.454 1.471 1198
4.709 5.996 1.186 6839
5.857 7.457 1.443 1280
4.711 5.998 1.164 3943
5.860 7.460 1.416 1304
4.713 6.000 1.142 2802
5.862 7.463 1.388 1246
4.720 6.009 1.121 4218
5.864 7.466 1.360 1351
4.721 6.011 1.099 4565
5.866 7.469 1.333 1548
4.728 6.019 1.077 3567
5.868 7.472 1.305 1268
4.725 6.015 1.054 3360
4.726 6.018 1.032 2810
4.733 6.026 1.011 1798
4.730 6.022 0.988 1282
4.731 6.023 0.965 1091
1.396 1.765 1.713 3928
1.472 1.860 1.800 1088
1.399 1.768 1.706 7856
1.475 1.864 1.794 2196
1.402 1.772 1.700 7856
1.478 1.868 1.787 2216
1.409 1.780 1.698 6727
1.485 1.877 1.785 2990
1.472 1.860 1.760 5871
1.395 1.764 1.673 4825
1.422 1.798 1.694 6316
1.499 1.895 1.780 4172
1.429 1.806 1.692 7016
1.506 1.903 1.778 4909
1.432 1.810 1.685 7016
1.509 1.907 1.771 4909
1.439 1.819 1.683 6598
1.516 1.916 1.768 3615
1.450 1.832 1.686 6720
1.527 1.930 1.770 2799
1.449 1.831 1.674 5312
1.526 1.929 1.759 2934
1.504 1.901 1.725 4649
1.427 1.803 1.641 2091
1.511 1.910 1.723 4405
1.434 1.812 1.639 1772
1.535 1.940 1.737 5310
1.449 1.831 1.646 1308
1.538 1.943 1.730 5305
1.524 1.926 1.706 5106
1.527 1.930 1.699 5095
1.542 1.949 1.705 5803
1.545 1.953 1.698 7257
1.623 2.052 1.779 1029
1.552 1.961 1.695 8912
1.631 2.061 1.776 1504
1.555 1.965 1.688 10601
1.633 2.065 1.768 2078
1.557 1.968 1.681 9728
1.636 2.068 1.761 3251
1.564 1.977 1.678 8920
1.644 2.077 1.757 3556
1.596 2.018 1.700 11679
1.603 2.027 1.696 14748
1.615 2.041 1.697 13342
1.535 1.940 1.619 1281
1.622 2.050 1.694 12368
1.542 1.949 1.616 1019
1.629 2.058 1.691 15124
1.636 2.067 1.687 18085
1.634 2.065 1.676 15196
1.637 2.069 1.668 12326
1.640 2.072 1.660 9850
1.720 2.174 1.737 1274
1.647 2.081 1.657 7548
1.727 2.183 1.733 1675
1.649 2.085 1.649 6863
1.730 2.187 1.725 2105
1.703 2.153 1.689 7302
1.706 2.156 1.681 8423
1.787 2.259 1.756 1247
1.679 2.122 1.646 8248
1.760 2.225 1.720 4348
1.677 2.120 1.634 8500
1.771 2.239 1.720 5927
1.787 2.259 1.723 6368
1.684 2.129 1.630 6162
1.794 2.268 1.719 7117
1.687 2.132 1.623 3839
1.759 2.223 1.676 7045
1.677 2.119 1.603 2436
1.761 2.226 1.668 8089
1.843 2.330 1.741 1548
1.768 2.235 1.664 7056
1.686 2.132 1.592 1727
1.819 2.299 1.697 8627
1.737 2.195 1.625 2994
1.826 2.308 1.692 10781
1.744 2.204 1.621 3472
1.824 2.306 1.680 14657
1.742 2.202 1.609 3676
1.823 2.304 1.668 18697
1.740 2.200 1.598 2679
1.825 2.307 1.660 18215
1.743 2.203 1.590 1686
1.828 2.311 1.651 15515
1.911 2.415 1.721 2258
1.831 2.314 1.643 13298
1.914 2.419 1.712 2690
1.834 2.318 1.634 15081
1.917 2.422 1.703 3811
1.836 2.321 1.626 12954
1.919 2.426 1.695 5343
1.839 2.324 1.617 9044
1.922 2.430 1.686 5753
1.899 2.400 1.655 7769
1.815 2.295 1.588 3660
1.901 2.403 1.647 7808
1.985 2.509 1.714 1947
1.909 2.412 1.641 6850
1.997 2.523 1.712 2336
1.929 2.438 1.646 6821
1.845 2.332 1.580 3281
1.936 2.447 1.641 6454
1.852 2.341 1.575 1949
1.939 2.450 1.632 5602
2.036 2.573 1.708 2121
1.999 2.527 1.668 4539
1.915 2.420 1.602 1868
2.015 2.547 1.669 5295
2.099 2.653 1.734 1798
2.036 2.573 1.673 6152
1.951 2.466 1.609 2759
2.043 2.582 1.667 8141
1.958 2.475 1.603 2924
2.050 2.591 1.661 9253
1.965 2.484 1.597 2194
2.057 2.600 1.655 6322
2.142 2.707 1.718 2088
2.091 2.643 1.669 6779
2.176 2.750 1.732 1038
2.089 2.641 1.656 9527
2.174 2.748 1.718 1774
2.092 2.644 1.646 10493
2.177 2.752 1.708 1436
2.095 2.648 1.636 6538
2.184 2.761 1.701 2027
2.120 2.679 1.643 5695
2.205 2.787 1.704 2176
2.123 2.683 1.633 6419
2.208 2.791 1.694 2591
2.125 2.686 1.623 5287
2.211 2.794 1.684 3550
2.191 2.769 1.658 4423
2.106 2.661 1.597 2129
2.189 2.767 1.644 3880
2.104 2.659 1.584 1415
2.192 2.771 1.634 3376
2.278 2.879 1.694 1075
2.195 2.774 1.624 3827
2.281 2.882 1.683 1051
2.197 2.777 1.614 4349
2.283 2.886 1.672 1826
2.241 2.832 1.631 5350
2.327 2.941 1.689 2166
2.248 2.841 1.624 5341
2.334 2.950 1.682 2672
2.251 2.845 1.613 3880
2.337 2.954 1.671 2944
2.317 2.929 1.645 4553
2.231 2.819 1.588 2767
2.324 2.938 1.637 6555
2.238 2.828 1.581 1749
2.332 2.947 1.629 7132
2.245 2.838 1.573 1369
2.334 2.950 1.619 7909
2.248 2.841 1.563 1215
2.337 2.954 1.608 6832
2.424 3.063 1.663 1410
2.335 2.951 1.594 4221
2.422 3.061 1.649 2256
2.347 2.966 1.589 4155
2.448 3.093 1.652 4120
2.459 3.109 1.646 6666
2.359 2.981 1.584 5442
2.458 3.106 1.632 6633
2.370 2.996 1.578 4874
2.437 3.081 1.607 7719
2.525 3.191 1.660 2441
2.440 3.084 1.595 6626
2.527 3.194 1.648 2412
2.548 3.221 1.648 3529
2.443 3.087 1.584 3308
2.547 3.219 1.633 4915
2.459 3.108 1.581 2827
2.545 3.216 1.619 4683
2.457 3.105 1.567 3029
2.506 3.167 1.582 3730
2.593 3.278 1.634 2727
2.550 3.223 1.595 3813
2.462 3.112 1.544 2113
2.553 3.226 1.583 3262
2.465 3.115 1.533 1663
2.606 3.294 1.600 3559
2.495 3.153 1.537 2466
2.623 3.315 1.596 5798
2.502 3.162 1.528 1307
2.630 3.324 1.586 7473
2.542 3.213 1.537 1201
2.642 3.339 1.579 5575
2.554 3.228 1.530 1050
2.654 3.354 1.572 3442
2.784 3.519 1.643 1067
2.642 3.340 1.552 3259
2.796 3.534 1.635 1508
2.799 3.537 1.622 2864
2.650 3.349 1.542 2583
2.806 3.547 1.612 4926
2.717 3.435 1.565 2372
2.846 3.597 1.618 5092
2.711 3.426 1.547 2062
2.849 3.601 1.605 6466
2.938 3.713 1.651 1334
2.847 3.598 1.590 4612
2.936 3.710 1.635 2004
2.891 3.655 1.598 2944
2.980 3.767 1.643 2292
2.969 3.753 1.622 3087
2.880 3.640 1.577 2371
2.944 3.721 1.594 3936
2.855 3.608 1.550 1493
2.942 3.718 1.578 3895
3.031 3.831 1.623 1472
2.944 3.721 1.565 2429
3.033 3.834 1.608 1664
3.107 3.927 1.629 1881
2.966 3.748 1.560 1776
3.119 3.942 1.619 2843
2.968 3.751 1.546 2500
3.136 3.963 1.611 3474
2.975 3.761 1.535 2386
3.148 3.978 1.601 3516
2.992 3.782 1.528 1390
3.160 3.994 1.590 3197
3.162 3.997 1.576 4198
3.170 4.006 1.563 3725
3.186 4.027 1.555 2603
3.276 4.141 1.595 1315
3.222 4.072 1.555 3311
3.312 4.186 1.594 1691
3.229 4.082 1.542 3876
3.319 4.196 1.581 2162
3.303 4.175 1.557 4216
3.213 4.061 1.518 1554
3.315 4.190 1.546 5046
3.225 4.076 1.507 1462
3.322 4.199 1.533 4094
3.413 4.313 1.571 2667
3.387 4.281 1.543 5012
3.296 4.166 1.505 1783
3.461 4.374 1.557 5354
3.370 4.260 1.519 1888
3.468 4.383 1.543 5760
3.568 4.510 1.584 2684
3.490 4.410 1.534 5168
3.580 4.525 1.571 3309
3.626 4.582 1.571 4137
3.487 4.408 1.516 4007
3.638 4.598 1.558 6282
3.547 4.483 1.522 2036
3.655 4.619 1.547 8476
3.745 4.734 1.582 2083
3.671 4.640 1.535 7163
3.581 4.526 1.500 1896
3.684 4.656 1.522 3731
3.837 4.849 1.580 1994
3.710 4.689 1.513 3394
3.839 4.852 1.562 2232
3.727 4.710 1.501 3928
3.818 4.825 1.535 1867
3.792 4.792 1.507 1919
3.916 4.950 1.552 1793
3.928 4.965 1.537 1880
4.053 5.122 1.582 1478
3.936 4.974 1.521 2028
3.768 4.762 1.461 1733
3.938 4.977 1.502 1767
4.188 5.293 1.589 1231
4.051 5.120 1.522 1948
3.940 4.980 1.484 1266
4.049 5.117 1.501 3012
4.193 5.299 1.550 1461
4.046 5.114 1.481 3559
4.186 5.290 1.527 1721
4.280 5.409 1.538 2664
4.049 5.117 1.462 2305
4.205 5.315 1.493 2796
4.354 5.504 1.542 2292
4.357 5.507 1.521 3041
4.208 5.318 1.473 2190
4.355 5.504 1.499 3668
4.446 5.620 1.528 1686
4.352 5.501 1.477 2904
4.545 5.745 1.537 2328
4.548 5.748 1.516 3339
4.369 5.522 1.462 2281
4.550 5.751 1.495 3062
4.454 5.629 1.466 2510
4.543 5.742 1.471 3690
4.451 5.626 1.444 2846
4.550 5.751 1.451 3999
4.690 5.928 1.492 2980
4.557 5.760 1.431 3350
4.683 5.919 1.467 3301
4.821 6.093 1.483 3306
4.690 5.928 1.446 2402
4.828 6.103 1.462 3362
4.698 5.937 1.426 2160
4.850 6.130 1.445 2723
4.710 5.952 1.407 2014
4.717 5.961 1.386 2526
4.848 6.127 1.421 2351
4.709 5.952 1.361 4078
4.830 6.105 1.393 2120
4.711 5.955 1.339 6804
4.823 6.096 1.368 1904
4.718 5.964 1.318 7816
4.820 6.092 1.344 1397
4.716 5.960 1.295 7727
5.075 6.414 1.384 1095
4.718 5.963 1.273 7662
5.340 6.749 1.424 1225
4.720 5.965 1.251 5335
5.745 7.261 1.494 1074
4.732 5.980 1.231 5041
5.748 7.264 1.468 1002
4.733 5.983 1.209 5553
4.731 5.979 1.186 7522
5.884 7.437 1.443 1039
4.732 5.981 1.164 12753
5.886 7.439 1.416 1137
4.734 5.984 1.142 14525
5.888 7.442 1.388 1113
4.736 5.986 1.120 9771
5.891 7.445 1.360 1241
4.733 5.982 1.097 5106
5.893 7.448 1.333 1316
4.735 5.984 1.074 3697
5.895 7.451 1.305 1022
4.731 5.980 1.051 2382
1.397 1.756 1.708 3484
1.473 1.852 1.796 1535
1.400 1.760 1.702 6969
1.476 1.855 1.789 3079
1.402 1.763 1.695 6969
1.479 1.859 1.782 3089
1.409 1.772 1.693 5959
1.486 1.868 1.780 3599
1.477 1.856 1.760 5870
1.400 1.760 1.673 4755
1.488 1.870 1.762 5526
1.411 1.774 1.676 4816
1.499 1.884 1.764 6296
1.422 1.787 1.678 5615
1.502 1.888 1.757 6296
1.425 1.791 1.672 5525
1.444 1.815 1.683 5652
1.521 1.912 1.768 3819
1.455 1.829 1.686 6311
1.532 1.926 1.770 3031
1.457 1.832 1.679 5179
1.535 1.930 1.763 2792
1.509 1.897 1.725 4196
1.431 1.800 1.641 2248
1.512 1.901 1.718 4094
1.434 1.803 1.635 1556
1.540 1.936 1.737 4397
1.453 1.827 1.646 1281
1.526 1.919 1.713 4916
1.529 1.922 1.706 5696
1.528 1.921 1.695 5687
1.547 1.945 1.705 6454
1.550 1.949 1.698 8347
1.629 2.048 1.779 1122
1.557 1.957 1.695 9263
1.636 2.057 1.776 1507
1.560 1.961 1.688 10278
1.639 2.060 1.768 2018
1.567 1.970 1.685 9438
1.646 2.069 1.765 2468
1.599 2.010 1.707 9050
1.519 1.910 1.627 1423
1.602 2.014 1.700 12138
1.522 1.913 1.620 1221
1.604 2.017 1.692 15226
1.525 1.917 1.613 1019
1.595 2.005 1.672 13180
1.674 2.105 1.751 1947
1.597 2.008 1.665 11361
1.677 2.109 1.743 1872
1.634 2.054 1.691 13190
1.641 2.063 1.687 16014
1.640 2.061 1.676 13175
1.642 2.065 1.668 10497
1.645 2.068 1.660 8412
1.726 2.170 1.737 1178
1.652 2.077 1.657 6525
1.733 2.179 1.733 1529
1.655 2.080 1.649 5627
1.736 2.182 1.725 2115
1.713 2.154 1.693 6548
1.690 2.125 1.662 9077
1.789 2.249 1.752 1342
1.689 2.123 1.650 9722
1.783 2.242 1.736 3652
1.687 2.121 1.638 9779
1.786 2.245 1.728 5281
1.690 2.125 1.630 7155
1.793 2.254 1.723 6429
1.796 2.258 1.715 7640
1.697 2.133 1.627 4542
1.764 2.218 1.676 8485
1.682 2.115 1.603 2591
1.767 2.222 1.668 9839
1.849 2.325 1.741 1650
1.770 2.225 1.660 8676
1.852 2.328 1.732 1875
1.820 2.288 1.693 9087
1.738 2.185 1.622 3416
1.827 2.297 1.689 10583
1.745 2.194 1.617 3429
1.826 2.296 1.677 14013
1.743 2.192 1.606 3292
1.829 2.299 1.668 17672
1.746 2.195 1.598 2914
1.827 2.297 1.656 17759
1.910 2.401 1.726 1591
1.830 2.300 1.648 15537
1.913 2.405 1.717 2447
1.819 2.287 1.628 13672
1.903 2.392 1.698 4899
1.835 2.307 1.631 14845
1.918 2.412 1.700 4198
1.838 2.311 1.622 13427
1.921 2.416 1.691 5571
1.836 2.309 1.610 10385
1.920 2.414 1.678 5995
1.843 2.317 1.605 8140
1.927 2.423 1.673 5043
1.908 2.398 1.647 7651
1.824 2.293 1.579 1769
1.919 2.413 1.645 7268
1.835 2.307 1.578 2140
1.935 2.433 1.646 7268
1.851 2.327 1.580 2634
1.942 2.442 1.641 6560
2.040 2.564 1.718 2260
1.945 2.445 1.632 5326
2.043 2.568 1.708 2361
2.010 2.527 1.671 4191
1.926 2.421 1.606 2127
2.030 2.553 1.676 6187
1.946 2.447 1.611 2343
2.042 2.567 1.673 7955
1.958 2.461 1.609 3096
2.049 2.577 1.667 9750
1.965 2.470 1.603 3212
2.057 2.586 1.661 10913
1.972 2.479 1.597 2304
2.064 2.595 1.655 7372
2.149 2.701 1.718 2007
2.093 2.632 1.665 7231
2.178 2.739 1.728 1147
2.096 2.635 1.656 9899
2.181 2.742 1.718 1518
2.099 2.639 1.646 10769
2.184 2.746 1.708 1217
2.115 2.659 1.646 7000
2.201 2.767 1.708 1772
2.127 2.674 1.643 6448
2.212 2.781 1.704 2016
2.130 2.677 1.633 7270
2.215 2.785 1.694 2500
2.132 2.681 1.623 5905
2.218 2.789 1.684 3746
2.198 2.764 1.658 5405
2.112 2.656 1.597 2248
2.201 2.767 1.647 4581
2.115 2.659 1.588 1830
2.199 2.765 1.634 3655
2.285 2.873 1.694 1245
2.202 2.768 1.624 4106
2.288 2.877 1.683 1126
2.209 2.777 1.617 4578
2.295 2.886 1.676 1651
2.248 2.826 1.631 6095
2.335 2.935 1.689 2191
2.251 2.830 1.621 5603
2.337 2.939 1.679 2906
2.258 2.839 1.613 4206
2.345 2.948 1.671 2691
2.320 2.917 1.642 3184
2.233 2.808 1.585 2293
2.332 2.932 1.637 4264
2.241 2.817 1.578 1435
2.348 2.952 1.635 4795
2.262 2.843 1.579 1514
2.351 2.956 1.624 6413
2.264 2.846 1.569 1228
2.349 2.953 1.611 6286
2.436 3.063 1.666 1729
2.343 2.945 1.594 4170
2.430 3.055 1.649 2869
2.456 3.087 1.652 4464
2.354 2.960 1.589 3877
2.467 3.102 1.646 7058
2.366 2.975 1.584 4751
2.456 3.088 1.627 6756
2.369 2.978 1.573 3896
2.441 3.068 1.604 7876
2.528 3.178 1.657 2545
2.443 3.072 1.593 6742
2.531 3.182 1.646 2493
2.552 3.209 1.645 3688
2.455 3.087 1.587 3399
2.550 3.206 1.630 5185
2.462 3.096 1.578 2301
2.548 3.204 1.616 5048
2.460 3.093 1.564 1858
2.523 3.172 1.588 4881
2.611 3.283 1.639 1956
2.549 3.205 1.590 4201
2.637 3.315 1.640 1600
2.561 3.220 1.583 3276
2.649 3.331 1.633 1870
2.629 3.305 1.608 3652
2.522 3.170 1.548 1557
2.631 3.308 1.596 6613
2.543 3.197 1.546 1326
2.639 3.317 1.586 7853
2.550 3.206 1.537 1095
2.651 3.332 1.579 5654
2.662 3.347 1.572 3395
2.816 3.541 1.656 1096
2.656 3.339 1.555 2680
2.824 3.550 1.645 1438
2.827 3.554 1.632 2617
2.738 3.442 1.585 1923
2.820 3.545 1.614 4554
2.731 3.433 1.567 2438
2.855 3.590 1.618 5034
2.724 3.425 1.550 2105
2.858 3.593 1.605 6273
2.947 3.705 1.651 1625
2.851 3.585 1.587 4269
2.941 3.697 1.633 2031
2.901 3.647 1.598 3201
2.990 3.759 1.643 2524
2.984 3.751 1.625 3247
2.894 3.639 1.580 2322
2.953 3.713 1.594 3199
2.864 3.600 1.550 1510
2.951 3.710 1.578 3584
3.041 3.823 1.623 1488
2.959 3.719 1.567 2617
3.048 3.832 1.611 1390
3.117 3.918 1.629 2821
2.966 3.729 1.556 1841
3.124 3.928 1.616 3945
2.978 3.744 1.546 2269
3.146 3.955 1.611 3950
2.985 3.753 1.535 2170
3.163 3.976 1.603 3632
3.073 3.863 1.561 1440
3.170 3.985 1.590 3193
3.080 3.872 1.549 1240
3.168 3.983 1.573 4183
3.180 3.998 1.563 3809
3.197 4.019 1.555 3212
3.297 4.144 1.599 1569
3.237 4.070 1.557 3541
3.328 4.184 1.597 2127
3.311 4.163 1.573 3843
3.221 4.049 1.533 2899
3.314 4.166 1.557 4645
3.223 4.053 1.518 1744
3.331 4.187 1.548 4676
3.240 4.074 1.509 1637
3.333 4.191 1.533 4205
3.424 4.304 1.571 1731
3.398 4.272 1.543 4175
3.307 4.158 1.505 2001
3.477 4.371 1.559 5672
3.386 4.257 1.521 2472
3.489 4.386 1.547 6310
3.584 4.506 1.585 2522
3.501 4.401 1.534 5954
3.630 4.564 1.586 3145
3.642 4.579 1.573 4429
3.494 4.393 1.514 4402
3.650 4.588 1.558 6189
3.559 4.474 1.522 1961
3.667 4.610 1.547 7333
3.758 4.724 1.582 1924
3.683 4.631 1.535 6270
3.592 4.516 1.500 1826
3.700 4.652 1.523 3458
3.854 4.845 1.581 1853
3.722 4.679 1.513 3698
3.852 4.842 1.562 2138
3.734 4.695 1.500 3640
3.825 4.809 1.533 2183
3.929 4.939 1.552 2498
3.804 4.782 1.507 2113
3.936 4.949 1.535 2144
3.758 4.725 1.472 1509
3.948 4.964 1.521 2484
3.775 4.746 1.459 1709
3.951 4.967 1.502 2167
4.168 5.240 1.578 1433
4.045 5.085 1.515 1920
4.165 5.237 1.557 1569
4.057 5.101 1.500 2984
4.163 5.234 1.536 1680
4.064 5.110 1.482 3188
4.180 5.255 1.521 1906
4.294 5.398 1.538 2986
4.202 5.283 1.508 2171
4.364 5.486 1.540 3976
4.219 5.304 1.493 2726
4.366 5.489 1.520 5092
4.217 5.301 1.472 2079
4.369 5.493 1.499 5193
4.490 5.645 1.537 1985
4.371 5.496 1.479 4465
4.487 5.642 1.515 2858
4.563 5.736 1.516 3980
4.379 5.505 1.460 3962
4.565 5.739 1.495 3649
4.381 5.508 1.440 3195
4.558 5.730 1.471 3926
4.466 5.614 1.444 3001
4.560 5.733 1.449 4187
4.711 5.922 1.493 3099
4.567 5.742 1.430 3186
4.703 5.913 1.468 3129
4.842 6.087 1.484 2435
4.706 5.916 1.446 2354
4.859 6.108 1.466 2788
4.718 5.931 1.427 2018
4.871 6.124 1.446 2414
4.720 5.934 1.405 1771
4.722 5.937 1.383 2724
4.863 6.114 1.421 1808
4.725 5.940 1.361 3750
4.846 6.093 1.393 1794
4.727 5.943 1.339 3531
4.839 6.083 1.368 1628
4.748 5.970 1.322 2996
5.089 6.398 1.408 1347
4.760 5.985 1.302 3413
5.092 6.401 1.384 1229
4.753 5.975 1.278 3333
5.367 6.747 1.426 1479
4.740 5.959 1.252 4843
5.764 7.247 1.494 1443
4.737 5.956 1.229 7182
5.766 7.250 1.468 1465
4.739 5.958 1.207 9402
5.764 7.246 1.440 1370
4.741 5.961 1.185 12691
5.766 7.249 1.413 1368
4.743 5.963 1.163 14084
5.769 7.252 1.386 1315
4.745 5.965 1.141 10616
5.776 7.261 1.360 1235
4.747 5.968 1.119 8624
5.783 7.270 1.334 1134
4.748 5.970 1.097 8928
5.912 7.433 1.333 1005
4.755 5.978 1.075 6016
4.757 5.980 1.053 3969
4.753 5.976 1.030 2941
4.745 5.966 1.006 1344
1.404 1.750 1.708 2779
1.480 1.846 1.796 1761
1.407 1.754 1.702 5558
