1.984 2.088 1.691 8349
1.893 1.992 1.619 2448
1.992 2.096 1.687 8378
1.901 2.001 1.615 1666
2.005 2.110 1.686 8446
1.904 2.004 1.607 1006
2.008 2.113 1.677 8409
2.099 2.209 1.749 1161
2.016 2.121 1.673 7335
2.107 2.217 1.744 1938
2.038 2.145 1.679 6676
2.129 2.241 1.750 1802
2.051 2.158 1.678 5063
2.142 2.255 1.748 1237
2.088 2.197 1.695 6189
1.996 2.100 1.626 1164
2.091 2.200 1.687 7864
2.183 2.297 1.756 1057
2.103 2.214 1.685 6880
2.141 2.253 1.702 8312
2.048 2.156 1.633 1497
2.144 2.256 1.693 8220
2.051 2.159 1.625 1404
2.152 2.265 1.687 7351
2.059 2.167 1.620 1551
2.165 2.278 1.686 6861
2.072 2.181 1.618 1341
2.172 2.286 1.680 6955
2.265 2.384 1.747 1171
2.215 2.331 1.699 6885
2.122 2.233 1.632 2629
2.218 2.334 1.690 7522
2.125 2.236 1.624 1520
2.231 2.348 1.688 6431
2.138 2.250 1.622 1390
2.234 2.351 1.678 5164
2.141 2.253 1.613 1352
2.291 2.411 1.707 4529
2.193 2.308 1.638 3332
2.265 2.383 1.677 5355
2.171 2.285 1.612 2891
2.268 2.387 1.667 6713
2.174 2.288 1.603 2099
2.276 2.395 1.661 7981
2.370 2.494 1.725 2534
2.343 2.466 1.695 7184
2.249 2.367 1.632 3103
2.351 2.474 1.689 7594
2.257 2.375 1.625 2253
2.344 2.467 1.672 6962
2.250 2.368 1.609 1400
2.332 2.455 1.653 5684
2.427 2.554 1.715 1243
2.321 2.442 1.633 3312
2.415 2.542 1.695 2403
2.418 2.545 1.685 3060
2.304 2.425 1.610 2260
2.416 2.543 1.671 3490
2.322 2.443 1.610 1898
2.404 2.531 1.652 4203
2.499 2.630 1.712 1519
2.402 2.528 1.639 5686
2.497 2.628 1.699 2616
2.410 2.537 1.632 6054
2.505 2.637 1.692 3555
2.433 2.561 1.634 5938
2.529 2.661 1.694 3822
2.436 2.564 1.624 6523
2.532 2.665 1.683 3512
2.444 2.573 1.617 9000
2.540 2.673 1.676 3043
2.447 2.576 1.607 8421
2.543 2.676 1.665 3368
2.566 2.701 1.666 4427
2.455 2.584 1.600 3995
2.569 2.704 1.656 5506
2.473 2.603 1.598 2100
2.552 2.686 1.633 5770
2.648 2.787 1.690 2063
2.560 2.694 1.625 5630
2.656 2.795 1.682 1929
2.583 2.719 1.626 3997
2.679 2.820 1.683 1728
2.607 2.743 1.627 2796
2.703 2.845 1.683 1255
2.670 2.810 1.651 3543
2.574 2.709 1.596 1075
2.689 2.830 1.649 6497
2.592 2.728 1.594 1795
2.697 2.838 1.641 6896
2.600 2.737 1.586 2072
2.710 2.852 1.635 6048
2.807 2.954 1.689 1569
2.713 2.855 1.624 5228
2.810 2.957 1.677 2191
2.767 2.912 1.640 3692
2.670 2.810 1.587 2877
2.816 2.964 1.654 3214
2.719 2.861 1.601 2567
2.824 2.972 1.645 4432
2.727 2.870 1.592 2065
2.827 2.975 1.633 3849
2.730 2.873 1.581 1890
2.779 2.925 1.594 5205
2.876 3.027 1.646 2435
2.818 2.965 1.601 5671
2.915 3.068 1.653 2059
2.836 2.985 1.598 4676
2.933 3.087 1.648 2733
2.936 3.091 1.636 4090
2.839 2.988 1.586 2272
2.950 3.104 1.629 6127
3.073 3.234 1.692 1782
2.958 3.113 1.619 6666
3.076 3.238 1.679 3143
2.987 3.143 1.620 4943
3.085 3.246 1.669 3726
2.990 3.146 1.607 4730
3.088 3.250 1.656 3693
3.096 3.258 1.646 4086
2.993 3.149 1.595 3724
3.099 3.261 1.633 5510
3.001 3.158 1.585 3148
3.102 3.265 1.620 6455
3.200 3.368 1.667 3553
3.100 3.262 1.604 5869
3.229 3.398 1.666 4365
3.237 3.407 1.655 4484
3.103 3.265 1.591 4150
3.168 3.334 1.608 4322
3.266 3.438 1.654 2876
3.176 3.342 1.597 7612
3.274 3.446 1.643 3448
3.236 3.406 1.610 9613
3.335 3.510 1.655 2012
3.234 3.403 1.594 7862
3.333 3.507 1.639 2225
3.257 3.428 1.590 7114
3.276 3.448 1.583 4951
3.321 3.495 1.588 5676
3.221 3.390 1.544 2195
3.323 3.498 1.574 6834
3.224 3.393 1.530 1202
3.290 3.462 1.544 11497
3.287 3.460 1.528 15043
3.290 3.463 1.514 11313
3.180 3.347 1.468 1160
3.288 3.460 1.498 6375
3.183 3.350 1.454 1087
3.290 3.463 1.484 4386
3.304 3.477 1.475 4892
3.183 3.350 1.426 1007
3.306 3.480 1.461 5407
3.590 3.778 1.576 1185
3.298 3.471 1.443 4534
3.593 3.781 1.561 2147
3.296 3.469 1.427 5478
3.590 3.779 1.544 3426
3.304 3.477 1.415 4748
3.588 3.776 1.527 3300
3.601 3.790 1.516 2848
3.311 3.485 1.404 2519
3.910 4.115 1.617 3721
3.604 3.793 1.500 1899
3.908 4.112 1.599 6560
3.306 3.479 1.372 2021
3.895 4.099 1.577 7969
3.314 3.487 1.360 1884
3.913 4.119 1.566 8264
4.072 4.285 1.624 1983
3.927 4.133 1.553 9679
4.075 4.289 1.607 3759
3.930 4.136 1.537 6182
4.083 4.297 1.592 4677
4.144 4.362 1.596 5143
3.938 4.144 1.522 2293
4.152 4.370 1.580 4353
4.046 4.259 1.543 2280
4.161 4.379 1.564 4457
4.293 4.518 1.610 1891
4.164 4.382 1.547 4145
4.264 4.488 1.581 2181
4.304 4.530 1.576 3063
4.172 4.390 1.531 2592
4.307 4.533 1.558 3875
4.408 4.640 1.591 2268
4.342 4.570 1.550 2318
4.480 4.715 1.596 1784
4.483 4.718 1.577 2483
4.356 4.584 1.535 1980
4.497 4.733 1.561 3767
4.374 4.604 1.522 1360
4.505 4.741 1.544 3688
4.382 4.612 1.506 1094
4.524 4.761 1.530 3887
4.537 4.775 1.514 3966
4.551 4.789 1.499 3540
4.935 5.194 1.614 1212
4.521 4.758 1.470 4387
4.943 5.203 1.595 2231
4.529 4.767 1.452 4313
4.952 5.211 1.576 3019
4.548 4.787 1.438 4441
4.960 5.220 1.557 2500
4.551 4.789 1.419 4770
5.000 5.262 1.546 2857
4.553 4.792 1.400 3402
4.998 5.260 1.524 2640
5.140 5.409 1.541 2488
4.974 5.234 1.495 2047
5.073 5.339 1.501 2740
5.309 5.587 1.564 1806
5.140 5.409 1.496 2561
4.990 5.251 1.456 1395
5.143 5.412 1.475 1658
5.497 5.785 1.567 1623
5.414 5.698 1.522 2779
5.516 5.805 1.548 1674
5.422 5.706 1.501 2531
5.524 5.814 1.527 1885
5.516 5.805 1.501 1839
5.715 6.015 1.550 1610
5.513 5.802 1.476 1844
5.728 6.029 1.529 1742
5.521 5.811 1.454 2467
5.731 6.032 1.505 1653
5.519 5.808 1.430 2466
5.971 6.284 1.536 2427
5.968 6.281 1.510 4555
5.796 6.100 1.470 1751
5.965 6.278 1.483 5228
5.798 6.103 1.446 1401
5.984 6.298 1.462 6130
6.453 6.792 1.566 1274
5.987 6.301 1.437 6395
6.456 6.795 1.539 1856
5.995 6.309 1.413 4356
6.453 6.792 1.511 1591
6.008 6.323 1.390 3501
6.526 6.869 1.498 1356
6.005 6.320 1.363 3141
6.529 6.872 1.471 1737
6.008 6.323 1.338 2265
6.532 6.874 1.443 1573
5.999 6.314 1.310 1434
6.534 6.877 1.416 1417
6.537 6.880 1.388 1314
6.002 6.316 1.285 1063
6.480 6.820 1.349 1779
6.482 6.822 1.322 1748
6.485 6.825 1.295 1057
1.606 1.676 1.763 3871
1.609 1.679 1.757 7743
1.524 1.591 1.669 1814
1.612 1.683 1.750 7743
1.527 1.594 1.663 1814
1.615 1.686 1.744 8664
1.530 1.597 1.657 1281
1.614 1.685 1.732 9717
1.626 1.697 1.735 10957
1.634 1.705 1.733 12728
1.637 1.709 1.726 12728
1.636 1.707 1.715 10298
1.722 1.797 1.799 1694
1.635 1.706 1.703 8067
1.721 1.796 1.788 2489
1.647 1.719 1.705 7193
1.733 1.809 1.790 2546
1.700 1.774 1.747 7522
1.614 1.684 1.663 1999
1.712 1.787 1.749 7412
1.626 1.697 1.666 2253
1.729 1.805 1.755 8758
1.643 1.714 1.672 2290
1.733 1.808 1.748 8627
1.646 1.718 1.665 1704
1.741 1.817 1.745 8018
1.653 1.726 1.663 1232
1.739 1.815 1.733 7396
1.652 1.724 1.652 1179
1.747 1.823 1.731 8522
1.660 1.732 1.649 1425
1.755 1.831 1.728 9804
1.667 1.740 1.646 1792
1.758 1.835 1.720 11477
1.670 1.743 1.640 1276
1.766 1.843 1.717 13275
1.760 1.837 1.702 9917
1.848 1.929 1.782 1150
1.758 1.835 1.690 7117
1.846 1.927 1.770 1655
1.813 1.892 1.729 6733
1.816 1.895 1.721 7602
1.824 1.903 1.718 8945
1.827 1.907 1.710 10400
1.830 1.910 1.703 7726
1.828 1.908 1.691 5089
1.918 2.001 1.769 1056
1.841 1.921 1.692 4441
1.930 2.015 1.769 1040
1.849 1.930 1.688 3963
1.943 2.028 1.769 1483
1.871 1.953 1.697 4007
1.960 2.046 1.773 1508
1.883 1.966 1.697 5166
1.973 2.059 1.773 1179
1.877 1.959 1.681 6179
1.967 2.053 1.757 1418
1.875 1.957 1.669 7863
1.966 2.051 1.744 1393
1.883 1.966 1.666 8661
1.886 1.969 1.658 9092
2.005 2.093 1.756 2479
1.894 1.977 1.654 8989
2.004 2.091 1.743 3620
1.897 1.980 1.646 7614
2.012 2.100 1.739 3744
1.905 1.988 1.642 6359
2.015 2.103 1.731 3837
1.985 2.071 1.695 6204
1.894 1.976 1.623 4149
1.993 2.080 1.691 9026
1.901 1.985 1.619 2714
2.001 2.088 1.687 8941
1.909 1.993 1.615 1849
2.009 2.096 1.682 8044
1.912 1.996 1.607 1123
2.016 2.105 1.677 7068
2.108 2.200 1.749 1211
2.024 2.113 1.673 6451
2.116 2.209 1.744 2160
2.057 2.146 1.687 6280
2.148 2.242 1.757 1287
2.089 2.180 1.700 4989
1.997 2.084 1.630 2332
2.102 2.193 1.699 6651
2.009 2.097 1.629 1680
2.105 2.197 1.690 8155
2.012 2.100 1.621 1591
2.113 2.205 1.685 6923
2.020 2.108 1.616 1370
2.150 2.244 1.702 8276
2.057 2.147 1.633 1592
2.153 2.247 1.693 8245
2.060 2.150 1.625 1540
2.161 2.255 1.687 7299
2.068 2.159 1.620 1633
2.174 2.269 1.686 6755
2.081 2.172 1.618 1342
2.182 2.277 1.680 6941
2.275 2.375 1.747 1288
2.185 2.281 1.671 5932
2.278 2.378 1.738 2234
2.232 2.330 1.693 6381
2.139 2.232 1.627 1269
2.250 2.349 1.694 5879
2.157 2.251 1.629 1793
2.273 2.373 1.699 4402
2.180 2.275 1.633 3529
2.301 2.402 1.707 5529
2.192 2.288 1.631 3125
2.270 2.369 1.673 6319
2.176 2.271 1.609 2583
2.278 2.377 1.667 7858
2.184 2.279 1.603 1875
2.286 2.386 1.661 8394
2.380 2.484 1.725 2455
2.343 2.446 1.688 6076
2.249 2.347 1.625 1748
2.366 2.470 1.692 6597
2.272 2.371 1.629 1699
2.340 2.442 1.662 6636
2.434 2.541 1.725 1135
2.333 2.435 1.646 6086
2.428 2.534 1.708 1723
2.326 2.427 1.630 3618
2.421 2.526 1.692 2932
2.424 2.530 1.682 3662
2.324 2.425 1.617 2618
2.422 2.528 1.668 4227
2.327 2.428 1.607 2043
2.410 2.515 1.649 4716
2.505 2.615 1.709 1537
2.408 2.513 1.635 6587
2.503 2.613 1.696 2620
2.421 2.527 1.632 6970
2.517 2.626 1.692 3776
2.434 2.540 1.628 6279
2.530 2.640 1.687 4786
2.452 2.559 1.627 5852
2.548 2.659 1.686 4169
2.460 2.568 1.620 7969
2.556 2.668 1.679 3796
2.468 2.576 1.613 8055
2.564 2.676 1.671 3871
2.572 2.685 1.663 5380
2.476 2.584 1.606 4031
2.581 2.693 1.656 6461
2.484 2.593 1.598 1847
2.589 2.702 1.648 5812
2.492 2.601 1.591 1342
2.571 2.684 1.625 5601
2.668 2.784 1.682 1963
2.600 2.713 1.629 4084
2.696 2.814 1.686 1386
2.643 2.759 1.642 2899
2.652 2.767 1.634 3898
2.700 2.818 1.649 6052
2.604 2.717 1.594 1903
2.709 2.827 1.641 6536
2.612 2.726 1.586 1603
2.727 2.846 1.638 5865
2.824 2.947 1.692 1602
2.735 2.855 1.629 4808
2.832 2.956 1.683 1950
2.743 2.863 1.621 4027
2.841 2.965 1.674 1809
2.741 2.861 1.607 4190
2.838 2.962 1.659 3386
2.836 2.960 1.645 5232
2.739 2.859 1.592 3122
2.845 2.969 1.636 4893
2.747 2.867 1.584 2453
2.817 2.940 1.608 5126
2.914 3.042 1.659 1800
2.825 2.948 1.599 6191
2.923 3.050 1.650 2613
2.843 2.967 1.595 4454
2.941 3.070 1.646 3423
2.955 3.084 1.639 4643
2.846 2.970 1.583 1900
2.968 3.097 1.632 6850
2.870 2.995 1.582 1961
2.971 3.101 1.619 7678
3.090 3.225 1.679 2396
2.995 3.125 1.617 5576
3.093 3.228 1.667 2868
3.008 3.139 1.610 4835
3.106 3.242 1.659 2884
3.120 3.256 1.651 5131
2.985 3.115 1.585 3809
3.118 3.254 1.635 7234
3.014 3.145 1.585 3280
3.115 3.251 1.620 6800
3.214 3.355 1.667 3574
3.113 3.249 1.604 5459
3.212 3.352 1.652 4405
3.189 3.328 1.626 5481
3.048 3.182 1.559 2302
3.182 3.321 1.608 6917
3.281 3.424 1.654 2362
3.190 3.329 1.597 10144
3.289 3.433 1.643 3514
3.198 3.338 1.586 11938
3.297 3.441 1.631 4159
3.206 3.346 1.575 8232
3.305 3.450 1.620 3462
3.277 3.420 1.592 6074
3.178 3.316 1.547 2097
3.290 3.434 1.583 4355
3.191 3.330 1.539 1759
3.335 3.481 1.588 5667
3.236 3.377 1.544 2091
3.338 3.484 1.574 6822
3.238 3.380 1.530 1065
3.299 3.443 1.542 11778
3.302 3.446 1.528 14650
3.305 3.449 1.514 11201
3.194 3.334 1.468 1248
3.302 3.446 1.498 6710
3.197 3.336 1.454 1378
3.315 3.460 1.489 4501
3.323 3.468 1.477 4924
3.315 3.460 1.459 4680
3.302 3.447 1.439 4705
3.603 3.761 1.559 1355
3.310 3.455 1.427 6296
3.606 3.764 1.544 2055
3.323 3.469 1.417 5261
3.604 3.761 1.527 2018
3.337 3.482 1.408 2539
3.559 3.714 1.493 2271
3.916 4.087 1.613 3476
3.318 3.463 1.386 2131
3.919 4.091 1.597 6940
3.320 3.465 1.372 2032
3.912 4.083 1.577 8865
3.567 3.723 1.449 1513
3.925 4.097 1.564 8223
4.095 4.274 1.626 1894
3.939 4.111 1.552 8944
4.093 4.272 1.607 3302
3.947 4.119 1.537 5340
4.160 4.341 1.613 3981
4.162 4.344 1.596 4924
4.056 4.233 1.558 2120
4.165 4.347 1.578 3676
4.064 4.242 1.543 2489
4.168 4.350 1.561 3623
4.301 4.489 1.607 1904
4.182 4.364 1.547 3656
4.283 4.470 1.581 2280
4.275 4.462 1.560 2646
4.387 4.579 1.597 2421
4.326 4.515 1.558 3466
4.428 4.621 1.591 2365
4.361 4.552 1.550 2692
4.495 4.691 1.594 1460
4.380 4.571 1.537 2380
4.503 4.700 1.577 1709
4.517 4.714 1.561 2908
4.394 4.585 1.522 1550
4.525 4.722 1.544 3046
4.423 4.616 1.512 1190
4.565 4.764 1.537 3467
4.463 4.658 1.505 1637
4.568 4.767 1.518 3365
4.739 4.946 1.570 1416
4.587 4.787 1.503 3503
4.742 4.949 1.550 1668
4.579 4.779 1.481 3414
4.960 5.176 1.594 2401
4.968 5.185 1.574 3239
4.544 4.742 1.451 2944
4.573 4.773 1.440 3093
4.982 5.199 1.557 2530
4.565 4.765 1.417 3334
5.022 5.241 1.546 2910
5.014 5.233 1.522 2721
4.573 4.773 1.400 2297
5.087 5.309 1.520 3004
4.985 5.202 1.493 2042
5.095 5.318 1.501 3392
5.251 5.481 1.543 1943
5.098 5.320 1.479 2725
5.249 5.478 1.519 1425
5.521 5.762 1.567 2056
5.100 5.323 1.458 1693
5.437 5.675 1.522 3293
5.540 5.782 1.548 2192
5.451 5.689 1.502 3371
5.554 5.796 1.528 2093
5.535 5.776 1.499 2385
5.740 5.991 1.550 1588
5.537 5.779 1.476 2778
5.748 5.999 1.527 1522
5.540 5.782 1.453 3926
5.756 6.008 1.505 1481
5.543 5.785 1.430 3918
5.997 6.259 1.536 2619
5.994 6.256 1.510 4625
5.551 5.793 1.408 2770
5.992 6.253 1.483 5384
5.559 5.802 1.386 1580
6.005 6.267 1.461 5983
5.556 5.798 1.361 1221
6.008 6.270 1.435 6004
6.484 6.768 1.539 1542
6.005 6.267 1.409 4083
6.487 6.771 1.512 1167
6.024 6.287 1.387 2793
6.555 6.841 1.498 1601
6.032 6.295 1.363 2283
6.558 6.844 1.471 2045
6.560 6.847 1.443 1987
6.029 6.292 1.337 1483
6.563 6.850 1.416 1811
6.026 6.289 1.310 1087
6.566 6.852 1.388 1697
6.508 6.793 1.349 1496
6.511 6.795 1.322 1305
1.611 1.670 1.763 3670
1.615 1.674 1.757 7341
1.529 1.586 1.669 1139
1.618 1.677 1.750 7341
1.533 1.589 1.663 1139
1.621 1.681 1.744 8992
1.620 1.679 1.732 10736
1.628 1.687 1.730 11566
1.713 1.776 1.816 1018
1.635 1.695 1.728 12933
1.721 1.784 1.814 1117
1.638 1.699 1.721 12933
1.725 1.788 1.806 1117
1.642 1.702 1.715 10260
1.728 1.791 1.799 1630
1.640 1.701 1.703 7856
1.727 1.790 1.788 2448
1.648 1.709 1.701 6314
1.735 1.798 1.785 2885
1.706 1.769 1.747 7280
1.619 1.679 1.663 1639
1.718 1.782 1.749 7203
1.631 1.691 1.666 1805
1.735 1.799 1.755 8087
1.648 1.709 1.672 1670
1.739 1.803 1.748 7954
1.651 1.712 1.665 1318
1.747 1.811 1.745 7484
1.659 1.720 1.663 1072
1.745 1.809 1.733 7011
1.658 1.718 1.652 1029
1.753 1.817 1.731 8099
1.665 1.726 1.649 1274
1.779 1.845 1.745 9583
1.691 1.754 1.664 2426
1.773 1.839 1.729 11316
1.685 1.747 1.648 1487
1.777 1.842 1.722 13116
1.780 1.845 1.714 9492
1.769 1.834 1.694 6620
1.858 1.926 1.774 1324
1.819 1.886 1.729 7413
1.817 1.884 1.717 9130
1.825 1.892 1.714 10347
1.833 1.900 1.710 11742
1.832 1.899 1.699 8572
1.921 1.992 1.776 1003
1.816 1.883 1.675 5595
1.905 1.975 1.752 1508
1.847 1.915 1.692 4556
1.937 2.008 1.769 1196
1.850 1.918 1.684 3803
1.955 2.026 1.773 1485
1.882 1.951 1.701 4815
1.972 2.044 1.777 1197
1.890 1.959 1.697 6435
1.980 2.053 1.773 1124
1.884 1.953 1.681 7278
1.974 2.046 1.757 1369
1.882 1.951 1.669 8749
1.972 2.045 1.744 1411
1.890 1.959 1.666 9529
1.980 2.053 1.740 1073
1.898 1.967 1.662 9955
2.008 2.081 1.752 1906
1.901 1.971 1.654 9784
2.011 2.085 1.743 2642
1.904 1.974 1.646 8292
1.995 2.068 1.720 3184
1.912 1.982 1.642 6845
2.003 2.076 1.715 3891
1.996 2.070 1.699 7042
1.905 1.975 1.626 5158
2.000 2.073 1.691 9842
1.908 1.978 1.619 3016
2.008 2.081 1.687 9511
1.916 1.986 1.615 2109
2.016 2.090 1.682 7722
1.919 1.989 1.607 1288
2.019 2.093 1.674 6087
2.115 2.193 1.749 1230
2.027 2.101 1.669 5967
2.119 2.197 1.740 2494
2.073 2.150 1.694 6377
1.981 2.054 1.624 1000
2.101 2.178 1.704 5668
2.008 2.082 1.634 3053
2.109 2.186 1.699 7179
2.016 2.090 1.629 2497
2.112 2.190 1.690 8396
2.019 2.094 1.621 2386
2.120 2.198 1.685 6919
2.027 2.102 1.616 2029
2.157 2.237 1.702 7950
2.064 2.140 1.633 1756
2.161 2.240 1.693 7818
2.067 2.143 1.625 1768
2.169 2.248 1.687 7172
2.075 2.152 1.620 1786
2.182 2.262 1.686 6580
2.088 2.165 1.618 1378
2.190 2.270 1.680 6817
2.283 2.367 1.747 1372
2.193 2.273 1.671 5884
2.286 2.370 1.738 2520
2.245 2.328 1.697 4955
2.151 2.230 1.631 1614
2.278 2.362 1.708 6142
2.184 2.264 1.642 4014
2.286 2.370 1.702 5132
2.192 2.273 1.637 4119
2.309 2.394 1.707 6110
2.195 2.276 1.628 3434
2.278 2.361 1.673 6728
2.183 2.263 1.609 2535
2.286 2.370 1.667 8417
2.191 2.272 1.603 1796
2.294 2.378 1.661 8359
2.388 2.476 1.725 2310
2.322 2.407 1.668 5616
2.375 2.462 1.692 6332
2.260 2.343 1.616 1160
2.343 2.429 1.659 7491
2.438 2.527 1.722 1303
2.341 2.427 1.646 6748
2.436 2.525 1.708 1898
2.339 2.425 1.633 3742
2.434 2.524 1.695 3168
2.427 2.516 1.678 4192
2.332 2.418 1.617 2665
2.430 2.520 1.668 5194
2.335 2.421 1.607 1990
2.418 2.507 1.649 5715
2.514 2.606 1.709 1313
2.411 2.500 1.632 7382
2.507 2.599 1.692 2339
2.424 2.513 1.629 7573
2.520 2.613 1.688 3889
2.432 2.522 1.622 6757
2.528 2.621 1.681 5183
2.466 2.556 1.630 5405
2.562 2.656 1.689 4250
2.479 2.570 1.626 7446
2.575 2.670 1.685 3104
2.487 2.578 1.619 8238
2.583 2.678 1.677 3142
2.576 2.671 1.660 5980
2.480 2.571 1.603 3956
2.595 2.690 1.659 6765
2.498 2.590 1.601 1812
2.613 2.709 1.657 6389
2.516 2.609 1.600 1764
2.621 2.717 1.649 6154
2.524 2.617 1.593 1243
2.634 2.731 1.644 4465
2.537 2.631 1.588 1174
2.653 2.750 1.642 3967
2.661 2.759 1.634 5030
2.758 2.859 1.689 1306
2.705 2.804 1.646 5622
2.608 2.703 1.591 1849
2.718 2.818 1.641 5843
2.621 2.717 1.586 1965
2.736 2.837 1.638 5304
2.639 2.736 1.584 1620
2.750 2.851 1.632 4774
2.652 2.750 1.578 1614
2.753 2.854 1.621 4622
2.850 2.955 1.674 1583
2.751 2.852 1.607 5376
2.848 2.953 1.659 3536
2.846 2.951 1.645 5316
2.748 2.849 1.592 3915
2.854 2.959 1.636 5130
2.756 2.858 1.584 2417
2.832 2.936 1.610 5488
2.930 3.037 1.662 1559
2.835 2.939 1.599 6347
2.933 3.041 1.650 2813
2.848 2.953 1.592 4474
2.946 3.054 1.643 3930
2.965 3.074 1.639 5011
2.856 2.961 1.583 2252
2.978 3.088 1.632 6929
2.880 2.985 1.582 3146
2.981 3.091 1.619 7906
2.883 2.989 1.570 3063
3.005 3.115 1.617 5897
2.906 3.013 1.568 1989
3.024 3.135 1.613 4681
3.128 3.242 1.664 2284
3.131 3.246 1.651 5959
2.990 3.100 1.582 3767
3.128 3.243 1.635 8024
3.019 3.130 1.582 3317
3.126 3.241 1.620 6740
3.225 3.344 1.667 3570
3.202 3.320 1.642 6701
3.046 3.158 1.567 3503
3.205 3.323 1.628 8856
3.054 3.166 1.557 2377
3.203 3.321 1.613 9751
3.302 3.424 1.659 1794
3.206 3.324 1.599 12758
3.306 3.427 1.645 3253
3.209 3.327 1.586 14168
3.314 3.436 1.634 4445
3.212 3.330 1.573 9829
3.312 3.433 1.618 3346
3.215 3.333 1.559 5777
3.315 3.436 1.604 3531
3.307 3.429 1.585 3796
3.207 3.325 1.541 3391
3.347 3.470 1.588 4936
3.226 3.344 1.535 2592
3.350 3.473 1.574 5993
3.229 3.347 1.521 1182
3.316 3.438 1.544 10933
3.313 3.435 1.528 13052
3.413 3.539 1.571 1130
3.316 3.438 1.514 10383
3.416 3.542 1.556 1122
3.319 3.441 1.500 6493
3.208 3.326 1.454 1422
3.353 3.476 1.500 4944
3.335 3.457 1.477 5174
3.327 3.449 1.459 4155
3.211 3.328 1.412 1299
3.319 3.441 1.441 4548
3.213 3.331 1.399 1818
3.327 3.449 1.429 6370
3.216 3.334 1.386 1601
3.351 3.474 1.424 5485
3.558 3.688 1.504 2371
3.571 3.702 1.493 3225
3.364 3.488 1.414 2893
3.925 4.069 1.611 2826
3.574 3.705 1.478 2660
3.928 4.072 1.595 5846
3.577 3.708 1.463 2753
3.925 4.069 1.577 8262
3.579 3.711 1.449 2611
3.934 4.078 1.562 7245
3.582 3.713 1.434 2192
3.952 4.098 1.552 6232
4.107 4.258 1.607 3142
3.961 4.106 1.537 3477
4.169 4.322 1.611 3410
4.172 4.325 1.594 4110
4.070 4.220 1.558 2507
4.228 4.383 1.595 3246
4.078 4.228 1.543 2891
4.177 4.331 1.559 2896
4.076 4.226 1.524 1673
4.186 4.339 1.543 2828
4.287 4.445 1.578 2234
4.290 4.448 1.560 2711
4.403 4.564 1.597 2259
4.341 4.501 1.558 3225
4.443 4.606 1.591 2026
4.371 4.532 1.549 3070
4.500 4.665 1.590 1145
4.390 4.551 1.535 2844
4.599 4.768 1.603 1075
4.532 4.699 1.561 1810
4.403 4.565 1.521 1500
4.594 4.763 1.561 2149
4.492 4.657 1.529 1516
4.581 4.749 1.537 3242
4.479 4.643 1.505 1616
4.589 4.758 1.519 3062
4.750 4.925 1.568 1808
4.603 4.772 1.503 3366
4.753 4.928 1.548 2317
4.611 4.780 1.486 3222
4.977 5.160 1.594 2064
4.985 5.168 1.574 2948
4.619 4.789 1.468 2327
4.999 5.183 1.557 2269
4.622 4.791 1.449 2037
5.040 5.225 1.546 2735
4.581 4.749 1.417 2040
5.107 5.295 1.543 2593
5.005 5.188 1.515 2063
5.110 5.298 1.522 3395
5.002 5.186 1.493 1949
5.113 5.301 1.501 3562
5.356 5.553 1.566 2137
5.115 5.303 1.479 3042
5.353 5.550 1.542 1785
5.124 5.312 1.459 2197
5.540 5.744 1.567 2138
5.462 5.662 1.524 3602
5.565 5.769 1.550 2175
5.470 5.671 1.502 3889
5.573 5.778 1.528 2256
5.549 5.752 1.498 3132
5.760 5.971 1.550 1327
5.557 5.761 1.476 3918
5.773 5.986 1.529 1194
5.559 5.764 1.453 5387
6.015 6.236 1.561 1328
5.567 5.772 1.431 5395
6.012 6.233 1.535 2611
5.570 5.775 1.408 4079
6.010 6.230 1.509 3985
6.012 6.233 1.483 4531
5.578 5.783 1.386 2379
6.026 6.247 1.461 5080
5.575 5.780 1.361 1808
6.029 6.250 1.435 5003
5.578 5.782 1.338 1751
6.026 6.247 1.409 3713
6.434 6.670 1.496 1558
6.039 6.261 1.386 2337
6.578 6.819 1.498 1582
6.581 6.822 1.471 2058
6.053 6.275 1.363 1467
6.583 6.825 1.443 2183
6.420 6.656 1.411 1100
6.586 6.828 1.416 1999
6.428 6.664 1.385 1216
6.588 6.830 1.388 1894
6.430 6.667 1.358 1208
6.591 6.833 1.360 1574
6.593 6.836 1.333 1037
1.616 1.666 1.763 3458
1.619 1.669 1.757 6916
1.534 1.581 1.669 1243
1.623 1.672 1.750 6916
1.537 1.584 1.663 1243
1.622 1.671 1.739 9252
1.625 1.675 1.732 11691
1.633 1.683 1.730 12145
1.640 1.691 1.728 13191
1.726 1.779 1.814 1038
1.643 1.694 1.721 13191
1.730 1.783 1.806 1038
1.647 1.697 1.715 10137
1.733 1.786 1.799 1593
1.645 1.696 1.703 7254
1.732 1.785 1.788 2472
1.653 1.704 1.701 5484
1.740 1.793 1.785 2767
1.711 1.764 1.747 7165
1.624 1.674 1.663 1427
1.724 1.776 1.749 6936
1.636 1.687 1.666 1474
1.736 1.789 1.751 7327
1.649 1.699 1.668 1107
1.744 1.797 1.748 7065
1.656 1.707 1.665 1150
1.752 1.806 1.745 6657
1.664 1.715 1.663 1216
1.755 1.809 1.738 6299
1.667 1.718 1.656 1275
1.758 1.812 1.731 7378
1.670 1.722 1.649 1435
1.785 1.840 1.745 9632
1.697 1.749 1.664 2776
1.788 1.843 1.737 10977
1.700 1.752 1.657 1993
1.787 1.841 1.726 12519
1.698 1.750 1.645 1077
1.795 1.850 1.723 9116
1.802 1.858 1.719 5933
1.815 1.871 1.720 7702
1.823 1.879 1.717 10105
1.826 1.882 1.710 11205
1.834 1.890 1.706 12557
1.837 1.893 1.699 9056
1.927 1.986 1.776 1138
1.869 1.926 1.716 5864
1.877 1.934 1.712 4697
1.908 1.967 1.728 4095
1.818 1.874 1.652 1893
1.893 1.951 1.705 5277
1.900 1.959 1.701 6765
1.889 1.947 1.681 7355
1.980 2.041 1.757 1585
1.888 1.946 1.669 8598
1.978 2.039 1.744 1871
1.896 1.954 1.666 9457
1.986 2.047 1.740 1700
1.903 1.962 1.662 10205
1.995 2.056 1.736 2222
1.907 1.965 1.654 10050
1.998 2.059 1.728 2568
1.910 1.968 1.646 8523
2.001 2.062 1.720 3898
1.913 1.971 1.638 6996
2.004 2.066 1.711 5227
2.003 2.064 1.699 7733
1.911 1.969 1.626 5381
2.006 2.067 1.691 10183
1.914 1.973 1.619 3194
2.014 2.075 1.687 9608
1.922 1.981 1.615 2279
2.022 2.084 1.682 7324
1.925 1.984 1.607 1388
2.015 2.077 1.666 5545
2.107 2.172 1.738 1746
2.033 2.095 1.669 5786
2.125 2.190 1.740 2660
2.089 2.153 1.702 6872
1.997 2.058 1.631 1558
2.112 2.177 1.708 6423
2.019 2.081 1.638 4106
2.115 2.180 1.699 7612
2.022 2.084 1.629 3391
2.114 2.178 1.687 8557
2.021 2.083 1.617 2664
2.122 2.187 1.682 6923
2.029 2.091 1.613 2316
2.164 2.230 1.702 7507
2.071 2.134 1.633 1811
2.172 2.239 1.696 7248
2.079 2.142 1.628 2161
2.175 2.242 1.687 6840
2.082 2.146 1.620 1784
2.193 2.260 1.689 6214
2.100 2.164 1.622 1689
2.196 2.264 1.680 6462
2.290 2.360 1.747 1352
2.199 2.267 1.671 5727
2.293 2.364 1.738 2603
2.277 2.347 1.714 5308
2.183 2.250 1.648 4275
2.280 2.350 1.705 7003
2.186 2.253 1.639 4909
2.288 2.358 1.699 6126
2.194 2.261 1.633 4812
2.316 2.387 1.707 6331
2.197 2.264 1.624 3817
2.284 2.354 1.673 7395
2.190 2.257 1.609 2572
2.298 2.368 1.671 9323
2.203 2.270 1.606 1998
2.301 2.371 1.661 8941
2.395 2.469 1.725 2240
2.324 2.395 1.665 5936
2.419 2.493 1.728 1282
2.377 2.450 1.689 7097
2.282 2.352 1.625 1750
2.355 2.427 1.662 8217
2.450 2.525 1.725 1164
2.353 2.425 1.649 7146
2.448 2.523 1.711 1877
2.421 2.496 1.682 3770
2.326 2.397 1.620 2739
2.435 2.509 1.678 4546
2.339 2.411 1.617 2153
2.433 2.507 1.665 6065
2.337 2.409 1.604 1536
2.431 2.505 1.652 6880
2.527 2.604 1.712 1006
2.419 2.493 1.632 7680
2.545 2.623 1.712 1820
2.432 2.506 1.629 7543
2.528 2.605 1.688 3525
2.440 2.515 1.622 6915
2.536 2.614 1.681 4926
2.443 2.518 1.612 4945
2.554 2.633 1.680 4911
2.497 2.573 1.632 7473
2.593 2.673 1.691 2100
2.500 2.576 1.622 8325
2.596 2.676 1.680 3250
2.579 2.658 1.657 6656
2.482 2.558 1.600 3320
2.597 2.677 1.656 6589
2.501 2.577 1.598 1682
2.626 2.706 1.660 6823
2.529 2.607 1.603 2002
2.634 2.715 1.652 6723
2.537 2.615 1.596 1384
2.642 2.723 1.644 5275
2.545 2.623 1.588 1268
2.661 2.742 1.642 4828
2.563 2.642 1.586 1350
2.669 2.751 1.634 5817
2.766 2.851 1.689 1610
2.708 2.791 1.643 5627
2.610 2.690 1.588 1825
2.721 2.805 1.638 5422
2.624 2.704 1.583 1982
2.740 2.824 1.635 4549
2.642 2.723 1.581 1573
2.768 2.853 1.638 4922
2.671 2.752 1.584 2471
2.761 2.846 1.621 4979
2.859 2.947 1.674 1282
2.759 2.844 1.607 5563
2.857 2.945 1.659 3355
2.855 2.942 1.645 4999
2.757 2.841 1.592 4121
2.858 2.946 1.633 4701
2.760 2.844 1.581 2161
2.845 2.933 1.613 5314
2.944 3.034 1.665 1442
2.848 2.936 1.601 6108
2.947 3.037 1.653 2646
2.851 2.939 1.590 4548
2.950 3.040 1.640 4104
2.974 3.065 1.639 5143
2.865 2.953 1.583 2582
2.987 3.079 1.632 6599
2.888 2.977 1.582 3885
2.990 3.082 1.619 7536
2.891 2.980 1.570 3548
3.014 3.106 1.617 5942
2.915 3.004 1.568 1882
3.033 3.126 1.613 4290
3.137 3.233 1.664 2317
3.140 3.236 1.651 6181
2.999 3.091 1.582 3658
3.143 3.240 1.638 8032
3.018 3.110 1.577 3192
3.209 3.307 1.655 6301
3.110 3.205 1.607 3254
3.212 3.310 1.642 7369
3.055 3.149 1.567 3405
3.215 3.314 1.628 10508
3.063 3.157 1.557 2159
3.213 3.311 1.613 11799
3.313 3.414 1.659 1634
3.221 3.320 1.602 14781
3.321 3.423 1.647 2814
3.219 3.317 1.586 15645
3.319 3.420 1.631 3956
3.222 3.320 1.573 10637
3.322 3.423 1.618 2707
3.225 3.323 1.559 6721
3.325 3.427 1.604 2653
3.228 3.326 1.546 4560
3.328 3.430 1.590 3428
3.352 3.454 1.585 3865
3.230 3.329 1.532 3147
3.339 3.441 1.565 4873
3.228 3.327 1.517 1522
3.326 3.428 1.544 9595
3.329 3.431 1.530 11080
3.429 3.534 1.573 1029
3.326 3.428 1.514 8453
3.427 3.532 1.556 1101
3.329 3.431 1.500 5209
3.218 3.316 1.454 1089
3.358 3.461 1.497 4789
3.345 3.448 1.477 5586
3.337 3.439 1.459 4986
3.220 3.319 1.412 1138
3.340 3.442 1.445 5849
3.223 3.322 1.399 1598
3.348 3.450 1.433 7478
3.598 3.708 1.531 1510
3.366 3.470 1.426 6614
3.569 3.678 1.504 2614
3.369 3.472 1.412 3750
3.577 3.686 1.491 3346
3.585 3.695 1.478 2838
3.350 3.453 1.390 2369
3.940 4.060 1.595 4239
3.582 3.692 1.461 3312
3.937 4.058 1.577 6483
3.590 3.700 1.449 3208
3.940 4.061 1.560 5490
3.598 3.708 1.436 2795
4.007 4.130 1.567 4422
4.114 4.240 1.605 3163
4.117 4.243 1.588 3359
3.999 4.122 1.546 3125
4.179 4.307 1.592 3019
4.077 4.202 1.556 2535
4.241 4.371 1.595 3798
4.091 4.216 1.543 2743
4.249 4.379 1.579 2462
4.094 4.219 1.526 1638
4.284 4.416 1.572 2114
4.182 4.310 1.538 1970
4.303 4.435 1.560 2486
4.459 4.596 1.612 1920
4.355 4.488 1.558 2864
4.457 4.593 1.591 1702
4.384 4.519 1.549 3174
4.492 4.629 1.583 1065
4.403 4.538 1.535 3173
4.597 4.738 1.597 1220
4.611 4.752 1.582 1689
4.411 4.547 1.519 1492
4.608 4.749 1.561 2216
4.495 4.633 1.526 1387
4.600 4.741 1.538 3051
4.498 4.636 1.507 1260
4.603 4.744 1.519 2853
4.760 4.905 1.567 2021
4.762 4.908 1.547 2708
4.617 4.758 1.503 2707
4.630 4.772 1.487 2577
4.776 4.922 1.530 2127
4.995 5.148 1.573 2494
4.638 4.780 1.470 1995
5.090 5.246 1.578 2027
4.987 5.140 1.549 1720
5.055 5.210 1.546 2429
4.941 5.093 1.515 1786
5.123 5.280 1.543 2598
5.004 5.157 1.510 2055
5.126 5.283 1.522 3365
5.012 5.165 1.491 1813
5.123 5.280 1.499 3405
5.372 5.537 1.566 2480
5.131 5.288 1.479 3029
5.375 5.540 1.543 2146
5.139 5.297 1.459 2278
5.557 5.727 1.567 1880
5.478 5.646 1.524 3492
5.582 5.753 1.550 2014
5.487 5.655 1.502 3855
5.590 5.761 1.528 2204
5.571 5.742 1.499 3684
5.468 5.635 1.474 1398
5.574 5.744 1.476 5017
5.470 5.638 1.451 1376
5.576 5.747 1.453 6639
6.033 6.218 1.561 1528
5.584 5.756 1.431 6498
6.031 6.215 1.535 2582
5.587 5.758 1.408 4895
6.028 6.213 1.509 3302
6.031 6.216 1.483 3438
5.595 5.766 1.386 2887
6.044 6.230 1.461 3875
5.598 5.769 1.362 2266
6.047 6.232 1.435 3765
5.595 5.766 1.338 2248
6.044 6.229 1.409 2913
6.459 6.657 1.497 1632
6.052 6.238 1.385 1859
6.598 6.800 1.498 1437
6.601 6.803 1.471 1925
6.404 6.600 1.431 1020
6.603 6.806 1.443 2182
6.606 6.808 1.416 1984
6.608 6.811 1.388 1929
6.611 6.814 1.360 1584
6.613 6.816 1.333 1045
1.618 1.655 1.759 3224
1.621 1.659 1.752 6449
1.535 1.571 1.665 1110
1.624 1.662 1.746 6449
1.538 1.574 1.659 1110
1.627 1.665 1.739 9525
1.631 1.669 1.732 12602
1.638 1.677 1.730 12869
1.646 1.685 1.728 13733
1.649 1.688 1.721 13733
1.653 1.691 1.715 10395
1.740 1.780 1.799 1586
1.651 1.690 1.703 7149
1.738 1.779 1.788 2553
1.659 1.698 1.701 4855
1.746 1.787 1.785 2698
1.717 1.758 1.747 6398
1.630 1.668 1.663 1250
1.730 1.770 1.749 6232
1.642 1.681 1.666 1285
1.738 1.778 1.746 6509
1.750 1.791 1.748 6086
1.662 1.701 1.665 1095
1.758 1.799 1.745 5864
1.670 1.709 1.663 1363
1.762 1.803 1.738 5759
1.673 1.712 1.656 1451
1.788 1.830 1.752 6914
1.700 1.739 1.670 2575
1.796 1.838 1.749 9698
1.707 1.747 1.668 2780
1.795 1.837 1.737 10598
1.706 1.746 1.657 1806
1.793 1.835 1.726 11674
1.801 1.843 1.723 8603
1.809 1.851 1.719 5585
1.817 1.859 1.716 7746
1.825 1.868 1.713 10656
1.833 1.876 1.710 11681
1.841 1.884 1.706 12986
1.844 1.887 1.699 9269
1.934 1.979 1.776 1420
1.880 1.924 1.720 6112
1.888 1.932 1.716 4982
1.915 1.960 1.728 5206
1.825 1.867 1.652 1700
1.914 1.958 1.717 5842
1.912 1.957 1.705 6587
2.003 2.050 1.781 1040
1.896 1.941 1.681 6684
1.987 2.034 1.757 1971
1.895 1.939 1.669 7728
1.986 2.032 1.744 2566
1.902 1.947 1.666 8792
1.994 2.040 1.740 2446
1.910 1.955 1.662 9984
2.002 2.049 1.736 2851
1.918 1.963 1.658 9861
2.010 2.057 1.732 2787
1.917 1.961 1.646 8323
2.008 2.055 1.720 4580
1.920 1.965 1.638 6797
2.011 2.059 1.711 6204
2.010 2.057 1.699 8323
1.918 1.963 1.626 5248
2.013 2.060 1.691 10361
1.921 1.966 1.619 3104
2.021 2.068 1.687 9450
1.929 1.974 1.615 2216
2.024 2.071 1.678 7021
2.117 2.166 1.750 1420
2.076 2.125 1.707 5471
2.089 2.138 1.706 6151
1.996 2.043 1.636 1238
2.102 2.151 1.705 7541
2.009 2.056 1.635 2647
2.120 2.169 1.708 7128
2.027 2.074 1.638 5068
2.123 2.173 1.699 8016
2.030 2.077 1.629 4226
2.121 2.171 1.687 8908
2.028 2.075 1.617 3136
2.129 2.179 1.682 7156
2.036 2.084 1.613 2744
2.172 2.223 1.702 6992
2.078 2.127 1.633 1945
2.180 2.231 1.696 6503
2.086 2.135 1.628 1996
2.183 2.234 1.687 6310
2.089 2.138 1.620 1670
2.201 2.253 1.689 5684
2.107 2.156 1.622 1646
2.209 2.261 1.684 5892
2.303 2.357 1.751 1307
2.207 2.259 1.671 5381
2.302 2.356 1.738 2533
2.285 2.339 1.714 5612
2.191 2.242 1.648 4920
2.288 2.342 1.705 7772
2.194 2.245 1.639 6140
2.291 2.345 1.695 7271
2.197 2.248 1.630 5704
2.295 2.348 1.686 7349
2.200 2.251 1.621 4050
2.298 2.352 1.677 7929
2.203 2.254 1.612 2833
2.306 2.360 1.671 9803
2.211 2.263 1.606 2063
2.309 2.363 1.661 9281
2.404 2.460 1.725 2304
2.322 2.376 1.658 6485
2.417 2.474 1.722 2447
2.385 2.441 1.689 8589
2.290 2.344 1.625 2684
2.384 2.439 1.675 9373
2.288 2.342 1.613 1467
2.367 2.422 1.653 7448
2.462 2.520 1.715 1719
2.430 2.487 1.682 4162
2.334 2.389 1.620 2159
2.438 2.495 1.675 4903
2.342 2.397 1.614 1386
2.442 2.499 1.665 7016
2.345 2.400 1.604 1241
2.440 2.497 1.652 8258
2.432 2.489 1.635 7535
2.554 2.614 1.712 1702
2.441 2.498 1.629 6786
2.547 2.607 1.695 3144
2.449 2.506 1.622 6406
2.550 2.610 1.684 4478
2.564 2.624 1.680 4692
2.452 2.509 1.612 4644
2.511 2.570 1.635 7392
2.608 2.669 1.694 2149
2.514 2.573 1.625 7908
2.611 2.672 1.683 4143
2.588 2.649 1.657 7359
2.491 2.550 1.600 2832
2.607 2.668 1.656 6003
2.510 2.568 1.598 1792
2.641 2.702 1.663 7103
2.543 2.603 1.606 2513
2.644 2.706 1.652 7152
2.541 2.601 1.593 1753
2.657 2.719 1.647 5790
2.560 2.619 1.591 1883
2.670 2.733 1.642 5195
2.573 2.633 1.586 1920
2.684 2.747 1.637 6194
2.781 2.847 1.692 1761
2.718 2.781 1.643 6397
2.620 2.681 1.588 1744
2.731 2.795 1.638 5712
2.633 2.695 1.583 1829
2.739 2.803 1.629 4239
2.837 2.904 1.683 1383
2.778 2.843 1.638 5025
2.680 2.743 1.584 2317
2.771 2.836 1.621 4952
2.869 2.937 1.674 1182
2.769 2.834 1.607 4891
2.867 2.934 1.659 2974
2.860 2.927 1.642 4403
2.762 2.826 1.590 3838
2.868 2.935 1.633 3906
2.770 2.835 1.581 2297
2.856 2.923 1.613 4644
2.975 3.045 1.676 1618
2.859 2.926 1.601 5299
2.958 3.027 1.653 2492
2.867 2.934 1.592 4196
2.966 3.035 1.643 4100
2.985 3.054 1.639 5263
2.880 2.948 1.586 2817
2.998 3.068 1.632 6070
2.899 2.967 1.582 4068
3.001 3.071 1.619 6558
2.902 2.970 1.570 3384
3.025 3.096 1.617 5652
2.926 2.994 1.568 1621
3.044 3.115 1.613 3551
3.148 3.222 1.664 2551
3.152 3.225 1.651 5671
3.005 3.075 1.580 3149
3.155 3.228 1.638 7000
3.024 3.094 1.575 2897
3.226 3.301 1.657 6962
3.126 3.199 1.610 3650
3.224 3.299 1.642 7468
3.066 3.138 1.567 3174
3.227 3.302 1.628 10715
3.127 3.200 1.582 2072
3.230 3.305 1.615 12681
3.330 3.408 1.661 1349
3.233 3.308 1.602 15671
3.333 3.411 1.647 2160
3.236 3.311 1.588 16153
3.336 3.414 1.634 2802
3.233 3.309 1.573 10566
3.334 3.412 1.618 1876
3.236 3.312 1.559 6747
3.337 3.415 1.604 1897
3.239 3.315 1.546 4979
3.340 3.418 1.590 3468
3.343 3.421 1.576 3970
3.242 3.318 1.532 3291
3.340 3.418 1.560 5043
3.240 3.315 1.517 1624
3.338 3.416 1.544 8362
3.341 3.419 1.530 9370
3.338 3.416 1.514 6008
3.439 3.520 1.556 1007
3.362 3.441 1.509 4136
3.354 3.433 1.491 5341
3.352 3.430 1.475 6838
3.355 3.433 1.461 7952
3.357 3.436 1.447 10114
3.613 3.698 1.548 1182
3.360 3.439 1.433 10588
3.616 3.701 1.533 1741
3.373 3.452 1.424 8535
3.651 3.736 1.531 2330
3.376 3.455 1.410 5660
3.579 3.663 1.487 2794
3.368 3.447 1.392 3419
3.582 3.666 1.472 2802
3.595 3.679 1.461 3677
4.002 4.096 1.613 2976
3.957 4.049 1.579 4597
3.603 3.688 1.449 3285
4.019 4.113 1.584 4959
3.611 3.696 1.436 2706
4.027 4.121 1.569 4987
4.129 4.226 1.605 3387
4.127 4.223 1.586 3851
4.025 4.119 1.550 3208
4.135 4.232 1.571 3101
4.253 4.353 1.613 2995
4.256 4.356 1.595 4045
4.116 4.213 1.547 2148
4.265 4.364 1.579 3046
4.114 4.210 1.528 1390
4.273 4.373 1.563 2492
4.472 4.577 1.630 1551
4.324 4.425 1.562 2019
4.475 4.580 1.612 1774
4.365 4.467 1.556 2464
4.467 4.572 1.590 1599
4.395 4.498 1.547 2902
4.497 4.603 1.580 1211
4.419 4.523 1.535 3177
4.614 4.722 1.597 1636
4.622 4.730 1.580 1798
4.509 4.614 1.544 1543
4.625 4.733 1.561 2280
4.506 4.611 1.524 1328
4.617 4.725 1.538 2859
4.758 4.869 1.581 1387
4.614 4.722 1.518 2575
4.766 4.878 1.563 2339
4.769 4.880 1.544 3063
4.628 4.736 1.502 1957
4.772 4.883 1.524 2147
4.652 4.761 1.489 1846
5.002 5.119 1.570 1918
4.894 5.008 1.538 1562
5.016 5.133 1.552 1749
5.119 5.239 1.581 1693
5.073 5.192 1.546 2087
4.959 5.075 1.515 1726
5.141 5.262 1.543 2287
5.022 5.139 1.510 1839
5.144 5.265 1.522 3094
5.394 5.520 1.590 1958
5.131 5.251 1.496 3338
5.392 5.518 1.566 2875
5.144 5.265 1.478 2754
5.395 5.521 1.543 2593
5.163 5.284 1.461 2116
5.397 5.524 1.521 1876
5.498 5.627 1.524 3070
5.166 5.287 1.439 1848
5.507 5.635 1.502 3372
5.610 5.741 1.528 2112
5.591 5.722 1.499 4010
5.487 5.616 1.474 1435
5.594 5.725 1.476 5894
5.490 5.619 1.451 1697
5.597 5.728 1.453 7681
6.061 6.202 1.563 1710
5.605 5.736 1.431 7288
6.058 6.200 1.536 2510
5.607 5.739 1.408 5283
6.055 6.197 1.510 2628
5.610 5.741 1.384 3126
6.058 6.200 1.485 2282
5.618 5.749 1.362 2558
6.072 6.214 1.462 2547
5.620 5.752 1.339 2504
6.069 6.211 1.435 2388
6.066 6.208 1.409 1843
6.482 6.634 1.497 1776
6.622 6.777 1.498 1291
6.074 6.216 1.385 1245
6.625 6.780 1.471 1774
6.627 6.782 1.443 2092
6.523 6.676 1.422 1079
6.630 6.785 1.416 1875
6.632 6.788 1.388 1803
6.635 6.790 1.360 1445
1.617 1.647 1.754 2829
1.621 1.650 1.748 5659
1.624 1.653 1.741 5659
1.632 1.661 1.739 9170
1.635 1.665 1.732 12707
1.643 1.673 1.730 12957
1.651 1.681 1.728 13816
1.654 1.684 1.721 13816
1.657 1.687 1.715 10271
1.744 1.776 1.799 1543
1.656 1.686 1.703 6733
1.743 1.775 1.788 2566
1.663 1.694 1.701 4387
1.751 1.783 1.785 2590
1.727 1.758 1.752 4933
1.639 1.669 1.668 1506
1.734 1.766 1.749 4794
1.647 1.677 1.666 1355
1.752 1.783 1.755 5171
1.664 1.694 1.672 1328
1.760 1.791 1.752 5047
1.671 1.702 1.670 1443
1.767 1.800 1.749 5202
1.679 1.710 1.667 1652
1.766 1.798 1.738 5400
1.678 1.708 1.656 1513
1.793 1.825 1.752 6771
1.704 1.735 1.670 2101
1.801 1.833 1.749 9493
1.712 1.743 1.668 2210
1.804 1.837 1.742 9921
1.715 1.746 1.661 1470
1.803 1.835 1.730 10560
1.806 1.839 1.723 7814
1.809 1.842 1.715 5067
1.822 1.855 1.716 7331
1.830 1.863 1.713 10419
1.838 1.871 1.710 11456
1.845 1.879 1.706 12751
1.936 1.971 1.784 1118
1.849 1.882 1.699 9079
1.939 1.974 1.776 1629
1.885 1.919 1.720 6192
1.893 1.928 1.716 5119
1.915 1.950 1.724 5705
1.825 1.858 1.648 1386
1.919 1.954 1.717 6017
1.922 1.957 1.709 6329
2.013 2.049 1.785 1068
1.906 1.941 1.685 5847
1.997 2.033 1.761 1996
1.899 1.934 1.669 6689
1.991 2.027 1.744 3061
1.912 1.947 1.669 7913
2.004 2.040 1.744 2823
1.915 1.950 1.662 9374
2.007 2.043 1.736 3078
1.923 1.958 1.658 9344
2.015 2.052 1.732 2794
1.926 1.961 1.650 7775
2.018 2.055 1.723 4377
2.012 2.048 1.707 6562
1.920 1.955 1.634 5961
2.015 2.052 1.699 8233
1.923 1.958 1.626 4792
2.018 2.055 1.691 9903
1.926 1.961 1.619 2771
2.021 2.058 1.683 8909
1.929 1.964 1.611 1805
2.029 2.066 1.678 6808
2.122 2.161 1.750 1647
2.086 2.124 1.711 5765
2.041 2.078 1.665 6408
2.134 2.172 1.736 3583
2.112 2.151 1.709 7826
2.019 2.056 1.638 4126
2.125 2.164 1.708 7426
2.032 2.069 1.638 5675
2.129 2.167 1.699 8061
2.035 2.072 1.629 4549
2.127 2.165 1.687 8912
2.033 2.070 1.617 3314
2.130 2.169 1.678 7188
2.036 2.073 1.609 2505
2.173 2.212 1.698 6481
2.064 2.101 1.619 1993
2.191 2.230 1.700 5808
2.097 2.135 1.632 2152
2.179 2.219 1.680 5745
2.085 2.123 1.613 1026
2.207 2.247 1.689 5137
2.113 2.151 1.622 1655
2.215 2.255 1.684 5396
2.309 2.351 1.751 1238
2.213 2.253 1.671 4958
2.308 2.350 1.738 2241
2.286 2.328 1.711 5791
2.191 2.231 1.645 4983
2.289 2.331 1.701 8409
2.194 2.234 1.636 6615
2.292 2.334 1.692 8134
2.198 2.237 1.627 6025
2.301 2.342 1.686 7839
2.206 2.246 1.621 4218
2.304 2.346 1.677 7926
2.209 2.249 1.612 2748
2.312 2.354 1.671 9589
2.217 2.257 1.606 2069
2.320 2.362 1.664 9055
2.416 2.459 1.728 2299
2.384 2.427 1.695 6779
2.288 2.330 1.632 3749
2.392 2.435 1.689 9587
2.296 2.338 1.625 3173
2.390 2.433 1.675 10334
2.294 2.336 1.613 1832
2.393 2.436 1.666 7721
2.432 2.476 1.679 4402
2.335 2.378 1.617 1487
2.440 2.484 1.672 5030
2.448 2.492 1.665 7502
2.352 2.394 1.604 1161
2.446 2.490 1.652 8976
2.444 2.488 1.639 7001
2.556 2.602 1.708 1610
2.447 2.491 1.629 5835
2.559 2.605 1.698 2875
2.455 2.500 1.622 5728
2.562 2.609 1.687 4004
2.570 2.617 1.680 4310
2.458 2.503 1.612 4225
2.517 2.563 1.635 6846
2.614 2.662 1.694 2420
2.526 2.571 1.628 7020
2.623 2.670 1.686 4643
2.590 2.637 1.654 7575
2.493 2.538 1.596 2144
2.593 2.640 1.644 5558
2.691 2.739 1.701 2061
2.648 2.696 1.663 6835
2.550 2.596 1.606 2966
2.651 2.699 1.652 6846
2.553 2.599 1.596 2252
2.664 2.712 1.647 5523
2.566 2.613 1.591 2199
2.683 2.731 1.645 4888
2.585 2.632 1.589 2684
2.706 2.755 1.646 6012
2.608 2.656 1.590 2845
2.725 2.774 1.643 6903
2.627 2.674 1.588 1638
2.738 2.788 1.638 6030
2.640 2.688 1.583 1476
2.726 2.775 1.618 4463
2.824 2.875 1.672 2290
2.786 2.836 1.638 4675
2.687 2.736 1.584 2166
2.778 2.829 1.621 4513
2.877 2.929 1.674 1220
2.844 2.895 1.643 4484
2.745 2.795 1.590 2910
2.862 2.914 1.639 3760
2.764 2.814 1.587 3262
2.871 2.923 1.630 3082
2.772 2.822 1.578 2103
2.863 2.915 1.613 3953
2.983 3.037 1.676 1657
2.872 2.924 1.604 4585
2.971 3.025 1.655 2074
2.958 3.012 1.635 4177
2.859 2.911 1.584 3189
2.992 3.047 1.639 5065
2.893 2.946 1.588 2707
3.001 3.055 1.629 5404
2.901 2.954 1.579 3466
3.025 3.080 1.627 5834
2.925 2.978 1.578 2927
3.038 3.093 1.620 5250
2.939 2.992 1.571 1553
3.052 3.107 1.613 2880
3.157 3.214 1.664 2435
3.160 3.217 1.651 4730
3.060 3.116 1.603 2795
3.163 3.220 1.638 5540
3.031 3.086 1.575 2735
3.234 3.293 1.657 6858
3.134 3.191 1.610 3334
3.237 3.296 1.644 6680
3.074 3.130 1.567 2715
3.235 3.294 1.628 9654
3.135 3.192 1.582 2184
3.238 3.297 1.615 12289
3.138 3.195 1.569 1522
3.247 3.306 1.604 15045
3.347 3.408 1.650 1269
3.244 3.303 1.588 15344
3.345 3.405 1.634 1666
3.242 3.301 1.573 9968
3.343 3.403 1.618 1365
3.245 3.304 1.559 6311
3.346 3.406 1.604 1597
3.248 3.307 1.546 4708
3.348 3.409 1.590 3697
3.341 3.401 1.572 5212
3.240 3.299 1.528 2718
3.344 3.404 1.558 5762
3.243 3.302 1.514 1418
3.347 3.407 1.544 8036
3.350 3.410 1.530 8694
3.352 3.413 1.516 5546
3.360 3.421 1.505 5381
3.358 3.419 1.489 7498
3.355 3.416 1.473 8448
3.358 3.419 1.459 10959
3.366 3.427 1.447 14401
3.564 3.629 1.525 1195
3.369 3.430 1.433 13981
3.690 3.757 1.558 1489
3.371 3.433 1.420 10782
3.661 3.727 1.531 2273
3.379 3.441 1.408 7503
3.663 3.730 1.516 2347
3.377 3.438 1.392 4495
3.591 3.656 1.472 2773
3.605 3.670 1.461 3595
4.013 4.085 1.613 3117
4.016 4.089 1.596 4784
3.618 3.684 1.451 2902
4.029 4.103 1.584 5453
3.621 3.686 1.436 2189
4.038 4.111 1.569 4930
4.140 4.215 1.605 2894
4.138 4.213 1.586 3889
4.035 4.108 1.550 3016
4.151 4.227 1.573 3288
4.264 4.342 1.613 2763
4.267 4.345 1.595 3400
4.154 4.230 1.556 1818
4.276 4.353 1.579 2848
4.378 4.458 1.614 1328
4.279 4.356 1.561 2682
4.397 4.477 1.601 1586
4.276 4.354 1.542 2085
4.384 4.464 1.578 1551
4.382 4.461 1.558 1965
4.279 4.357 1.524 1605
4.406 4.486 1.547 2499
4.509 4.591 1.580 1292
4.425 4.506 1.534 3049
4.631 4.715 1.599 1934
4.634 4.718 1.580 1874
4.515 4.597 1.543 1634
4.632 4.716 1.559 2136
4.518 4.600 1.524 1247
4.629 4.713 1.538 2595
4.765 4.851 1.580 1531
4.773 4.860 1.562 2629
4.627 4.711 1.518 2248
4.781 4.868 1.544 3366
4.629 4.713 1.499 1550
4.773 4.860 1.521 2284
4.920 5.009 1.563 1706
5.026 5.118 1.573 1731
4.912 5.001 1.540 1650
5.035 5.126 1.554 2047
5.138 5.231 1.583 1422
5.076 5.168 1.543 1891
4.972 5.063 1.515 1537
5.160 5.254 1.545 2044
5.035 5.126 1.510 1643
5.158 5.251 1.522 2917
5.408 5.507 1.590 1939
5.144 5.237 1.496 3327
5.406 5.504 1.566 2940
5.403 5.501 1.542 2736
5.141 5.235 1.474 2386
5.412 5.510 1.521 1984
5.182 5.276 1.462 1667
5.513 5.613 1.524 2489
5.617 5.718 1.550 1514
5.603 5.705 1.523 2717
5.499 5.599 1.497 1927
5.606 5.708 1.499 4159
5.502 5.602 1.474 1234
5.609 5.710 1.476 6414
5.505 5.605 1.451 1791
5.611 5.713 1.453 8178
5.507 5.607 1.428 1667
5.619 5.721 1.431 7418
6.074 6.184 1.536 2238
5.622 5.724 1.408 5063
6.071 6.181 1.510 2108
5.625 5.727 1.384 3033
5.964 6.073 1.460 1714
5.627 5.729 1.361 2571
6.099 6.209 1.464 1696
5.635 5.737 1.339 2444
6.507 6.625 1.526 1515
6.499 6.617 1.497 1710
5.638 5.740 1.316 1593
6.639 6.760 1.498 1171
6.502 6.620 1.470 1052
6.642 6.762 1.471 1561
6.645 6.765 1.443 1832
6.540 6.659 1.422 1068
6.647 6.768 1.416 1613
6.543 6.662 1.395 1069
6.650 6.771 1.388 1513
6.652 6.773 1.360 1172
1.619 1.636 1.750 2491
1.622 1.639 1.743 4983
1.626 1.643 1.736 4983
1.633 1.650 1.734 8663
1.641 1.658 1.732 12648
1.649 1.666 1.730 12919
1.657 1.674 1.728 13738
1.744 1.762 1.814 1010
1.660 1.677 1.721 13738
1.747 1.766 1.806 1010
1.663 1.681 1.715 10147
1.751 1.769 1.799 1650
1.667 1.684 1.708 6557
1.754 1.773 1.792 2290
1.670 1.687 1.701 4599
1.758 1.776 1.785 2460
1.733 1.751 1.752 3557
1.645 1.662 1.668 1773
1.755 1.773 1.762 3277
1.667 1.684 1.679 2121
1.768 1.786 1.764 3740
1.679 1.697 1.681 2234
1.771 1.789 1.756 3740
1.683 1.700 1.674 1687
1.774 1.793 1.749 4412
1.686 1.703 1.667 1140
1.778 1.796 1.742 5045
1.689 1.706 1.660 1206
1.804 1.823 1.756 6772
1.715 1.733 1.675 1252
1.808 1.826 1.749 9223
1.811 1.830 1.742 9010
1.810 1.828 1.730 8880
1.813 1.832 1.723 6536
1.816 1.835 1.715 4193
1.829 1.848 1.716 6479
1.837 1.856 1.713 9597
1.845 1.864 1.710 10744
1.853 1.872 1.706 12127
1.943 1.963 1.784 1327
1.856 1.875 1.699 8693
1.946 1.967 1.776 1858
1.892 1.912 1.720 6407
1.905 1.925 1.720 5418
1.814 1.833 1.643 1046
1.923 1.943 1.724 6135
1.832 1.851 1.648 1334
1.926 1.946 1.717 6135
1.934 1.954 1.713 6138
1.918 1.938 1.689 5395
2.010 2.031 1.765 2018
1.912 1.932 1.673 5787
2.003 2.024 1.748 3484
1.920 1.940 1.669 7129
2.011 2.032 1.744 3343
1.928 1.948 1.666 8452
2.020 2.041 1.740 3081
1.931 1.951 1.658 8351
2.023 2.044 1.732 2613
1.934 1.954 1.650 6861
2.026 2.047 1.723 4303
2.020 2.041 1.707 6676
1.927 1.947 1.634 5190
2.023 2.044 1.699 7935
1.930 1.950 1.626 4098
2.021 2.042 1.687 9199
1.928 1.949 1.615 1972
2.029 2.050 1.683 8354
1.936 1.957 1.611 1461
2.042 2.063 1.682 6667
2.135 2.157 1.754 1536
2.094 2.116 1.711 6259
2.053 2.075 1.669 6750
2.147 2.169 1.740 3142
2.125 2.148 1.713 7958
2.032 2.053 1.642 5680
2.134 2.156 1.708 7598
2.040 2.061 1.638 6156
2.137 2.159 1.699 7999
2.043 2.064 1.629 4730
2.135 2.157 1.687 8770
2.041 2.062 1.617 3337
2.138 2.161 1.678 7247
2.044 2.065 1.609 2428
2.171 2.194 1.691 6100
2.077 2.099 1.622 1850
2.174 2.197 1.682 5406
2.182 2.205 1.677 5495
2.277 2.301 1.745 1142
2.210 2.234 1.686 4383
2.116 2.138 1.618 1301
2.224 2.247 1.684 4461
2.318 2.342 1.751 1005
2.227 2.250 1.675 4452
2.322 2.346 1.741 1390
2.285 2.309 1.704 6043
2.190 2.213 1.638 4216
2.293 2.317 1.698 8813
2.198 2.221 1.632 6611
2.296 2.320 1.689 8655
2.201 2.224 1.623 6050
2.310 2.334 1.686 8308
2.214 2.237 1.621 4320
2.313 2.337 1.677 8216
2.217 2.240 1.612 2580
2.321 2.345 1.671 9581
2.417 2.442 1.735 2104
2.329 2.353 1.664 8864
2.425 2.450 1.728 2611
2.393 2.418 1.695 7839
2.287 2.311 1.625 3931
2.401 2.426 1.689 10894
2.305 2.329 1.625 3325
2.404 2.429 1.679 11546
2.308 2.332 1.616 2189
2.407 2.432 1.669 8573
2.431 2.456 1.672 4935
2.439 2.464 1.665 5224
2.452 2.478 1.662 7687
2.356 2.380 1.601 1157
2.461 2.486 1.655 9398
2.364 2.388 1.594 1108
2.459 2.484 1.642 6484
2.555 2.582 1.702 1768
2.462 2.487 1.632 4893
2.559 2.585 1.692 2773
2.470 2.496 1.625 5093
2.577 2.604 1.690 3604
2.524 2.550 1.646 4667
2.621 2.649 1.705 1351
2.532 2.559 1.639 6070
2.630 2.657 1.697 2499
2.612 2.640 1.674 6321
2.515 2.541 1.616 4017
2.600 2.627 1.654 7810
2.502 2.528 1.596 1989
2.598 2.625 1.641 5604
2.696 2.724 1.698 2317
2.658 2.685 1.663 6303
2.555 2.581 1.603 3635
2.666 2.694 1.655 6252
2.563 2.590 1.596 3040
2.674 2.702 1.647 4773
2.576 2.603 1.591 2596
2.621 2.648 1.604 4809
2.719 2.747 1.660 3854
2.722 2.750 1.649 5712
2.624 2.651 1.593 3267
2.741 2.769 1.646 7345
2.642 2.670 1.591 1787
2.749 2.777 1.638 6338
2.650 2.678 1.583 1209
2.741 2.770 1.621 4783
2.840 2.870 1.675 1705
2.760 2.789 1.618 5265
2.864 2.894 1.675 2008
2.763 2.792 1.607 4789
2.862 2.892 1.660 3221
2.844 2.874 1.637 5058
2.745 2.774 1.584 2813
2.868 2.898 1.637 3111
2.769 2.798 1.584 2466
2.814 2.843 1.595 2405
2.913 2.944 1.647 1457
2.874 2.904 1.613 3280
3.005 3.036 1.681 1497
2.888 2.918 1.607 3661
3.024 3.056 1.677 1934
2.959 2.990 1.630 4530
2.859 2.889 1.579 1786
2.994 3.025 1.633 4431
2.894 2.924 1.583 2158
3.007 3.038 1.626 4379
2.907 2.938 1.576 2392
3.042 3.073 1.630 5038
2.942 2.972 1.580 2304
3.045 3.076 1.617 4585
2.945 2.975 1.568 1522
3.111 3.143 1.636 2595
3.006 3.037 1.584 1955
3.172 3.205 1.651 3435
3.072 3.104 1.603 2596
3.249 3.283 1.673 4592
3.149 3.182 1.625 3320
3.252 3.286 1.660 6372
3.152 3.185 1.612 3294
3.250 3.284 1.644 5458
3.150 3.182 1.597 2608
3.253 3.287 1.631 7712
3.152 3.185 1.584 2740
3.251 3.285 1.615 11045
3.150 3.183 1.569 1871
3.259 3.293 1.604 13250
3.158 3.191 1.558 1275
3.257 3.291 1.588 12906
3.254 3.288 1.573 8361
3.355 3.390 1.618 1180
3.257 3.291 1.559 5220
3.358 3.393 1.604 1465
3.345 3.380 1.583 4822
3.244 3.278 1.539 3198
3.354 3.389 1.572 6544
3.253 3.286 1.528 2045
3.357 3.392 1.558 6843
3.255 3.289 1.514 1042
3.360 3.395 1.544 8561
3.362 3.398 1.530 8842
3.371 3.406 1.519 7611
3.368 3.403 1.503 9110
3.371 3.406 1.489 11271
3.368 3.403 1.473 11455
3.371 3.406 1.459 14612
3.379 3.414 1.447 19376
3.567 3.604 1.521 1119
3.382 3.417 1.433 18186
3.564 3.602 1.504 1320
3.384 3.420 1.420 13599
3.675 3.713 1.531 1818
3.387 3.422 1.406 9417
3.678 3.716 1.516 2090
3.390 3.425 1.392 5762
3.605 3.643 1.472 2573
3.624 3.662 1.463 3054
3.947 3.988 1.583 3042
4.031 4.073 1.596 4659
3.632 3.670 1.451 2323
4.040 4.082 1.582 5366
3.635 3.673 1.436 1635
4.053 4.096 1.569 4467
4.156 4.199 1.605 2782
4.148 4.191 1.584 4435
4.045 4.088 1.548 2561
4.173 4.216 1.575 3674
4.286 4.331 1.614 2183
4.257 4.301 1.586 2301
3.607 3.645 1.363 1635
4.271 4.315 1.572 2398
4.406 4.452 1.618 1311
4.284 4.329 1.558 2764
4.415 4.461 1.601 1759
4.287 4.332 1.540 2346
4.407 4.453 1.580 1393
4.301 4.346 1.526 2057
4.404 4.450 1.560 1592
4.429 4.475 1.549 2744
