1.398 2.619 1.609 11677
1.461 2.737 1.677 1986
1.410 2.641 1.611 7980
1.490 2.791 1.696 4046
1.422 2.664 1.613 7519
1.495 2.801 1.691 5096
1.477 2.768 1.661 6475
1.414 2.649 1.594 4696
1.483 2.778 1.655 8968
1.419 2.659 1.589 2728
1.485 2.782 1.646 10063
1.414 2.650 1.573 2092
1.490 2.792 1.640 7305
1.554 2.911 1.706 2884
1.519 2.846 1.659 6266
1.583 2.966 1.724 2476
1.518 2.844 1.646 7154
1.582 2.963 1.711 3583
1.523 2.854 1.640 5845
1.587 2.974 1.704 3315
1.529 2.864 1.634 5477
1.593 2.984 1.698 4123
1.534 2.874 1.628 6912
1.598 2.994 1.692 4446
1.536 2.878 1.619 7517
1.607 3.011 1.689 4550
1.613 3.021 1.682 6128
1.538 2.882 1.609 6073
1.618 3.032 1.675 8753
1.544 2.892 1.603 3223
1.610 3.017 1.656 11485
1.546 2.896 1.594 1207
1.612 3.021 1.646 14189
1.611 3.018 1.633 12049
1.613 3.022 1.623 6863
1.642 3.077 1.639 4635
1.655 3.100 1.638 6303
1.657 3.104 1.628 8422
1.722 3.226 1.687 1230
1.659 3.108 1.618 9695
1.724 3.230 1.677 1261
1.664 3.118 1.611 10176
1.730 3.240 1.669 1108
1.666 3.122 1.601 6827
1.732 3.244 1.659 1749
1.716 3.216 1.633 4780
1.651 3.093 1.575 2839
1.722 3.226 1.626 4761
1.656 3.103 1.568 1614
1.703 3.191 1.597 4131
1.769 3.314 1.654 2311
1.712 3.208 1.593 3266
1.781 3.337 1.652 2182
1.790 3.354 1.647 3086
1.718 3.218 1.585 2881
1.803 3.377 1.645 3220
1.720 3.222 1.575 2504
1.770 3.316 1.605 2693
1.704 3.193 1.549 1252
1.769 3.313 1.591 3720
1.835 3.437 1.646 1414
1.774 3.324 1.583 5279
1.840 3.447 1.638 2778
1.780 3.334 1.575 5101
1.846 3.458 1.629 3763
1.823 3.416 1.598 4652
1.757 3.292 1.545 1535
1.825 3.420 1.587 6435
1.892 3.544 1.640 1146
1.827 3.423 1.576 7127
1.894 3.548 1.629 2008
1.840 3.447 1.573 5567
1.906 3.571 1.626 2403
1.849 3.463 1.567 5664
1.915 3.588 1.619 3398
1.861 3.487 1.564 4833
1.928 3.611 1.616 3775
1.867 3.497 1.555 3002
1.933 3.622 1.607 2646
1.911 3.580 1.576 2966
1.977 3.704 1.627 2230
1.920 3.596 1.570 4644
1.986 3.721 1.620 2990
1.974 3.699 1.598 5114
1.908 3.574 1.548 2962
1.983 3.716 1.591 6057
1.917 3.590 1.541 3233
1.992 3.733 1.584 6188
1.926 3.607 1.535 2222
1.998 3.743 1.574 3718
1.931 3.617 1.525 1004
2.039 3.819 1.590 3940
1.972 3.694 1.541 2754
2.002 3.750 1.550 5195
2.069 3.876 1.598 2984
2.007 3.761 1.540 4686
2.075 3.886 1.587 2653
2.013 3.771 1.530 3478
2.084 3.903 1.580 2274
2.086 3.907 1.567 4224
2.018 3.781 1.520 2092
2.095 3.924 1.559 4372
2.027 3.798 1.513 1424
2.111 3.954 1.556 4437
2.043 3.828 1.510 1783
2.106 3.945 1.538 3137
2.173 4.071 1.583 2256
2.164 4.055 1.563 3376
2.097 3.928 1.518 2326
2.166 4.059 1.550 3575
2.092 3.918 1.500 2326
2.179 4.082 1.543 4104
2.111 3.955 1.499 2057
2.184 4.092 1.532 3781
2.252 4.219 1.576 2048
2.215 4.150 1.537 3887
2.147 4.022 1.494 1745
2.235 4.187 1.535 3362
2.167 4.059 1.492 1458
2.280 4.271 1.548 3362
2.212 4.143 1.506 1910
2.310 4.328 1.552 3172
2.242 4.200 1.510 1562
2.316 4.338 1.540 4332
2.248 4.211 1.498 1488
2.310 4.328 1.521 4523
2.242 4.201 1.480 1662
2.305 4.318 1.503 3783
2.373 4.446 1.544 1642
2.361 4.423 1.521 3575
2.293 4.295 1.480 2244
2.359 4.420 1.504 3482
2.427 4.548 1.544 1526
2.357 4.416 1.488 2773
2.426 4.544 1.527 2375
2.442 4.575 1.520 3131
2.374 4.447 1.481 2302
2.444 4.578 1.505 3848
2.375 4.450 1.467 1867
2.428 4.548 1.480 2904
2.496 4.677 1.519 2511
2.527 4.734 1.519 3129
2.458 4.606 1.481 1632
2.529 4.738 1.504 4157
2.623 4.914 1.555 1757
2.545 4.768 1.496 3150
2.632 4.931 1.543 2556
2.616 4.900 1.517 2858
2.547 4.772 1.480 2492
2.629 4.924 1.507 4098
2.560 4.795 1.470 1720
2.634 4.935 1.492 4776
2.743 5.138 1.549 2673
2.752 5.155 1.536 3032
2.676 5.013 1.497 2630
2.750 5.152 1.517 2025
2.678 5.016 1.480 1486
2.730 5.115 1.489 2224
2.825 5.292 1.536 1347
2.797 5.241 1.504 2519
2.728 5.111 1.470 2273
2.803 5.251 1.489 4162
2.872 5.380 1.523 1088
2.808 5.261 1.474 4179
2.878 5.391 1.507 1433
2.847 5.333 1.473 5399
2.934 5.496 1.515 1763
2.848 5.336 1.456 3864
2.925 5.480 1.492 2765
2.836 5.312 1.432 2174
2.967 5.558 1.492 2151
2.969 5.562 1.474 2340
2.841 5.323 1.416 1425
2.978 5.579 1.459 2285
2.868 5.374 1.410 1054
2.936 5.500 1.421 1637
3.005 5.630 1.452 1338
3.000 5.620 1.430 1771
3.069 5.750 1.460 1308
2.994 5.609 1.409 1329
3.071 5.753 1.441 1054
3.164 5.928 1.461 1131
3.248 6.085 1.497 1108
3.250 6.089 1.477 1452
3.115 5.835 1.420 1259
2.963 5.550 1.338 1508
3.314 6.209 1.482 1219
3.334 6.246 1.469 1466
2.972 5.567 1.323 1143
3.336 6.250 1.448 1738
3.516 6.586 1.519 1199
3.521 6.597 1.499 1775
3.330 6.239 1.425 1712
3.523 6.600 1.478 1890
3.325 6.229 1.402 1383
3.514 6.583 1.452 2260
3.587 6.720 1.479 1628
3.505 6.566 1.426 2336
3.696 6.923 1.497 1282
3.701 6.934 1.475 2149
3.503 6.562 1.403 1643
3.703 6.937 1.452 2783
3.799 7.116 1.487 1552
3.786 7.092 1.458 2352
3.705 6.940 1.430 2255
3.784 7.088 1.433 3230
3.935 7.371 1.485 1858
3.782 7.085 1.409 2397
3.907 7.319 1.451 2004
3.924 7.350 1.432 2328
4.130 7.737 1.500 1392
3.933 7.367 1.410 3083
4.098 7.678 1.464 1797
3.938 7.378 1.387 2634
4.104 7.688 1.440 1935
3.947 7.395 1.365 1649
4.102 7.685 1.414 1525
4.152 7.778 1.403 1863
4.233 7.930 1.428 1711
4.150 7.774 1.376 1822
4.283 8.023 1.416 1513
4.284 8.026 1.390 1462
4.462 8.358 1.442 1452
4.467 8.369 1.416 1615
4.356 8.161 1.384 1373
4.469 8.372 1.388 1678
4.471 8.375 1.360 1687
4.297 8.050 1.313 1048
4.472 8.378 1.333 1111
0.995 1.852 1.607 4803
0.997 1.855 1.601 9607
0.999 1.859 1.595 9607
1.004 1.869 1.593 10850
1.006 1.872 1.587 12154
1.111 2.067 1.741 1422
1.008 1.876 1.581 12173
1.110 2.065 1.730 2709
1.010 1.880 1.575 12192
1.109 2.063 1.719 4082
1.012 1.883 1.569 12610
1.111 2.067 1.712 4082
1.011 1.881 1.558 13266
1.110 2.066 1.701 4574
1.013 1.885 1.552 13266
1.109 2.064 1.690 5222
1.018 1.894 1.551 11744
1.121 2.085 1.697 5240
1.026 1.910 1.553 11514
1.126 2.095 1.694 6236
1.031 1.919 1.552 8942
1.131 2.105 1.692 5841
1.036 1.929 1.550 6638
1.155 2.150 1.716 6470
1.154 2.148 1.704 7426
1.035 1.926 1.539 4442
1.150 2.140 1.689 8863
1.034 1.924 1.529 2421
1.152 2.144 1.682 8857
1.039 1.933 1.527 2302
1.158 2.154 1.679 7282
1.047 1.949 1.529 2338
1.160 2.158 1.672 5875
1.046 1.946 1.518 1890
1.165 2.168 1.669 5838
1.042 1.938 1.504 1532
1.170 2.177 1.667 6124
1.050 1.954 1.506 1218
1.172 2.181 1.659 8291
1.064 1.981 1.516 1086
1.174 2.185 1.652 10458
1.177 2.189 1.645 8843
1.182 2.199 1.642 7362
1.249 2.324 1.730 1046
1.187 2.209 1.639 8133
1.248 2.322 1.718 1382
1.189 2.213 1.632 9001
1.250 2.326 1.710 1727
1.191 2.216 1.625 7040
1.252 2.330 1.703 1563
1.190 2.214 1.614 5123
1.251 2.328 1.691 1668
1.192 2.218 1.607 3578
1.253 2.332 1.684 1301
1.191 2.216 1.595 2077
1.252 2.330 1.672 1108
1.296 2.412 1.717 2035
1.183 2.202 1.576 1898
1.302 2.422 1.713 3097
1.198 2.229 1.585 1817
1.304 2.426 1.705 3353
1.203 2.239 1.582 2363
1.218 2.267 1.590 3798
1.309 2.436 1.701 3657
1.220 2.271 1.583 4952
1.295 2.410 1.673 3153
1.222 2.274 1.576 4242
1.320 2.456 1.693 3044
1.329 2.472 1.693 4399
1.228 2.284 1.572 3581
1.334 2.482 1.689 6953
1.236 2.300 1.572 3523
1.340 2.492 1.684 9662
1.241 2.310 1.569 3602
1.338 2.490 1.672 9589
1.243 2.313 1.561 2975
1.341 2.494 1.664 9524
1.249 2.323 1.558 1674
1.366 2.541 1.683 10204
1.303 2.425 1.611 2331
1.374 2.557 1.682 10882
1.312 2.441 1.610 2830
1.380 2.567 1.677 8593
1.317 2.451 1.606 3692
1.385 2.577 1.673 8332
1.322 2.461 1.602 3671
1.391 2.588 1.668 8631
1.328 2.471 1.598 2140
1.396 2.598 1.663 9565
1.402 2.608 1.659 8044
1.338 2.490 1.589 1263
1.417 2.636 1.665 5917
1.354 2.519 1.595 2834
1.416 2.634 1.653 7374
1.352 2.516 1.584 2036
1.401 2.607 1.626 9947
1.464 2.725 1.695 1545
1.400 2.605 1.614 12793
1.463 2.723 1.682 1543
1.405 2.615 1.609 11230
1.469 2.733 1.677 2251
1.417 2.637 1.611 8021
1.498 2.787 1.696 4130
1.429 2.660 1.613 7599
1.503 2.797 1.691 5238
1.485 2.763 1.661 6321
1.421 2.645 1.594 4772
1.487 2.767 1.652 8506
1.423 2.648 1.585 2336
1.489 2.771 1.642 9369
1.422 2.646 1.573 1791
1.498 2.788 1.640 6696
1.562 2.907 1.706 3406
1.527 2.842 1.659 6570
1.591 2.961 1.724 2100
1.523 2.833 1.643 7829
1.587 2.953 1.707 3473
1.525 2.837 1.633 6349
1.589 2.957 1.698 3859
1.534 2.853 1.631 5549
1.598 2.973 1.695 4473
1.542 2.870 1.628 6783
1.607 2.990 1.692 4336
1.548 2.880 1.622 7498
1.616 3.007 1.689 4580
1.621 3.017 1.682 6223
1.546 2.877 1.609 6018
1.627 3.027 1.675 9144
1.562 2.907 1.613 3370
1.622 3.018 1.659 11504
1.557 2.898 1.597 1598
1.621 3.016 1.646 13641
1.623 3.020 1.636 11684
1.642 3.056 1.642 6782
1.655 3.079 1.642 4747
1.589 2.957 1.582 1192
1.664 3.095 1.638 6007
1.669 3.105 1.631 7827
1.668 3.103 1.618 9161
1.673 3.113 1.611 10176
1.675 3.117 1.601 7340
1.741 3.239 1.659 1433
1.726 3.211 1.633 3811
1.660 3.088 1.575 2292
1.728 3.215 1.623 4061
1.719 3.199 1.603 4292
1.785 3.322 1.660 1994
1.725 3.209 1.596 3729
1.791 3.332 1.652 2009
1.727 3.213 1.585 2967
1.807 3.362 1.653 2699
1.816 3.379 1.648 3367
1.725 3.210 1.572 2286
1.773 3.298 1.599 3035
1.839 3.421 1.654 1418
1.782 3.315 1.594 4346
1.848 3.438 1.649 1168
1.784 3.319 1.583 5530
1.850 3.442 1.638 2843
1.789 3.329 1.575 5115
1.856 3.452 1.629 4077
1.833 3.411 1.598 5214
1.900 3.534 1.652 1261
1.832 3.408 1.584 6925
1.898 3.532 1.638 1519
1.837 3.418 1.576 7740
1.904 3.542 1.629 2590
1.850 3.441 1.573 6481
1.916 3.566 1.626 2834
1.855 3.452 1.565 5882
1.922 3.576 1.617 3860
1.920 3.573 1.602 4694
1.854 3.449 1.551 3555
1.933 3.597 1.599 3340
1.866 3.472 1.547 2357
1.917 3.567 1.573 3360
1.984 3.692 1.624 2084
1.930 3.591 1.570 4693
1.997 3.716 1.620 2596
1.981 3.687 1.595 5005
1.914 3.562 1.545 2922
1.983 3.690 1.583 6211
1.916 3.565 1.533 2522
2.003 3.727 1.584 6111
1.936 3.602 1.535 2747
2.002 3.724 1.569 3911
2.069 3.849 1.618 1511
2.046 3.807 1.587 4721
1.979 3.682 1.539 2746
2.009 3.738 1.547 5459
2.087 3.883 1.603 3416
2.014 3.748 1.537 4565
2.089 3.887 1.590 2637
2.024 3.765 1.530 3678
2.095 3.897 1.580 2484
2.093 3.895 1.564 4828
2.025 3.769 1.518 2339
2.095 3.898 1.552 5192
2.163 4.024 1.598 1532
2.118 3.942 1.553 5959
2.051 3.815 1.507 1855
2.120 3.945 1.540 4191
2.220 4.131 1.607 1520
2.172 4.042 1.561 2875
2.094 3.896 1.509 2584
2.181 4.059 1.552 3483
2.096 3.899 1.496 2407
2.191 4.076 1.543 4246
2.123 3.949 1.499 2103
2.207 4.106 1.539 3761
2.139 3.979 1.496 2510
2.230 4.150 1.540 3927
2.159 4.016 1.494 1792
2.243 4.174 1.533 3810
2.175 4.047 1.490 1264
2.249 4.184 1.521 3346
2.317 4.311 1.564 1290
2.326 4.328 1.554 2983
2.258 4.201 1.512 2032
2.328 4.332 1.540 4207
2.260 4.204 1.498 1916
2.323 4.322 1.521 4410
2.254 4.194 1.480 1601
2.321 4.319 1.505 4208
2.390 4.446 1.546 1201
2.370 4.409 1.519 3541
2.301 4.282 1.478 2233
2.372 4.413 1.504 3010
2.440 4.541 1.544 1791
2.428 4.517 1.521 3132
2.345 4.363 1.473 2473
2.451 4.561 1.518 3587
2.383 4.433 1.479 1968
2.457 4.571 1.505 5030
2.388 4.443 1.467 1534
2.459 4.575 1.490 3402
2.528 4.703 1.529 2152
2.490 4.632 1.491 3030
2.559 4.761 1.529 1863
2.535 4.717 1.500 3096
2.604 4.845 1.537 2065
2.530 4.707 1.480 2871
2.624 4.883 1.531 2330
2.637 4.907 1.521 2956
2.535 4.717 1.467 2363
2.643 4.917 1.507 3760
2.712 5.045 1.543 1901
2.648 4.927 1.492 4514
2.768 5.151 1.554 1938
2.694 5.012 1.498 3340
2.770 5.154 1.537 2273
2.812 5.232 1.541 2107
2.692 5.009 1.480 1911
2.737 5.093 1.485 2449
2.818 5.243 1.525 1981
2.812 5.233 1.504 2554
2.736 5.090 1.467 2469
2.822 5.250 1.491 3926
2.823 5.253 1.474 4378
2.893 5.383 1.507 1315
2.862 5.325 1.473 5783
2.986 5.556 1.532 1362
2.864 5.328 1.456 3992
2.933 5.458 1.488 2305
2.920 5.434 1.464 2382
2.851 5.304 1.432 2000
2.984 5.553 1.474 1815
2.853 5.308 1.414 1178
2.994 5.570 1.459 1910
2.999 5.580 1.442 1404
3.016 5.611 1.430 1390
3.010 5.601 1.409 1016
2.951 5.491 1.346 1276
2.978 5.542 1.338 1408
2.984 5.552 1.322 1075
3.527 6.562 1.517 1186
3.350 6.233 1.447 1088
3.540 6.587 1.499 1580
3.348 6.230 1.425 1053
3.542 6.590 1.478 1650
3.612 6.720 1.504 1312
3.529 6.566 1.450 2244
3.606 6.710 1.479 1932
3.523 6.556 1.426 2342
3.616 6.727 1.460 1441
3.721 6.923 1.475 1779
3.525 6.559 1.404 1726
3.723 6.927 1.452 2216
3.538 6.583 1.387 1764
3.806 7.081 1.458 2247
3.680 6.847 1.414 1968
3.804 7.078 1.433 3070
3.697 6.878 1.397 1599
3.802 7.074 1.409 2384
3.928 7.308 1.451 2053
3.937 7.325 1.430 2513
4.152 7.725 1.500 1412
3.954 7.356 1.410 2656
4.120 7.666 1.464 1992
3.959 7.366 1.387 2198
4.126 7.677 1.440 2064
4.128 7.680 1.415 1539
4.324 8.046 1.476 1337
4.263 7.932 1.430 1513
4.178 7.773 1.404 1434
4.305 8.011 1.416 1712
4.172 7.762 1.376 1324
4.307 8.014 1.390 1660
4.485 8.346 1.442 1354
4.487 8.349 1.414 1437
4.383 8.156 1.385 1182
4.493 8.359 1.388 1667
4.494 8.362 1.360 1785
4.316 8.030 1.312 1201
4.496 8.366 1.333 1136
1.002 1.848 1.607 4295
1.004 1.852 1.601 8590
1.006 1.855 1.595 8590
1.011 1.865 1.593 9866
1.013 1.868 1.587 11204
1.119 2.062 1.741 1504
1.015 1.872 1.581 11939
1.118 2.061 1.730 2921
1.017 1.876 1.575 12675
1.120 2.065 1.724 4353
1.016 1.874 1.564 13025
1.122 2.069 1.717 4353
1.018 1.877 1.558 13546
1.118 2.061 1.701 4675
1.020 1.881 1.552 13546
1.117 2.060 1.690 5367
1.025 1.891 1.551 11685
1.129 2.081 1.697 4636
1.034 1.906 1.553 11059
1.137 2.097 1.699 5306
1.039 1.915 1.552 8101
1.142 2.106 1.696 4923
1.163 2.145 1.716 6275
1.044 1.925 1.550 5551
1.166 2.149 1.709 7208
1.046 1.928 1.543 3938
1.162 2.142 1.693 8446
1.060 1.955 1.554 2506
1.164 2.145 1.686 8421
1.059 1.953 1.544 2595
1.166 2.149 1.679 6922
1.058 1.951 1.533 2886
1.171 2.159 1.676 5454
1.060 1.954 1.527 2182
1.173 2.163 1.669 5610
1.065 1.964 1.525 1481
1.179 2.173 1.667 5808
1.070 1.973 1.523 1326
1.178 2.171 1.655 8027
1.075 1.982 1.521 1143
1.180 2.175 1.648 10290
1.182 2.179 1.641 8767
1.187 2.189 1.638 7299
1.189 2.192 1.631 8479
1.250 2.305 1.710 1153
1.191 2.196 1.624 9659
1.252 2.309 1.702 1572
1.193 2.200 1.617 7927
1.255 2.313 1.695 1487
1.199 2.210 1.614 6198
1.260 2.323 1.691 1208
1.197 2.208 1.603 4487
1.259 2.321 1.680 1074
1.196 2.205 1.591 2791
1.195 2.203 1.580 2550
1.305 2.407 1.717 1858
1.308 2.411 1.709 2818
1.203 2.219 1.581 2509
1.209 2.228 1.578 3080
1.310 2.415 1.701 3004
1.227 2.262 1.590 4296
1.312 2.419 1.693 3190
1.229 2.266 1.583 5150
1.308 2.411 1.677 2815
1.234 2.276 1.579 4632
1.333 2.457 1.697 3714
1.338 2.467 1.693 5561
1.243 2.292 1.580 4206
1.344 2.477 1.689 7595
1.245 2.295 1.572 4381
1.349 2.487 1.684 9934
1.247 2.299 1.565 4556
1.351 2.491 1.676 9396
1.249 2.303 1.557 3590
1.353 2.495 1.668 8858
1.254 2.312 1.554 1746
1.365 2.517 1.671 9065
1.302 2.401 1.599 1252
1.384 2.552 1.682 9477
1.321 2.436 1.610 2787
1.390 2.562 1.677 7742
1.326 2.446 1.606 3667
1.398 2.578 1.677 7954
1.335 2.462 1.606 4250
1.404 2.588 1.672 8680
1.341 2.472 1.601 2678
1.409 2.598 1.667 9447
1.346 2.481 1.597 1614
1.415 2.609 1.662 8377
1.351 2.491 1.593 1971
1.427 2.631 1.665 6759
1.363 2.514 1.595 3267
1.426 2.629 1.653 7222
1.362 2.511 1.584 2204
1.411 2.602 1.626 8785
1.475 2.719 1.695 2297
1.410 2.599 1.614 11472
1.474 2.717 1.682 2217
1.415 2.609 1.609 10099
1.479 2.727 1.677 2450
1.427 2.632 1.611 7365
1.508 2.781 1.696 3914
1.440 2.654 1.613 6580
1.514 2.791 1.691 4947
1.492 2.751 1.657 5868
1.428 2.633 1.590 3896
1.494 2.755 1.648 8023
1.430 2.637 1.582 1945
1.493 2.753 1.636 9104
1.558 2.872 1.701 2206
1.495 2.757 1.627 7326
1.560 2.876 1.692 4639
1.535 2.830 1.655 6921
1.599 2.949 1.720 2224
1.530 2.821 1.639 8801
1.595 2.940 1.704 3421
1.532 2.825 1.630 7369
1.597 2.944 1.694 3647
1.544 2.847 1.631 5591
1.609 2.967 1.695 3959
1.553 2.864 1.628 6467
1.618 2.984 1.692 3882
1.562 2.880 1.625 7437
1.631 3.007 1.692 4516
1.636 3.017 1.685 6173
1.561 2.878 1.613 5816
1.639 3.021 1.675 9199
1.573 2.901 1.613 3863
1.634 3.012 1.659 11248
1.568 2.892 1.597 1952
1.632 3.010 1.646 12554
1.638 3.020 1.639 11060
1.657 3.056 1.645 7104
1.592 2.935 1.585 1158
1.670 3.079 1.645 4697
1.604 2.957 1.585 1632
1.675 3.089 1.638 5568
1.681 3.099 1.631 7222
1.679 3.096 1.618 8551
1.682 3.100 1.608 10006
1.687 3.110 1.601 7750
1.696 3.127 1.596 3411
1.762 3.249 1.654 1039
1.733 3.195 1.616 3957
1.799 3.317 1.674 1266
1.735 3.199 1.606 4696
1.801 3.321 1.663 1629
1.741 3.209 1.599 4262
1.807 3.332 1.655 1565
1.746 3.219 1.591 3650
1.827 3.368 1.659 2367
1.829 3.372 1.648 3629
1.762 3.249 1.592 3337
1.778 3.278 1.593 3783
1.845 3.401 1.649 2256
1.798 3.315 1.597 5085
1.865 3.438 1.652 1116
1.800 3.318 1.586 5890
1.867 3.441 1.641 2463
1.848 3.406 1.612 5684
1.781 3.283 1.558 2766
1.846 3.404 1.598 5492
1.913 3.527 1.652 1438
1.845 3.401 1.584 6944
1.912 3.524 1.638 1916
1.850 3.411 1.576 7641
1.917 3.535 1.629 3067
1.863 3.434 1.573 6987
1.930 3.558 1.626 3288
1.868 3.445 1.565 5731
1.936 3.569 1.617 3653
1.930 3.559 1.600 4085
1.863 3.435 1.548 2896
1.950 3.596 1.601 3347
1.883 3.471 1.550 2253
1.931 3.560 1.573 3357
1.998 3.685 1.624 1544
1.940 3.577 1.567 4701
2.008 3.701 1.618 2593
1.992 3.672 1.592 5218
1.924 3.548 1.542 2693
1.997 3.683 1.583 6833
1.930 3.558 1.533 2586
2.014 3.713 1.581 6456
1.946 3.588 1.532 2673
2.012 3.710 1.566 4347
2.080 3.835 1.615 1721
2.061 3.799 1.587 4904
1.993 3.674 1.539 2912
2.020 3.724 1.545 5574
2.088 3.849 1.592 3810
2.025 3.734 1.535 4304
2.093 3.859 1.582 2637
2.038 3.757 1.530 3512
2.110 3.889 1.580 2535
2.104 3.880 1.562 4942
2.036 3.754 1.515 2484
2.110 3.890 1.552 5703
2.178 4.016 1.598 1847
2.133 3.934 1.553 7061
2.062 3.801 1.505 1883
2.135 3.937 1.540 5277
2.233 4.116 1.605 1729
2.109 3.888 1.509 2750
2.188 4.034 1.561 2611
2.193 4.044 1.550 3289
2.110 3.891 1.496 2124
2.206 4.068 1.543 3949
2.138 3.941 1.499 1840
2.226 4.104 1.542 3768
2.158 3.978 1.498 2055
2.246 4.141 1.540 4164
2.174 4.008 1.494 1586
2.263 4.172 1.535 4215
2.194 4.045 1.492 1153
2.275 4.195 1.528 4058
2.207 4.068 1.486 1206
2.343 4.319 1.554 2825
2.274 4.192 1.512 2524
2.348 4.329 1.542 3592
2.279 4.202 1.500 2336
2.350 4.333 1.528 3545
2.281 4.206 1.487 1831
2.348 4.330 1.511 4644
2.347 4.327 1.495 4982
2.416 4.454 1.536 1239
2.349 4.330 1.481 3463
2.450 4.518 1.540 2352
2.452 4.521 1.525 4164
2.383 4.394 1.485 2136
2.462 4.538 1.514 3608
2.392 4.411 1.475 1713
2.474 4.562 1.505 3866
2.405 4.434 1.467 1171
2.491 4.592 1.498 2961
2.560 4.720 1.537 1220
2.507 4.623 1.491 2960
2.438 4.495 1.453 1554
2.612 4.815 1.531 3299
2.528 4.660 1.486 2812
2.610 4.812 1.513 3073
2.540 4.684 1.476 3042
2.659 4.903 1.523 2942
2.550 4.701 1.465 2775
2.713 5.001 1.533 3109
2.643 4.873 1.497 1943
2.711 4.998 1.515 4139
2.605 4.802 1.460 1662
2.713 5.002 1.498 3893
2.826 5.211 1.556 2038
2.836 5.228 1.542 2991
2.726 5.025 1.487 2317
2.838 5.232 1.525 3278
2.753 5.076 1.484 3022
2.865 5.283 1.521 3086
2.751 5.073 1.465 2760
2.845 5.246 1.493 4128
2.915 5.375 1.526 1256
2.843 5.242 1.474 4641
2.913 5.371 1.507 1686
2.886 5.321 1.475 5625
2.816 5.192 1.442 1178
2.884 5.317 1.456 3908
2.954 5.446 1.488 1978
2.934 5.409 1.460 2916
2.864 5.280 1.428 1526
2.961 5.460 1.454 1535
2.967 5.470 1.438 1563
2.961 5.460 1.416 1158
2.954 5.446 1.376 1029
2.959 5.456 1.359 1169
2.961 5.459 1.341 1642
2.955 5.448 1.320 1857
2.960 5.458 1.304 1366
2.966 5.468 1.287 1328
3.552 6.549 1.517 1040
3.561 6.566 1.498 1306
2.967 5.471 1.269 1303
3.630 6.693 1.501 1619
3.556 6.556 1.473 1372
3.632 6.696 1.479 2153
3.554 6.552 1.450 2065
3.552 6.549 1.427 2212
3.645 6.720 1.461 1506
3.554 6.552 1.406 1625
3.669 6.765 1.447 1513
3.567 6.576 1.388 1802
3.835 7.070 1.483 1661
3.837 7.073 1.459 2157
3.706 6.833 1.414 1872
3.835 7.070 1.435 2672
3.730 6.878 1.399 1663
3.829 7.060 1.409 2163
3.959 7.300 1.452 2007
3.965 7.310 1.430 2592
3.831 7.063 1.386 1541
3.978 7.334 1.409 2246
4.150 7.651 1.464 1971
4.159 7.668 1.441 2031
3.987 7.351 1.387 1758
4.355 8.029 1.476 1576
4.157 7.664 1.415 1469
4.316 7.957 1.437 1690
4.155 7.661 1.388 1268
4.332 7.988 1.415 1661
4.160 7.671 1.364 1259
4.338 7.998 1.390 1584
4.162 7.674 1.339 1252
4.519 8.332 1.414 1133
4.343 8.008 1.365 1047
4.521 8.335 1.387 1478
4.526 8.345 1.360 1670
4.347 8.014 1.312 1256
4.528 8.348 1.333 1058
1.007 1.845 1.607 3816
1.009 1.849 1.601 7633
1.011 1.853 1.595 7633
1.013 1.857 1.589 8681
1.018 1.866 1.587 9854
1.117 2.048 1.732 1531
1.020 1.870 1.581 11097
1.119 2.052 1.726 2967
1.022 1.874 1.575 12340
1.122 2.056 1.719 4404
1.021 1.871 1.564 12856
1.124 2.061 1.712 4404
1.023 1.875 1.558 13458
1.120 2.053 1.697 4828
1.025 1.879 1.552 13458
1.119 2.051 1.686 5706
1.030 1.888 1.551 11511
1.124 2.061 1.683 4683
1.038 1.903 1.553 10531
1.142 2.094 1.699 4739
1.040 1.907 1.547 7112
1.151 2.109 1.701 4344
1.169 2.142 1.716 5998
1.052 1.928 1.554 4238
1.171 2.146 1.709 6794
1.060 1.943 1.556 3276
1.170 2.145 1.697 7662
1.065 1.953 1.554 2755
1.172 2.149 1.690 7626
1.067 1.956 1.548 2977
1.174 2.153 1.683 6370
1.063 1.948 1.533 3345
1.176 2.157 1.676 5149
1.068 1.958 1.531 2536
1.159 2.125 1.644 5315
1.073 1.967 1.529 1758
1.161 2.129 1.637 6199
1.078 1.976 1.527 1564
1.179 2.162 1.651 7791
1.083 1.986 1.525 1269
1.182 2.166 1.644 10061
1.082 1.983 1.514 1069
1.184 2.170 1.637 8823
1.176 2.156 1.617 7637
1.191 2.184 1.627 8659
1.193 2.187 1.620 9783
1.255 2.300 1.698 1086
1.198 2.197 1.617 8046
1.200 2.201 1.610 6391
1.203 2.205 1.603 4630
1.195 2.191 1.583 3233
1.257 2.304 1.660 1113
1.200 2.200 1.580 3467
1.311 2.404 1.717 1597
1.205 2.210 1.577 3008
1.313 2.408 1.709 2423
1.234 2.262 1.602 2974
1.316 2.412 1.701 2663
1.236 2.265 1.594 4151
1.311 2.404 1.685 2975
1.241 2.275 1.591 5106
1.326 2.432 1.693 2954
1.243 2.279 1.583 4633
1.335 2.448 1.693 4604
1.344 2.464 1.693 6481
1.245 2.283 1.576 4160
1.349 2.474 1.689 7944
1.250 2.292 1.572 4399
1.355 2.484 1.684 9911
1.252 2.296 1.565 4643
1.357 2.488 1.676 9256
1.251 2.294 1.554 3651
1.359 2.492 1.668 8602
1.243 2.279 1.535 1880
1.365 2.502 1.664 8262
1.262 2.313 1.546 1009
1.393 2.555 1.686 7934
1.330 2.439 1.614 3109
1.399 2.565 1.681 6882
1.336 2.449 1.610 4176
1.408 2.581 1.680 7606
1.344 2.465 1.609 4615
1.410 2.585 1.672 8610
1.346 2.468 1.601 2649
1.415 2.595 1.667 9164
1.352 2.478 1.597 1715
1.421 2.605 1.662 8302
1.357 2.488 1.593 1945
1.430 2.621 1.661 6843
1.366 2.504 1.592 2811
1.432 2.625 1.653 6423
1.368 2.508 1.584 2138
1.417 2.598 1.626 7277
1.481 2.716 1.695 2919
1.416 2.596 1.614 9653
1.480 2.714 1.682 2653
1.421 2.606 1.609 8539
1.486 2.724 1.677 2471
1.434 2.628 1.611 6566
1.518 2.784 1.700 3665
1.446 2.651 1.613 6209
1.520 2.788 1.691 4580
1.502 2.754 1.661 5248
1.438 2.636 1.594 3981
1.494 2.739 1.641 7830
1.559 2.858 1.707 2590
1.496 2.743 1.632 9565
1.561 2.862 1.698 2879
1.502 2.753 1.627 8531
1.567 2.872 1.692 4866
1.524 2.795 1.638 7969
1.589 2.914 1.703 4779
1.533 2.811 1.636 9694
1.598 2.930 1.700 3707
1.535 2.815 1.627 8131
1.600 2.934 1.691 3207
1.548 2.838 1.627 5260
1.613 2.957 1.691 3139
1.563 2.867 1.632 6032
1.629 2.986 1.695 3343
1.572 2.883 1.629 7386
1.638 3.003 1.692 4365
1.599 2.931 1.642 6117
1.664 3.051 1.705 3101
1.646 3.017 1.675 9153
1.580 2.897 1.613 4277
1.644 3.015 1.662 10885
1.579 2.894 1.600 2574
1.643 3.012 1.649 11373
1.577 2.892 1.588 1088
1.652 3.029 1.646 10443
1.586 2.908 1.585 1330
1.671 3.064 1.652 7601
1.606 2.944 1.591 1724
1.680 3.081 1.648 4815
1.615 2.960 1.588 1989
1.686 3.091 1.641 5398
1.620 2.970 1.581 1101
1.688 3.095 1.631 6966
1.687 3.093 1.618 8256
1.689 3.096 1.608 9854
1.694 3.106 1.601 7793
1.703 3.123 1.596 3898
1.740 3.191 1.616 4917
1.807 3.313 1.674 1129
1.746 3.201 1.609 6263
1.813 3.323 1.666 1208
1.755 3.218 1.604 6190
1.764 3.234 1.600 5347
1.838 3.370 1.662 2172
1.777 3.258 1.598 4747
1.844 3.380 1.654 3483
1.832 3.358 1.631 4653
1.765 3.235 1.576 2878
1.809 3.317 1.600 6015
1.808 3.314 1.586 5964
1.875 3.437 1.641 2330
1.856 3.402 1.612 5610
1.788 3.279 1.558 2140
1.854 3.399 1.598 5368
1.921 3.523 1.652 1617
1.849 3.390 1.582 6452
1.916 3.513 1.635 2658
1.858 3.407 1.576 6746
1.926 3.530 1.629 3446
1.871 3.430 1.573 6878
1.938 3.554 1.626 3695
1.876 3.440 1.565 5389
1.944 3.564 1.617 3264
1.935 3.548 1.597 3239
1.868 3.424 1.545 2384
1.962 3.598 1.604 2952
1.895 3.473 1.553 1745
1.939 3.556 1.573 3627
2.007 3.680 1.624 1256
1.948 3.572 1.567 5311
2.016 3.697 1.618 2271
1.954 3.583 1.558 5474
2.022 3.707 1.608 3637
2.003 3.671 1.580 6654
1.935 3.547 1.531 1930
2.019 3.701 1.579 6385
1.951 3.577 1.529 2356
2.021 3.705 1.566 4472
2.089 3.830 1.615 1708
2.070 3.794 1.587 4771
2.001 3.669 1.539 2836
2.025 3.712 1.542 5519
2.093 3.838 1.590 4449
2.034 3.729 1.535 4231
2.102 3.854 1.582 2894
2.058 3.772 1.537 3869
2.126 3.898 1.585 2189
2.114 3.875 1.562 5354
2.045 3.749 1.515 2644
2.116 3.879 1.549 6104
2.184 4.004 1.595 2296
2.143 3.929 1.553 7557
2.074 3.803 1.507 1815
2.145 3.932 1.540 5805
2.239 4.104 1.603 1976
2.150 3.942 1.530 2570
2.241 4.108 1.589 2124
2.196 4.026 1.545 3121
2.264 4.152 1.590 1678
2.216 4.062 1.543 3394
2.147 3.936 1.499 1600
2.239 4.106 1.544 3893
2.163 3.966 1.496 1494
2.256 4.136 1.540 4148
2.187 4.010 1.496 1338
2.276 4.173 1.537 4352
2.189 4.013 1.483 1156
2.285 4.190 1.528 4369
2.354 4.316 1.571 1240
2.294 4.207 1.519 2908
2.364 4.333 1.561 2183
2.358 4.324 1.542 3495
2.289 4.197 1.500 2254
2.364 4.334 1.530 4198
2.295 4.207 1.489 1648
2.366 4.338 1.516 4682
2.360 4.328 1.497 4027
2.430 4.455 1.538 1260
2.366 4.338 1.485 3875
2.468 4.525 1.544 2315
2.463 4.516 1.525 4640
2.372 4.348 1.473 3697
2.465 4.519 1.510 3937
2.381 4.365 1.463 2269
2.496 4.576 1.512 3333
2.386 4.375 1.450 1051
2.509 4.600 1.502 2816
2.579 4.728 1.541 1448
2.518 4.617 1.491 3101
2.625 4.812 1.549 2101
2.627 4.816 1.533 3904
2.535 4.647 1.484 2964
2.625 4.812 1.515 4017
2.551 4.678 1.476 3124
2.678 4.910 1.527 2708
2.550 4.674 1.459 2595
2.721 4.988 1.531 2944
2.592 4.752 1.465 1693
2.723 4.992 1.515 3950
2.608 4.782 1.457 1575
2.728 5.002 1.500 3781
2.846 5.218 1.560 1933
2.848 5.222 1.542 3525
2.767 5.073 1.502 2869
2.850 5.225 1.525 4338
2.758 5.056 1.480 3778
2.882 5.283 1.522 4051
2.760 5.060 1.463 3097
2.861 5.246 1.494 4668
2.931 5.375 1.528 1516
2.859 5.243 1.475 4925
2.930 5.371 1.508 1749
2.902 5.321 1.477 5026
2.832 5.192 1.444 1294
2.941 5.392 1.476 4265
2.871 5.263 1.444 2667
2.946 5.402 1.460 3710
2.876 5.273 1.428 1293
2.937 5.385 1.438 1798
2.976 5.456 1.436 1426
2.974 5.453 1.416 1038
2.963 5.432 1.374 1174
2.968 5.442 1.358 1349
2.970 5.445 1.340 1877
2.968 5.441 1.320 2229
2.970 5.444 1.303 1647
2.975 5.454 1.286 1525
2.980 5.464 1.269 1435
3.646 6.684 1.501 1565
3.571 6.547 1.473 1076
3.648 6.688 1.479 2149
3.569 6.544 1.450 1720
3.567 6.540 1.427 1941
3.687 6.760 1.471 1668
3.689 6.763 1.449 1730
3.849 7.058 1.506 1563
3.848 7.054 1.481 1872
3.590 6.581 1.391 1703
3.853 7.064 1.459 2166
3.719 6.818 1.413 1830
3.851 7.061 1.435 2381
3.720 6.821 1.390 1659
3.846 7.051 1.409 1896
3.977 7.291 1.452 1791
3.982 7.301 1.430 2409
3.664 6.717 1.326 1598
3.991 7.318 1.408 1889
4.168 7.641 1.464 1773
4.177 7.658 1.441 1818
4.376 8.022 1.504 1524
4.374 8.019 1.476 1815
4.179 7.661 1.416 1318
4.334 7.947 1.437 1788
4.177 7.658 1.390 1173
4.340 7.957 1.412 1533
4.178 7.661 1.364 1168
4.353 7.981 1.389 1422
4.180 7.664 1.339 1108
4.392 8.053 1.373 1071
4.540 8.324 1.387 1251
4.546 8.335 1.360 1452
4.365 8.004 1.312 1133
1.011 1.835 1.602 3439
1.013 1.839 1.596 6879
1.073 1.947 1.683 1047
1.016 1.843 1.590 6879
1.075 1.950 1.677 1047
1.021 1.852 1.589 7606
1.118 2.028 1.730 1069
1.026 1.862 1.587 8568
1.120 2.032 1.723 1666
1.028 1.865 1.581 9792
1.128 2.048 1.726 3027
1.030 1.869 1.575 11015
1.131 2.052 1.719 4419
1.029 1.867 1.564 11484
1.133 2.056 1.712 4419
1.031 1.871 1.558 12035
1.125 2.042 1.692 4967
1.033 1.874 1.552 12035
1.128 2.046 1.686 6035
1.035 1.878 1.546 10559
1.130 2.050 1.679 5066
1.043 1.893 1.549 9665
1.142 2.072 1.685 4234
1.045 1.897 1.543 6307
1.172 2.127 1.718 4153
1.178 2.137 1.716 5813
1.060 1.923 1.554 3054
1.180 2.141 1.709 6216
1.068 1.939 1.556 2733
1.182 2.145 1.702 6620
1.077 1.954 1.559 2719
1.181 2.144 1.690 6556
1.075 1.952 1.548 3121
1.183 2.147 1.683 5611
1.074 1.949 1.538 3609
1.153 2.093 1.634 6189
1.079 1.959 1.535 2774
1.165 2.114 1.640 6446
1.085 1.968 1.533 2025
1.170 2.124 1.637 7616
1.090 1.978 1.531 1792
1.182 2.146 1.643 7705
1.092 1.981 1.525 1451
1.188 2.155 1.640 9426
1.094 1.985 1.518 1295
1.190 2.159 1.633 8917
1.099 1.994 1.516 1076
1.185 2.151 1.617 8753
1.197 2.173 1.623 9234
1.199 2.176 1.616 10343
1.205 2.186 1.613 8513
1.210 2.196 1.610 6840
1.215 2.205 1.607 4591
1.240 2.251 1.628 3342
1.178 2.138 1.551 1266
1.242 2.255 1.620 3245
1.322 2.398 1.717 1316
1.208 2.193 1.569 3903
1.327 2.408 1.713 2052
1.214 2.202 1.566 4267
1.326 2.406 1.701 2369
1.222 2.218 1.567 4439
1.322 2.398 1.685 2829
1.237 2.246 1.575 5507
1.337 2.426 1.693 3262
1.346 2.442 1.693 5470
1.243 2.255 1.572 4573
1.351 2.452 1.689 7167
1.248 2.265 1.568 3711
1.360 2.468 1.689 7984
1.257 2.281 1.569 3802
1.369 2.484 1.688 9637
1.259 2.284 1.561 4034
1.368 2.482 1.676 9035
1.261 2.288 1.554 3011
1.370 2.486 1.668 8502
1.263 2.292 1.546 1631
1.375 2.496 1.664 7512
1.258 2.283 1.531 1334
1.408 2.555 1.690 6172
1.344 2.439 1.618 3532
1.420 2.577 1.692 6143
1.356 2.461 1.621 5034
1.419 2.575 1.680 7126
1.355 2.459 1.609 4193
1.421 2.579 1.672 8256
1.357 2.463 1.601 2546
1.427 2.589 1.667 8205
1.362 2.472 1.597 1769
1.436 2.605 1.666 7696
1.371 2.488 1.596 2406
1.444 2.621 1.665 6803
1.380 2.504 1.595 3159
1.443 2.619 1.653 5588
1.379 2.502 1.584 1984
1.425 2.586 1.622 5491
1.490 2.703 1.691 3698
1.427 2.590 1.614 7344
1.492 2.707 1.682 2970
1.433 2.600 1.609 6475
1.497 2.717 1.677 2383
1.445 2.622 1.611 5284
1.530 2.777 1.700 3445
1.457 2.644 1.613 5034
1.532 2.781 1.691 4196
1.517 2.754 1.664 4475
1.452 2.636 1.597 3486
1.506 2.733 1.641 7788
1.571 2.851 1.707 2503
1.508 2.737 1.632 10447
1.573 2.855 1.698 2960
1.514 2.747 1.627 10055
1.579 2.865 1.692 4907
1.533 2.782 1.635 9529
1.598 2.901 1.700 5356
1.542 2.798 1.632 10141
1.607 2.917 1.697 4370
1.547 2.808 1.627 8413
1.613 2.927 1.691 3036
1.553 2.818 1.621 4594
1.633 2.963 1.698 2489
1.583 2.872 1.638 5846
1.649 2.992 1.702 2820
1.592 2.889 1.635 7871
1.658 3.008 1.698 3422
1.594 2.893 1.626 6536
1.660 3.012 1.689 5489
1.655 3.004 1.672 8909
1.589 2.884 1.610 4246
1.657 3.008 1.662 10542
1.591 2.887 1.600 2714
1.656 3.005 1.649 10264
1.590 2.885 1.588 1304
1.672 3.034 1.652 10781
1.606 2.914 1.591 2028
1.685 3.057 1.652 8595
1.618 2.937 1.591 1562
1.694 3.074 1.648 4998
1.627 2.953 1.588 1860
1.699 3.084 1.641 5429
1.633 2.963 1.581 1061
1.702 3.088 1.631 7003
1.700 3.085 1.618 8237
1.702 3.089 1.608 9505
1.708 3.099 1.601 7250
1.717 3.116 1.596 4141
1.751 3.177 1.613 5191
1.763 3.200 1.612 7328
1.696 3.078 1.555 1050
1.769 3.210 1.604 7889
1.778 3.227 1.600 6249
1.849 3.355 1.659 2093
1.791 3.250 1.598 5080
1.858 3.372 1.654 3488
1.846 3.350 1.631 5969
1.779 3.228 1.576 1877
1.827 3.315 1.603 6783
1.759 3.193 1.548 1243
1.825 3.313 1.589 5640
1.893 3.435 1.643 1598
1.870 3.394 1.612 5286
1.802 3.271 1.558 1846
1.869 3.391 1.598 5098
1.937 3.514 1.652 1814
1.864 3.382 1.582 5578
1.931 3.505 1.635 3091
1.873 3.399 1.576 5296
1.941 3.522 1.629 3607
1.886 3.422 1.573 5788
1.954 3.545 1.626 4168
1.888 3.425 1.562 4955
1.956 3.549 1.614 3725
1.890 3.429 1.551 3080
1.958 3.553 1.602 2424
1.938 3.517 1.574 2597
2.006 3.641 1.626 1055
1.947 3.534 1.568 3836
2.037 3.697 1.635 1508
1.964 3.564 1.567 6076
2.036 3.695 1.620 2191
1.969 3.574 1.558 6067
2.038 3.698 1.608 3485
2.018 3.663 1.580 6075
1.950 3.538 1.531 2246
2.038 3.699 1.581 6224
1.970 3.575 1.532 2696
2.037 3.696 1.566 4433
2.106 3.821 1.615 1704
2.039 3.700 1.554 3955
2.108 3.825 1.603 3347
2.041 3.704 1.542 5482
2.110 3.828 1.590 4519
2.094 3.799 1.565 4792
2.025 3.674 1.517 2765
2.077 3.770 1.540 4680
2.146 3.895 1.587 1793
2.127 3.859 1.559 5718
2.058 3.734 1.513 2483
2.129 3.863 1.547 6424
2.198 3.988 1.593 2542
2.156 3.913 1.551 6737
2.087 3.787 1.505 1596
2.162 3.923 1.540 5085
2.253 4.088 1.600 2205
2.204 3.999 1.554 2927
2.134 3.873 1.509 2082
2.202 3.996 1.538 3389
2.271 4.122 1.583 2185
2.189 3.973 1.516 2784
2.273 4.126 1.569 2557
2.264 4.109 1.549 3842
2.195 3.983 1.505 1226
2.277 4.133 1.542 4025
2.208 4.007 1.499 1506
2.298 4.170 1.540 4313
2.228 4.043 1.497 1190
2.303 4.180 1.528 4257
2.313 4.197 1.519 2781
2.401 4.357 1.572 1088
2.395 4.347 1.553 2433
2.318 4.207 1.507 2229
2.390 4.337 1.534 4051
2.320 4.210 1.493 1541
2.385 4.327 1.516 4152
2.379 4.317 1.497 3958
2.449 4.444 1.538 1787
2.381 4.321 1.483 2639
2.484 4.508 1.542 2312
2.482 4.505 1.525 4786
2.387 4.331 1.471 1937
2.477 4.495 1.506 3826
2.400 4.354 1.463 1793
2.520 4.572 1.514 2796
2.449 4.445 1.475 1271
2.588 4.696 1.535 2455
2.507 4.549 1.490 1660
2.538 4.606 1.491 2891
2.642 4.794 1.547 2332
2.647 4.804 1.533 3977
2.555 4.636 1.484 2640
2.649 4.808 1.517 4397
2.572 4.667 1.476 2624
2.651 4.811 1.501 2805
2.570 4.663 1.459 2508
2.750 4.990 1.535 2825
2.609 4.734 1.463 2209
2.752 4.993 1.519 3100
2.681 4.865 1.483 2100
2.753 4.997 1.502 2922
2.876 5.219 1.563 1684
2.871 5.209 1.542 3674
2.778 5.041 1.497 3434
2.873 5.213 1.525 4940
2.776 5.037 1.478 4400
2.908 5.277 1.524 4828
2.781 5.048 1.463 3390
2.917 5.294 1.510 5471
2.847 5.166 1.477 1727
2.882 5.230 1.475 5096
2.953 5.359 1.508 1873
2.932 5.322 1.480 4336
2.862 5.193 1.448 1356
2.964 5.379 1.476 4464
2.893 5.250 1.444 2330
2.966 5.383 1.459 4128
2.957 5.366 1.436 2454
2.962 5.376 1.420 1676
2.982 5.412 1.373 1202
2.988 5.422 1.356 1341
2.993 5.432 1.340 1962
2.988 5.422 1.319 2440
2.993 5.431 1.303 1821
2.998 5.441 1.286 1572
3.004 5.451 1.269 1413
3.671 6.662 1.500 1543
3.676 6.672 1.479 1957
3.597 6.529 1.450 1288
3.716 6.744 1.471 1916
3.596 6.525 1.427 1488
3.725 6.761 1.451 2081
3.880 7.041 1.506 1623
3.735 6.778 1.431 2114
3.878 7.038 1.481 2071
3.880 7.041 1.458 2151
3.737 6.781 1.409 2035
3.882 7.044 1.435 1952
3.735 6.777 1.385 1923
3.729 6.767 1.360 1935
3.944 7.157 1.431 1706
4.010 7.277 1.428 1968
3.697 6.708 1.327 1684
4.019 7.294 1.407 1492
4.110 7.458 1.435 1443
4.410 8.003 1.504 1525
4.206 7.633 1.440 1449
4.404 7.993 1.475 1898
4.117 7.472 1.387 1362
4.369 7.928 1.437 1793
4.183 7.591 1.382 1197
4.370 7.931 1.411 1464
4.380 7.948 1.387 1321
4.478 8.127 1.415 1130
4.480 8.130 1.388 1190
4.378 7.944 1.359 1005
4.478 8.126 1.360 1171
4.572 8.298 1.386 1028
4.574 8.301 1.358 1076
1.014 1.827 1.597 2909
1.016 1.831 1.591 5818
1.075 1.938 1.679 1512
1.018 1.834 1.585 5724
1.077 1.942 1.672 1512
1.023 1.844 1.584 6057
1.083 1.951 1.671 1237
1.028 1.853 1.583 6657
1.123 2.023 1.719 1717
1.033 1.862 1.581 7759
1.131 2.038 1.721 2828
1.036 1.866 1.575 8914
1.137 2.048 1.719 4036
1.034 1.864 1.564 9231
1.139 2.052 1.712 4036
1.033 1.862 1.554 9750
1.132 2.039 1.692 5009
1.035 1.865 1.548 9750
1.131 2.037 1.681 6310
1.040 1.875 1.546 8826
1.133 2.041 1.674 5629
1.049 1.890 1.549 8251
1.135 2.045 1.668 4948
1.048 1.888 1.538 5427
1.147 2.066 1.674 4378
1.181 2.128 1.711 5454
1.046 1.886 1.528 2655
1.186 2.138 1.709 5440
1.045 1.883 1.517 2211
1.189 2.142 1.702 5459
1.079 1.945 1.554 2438
1.191 2.146 1.695 5422
1.081 1.948 1.548 2975
1.157 2.086 1.640 5992
1.080 1.946 1.538 3552
1.160 2.090 1.634 7709
1.085 1.955 1.535 2815
1.171 2.111 1.640 7798
1.090 1.965 1.533 2183
1.177 2.121 1.637 8921
1.096 1.974 1.531 1893
1.185 2.136 1.638 8268
1.101 1.984 1.529 1511
1.194 2.152 1.640 9007
1.103 1.987 1.522 1406
1.193 2.150 1.629 9121
1.105 1.991 1.516 1123
1.192 2.148 1.617 9391
1.200 2.163 1.619 9831
1.206 2.173 1.616 10839
1.208 2.177 1.609 8844
1.213 2.186 1.606 6990
1.222 2.202 1.607 4557
1.244 2.241 1.624 3524
1.209 2.179 1.572 3307
1.332 2.400 1.721 1123
1.215 2.189 1.569 4417
1.338 2.410 1.717 1809
1.217 2.193 1.562 4757
1.333 2.402 1.701 2134
1.226 2.208 1.563 4488
1.332 2.400 1.689 2593
1.241 2.236 1.571 4944
1.348 2.428 1.697 3399
1.353 2.438 1.693 5869
1.253 2.258 1.576 3906
1.355 2.442 1.685 7364
1.265 2.279 1.580 3185
1.367 2.464 1.689 7458
1.267 2.283 1.572 2879
1.376 2.480 1.688 8788
1.269 2.287 1.565 2572
1.379 2.484 1.680 8347
1.274 2.296 1.561 1987
1.377 2.482 1.668 7943
1.276 2.300 1.554 1401
1.380 2.486 1.660 6455
1.272 2.292 1.539 1422
1.385 2.496 1.656 4922
1.449 2.612 1.727 1647
1.428 2.573 1.692 5505
1.364 2.457 1.621 4203
1.423 2.565 1.677 6385
1.359 2.449 1.606 3508
1.425 2.569 1.668 7445
1.361 2.452 1.598 2277
1.434 2.585 1.667 6657
1.370 2.468 1.597 1720
1.443 2.601 1.666 6358
1.379 2.484 1.596 2108
1.459 2.629 1.672 6319
1.394 2.513 1.603 3470
1.472 2.652 1.674 5235
1.407 2.535 1.605 3757
1.426 2.569 1.615 4124
1.491 2.686 1.684 4083
1.431 2.579 1.610 5210
1.500 2.703 1.682 2948
1.440 2.595 1.609 4580
1.516 2.731 1.687 2377
1.456 2.624 1.615 3966
1.539 2.772 1.700 3109
1.469 2.646 1.617 4352
1.541 2.776 1.691 3693
1.526 2.749 1.664 3925
1.460 2.631 1.597 2924
1.514 2.728 1.641 7684
1.580 2.846 1.707 2505
1.516 2.732 1.632 10997
1.582 2.850 1.698 3026
1.522 2.742 1.627 11220
1.587 2.861 1.692 4790
1.541 2.777 1.635 10573
1.607 2.896 1.700 5031
1.550 2.793 1.632 10099
1.616 2.912 1.697 4243
1.552 2.797 1.623 8285
1.618 2.916 1.687 3502
1.554 2.801 1.614 4217
1.627 2.933 1.685 3720
1.598 2.880 1.645 6288
1.664 2.999 1.708 2306
1.600 2.884 1.635 8109
1.667 3.003 1.698 2965
1.603 2.888 1.626 6654
1.669 3.007 1.689 4755
1.661 2.992 1.669 8328
1.594 2.873 1.607 3860
1.666 3.003 1.662 10003
1.600 2.883 1.600 2784
1.679 3.025 1.662 9896
1.612 2.905 1.601 2895
1.685 3.036 1.655 11131
1.618 2.915 1.594 2110
1.694 3.052 1.652 9307
1.627 2.932 1.591 1361
1.703 3.069 1.648 5212
1.636 2.948 1.588 1619
1.712 3.085 1.644 5641
1.645 2.965 1.584 1021
1.714 3.089 1.634 7364
1.709 3.080 1.618 8578
1.711 3.084 1.608 9258
1.779 3.205 1.666 1381
1.717 3.094 1.601 6414
1.784 3.215 1.659 1329
1.726 3.111 1.596 3999
1.753 3.159 1.607 4906
1.773 3.195 1.612 6150
1.705 3.073 1.555 1110
1.779 3.205 1.604 6311
1.846 3.327 1.661 1092
1.788 3.222 1.600 5418
1.855 3.344 1.656 2112
1.854 3.341 1.642 4520
1.786 3.219 1.586 3474
1.856 3.345 1.631 6348
1.788 3.222 1.576 1994
1.837 3.310 1.603 6831
1.835 3.307 1.589 4935
1.903 3.430 1.643 1610
1.880 3.388 1.612 4588
1.794 3.233 1.544 1893
1.875 3.379 1.595 4565
1.943 3.502 1.649 2061
1.924 3.467 1.621 5228
1.856 3.344 1.567 2797
1.930 3.477 1.612 5821
1.861 3.354 1.559 2491
1.950 3.513 1.615 4925
1.881 3.390 1.562 3194
1.898 3.420 1.562 4543
1.966 3.543 1.614 3838
1.903 3.430 1.553 3744
1.972 3.553 1.605 1977
1.945 3.505 1.572 3137
2.014 3.629 1.623 1373
1.965 3.541 1.573 3952
2.045 3.685 1.632 1637
1.974 3.558 1.567 6273
2.043 3.682 1.618 2126
1.980 3.568 1.558 6571
2.049 3.692 1.608 3295
1.989 3.585 1.551 5750
2.058 3.709 1.601 5066
2.057 3.706 1.586 6111
1.988 3.582 1.537 3721
2.052 3.697 1.569 4346
2.121 3.821 1.618 1446
2.054 3.700 1.557 3668
2.123 3.825 1.605 2809
2.056 3.704 1.545 5210
2.125 3.829 1.592 3735
2.101 3.786 1.562 5403
2.032 3.662 1.515 2181
2.096 3.777 1.545 5377
2.165 3.902 1.592 1090
2.134 3.846 1.557 5784
2.065 3.721 1.510 2216
2.136 3.850 1.544 6172
2.206 3.975 1.591 2446
2.168 3.906 1.551 5661
2.098 3.781 1.505 1350
2.177 3.923 1.543 4096
2.265 4.081 1.600 2139
2.212 3.986 1.551 3398
2.282 4.111 1.596 1571
2.210 3.983 1.536 3472
2.280 4.109 1.580 2129
2.286 4.119 1.569 2837
2.205 3.973 1.518 2715
2.280 4.109 1.551 4024
2.211 3.983 1.507 1860
2.293 4.133 1.544 3673
2.224 4.007 1.501 1958
2.310 4.163 1.540 3874
2.240 4.037 1.497 1313
2.312 4.166 1.526 3884
2.382 4.293 1.568 1335
2.329 4.196 1.521 2727
2.399 4.323 1.563 1511
2.401 4.326 1.549 3098
2.331 4.200 1.507 2228
2.403 4.330 1.534 4270
2.333 4.203 1.493 1365
2.397 4.320 1.516 3006
2.468 4.447 1.557 1170
2.381 4.290 1.491 3140
2.451 4.417 1.531 2192
2.498 4.501 1.542 2425
2.386 4.300 1.479 2132
2.496 4.498 1.525 4348
2.418 4.357 1.481 1837
2.487 4.481 1.504 3781
2.416 4.354 1.465 1700
2.541 4.578 1.518 2987
2.433 4.384 1.459 1539
2.520 4.541 1.490 2639
2.602 4.689 1.535 2624
2.600 4.686 1.517 2543
2.518 4.538 1.473 2524
2.665 4.803 1.535 3154
2.524 4.548 1.460 2520
2.667 4.807 1.519 3708
2.597 4.679 1.482 2313
2.666 4.803 1.501 2716
2.595 4.676 1.465 2327
2.761 4.975 1.533 2865
2.619 4.719 1.461 2512
2.766 4.985 1.519 2606
2.696 4.857 1.483 2341
2.787 5.022 1.511 2798
2.712 4.888 1.474 2188
2.796 5.039 1.498 3665
2.882 5.194 1.541 3307
2.884 5.198 1.523 4506
2.791 5.029 1.478 4265
2.927 5.275 1.526 5207
2.793 5.033 1.461 3191
2.937 5.292 1.512 6365
2.866 5.164 1.478 1942
2.901 5.228 1.477 4953
2.973 5.357 1.510 1548
2.956 5.326 1.484 3680
2.885 5.198 1.451 1534
2.980 5.370 1.476 4350
2.909 5.242 1.444 1885
2.982 5.374 1.459 4117
2.973 5.357 1.436 2640
2.978 5.367 1.420 1733
2.991 5.390 1.370 1184
3.000 5.407 1.355 1228
3.002 5.410 1.337 1827
3.004 5.413 1.319 2369
3.005 5.416 1.301 1826
3.011 5.425 1.285 1509
3.016 5.435 1.268 1254
3.695 6.657 1.501 1299
3.696 6.661 1.479 1520
3.740 6.739 1.472 2063
3.180 5.730 1.271 1446
3.757 6.770 1.455 2477
3.905 7.036 1.507 1582
3.755 6.766 1.431 2753
3.899 7.026 1.481 2125
3.757 6.770 1.409 2548
3.901 7.029 1.458 2114
3.755 6.766 1.385 2193
3.903 7.033 1.435 1605
3.749 6.756 1.360 2097
3.969 7.152 1.433 1784
3.971 7.155 1.409 1771
3.724 6.711 1.329 1572
3.954 7.124 1.379 1334
4.132 7.446 1.435 1272
4.430 7.983 1.503 1336
4.138 7.456 1.412 1102
4.425 7.973 1.474 1699
4.139 7.459 1.387 1201
4.392 7.915 1.437 1688
4.202 7.572 1.381 1335
4.394 7.918 1.411 1307
4.200 7.568 1.354 1124
4.506 8.120 1.416 1305
4.400 7.928 1.386 1186
4.504 8.116 1.388 1403
4.401 7.931 1.359 1022
4.502 8.113 1.360 1406
1.017 1.818 1.593 2334
1.076 1.925 1.680 1112
1.019 1.822 1.587 4669
1.079 1.928 1.674 2224
1.062 1.899 1.640 4652
1.002 1.791 1.553 2066
1.064 1.902 1.634 4780
1.004 1.795 1.548 1613
1.066 1.906 1.628 4908
1.129 2.019 1.719 1714
1.068 1.910 1.622 6154
1.132 2.023 1.712 2696
1.067 1.908 1.611 7438
1.137 2.033 1.710 3687
1.072 1.917 1.609 7344
1.139 2.037 1.703 3687
1.074 1.921 1.603 7287
1.135 2.030 1.688 5126
1.077 1.925 1.597 7287
1.137 2.034 1.681 6633
1.047 1.871 1.546 6690
1.139 2.038 1.674 6247
1.055 1.886 1.549 6466
1.142 2.041 1.668 5861
1.150 2.057 1.670 5605
1.054 1.884 1.538 4330
1.156 2.066 1.668 5760
1.049 1.876 1.523 2432
1.158 2.070 1.661 5538
1.051 1.880 1.517 2013
1.154 2.063 1.645 5398
1.086 1.941 1.554 2127
1.156 2.066 1.639 5226
1.088 1.945 1.548 2762
1.164 2.082 1.640 7008
1.090 1.948 1.542 3397
1.170 2.092 1.638 9080
1.095 1.958 1.540 2830
1.175 2.101 1.635 8909
1.100 1.967 1.538 2430
1.184 2.117 1.637 9843
1.105 1.977 1.535 2132
1.192 2.132 1.638 8943
1.107 1.980 1.529 1662
1.198 2.142 1.636 8738
1.109 1.984 1.522 1472
1.200 2.146 1.629 9318
1.115 1.993 1.520 1135
1.199 2.144 1.617 9964
1.204 2.153 1.615 10233
1.210 2.163 1.612 10903
1.212 2.167 1.605 8884
1.214 2.170 1.597 6865
1.216 2.174 1.590 4755
1.245 2.225 1.616 3742
1.217 2.175 1.572 3826
1.222 2.185 1.569 5488
1.345 2.406 1.717 1629
1.227 2.195 1.566 6126
1.344 2.404 1.705 1908
1.236 2.210 1.567 5847
1.340 2.396 1.689 2296
1.245 2.226 1.567 6392
1.356 2.424 1.697 3335
1.358 2.428 1.689 5925
1.250 2.236 1.564 4585
1.363 2.438 1.685 7341
1.262 2.257 1.568 2945
1.369 2.448 1.681 6824
1.271 2.273 1.569 2233
1.385 2.476 1.688 7696
1.283 2.295 1.573 1807
1.387 2.480 1.680 7414
1.282 2.292 1.561 1590
1.386 2.478 1.668 7151
1.284 2.296 1.554 1517
1.388 2.481 1.660 5435
1.286 2.299 1.546 1634
1.366 2.443 1.625 4315
1.431 2.558 1.697 3440
1.399 2.501 1.651 5159
1.464 2.617 1.723 2003
1.415 2.530 1.658 5984
1.350 2.414 1.587 1857
1.420 2.539 1.653 7163
1.485 2.655 1.724 1339
1.433 2.562 1.656 5580
1.368 2.446 1.586 1448
1.459 2.608 1.673 4947
1.394 2.492 1.604 2296
1.475 2.637 1.679 6295
1.409 2.520 1.610 3633
1.480 2.647 1.674 6073
1.415 2.530 1.605 3513
1.489 2.663 1.673 4292
1.424 2.546 1.604 3179
1.436 2.568 1.607 3689
1.512 2.704 1.686 2829
1.459 2.609 1.620 3387
1.525 2.726 1.687 2567
1.475 2.638 1.625 3341
1.544 2.761 1.696 2713
1.481 2.648 1.620 3854
1.550 2.771 1.691 3120
1.531 2.738 1.661 3527
1.465 2.620 1.594 2147
1.523 2.723 1.641 7341
1.589 2.841 1.707 2599
1.525 2.727 1.632 10924
1.591 2.845 1.698 3214
1.531 2.737 1.627 11779
1.597 2.855 1.692 4675
1.550 2.772 1.635 11152
1.617 2.890 1.700 4507
1.556 2.782 1.629 9809
1.622 2.901 1.694 4411
1.558 2.786 1.620 8009
1.624 2.905 1.684 4180
1.634 2.921 1.681 5718
1.557 2.783 1.607 4555
1.611 2.881 1.648 7015
1.545 2.762 1.585 2500
1.610 2.879 1.635 8284
1.677 2.998 1.698 2790
1.612 2.882 1.626 6665
1.679 3.002 1.689 4013
1.663 2.974 1.662 8039
1.597 2.855 1.600 3270
1.673 2.991 1.659 9686
1.606 2.871 1.597 2356
1.689 3.020 1.662 9524
1.622 2.900 1.601 2708
1.698 3.036 1.659 11081
1.631 2.916 1.598 2035
1.704 3.047 1.652 9592
1.637 2.926 1.591 1229
1.717 3.069 1.651 5424
1.649 2.949 1.591 1689
1.722 3.080 1.644 5822
1.724 3.083 1.634 7532
1.723 3.081 1.621 8748
1.722 3.078 1.608 8683
1.789 3.199 1.666 1782
1.727 3.088 1.601 5230
1.795 3.209 1.659 1526
1.758 3.143 1.615 3823
1.760 3.147 1.604 4697
1.828 3.268 1.662 1056
1.787 3.195 1.615 5890
1.719 3.074 1.558 1247
1.793 3.205 1.607 6833
1.861 3.327 1.664 1302
1.798 3.216 1.600 6366
1.866 3.337 1.656 2064
1.804 3.226 1.592 4998
1.872 3.348 1.648 3431
1.867 3.339 1.631 5604
1.799 3.217 1.576 3154
1.848 3.304 1.603 6201
1.779 3.182 1.548 1693
1.889 3.378 1.623 4597
1.821 3.256 1.569 2897
1.884 3.369 1.607 4157
1.809 3.234 1.547 2416
1.886 3.373 1.595 4100
1.818 3.250 1.542 1854
1.935 3.461 1.621 5543
1.867 3.338 1.567 1975
1.938 3.464 1.609 6382
1.869 3.342 1.556 1870
1.940 3.468 1.598 4422
1.871 3.345 1.545 1400
1.909 3.414 1.562 4659
1.978 3.537 1.614 4173
1.918 3.430 1.556 4948
1.987 3.553 1.608 2266
1.957 3.499 1.572 4044
2.026 3.622 1.623 1488
1.959 3.502 1.560 4134
2.028 3.626 1.611 1801
1.990 3.558 1.570 6005
2.059 3.682 1.620 1945
1.996 3.568 1.561 6851
2.065 3.692 1.611 2868
2.001 3.578 1.551 6995
2.070 3.702 1.601 4677
2.069 3.699 1.586 5753
2.000 3.575 1.537 4772
2.067 3.697 1.571 4038
1.998 3.572 1.523 1402
2.066 3.694 1.557 3238
2.135 3.818 1.605 2121
2.068 3.697 1.545 5049
2.137 3.822 1.592 2903
2.110 3.773 1.560 5534
2.040 3.648 1.512 1769
2.112 3.777 1.547 5648
2.143 3.833 1.555 5618
2.074 3.708 1.508 1935
2.145 3.836 1.542 5659
2.219 3.968 1.591 2034
2.144 3.833 1.527 5122
2.217 3.965 1.575 3892
2.171 3.883 1.531 4318
2.241 4.008 1.576 2630
2.221 3.972 1.549 3592
2.291 4.097 1.594 1635
2.220 3.969 1.533 3381
2.290 4.094 1.578 2126
2.284 4.085 1.560 3004
2.214 3.959 1.516 2622
2.294 4.102 1.551 3914
2.224 3.976 1.507 2176
2.281 4.079 1.528 3198
2.351 4.205 1.572 1428
2.324 4.155 1.540 3187
2.253 4.029 1.497 1281
2.322 4.152 1.524 3301
2.396 4.285 1.568 1378
2.335 4.176 1.516 2586
2.409 4.308 1.561 2208
2.415 4.318 1.549 3064
2.345 4.192 1.507 2307
2.421 4.329 1.537 2991
2.347 4.196 1.493 1446
2.438 4.359 1.531 2417
2.367 4.232 1.490 1409
2.417 4.322 1.504 2982
2.499 4.469 1.550 1969
2.419 4.326 1.489 3373
2.505 4.479 1.538 2748
2.511 4.489 1.525 3469
2.425 4.336 1.477 2474
2.501 4.473 1.504 3632
2.423 4.333 1.461 2136
2.518 4.503 1.497 3395
2.589 4.630 1.536 1551
2.617 4.680 1.535 2887
2.528 4.520 1.486 2452
2.623 4.690 1.521 3162
2.552 4.563 1.483 2379
2.546 4.553 1.464 2603
2.681 4.794 1.535 2247
2.683 4.798 1.519 2687
2.754 4.925 1.556 2401
2.625 4.694 1.473 2620
2.738 4.895 1.530 2200
2.777 4.966 1.533 2850
2.631 4.704 1.459 2316
2.783 4.976 1.519 2551
2.712 4.848 1.483 2539
2.807 5.020 1.513 2622
2.717 4.859 1.469 2322
2.813 5.030 1.498 3231
2.892 5.171 1.537 3106
2.901 5.188 1.523 3551
2.811 5.027 1.480 3281
2.949 5.272 1.528 5255
2.806 5.017 1.460 2775
2.954 5.283 1.512 6735
2.811 5.027 1.445 1908
2.915 5.212 1.475 4394
2.986 5.340 1.508 1870
2.977 5.323 1.486 3079
2.905 5.195 1.453 1507
2.998 5.360 1.476 3578
2.926 5.232 1.444 1508
2.996 5.357 1.457 3453
2.990 5.347 1.436 2305
2.992 5.350 1.418 1535
2.990 5.347 1.399 1070
2.992 5.350 1.381 1131
3.005 5.373 1.368 1189
3.007 5.376 1.350 1189
3.012 5.386 1.334 1649
3.018 5.396 1.317 2094
3.019 5.399 1.300 1663
3.025 5.409 1.283 1292
3.713 6.638 1.500 1031
3.766 6.734 1.474 1940
3.199 5.720 1.271 1318
3.779 6.758 1.455 2586
3.928 7.023 1.507 1457
3.777 6.754 1.431 3031
3.922 7.013 1.481 1953
3.779 6.757 1.409 2724
3.924 7.016 1.458 1910
3.773 6.747 1.384 2395
3.933 7.033 1.437 1391
3.767 6.736 1.359 2266
3.996 7.146 1.434 1717
3.994 7.142 1.409 1643
3.861 6.903 1.366 1479
4.210 7.528 1.452 1422
3.969 7.098 1.377 1234
4.212 7.531 1.427 1029
4.451 7.958 1.474 1178
4.229 7.562 1.407 1139
4.227 7.558 1.381 1588
4.418 7.900 1.437 1414
4.225 7.555 1.354 1426
4.531 8.102 1.443 1223
