1.772 2.487 1.685 6674
1.693 2.376 1.604 18340
1.770 2.485 1.673 10150
1.695 2.380 1.596 13615
1.773 2.489 1.664 10603
1.702 2.389 1.591 13065
1.780 2.498 1.659 8125
1.704 2.392 1.583 11463
1.782 2.502 1.650 7367
1.707 2.396 1.574 10271
1.785 2.505 1.641 8029
1.709 2.399 1.566 7453
1.804 2.532 1.646 6989
1.819 2.553 1.648 8489
1.715 2.408 1.561 3519
1.821 2.557 1.639 9161
1.900 2.667 1.705 2450
1.824 2.560 1.630 7119
1.902 2.670 1.695 4151
1.901 2.668 1.683 6403
1.822 2.558 1.618 4919
1.887 2.649 1.660 7639
1.808 2.538 1.595 2327
1.889 2.652 1.650 7979
1.968 2.763 1.714 2737
1.904 2.673 1.651 7412
1.983 2.784 1.715 2994
1.924 2.700 1.655 7252
2.003 2.811 1.718 1974
1.926 2.704 1.645 7011
2.005 2.815 1.708 2072
1.933 2.713 1.639 6205
2.012 2.825 1.702 2456
1.994 2.799 1.675 4880
1.914 2.688 1.613 2594
2.017 2.832 1.682 5356
1.938 2.720 1.620 4130
2.028 2.848 1.678 5501
1.940 2.724 1.610 4592
2.031 2.851 1.668 5487
1.943 2.727 1.601 4407
2.038 2.861 1.661 4383
1.950 2.737 1.594 3206
2.040 2.864 1.651 4957
1.960 2.752 1.591 1736
2.043 2.868 1.641 7999
2.050 2.877 1.634 9407
2.052 2.881 1.624 7756
2.133 2.994 1.683 1062
2.059 2.890 1.617 5379
2.139 3.003 1.676 1742
2.091 2.936 1.628 5657
2.172 3.049 1.686 1443
2.081 2.921 1.609 5716
2.161 3.034 1.666 2346
2.088 2.931 1.601 3530
2.168 3.044 1.659 3136
2.162 3.036 1.642 3483
2.082 2.922 1.585 1877
2.182 3.063 1.643 3251
2.101 2.950 1.587 1728
2.197 3.085 1.641 5211
2.116 2.971 1.585 2928
2.200 3.088 1.630 5512
2.119 2.974 1.575 2978
2.207 3.098 1.622 7320
2.125 2.984 1.567 1889
2.213 3.107 1.614 12192
2.132 2.993 1.559 1001
2.212 3.105 1.600 10967
2.293 3.219 1.655 1597
2.210 3.102 1.587 6029
2.291 3.216 1.641 1643
2.221 3.118 1.581 3524
2.328 3.268 1.652 1872
2.236 3.139 1.579 3812
2.335 3.278 1.643 2519
2.247 3.155 1.573 5121
2.346 3.293 1.637 3148
2.301 3.230 1.595 4953
2.219 3.116 1.543 1966
2.312 3.246 1.589 5205
2.394 3.361 1.641 2485
2.379 3.340 1.619 5134
2.297 3.225 1.567 2357
2.386 3.350 1.609 6503
2.304 3.235 1.558 2273
2.384 3.347 1.595 6959
2.302 3.232 1.544 2157
2.391 3.357 1.586 5044
2.309 3.241 1.535 1471
2.420 3.397 1.590 4966
2.337 3.281 1.540 2531
2.431 3.412 1.583 4379
2.348 3.297 1.533 2142
2.464 3.458 1.589 6091
2.381 3.343 1.540 1582
2.462 3.456 1.574 5530
2.464 3.459 1.562 4407
2.547 3.575 1.610 1802
2.466 3.463 1.550 4211
2.562 3.597 1.605 2250
2.473 3.472 1.540 2754
2.569 3.607 1.595 2650
2.493 3.500 1.537 2441
2.606 3.659 1.602 1953
2.491 3.497 1.523 2701
2.605 3.656 1.586 2417
2.589 3.635 1.564 3115
2.506 3.519 1.518 2063
2.583 3.626 1.546 2582
2.666 3.743 1.592 2156
2.656 3.728 1.572 6364
2.568 3.605 1.524 2272
2.649 3.719 1.554 7090
2.566 3.602 1.509 2072
2.687 3.772 1.559 4288
2.590 3.636 1.508 2644
2.702 3.794 1.553 2919
2.786 3.911 1.597 1306
2.705 3.797 1.539 2913
2.788 3.914 1.583 2207
2.791 3.918 1.569 3357
2.707 3.800 1.526 2057
2.815 3.952 1.567 3891
2.731 3.834 1.524 2039
2.800 3.930 1.544 3800
2.716 3.813 1.501 1626
2.829 3.971 1.543 5049
2.745 3.853 1.501 2269
2.827 3.968 1.527 5724
2.928 4.111 1.577 1908
2.824 3.965 1.511 3896
2.935 4.120 1.565 3190
2.933 4.117 1.548 2694
2.836 3.981 1.501 2276
2.878 4.040 1.506 2864
2.984 4.189 1.557 2266
2.955 4.149 1.527 3807
2.871 4.031 1.487 2075
2.967 4.165 1.517 5445
3.051 4.283 1.556 2368
3.031 4.255 1.531 3359
2.947 4.137 1.492 2162
3.078 4.321 1.536 2982
2.993 4.202 1.497 2430
3.084 4.330 1.523 3090
3.000 4.212 1.484 2868
3.145 4.415 1.533 5490
3.016 4.234 1.475 1732
3.143 4.412 1.516 6330
3.227 4.530 1.553 1596
3.149 4.421 1.502 6429
3.234 4.540 1.539 2033
3.156 4.431 1.488 5642
3.241 4.549 1.525 2393
3.243 4.553 1.508 3303
3.328 4.672 1.545 2500
3.330 4.675 1.528 4399
3.245 4.556 1.492 2634
3.332 4.678 1.511 5503
3.248 4.559 1.476 1700
3.344 4.694 1.498 4902
3.455 4.851 1.544 3020
3.440 4.829 1.520 3573
3.355 4.710 1.485 3267
3.465 4.864 1.512 3400
3.380 4.744 1.478 2255
3.471 4.873 1.496 2805
3.386 4.754 1.463 1485
3.487 4.895 1.484 2485
3.648 5.122 1.547 1747
3.485 4.892 1.465 3399
3.610 5.068 1.513 2274
3.487 4.895 1.447 3747
3.572 5.015 1.480 2530
3.494 4.905 1.432 3019
3.637 5.106 1.485 2492
3.644 5.116 1.469 2439
3.496 4.908 1.414 1840
3.660 5.138 1.456 2287
3.925 5.510 1.552 1452
3.730 5.236 1.462 2248
3.936 5.526 1.536 2143
3.943 5.536 1.517 3247
3.687 5.176 1.427 1682
3.946 5.539 1.498 3037
4.031 5.659 1.527 1717
4.029 5.656 1.506 2312
3.943 5.536 1.477 1796
4.027 5.653 1.484 2131
4.198 5.893 1.542 1673
4.209 5.909 1.524 2513
4.106 5.764 1.489 1973
4.221 5.925 1.506 2256
4.108 5.767 1.469 2128
4.223 5.929 1.485 2086
4.056 5.694 1.431 1917
4.221 5.925 1.462 2686
4.081 5.729 1.418 1425
4.219 5.922 1.440 2824
4.092 5.744 1.400 1724
4.221 5.925 1.419 1962
4.325 6.071 1.450 1114
4.485 6.297 1.476 1793
4.322 6.068 1.427 1401
4.492 6.306 1.455 2010
4.325 6.071 1.406 1584
4.499 6.316 1.434 1641
4.322 6.068 1.383 1209
4.642 6.516 1.452 1448
4.737 6.650 1.479 1237
4.653 6.532 1.431 1602
4.739 6.653 1.455 1342
4.664 6.548 1.410 1760
4.238 5.949 1.293 1251
4.879 6.850 1.444 1578
4.662 6.544 1.386 1386
4.886 6.859 1.421 1864
4.977 6.987 1.445 1135
4.888 6.862 1.397 1748
5.479 7.691 1.550 1100
5.481 7.695 1.522 2400
5.377 7.548 1.496 1361
5.479 7.692 1.494 4539
5.279 7.411 1.444 1736
5.481 7.695 1.466 5839
5.354 7.516 1.435 2675
5.483 7.698 1.439 7414
5.356 7.519 1.408 3122
5.486 7.701 1.411 8869
5.354 7.516 1.380 2628
5.492 7.710 1.385 10896
5.356 7.519 1.354 1941
5.494 7.713 1.357 12102
5.394 7.573 1.335 1982
5.496 7.716 1.330 11159
5.392 7.569 1.307 1652
5.498 7.719 1.302 11308
5.407 7.591 1.283 1119
5.496 7.715 1.274 10203
5.409 7.594 1.256 1030
5.502 7.724 1.247 7503
5.504 7.727 1.220 5757
5.506 7.729 1.192 3857
5.508 7.732 1.165 1882
5.514 7.741 1.138 1193
1.326 1.850 1.731 2978
1.329 1.853 1.725 5956
1.332 1.857 1.718 5956
1.334 1.861 1.712 6469
1.406 1.961 1.798 1120
1.333 1.859 1.701 7061
1.405 1.959 1.787 1924
1.336 1.863 1.694 7635
1.408 1.963 1.780 3089
1.338 1.867 1.687 8209
1.411 1.967 1.773 4254
1.341 1.870 1.681 8209
1.413 1.971 1.766 4254
1.351 1.885 1.683 7068
1.424 1.986 1.768 2779
1.381 1.926 1.708 9018
1.387 1.935 1.705 7307
1.420 1.981 1.734 6524
1.348 1.879 1.650 1465
1.427 1.990 1.731 7485
1.354 1.888 1.648 1577
1.434 1.999 1.729 9039
1.360 1.897 1.646 1757
1.436 2.003 1.722 7822
1.363 1.901 1.639 1337
1.439 2.007 1.715 6517
1.442 2.011 1.708 6406
1.437 2.003 1.692 4624
1.459 2.034 1.706 3471
1.469 2.049 1.708 5073
1.476 2.058 1.705 6980
1.478 2.062 1.697 6883
1.481 2.065 1.690 6787
1.503 2.096 1.704 7757
1.514 2.111 1.705 10983
1.520 2.120 1.701 12002
1.527 2.129 1.698 13741
1.529 2.133 1.691 14720
1.532 2.137 1.683 15698
1.535 2.140 1.676 14513
1.537 2.144 1.668 13328
1.540 2.148 1.660 10783
1.554 2.168 1.665 9435
1.557 2.172 1.657 10591
1.637 2.283 1.737 1072
1.564 2.181 1.654 9134
1.644 2.292 1.733 1454
1.570 2.190 1.650 6708
1.650 2.302 1.728 2340
1.573 2.193 1.642 4431
1.657 2.311 1.724 3444
1.660 2.315 1.716 3651
1.567 2.186 1.627 2277
1.666 2.324 1.712 4372
1.570 2.189 1.619 2404
1.669 2.328 1.704 5149
1.572 2.193 1.611 2531
1.668 2.326 1.692 6357
1.579 2.202 1.607 2351
1.670 2.329 1.683 7677
1.589 2.217 1.607 1720
1.669 2.327 1.671 9453
1.592 2.220 1.599 1090
1.663 2.320 1.656 14851
1.666 2.323 1.647 18161
1.673 2.333 1.643 21294
1.679 2.342 1.638 23956
1.686 2.351 1.634 21486
1.763 2.459 1.704 1295
1.692 2.360 1.629 18699
1.770 2.469 1.699 2868
1.699 2.370 1.625 17434
1.777 2.478 1.694 3569
1.702 2.373 1.616 19078
1.779 2.482 1.685 5432
1.700 2.371 1.604 16483
1.778 2.480 1.673 8808
1.702 2.374 1.596 12174
1.781 2.483 1.664 9495
1.705 2.378 1.588 11719
1.783 2.487 1.655 8392
1.712 2.387 1.583 10294
1.790 2.496 1.650 7574
1.714 2.390 1.574 9215
1.797 2.506 1.645 8450
1.812 2.526 1.646 7872
1.716 2.394 1.566 6529
1.822 2.542 1.645 8532
1.723 2.403 1.561 2929
1.829 2.551 1.639 8993
1.908 2.661 1.705 2048
1.832 2.554 1.630 6840
1.911 2.665 1.695 3751
1.909 2.662 1.683 5790
1.830 2.552 1.618 4524
1.895 2.643 1.660 6615
1.816 2.532 1.595 2044
1.902 2.652 1.654 7067
1.981 2.763 1.718 2383
1.925 2.685 1.661 7003
1.846 2.574 1.597 3449
1.932 2.694 1.655 7210
2.011 2.805 1.718 1914
1.935 2.698 1.645 6876
2.014 2.809 1.708 1871
1.941 2.707 1.639 6090
2.021 2.819 1.702 2733
2.015 2.811 1.685 5565
1.935 2.699 1.623 4284
2.026 2.826 1.682 6338
1.946 2.714 1.620 4416
2.033 2.835 1.675 5717
1.953 2.724 1.614 4146
2.040 2.845 1.668 5436
1.956 2.727 1.604 3915
2.047 2.854 1.661 4240
1.958 2.731 1.594 2905
2.049 2.858 1.651 5336
1.969 2.746 1.591 1615
2.052 2.862 1.641 8788
2.054 2.865 1.631 10220
2.061 2.875 1.624 8400
2.142 2.987 1.683 1312
2.064 2.878 1.614 5720
2.144 2.991 1.672 2404
2.104 2.935 1.631 5962
2.185 3.048 1.689 1271
2.090 2.915 1.609 5893
2.175 3.034 1.670 2176
2.088 2.912 1.595 3529
2.178 3.037 1.659 2880
2.172 3.029 1.642 3460
2.091 2.916 1.585 1813
2.166 3.021 1.625 3393
2.203 3.072 1.638 4845
2.121 2.958 1.582 2968
2.209 3.081 1.630 4893
2.128 2.968 1.575 3410
2.216 3.091 1.622 6699
2.135 2.977 1.567 2331
2.223 3.100 1.614 11541
2.141 2.986 1.559 1437
2.225 3.104 1.603 10198
2.307 3.218 1.658 1514
2.228 3.107 1.592 5722
2.310 3.221 1.646 1294
2.243 3.129 1.590 4464
2.325 3.243 1.644 1637
2.250 3.138 1.582 3972
2.332 3.252 1.635 1978
2.261 3.154 1.576 4855
2.356 3.286 1.637 2647
2.311 3.223 1.595 5275
2.229 3.109 1.543 1388
2.322 3.239 1.589 5985
2.405 3.354 1.641 1979
2.394 3.339 1.621 4924
2.312 3.224 1.570 3397
2.392 3.336 1.607 6831
2.310 3.221 1.555 2372
2.395 3.340 1.595 7484
2.312 3.225 1.544 2035
2.397 3.343 1.583 5621
2.480 3.458 1.633 1965
2.434 3.395 1.592 5283
2.352 3.280 1.542 3210
2.437 3.399 1.580 4424
2.354 3.283 1.531 2331
2.470 3.445 1.586 4464
2.374 3.311 1.529 1213
2.472 3.448 1.574 4894
2.555 3.564 1.623 1362
2.475 3.451 1.562 4226
2.558 3.567 1.610 1932
2.477 3.455 1.550 3168
2.573 3.589 1.605 2410
2.580 3.599 1.595 2868
2.484 3.464 1.540 2403
2.508 3.498 1.540 2729
2.600 3.626 1.592 1880
2.550 3.556 1.550 3198
2.633 3.673 1.596 1763
2.592 3.615 1.559 3570
2.509 3.499 1.513 1344
2.590 3.612 1.544 3128
2.673 3.729 1.590 2096
2.658 3.707 1.567 6362
2.575 3.591 1.521 2346
2.656 3.705 1.551 7329
2.573 3.588 1.506 1517
2.694 3.757 1.557 4410
2.610 3.640 1.512 2484
2.705 3.773 1.548 3284
2.789 3.890 1.592 1801
2.787 3.887 1.576 2892
2.703 3.770 1.532 2393
2.803 3.909 1.569 3661
2.719 3.792 1.526 1605
2.832 3.949 1.569 3779
2.748 3.832 1.526 1812
2.808 3.916 1.541 3537
2.892 4.033 1.584 1452
2.845 3.968 1.545 4711
2.757 3.845 1.501 2493
2.834 3.953 1.525 5658
2.936 4.095 1.575 1970
2.837 3.956 1.511 3788
2.948 4.111 1.565 3185
2.955 4.121 1.552 3240
2.848 3.972 1.501 1979
2.948 4.112 1.533 2908
2.864 3.994 1.493 1611
2.959 4.127 1.523 3614
3.044 4.245 1.563 1741
2.979 4.155 1.517 4976
3.064 4.273 1.556 1887
2.982 4.159 1.502 2963
3.080 4.295 1.547 2799
3.100 4.323 1.540 2827
3.011 4.199 1.499 2286
3.102 4.327 1.525 3355
3.018 4.209 1.486 2489
3.154 4.398 1.531 4573
3.047 4.249 1.483 1381
3.156 4.402 1.516 5710
3.241 4.520 1.553 1413
3.163 4.411 1.502 5716
3.248 4.530 1.539 1868
3.165 4.414 1.486 4652
3.250 4.533 1.523 3082
3.253 4.536 1.507 3498
3.342 4.661 1.545 2176
3.345 4.665 1.528 3963
3.255 4.540 1.490 2584
3.351 4.674 1.513 5008
3.266 4.555 1.478 1601
3.358 4.684 1.498 5032
3.466 4.834 1.542 3040
3.473 4.843 1.527 3386
3.370 4.699 1.485 3354
3.480 4.853 1.512 3333
3.394 4.734 1.478 2310
3.477 4.850 1.493 3064
3.392 4.731 1.459 1228
3.498 4.878 1.482 2498
3.669 5.117 1.549 1326
3.500 4.881 1.465 3406
3.626 5.057 1.513 1534
3.502 4.884 1.447 3619
3.646 5.086 1.502 1768
3.504 4.888 1.430 2824
3.658 5.101 1.487 2383
3.656 5.098 1.467 2538
3.511 4.897 1.414 1769
3.730 5.202 1.475 2385
3.644 5.082 1.444 1636
3.954 5.514 1.536 2522
3.705 5.167 1.447 2143
3.960 5.523 1.517 3635
3.707 5.170 1.429 1927
3.963 5.527 1.498 3284
4.049 5.647 1.527 1714
4.047 5.644 1.506 2525
3.961 5.524 1.477 1804
4.049 5.647 1.486 2420
4.221 5.887 1.543 1564
4.232 5.903 1.525 2697
4.069 5.675 1.472 2073
4.239 5.912 1.506 2521
4.076 5.685 1.453 2073
4.246 5.922 1.486 2161
4.078 5.688 1.432 1412
4.239 5.912 1.462 2998
4.153 5.792 1.435 1438
4.241 5.915 1.441 3484
4.119 5.744 1.403 1528
4.248 5.925 1.421 2380
4.135 5.766 1.387 1322
4.500 6.276 1.475 1282
4.259 5.940 1.403 1236
4.512 6.292 1.455 1332
4.343 6.058 1.406 1095
4.518 6.302 1.434 1079
4.209 5.870 1.302 1391
4.673 6.517 1.431 1025
4.206 5.866 1.279 1420
4.680 6.527 1.409 1118
4.905 6.841 1.446 1223
4.222 5.888 1.262 1004
4.907 6.844 1.421 1497
4.910 6.847 1.397 1347
5.393 7.522 1.521 1182
5.505 7.678 1.522 2500
5.396 7.525 1.494 1488
5.503 7.675 1.494 4602
5.302 7.394 1.444 2002
5.505 7.678 1.466 5789
5.304 7.397 1.417 2521
5.507 7.681 1.439 7173
5.384 7.509 1.409 2565
5.510 7.684 1.411 8542
5.382 7.505 1.382 2200
5.516 7.693 1.385 10732
5.301 7.393 1.336 1903
5.518 7.696 1.357 12307
5.418 7.556 1.335 2327
5.520 7.699 1.330 11701
5.415 7.552 1.307 1883
5.522 7.702 1.302 11841
5.426 7.568 1.282 1288
5.520 7.698 1.274 10503
5.433 7.577 1.256 1090
5.526 7.707 1.247 7731
5.528 7.710 1.220 5830
5.530 7.712 1.192 3920
5.532 7.715 1.165 1965
5.533 7.717 1.137 1246
1.332 1.845 1.731 2856
1.335 1.849 1.725 5713
1.338 1.853 1.718 5713
1.341 1.856 1.712 6558
1.413 1.956 1.798 1132
1.339 1.855 1.701 7477
1.412 1.955 1.787 1934
1.342 1.858 1.694 8282
1.414 1.959 1.780 3090
1.345 1.862 1.687 9087
1.417 1.962 1.773 4246
1.347 1.866 1.681 9087
1.420 1.966 1.766 4246
1.354 1.875 1.679 7794
1.427 1.975 1.764 3423
1.387 1.921 1.708 9197
1.394 1.930 1.705 7371
1.427 1.976 1.734 7178
1.354 1.875 1.650 2080
1.434 1.985 1.731 8181
1.360 1.884 1.648 1882
1.440 1.994 1.729 9742
1.367 1.893 1.646 1899
1.447 2.004 1.726 8143
1.373 1.902 1.643 1712
1.450 2.007 1.719 6397
1.376 1.905 1.637 1086
1.452 2.011 1.712 6175
1.459 2.020 1.709 4851
1.465 2.029 1.706 3869
1.472 2.038 1.703 5472
1.483 2.053 1.705 7590
1.485 2.057 1.697 7523
1.488 2.060 1.690 7457
1.506 2.086 1.700 6878
1.521 2.106 1.705 9441
1.527 2.115 1.701 10662
1.534 2.124 1.698 12850
1.537 2.128 1.691 13739
1.539 2.132 1.683 14628
1.538 2.130 1.671 13388
1.541 2.133 1.664 12250
1.547 2.142 1.660 10121
1.566 2.168 1.669 9962
1.568 2.172 1.661 10904
1.575 2.181 1.657 9387
1.655 2.292 1.737 1190
1.578 2.185 1.650 7108
1.662 2.301 1.732 1957
1.580 2.188 1.642 4989
1.665 2.305 1.724 3062
1.667 2.309 1.716 3380
1.575 2.180 1.627 2961
1.670 2.313 1.708 4063
1.581 2.190 1.623 3097
1.673 2.316 1.700 4746
1.584 2.193 1.615 3242
1.676 2.320 1.692 6586
1.590 2.202 1.611 2877
1.674 2.318 1.680 8430
1.593 2.206 1.603 1829
1.677 2.322 1.671 10450
1.599 2.215 1.599 1156
1.675 2.320 1.659 14954
1.674 2.318 1.647 17311
1.680 2.327 1.643 19757
1.683 2.330 1.635 21481
1.694 2.345 1.634 19489
1.700 2.355 1.629 16579
1.778 2.463 1.699 1773
1.703 2.358 1.621 14579
1.781 2.466 1.690 2446
1.705 2.362 1.613 16250
1.784 2.470 1.682 4446
1.708 2.365 1.604 13934
1.786 2.474 1.673 7546
1.706 2.363 1.592 10039
1.785 2.472 1.661 9242
1.713 2.372 1.588 9795
1.792 2.481 1.655 8013
1.720 2.381 1.583 8750
1.798 2.490 1.650 7651
1.813 2.511 1.652 8803
1.722 2.385 1.574 7813
1.820 2.520 1.646 8311
1.724 2.388 1.566 5318
1.827 2.530 1.641 8062
1.727 2.391 1.557 2097
1.834 2.539 1.636 8185
1.913 2.649 1.701 2069
1.836 2.542 1.627 6350
1.915 2.652 1.692 3460
1.918 2.656 1.683 5274
1.839 2.546 1.618 4168
1.904 2.636 1.660 6086
1.824 2.526 1.595 2055
1.907 2.640 1.650 6543
1.986 2.750 1.714 2306
1.938 2.684 1.664 6383
1.859 2.574 1.601 4197
1.945 2.694 1.658 7070
1.865 2.583 1.595 2482
1.948 2.697 1.649 6931
2.028 2.808 1.712 1468
1.950 2.701 1.639 6137
2.035 2.817 1.705 2811
2.033 2.815 1.692 5930
1.953 2.704 1.630 5507
2.036 2.819 1.682 6914
1.956 2.708 1.620 4780
2.043 2.829 1.675 6153
1.962 2.717 1.614 3999
2.050 2.838 1.668 5390
1.969 2.727 1.607 3685
2.056 2.847 1.661 4107
1.976 2.736 1.601 2647
2.055 2.845 1.648 5695
1.974 2.733 1.588 1385
2.057 2.849 1.638 9332
2.064 2.858 1.631 10648
2.067 2.862 1.621 8870
2.148 2.974 1.680 1807
2.073 2.871 1.614 5886
2.155 2.983 1.672 2714
2.119 2.934 1.634 6412
2.200 3.046 1.692 1181
2.100 2.908 1.609 5675
2.185 3.026 1.670 2296
2.094 2.899 1.592 3416
2.188 3.030 1.659 3076
2.182 3.021 1.642 3805
2.096 2.903 1.582 1936
2.180 3.019 1.628 3799
2.099 2.906 1.572 1041
2.157 2.987 1.600 4141
2.239 3.100 1.656 2590
2.160 2.990 1.589 4457
2.241 3.104 1.645 2891
2.227 3.083 1.622 5560
2.145 2.970 1.567 2551
2.233 3.093 1.614 10114
2.152 2.979 1.559 1637
2.236 3.096 1.603 9324
2.318 3.210 1.658 1556
2.251 3.118 1.601 6773
2.169 3.004 1.547 1334
2.258 3.127 1.593 5505
2.341 3.241 1.646 1447
2.261 3.131 1.582 4020
2.343 3.245 1.635 1702
2.272 3.146 1.576 4421
2.367 3.278 1.637 2498
2.326 3.221 1.598 5411
2.244 3.107 1.545 1651
2.329 3.225 1.586 6651
2.246 3.111 1.534 1581
2.327 3.222 1.572 4597
2.410 3.337 1.624 3898
2.404 3.328 1.607 6392
2.321 3.214 1.555 2719
2.406 3.332 1.595 7634
2.323 3.217 1.544 1905
2.409 3.335 1.583 6062
2.492 3.450 1.633 2435
2.463 3.411 1.603 5620
2.376 3.290 1.550 3659
2.448 3.390 1.580 4121
2.365 3.275 1.531 2361
2.512 3.479 1.604 2993
2.429 3.363 1.555 1928
2.480 3.434 1.571 3792
2.563 3.549 1.620 1982
2.482 3.437 1.559 3653
2.565 3.552 1.608 2264
2.484 3.440 1.547 2624
2.586 3.580 1.605 2338
2.592 3.590 1.595 2758
2.500 3.462 1.542 2411
2.507 3.471 1.532 2870
2.591 3.587 1.580 1980
2.558 3.542 1.547 3186
2.641 3.658 1.594 1508
2.604 3.606 1.559 4143
2.520 3.490 1.513 1220
2.602 3.603 1.544 3940
2.686 3.719 1.590 2314
2.666 3.692 1.564 6711
2.583 3.576 1.519 2477
2.664 3.690 1.549 7643
2.748 3.806 1.594 1775
2.671 3.699 1.538 4621
2.755 3.815 1.583 1837
2.718 3.764 1.548 3608
2.802 3.880 1.592 2013
2.800 3.877 1.576 3444
2.716 3.761 1.532 2590
2.812 3.893 1.567 4161
2.692 3.727 1.505 1837
2.823 3.909 1.558 3518
2.698 3.737 1.494 1524
2.870 3.974 1.566 3413
2.767 3.832 1.515 2988
2.877 3.983 1.554 3926
2.770 3.835 1.501 2672
2.843 3.937 1.522 4746
2.950 4.085 1.575 2152
2.966 4.107 1.567 3216
2.850 3.947 1.511 3144
2.968 4.111 1.552 3760
2.861 3.962 1.501 1645
2.971 4.114 1.538 3960
3.056 4.231 1.578 1310
2.973 4.117 1.523 3897
3.058 4.235 1.563 1323
2.994 4.145 1.517 4218
3.101 4.294 1.567 2098
3.000 4.155 1.504 3230
3.103 4.297 1.551 2786
3.115 4.313 1.540 2298
3.016 4.176 1.495 2045
3.121 4.322 1.527 3338
3.027 4.192 1.484 1698
3.169 4.388 1.531 3755
3.083 4.270 1.493 1367
3.180 4.403 1.519 5065
3.178 4.401 1.502 4599
3.317 4.593 1.562 2123
3.293 4.559 1.534 3831
3.176 4.397 1.484 3548
3.295 4.563 1.518 3411
3.196 4.426 1.476 1736
3.360 4.653 1.528 4140
3.270 4.528 1.490 2472
3.367 4.663 1.513 4772
3.282 4.544 1.478 1785
3.374 4.672 1.498 4336
3.482 4.822 1.542 2749
3.494 4.838 1.529 2865
3.381 4.682 1.484 2599
3.496 4.841 1.512 2680
3.410 4.722 1.478 1972
3.494 4.838 1.493 2804
3.408 4.719 1.459 1083
3.505 4.854 1.479 2518
3.713 5.142 1.559 1188
3.517 4.869 1.465 3037
3.720 5.151 1.542 1657
3.514 4.866 1.446 2573
3.727 5.161 1.526 1642
3.729 5.164 1.507 1971
3.516 4.869 1.428 1826
3.741 5.180 1.492 2679
3.655 5.061 1.461 1878
3.748 5.189 1.475 2875
3.961 5.485 1.552 1615
3.968 5.494 1.534 2649
3.732 5.167 1.450 2183
3.975 5.504 1.516 3818
3.734 5.170 1.432 2090
3.982 5.513 1.498 3379
4.068 5.633 1.527 1839
4.061 5.623 1.504 2657
3.975 5.504 1.475 1563
4.073 5.639 1.487 2643
4.241 5.872 1.543 1524
4.088 5.661 1.472 2618
4.248 5.882 1.524 2600
4.259 5.898 1.506 2335
4.095 5.671 1.453 2277
4.266 5.907 1.486 1971
4.093 5.668 1.431 1262
4.264 5.904 1.464 2923
4.177 5.784 1.436 1403
4.261 5.901 1.441 3597
4.143 5.737 1.405 1193
4.268 5.910 1.421 2605
4.159 5.759 1.388 1155
4.275 5.920 1.402 1316
4.231 5.859 1.324 1062
4.224 5.849 1.300 1652
4.226 5.852 1.279 1691
4.237 5.867 1.261 1101
4.931 6.828 1.421 1031
5.419 7.503 1.521 1235
5.529 7.656 1.550 1032
5.531 7.659 1.522 2229
5.421 7.507 1.494 1616
5.529 7.656 1.494 4010
5.327 7.376 1.444 1971
5.531 7.659 1.466 4890
5.329 7.379 1.417 2591
5.533 7.662 1.439 6088
5.414 7.497 1.411 2534
5.536 7.665 1.411 7384
5.320 7.366 1.361 2211
5.542 7.674 1.385 9487
5.326 7.375 1.336 2051
5.544 7.677 1.357 11096
5.443 7.537 1.335 2312
5.546 7.680 1.330 10898
5.441 7.534 1.307 1895
5.548 7.683 1.302 11286
5.447 7.543 1.281 1300
5.546 7.679 1.274 9857
5.458 7.558 1.256 1008
5.552 7.688 1.247 6961
5.554 7.691 1.220 4994
5.556 7.694 1.192 3398
5.558 7.696 1.165 1723
5.564 7.705 1.138 1067
1.323 1.820 1.713 2614
1.326 1.824 1.706 5228
1.328 1.828 1.700 5228
1.400 1.927 1.787 1089
1.346 1.852 1.712 6324
1.418 1.952 1.798 1146
1.345 1.851 1.701 7511
1.417 1.950 1.787 1996
1.348 1.854 1.694 8465
1.420 1.954 1.780 3208
1.350 1.858 1.687 9419
1.423 1.958 1.773 4420
1.353 1.862 1.681 9419
1.426 1.962 1.766 4420
1.359 1.871 1.679 8054
1.433 1.971 1.764 3523
1.397 1.922 1.712 8974
1.403 1.931 1.710 7225
1.433 1.972 1.734 7702
1.360 1.871 1.650 2627
1.444 1.986 1.736 8774
1.370 1.885 1.652 2548
1.450 1.995 1.733 10399
1.376 1.894 1.650 2512
1.453 1.999 1.726 8552
1.379 1.897 1.643 1836
1.460 2.008 1.723 6580
1.385 1.906 1.641 1181
1.462 2.012 1.716 6364
1.465 2.016 1.709 5425
1.468 2.019 1.702 4509
1.474 2.029 1.699 6100
1.485 2.043 1.700 8208
1.491 2.052 1.697 8138
1.494 2.056 1.690 8158
1.505 2.070 1.691 6737
1.527 2.101 1.705 8086
1.538 2.116 1.706 9331
1.544 2.125 1.702 11858
1.543 2.123 1.691 12486
1.546 2.127 1.683 13322
1.544 2.125 1.671 12110
1.543 2.123 1.660 11325
1.550 2.132 1.656 9314
1.626 2.237 1.733 1203
1.572 2.163 1.669 9945
1.575 2.167 1.661 10628
1.582 2.176 1.657 9287
1.584 2.180 1.650 7113
1.669 2.296 1.732 1471
1.587 2.183 1.642 5410
1.672 2.300 1.724 2483
1.585 2.181 1.630 3802
1.678 2.310 1.720 2921
1.592 2.190 1.627 3947
1.677 2.308 1.708 3801
1.676 2.306 1.696 4722
1.594 2.194 1.619 4095
1.678 2.309 1.688 6771
1.597 2.197 1.611 3401
1.681 2.313 1.680 8819
1.604 2.206 1.607 1918
1.684 2.317 1.671 10682
1.606 2.210 1.599 1189
1.682 2.315 1.659 14566
1.685 2.318 1.651 16463
1.763 2.425 1.723 1087
1.687 2.322 1.643 18051
1.765 2.429 1.714 1178
1.690 2.325 1.635 18980
1.768 2.433 1.705 1269
1.697 2.335 1.630 17113
1.775 2.442 1.700 1059
1.703 2.344 1.626 14004
1.782 2.452 1.695 1412
1.710 2.353 1.621 11580
1.789 2.461 1.690 1617
1.713 2.356 1.613 13199
1.791 2.465 1.682 3501
1.711 2.354 1.601 11212
1.790 2.463 1.669 7153
1.792 2.466 1.661 8703
1.713 2.358 1.592 7932
1.791 2.464 1.648 8180
1.712 2.355 1.580 7609
1.806 2.485 1.650 7452
1.727 2.376 1.583 7269
1.821 2.505 1.652 8688
1.725 2.374 1.571 6474
1.828 2.515 1.646 8174
1.732 2.383 1.566 4227
1.834 2.524 1.641 7474
1.914 2.633 1.707 2321
1.841 2.533 1.636 7278
1.921 2.643 1.701 2185
1.840 2.531 1.623 6088
1.923 2.646 1.692 3579
1.926 2.650 1.683 5312
1.846 2.540 1.618 4217
1.916 2.636 1.663 5803
1.836 2.527 1.598 2707
1.914 2.634 1.650 6145
1.994 2.744 1.714 2028
1.888 2.597 1.617 6951
1.968 2.707 1.681 4479
1.953 2.688 1.658 7087
1.873 2.577 1.595 2567
1.956 2.691 1.649 7241
1.876 2.581 1.586 1430
1.959 2.695 1.639 6111
2.047 2.817 1.708 2568
2.037 2.803 1.689 5960
1.957 2.693 1.626 5239
2.040 2.807 1.679 7192
1.959 2.696 1.617 4715
2.047 2.816 1.672 6414
1.966 2.705 1.610 3941
2.054 2.826 1.665 5263
1.973 2.715 1.604 3629
2.065 2.841 1.661 4030
1.984 2.730 1.601 2665
2.063 2.839 1.648 5911
1.982 2.727 1.588 1277
2.066 2.843 1.638 9365
2.068 2.846 1.628 10559
2.150 2.958 1.687 1345
2.075 2.855 1.621 9020
2.157 2.967 1.680 2019
2.082 2.865 1.614 5751
2.164 2.977 1.672 2741
2.128 2.927 1.634 6826
2.209 3.040 1.692 1122
2.139 2.943 1.630 5840
2.220 3.055 1.688 1548
2.107 2.899 1.595 3340
2.193 3.017 1.656 3266
2.191 3.015 1.642 4231
2.109 2.902 1.585 2418
2.194 3.018 1.631 4195
2.112 2.906 1.575 1558
2.192 3.016 1.618 3851
2.190 3.014 1.604 4267
2.272 3.127 1.660 2063
2.193 3.017 1.593 5054
2.275 3.130 1.649 2790
2.247 3.092 1.617 8360
2.165 2.979 1.562 2009
2.250 3.095 1.606 8592
2.332 3.209 1.661 1301
2.261 3.111 1.601 7770
2.178 2.997 1.547 1269
2.268 3.120 1.593 6291
2.350 3.234 1.646 1265
2.270 3.124 1.582 3902
2.353 3.237 1.635 1535
2.281 3.139 1.576 3671
2.373 3.265 1.634 2464
2.341 3.220 1.601 5126
2.258 3.106 1.548 2032
2.339 3.218 1.586 6772
2.256 3.104 1.534 1757
2.337 3.215 1.572 5390
2.420 3.330 1.624 2762
2.414 3.321 1.607 5424
2.330 3.207 1.555 2897
2.412 3.318 1.592 7529
2.328 3.204 1.541 1637
2.419 3.328 1.583 6270
2.502 3.443 1.633 3085
2.478 3.410 1.605 6488
2.386 3.283 1.550 3646
2.454 3.377 1.578 4579
2.371 3.262 1.528 2054
2.457 3.380 1.566 2795
2.540 3.495 1.615 2220
2.481 3.414 1.566 3064
2.565 3.529 1.615 2491
2.492 3.429 1.559 3019
2.576 3.545 1.608 2304
2.499 3.439 1.550 2927
2.592 3.566 1.603 2406
2.506 3.448 1.540 2651
2.608 3.588 1.597 2615
2.508 3.452 1.528 2614
2.606 3.585 1.582 1904
2.608 3.589 1.569 2884
2.515 3.461 1.518 2142
2.615 3.598 1.559 4635
2.531 3.482 1.513 1451
2.617 3.602 1.546 4271
2.702 3.717 1.592 2209
2.678 3.684 1.564 6467
2.593 3.568 1.519 2778
2.676 3.681 1.549 7272
2.760 3.798 1.594 1982
2.678 3.685 1.536 4477
2.762 3.801 1.580 1907
2.725 3.749 1.546 3705
2.809 3.866 1.590 1991
2.812 3.869 1.576 3485
2.727 3.753 1.532 2785
2.823 3.885 1.567 4229
2.707 3.725 1.508 2122
2.826 3.888 1.553 3730
2.714 3.735 1.497 1558
2.882 3.965 1.566 3265
2.783 3.830 1.517 3143
2.889 3.975 1.554 3478
2.786 3.833 1.503 2922
2.855 3.929 1.522 4121
2.963 4.076 1.575 2282
2.978 4.098 1.567 3287
2.871 3.950 1.515 2808
2.981 4.102 1.552 3938
2.896 3.984 1.511 1774
2.983 4.105 1.538 4911
3.068 4.222 1.578 1263
2.986 4.108 1.523 4075
3.071 4.225 1.563 1310
3.010 4.142 1.519 3228
3.114 4.284 1.567 2246
3.013 4.146 1.504 3434
3.116 4.288 1.551 2361
3.020 4.155 1.491 2065
3.146 4.328 1.548 2019
3.135 4.313 1.527 3237
3.044 4.189 1.486 1424
3.191 4.391 1.535 3535
3.105 4.273 1.497 1713
3.198 4.400 1.521 5217
3.196 4.397 1.504 4500
3.317 4.565 1.556 2434
3.311 4.556 1.536 4366
3.189 4.388 1.484 3176
3.313 4.559 1.520 3965
3.209 4.416 1.476 1746
3.374 4.643 1.528 3940
3.288 4.525 1.492 2493
3.381 4.653 1.513 4417
3.295 4.534 1.478 1844
3.388 4.662 1.498 3636
3.497 4.811 1.542 2212
3.504 4.821 1.527 2629
3.390 4.665 1.482 2019
3.520 4.843 1.515 2222
3.434 4.724 1.481 1731
3.499 4.815 1.489 2373
3.400 4.678 1.450 1127
3.515 4.837 1.477 2312
3.670 5.049 1.536 1299
3.536 4.865 1.467 2299
3.740 5.146 1.544 1707
3.543 4.874 1.451 1816
3.738 5.143 1.524 1711
3.745 5.153 1.507 2185
3.517 4.840 1.423 1221
3.756 5.169 1.492 3418
3.670 5.050 1.461 1756
3.763 5.178 1.475 3409
3.977 5.473 1.552 1592
3.984 5.482 1.534 2600
3.752 5.162 1.452 2307
3.991 5.492 1.516 3661
3.754 5.165 1.433 2107
3.994 5.495 1.496 3245
4.080 5.614 1.526 2077
4.078 5.611 1.504 2619
3.991 5.492 1.475 1441
4.089 5.627 1.487 2841
4.254 5.853 1.542 1397
4.105 5.649 1.472 3088
4.265 5.869 1.524 2238
4.112 5.658 1.453 2445
4.272 5.879 1.504 1975
4.284 5.894 1.486 1606
4.110 5.655 1.431 1196
4.282 5.891 1.464 2549
4.195 5.772 1.436 1168
4.279 5.888 1.441 3279
4.192 5.768 1.414 1060
4.286 5.897 1.421 2332
4.171 5.740 1.387 1013
4.293 5.907 1.402 1139
4.208 5.790 1.355 1199
4.210 5.793 1.334 1178
4.235 5.827 1.320 1026
4.241 5.836 1.300 1673
4.243 5.839 1.279 1725
4.250 5.848 1.260 1030
5.441 7.487 1.521 1175
5.554 7.642 1.522 1635
5.439 7.484 1.493 1632
5.552 7.639 1.494 2973
5.349 7.360 1.444 1790
5.554 7.642 1.466 3519
5.347 7.357 1.416 2451
5.556 7.645 1.439 4406
5.344 7.354 1.389 2355
5.559 7.648 1.411 5507
5.342 7.350 1.361 2122
5.565 7.658 1.385 7443
5.344 7.353 1.335 1895
5.567 7.661 1.357 9133
5.466 7.521 1.335 2105
5.570 7.664 1.330 9176
5.468 7.524 1.308 1776
5.572 7.666 1.302 9592
5.470 7.526 1.281 1359
5.574 7.669 1.275 8395
5.486 7.548 1.257 1047
5.575 7.672 1.247 5817
5.577 7.674 1.220 3974
5.579 7.677 1.192 2659
5.581 7.679 1.165 1434
1.325 1.811 1.708 2505
1.328 1.814 1.702 5011
1.400 1.913 1.789 1191
1.331 1.818 1.695 5011
1.403 1.917 1.782 1217
1.352 1.848 1.712 5812
1.425 1.947 1.798 1221
1.355 1.851 1.705 7257
1.428 1.951 1.791 1763
1.354 1.850 1.694 8296
1.427 1.949 1.780 3543
1.357 1.853 1.687 9390
1.430 1.953 1.773 4891
1.359 1.857 1.681 9390
1.433 1.957 1.766 4891
1.366 1.866 1.679 8000
1.439 1.966 1.764 3806
1.403 1.917 1.712 8560
1.410 1.926 1.710 6982
1.440 1.967 1.734 8286
1.366 1.866 1.650 3053
1.450 1.981 1.736 9512
1.376 1.880 1.652 2777
1.457 1.990 1.733 11316
1.383 1.889 1.650 2580
1.460 1.994 1.726 9262
1.385 1.893 1.643 1906
1.466 2.003 1.723 7265
1.392 1.902 1.641 1244
1.469 2.007 1.716 7133
1.472 2.011 1.709 6294
1.474 2.014 1.702 5388
1.481 2.024 1.699 6978
1.488 2.033 1.696 8988
1.494 2.042 1.693 8885
1.501 2.051 1.690 9078
1.508 2.060 1.687 7240
1.530 2.091 1.701 7192
1.545 2.111 1.706 8333
1.552 2.120 1.702 10999
1.554 2.123 1.695 11496
1.553 2.122 1.683 12189
1.548 2.114 1.667 10784
1.546 2.112 1.656 10134
1.623 2.217 1.733 1364
1.557 2.127 1.656 8268
1.633 2.232 1.733 1459
1.584 2.164 1.673 9233
1.586 2.167 1.665 9824
1.593 2.176 1.661 8652
1.592 2.174 1.650 6669
1.677 2.291 1.732 1030
1.594 2.178 1.642 5575
1.684 2.300 1.728 1929
1.597 2.181 1.634 4656
1.686 2.304 1.720 2525
1.603 2.191 1.630 4829
1.685 2.302 1.708 3619
1.606 2.194 1.623 5070
1.684 2.300 1.696 4851
1.686 2.304 1.688 6852
1.609 2.198 1.615 3987
1.689 2.307 1.680 8854
1.611 2.201 1.607 2098
1.692 2.311 1.671 10457
1.614 2.204 1.599 1291
1.690 2.309 1.659 13781
1.768 2.416 1.731 1171
1.693 2.313 1.651 15449
1.771 2.419 1.723 1477
1.695 2.316 1.643 16194
1.774 2.423 1.714 1761
1.698 2.320 1.635 16395
1.776 2.427 1.705 2045
1.705 2.329 1.630 14573
1.783 2.436 1.700 1705
1.711 2.338 1.626 11198
1.790 2.446 1.695 2261
1.714 2.341 1.617 8625
1.793 2.449 1.687 2966
1.716 2.345 1.609 9920
1.795 2.453 1.678 3863
1.715 2.343 1.597 8482
1.798 2.456 1.669 6396
1.801 2.460 1.661 8031
1.717 2.346 1.589 6109
1.762 2.407 1.616 8004
1.849 2.526 1.691 4339
1.818 2.484 1.654 7311
1.739 2.376 1.586 5756
1.829 2.499 1.652 8156
1.733 2.368 1.571 4927
1.836 2.509 1.646 7553
1.757 2.400 1.580 3314
1.843 2.518 1.641 6748
1.923 2.627 1.707 2824
1.846 2.521 1.632 6487
1.925 2.631 1.698 2765
1.848 2.525 1.623 6213
1.932 2.640 1.692 4053
1.935 2.644 1.683 5866
1.855 2.534 1.618 4669
1.933 2.641 1.670 6258
1.853 2.532 1.605 3255
1.898 2.593 1.630 6683
1.978 2.703 1.694 2866
1.901 2.597 1.621 7922
1.981 2.706 1.685 4417
1.962 2.681 1.658 7238
1.882 2.571 1.595 2530
1.965 2.685 1.649 7885
1.884 2.575 1.586 1457
1.968 2.688 1.639 6237
2.057 2.810 1.708 2176
2.038 2.785 1.682 5754
1.957 2.674 1.620 4546
2.050 2.800 1.679 7001
1.969 2.689 1.617 4946
2.056 2.810 1.672 6234
1.975 2.699 1.610 4402
2.063 2.819 1.665 4838
1.982 2.708 1.604 3853
2.075 2.834 1.661 3810
1.993 2.723 1.601 2713
2.073 2.832 1.648 5678
1.991 2.721 1.588 1309
2.075 2.836 1.638 8789
2.078 2.839 1.628 9978
2.160 2.951 1.687 1554
2.085 2.848 1.621 8751
2.167 2.960 1.680 2202
2.139 2.923 1.648 6489
2.057 2.811 1.589 1652
2.137 2.920 1.634 7241
2.144 2.930 1.627 6201
2.226 3.042 1.685 1492
2.203 3.010 1.656 3566
2.121 2.898 1.598 3494
2.201 3.007 1.642 4558
2.119 2.895 1.585 3087
2.204 3.011 1.631 4446
2.122 2.899 1.575 1899
2.206 3.015 1.621 3705
2.124 2.902 1.564 1159
2.200 3.006 1.604 3862
2.283 3.119 1.660 1933
2.203 3.010 1.593 4823
2.285 3.122 1.649 2721
2.262 3.090 1.620 6607
2.179 2.977 1.565 2146
2.264 3.094 1.609 7818
2.347 3.207 1.664 1072
2.263 3.091 1.595 8383
2.346 3.204 1.649 1362
2.278 3.113 1.593 6492
2.361 3.226 1.646 1012
2.281 3.116 1.582 3485
2.364 3.229 1.635 1358
2.331 3.185 1.601 3180
2.248 3.072 1.548 1833
2.351 3.213 1.601 4573
2.268 3.099 1.548 1954
2.350 3.210 1.586 6419
2.266 3.096 1.534 1795
2.348 3.207 1.572 5691
2.431 3.321 1.624 1592
2.420 3.307 1.604 4357
2.337 3.193 1.553 2799
2.423 3.310 1.592 6965
2.507 3.424 1.643 1834
2.430 3.320 1.583 5672
2.514 3.434 1.633 3902
2.494 3.407 1.608 7169
2.401 3.281 1.553 3035
2.501 3.417 1.598 4607
2.404 3.284 1.541 2127
2.459 3.360 1.560 2762
2.543 3.475 1.610 2165
2.555 3.490 1.602 2840
2.471 3.375 1.554 2141
2.570 3.512 1.597 2908
2.486 3.397 1.549 2130
2.511 3.430 1.550 3211
2.600 3.552 1.600 2639
2.509 3.428 1.535 3006
2.611 3.567 1.592 2611
2.516 3.437 1.525 2586
2.627 3.589 1.587 2123
2.620 3.580 1.569 3258
2.523 3.446 1.515 1651
2.627 3.589 1.559 4689
2.543 3.474 1.513 1497
2.630 3.593 1.546 4253
2.714 3.708 1.592 2443
2.690 3.675 1.564 5871
2.605 3.559 1.519 3012
2.684 3.666 1.546 6484
2.773 3.788 1.594 1745
2.677 3.657 1.529 4107
2.762 3.773 1.573 2069
2.738 3.740 1.546 3512
2.822 3.856 1.590 1935
2.825 3.859 1.576 3467
2.735 3.737 1.530 2792
2.836 3.875 1.567 4273
2.720 3.716 1.508 2052
2.839 3.878 1.553 3946
2.754 3.762 1.510 1356
2.801 3.827 1.519 3511
2.895 3.955 1.566 3139
2.803 3.830 1.505 3136
2.907 3.971 1.556 2978
2.869 3.919 1.522 3093
2.972 4.060 1.573 2274
2.983 4.076 1.563 3464
2.898 3.959 1.521 3321
2.995 4.091 1.552 3959
2.905 3.968 1.509 2367
2.997 4.095 1.538 5287
3.083 4.212 1.578 1085
2.995 4.092 1.521 4000
3.081 4.209 1.561 1348
3.034 4.144 1.523 2708
3.128 4.274 1.567 2077
3.031 4.142 1.506 3091
3.117 4.259 1.545 1851
3.165 4.324 1.550 2405
3.034 4.145 1.491 1986
3.154 4.309 1.529 3109
3.063 4.185 1.488 1956
3.210 4.386 1.537 3465
3.124 4.268 1.499 1954
3.213 4.389 1.521 5073
3.317 4.532 1.567 1006
3.220 4.399 1.508 4404
3.324 4.541 1.552 3042
3.322 4.538 1.534 4748
3.213 4.389 1.488 2734
3.324 4.541 1.518 4394
3.220 4.399 1.474 1635
3.331 4.551 1.504 3957
3.417 4.669 1.539 1953
3.397 4.641 1.513 3799
3.311 4.523 1.478 2141
3.408 4.657 1.500 2938
3.518 4.806 1.544 1735
3.515 4.803 1.525 2678
3.388 4.629 1.475 1837
3.513 4.800 1.506 2359
3.399 4.644 1.461 1260
3.543 4.840 1.500 2035
3.648 4.984 1.540 1416
3.532 4.825 1.477 2421
3.641 4.975 1.519 1680
3.557 4.859 1.468 2195
3.689 5.040 1.518 1914
3.568 4.875 1.454 2194
3.691 5.043 1.500 1965
3.767 5.146 1.509 2478
3.680 5.028 1.477 1630
3.778 5.162 1.494 4087
3.682 5.031 1.459 1729
3.781 5.165 1.475 3565
3.689 5.040 1.443 1670
3.998 5.462 1.532 2452
3.774 5.156 1.453 1935
4.005 5.472 1.514 3642
3.772 5.153 1.433 1687
4.008 5.475 1.495 2983
4.095 5.594 1.524 1981
4.097 5.597 1.504 2424
4.001 5.466 1.472 1088
4.113 5.619 1.489 2904
4.274 5.839 1.542 1210
4.125 5.635 1.472 3196
4.281 5.848 1.522 1703
4.127 5.638 1.451 2561
4.292 5.864 1.504 1424
4.125 5.635 1.430 1384
4.299 5.874 1.485 1105
4.297 5.870 1.462 1890
4.099 5.600 1.401 1006
4.299 5.874 1.441 2459
4.212 5.754 1.414 1209
4.306 5.883 1.421 1702
4.230 5.779 1.377 1013
4.227 5.776 1.355 1565
4.225 5.772 1.333 1467
4.261 5.822 1.300 1444
4.263 5.824 1.279 1504
5.462 7.462 1.520 1028
5.464 7.465 1.493 1491
5.575 7.617 1.521 1011
5.578 7.620 1.494 1841
5.462 7.462 1.465 1566
5.575 7.617 1.465 2137
5.372 7.339 1.416 1866
5.578 7.620 1.438 2672
5.462 7.462 1.411 1993
5.584 7.630 1.411 3428
5.362 7.326 1.360 1735
5.587 7.633 1.384 4923
5.369 7.335 1.335 1454
5.593 7.642 1.357 6482
5.496 7.509 1.336 1768
5.595 7.645 1.330 6904
5.493 7.505 1.308 1365
5.598 7.647 1.302 7241
5.495 7.508 1.281 1118
5.599 7.650 1.275 6074
5.601 7.653 1.247 3957
5.603 7.655 1.220 2600
5.605 7.658 1.192 1729
1.328 1.801 1.703 2548
1.330 1.804 1.697 5097
1.403 1.903 1.784 1531
1.333 1.808 1.691 5097
1.406 1.907 1.778 1531
1.362 1.848 1.716 5306
1.435 1.947 1.803 1059
1.365 1.852 1.710 6877
1.438 1.951 1.796 1540
1.364 1.850 1.699 7858
1.437 1.950 1.784 3347
1.363 1.849 1.687 8949
1.436 1.948 1.773 5500
1.366 1.852 1.681 8949
1.439 1.952 1.766 5500
1.372 1.861 1.679 7573
1.446 1.961 1.764 4181
1.410 1.912 1.712 7964
1.440 1.953 1.736 7012
1.366 1.853 1.652 3928
1.446 1.962 1.734 8773
1.372 1.862 1.650 3201
1.457 1.976 1.736 10172
1.383 1.876 1.652 2862
1.464 1.986 1.733 12233
1.389 1.885 1.650 2561
1.470 1.995 1.730 10151
1.396 1.893 1.648 2140
1.477 2.004 1.728 8267
1.402 1.902 1.645 1283
1.480 2.007 1.721 8164
1.405 1.906 1.639 1057
1.479 2.006 1.709 7245
1.477 2.004 1.698 6312
1.484 2.013 1.695 7870
1.495 2.028 1.696 9842
1.501 2.037 1.693 9768
1.508 2.046 1.690 10066
1.515 2.055 1.687 7901
1.529 2.075 1.692 7027
1.556 2.111 1.710 7690
1.563 2.120 1.706 10532
1.561 2.118 1.695 11002
1.564 2.122 1.687 11695
1.559 2.115 1.671 9687
1.553 2.107 1.656 8889
1.630 2.211 1.733 1693
1.560 2.116 1.652 7078
1.637 2.221 1.729 2220
1.595 2.164 1.677 7990
1.602 2.173 1.673 8702
1.604 2.176 1.665 7908
1.599 2.169 1.650 5879
1.597 2.167 1.638 5480
1.691 2.294 1.728 1579
1.604 2.176 1.634 5328
1.698 2.304 1.724 2350
1.611 2.185 1.630 5575
1.697 2.302 1.712 3527
1.617 2.194 1.627 5907
1.695 2.300 1.700 4765
1.694 2.298 1.688 6516
1.616 2.192 1.615 4583
1.697 2.302 1.680 8311
1.618 2.196 1.607 2380
1.699 2.305 1.671 9627
1.621 2.199 1.599 1451
1.702 2.309 1.663 12575
1.780 2.415 1.735 1116
1.705 2.312 1.655 14207
1.783 2.419 1.726 1460
1.703 2.310 1.643 14405
1.782 2.417 1.714 2395
1.706 2.314 1.635 14185
1.785 2.421 1.705 2921
1.708 2.317 1.627 12293
1.787 2.425 1.697 2955
1.715 2.327 1.622 8766
1.794 2.434 1.692 3635
1.718 2.330 1.614 6350
1.797 2.437 1.683 4722
1.766 2.396 1.645 7360
1.687 2.288 1.576 2132
1.765 2.394 1.633 11082
1.844 2.501 1.702 3510
1.767 2.397 1.625 12028
1.847 2.505 1.693 4564
1.774 2.406 1.620 12351
1.858 2.520 1.691 5118
1.776 2.410 1.611 10481
1.860 2.524 1.682 5655
1.779 2.413 1.603 8264
1.859 2.522 1.670 5575
1.840 2.497 1.643 6535
1.760 2.388 1.576 3400
1.851 2.512 1.641 6285
1.932 2.620 1.707 3282
1.858 2.521 1.636 6534
1.939 2.630 1.701 3101
1.861 2.524 1.627 6689
1.941 2.633 1.692 4702
1.948 2.643 1.686 6839
1.863 2.528 1.618 5411
1.947 2.641 1.673 7355
1.866 2.531 1.609 3978
1.907 2.587 1.630 6981
1.996 2.708 1.701 3279
1.914 2.596 1.624 8482
1.994 2.706 1.688 5056
1.976 2.680 1.662 7369
1.895 2.570 1.598 3251
1.983 2.690 1.655 8434
1.902 2.580 1.592 2719
1.981 2.687 1.642 6256
2.062 2.797 1.705 1926
2.044 2.772 1.679 5434
1.962 2.662 1.616 3761
2.059 2.793 1.679 6301
1.978 2.683 1.617 4612
2.066 2.803 1.672 5657
1.984 2.692 1.610 4823
1.996 2.707 1.607 4234
2.077 2.818 1.668 4179
2.084 2.827 1.661 3489
2.002 2.716 1.601 2786
2.078 2.819 1.645 5007
1.996 2.708 1.585 1195
2.085 2.828 1.638 7637
2.167 2.940 1.698 1089
2.092 2.838 1.631 8849
2.174 2.949 1.690 1274
2.095 2.841 1.621 8068
2.177 2.953 1.680 2277
2.149 2.915 1.648 7119
2.067 2.804 1.589 1418
2.147 2.913 1.634 7621
2.154 2.922 1.627 6642
2.237 3.034 1.685 1083
2.152 2.920 1.613 4198
2.235 3.032 1.671 1828
2.211 3.000 1.642 4793
2.129 2.888 1.585 3481
2.214 3.004 1.631 4646
2.131 2.891 1.575 2065
2.212 3.001 1.618 3651
2.210 2.999 1.604 3795
2.293 3.111 1.660 1696
2.213 3.002 1.593 4808
2.296 3.115 1.649 2536
2.277 3.089 1.623 5696
2.194 2.976 1.568 2467
2.271 3.080 1.606 6921
2.354 3.193 1.661 1180
2.264 3.072 1.589 8833
2.348 3.185 1.644 1588
2.276 3.087 1.584 5986
2.359 3.200 1.638 1628
2.344 3.180 1.615 2934
2.261 3.067 1.562 2553
2.351 3.189 1.607 2957
2.267 3.076 1.554 2100
2.362 3.205 1.601 3739
2.279 3.091 1.548 1733
2.360 3.202 1.586 5800
2.277 3.088 1.534 1693
2.363 3.205 1.575 5753
2.460 3.337 1.635 1537
2.418 3.281 1.596 3950
2.334 3.167 1.545 2141
2.425 3.290 1.587 6057
2.509 3.404 1.638 2615
2.507 3.401 1.623 6115
2.423 3.287 1.572 4602
2.510 3.405 1.611 7533
2.417 3.279 1.555 2495
2.517 3.414 1.601 5197
2.433 3.300 1.551 1846
2.528 3.430 1.594 2962
2.444 3.315 1.545 1559
2.558 3.469 1.597 3206
2.473 3.355 1.548 1892
2.533 3.437 1.569 3723
2.618 3.551 1.618 1421
2.527 3.428 1.552 3669
2.612 3.543 1.600 2857
2.529 3.431 1.540 3685
2.614 3.546 1.587 2940
2.536 3.441 1.530 3061
2.621 3.556 1.577 2265
2.637 3.577 1.572 3220
2.552 3.462 1.525 1512
2.639 3.580 1.559 4475
2.554 3.465 1.513 1289
2.646 3.590 1.549 4289
2.731 3.705 1.594 2123
2.698 3.660 1.562 4797
2.613 3.545 1.517 2586
2.691 3.651 1.544 5135
2.790 3.785 1.596 1731
2.743 3.721 1.557 3850
2.658 3.606 1.512 2904
2.750 3.731 1.546 3405
2.840 3.853 1.592 1868
2.838 3.850 1.576 3168
2.748 3.728 1.530 2633
2.849 3.865 1.567 4030
2.728 3.701 1.505 1623
2.852 3.869 1.553 3854
2.766 3.753 1.510 1248
2.818 3.823 1.521 3774
2.904 3.939 1.564 2966
2.821 3.826 1.508 3359
2.920 3.961 1.556 2945
2.922 3.964 1.542 3118
2.828 3.836 1.496 1872
2.916 3.955 1.524 4121
3.002 4.072 1.565 3399
3.000 4.069 1.548 3900
2.914 3.952 1.507 2656
3.006 4.078 1.536 5209
3.092 4.195 1.576 1109
3.009 4.082 1.521 4096
3.095 4.198 1.561 1344
3.052 4.140 1.525 2937
3.147 4.269 1.569 1465
3.041 4.125 1.504 2471
3.127 4.242 1.543 1939
3.179 4.313 1.550 2892
3.093 4.196 1.512 2095
3.168 4.298 1.529 2933
3.082 4.181 1.490 2373
3.234 4.387 1.541 3404
3.089 4.190 1.477 1853
3.228 4.378 1.521 4846
3.341 4.533 1.571 1500
3.230 4.382 1.506 4160
3.339 4.530 1.552 3531
3.333 4.521 1.532 4771
3.228 4.379 1.488 2177
3.330 4.518 1.514 4647
3.417 4.635 1.550 1667
3.346 4.540 1.504 4517
3.433 4.657 1.539 1679
3.422 4.642 1.517 3007
3.335 4.524 1.482 2482
3.443 4.670 1.508 3098
3.538 4.800 1.546 1646
3.532 4.791 1.525 2532
3.445 4.673 1.491 2057
3.530 4.788 1.506 2540
3.420 4.639 1.463 1277
3.555 4.822 1.498 2529
3.669 4.978 1.542 1467
3.548 4.813 1.477 2613
3.658 4.962 1.519 2069
3.569 4.841 1.467 2301
3.706 5.028 1.518 2199
3.580 4.857 1.453 2589
3.704 5.025 1.498 2561
3.784 5.134 1.509 2383
3.697 5.015 1.477 2258
3.796 5.149 1.494 3971
3.699 5.018 1.459 1847
3.798 5.152 1.475 3233
3.890 5.277 1.508 1940
4.017 5.449 1.532 2233
3.897 5.287 1.490 2179
4.024 5.458 1.514 3171
3.904 5.296 1.473 1836
4.021 5.455 1.493 2400
4.109 5.574 1.523 1734
4.121 5.590 1.506 2246
4.208 5.708 1.535 1012
4.132 5.605 1.489 2789
4.289 5.818 1.540 1061
4.144 5.621 1.472 2929
4.301 5.834 1.522 1222
4.146 5.624 1.451 2296
4.139 5.615 1.428 1282
4.312 5.850 1.461 1254
4.224 5.731 1.434 1046
4.319 5.859 1.441 1568
4.231 5.740 1.414 1302
4.326 5.868 1.421 1029
4.245 5.758 1.376 1124
4.242 5.755 1.354 1803
4.244 5.758 1.333 1745
4.246 5.760 1.312 1134
4.276 5.801 1.299 1204
4.278 5.804 1.278 1288
5.490 7.447 1.493 1228
5.487 7.444 1.465 1333
5.485 7.440 1.437 1564
5.396 7.321 1.416 1325
5.487 7.443 1.411 1698
5.599 7.595 1.437 1478
5.606 7.604 1.410 1838
5.489 7.446 1.384 1466
5.612 7.614 1.384 2833
5.394 7.317 1.335 1072
5.619 7.623 1.357 3994
5.621 7.626 1.330 4496
5.623 7.628 1.302 4797
5.625 7.631 1.275 3897
5.627 7.634 1.247 2301
5.634 7.643 1.221 1440
1.329 1.792 1.699 2796
1.332 1.795 1.692 5592
1.405 1.894 1.780 1887
1.334 1.799 1.686 5592
1.408 1.898 1.773 1887
1.368 1.844 1.716 5025
1.441 1.943 1.803 1158
1.375 1.853 1.714 6605
1.448 1.952 1.800 1230
1.370 1.846 1.699 7308
1.443 1.945 1.784 3722
1.372 1.850 1.692 8330
1.446 1.949 1.778 5208
1.375 1.854 1.685 8330
1.449 1.953 1.771 5208
1.428 1.925 1.737 7081
1.354 1.826 1.652 3227
1.416 1.908 1.712 7326
1.446 1.949 1.736 7231
1.371 1.849 1.652 3722
1.452 1.958 1.734 9109
1.378 1.857 1.650 3110
1.463 1.972 1.736 10663
1.388 1.872 1.652 2792
1.470 1.981 1.733 12999
1.395 1.880 1.650 2454
1.476 1.990 1.730 11035
1.401 1.889 1.648 2036
1.483 1.999 1.728 9229
1.400 1.887 1.637 1203
1.486 2.003 1.721 9106
1.485 2.001 1.709 8081
1.483 2.000 1.698 7045
1.490 2.009 1.695 8624
1.497 2.018 1.692 10582
1.507 2.032 1.693 10483
1.514 2.041 1.690 10897
1.521 2.050 1.687 8475
1.536 2.070 1.692 7477
1.562 2.106 1.710 7361
1.569 2.115 1.706 10277
1.572 2.119 1.699 11074
1.571 2.117 1.687 12033
1.569 2.115 1.676 9316
1.560 2.102 1.656 7755
1.637 2.206 1.733 2013
1.566 2.111 1.652 5929
1.644 2.216 1.729 2594
1.618 2.181 1.693 7278
1.540 2.077 1.617 1804
1.616 2.179 1.681 8057
1.623 2.188 1.677 7700
1.634 2.203 1.677 5399
1.604 2.162 1.638 5382
1.698 2.289 1.728 1393
1.611 2.171 1.634 5780
1.705 2.299 1.724 2222
1.617 2.180 1.630 6085
1.708 2.302 1.716 3423
1.624 2.189 1.627 6481
1.711 2.306 1.707 4625
1.701 2.293 1.688 5715
1.623 2.187 1.615 5016
1.699 2.291 1.676 7291
1.621 2.185 1.603 2450
1.702 2.295 1.668 8295
1.624 2.189 1.596 1428
1.709 2.304 1.663 11047
1.630 2.198 1.592 1256
1.712 2.307 1.655 12804
1.791 2.414 1.726 1593
1.710 2.305 1.643 12625
1.789 2.412 1.714 2943
1.713 2.309 1.635 12239
1.792 2.415 1.705 3734
1.715 2.312 1.627 10210
1.795 2.419 1.697 3799
1.768 2.383 1.662 6745
1.689 2.276 1.593 2377
1.775 2.393 1.657 7430
1.695 2.285 1.588 2962
1.773 2.390 1.645 10156
1.694 2.283 1.576 1840
1.772 2.388 1.633 14533
1.851 2.496 1.702 3865
1.774 2.392 1.625 16235
1.854 2.499 1.693 5363
1.781 2.401 1.620 16274
1.870 2.520 1.695 5802
1.784 2.404 1.611 14107
1.872 2.524 1.686 5500
1.790 2.414 1.606 11779
1.875 2.527 1.677 4531
1.793 2.417 1.597 9496
1.890 2.548 1.678 5085
1.893 2.552 1.669 6492
1.796 2.420 1.589 5889
1.866 2.515 1.636 7194
1.785 2.407 1.570 4205
1.868 2.519 1.627 7302
1.953 2.633 1.695 5334
1.956 2.637 1.686 7674
1.871 2.522 1.618 5863
1.955 2.635 1.673 8322
1.874 2.526 1.609 4315
1.919 2.587 1.633 6845
2.008 2.707 1.704 3772
1.921 2.590 1.624 8591
2.007 2.705 1.691 5756
1.997 2.692 1.672 7533
1.915 2.582 1.608 5317
1.991 2.684 1.655 8753
1.909 2.574 1.592 2823
1.989 2.681 1.642 6340
2.071 2.791 1.705 1975
2.048 2.760 1.675 5186
1.966 2.650 1.613 2977
2.067 2.787 1.679 5300
1.986 2.677 1.617 4331
1.997 2.692 1.614 5371
2.079 2.802 1.675 4599
2.008 2.707 1.610 4694
2.090 2.817 1.671 3609
2.106 2.838 1.671 3413
2.015 2.716 1.604 2962
2.087 2.813 1.645 4143
2.005 2.702 1.585 1195
2.094 2.822 1.638 6177
2.176 2.933 1.698 1098
2.101 2.832 1.631 7450
2.183 2.943 1.690 1335
2.107 2.841 1.624 7211
2.190 2.952 1.683 1642
2.158 2.909 1.648 7222
2.075 2.797 1.589 1248
2.156 2.906 1.634 7738
2.163 2.916 1.627 6920
2.157 2.908 1.610 4863
2.240 3.019 1.668 1834
2.221 2.993 1.642 4507
2.138 2.882 1.585 3672
2.223 2.997 1.631 4109
2.140 2.885 1.575 2149
2.221 2.994 1.618 3350
2.138 2.882 1.561 1086
2.220 2.992 1.604 3580
2.303 3.104 1.660 1506
2.262 3.049 1.619 4615
2.178 2.936 1.564 1776
2.286 3.082 1.623 5182
2.203 2.969 1.568 2144
2.271 3.061 1.600 6166
2.355 3.174 1.655 1100
2.274 3.065 1.589 8284
2.357 3.178 1.644 1505
2.280 3.074 1.581 5519
2.364 3.187 1.635 2123
2.358 3.179 1.618 3244
2.274 3.066 1.565 2527
2.365 3.188 1.609 2878
2.281 3.075 1.556 1904
2.416 3.257 1.628 3557
2.314 3.120 1.565 1661
2.370 3.195 1.586 5088
2.454 3.308 1.639 1870
2.373 3.198 1.575 5846
2.457 3.312 1.627 2655
2.428 3.273 1.596 4593
2.344 3.160 1.545 2374
2.431 3.277 1.584 5784
2.515 3.390 1.635 3063
2.518 3.394 1.623 6284
2.429 3.274 1.570 4565
2.525 3.403 1.613 7666
2.427 3.271 1.555 2337
2.527 3.407 1.601 5765
2.443 3.293 1.551 1546
2.539 3.422 1.594 3368
2.454 3.308 1.545 1343
2.546 3.432 1.584 4028
2.544 3.429 1.569 4908
2.629 3.543 1.618 1402
2.542 3.426 1.555 4665
2.627 3.541 1.603 3022
2.549 3.436 1.545 5204
2.634 3.550 1.592 3196
2.556 3.445 1.535 4172
2.650 3.572 1.587 2597
2.657 3.581 1.577 3217
2.571 3.466 1.530 1577
2.655 3.579 1.561 4410
2.569 3.464 1.515 1153
2.666 3.594 1.553 4766
2.751 3.709 1.599 1749
2.673 3.603 1.543 4565
2.758 3.718 1.588 2114
2.693 3.631 1.539 4126
2.810 3.789 1.601 1931
2.754 3.713 1.557 3495
2.669 3.598 1.512 2594
2.757 3.716 1.543 3286
2.843 3.832 1.588 1845
2.850 3.841 1.576 2860
2.759 3.720 1.530 2434
2.861 3.857 1.567 3737
2.735 3.686 1.503 1292
2.859 3.854 1.551 3612
2.959 3.988 1.601 1298
2.834 3.821 1.524 4230
2.920 3.937 1.566 2682
2.832 3.818 1.508 3510
2.932 3.952 1.556 3075
2.934 3.956 1.542 4076
2.844 3.833 1.498 1823
2.932 3.953 1.526 4711
3.018 4.069 1.567 2555
3.007 4.054 1.546 3815
2.921 3.938 1.505 2591
3.014 4.063 1.533 4927
3.101 4.180 1.574 1251
3.026 4.079 1.523 4124
3.112 4.195 1.563 1573
3.065 4.131 1.525 3640
3.151 4.248 1.564 1069
3.117 4.202 1.533 3214
3.204 4.318 1.572 2278
3.124 4.211 1.520 3564
3.211 4.328 1.558 3072
3.190 4.301 1.533 3352
3.104 4.184 1.494 2635
3.252 4.384 1.543 3805
3.101 4.181 1.477 1746
3.241 4.369 1.521 4626
3.360 4.529 1.573 1820
3.243 4.372 1.506 4081
3.353 4.520 1.552 3813
3.342 4.505 1.530 5248
3.470 4.677 1.584 2149
3.339 4.502 1.512 5167
3.468 4.674 1.565 1801
3.356 4.523 1.502 4665
3.443 4.641 1.537 1682
3.358 4.526 1.485 3085
3.445 4.644 1.521 2403
3.457 4.660 1.508 3337
3.557 4.796 1.548 1648
3.459 4.663 1.491 2459
3.555 4.793 1.529 2044
3.562 4.802 1.513 2168
3.650 4.920 1.547 1206
3.569 4.812 1.498 2250
3.684 4.966 1.542 1640
3.562 4.802 1.477 2510
3.668 4.945 1.517 2397
3.661 4.936 1.496 2356
3.574 4.818 1.463 2287
3.719 5.013 1.498 2702
3.595 4.846 1.453 2256
3.717 5.010 1.479 2553
3.804 5.128 1.511 2147
3.811 5.138 1.494 3542
3.899 5.256 1.525 1878
3.818 5.147 1.477 2877
3.911 5.272 1.509 2614
3.918 5.281 1.492 3157
4.033 5.437 1.532 2180
4.040 5.446 1.514 2999
3.925 5.290 1.475 2484
4.042 5.449 1.495 2198
3.927 5.294 1.456 1681
4.133 5.571 1.504 2173
4.221 5.690 1.534 1510
4.144 5.587 1.487 2583
4.156 5.602 1.470 2355
