0.341 2.219 1.651 2111
0.361 2.346 1.730 18032
0.342 2.223 1.645 1780
0.362 2.350 1.723 21201
0.343 2.227 1.639 1040
0.362 2.355 1.717 24370
0.381 2.478 1.801 1184
0.363 2.359 1.710 21672
0.382 2.483 1.794 1440
0.364 2.364 1.703 18974
0.383 2.487 1.787 1697
0.364 2.368 1.696 13329
0.384 2.492 1.780 2202
0.366 2.379 1.694 7974
0.386 2.510 1.781 2787
0.367 2.384 1.687 5271
0.387 2.515 1.774 2787
0.378 2.454 1.723 3473
0.358 2.329 1.641 1263
0.377 2.452 1.712 3392
0.378 2.456 1.705 4265
0.379 2.461 1.698 5140
0.398 2.586 1.779 1081
0.382 2.485 1.703 5586
0.363 2.360 1.623 1004
0.384 2.496 1.700 6784
0.404 2.622 1.781 1132
0.385 2.501 1.693 8127
0.404 2.627 1.773 1576
0.387 2.512 1.690 9567
0.406 2.638 1.770 1817
0.387 2.516 1.683 8702
0.407 2.643 1.762 1967
0.388 2.521 1.676 7837
0.407 2.647 1.754 2116
0.390 2.532 1.672 5203
0.409 2.659 1.751 1872
0.391 2.543 1.669 2729
0.411 2.670 1.747 1523
0.404 2.628 1.711 2496
0.406 2.639 1.707 2875
0.406 2.637 1.696 3435
0.407 2.641 1.688 4025
0.408 2.652 1.685 3417
0.410 2.664 1.681 2998
0.411 2.668 1.673 2313
0.412 2.679 1.669 2173
0.413 2.684 1.662 2908
0.433 2.813 1.736 1292
0.415 2.695 1.658 3449
0.435 2.824 1.732 2203
0.416 2.706 1.654 4033
0.436 2.835 1.728 2156
0.416 2.704 1.642 4380
0.436 2.833 1.716 2024
0.415 2.694 1.627 4888
0.435 2.824 1.700 2068
0.415 2.698 1.619 6297
0.435 2.829 1.692 2001
0.416 2.703 1.611 7706
0.443 2.881 1.710 2138
0.417 2.707 1.603 7707
0.444 2.886 1.702 2197
0.417 2.711 1.595 7206
0.445 2.890 1.693 3823
0.418 2.715 1.587 6704
0.445 2.895 1.685 5391
0.418 2.713 1.576 5716
0.445 2.892 1.673 5617
0.446 2.896 1.664 5907
0.419 2.724 1.572 3913
0.448 2.908 1.660 5708
0.427 2.776 1.590 3430
0.448 2.912 1.651 5708
0.428 2.780 1.582 3083
0.463 3.007 1.690 6557
0.442 2.875 1.621 2968
0.463 3.011 1.682 5954
0.443 2.879 1.613 2115
0.465 3.023 1.676 5176
0.445 2.890 1.608 1382
0.467 3.034 1.671 5013
0.447 2.902 1.603 1219
0.470 3.052 1.670 6802
0.449 2.920 1.602 1029
0.470 3.057 1.661 7772
0.470 3.054 1.648 6801
0.491 3.187 1.715 2383
0.483 3.136 1.678 6158
0.458 2.974 1.597 1801
0.488 3.168 1.683 9483
0.467 3.035 1.617 3113
0.488 3.173 1.674 12554
0.468 3.039 1.608 2976
0.489 3.177 1.664 12261
0.468 3.043 1.599 1985
0.491 3.189 1.659 10346
0.470 3.055 1.594 1389
0.493 3.200 1.653 9163
0.472 3.066 1.588 1698
0.494 3.211 1.647 8383
0.515 3.346 1.711 1642
0.497 3.230 1.644 8441
0.518 3.365 1.708 1832
0.501 3.256 1.645 7990
0.522 3.390 1.708 1952
0.509 3.310 1.659 7259
0.489 3.175 1.596 3200
0.502 3.264 1.626 7933
0.523 3.399 1.689 2287
0.511 3.318 1.639 7103
0.490 3.183 1.577 1906
0.517 3.358 1.646 7385
0.496 3.223 1.584 2505
0.519 3.370 1.639 9353
0.498 3.234 1.578 1320
0.518 3.367 1.626 8326
0.516 3.350 1.607 6988
0.537 3.486 1.668 1197
0.517 3.361 1.601 5205
0.538 3.497 1.661 1833
0.523 3.401 1.607 6665
0.544 3.538 1.666 2108
0.525 3.413 1.600 7805
0.546 3.549 1.659 2599
0.526 3.417 1.590 6429
0.547 3.554 1.649 2441
0.532 3.457 1.595 6302
0.553 3.594 1.654 1961
0.532 3.454 1.582 6739
0.554 3.598 1.643 3407
0.532 3.458 1.572 3777
0.554 3.603 1.633 3440
0.550 3.571 1.607 4616
0.571 3.708 1.665 1987
0.550 3.575 1.597 4170
0.571 3.713 1.654 1819
0.558 3.623 1.604 3889
0.579 3.760 1.661 1595
0.560 3.641 1.600 5791
0.582 3.779 1.656 1968
0.563 3.660 1.595 8369
0.585 3.798 1.651 2174
0.567 3.686 1.593 8189
0.589 3.824 1.649 3491
0.576 3.741 1.603 7774
0.597 3.880 1.658 2251
0.575 3.738 1.589 7441
0.597 3.877 1.643 4546
0.593 3.852 1.621 5314
0.572 3.713 1.567 3601
0.591 3.842 1.604 5190
0.570 3.703 1.550 1110
0.595 3.868 1.601 5024
0.619 4.021 1.660 1339
0.596 3.872 1.590 4713
0.620 4.026 1.648 2800
0.597 3.876 1.579 4275
0.619 4.023 1.634 4070
0.597 3.880 1.567 4004
0.632 4.108 1.652 3808
0.635 4.127 1.646 4427
0.609 3.958 1.583 3336
0.638 4.146 1.639 3647
0.610 3.962 1.572 3244
0.642 4.172 1.635 3424
0.609 3.959 1.557 2840
0.637 4.140 1.610 4125
0.616 4.000 1.559 2037
0.640 4.159 1.603 3981
0.617 4.011 1.550 1609
0.638 4.148 1.585 5650
0.665 4.318 1.645 1208
0.642 4.175 1.581 7619
0.664 4.315 1.630 1797
0.648 4.208 1.579 5673
0.669 4.349 1.628 1138
0.661 4.294 1.595 4440
0.663 4.306 1.585 5108
0.666 4.325 1.577 3578
0.644 4.183 1.530 1118
0.652 4.239 1.535 2141
0.674 4.381 1.582 1576
0.669 4.348 1.557 2198
0.661 4.292 1.525 3273
0.662 4.304 1.515 3921
0.665 4.322 1.507 3645
0.666 4.326 1.494 4073
0.644 4.185 1.449 1059
0.654 4.248 1.456 3793
0.719 4.674 1.590 1184
0.656 4.259 1.446 2539
0.726 4.716 1.588 1277
0.648 4.211 1.417 1927
0.728 4.727 1.576 1878
0.647 4.207 1.403 2734
0.732 4.754 1.569 2577
0.635 4.128 1.366 3281
0.735 4.773 1.560 2516
0.635 4.124 1.351 4446
0.736 4.785 1.548 1880
0.635 4.127 1.339 5563
0.754 4.901 1.567 3013
0.755 4.905 1.553 4253
0.636 4.131 1.327 4059
0.757 4.917 1.541 4601
0.636 4.134 1.315 1711
0.759 4.928 1.529 3509
0.761 4.948 1.519 3211
0.784 5.091 1.559 1218
0.770 5.004 1.519 4536
0.792 5.148 1.559 1378
0.772 5.016 1.506 6338
0.794 5.159 1.546 2429
0.775 5.035 1.496 4826
0.797 5.178 1.535 2888
0.806 5.235 1.534 3812
0.784 5.092 1.495 3063
0.799 5.194 1.507 3837
0.777 5.050 1.468 2131
0.806 5.236 1.501 3878
0.779 5.062 1.455 1523
0.823 5.346 1.514 4058
0.845 5.490 1.551 2696
0.822 5.342 1.496 5018
0.846 5.494 1.535 4506
0.820 5.331 1.476 4318
0.847 5.505 1.521 3116
0.841 5.464 1.493 3358
0.819 5.319 1.457 2755
0.844 5.483 1.481 4103
0.872 5.665 1.526 3212
0.869 5.646 1.504 4746
0.847 5.502 1.469 2585
0.868 5.643 1.486 6460
0.893 5.803 1.524 1939
0.870 5.654 1.471 5660
0.895 5.814 1.509 2727
0.891 5.788 1.485 2814
0.868 5.643 1.451 2446
0.891 5.792 1.468 2965
0.927 6.020 1.521 1612
0.891 5.788 1.449 2551
0.926 6.017 1.501 2461
0.924 6.005 1.480 2971
0.891 5.791 1.432 1788
0.924 6.001 1.461 2563
0.952 6.185 1.502 1591
0.950 6.174 1.480 2108
0.975 6.334 1.516 1921
0.974 6.330 1.495 2368
0.931 6.047 1.434 1916
0.974 6.327 1.475 3202
0.951 6.181 1.444 1498
0.972 6.315 1.453 3258
0.994 6.461 1.484 1570
0.996 6.472 1.467 4053
0.974 6.327 1.437 3249
0.997 6.476 1.448 5203
0.974 6.330 1.418 2963
0.995 6.464 1.426 4689
0.970 6.303 1.393 1933
0.994 6.460 1.405 4536
1.058 6.875 1.487 1878
1.009 6.556 1.404 3271
1.059 6.879 1.467 2433
1.068 6.937 1.457 2855
1.005 6.529 1.379 2851
1.069 6.948 1.438 3279
1.002 6.510 1.356 2416
1.069 6.944 1.416 2680
1.004 6.521 1.338 2028
1.053 6.840 1.376 2241
1.082 7.032 1.412 1924
1.156 7.514 1.477 1661
1.082 7.028 1.390 1657
1.206 7.834 1.510 2342
1.158 7.525 1.456 1941
1.098 7.136 1.366 1898
1.205 7.830 1.486 1885
1.159 7.533 1.412 1853
1.182 7.679 1.437 1430
1.173 7.621 1.404 1815
1.274 8.278 1.514 1652
1.174 7.625 1.381 2431
1.276 8.289 1.491 2416
1.299 8.440 1.490 2565
1.174 7.629 1.359 2087
1.301 8.451 1.466 2697
1.229 7.988 1.393 2019
1.300 8.448 1.440 3401
1.363 8.857 1.504 2170
1.301 8.451 1.415 4202
1.364 8.861 1.478 2817
1.305 8.478 1.394 4150
1.364 8.865 1.452 3095
1.304 8.474 1.368 4894
1.365 8.869 1.426 3856
1.305 8.477 1.343 4930
1.366 8.873 1.400 4695
1.367 8.884 1.375 5529
1.305 8.481 1.318 2919
1.368 8.887 1.349 5354
1.434 9.314 1.407 2282
1.368 8.891 1.323 3753
1.433 9.310 1.379 2366
1.368 8.887 1.295 2417
1.433 9.313 1.351 2071
1.368 8.890 1.269 1768
1.432 9.301 1.322 1607
1.369 8.893 1.243 1248
1.432 9.305 1.295 1103
0.363 2.318 1.782 3649
0.344 2.198 1.694 1857
0.364 2.323 1.775 7298
0.345 2.202 1.688 3715
0.365 2.328 1.768 7298
0.346 2.207 1.682 3715
0.364 2.326 1.757 6861
0.345 2.205 1.671 3623
0.361 2.305 1.732 7716
0.342 2.183 1.646 1092
0.366 2.335 1.744 12027
0.347 2.213 1.658 3127
0.367 2.340 1.737 17532
0.347 2.218 1.651 2285
0.367 2.345 1.730 17532
0.348 2.222 1.645 1953
0.368 2.349 1.723 20736
0.349 2.226 1.639 1202
0.369 2.354 1.717 23939
0.388 2.477 1.801 1313
0.369 2.358 1.710 21229
0.389 2.481 1.794 1685
0.370 2.363 1.703 18519
0.390 2.486 1.787 2056
0.371 2.367 1.696 13158
0.390 2.491 1.780 2582
0.374 2.385 1.698 8364
0.393 2.509 1.781 3028
0.374 2.389 1.691 5669
0.394 2.513 1.774 3028
0.382 2.440 1.715 4617
0.402 2.564 1.797 1041
0.382 2.438 1.703 4584
0.401 2.562 1.785 1265
0.383 2.442 1.696 4068
0.402 2.567 1.778 1443
0.385 2.460 1.698 3770
0.405 2.585 1.779 1287
0.390 2.491 1.708 4846
0.371 2.365 1.627 1040
0.392 2.502 1.705 6280
0.393 2.506 1.697 7052
0.412 2.632 1.777 1436
0.392 2.504 1.686 7968
0.412 2.630 1.766 2134
0.393 2.509 1.679 6852
0.413 2.635 1.758 2238
0.394 2.513 1.671 5736
0.415 2.646 1.754 2344
0.394 2.517 1.664 3963
0.414 2.644 1.743 2361
0.412 2.629 1.723 2715
0.392 2.502 1.645 1613
0.413 2.633 1.715 3102
0.393 2.506 1.637 1063
0.413 2.638 1.707 3489
0.414 2.642 1.700 4190
0.414 2.640 1.688 4894
0.416 2.658 1.689 4318
0.417 2.662 1.681 3925
0.418 2.667 1.673 3098
0.420 2.678 1.669 2907
0.420 2.683 1.662 3640
0.440 2.811 1.736 1215
0.421 2.687 1.654 4105
0.441 2.816 1.728 2309
0.423 2.698 1.650 4511
0.443 2.827 1.724 2465
0.422 2.696 1.638 4384
0.443 2.825 1.712 2438
0.421 2.686 1.623 4545
0.441 2.816 1.696 2810
0.422 2.691 1.615 5712
0.442 2.821 1.688 2484
0.423 2.702 1.611 7253
0.444 2.832 1.683 2047
0.424 2.706 1.603 7598
0.452 2.884 1.702 2077
0.425 2.710 1.595 7492
0.453 2.889 1.693 3616
0.425 2.714 1.587 7386
0.452 2.886 1.681 5056
0.425 2.712 1.576 6432
0.453 2.891 1.673 5129
0.453 2.888 1.661 5202
0.425 2.716 1.568 4515
0.455 2.907 1.660 5510
0.427 2.727 1.564 3627
0.456 2.911 1.651 6132
0.428 2.731 1.556 2579
0.470 2.999 1.687 7380
0.449 2.867 1.617 2644
0.472 3.010 1.682 6143
0.451 2.878 1.613 2452
0.473 3.021 1.676 5550
0.453 2.889 1.608 1262
0.475 3.033 1.671 5931
0.477 3.044 1.666 7666
0.479 3.056 1.661 8351
0.479 3.060 1.652 7022
0.500 3.193 1.719 1906
0.491 3.134 1.678 5923
0.470 3.001 1.611 1783
0.495 3.160 1.679 9514
0.474 3.026 1.613 2433
0.496 3.164 1.670 12753
0.475 3.031 1.604 2143
0.496 3.169 1.661 12202
0.475 3.035 1.596 1659
0.499 3.187 1.659 9621
0.478 3.053 1.594 1667
0.502 3.206 1.656 8409
0.481 3.072 1.592 2328
0.503 3.210 1.647 7723
0.524 3.344 1.711 1719
0.504 3.214 1.638 7476
0.525 3.349 1.701 2935
0.515 3.290 1.662 8063
0.494 3.155 1.598 2441
0.512 3.266 1.639 8262
0.533 3.401 1.702 1988
0.512 3.270 1.629 8837
0.533 3.405 1.692 1955
0.512 3.267 1.616 7330
0.533 3.402 1.679 2700
0.527 3.364 1.649 7229
0.506 3.229 1.587 3044
0.529 3.376 1.643 9517
0.508 3.240 1.581 2025
0.528 3.373 1.630 8485
0.507 3.237 1.569 1050
0.526 3.356 1.610 6348
0.547 3.492 1.671 1129
0.529 3.374 1.607 5267
0.550 3.510 1.667 1500
0.533 3.400 1.607 7796
0.554 3.536 1.666 2135
0.534 3.411 1.600 8978
0.556 3.548 1.659 2656
0.535 3.415 1.590 7466
0.556 3.552 1.649 2508
0.542 3.463 1.598 6349
0.564 3.600 1.657 2107
0.542 3.460 1.585 6200
0.565 3.604 1.647 3807
0.568 3.623 1.642 4357
0.542 3.457 1.572 3394
0.558 3.562 1.604 4052
0.580 3.699 1.662 2794
0.560 3.574 1.597 3906
0.581 3.711 1.654 2529
0.574 3.665 1.622 4786
0.553 3.527 1.566 2149
0.570 3.640 1.600 6070
0.592 3.778 1.656 1737
0.572 3.651 1.592 8410
0.595 3.797 1.651 2166
0.577 3.685 1.593 7947
0.599 3.823 1.649 4008
0.586 3.740 1.603 7769
0.608 3.878 1.658 2618
0.585 3.737 1.589 7219
0.607 3.875 1.643 4981
0.603 3.850 1.621 6400
0.581 3.712 1.567 3414
0.603 3.847 1.607 6050
0.581 3.708 1.553 1273
0.606 3.866 1.601 6177
0.627 4.005 1.654 1474
0.605 3.863 1.587 5524
0.630 4.024 1.648 2712
0.606 3.867 1.576 4970
0.631 4.028 1.637 3690
0.608 3.879 1.567 4519
0.642 4.099 1.650 3909
0.646 4.125 1.646 4464
0.619 3.949 1.580 3145
0.648 4.137 1.636 3404
0.620 3.960 1.572 2928
0.648 4.134 1.622 3367
0.621 3.964 1.560 2398
0.648 4.138 1.610 4278
0.626 3.998 1.559 2110
0.648 4.135 1.595 4148
0.626 3.995 1.545 1630
0.650 4.146 1.585 5734
0.628 4.006 1.536 1162
0.656 4.188 1.586 7848
0.678 4.328 1.635 1173
0.659 4.207 1.579 6515
0.672 4.292 1.595 3553
0.673 4.296 1.582 4472
0.664 4.241 1.550 3981
0.687 4.382 1.597 1480
0.664 4.238 1.535 2096
0.686 4.379 1.582 1299
0.681 4.346 1.557 1916
0.672 4.290 1.525 2926
0.673 4.294 1.512 3247
0.676 4.313 1.505 2976
0.676 4.317 1.492 3974
0.731 4.668 1.603 1119
0.665 4.246 1.456 3445
0.732 4.672 1.590 1873
0.668 4.265 1.448 2234
0.738 4.714 1.588 1560
0.744 4.748 1.583 2497
0.645 4.119 1.390 2014
0.645 4.115 1.375 3274
0.746 4.759 1.572 3165
0.645 4.119 1.363 3425
0.749 4.778 1.562 2620
0.647 4.130 1.354 4037
0.769 4.910 1.586 2127
0.646 4.126 1.339 4792
0.770 4.914 1.572 3410
0.768 4.903 1.553 3606
0.647 4.129 1.327 3308
0.770 4.915 1.541 3342
0.646 4.125 1.313 1319
0.771 4.919 1.527 2389
0.793 5.062 1.567 1029
0.775 4.945 1.519 2033
0.782 4.995 1.517 3920
0.806 5.146 1.559 1461
0.785 5.014 1.506 5369
0.808 5.157 1.546 2402
0.788 5.033 1.496 4310
0.820 5.237 1.551 2772
0.820 5.233 1.534 3753
0.790 5.044 1.483 2674
0.813 5.192 1.507 2787
0.791 5.048 1.468 2234
0.826 5.271 1.511 3201
0.793 5.059 1.455 1673
0.838 5.351 1.516 3733
0.861 5.495 1.553 2496
0.838 5.347 1.498 4972
0.862 5.499 1.537 4765
0.863 5.511 1.523 3677
0.834 5.321 1.475 3621
0.860 5.492 1.501 3207
0.834 5.325 1.459 2390
0.857 5.473 1.479 3829
0.886 5.655 1.524 3212
0.884 5.644 1.504 4487
0.862 5.500 1.469 2165
0.884 5.640 1.486 5764
0.909 5.800 1.524 2241
0.885 5.652 1.471 5007
0.909 5.804 1.507 3109
0.904 5.770 1.481 3267
0.927 5.915 1.515 2092
0.906 5.781 1.466 2914
0.943 6.018 1.521 2006
0.941 6.007 1.500 3156
0.906 5.785 1.449 2342
0.936 5.972 1.473 4281
0.906 5.781 1.430 1886
0.937 5.984 1.458 3608
0.970 6.190 1.504 1568
0.940 6.003 1.444 1907
0.968 6.179 1.482 1867
0.993 6.335 1.497 2174
0.948 6.052 1.436 1810
0.990 6.316 1.474 3285
0.967 6.171 1.443 1535
0.988 6.305 1.452 3297
0.965 6.159 1.421 1495
1.014 6.470 1.467 3614
0.991 6.324 1.437 2632
1.014 6.473 1.448 4744
0.991 6.328 1.418 2782
1.011 6.454 1.424 4871
0.988 6.308 1.395 2210
1.012 6.458 1.405 4565
1.077 6.872 1.487 1618
1.013 6.469 1.388 2418
1.078 6.884 1.469 2289
1.086 6.934 1.457 2665
1.021 6.519 1.378 2335
1.089 6.953 1.440 3054
1.021 6.515 1.357 2383
1.087 6.941 1.416 2461
1.020 6.510 1.337 1828
1.070 6.829 1.375 2532
1.100 7.022 1.410 1742
1.099 7.018 1.388 1480
1.136 7.249 1.430 1295
1.227 7.830 1.510 2246
1.180 7.530 1.457 1460
1.226 7.827 1.486 1756
1.203 7.680 1.461 1581
1.199 7.653 1.433 1681
1.224 7.815 1.460 1484
1.196 7.634 1.406 1854
1.297 8.282 1.515 1416
1.299 8.293 1.492 2330
1.195 7.629 1.383 2252
1.322 8.436 1.490 2683
1.299 8.290 1.466 2182
1.323 8.448 1.466 2780
1.254 8.007 1.397 1760
1.324 8.452 1.441 3888
1.387 8.854 1.504 2670
1.325 8.455 1.417 4946
1.388 8.858 1.478 3311
1.326 8.467 1.393 4732
1.388 8.861 1.452 3396
1.327 8.470 1.368 5374
1.389 8.865 1.426 4058
1.328 8.474 1.343 5561
1.391 8.877 1.401 5452
1.391 8.880 1.375 6855
1.328 8.477 1.318 3497
1.392 8.884 1.349 6529
1.460 9.318 1.408 1797
1.392 8.887 1.323 4633
1.437 9.174 1.361 1849
1.392 8.883 1.295 3040
1.437 9.170 1.333 1651
1.391 8.878 1.268 2091
1.455 9.290 1.321 1367
1.393 8.889 1.243 1354
1.456 9.293 1.294 1015
0.371 2.317 1.782 3070
0.352 2.196 1.694 2110
0.372 2.322 1.775 6140
0.353 2.201 1.688 4221
0.373 2.326 1.768 6140
0.353 2.205 1.682 4221
0.359 2.242 1.698 6094
0.379 2.363 1.785 3622
0.359 2.240 1.687 6892
0.378 2.361 1.773 3820
0.374 2.334 1.744 11083
0.354 2.212 1.658 3372
0.375 2.339 1.737 16843
0.355 2.217 1.651 2518
0.375 2.343 1.730 16843
0.356 2.221 1.645 2165
0.376 2.348 1.723 19920
0.357 2.225 1.639 1396
0.377 2.352 1.717 22997
0.397 2.475 1.801 1453
0.377 2.350 1.705 20345
0.396 2.474 1.790 2285
0.377 2.355 1.699 17804
0.397 2.478 1.782 2824
0.379 2.366 1.696 12669
0.399 2.490 1.780 2900
0.383 2.390 1.703 8820
0.403 2.514 1.785 2926
0.387 2.414 1.709 6983
0.407 2.538 1.791 1948
0.390 2.432 1.710 6332
0.410 2.556 1.793 1353
0.389 2.430 1.699 6290
0.409 2.554 1.781 1501
0.390 2.434 1.692 4608
0.410 2.559 1.773 1958
0.407 2.537 1.749 3464
0.385 2.406 1.664 3270
0.401 2.502 1.716 4620
0.381 2.377 1.635 1215
0.402 2.507 1.709 6315
0.401 2.505 1.697 6617
0.421 2.631 1.777 1464
0.401 2.503 1.686 7158
0.421 2.629 1.766 2174
0.402 2.507 1.679 5592
0.422 2.633 1.758 2363
0.400 2.498 1.663 4210
0.423 2.638 1.750 2553
0.406 2.536 1.677 3734
0.427 2.663 1.755 1973
0.409 2.554 1.677 3909
0.430 2.681 1.756 1095
0.422 2.632 1.715 3591
0.401 2.505 1.637 1262
0.422 2.636 1.707 3771
0.423 2.641 1.700 4721
0.424 2.645 1.692 5670
0.426 2.657 1.689 5318
0.427 2.668 1.685 5062
0.428 2.672 1.677 4014
0.429 2.677 1.669 3474
0.430 2.681 1.662 3918
0.450 2.810 1.736 1143
0.430 2.685 1.654 4153
0.451 2.815 1.728 2395
0.432 2.697 1.650 4472
0.453 2.826 1.724 2595
0.446 2.783 1.689 4468
0.425 2.653 1.615 2211
0.448 2.794 1.684 4632
0.427 2.664 1.611 3071
0.431 2.689 1.615 4621
0.452 2.819 1.688 3421
0.432 2.693 1.607 6215
0.452 2.823 1.680 3031
0.433 2.704 1.603 7004
0.454 2.835 1.675 2453
0.434 2.709 1.595 7297
0.461 2.880 1.690 3615
0.435 2.713 1.587 7591
0.461 2.878 1.677 5027
0.434 2.710 1.576 6727
0.462 2.882 1.669 4861
0.436 2.721 1.572 4878
0.463 2.887 1.661 4695
0.470 2.933 1.675 5563
0.437 2.725 1.564 3958
0.477 2.979 1.688 6879
0.446 2.785 1.585 3525
0.479 2.990 1.683 8509
0.447 2.789 1.577 3276
0.482 3.008 1.682 6588
0.461 2.876 1.613 2896
0.485 3.027 1.680 6155
0.464 2.895 1.612 1583
0.486 3.031 1.671 6950
0.487 3.043 1.666 8524
0.489 3.054 1.661 8575
0.490 3.058 1.652 6836
0.511 3.191 1.719 1735
0.501 3.126 1.675 5863
0.479 2.993 1.608 1982
0.505 3.151 1.676 9563
0.484 3.018 1.610 2188
0.506 3.156 1.667 13039
0.484 3.022 1.601 1971
0.506 3.160 1.658 12481
0.485 3.026 1.592 1593
0.508 3.171 1.652 9264
0.530 3.305 1.717 2030
0.514 3.211 1.660 7207
0.493 3.077 1.595 3168
0.514 3.208 1.647 6922
0.536 3.343 1.711 1747
0.512 3.199 1.631 7267
0.534 3.333 1.695 4289
0.526 3.281 1.658 7630
0.504 3.146 1.595 2233
0.524 3.271 1.642 8411
0.502 3.136 1.579 1640
0.524 3.268 1.629 8863
0.545 3.403 1.692 1907
0.524 3.272 1.620 7411
0.546 3.408 1.682 2492
0.540 3.369 1.653 7767
0.518 3.234 1.591 3321
0.541 3.374 1.643 9942
0.519 3.238 1.581 2268
0.541 3.378 1.633 8818
0.519 3.242 1.572 1486
0.538 3.361 1.614 6817
0.560 3.497 1.674 1109
0.541 3.379 1.610 6454
0.563 3.515 1.670 1443
0.544 3.398 1.607 8828
0.566 3.534 1.666 2141
0.546 3.409 1.600 10024
0.568 3.546 1.659 2672
0.547 3.414 1.590 8729
0.575 3.586 1.664 2731
0.555 3.461 1.598 5958
0.576 3.598 1.657 2756
0.556 3.472 1.591 5095
0.578 3.609 1.650 4441
0.579 3.614 1.639 5709
0.552 3.448 1.569 2830
0.582 3.632 1.635 5248
0.560 3.495 1.577 1422
0.585 3.651 1.630 5720
0.563 3.514 1.573 2023
0.587 3.663 1.622 6335
0.565 3.525 1.566 2256
0.588 3.667 1.612 6134
0.565 3.529 1.555 1716
0.585 3.649 1.592 7573
0.609 3.802 1.654 2358
0.591 3.690 1.596 6998
0.613 3.828 1.651 4204
0.613 3.825 1.637 7208
0.591 3.687 1.582 5022
0.615 3.837 1.629 8141
0.593 3.698 1.575 4630
0.615 3.841 1.618 7715
0.593 3.702 1.564 2766
0.617 3.852 1.610 7260
0.595 3.714 1.556 1392
0.619 3.864 1.601 7693
0.641 4.003 1.654 1443
0.620 3.868 1.590 6676
0.644 4.022 1.648 2232
0.620 3.872 1.579 5696
0.645 4.026 1.637 3026
0.621 3.877 1.567 4702
0.655 4.089 1.647 3913
0.661 4.123 1.646 4301
0.623 3.888 1.559 3165
0.662 4.135 1.636 2973
0.634 3.958 1.572 2669
0.674 4.205 1.648 3094
0.642 4.006 1.576 2477
0.663 4.136 1.610 4234
0.640 3.996 1.559 2003
0.666 4.155 1.603 4371
0.641 4.000 1.548 1470
0.666 4.159 1.591 5595
0.640 3.997 1.533 1099
0.672 4.193 1.589 7697
0.674 4.204 1.579 7460
0.675 4.216 1.569 5440
0.698 4.356 1.618 1065
0.677 4.227 1.560 5685
0.700 4.368 1.608 1284
0.679 4.239 1.550 5046
0.702 4.380 1.597 1059
0.679 4.235 1.535 3112
0.679 4.239 1.523 2514
0.685 4.273 1.520 3774
0.684 4.270 1.505 4503
0.685 4.274 1.493 3599
0.690 4.307 1.490 3795
0.747 4.665 1.603 1660
0.691 4.311 1.477 2872
0.748 4.669 1.590 2537
0.689 4.300 1.460 2074
0.749 4.674 1.576 1986
0.761 4.753 1.585 2789
0.661 4.124 1.392 2477
0.761 4.749 1.569 3158
0.660 4.120 1.378 2622
0.766 4.783 1.564 2700
0.662 4.131 1.368 2377
0.661 4.128 1.354 2874
0.786 4.907 1.586 1979
0.662 4.131 1.342 2980
0.788 4.919 1.574 2588
0.789 4.923 1.560 2733
0.662 4.134 1.329 2095
0.789 4.927 1.545 2646
0.662 4.130 1.315 1060
0.805 5.022 1.557 2062
0.782 4.879 1.516 1139
0.804 5.018 1.540 2210
0.797 4.977 1.512 2965
0.823 5.135 1.557 1603
0.802 5.003 1.504 3389
0.825 5.147 1.544 2488
0.803 5.015 1.492 3377
0.839 5.234 1.551 2733
0.838 5.230 1.534 3499
0.814 5.079 1.493 2890
0.841 5.249 1.523 2999
0.814 5.083 1.478 2736
0.844 5.269 1.511 3846
0.821 5.125 1.473 1818
0.856 5.341 1.514 4036
0.833 5.197 1.476 1924
0.856 5.345 1.498 4938
0.882 5.504 1.539 4140
0.884 5.515 1.525 3582
0.857 5.348 1.482 3168
0.881 5.496 1.503 2630
0.854 5.330 1.461 2507
0.903 5.637 1.520 3436
0.878 5.478 1.481 3098
0.904 5.641 1.504 4321
0.881 5.497 1.469 1649
0.904 5.645 1.487 4704
0.928 5.789 1.522 2156
0.905 5.649 1.471 3831
0.928 5.793 1.505 3024
0.925 5.774 1.483 3712
0.948 5.919 1.517 1842
0.925 5.771 1.464 3461
0.961 5.999 1.517 2273
0.955 5.957 1.489 3687
0.925 5.774 1.447 2386
0.955 5.961 1.472 5554
0.925 5.771 1.429 1820
0.957 5.973 1.456 4518
0.994 6.202 1.507 1546
0.959 5.984 1.440 2048
1.014 6.328 1.516 1579
1.016 6.340 1.499 1829
0.973 6.072 1.441 1575
1.010 6.305 1.472 3180
0.987 6.160 1.441 1273
1.008 6.294 1.450 3274
1.032 6.439 1.481 1168
1.037 6.474 1.468 2809
0.997 6.221 1.416 2081
1.038 6.477 1.449 3870
1.012 6.316 1.416 2541
1.032 6.443 1.423 4658
1.009 6.297 1.393 2339
1.034 6.454 1.405 4319
1.099 6.861 1.486 1334
1.036 6.465 1.388 2290
1.088 6.788 1.451 2125
1.119 6.984 1.467 2875
1.089 6.799 1.432 2268
1.118 6.980 1.446 3224
1.094 6.826 1.417 1982
1.094 6.830 1.396 2807
1.118 6.976 1.424 2134
1.094 6.826 1.375 2727
1.124 7.018 1.410 1879
1.124 7.014 1.388 1604
1.160 7.237 1.428 1575
1.254 7.826 1.510 1938
1.230 7.680 1.484 1338
1.231 7.684 1.462 1774
1.255 7.830 1.487 1646
1.254 7.826 1.463 1740
1.227 7.657 1.434 1714
1.224 7.637 1.408 1780
1.253 7.822 1.439 1606
1.328 8.289 1.492 2168
1.222 7.625 1.383 2001
1.351 8.432 1.490 2546
1.327 8.285 1.466 2208
1.353 8.443 1.466 2642
1.418 8.853 1.531 1726
1.353 8.447 1.441 4075
1.418 8.849 1.504 2958
1.354 8.451 1.417 5406
1.418 8.853 1.478 3526
1.356 8.462 1.393 5027
1.419 8.857 1.452 3438
1.356 8.466 1.368 5312
1.420 8.860 1.426 4000
1.421 8.872 1.401 5905
1.357 8.469 1.343 5552
1.422 8.875 1.375 7814
1.358 8.473 1.318 3696
1.423 8.879 1.349 7489
1.359 8.484 1.294 1883
1.423 8.882 1.323 5548
1.469 9.169 1.361 1943
1.422 8.878 1.295 3694
1.468 9.165 1.333 1710
1.422 8.873 1.268 2267
1.488 9.285 1.321 1575
1.422 8.877 1.242 1224
1.489 9.296 1.295 1212
0.365 2.246 1.731 3020
0.365 2.251 1.725 6041
0.385 2.372 1.812 1450
0.366 2.256 1.718 6041
0.386 2.377 1.805 1693
0.366 2.254 1.707 5730
0.386 2.375 1.794 2596
0.362 2.233 1.682 6469
0.382 2.354 1.769 4473
0.380 2.340 1.748 10453
0.360 2.218 1.662 4119
0.380 2.338 1.737 15922
0.360 2.216 1.651 2574
0.380 2.343 1.730 15922
0.360 2.220 1.645 2227
0.381 2.347 1.723 18729
0.361 2.224 1.639 1486
0.382 2.352 1.717 21536
0.402 2.475 1.801 1437
0.381 2.350 1.705 19027
0.401 2.473 1.790 2371
0.382 2.354 1.699 16681
0.402 2.478 1.782 2971
0.384 2.365 1.696 11884
0.404 2.489 1.780 2908
0.389 2.396 1.707 9050
0.409 2.520 1.790 2437
0.392 2.413 1.709 7926
0.412 2.537 1.791 1797
0.394 2.424 1.706 7294
0.414 2.549 1.788 1482
0.394 2.429 1.699 7284
0.415 2.553 1.781 1423
0.394 2.427 1.688 5340
0.414 2.552 1.769 2366
0.412 2.537 1.749 4134
0.392 2.412 1.668 3859
0.407 2.508 1.720 4805
0.387 2.383 1.640 1458
0.408 2.513 1.713 6435
0.407 2.504 1.697 6634
0.427 2.630 1.777 1428
0.407 2.509 1.690 7082
0.428 2.634 1.770 1867
0.408 2.513 1.683 5595
0.428 2.639 1.762 2145
0.411 2.531 1.684 4302
0.431 2.657 1.763 1934
0.414 2.549 1.685 4909
0.434 2.675 1.763 1120
0.414 2.553 1.677 5703
0.415 2.557 1.670 4716
0.427 2.629 1.703 3768
0.429 2.640 1.700 4961
0.430 2.651 1.696 6241
0.431 2.656 1.689 6074
0.433 2.667 1.685 5969
0.434 2.671 1.677 4701
0.434 2.676 1.669 3806
0.435 2.680 1.662 4040
0.456 2.809 1.736 1052
0.436 2.685 1.654 4148
0.457 2.814 1.728 2372
0.450 2.771 1.693 5289
0.429 2.641 1.619 1498
0.452 2.782 1.689 5146
0.431 2.652 1.615 2137
0.453 2.793 1.684 5206
0.432 2.663 1.611 2761
0.455 2.804 1.680 4640
0.434 2.674 1.607 3553
0.437 2.692 1.607 5216
0.458 2.822 1.680 3866
0.438 2.697 1.599 6142
0.459 2.827 1.671 3244
0.440 2.708 1.595 6682
0.467 2.879 1.690 3571
0.440 2.712 1.587 7226
0.466 2.870 1.674 4934
0.440 2.709 1.576 6511
0.467 2.875 1.665 4555
0.441 2.713 1.568 4847
0.469 2.886 1.661 4206
0.476 2.932 1.675 5690
0.442 2.724 1.564 3961
0.483 2.978 1.688 7487
0.443 2.728 1.556 2939
0.485 2.989 1.683 9109
0.453 2.788 1.577 2638
0.487 3.000 1.678 6928
0.466 2.868 1.609 2458
0.491 3.026 1.680 6599
0.470 2.894 1.612 1755
0.492 3.030 1.671 7474
0.494 3.041 1.666 8813
0.496 3.053 1.661 8317
0.498 3.064 1.655 6368
0.519 3.197 1.722 1328
0.507 3.125 1.675 5900
0.486 2.992 1.608 2179
0.509 3.136 1.669 9731
0.488 3.003 1.603 1886
0.511 3.148 1.663 13186
0.489 3.014 1.597 2199
0.513 3.159 1.658 12686
0.491 3.025 1.592 1805
0.514 3.163 1.648 9421
0.535 3.297 1.713 2382
0.509 3.132 1.622 7721
0.530 3.266 1.687 5241
0.516 3.179 1.633 6821
0.538 3.313 1.698 4101
0.518 3.190 1.627 7282
0.540 3.325 1.691 4779
0.531 3.273 1.655 7369
0.509 3.138 1.591 1900
0.531 3.270 1.642 8278
0.509 3.135 1.579 1589
0.532 3.274 1.633 8699
0.553 3.409 1.695 1301
0.533 3.286 1.626 7616
0.555 3.421 1.689 1292
0.548 3.375 1.656 8131
0.526 3.240 1.594 3308
0.548 3.373 1.643 9927
0.526 3.237 1.581 2046
0.548 3.377 1.633 8764
0.526 3.241 1.572 1395
0.545 3.360 1.614 6957
0.568 3.496 1.674 1223
0.548 3.378 1.610 6902
0.571 3.514 1.670 1652
0.551 3.397 1.607 8904
0.574 3.533 1.666 2239
0.553 3.408 1.600 9882
0.580 3.573 1.672 2760
0.554 3.412 1.590 8871
0.582 3.585 1.664 3056
0.557 3.431 1.586 5728
0.584 3.597 1.657 3295
0.586 3.608 1.650 4914
0.564 3.471 1.591 4176
0.586 3.612 1.639 6673
0.558 3.439 1.566 2417
0.588 3.624 1.632 7014
0.566 3.487 1.574 1573
0.593 3.650 1.630 7117
0.570 3.513 1.573 2139
0.594 3.661 1.622 7226
0.572 3.524 1.566 2291
0.595 3.666 1.612 6417
0.573 3.528 1.555 1718
0.596 3.670 1.601 6532
0.618 3.808 1.657 2451
0.599 3.689 1.596 5996
0.621 3.827 1.651 4235
0.621 3.824 1.637 6948
0.598 3.686 1.582 4694
0.623 3.835 1.629 8389
0.600 3.697 1.575 4446
0.623 3.840 1.618 8418
0.601 3.701 1.564 2577
0.625 3.851 1.610 7832
0.603 3.713 1.556 1416
0.627 3.863 1.601 8239
0.650 4.002 1.654 1448
0.628 3.867 1.590 7263
0.653 4.021 1.648 1825
0.628 3.871 1.579 6187
0.655 4.032 1.639 2470
0.630 3.883 1.570 4787
0.662 4.080 1.644 3782
0.657 4.048 1.619 4291
0.631 3.887 1.559 2988
0.658 4.052 1.607 3208
0.633 3.898 1.550 2356
0.682 4.204 1.648 2952
0.656 4.042 1.590 2559
0.671 4.134 1.610 4190
0.649 3.994 1.559 1709
0.674 4.153 1.603 4336
0.652 4.013 1.553 1239
0.675 4.158 1.591 5302
0.651 4.010 1.538 1026
0.679 4.184 1.586 7196
0.682 4.203 1.579 7631
0.684 4.214 1.569 6547
0.686 4.226 1.560 6879
0.687 4.230 1.547 5685
0.687 4.234 1.535 4341
0.689 4.245 1.525 3904
0.691 4.257 1.515 4669
0.693 4.268 1.505 5862
0.758 4.670 1.635 1176
0.695 4.280 1.495 4514
0.758 4.667 1.619 1422
0.699 4.306 1.490 3496
0.757 4.664 1.603 2094
0.758 4.668 1.590 2980
0.702 4.325 1.482 2807
0.759 4.672 1.576 2417
0.702 4.321 1.467 2024
0.776 4.781 1.595 2490
0.671 4.130 1.394 2035
0.761 4.688 1.551 3019
0.675 4.156 1.389 2031
0.778 4.789 1.567 2646
0.675 4.160 1.377 2015
0.778 4.793 1.553 2281
0.672 4.141 1.358 2246
0.670 4.130 1.342 2356
0.800 4.925 1.576 1561
0.800 4.929 1.562 3000
0.673 4.148 1.334 1931
0.801 4.933 1.547 3901
0.674 4.152 1.322 1225
0.802 4.937 1.533 2599
0.802 4.941 1.519 2491
0.825 5.084 1.559 1288
0.807 4.968 1.510 2700
0.830 5.111 1.550 1698
0.811 4.994 1.502 2365
0.834 5.137 1.542 2228
0.811 4.998 1.487 3230
0.849 5.232 1.551 2323
0.827 5.093 1.497 3254
0.850 5.236 1.536 2875
0.851 5.240 1.521 3546
0.825 5.081 1.478 3220
0.855 5.267 1.511 4372
0.829 5.108 1.469 2231
0.866 5.331 1.512 4713
0.842 5.187 1.474 1970
0.867 5.343 1.498 5095
0.896 5.517 1.543 3244
0.869 5.354 1.484 3100
0.898 5.529 1.528 2914
0.906 5.578 1.524 2868
0.865 5.328 1.461 2538
0.915 5.635 1.520 3678
0.868 5.347 1.449 2675
0.916 5.639 1.504 4383
0.892 5.495 1.469 1514
0.916 5.643 1.487 4015
0.940 5.787 1.522 1908
0.917 5.647 1.471 2989
0.940 5.791 1.505 2649
0.936 5.765 1.481 3880
0.959 5.910 1.515 1961
0.937 5.769 1.464 4126
0.972 5.990 1.516 2461
0.966 5.948 1.487 3951
0.937 5.773 1.447 2605
0.966 5.952 1.470 5955
0.937 5.769 1.429 1650
0.969 5.971 1.456 4649
1.013 6.238 1.515 1664
0.971 5.982 1.440 1936
1.013 6.242 1.497 1581
1.014 6.246 1.479 1696
0.987 6.078 1.442 1538
1.020 6.280 1.467 2982
1.043 6.425 1.498 1123
1.021 6.292 1.450 3266
1.045 6.437 1.481 1224
1.037 6.387 1.451 2414
1.010 6.219 1.416 2013
1.053 6.483 1.451 3186
1.029 6.337 1.421 2142
1.044 6.433 1.421 4152
1.021 6.287 1.392 2015
1.046 6.444 1.404 3640
1.086 6.690 1.452 1890
1.049 6.463 1.388 2098
1.088 6.701 1.434 1874
1.135 6.989 1.469 3122
1.104 6.797 1.432 2181
1.134 6.985 1.447 3201
1.107 6.816 1.415 2168
1.108 6.827 1.396 2947
1.136 6.997 1.428 2204
1.108 6.823 1.375 2691
1.140 7.023 1.412 2110
1.141 7.027 1.391 1751
1.173 7.227 1.427 1639
1.268 7.808 1.508 1649
1.188 7.315 1.421 1387
1.247 7.681 1.462 1853
1.198 7.381 1.410 1715
1.270 7.824 1.463 1822
1.243 7.654 1.434 1642
1.271 7.827 1.440 1646
1.241 7.642 1.409 1641
1.347 8.294 1.493 1954
1.238 7.623 1.383 1814
1.368 8.429 1.490 2395
1.345 8.282 1.466 1962
1.374 8.464 1.470 2527
1.437 8.850 1.531 1713
1.373 8.460 1.444 3878
1.436 8.846 1.504 2860
1.372 8.448 1.417 5198
1.436 8.842 1.477 3287
1.375 8.467 1.394 4818
1.436 8.846 1.451 3069
1.374 8.463 1.368 4748
1.439 8.865 1.427 3581
1.440 8.869 1.401 5828
1.373 8.459 1.342 4932
1.440 8.872 1.375 7976
1.376 8.478 1.319 3425
1.441 8.876 1.349 7663
1.378 8.489 1.296 1814
1.442 8.879 1.323 5852
1.488 9.166 1.361 1764
1.441 8.875 1.295 3962
1.487 9.162 1.333 1546
1.440 8.871 1.268 2193
1.507 9.281 1.321 1632
1.509 9.293 1.295 1343
1.441 8.874 1.242 1014
0.373 2.258 1.740 3241
0.374 2.263 1.734 6483
0.354 2.142 1.647 1469
0.375 2.267 1.727 6483
0.355 2.146 1.640 1469
0.373 2.259 1.712 5463
0.393 2.380 1.798 1975
0.369 2.232 1.682 5990
0.389 2.353 1.769 5225
0.386 2.339 1.748 10454
0.366 2.217 1.662 4159
0.387 2.343 1.742 15347
0.367 2.221 1.656 3415
0.388 2.348 1.735 15347
0.368 2.226 1.650 3075
0.388 2.346 1.723 17692
0.367 2.223 1.639 1636
0.388 2.351 1.717 20045
0.409 2.473 1.801 1407
0.388 2.349 1.705 17614
0.408 2.472 1.790 2418
0.389 2.353 1.699 15436
0.409 2.476 1.782 3069
0.391 2.364 1.696 11071
0.411 2.488 1.780 2813
0.398 2.408 1.716 9845
0.418 2.531 1.799 1566
0.399 2.412 1.709 9105
0.419 2.536 1.791 1566
0.400 2.423 1.706 8616
0.421 2.548 1.788 1393
0.401 2.428 1.699 8562
0.422 2.552 1.781 1438
0.400 2.419 1.683 6535
0.420 2.544 1.765 2943
0.418 2.529 1.745 4993
0.397 2.404 1.664 4566
0.415 2.514 1.725 5486
0.395 2.388 1.644 2029
0.415 2.512 1.713 6888
0.415 2.510 1.702 7242
0.435 2.635 1.782 1117
0.414 2.507 1.690 7803
0.435 2.633 1.770 1755
0.416 2.518 1.687 6604
0.437 2.645 1.766 1744
0.421 2.550 1.696 6155
0.422 2.554 1.689 7157
0.423 2.558 1.682 8159
0.422 2.556 1.670 6659
0.423 2.561 1.663 5268
0.437 2.645 1.704 5486
0.416 2.518 1.627 1518
0.438 2.650 1.696 7216
0.417 2.522 1.620 1187
0.439 2.654 1.689 7227
0.440 2.666 1.685 7286
0.440 2.663 1.673 5598
0.442 2.675 1.669 4028
0.443 2.679 1.662 3937
0.455 2.751 1.693 4475
0.433 2.622 1.619 1271
0.458 2.769 1.693 6188
0.436 2.640 1.619 1613
0.459 2.781 1.689 5896
0.438 2.651 1.615 2030
0.462 2.799 1.688 5971
0.441 2.669 1.615 2724
0.463 2.803 1.680 5608
0.442 2.673 1.607 2745
0.464 2.808 1.672 5245
0.442 2.677 1.600 3507
0.446 2.702 1.603 4948
0.468 2.832 1.675 3968
0.446 2.700 1.592 5612
0.470 2.844 1.671 3908
0.447 2.704 1.584 6289
0.473 2.862 1.670 5091
0.447 2.708 1.576 5884
0.475 2.873 1.665 4463
0.448 2.712 1.568 4659
0.475 2.878 1.657 3904
0.484 2.930 1.675 5760
0.450 2.723 1.564 3970
0.492 2.976 1.688 8126
0.459 2.776 1.582 3259
0.494 2.988 1.683 9870
0.460 2.787 1.577 3486
0.497 3.006 1.682 7528
0.475 2.874 1.613 3302
0.500 3.024 1.680 7383
0.478 2.892 1.612 2051
0.500 3.029 1.671 8112
0.462 2.799 1.553 1102
0.502 3.040 1.666 9054
0.504 3.051 1.661 7759
0.506 3.063 1.655 5654
0.528 3.196 1.722 1074
0.516 3.123 1.675 6086
0.494 2.990 1.608 2359
0.517 3.128 1.665 10299
0.495 2.994 1.599 1889
0.519 3.139 1.660 13388
0.497 3.006 1.594 2409
0.520 3.150 1.654 13065
0.498 3.017 1.589 1992
0.520 3.148 1.642 10296
0.542 3.282 1.707 2763
0.517 3.131 1.622 9374
0.539 3.265 1.687 4823
0.524 3.170 1.630 7006
0.546 3.305 1.694 4264
0.527 3.189 1.627 7276
0.549 3.323 1.691 4393
0.540 3.271 1.655 6835
0.518 3.137 1.591 2027
0.541 3.275 1.645 8045
0.519 3.141 1.582 1834
0.542 3.280 1.636 8380
0.520 3.145 1.573 1387
0.543 3.284 1.626 7570
0.565 3.419 1.689 1400
0.557 3.374 1.656 8208
0.535 3.239 1.594 2812
0.558 3.378 1.646 9629
0.536 3.243 1.585 2144
0.559 3.382 1.636 8216
0.536 3.247 1.575 1549
0.554 3.351 1.610 6900
0.576 3.487 1.671 1479
0.557 3.370 1.607 7295
0.579 3.506 1.667 2366
0.561 3.395 1.607 9005
0.583 3.531 1.666 2569
0.563 3.407 1.600 9585
0.585 3.543 1.659 3062
0.564 3.411 1.590 8885
0.591 3.576 1.661 3303
0.565 3.422 1.583 5594
0.594 3.595 1.657 3865
0.596 3.606 1.650 5231
0.573 3.470 1.591 2885
0.597 3.611 1.639 7490
0.574 3.474 1.581 2322
0.598 3.622 1.632 9043
0.576 3.485 1.574 2350
0.602 3.641 1.627 9101
0.579 3.504 1.570 2126
0.603 3.653 1.619 8411
0.581 3.515 1.563 2070
0.605 3.664 1.612 6707
0.628 3.802 1.668 1748
0.613 3.712 1.619 5933
0.590 3.574 1.563 1586
0.612 3.702 1.602 4919
0.634 3.839 1.657 3288
0.631 3.822 1.637 6218
0.609 3.684 1.582 4058
0.633 3.834 1.629 8262
0.610 3.695 1.575 3972
0.634 3.838 1.618 8982
0.611 3.699 1.564 2287
0.636 3.849 1.610 8425
0.659 3.988 1.663 1406
0.638 3.861 1.601 8851
0.661 4.000 1.654 1496
0.639 3.865 1.590 7875
0.664 4.019 1.648 1446
0.639 3.869 1.579 6665
0.667 4.038 1.642 1962
0.640 3.873 1.567 4859
0.671 4.064 1.639 3607
0.668 4.046 1.619 4823
0.641 3.878 1.556 2790
0.669 4.051 1.607 3914
0.692 4.190 1.658 2190
0.677 4.099 1.611 3270
0.654 3.959 1.560 1823
0.683 4.132 1.610 4392
0.651 3.941 1.541 1181
0.686 4.151 1.603 4494
0.687 4.156 1.591 4775
0.663 4.016 1.541 1040
0.692 4.189 1.589 6188
0.694 4.201 1.579 7901
0.696 4.212 1.569 8233
0.698 4.224 1.560 8701
0.698 4.228 1.547 6844
0.699 4.232 1.535 5914
0.700 4.236 1.523 5599
0.700 4.240 1.510 5923
0.766 4.634 1.639 1087
0.704 4.259 1.503 7171
0.772 4.675 1.638 1560
0.708 4.285 1.497 5750
0.772 4.672 1.622 2096
0.711 4.304 1.490 3295
0.770 4.662 1.603 2476
0.770 4.658 1.587 3345
0.717 4.338 1.486 2814
0.772 4.670 1.576 2809
0.715 4.327 1.469 2125
0.792 4.794 1.599 2809
0.768 4.652 1.555 2068
0.795 4.813 1.590 2706
0.772 4.671 1.546 2612
0.795 4.809 1.573 2514
0.684 4.143 1.372 2477
0.788 4.769 1.546 2381
0.684 4.139 1.358 2305
0.684 4.143 1.346 2134
0.800 4.840 1.552 1831
0.815 4.934 1.564 3510
0.685 4.146 1.334 1971
0.817 4.946 1.552 4203
0.686 4.150 1.322 1374
0.817 4.942 1.535 2696
0.840 5.085 1.576 1006
0.822 4.976 1.529 2208
0.822 4.973 1.512 2656
0.845 5.116 1.552 1717
0.823 4.984 1.500 2522
0.847 5.128 1.540 2005
0.843 5.101 1.516 3123
0.819 4.958 1.477 1870
0.843 5.105 1.501 3855
0.867 5.249 1.540 1874
0.863 5.223 1.517 4048
0.839 5.079 1.478 3325
0.865 5.234 1.503 4518
0.841 5.090 1.465 2566
0.879 5.321 1.510 6063
0.855 5.177 1.472 2230
0.881 5.333 1.496 6630
0.912 5.522 1.545 2835
0.879 5.321 1.476 4221
0.914 5.534 1.530 2653
0.921 5.576 1.524 3283
0.880 5.325 1.461 2771
0.932 5.640 1.522 4087
0.883 5.344 1.449 2716
0.931 5.637 1.504 4479
0.900 5.447 1.458 1932
0.932 5.640 1.487 3439
0.956 5.785 1.522 1850
0.951 5.758 1.498 2761
0.927 5.614 1.464 1977
0.952 5.762 1.481 3794
0.976 5.907 1.515 2029
0.953 5.766 1.464 4533
0.989 5.987 1.516 2618
0.981 5.938 1.486 4201
0.952 5.762 1.446 2772
0.982 5.941 1.468 6572
1.028 6.223 1.532 1621
0.983 5.953 1.453 4981
1.030 6.235 1.515 1665
0.985 5.964 1.437 2011
1.031 6.239 1.497 1466
1.029 6.228 1.476 1813
1.005 6.082 1.444 1428
1.036 6.270 1.465 2904
1.060 6.415 1.496 1544
1.038 6.281 1.449 3226
1.062 6.426 1.479 1798
1.056 6.392 1.452 2794
1.027 6.216 1.416 1957
1.057 6.396 1.434 2920
1.081 6.541 1.463 1795
1.060 6.415 1.418 3415
1.103 6.675 1.470 2201
1.103 6.679 1.451 2861
1.064 6.441 1.404 2729
1.105 6.690 1.433 2402
1.153 6.982 1.489 1992
1.154 6.986 1.469 3390
1.121 6.786 1.431 1735
1.153 6.982 1.447 3234
1.127 6.821 1.417 2004
1.127 6.824 1.396 2586
1.154 6.986 1.426 2130
1.127 6.820 1.375 2225
1.167 7.066 1.420 1986
1.163 7.039 1.394 1960
1.193 7.224 1.427 1775
1.209 7.320 1.422 1622
1.270 7.689 1.487 1467
1.218 7.370 1.408 1988
1.270 7.685 1.463 1711
1.293 7.828 1.464 2259
1.218 7.373 1.387 1867
1.295 7.839 1.443 1908
1.265 7.654 1.412 1633
1.372 8.305 1.496 2022
1.300 7.866 1.423 1765
1.393 8.433 1.491 2113
1.369 8.286 1.467 1744
1.399 8.467 1.471 2302
1.330 8.051 1.405 1690
1.398 8.464 1.445 3348
1.461 8.842 1.504 2488
1.395 8.444 1.417 4428
1.460 8.838 1.477 2716
1.398 8.463 1.394 4162
1.461 8.842 1.451 2502
1.399 8.467 1.369 3835
1.464 8.861 1.427 2921
1.465 8.865 1.401 5247
1.398 8.463 1.343 3817
1.465 8.868 1.375 7637
1.400 8.474 1.319 2833
1.466 8.872 1.349 7469
1.402 8.485 1.296 1579
1.466 8.875 1.323 5874
1.514 9.162 1.361 1316
1.467 8.879 1.296 4061
1.530 9.258 1.346 1485
1.466 8.874 1.269 2045
1.533 9.277 1.321 1889
1.534 9.288 1.295 1519
0.382 2.263 1.745 3335
0.362 2.143 1.657 1073
0.383 2.268 1.738 6670
0.363 2.147 1.651 2146
0.384 2.272 1.732 6670
0.363 2.151 1.645 2146
0.382 2.264 1.716 5212
0.403 2.385 1.803 1378
0.395 2.339 1.760 6451
0.374 2.217 1.673 4967
0.395 2.337 1.748 10445
0.374 2.215 1.662 3955
0.395 2.342 1.742 14718
0.375 2.220 1.656 3327
0.396 2.346 1.735 14718
0.376 2.224 1.650 3008
0.396 2.345 1.723 16477
0.375 2.222 1.639 1661
0.397 2.349 1.717 18313
0.376 2.226 1.632 1335
0.397 2.354 1.710 15937
0.418 2.477 1.794 1782
0.397 2.352 1.699 13870
0.418 2.475 1.782 2873
0.400 2.369 1.701 10069
0.421 2.493 1.784 2095
0.406 2.406 1.716 9997
0.427 2.530 1.799 1267
0.408 2.417 1.713 9430
0.429 2.541 1.796 1084
0.409 2.422 1.706 9074
0.430 2.546 1.788 1297
0.410 2.426 1.699 9019
0.431 2.551 1.781 1455
0.408 2.418 1.683 7122
0.429 2.542 1.765 3074
0.408 2.416 1.672 5631
0.429 2.540 1.753 5002
0.424 2.512 1.725 5848
0.403 2.387 1.644 2118
0.423 2.504 1.709 7045
0.424 2.508 1.702 7648
0.445 2.634 1.782 1034
0.423 2.506 1.690 8370
0.444 2.632 1.770 1599
0.425 2.517 1.687 7257
0.446 2.643 1.766 1550
0.430 2.548 1.696 7273
0.431 2.552 1.689 8444
0.432 2.557 1.682 9615
0.433 2.561 1.674 7832
0.432 2.559 1.663 6221
0.446 2.644 1.704 5650
0.425 2.517 1.627 1940
0.447 2.648 1.696 7601
0.426 2.521 1.620 1498
0.448 2.653 1.689 7773
0.450 2.664 1.685 7947
0.449 2.662 1.673 6027
0.450 2.666 1.665 3906
0.452 2.677 1.662 3503
0.465 2.756 1.697 4437
0.444 2.627 1.623 1614
0.467 2.768 1.693 6192
0.446 2.638 1.619 1655
0.469 2.779 1.689 5885
0.447 2.650 1.615 1952
0.472 2.797 1.688 6039
0.450 2.667 1.615 2545
0.473 2.801 1.680 5943
0.451 2.672 1.607 2225
0.475 2.813 1.676 5871
0.453 2.683 1.603 2877
0.477 2.824 1.671 4626
0.455 2.694 1.599 3929
0.456 2.698 1.592 4553
0.480 2.842 1.671 4220
0.456 2.702 1.584 5178
0.483 2.860 1.670 5146
0.457 2.706 1.576 4988
0.485 2.872 1.665 4356
0.458 2.710 1.568 4145
0.486 2.876 1.657 3697
0.495 2.929 1.675 5570
0.460 2.721 1.564 3644
0.502 2.975 1.688 8149
0.460 2.726 1.556 3012
0.504 2.986 1.683 9995
0.470 2.785 1.577 3163
0.507 3.004 1.682 7844
0.485 2.872 1.613 3391
0.512 3.029 1.684 8092
0.489 2.897 1.615 2425
0.512 3.034 1.675 8499
0.472 2.797 1.553 1084
0.513 3.038 1.666 8940
0.515 3.050 1.661 7042
0.517 3.061 1.655 4949
0.526 3.114 1.671 6047
0.503 2.981 1.604 2172
0.528 3.126 1.665 10371
0.505 2.993 1.599 2003
0.530 3.137 1.660 12952
0.507 3.004 1.594 2625
0.530 3.142 1.651 12898
0.508 3.008 1.585 1847
0.530 3.139 1.638 11187
0.553 3.273 1.703 2531
0.528 3.129 1.622 10497
0.551 3.263 1.687 4144
0.531 3.147 1.620 7833
0.554 3.282 1.684 4075
0.538 3.187 1.627 7349
0.561 3.321 1.691 3946
0.552 3.269 1.655 6457
0.529 3.135 1.591 2119
0.554 3.281 1.649 8095
0.531 3.146 1.586 2132
0.555 3.285 1.639 8239
0.532 3.150 1.577 1615
0.554 3.282 1.626 7317
0.577 3.417 1.689 1406
0.569 3.372 1.656 7645
0.547 3.237 1.594 2452
0.570 3.376 1.646 8869
0.547 3.241 1.585 1777
0.571 3.380 1.636 7394
0.548 3.245 1.575 1375
0.563 3.335 1.604 7057
0.586 3.470 1.665 1730
0.567 3.360 1.604 7577
0.590 3.496 1.664 3014
0.574 3.400 1.610 9074
0.597 3.537 1.669 2685
0.576 3.412 1.603 8958
0.599 3.548 1.662 3287
0.577 3.416 1.593 8256
0.604 3.574 1.661 3396
0.578 3.420 1.583 5163
0.607 3.593 1.657 4099
0.607 3.597 1.647 4925
0.579 3.432 1.576 2452
0.609 3.609 1.639 7045
0.586 3.472 1.581 2750
0.613 3.627 1.635 9618
0.588 3.483 1.574 2953
0.614 3.639 1.627 10027
0.591 3.502 1.570 2369
0.615 3.643 1.616 9055
0.592 3.506 1.560 1762
0.620 3.669 1.615 6583
0.643 3.807 1.671 1753
0.628 3.717 1.622 6524
0.604 3.579 1.566 1628
0.627 3.714 1.608 4456
0.650 3.852 1.663 2103
0.645 3.820 1.637 5423
0.622 3.682 1.582 3372
0.647 3.831 1.629 7757
0.624 3.693 1.575 3381
0.648 3.836 1.618 8826
0.624 3.697 1.564 1999
0.650 3.847 1.610 8408
0.673 3.986 1.663 1456
0.652 3.859 1.601 8817
0.675 3.997 1.654 1559
0.652 3.863 1.590 8227
0.678 4.016 1.648 1292
0.654 3.874 1.581 7353
0.684 4.050 1.648 1716
0.654 3.871 1.567 5204
0.686 4.062 1.639 3257
0.684 4.051 1.621 4913
0.653 3.868 1.553 2690
0.685 4.055 1.609 4643
0.708 4.195 1.661 1994
0.692 4.096 1.611 3727
0.668 3.957 1.560 2206
0.697 4.130 1.610 4463
0.665 3.939 1.541 1529
0.701 4.149 1.603 4598
0.677 4.009 1.553 1213
0.700 4.146 1.588 4399
0.676 4.006 1.538 1032
0.711 4.209 1.597 5462
0.687 4.069 1.547 1814
0.710 4.206 1.582 7751
0.687 4.065 1.533 1031
0.711 4.210 1.569 9022
0.713 4.221 1.560 9406
0.714 4.225 1.547 7120
0.714 4.230 1.535 6510
0.715 4.234 1.523 6126
0.779 4.612 1.648 1013
0.716 4.237 1.510 6361
0.777 4.601 1.630 1227
0.720 4.264 1.505 7762
0.775 4.591 1.611 1864
0.723 4.283 1.497 6194
0.791 4.684 1.627 2433
0.725 4.294 1.487 2991
0.788 4.666 1.606 2486
0.785 4.648 1.585 3299
0.732 4.335 1.486 2215
0.788 4.667 1.576 2934
0.729 4.316 1.467 1821
0.810 4.798 1.602 2873
0.786 4.656 1.558 2187
0.812 4.810 1.590 2598
0.699 4.137 1.384 2215
0.814 4.822 1.578 2289
0.699 4.141 1.372 2229
0.805 4.766 1.546 2359
0.699 4.137 1.358 1925
0.818 4.845 1.554 1921
0.698 4.133 1.344 1608
0.833 4.931 1.564 3339
0.698 4.136 1.332 1593
0.835 4.943 1.552 4210
0.811 4.800 1.511 1369
0.834 4.939 1.535 2966
0.834 4.936 1.519 2493
0.858 5.079 1.559 1568
0.838 4.962 1.510 2700
0.862 5.105 1.550 1721
0.837 4.959 1.494 2584
0.863 5.109 1.535 2237
0.861 5.098 1.516 3953
0.837 4.955 1.477 2129
0.863 5.110 1.503 4670
0.887 5.253 1.542 2109
0.881 5.220 1.517 4195
0.857 5.076 1.478 3360
0.881 5.216 1.499 4779
0.857 5.072 1.461 2596
0.898 5.318 1.510 6170
0.874 5.174 1.472 2204
0.900 5.330 1.496 7365
0.931 5.511 1.543 2818
0.899 5.326 1.478 4720
0.938 5.553 1.536 2752
0.940 5.565 1.522 3443
0.897 5.315 1.459 2421
0.951 5.629 1.520 3794
0.926 5.485 1.485 2673
0.951 5.633 1.504 4216
0.919 5.443 1.458 2121
0.951 5.630 1.486 3181
0.975 5.774 1.520 2193
0.972 5.755 1.498 3076
0.947 5.611 1.464 1657
0.972 5.759 1.481 3952
0.997 5.903 1.515 2097
0.973 5.763 1.464 4361
1.010 5.983 1.516 2508
0.998 5.911 1.481 4336
0.972 5.759 1.446 2579
1.001 5.930 1.467 6697
1.026 6.075 1.499 1640
1.003 5.942 1.451 5033
1.028 6.086 1.483 1923
1.005 5.953 1.435 2162
1.030 6.098 1.467 1645
1.052 6.232 1.477 1848
1.028 6.087 1.446 1230
1.057 6.258 1.464 3098
1.081 6.403 1.495 1756
1.060 6.277 1.449 3262
1.085 6.423 1.479 2030
1.080 6.396 1.454 3147
1.049 6.212 1.416 1853
1.081 6.400 1.435 2795
1.105 6.545 1.465 1715
1.125 6.664 1.469 3037
1.083 6.411 1.418 2497
1.127 6.675 1.451 3547
1.088 6.445 1.405 1909
1.129 6.687 1.433 2755
1.178 6.978 1.489 1871
1.179 6.982 1.469 3064
1.135 6.721 1.419 1924
1.178 6.978 1.447 2911
1.152 6.824 1.418 1860
1.196 7.081 1.445 2375
1.153 6.828 1.398 2194
1.194 7.070 1.421 2421
1.152 6.824 1.376 1734
1.192 7.058 1.398 2435
1.220 7.227 1.428 1929
1.240 7.346 1.427 1750
1.189 7.039 1.373 1590
1.244 7.365 1.408 2149
1.296 7.673 1.462 1585
1.244 7.369 1.387 2193
1.321 7.823 1.464 2036
1.294 7.665 1.414 1765
1.324 7.842 1.444 1748
1.403 8.308 1.497 2001
1.329 7.869 1.425 1703
1.357 8.035 1.428 1843
1.424 8.435 1.492 1738
1.429 8.462 1.471 1962
1.357 8.038 1.404 1858
1.428 8.459 1.445 2632
1.492 8.837 1.504 2007
1.425 8.439 1.417 3451
1.492 8.833 1.477 2099
1.428 8.458 1.394 3386
1.491 8.829 1.449 2012
1.430 8.469 1.370 3024
1.497 8.864 1.428 2426
1.497 8.867 1.402 4522
1.429 8.465 1.344 2789
1.497 8.863 1.375 6817
1.431 8.476 1.320 2178
1.497 8.867 1.349 6775
1.559 9.230 1.399 1348
1.499 8.878 1.324 5415
1.559 9.234 1.371 1397
1.498 8.873 1.296 3783
1.561 9.245 1.345 1713
1.564 9.264 1.320 1998
1.498 8.869 1.269 1914
1.568 9.283 1.295 1526
0.390 2.262 1.745 3567
0.369 2.141 1.657 1118
0.390 2.266 1.738 7134
0.370 2.146 1.651 2237
0.391 2.271 1.732 7134
0.370 2.150 1.645 2237
0.394 2.288 1.734 5809
0.373 2.167 1.648 2664
0.403 2.338 1.760 7441
0.382 2.216 1.673 4347
0.402 2.336 1.748 10827
0.381 2.214 1.662 3751
0.403 2.341 1.742 14444
0.382 2.219 1.656 3329
0.404 2.345 1.735 14444
0.383 2.223 1.650 3008
0.404 2.343 1.723 15513
0.383 2.221 1.639 1735
0.404 2.348 1.717 16705
0.383 2.225 1.632 1453
0.405 2.352 1.710 14252
0.426 2.475 1.794 1528
0.405 2.350 1.699 12132
0.426 2.474 1.782 2509
0.409 2.374 1.705 9177
0.430 2.498 1.788 1297
0.414 2.405 1.716 9977
0.416 2.416 1.713 9639
0.417 2.420 1.706 9418
0.438 2.545 1.788 1174
0.418 2.425 1.699 9411
0.439 2.549 1.781 1468
0.417 2.423 1.688 7585
0.439 2.547 1.769 2721
0.416 2.414 1.672 6225
0.437 2.539 1.753 5175
0.431 2.504 1.720 6405
0.410 2.379 1.640 1603
0.431 2.502 1.709 7450
0.431 2.500 1.697 8340
0.452 2.626 1.777 1123
0.431 2.504 1.690 9275
0.453 2.630 1.770 1398
0.434 2.522 1.691 7998
0.456 2.648 1.770 1104
0.439 2.547 1.696 8138
0.439 2.551 1.689 9579
0.440 2.556 1.682 11019
0.441 2.560 1.674 9053
0.439 2.551 1.659 7463
0.461 2.678 1.736 1276
0.440 2.555 1.651 5878
0.462 2.683 1.728 2888
0.456 2.647 1.696 7958
0.434 2.519 1.620 2107
0.457 2.651 1.689 8214
0.435 2.524 1.612 1320
0.457 2.656 1.681 8470
0.458 2.660 1.673 6238
0.459 2.665 1.665 3554
0.461 2.676 1.662 2873
0.476 2.762 1.701 4283
0.454 2.633 1.626 1870
0.476 2.766 1.693 5998
0.452 2.623 1.611 1969
0.478 2.777 1.689 5757
0.456 2.648 1.615 2059
0.482 2.795 1.688 6066
0.459 2.666 1.615 2709
0.483 2.807 1.684 6084
0.461 2.677 1.611 2235
0.485 2.818 1.680 6260
0.463 2.688 1.607 2214
0.487 2.829 1.675 5094
0.465 2.699 1.603 2765
0.489 2.840 1.671 4636
0.464 2.696 1.592 3141
0.491 2.852 1.666 5309
0.465 2.701 1.584 3586
0.494 2.870 1.665 4303
0.466 2.705 1.576 3780
0.468 2.716 1.572 3583
0.495 2.874 1.657 3517
0.503 2.920 1.671 5365
0.470 2.727 1.567 3318
0.513 2.980 1.692 7965
0.470 2.731 1.560 2963
0.514 2.984 1.683 9946
0.479 2.783 1.577 3070
0.518 3.009 1.685 8387
0.496 2.878 1.616 4335
0.523 3.035 1.687 9116
0.500 2.903 1.619 2855
0.522 3.032 1.675 9044
0.482 2.796 1.553 1373
0.523 3.037 1.666 8762
0.482 2.800 1.545 1142
0.525 3.048 1.661 6296
0.533 3.094 1.673 4443
0.510 2.962 1.606 1868
0.536 3.113 1.671 6561
0.513 2.980 1.604 2009
0.538 3.124 1.665 10405
0.515 2.991 1.599 2038
0.539 3.128 1.656 12207
0.516 2.995 1.591 2229
0.541 3.140 1.651 12408
0.518 3.006 1.585 1947
0.540 3.137 1.638 12111
0.563 3.271 1.703 2162
0.540 3.134 1.626 12009
0.563 3.268 1.690 3302
0.542 3.146 1.620 9006
0.566 3.287 1.687 3630
0.549 3.185 1.627 7627
0.572 3.319 1.691 3689
0.566 3.289 1.665 6592
0.543 3.154 1.601 3810
0.567 3.293 1.655 8751
0.544 3.158 1.592 3085
0.567 3.290 1.642 8347
0.544 3.155 1.580 2067
0.566 3.287 1.630 7242
0.580 3.370 1.656 6920
0.557 3.235 1.594 2288
0.581 3.374 1.646 8056
0.558 3.239 1.585 1406
0.583 3.386 1.639 6877
0.560 3.250 1.578 1527
0.573 3.326 1.601 7814
0.596 3.461 1.661 2186
0.576 3.344 1.597 7969
0.599 3.480 1.658 3784
0.587 3.406 1.613 8891
0.610 3.542 1.673 2931
0.587 3.410 1.603 7909
0.611 3.546 1.662 3746
0.588 3.414 1.593 7024
0.614 3.565 1.658 3383
0.588 3.411 1.580 4423
0.617 3.584 1.654 4097
0.618 3.588 1.643 4395
0.590 3.422 1.573 2222
0.621 3.607 1.639 6103
0.596 3.463 1.578 3528
0.624 3.625 1.635 9902
0.598 3.474 1.571 3770
0.626 3.637 1.627 10733
0.603 3.500 1.570 2681
0.626 3.634 1.613 9639
0.650 3.771 1.670 1926
0.633 3.674 1.618 6608
0.657 3.812 1.674 1783
0.641 3.722 1.624 7351
0.617 3.584 1.569 1611
0.642 3.726 1.614 4877
