2.118 2.171 1.708 8536
2.025 2.076 1.638 3987
2.131 2.184 1.706 7529
2.038 2.089 1.637 3095
2.115 2.167 1.683 6805
2.021 2.072 1.614 1909
2.152 2.206 1.700 7766
2.059 2.110 1.631 2495
2.155 2.209 1.691 7434
2.047 2.098 1.612 1179
2.134 2.187 1.664 5987
2.227 2.283 1.732 1402
2.162 2.216 1.673 5731
2.189 2.244 1.682 5438
2.283 2.340 1.749 1144
2.198 2.252 1.677 6252
2.292 2.349 1.744 1422
2.206 2.261 1.671 5408
2.300 2.357 1.738 1652
2.219 2.274 1.669 4578
2.313 2.371 1.735 2357
2.281 2.338 1.701 6732
2.187 2.242 1.636 5536
2.285 2.342 1.692 7489
2.190 2.245 1.627 5259
2.288 2.345 1.683 7857
2.193 2.248 1.618 3744
2.296 2.353 1.677 7495
2.201 2.256 1.612 2572
2.299 2.356 1.667 8499
2.399 2.459 1.735 2828
2.342 2.401 1.685 8012
2.247 2.303 1.621 1708
2.370 2.430 1.692 8818
2.275 2.332 1.628 2401
2.379 2.438 1.685 10119
2.283 2.340 1.622 1460
2.387 2.446 1.679 11099
2.291 2.349 1.616 1112
2.395 2.455 1.672 9674
2.403 2.463 1.666 6049
2.499 2.561 1.727 1022
2.411 2.471 1.659 5182
2.507 2.570 1.720 1044
2.424 2.485 1.655 6524
2.520 2.583 1.716 1081
2.443 2.504 1.655 8665
2.539 2.602 1.716 1389
2.446 2.507 1.645 6149
2.542 2.606 1.705 1658
2.444 2.505 1.632 4105
2.540 2.604 1.692 2283
2.452 2.513 1.625 4109
2.548 2.612 1.684 2809
2.521 2.584 1.655 3694
2.424 2.485 1.596 1818
2.514 2.577 1.639 5017
2.611 2.676 1.697 2837
2.609 2.674 1.683 5955
2.512 2.575 1.625 4895
2.612 2.677 1.673 6699
2.515 2.578 1.615 3972
2.615 2.680 1.662 5287
2.518 2.581 1.604 2971
2.598 2.662 1.639 5628
2.695 2.762 1.696 1640
2.621 2.687 1.640 7058
2.524 2.587 1.584 1685
2.614 2.679 1.624 6320
2.711 2.779 1.680 2366
2.596 2.661 1.601 5329
2.694 2.761 1.657 4110
2.697 2.764 1.646 8175
2.599 2.664 1.590 2964
2.705 2.773 1.637 8257
2.803 2.873 1.692 1709
2.713 2.781 1.629 5209
2.811 2.882 1.684 2062
2.711 2.779 1.615 3685
2.809 2.879 1.669 2636
2.735 2.803 1.615 4647
2.843 2.914 1.675 2984
2.815 2.886 1.646 5463
2.717 2.785 1.593 3994
2.819 2.889 1.634 7061
2.720 2.788 1.582 3109
2.816 2.887 1.620 4474
2.915 2.988 1.673 1475
2.876 2.948 1.639 3620
2.778 2.847 1.586 2291
2.911 2.983 1.643 2813
2.807 2.877 1.589 1948
2.862 2.933 1.604 2824
2.986 3.061 1.669 1904
2.958 3.032 1.640 4158
2.859 2.931 1.590 2359
2.972 3.046 1.633 5498
2.852 2.923 1.572 1631
2.980 3.055 1.624 4743
3.079 3.156 1.674 1991
3.009 3.084 1.625 4190
3.108 3.186 1.674 1915
3.017 3.093 1.615 3854
3.117 3.195 1.664 2689
3.104 3.182 1.643 4117
3.203 3.284 1.692 2470
3.050 3.126 1.603 3734
3.149 3.228 1.651 3478
3.152 3.231 1.638 5861
3.042 3.118 1.585 3433
3.160 3.239 1.627 5741
3.040 3.116 1.570 1985
3.216 3.296 1.639 7434
3.111 3.189 1.590 1894
3.214 3.294 1.623 9747
3.046 3.122 1.545 1560
3.222 3.303 1.613 8826
3.322 3.405 1.659 1238
3.235 3.316 1.604 8114
3.336 3.419 1.650 1075
3.233 3.314 1.588 9136
3.333 3.417 1.634 2294
3.231 3.312 1.573 9731
3.331 3.414 1.618 2565
3.234 3.315 1.559 7289
3.334 3.417 1.604 2088
3.311 3.393 1.578 4706
3.210 3.290 1.534 2363
3.314 3.396 1.565 3437
3.213 3.293 1.521 1764
3.316 3.399 1.551 3113
3.216 3.296 1.508 1046
3.335 3.419 1.544 4823
3.359 3.443 1.539 5917
3.367 3.452 1.528 5543
3.349 3.433 1.505 6115
3.357 3.441 1.493 5074
3.370 3.455 1.484 5722
3.368 3.452 1.468 6278
3.570 3.659 1.548 1229
3.360 3.444 1.449 4211
3.578 3.668 1.536 1472
3.352 3.436 1.431 3676
3.592 3.682 1.525 1323
3.365 3.449 1.422 3163
3.605 3.696 1.514 1653
3.384 3.468 1.414 2319
3.929 4.027 1.621 2007
3.926 4.025 1.603 2454
3.686 3.778 1.513 2422
3.924 4.022 1.585 2347
4.026 4.126 1.623 1740
4.002 4.102 1.596 3165
3.590 3.679 1.445 1513
4.010 4.110 1.582 3282
4.176 4.281 1.642 2228
4.163 4.267 1.619 2845
4.019 4.119 1.567 2357
4.156 4.259 1.598 3973
3.587 3.676 1.396 1818
4.153 4.257 1.579 4071
3.595 3.685 1.383 1846
4.221 4.326 1.584 2559
4.118 4.221 1.549 1851
4.229 4.335 1.568 2303
4.358 4.467 1.612 1605
4.447 4.558 1.623 2543
4.243 4.349 1.554 2104
4.445 4.556 1.603 3412
4.245 4.352 1.537 1947
4.442 4.553 1.583 2671
4.243 4.349 1.517 1183
4.575 4.689 1.606 2411
4.467 4.578 1.571 1944
4.588 4.703 1.591 3402
4.486 4.598 1.558 2593
4.591 4.706 1.572 1900
4.483 4.595 1.538 1822
4.756 4.875 1.603 1369
4.654 4.770 1.571 1133
4.759 4.878 1.583 2192
4.602 4.718 1.535 1556
4.773 4.892 1.567 3619
4.665 4.781 1.534 1605
4.770 4.890 1.545 3868
4.998 5.123 1.613 1534
4.757 4.876 1.521 2226
4.909 5.031 1.565 1591
5.036 5.162 1.581 1855
4.906 5.029 1.543 1705
5.034 5.160 1.558 2743
4.909 5.032 1.523 1425
5.053 5.179 1.542 2802
4.934 5.057 1.508 1649
5.148 5.277 1.546 2983
5.365 5.499 1.606 2237
5.379 5.513 1.587 3682
5.145 5.274 1.523 3599
5.387 5.522 1.566 3998
5.268 5.400 1.534 2711
5.385 5.519 1.542 3614
5.265 5.397 1.511 2419
5.382 5.517 1.518 3359
5.486 5.623 1.545 2514
5.380 5.514 1.495 2328
5.483 5.620 1.521 2027
5.578 5.718 1.521 2631
5.894 6.042 1.600 1892
5.581 5.721 1.498 4571
5.903 6.050 1.577 1599
5.579 5.718 1.473 4624
5.922 6.070 1.556 1631
5.587 5.726 1.452 4089
5.925 6.073 1.532 2444
5.595 5.735 1.430 4073
5.922 6.070 1.506 2575
5.597 5.737 1.406 2988
5.941 6.090 1.485 2558
5.944 6.093 1.460 3152
5.605 5.746 1.384 1745
5.936 6.084 1.433 3748
6.193 6.347 1.489 1447
5.944 6.092 1.410 3904
6.272 6.429 1.480 1656
5.946 6.095 1.385 3167
6.269 6.426 1.453 1650
5.949 6.098 1.360 2384
6.201 6.356 1.412 1268
5.951 6.100 1.335 1705
6.619 6.785 1.471 1574
6.622 6.787 1.443 1673
6.518 6.681 1.422 1041
6.625 6.790 1.416 1320
6.627 6.793 1.388 1315
1.617 1.647 1.754 3385
1.620 1.651 1.748 6770
1.623 1.654 1.741 6770
1.636 1.667 1.744 7193
1.648 1.679 1.746 8849
1.651 1.682 1.739 8404
1.659 1.690 1.737 8185
1.662 1.694 1.730 8185
1.665 1.697 1.723 7734
1.669 1.700 1.717 7283
1.756 1.789 1.801 1286
1.672 1.704 1.710 6382
1.759 1.793 1.794 1566
1.680 1.712 1.707 5602
1.767 1.801 1.791 1765
1.683 1.715 1.701 3954
1.771 1.804 1.784 1864
1.691 1.723 1.698 2336
1.783 1.817 1.785 2094
1.703 1.736 1.700 2476
1.791 1.825 1.783 2080
1.716 1.748 1.702 3026
1.804 1.838 1.784 2785
1.803 1.837 1.772 3727
1.714 1.747 1.690 3010
1.801 1.835 1.761 5643
1.713 1.745 1.679 2505
1.805 1.839 1.753 7559
1.716 1.748 1.672 2016
1.803 1.837 1.742 7230
1.714 1.747 1.661 1144
1.797 1.831 1.726 7150
1.791 1.825 1.710 6095
1.794 1.828 1.703 5291
1.884 1.919 1.782 1113
1.811 1.846 1.708 5345
1.824 1.859 1.709 7019
1.832 1.867 1.706 8776
1.922 1.958 1.784 1217
1.840 1.875 1.702 10898
1.930 1.967 1.780 1600
1.843 1.878 1.695 9275
1.933 1.970 1.772 1989
1.846 1.881 1.687 7652
1.937 1.973 1.764 2379
1.850 1.885 1.680 4763
1.940 1.977 1.757 2217
1.900 1.936 1.712 5353
1.908 1.945 1.709 6943
1.999 2.037 1.785 1065
1.916 1.953 1.705 8862
2.007 2.045 1.781 1406
1.920 1.956 1.697 7073
2.011 2.049 1.772 2035
1.952 1.989 1.713 5523
1.926 1.962 1.681 3816
2.017 2.056 1.756 3180
1.997 2.034 1.728 3812
1.905 1.941 1.654 2281
1.995 2.033 1.716 4259
1.903 1.939 1.642 2154
1.998 2.036 1.708 4267
1.906 1.942 1.634 2177
2.001 2.039 1.700 4275
1.909 1.946 1.627 2200
2.009 2.048 1.695 4352
1.917 1.954 1.623 2102
2.042 2.080 1.710 4835
1.935 1.972 1.626 1593
2.021 2.059 1.683 6216
2.113 2.153 1.755 1452
2.024 2.062 1.675 7423
2.116 2.157 1.746 3023
2.027 2.065 1.666 7113
2.120 2.160 1.738 4079
2.108 2.148 1.718 7313
2.015 2.054 1.647 3975
2.116 2.157 1.713 9138
2.023 2.062 1.642 3515
2.124 2.165 1.708 8452
2.031 2.070 1.638 3052
2.137 2.178 1.706 7502
2.044 2.083 1.637 2379
2.126 2.166 1.687 6830
2.032 2.071 1.617 1726
2.154 2.195 1.696 7821
2.060 2.099 1.627 2125
2.162 2.203 1.691 7440
2.068 2.107 1.622 1025
2.140 2.181 1.664 5942
2.234 2.277 1.732 1181
2.168 2.209 1.673 5900
2.186 2.228 1.675 5242
2.280 2.324 1.742 1291
2.199 2.241 1.673 5811
2.294 2.337 1.740 1357
2.212 2.254 1.671 4791
2.307 2.351 1.738 1192
2.260 2.303 1.693 4926
2.166 2.207 1.627 2914
2.268 2.311 1.688 7587
2.174 2.215 1.622 3831
2.282 2.325 1.685 8042
2.187 2.228 1.620 4671
2.300 2.343 1.686 8029
2.200 2.241 1.618 3558
2.303 2.347 1.677 7149
2.203 2.244 1.609 2253
2.306 2.350 1.667 7645
2.401 2.447 1.731 3248
2.354 2.399 1.688 7880
2.259 2.302 1.624 1823
2.373 2.418 1.688 9704
2.277 2.320 1.625 1806
2.381 2.426 1.682 11040
2.285 2.328 1.619 1047
2.394 2.439 1.679 12038
2.402 2.448 1.672 10767
2.410 2.456 1.666 6994
2.506 2.554 1.727 1450
2.418 2.464 1.659 6171
2.515 2.562 1.720 1524
2.432 2.478 1.655 7295
2.528 2.576 1.716 1159
2.450 2.497 1.655 8584
2.546 2.595 1.716 1197
2.458 2.505 1.648 5930
2.555 2.603 1.708 1277
2.517 2.565 1.673 3746
2.421 2.467 1.613 1677
2.505 2.553 1.653 4035
2.513 2.561 1.646 5072
2.610 2.660 1.705 1343
2.527 2.574 1.642 5464
2.624 2.673 1.700 2664
2.617 2.666 1.683 6022
2.519 2.567 1.625 4508
2.620 2.669 1.673 7037
2.522 2.570 1.615 4012
2.623 2.673 1.662 5620
2.525 2.573 1.604 3459
2.631 2.681 1.654 5617
2.534 2.582 1.597 3104
2.624 2.674 1.637 7011
2.526 2.574 1.581 1719
2.622 2.672 1.624 6356
2.730 2.782 1.686 2024
2.604 2.654 1.601 5201
2.702 2.753 1.657 3564
2.705 2.756 1.646 7266
2.607 2.657 1.590 2972
2.719 2.770 1.640 7456
2.620 2.670 1.585 1485
2.789 2.842 1.666 4774
2.691 2.742 1.612 3148
2.787 2.840 1.652 4408
2.688 2.739 1.598 2403
2.748 2.801 1.618 4550
2.852 2.906 1.675 2745
2.819 2.872 1.643 5780
2.720 2.772 1.590 3741
2.827 2.881 1.634 7102
2.728 2.780 1.582 3008
2.820 2.873 1.617 4892
2.918 2.974 1.670 1340
2.817 2.871 1.603 2998
2.916 2.972 1.655 2711
2.919 2.975 1.643 2726
2.820 2.874 1.591 2072
2.870 2.925 1.604 2347
2.995 3.052 1.669 1776
2.967 3.024 1.640 3551
2.868 2.923 1.590 1896
2.981 3.037 1.633 5149
2.855 2.910 1.570 1283
2.989 3.046 1.624 4327
3.088 3.147 1.674 1960
3.018 3.076 1.625 3607
3.118 3.177 1.674 2024
3.105 3.164 1.654 3953
3.006 3.063 1.604 2758
3.113 3.173 1.643 4403
3.213 3.274 1.692 2385
3.127 3.186 1.636 3849
3.027 3.085 1.587 3045
3.162 3.222 1.638 5648
3.051 3.109 1.585 3897
3.170 3.230 1.627 5908
3.054 3.112 1.572 2038
3.231 3.292 1.642 5385
3.131 3.190 1.594 2159
3.223 3.285 1.623 6420
3.055 3.113 1.545 1471
3.226 3.288 1.610 5849
3.327 3.390 1.656 1562
3.245 3.307 1.604 5856
3.346 3.409 1.650 1196
3.243 3.304 1.588 7041
3.343 3.407 1.634 2621
3.241 3.302 1.573 7597
3.341 3.405 1.618 2625
3.244 3.305 1.559 5518
3.344 3.408 1.604 1994
3.321 3.384 1.578 4682
3.220 3.281 1.534 1627
3.324 3.387 1.565 3885
3.223 3.284 1.521 1237
3.332 3.395 1.553 3717
3.345 3.409 1.544 5173
3.364 3.428 1.537 5595
3.378 3.442 1.528 5383
3.359 3.423 1.505 7102
3.357 3.420 1.489 6479
3.365 3.428 1.477 6463
3.373 3.437 1.465 6573
3.480 3.546 1.508 1137
3.365 3.429 1.447 4084
3.600 3.668 1.540 1318
3.362 3.426 1.431 3613
3.844 3.916 1.619 1549
3.370 3.434 1.420 3485
3.616 3.685 1.514 1674
3.946 4.021 1.623 2139
3.389 3.453 1.412 2103
3.938 4.013 1.603 2446
3.788 3.860 1.547 1942
3.930 4.005 1.583 2367
3.791 3.863 1.531 1488
4.014 4.090 1.596 2385
3.600 3.669 1.445 1023
4.022 4.099 1.582 2529
4.189 4.268 1.642 2211
4.181 4.261 1.621 3160
4.025 4.102 1.565 1733
4.163 4.242 1.596 4022
3.592 3.660 1.394 1427
4.166 4.245 1.579 4275
4.268 4.349 1.614 2148
4.244 4.325 1.587 2798
4.142 4.220 1.552 1915
4.247 4.328 1.570 2347
4.376 4.460 1.614 1425
4.261 4.342 1.556 2062
4.455 4.540 1.621 1968
4.453 4.537 1.601 2826
4.264 4.345 1.538 1703
4.456 4.540 1.583 2200
4.326 4.408 1.540 1200
4.588 4.675 1.606 2546
4.432 4.516 1.556 1727
4.591 4.679 1.587 3385
4.489 4.574 1.554 2174
4.611 4.698 1.573 1918
4.497 4.582 1.538 1691
4.771 4.861 1.603 1434
4.473 4.557 1.511 1254
4.774 4.864 1.583 2314
4.671 4.759 1.552 1408
4.787 4.878 1.567 3730
4.684 4.773 1.536 1752
4.785 4.876 1.545 3887
4.682 4.771 1.515 1452
4.777 4.868 1.522 2142
4.924 5.017 1.565 1403
5.068 5.164 1.585 1738
4.926 5.020 1.545 1467
5.043 5.139 1.557 2764
4.924 5.017 1.523 1348
5.057 5.153 1.539 2644
5.193 5.292 1.577 1606
5.164 5.262 1.546 2495
5.381 5.484 1.606 1977
5.161 5.259 1.523 3157
5.395 5.498 1.587 2937
5.404 5.506 1.566 3161
5.153 5.251 1.499 2495
5.401 5.504 1.542 2955
5.276 5.376 1.509 1726
5.393 5.495 1.517 3277
5.497 5.601 1.544 2651
5.396 5.498 1.495 2541
5.500 5.604 1.521 1860
5.590 5.696 1.520 2294
5.912 6.024 1.600 2181
5.593 5.699 1.497 3600
5.920 6.033 1.577 1637
5.595 5.701 1.473 3371
5.945 6.058 1.558 1765
5.609 5.715 1.453 3118
5.943 6.055 1.532 2614
5.617 5.724 1.431 3602
5.940 6.053 1.506 2619
5.614 5.721 1.406 2781
5.959 6.072 1.485 2701
5.967 6.081 1.461 3597
5.622 5.729 1.384 1674
5.954 6.067 1.433 4376
6.217 6.335 1.491 1438
5.962 6.075 1.410 4499
6.318 6.438 1.486 1631
5.964 6.078 1.385 3672
6.299 6.419 1.455 1569
5.967 6.080 1.360 2851
6.280 6.399 1.425 1177
5.969 6.083 1.335 2090
6.639 6.765 1.471 1243
6.642 6.768 1.443 1363
5.972 6.085 1.311 1122
6.628 6.754 1.412 1150
6.647 6.773 1.388 1110
1.618 1.637 1.750 2902
1.621 1.640 1.743 5805
1.624 1.644 1.736 5805
1.646 1.665 1.748 6340
1.559 1.578 1.661 1084
1.654 1.673 1.746 8078
1.567 1.586 1.660 1001
1.662 1.681 1.744 7838
1.665 1.685 1.737 7704
1.668 1.688 1.730 7704
1.671 1.691 1.723 7668
1.759 1.780 1.808 1227
1.675 1.695 1.717 7631
1.762 1.783 1.801 1506
1.678 1.698 1.710 6910
1.766 1.787 1.794 1705
1.686 1.706 1.707 6335
1.774 1.795 1.791 1902
1.689 1.709 1.701 4467
1.777 1.798 1.784 2051
1.697 1.717 1.698 2644
1.785 1.806 1.781 2202
1.705 1.725 1.696 2568
1.793 1.814 1.778 2140
1.796 1.818 1.771 2987
1.708 1.728 1.689 2546
1.800 1.821 1.764 3841
1.711 1.731 1.682 2635
1.808 1.829 1.761 5668
1.719 1.739 1.679 2208
1.811 1.832 1.753 7544
1.722 1.742 1.672 1574
1.814 1.836 1.746 6787
1.683 1.703 1.627 1335
1.813 1.834 1.734 6050
1.686 1.706 1.620 1407
1.802 1.823 1.714 5143
1.684 1.704 1.609 1472
1.801 1.822 1.703 4649
1.687 1.707 1.602 1578
1.818 1.839 1.708 4394
1.690 1.710 1.595 1500
1.831 1.852 1.709 5532
1.693 1.713 1.588 1421
1.839 1.860 1.706 7270
1.929 1.952 1.784 1282
1.847 1.868 1.702 9249
1.937 1.960 1.780 1838
1.850 1.872 1.695 7883
1.940 1.963 1.772 2271
1.853 1.875 1.687 6518
1.944 1.967 1.764 2705
1.899 1.922 1.716 4929
1.907 1.930 1.712 5764
1.920 1.943 1.713 6623
1.928 1.951 1.709 8059
1.936 1.959 1.705 6284
2.027 2.051 1.780 1345
1.959 1.982 1.713 5918
1.867 1.889 1.638 1007
1.967 1.990 1.709 4065
2.004 2.027 1.728 3883
1.912 1.934 1.654 1593
1.997 2.021 1.712 4566
1.905 1.928 1.638 1321
2.000 2.024 1.704 4616
1.908 1.931 1.630 1332
2.004 2.027 1.696 4666
1.911 1.934 1.623 1343
2.017 2.040 1.695 4467
1.924 1.947 1.623 1457
2.049 2.073 1.710 4992
1.956 1.980 1.638 1229
2.028 2.052 1.683 5829
2.121 2.146 1.755 1521
2.031 2.055 1.675 6200
2.124 2.149 1.746 3012
2.098 2.123 1.715 6260
2.005 2.028 1.644 1881
2.116 2.141 1.718 7020
2.023 2.046 1.647 3444
2.124 2.149 1.713 8619
2.031 2.055 1.642 2960
2.132 2.157 1.708 7932
2.039 2.063 1.638 2250
2.145 2.171 1.706 7028
2.051 2.076 1.637 1727
2.134 2.159 1.687 6477
2.040 2.064 1.617 1180
2.161 2.187 1.696 7537
2.067 2.092 1.627 1773
2.170 2.195 1.691 7183
2.153 2.178 1.668 5946
2.176 2.202 1.673 6013
2.184 2.210 1.668 5254
2.284 2.311 1.739 1267
2.207 2.233 1.673 5352
2.302 2.329 1.740 1239
2.215 2.241 1.668 4331
2.310 2.337 1.734 1823
2.268 2.295 1.693 5999
2.173 2.199 1.627 2876
2.276 2.303 1.688 8993
2.181 2.207 1.622 3662
2.280 2.307 1.678 9281
2.184 2.210 1.613 3585
2.308 2.335 1.686 8190
2.208 2.234 1.618 3393
2.311 2.338 1.677 6960
2.407 2.435 1.741 2727
2.319 2.347 1.671 7015
2.415 2.443 1.735 3817
2.363 2.391 1.688 7574
2.267 2.294 1.624 1653
2.381 2.409 1.688 9776
2.285 2.312 1.625 1369
2.389 2.418 1.682 11150
2.408 2.436 1.682 12605
2.416 2.444 1.675 11938
2.512 2.542 1.738 1032
2.419 2.448 1.666 7967
2.515 2.545 1.727 1803
2.427 2.456 1.659 6935
2.524 2.554 1.720 1922
2.435 2.464 1.652 7742
2.532 2.562 1.713 1395
2.459 2.488 1.655 7840
2.472 2.501 1.651 5777
2.516 2.546 1.666 4992
2.519 2.549 1.656 5529
2.522 2.552 1.646 6350
2.619 2.651 1.705 1335
2.525 2.555 1.635 5984
2.623 2.654 1.694 2953
2.626 2.657 1.683 5709
2.528 2.558 1.625 4797
2.629 2.660 1.673 6793
2.531 2.561 1.615 4422
2.637 2.669 1.665 5552
2.540 2.570 1.607 4412
2.646 2.677 1.657 5567
2.548 2.578 1.600 3722
2.633 2.664 1.637 6656
2.535 2.565 1.581 1785
2.631 2.662 1.624 5983
2.745 2.777 1.689 1714
2.613 2.644 1.601 4355
2.712 2.744 1.657 3098
2.715 2.747 1.646 5717
2.616 2.647 1.590 2770
2.728 2.761 1.640 6197
2.630 2.661 1.585 1728
2.799 2.832 1.666 4719
2.700 2.732 1.612 2617
2.802 2.835 1.655 5293
2.703 2.735 1.601 2156
2.805 2.838 1.644 4887
2.706 2.738 1.590 1669
2.829 2.862 1.643 5931
2.730 2.762 1.590 3751
2.832 2.865 1.632 7058
2.733 2.765 1.579 2750
2.830 2.863 1.617 5367
2.929 2.964 1.670 1022
2.833 2.866 1.606 3445
2.932 2.967 1.658 2385
2.930 2.965 1.643 2877
2.831 2.864 1.591 2399
2.896 2.931 1.612 2682
3.011 3.047 1.671 1714
2.967 3.003 1.635 3262
2.847 2.881 1.573 1644
2.986 3.022 1.631 4789
3.086 3.122 1.681 1467
3.000 3.035 1.624 4104
3.099 3.136 1.674 2028
2.955 2.990 1.588 3229
3.092 3.129 1.656 2939
3.121 3.158 1.656 4362
2.958 2.993 1.576 2478
3.125 3.162 1.643 4967
3.230 3.268 1.695 2098
3.138 3.175 1.636 4129
3.038 3.074 1.587 3394
3.173 3.210 1.638 5313
3.062 3.098 1.585 4184
3.187 3.224 1.630 5631
3.076 3.112 1.577 2138
3.190 3.227 1.617 4023
3.290 3.329 1.664 2205
3.283 3.321 1.645 3638
3.182 3.220 1.599 2531
3.296 3.335 1.637 5274
3.196 3.233 1.591 2203
3.310 3.349 1.628 5074
3.209 3.247 1.582 1477
3.323 3.363 1.619 5491
3.223 3.261 1.574 1620
3.316 3.355 1.601 4778
3.215 3.253 1.556 1290
3.335 3.374 1.594 3897
3.234 3.272 1.550 2282
3.338 3.377 1.581 4263
3.351 3.391 1.572 4414
3.360 3.399 1.560 4861
3.363 3.402 1.546 5180
3.376 3.416 1.537 5045
3.379 3.419 1.523 5577
3.371 3.411 1.505 8285
3.374 3.414 1.491 8804
3.371 3.411 1.475 9113
3.379 3.419 1.463 8193
3.487 3.528 1.506 1201
3.382 3.422 1.449 4519
3.677 3.721 1.565 1450
3.379 3.419 1.433 2955
3.680 3.724 1.550 2026
3.382 3.422 1.420 3104
3.855 3.901 1.601 2061
3.809 3.855 1.566 2478
3.965 4.012 1.626 1906
3.802 3.847 1.547 2353
3.958 4.005 1.605 2040
3.869 3.915 1.555 2304
3.971 4.019 1.593 1511
3.877 3.923 1.541 1603
4.028 4.076 1.596 1453
4.209 4.259 1.644 2935
4.031 4.079 1.580 1731
4.207 4.257 1.625 3577
4.104 4.153 1.588 1592
4.178 4.227 1.596 3703
4.280 4.331 1.632 1801
4.175 4.225 1.577 4205
4.278 4.329 1.613 3230
4.281 4.332 1.595 3874
4.173 4.222 1.558 2262
4.278 4.329 1.575 3217
4.398 4.450 1.616 1357
4.287 4.338 1.560 2579
4.390 4.442 1.594 1780
4.463 4.516 1.599 2519
4.338 4.390 1.558 2189
4.444 4.497 1.574 2907
4.309 4.360 1.530 1908
4.442 4.495 1.554 3155
4.594 4.648 1.603 2873
4.602 4.657 1.585 3446
4.450 4.503 1.537 2957
4.475 4.528 1.526 2117
4.638 4.693 1.577 1790
4.478 4.531 1.507 2266
4.788 4.844 1.603 1590
4.791 4.847 1.583 2401
4.475 4.528 1.487 1747
4.804 4.861 1.567 3584
4.701 4.757 1.536 1893
4.807 4.864 1.547 3580
4.704 4.760 1.516 1700
4.816 4.873 1.529 1968
5.017 5.077 1.587 1619
5.020 5.080 1.567 1780
4.840 4.898 1.515 1526
5.051 5.110 1.554 2601
5.214 5.276 1.600 1380
5.070 5.130 1.537 2338
5.228 5.290 1.581 1780
5.193 5.254 1.549 1978
5.313 5.376 1.582 1787
5.168 5.230 1.520 2622
5.404 5.468 1.584 2025
5.160 5.221 1.496 2262
5.423 5.487 1.566 1835
5.508 5.573 1.565 2006
5.404 5.468 1.538 1869
5.407 5.471 1.515 3028
5.511 5.576 1.542 2616
5.415 5.479 1.495 2675
5.930 6.000 1.624 1886
5.939 6.009 1.601 2522
5.599 5.665 1.517 2338
5.613 5.679 1.497 2785
5.947 6.018 1.578 1751
5.615 5.682 1.473 2156
5.967 6.037 1.558 1821
5.958 6.029 1.530 2441
5.634 5.701 1.454 2038
5.637 5.704 1.431 2714
5.956 6.026 1.504 2378
5.986 6.057 1.486 2883
5.640 5.707 1.408 2256
5.989 6.060 1.461 3985
6.308 6.382 1.532 1879
5.975 6.046 1.433 4823
6.316 6.391 1.507 1794
5.978 6.048 1.408 4867
6.352 6.427 1.488 1981
5.986 6.057 1.385 3937
6.338 6.413 1.459 1376
5.988 6.059 1.360 3111
6.308 6.382 1.426 1337
5.996 6.067 1.337 2376
6.305 6.379 1.399 1289
5.999 6.070 1.312 1278
6.660 6.739 1.442 1115
6.657 6.736 1.413 1121
1.618 1.628 1.745 2613
1.621 1.631 1.738 5227
1.625 1.634 1.732 5227
1.651 1.661 1.748 5530
1.659 1.669 1.746 7133
1.666 1.677 1.744 6963
1.670 1.680 1.737 6806
1.757 1.768 1.823 1225
1.673 1.683 1.730 6806
1.760 1.771 1.815 1225
1.676 1.686 1.723 7027
1.764 1.775 1.808 1502
1.680 1.690 1.717 7247
1.767 1.778 1.801 1779
1.687 1.698 1.714 6710
1.775 1.786 1.798 1697
1.691 1.701 1.707 6315
1.779 1.790 1.791 1964
1.698 1.709 1.705 4526
1.787 1.798 1.788 2234
1.762 1.773 1.755 3508
1.674 1.684 1.672 2092
1.766 1.776 1.748 3462
1.677 1.687 1.665 1904
1.797 1.808 1.767 3129
1.708 1.719 1.684 2225
1.805 1.816 1.764 3755
1.716 1.726 1.682 2409
1.813 1.824 1.761 5341
1.724 1.734 1.679 1920
1.816 1.827 1.753 7064
1.680 1.690 1.629 1869
1.820 1.831 1.746 6116
1.688 1.698 1.627 1993
1.828 1.839 1.743 5221
1.691 1.701 1.620 2177
1.831 1.842 1.735 4373
1.694 1.704 1.613 2330
1.810 1.822 1.707 4018
1.692 1.702 1.602 2556
1.837 1.849 1.720 3872
1.695 1.705 1.595 2447
1.841 1.852 1.713 4219
1.698 1.708 1.588 2338
1.849 1.860 1.710 5774
1.701 1.711 1.582 1753
1.857 1.868 1.706 7485
1.947 1.959 1.784 1764
1.860 1.871 1.699 6458
1.951 1.963 1.776 2270
1.863 1.874 1.691 5431
1.954 1.966 1.769 2777
1.905 1.916 1.716 5472
1.908 1.919 1.708 6297
1.921 1.932 1.709 6647
1.929 1.941 1.705 7588
1.956 1.968 1.717 6106
1.964 1.976 1.713 6088
1.967 1.979 1.705 4304
2.005 2.017 1.724 3704
1.912 1.924 1.650 1099
1.998 2.010 1.708 4566
2.006 2.018 1.704 4594
2.009 2.022 1.696 4637
2.102 2.115 1.769 1036
2.017 2.030 1.692 4353
2.110 2.123 1.764 1088
2.055 2.067 1.710 4629
2.039 2.051 1.687 5253
2.132 2.145 1.759 1279
2.101 2.113 1.724 5002
2.007 2.020 1.652 2071
2.104 2.117 1.715 6115
2.010 2.023 1.644 1464
2.122 2.135 1.718 6403
2.028 2.041 1.647 2746
2.130 2.143 1.713 7679
2.036 2.049 1.642 2521
2.138 2.151 1.708 7017
2.044 2.057 1.638 1933
2.146 2.159 1.703 6175
2.052 2.065 1.633 1274
2.155 2.168 1.698 5866
2.060 2.073 1.628 1296
2.163 2.176 1.692 6790
2.068 2.081 1.624 1201
2.171 2.184 1.687 6614
2.076 2.089 1.619 1118
2.159 2.172 1.668 5474
2.055 2.067 1.592 1356
2.182 2.195 1.673 5835
2.073 2.085 1.595 1251
2.185 2.199 1.664 5124
2.280 2.294 1.732 1370
2.213 2.227 1.673 4740
2.308 2.322 1.740 1501
2.217 2.230 1.664 3870
2.322 2.336 1.738 2767
2.270 2.284 1.690 6670
2.175 2.188 1.624 2322
2.278 2.292 1.684 9586
2.183 2.196 1.618 2710
2.281 2.295 1.675 9765
2.377 2.391 1.740 2929
2.340 2.354 1.703 7992
2.244 2.258 1.638 3746
2.323 2.337 1.680 6861
2.418 2.433 1.745 2931
2.341 2.355 1.681 6546
2.437 2.452 1.745 2801
2.369 2.384 1.688 7030
2.273 2.287 1.624 1476
2.388 2.402 1.688 9185
2.282 2.295 1.618 1208
2.401 2.416 1.685 10646
2.414 2.429 1.682 12818
2.423 2.437 1.675 12694
2.519 2.535 1.738 1234
2.426 2.441 1.666 8582
2.523 2.538 1.727 1988
2.434 2.449 1.659 7398
2.531 2.546 1.720 2092
2.442 2.457 1.652 8005
2.539 2.555 1.713 1370
2.466 2.481 1.655 6801
2.479 2.494 1.651 5161
2.528 2.544 1.669 5665
2.532 2.547 1.659 6450
2.529 2.545 1.646 7019
2.627 2.643 1.705 1080
2.533 2.548 1.635 6331
2.630 2.646 1.694 2557
2.567 2.582 1.643 5492
2.664 2.681 1.702 2187
2.575 2.590 1.636 6429
2.673 2.689 1.694 2345
2.578 2.594 1.626 5307
2.676 2.692 1.683 3804
2.653 2.669 1.657 5582
2.555 2.571 1.600 3679
2.641 2.657 1.637 6728
2.543 2.558 1.581 1686
2.644 2.660 1.626 6128
2.747 2.764 1.686 1544
2.668 2.684 1.627 4670
2.766 2.783 1.683 1733
2.728 2.744 1.649 4339
2.629 2.645 1.593 2540
2.736 2.753 1.640 4514
2.637 2.653 1.585 1591
2.807 2.824 1.666 4242
2.708 2.724 1.612 1964
2.810 2.827 1.655 5875
2.711 2.728 1.601 1466
2.813 2.830 1.644 5304
2.714 2.731 1.590 1168
2.832 2.849 1.640 5542
2.733 2.749 1.587 2382
2.840 2.857 1.632 6435
2.741 2.758 1.579 2083
2.838 2.855 1.617 5239
2.841 2.858 1.606 3607
2.940 2.958 1.658 2227
2.865 2.882 1.605 3110
2.964 2.983 1.657 2258
2.905 2.922 1.612 3427
3.020 3.038 1.671 1659
2.950 2.968 1.622 3509
3.049 3.068 1.672 1920
3.000 3.018 1.633 4428
3.100 3.119 1.684 1573
3.008 3.027 1.624 4121
3.108 3.127 1.674 2149
3.027 3.046 1.619 2962
3.127 3.146 1.669 2889
3.125 3.144 1.654 4581
2.962 2.980 1.573 2234
3.134 3.153 1.643 5264
3.033 3.052 1.595 2055
3.147 3.166 1.636 4068
3.047 3.065 1.587 3523
3.187 3.207 1.640 5581
3.076 3.095 1.587 4208
3.196 3.215 1.630 5753
3.090 3.109 1.580 2315
3.199 3.218 1.617 3550
3.299 3.320 1.664 2053
3.287 3.307 1.643 3962
3.186 3.205 1.596 2196
3.306 3.326 1.637 5186
3.205 3.224 1.591 2067
3.325 3.345 1.631 5070
3.224 3.243 1.585 1549
3.338 3.359 1.622 5666
3.237 3.257 1.576 1441
3.341 3.362 1.608 4605
3.240 3.260 1.563 1639
3.350 3.370 1.597 3765
3.248 3.268 1.552 1346
3.358 3.379 1.585 4177
3.366 3.387 1.574 5448
3.375 3.395 1.562 6466
3.378 3.398 1.549 5659
3.391 3.412 1.539 4941
3.383 3.404 1.521 6262
3.386 3.407 1.507 9323
3.384 3.404 1.491 9996
3.381 3.402 1.475 10154
3.389 3.410 1.463 9200
3.502 3.523 1.508 1354
3.397 3.418 1.451 5923
3.688 3.710 1.565 1822
3.394 3.415 1.435 3050
3.691 3.713 1.550 2698
3.397 3.418 1.422 2644
3.866 3.890 1.601 2136
3.820 3.844 1.566 2507
3.405 3.426 1.410 1746
3.813 3.836 1.547 2294
3.969 3.993 1.605 1937
3.880 3.904 1.555 2641
4.123 4.148 1.645 1725
4.126 4.152 1.628 2069
4.229 4.255 1.665 2043
4.232 4.258 1.648 4260
4.129 4.155 1.611 2422
4.235 4.261 1.630 5358
4.132 4.158 1.594 2670
4.255 4.281 1.619 5542
4.152 4.177 1.583 2408
4.263 4.289 1.603 5390
4.160 4.185 1.567 3093
4.266 4.292 1.586 4654
4.163 4.188 1.550 2295
4.296 4.322 1.577 4214
4.416 4.443 1.618 1466
4.283 4.309 1.554 3650
4.397 4.424 1.592 2152
4.465 4.492 1.596 2804
4.356 4.383 1.560 2785
4.468 4.495 1.577 4038
4.310 4.337 1.526 2484
4.460 4.487 1.556 4576
4.607 4.635 1.603 3453
4.468 4.496 1.539 4643
4.610 4.638 1.584 3950
4.482 4.510 1.524 4088
4.608 4.636 1.563 2133
4.485 4.512 1.506 3739
4.720 4.748 1.578 1898
4.488 4.515 1.487 2781
4.804 4.834 1.583 2140
4.818 4.848 1.567 3088
4.627 4.655 1.509 2125
4.827 4.856 1.548 2942
4.723 4.752 1.518 1617
4.846 4.876 1.533 1884
5.032 5.063 1.587 1448
5.035 5.066 1.567 1894
4.860 4.889 1.517 1674
5.043 5.074 1.547 2589
5.235 5.267 1.601 1435
5.052 5.082 1.528 2228
5.243 5.275 1.581 1907
5.164 5.196 1.537 1809
5.334 5.366 1.584 1757
5.211 5.243 1.528 2196
5.408 5.441 1.581 1717
5.236 5.267 1.512 2016
5.345 5.378 1.541 1520
5.348 5.381 1.519 2143
5.524 5.557 1.565 2042
5.521 5.555 1.541 2649
5.417 5.450 1.514 2524
5.431 5.464 1.495 2422
5.947 5.983 1.624 2173
5.956 5.992 1.601 2692
5.609 5.644 1.516 2406
5.623 5.657 1.495 2253
5.970 6.006 1.579 1991
5.984 6.020 1.558 1836
5.631 5.666 1.473 1457
5.965 6.001 1.528 2059
5.662 5.696 1.457 1343
5.967 6.004 1.503 2121
5.659 5.693 1.432 1876
6.009 6.045 1.487 2836
6.317 6.356 1.557 1722
6.011 6.048 1.463 3841
6.326 6.364 1.532 2267
5.992 6.029 1.433 4732
6.334 6.373 1.507 2429
5.995 6.031 1.408 4708
6.365 6.403 1.487 2070
6.003 6.039 1.385 3777
6.362 6.401 1.460 1339
6.005 6.042 1.360 2963
6.326 6.364 1.426 1477
6.013 6.050 1.337 2296
6.328 6.367 1.400 1475
6.016 6.053 1.312 1264
6.337 6.375 1.375 1082
1.619 1.618 1.740 2349
1.622 1.621 1.734 4699
1.626 1.624 1.727 4699
1.661 1.659 1.753 4687
1.574 1.573 1.666 1666
1.669 1.667 1.750 6145
1.582 1.580 1.664 1076
1.672 1.671 1.744 5964
1.585 1.583 1.658 1001
1.671 1.669 1.733 5791
1.759 1.757 1.818 1986
1.674 1.673 1.726 5791
1.762 1.760 1.811 1986
1.682 1.681 1.723 6217
1.770 1.768 1.808 1886
1.685 1.684 1.717 6652
1.773 1.772 1.801 2161
1.693 1.692 1.714 6332
1.782 1.780 1.798 1826
1.729 1.728 1.738 6735
1.641 1.639 1.655 1949
1.742 1.740 1.740 5486
1.653 1.652 1.657 1389
1.764 1.762 1.751 5366
1.675 1.673 1.668 1781
1.772 1.770 1.748 5161
1.683 1.681 1.665 1928
1.775 1.773 1.741 4197
1.686 1.684 1.658 1714
1.811 1.810 1.764 3454
1.722 1.720 1.682 2174
1.815 1.813 1.756 4741
1.683 1.681 1.636 2023
1.823 1.821 1.753 6230
1.686 1.684 1.629 2094
1.831 1.829 1.750 5341
1.694 1.692 1.627 2216
1.839 1.837 1.747 4589
1.697 1.695 1.620 2401
1.847 1.845 1.744 4455
1.700 1.698 1.613 2533
1.850 1.848 1.736 4373
1.698 1.696 1.602 2699
1.863 1.861 1.737 3851
1.701 1.700 1.595 2587
1.866 1.864 1.730 3492
1.704 1.703 1.588 2476
1.870 1.868 1.722 4728
1.707 1.705 1.582 1915
1.873 1.871 1.714 5963
1.964 1.962 1.793 1430
1.886 1.884 1.715 5295
1.977 1.975 1.793 1338
1.898 1.897 1.716 5103
1.990 1.988 1.793 1080
1.907 1.905 1.712 6032
1.915 1.913 1.708 7093
1.923 1.921 1.705 7263
1.931 1.929 1.701 7847
1.963 1.961 1.717 5890
1.971 1.969 1.713 5923
1.974 1.972 1.705 4290
2.012 2.010 1.724 3350
2.005 2.003 1.708 4425
2.008 2.006 1.700 4436
2.016 2.015 1.696 4449
2.020 2.018 1.688 4440
2.113 2.111 1.761 1210
2.033 2.031 1.687 4558
2.126 2.124 1.760 1274
2.041 2.039 1.683 5077
2.134 2.132 1.755 1601
2.108 2.106 1.724 4969
2.014 2.013 1.652 2338
2.111 2.109 1.715 6010
2.018 2.016 1.644 1598
2.129 2.127 1.718 5643
2.035 2.034 1.647 2704
2.142 2.140 1.716 6457
2.048 2.047 1.646 2967
2.146 2.144 1.708 5793
2.052 2.050 1.638 2234
2.159 2.157 1.706 4996
2.065 2.063 1.637 1542
2.167 2.165 1.701 4942
2.073 2.071 1.632 1398
2.170 2.168 1.692 5620
2.076 2.074 1.624 1334
2.178 2.176 1.687 5704
2.084 2.082 1.619 1506
2.182 2.180 1.678 5029
2.062 2.060 1.592 1678
2.190 2.188 1.673 5493
2.060 2.058 1.580 1508
2.193 2.191 1.664 4891
2.288 2.286 1.732 1645
2.221 2.219 1.673 4421
2.327 2.324 1.747 2080
2.330 2.328 1.738 3958
2.224 2.222 1.664 3750
2.278 2.276 1.690 7172
2.182 2.180 1.624 1984
2.286 2.284 1.684 9785
2.190 2.188 1.618 2166
2.289 2.287 1.675 9891
2.385 2.383 1.740 3084
2.348 2.346 1.703 8212
2.252 2.250 1.638 3916
2.351 2.349 1.694 7195
2.255 2.253 1.629 3373
2.349 2.347 1.681 6351
2.446 2.443 1.745 2772
2.373 2.371 1.685 6177
2.469 2.467 1.748 1736
2.401 2.399 1.692 8162
2.295 2.293 1.622 1212
2.410 2.407 1.685 9815
2.423 2.421 1.682 12242
2.520 2.517 1.745 1129
2.431 2.429 1.675 12509
2.528 2.526 1.738 1375
2.434 2.432 1.666 8431
2.531 2.529 1.727 1957
2.448 2.445 1.662 7183
2.545 2.543 1.724 1579
2.451 2.449 1.652 7596
2.548 2.546 1.713 1215
2.464 2.462 1.649 5842
2.498 2.496 1.658 4514
2.537 2.535 1.669 5358
2.540 2.538 1.659 6332
2.544 2.541 1.649 6732
2.542 2.539 1.635 6253
2.640 2.637 1.694 1974
2.576 2.573 1.643 5870
2.674 2.671 1.702 1656
2.584 2.581 1.636 6998
2.682 2.680 1.694 2001
2.592 2.590 1.629 5390
2.690 2.688 1.686 2995
2.631 2.629 1.639 5426
2.751 2.748 1.708 1996
2.645 2.642 1.634 6693
2.754 2.751 1.697 1907
2.653 2.651 1.626 6405
2.752 2.749 1.683 1848
2.677 2.675 1.627 5852
2.776 2.773 1.683 1224
2.680 2.678 1.617 5292
2.779 2.776 1.672 1353
2.683 2.681 1.606 3663
2.787 2.785 1.663 1756
2.811 2.809 1.664 4132
2.712 2.710 1.609 1901
2.820 2.817 1.655 6605
2.721 2.718 1.601 1485
2.823 2.820 1.644 5972
2.724 2.721 1.590 1099
2.842 2.839 1.640 5141
2.742 2.740 1.587 2220
2.850 2.847 1.632 5893
2.750 2.748 1.579 1929
2.848 2.845 1.617 5239
2.948 2.945 1.670 1082
2.846 2.843 1.603 3759
2.946 2.943 1.655 2044
2.875 2.872 1.605 3656
2.975 2.972 1.657 2434
2.910 2.907 1.609 4012
3.036 3.033 1.674 1606
2.960 2.957 1.622 3755
3.060 3.057 1.672 2054
3.011 3.008 1.633 4335
3.111 3.108 1.684 1727
3.024 3.021 1.626 4151
3.135 3.132 1.682 2350
3.122 3.120 1.661 3230
3.022 3.019 1.612 2840
3.136 3.133 1.654 4872
3.036 3.033 1.604 2377
3.150 3.147 1.646 5673
3.049 3.046 1.597 2440
3.084 3.081 1.600 4446
3.190 3.187 1.651 4069
3.204 3.201 1.643 5466
3.092 3.089 1.590 4173
3.207 3.204 1.630 5920
3.101 3.098 1.580 2526
3.210 3.207 1.617 3876
3.311 3.308 1.664 1817
3.288 3.284 1.638 4006
3.186 3.183 1.591 1922
3.312 3.309 1.634 4412
3.211 3.208 1.588 1628
3.342 3.339 1.633 4588
3.240 3.237 1.587 1829
3.350 3.347 1.622 5482
3.249 3.246 1.576 1250
3.353 3.350 1.608 4378
3.372 3.369 1.601 3463
3.381 3.377 1.590 4648
3.384 3.380 1.576 6701
3.387 3.383 1.562 8381
3.389 3.386 1.549 7041
3.408 3.405 1.541 5971
3.395 3.392 1.521 7735
3.398 3.395 1.507 10562
3.401 3.398 1.493 10418
3.616 3.613 1.580 1035
3.393 3.390 1.475 9862
3.684 3.681 1.591 1474
3.406 3.403 1.465 9753
3.687 3.684 1.576 1845
3.415 3.411 1.454 7919
3.695 3.692 1.563 2179
3.412 3.409 1.438 4018
3.698 3.695 1.548 3127
3.415 3.411 1.424 2484
3.696 3.692 1.531 2455
3.498 3.495 1.440 2411
3.839 3.836 1.569 2109
3.496 3.492 1.424 2400
3.886 3.882 1.569 2075
4.084 4.080 1.625 2573
3.894 3.890 1.555 2504
4.249 4.245 1.667 2936
4.081 4.077 1.606 2733
4.253 4.249 1.650 6687
4.079 4.075 1.587 2175
4.256 4.252 1.632 8976
4.142 4.138 1.592 2149
4.264 4.260 1.617 9284
4.161 4.157 1.581 2501
4.267 4.263 1.599 7970
4.164 4.160 1.564 2372
4.270 4.266 1.582 5835
4.167 4.163 1.547 1596
4.284 4.280 1.568 5152
4.431 4.427 1.618 1648
4.292 4.288 1.552 5264
4.396 4.392 1.587 2404
4.295 4.291 1.535 3938
4.481 4.477 1.596 3449
4.484 4.480 1.577 5332
4.309 4.305 1.521 2861
4.481 4.477 1.557 6303
4.623 4.619 1.603 4201
4.484 4.480 1.539 6669
4.621 4.617 1.582 4806
4.498 4.494 1.524 6122
4.624 4.620 1.563 3229
4.501 4.497 1.506 5290
4.627 4.622 1.544 2864
4.504 4.499 1.487 3931
4.635 4.631 1.527 3430
4.643 4.639 1.509 3281
4.835 4.831 1.567 2390
4.646 4.642 1.490 2225
4.844 4.839 1.548 2201
4.869 4.864 1.535 1995
4.644 4.639 1.470 1395
4.877 4.872 1.517 1825
5.124 5.119 1.587 1745
5.056 5.051 1.546 2516
5.160 5.155 1.575 1574
5.174 5.169 1.557 2660
5.064 5.059 1.527 2096
5.182 5.177 1.537 2428
5.353 5.348 1.584 1679
5.246 5.241 1.532 2146
5.422 5.417 1.579 1646
5.364 5.359 1.541 1923
5.254 5.249 1.512 1763
5.367 5.362 1.519 2860
5.543 5.538 1.565 1687
5.535 5.530 1.539 2288
5.364 5.359 1.496 2125
5.974 5.968 1.626 2277
5.444 5.439 1.493 1966
5.982 5.977 1.603 2680
5.629 5.624 1.516 2157
5.991 5.985 1.579 2331
5.637 5.632 1.494 1760
5.999 5.994 1.556 1892
5.646 5.640 1.472 1356
5.986 5.980 1.528 1820
6.328 6.322 1.608 1599
5.994 5.988 1.504 2200
6.337 6.331 1.583 1537
6.030 6.024 1.487 2599
6.340 6.334 1.557 1888
6.033 6.027 1.463 3224
6.348 6.342 1.532 2577
6.013 6.008 1.433 4118
6.356 6.351 1.507 2911
6.016 6.010 1.408 4070
6.354 6.348 1.480 2153
6.024 6.018 1.385 3272
6.351 6.345 1.453 1453
6.027 6.021 1.360 2545
6.348 6.342 1.426 1646
6.035 6.029 1.337 1991
6.351 6.345 1.400 1746
6.359 6.353 1.375 1337
6.037 6.031 1.312 1143
1.620 1.608 1.736 2181
1.623 1.611 1.729 4362
1.626 1.614 1.723 4362
1.666 1.654 1.753 3998
1.579 1.567 1.666 1828
1.674 1.662 1.750 5250
1.587 1.575 1.664 1116
1.673 1.661 1.739 5077
1.761 1.748 1.825 1516
1.676 1.664 1.733 5000
1.764 1.751 1.818 2485
1.680 1.667 1.726 5000
1.768 1.755 1.811 2485
1.743 1.730 1.777 6062
1.637 1.624 1.674 2703
1.747 1.734 1.770 7208
1.630 1.618 1.659 2475
1.741 1.728 1.754 7701
1.634 1.622 1.652 2196
1.739 1.727 1.743 8753
1.651 1.639 1.659 2145
1.747 1.734 1.740 7293
1.658 1.646 1.657 1474
1.765 1.752 1.746 6597
1.676 1.663 1.663 1428
1.777 1.764 1.748 6097
1.688 1.676 1.665 1822
1.785 1.772 1.745 4831
1.696 1.684 1.663 1651
1.784 1.771 1.733 3814
1.680 1.668 1.639 1839
1.778 1.765 1.718 4355
1.688 1.676 1.636 2541
1.776 1.763 1.706 5186
1.687 1.674 1.625 2917
1.780 1.767 1.699 4739
1.690 1.677 1.618 3139
1.783 1.770 1.692 4293
1.693 1.680 1.612 3362
1.853 1.839 1.744 4336
1.705 1.693 1.613 4040
1.856 1.842 1.736 4565
1.704 1.691 1.602 4379
1.707 1.694 1.595 4339
1.864 1.850 1.733 4009
1.710 1.697 1.588 4299
1.872 1.858 1.730 3493
1.880 1.866 1.726 4380
1.713 1.700 1.582 3477
1.888 1.874 1.723 5436
1.716 1.703 1.575 2655
1.896 1.883 1.719 5231
1.719 1.706 1.568 1799
1.905 1.891 1.716 5168
1.996 1.981 1.793 1035
1.913 1.899 1.712 6372
1.916 1.902 1.704 7678
2.008 1.993 1.781 1171
1.924 1.910 1.701 7805
2.016 2.001 1.777 1263
1.932 1.918 1.697 8279
2.024 2.009 1.773 1297
1.940 1.926 1.693 5916
2.032 2.017 1.768 1266
1.977 1.963 1.713 5176
1.981 1.966 1.705 3936
2.013 1.998 1.720 3247
2.007 1.992 1.704 4585
2.015 2.000 1.700 4652
2.018 2.003 1.692 4742
2.026 2.011 1.688 4672
2.120 2.104 1.761 1116
2.029 2.014 1.680 4653
2.123 2.107 1.752 1551
2.042 2.027 1.679 4853
2.136 2.120 1.751 1878
2.115 2.099 1.724 4741
2.021 2.006 1.652 2307
2.113 2.098 1.711 5868
2.019 2.004 1.640 1175
2.121 2.106 1.706 5059
2.027 2.012 1.636 1771
2.149 2.134 1.716 5092
2.055 2.040 1.646 3588
2.153 2.137 1.708 4580
2.058 2.043 1.638 2678
2.116 2.100 1.670 4993
2.211 2.194 1.739 2239
2.119 2.104 1.661 5096
2.214 2.198 1.730 3043
2.122 2.107 1.653 4683
2.217 2.201 1.722 3274
2.185 2.169 1.687 4821
2.060 2.045 1.597 1719
2.189 2.173 1.678 4725
2.058 2.043 1.585 1684
2.197 2.181 1.673 5019
2.061 2.046 1.577 1778
2.205 2.189 1.668 4643
2.069 2.054 1.572 2132
2.233 2.217 1.677 4844
2.334 2.317 1.747 2627
2.337 2.320 1.738 4625
2.237 2.220 1.668 4327
2.285 2.268 1.690 7400
2.189 2.173 1.624 1616
2.293 2.277 1.684 9619
2.197 2.181 1.618 1821
2.297 2.280 1.675 9582
2.393 2.375 1.740 3191
2.361 2.343 1.707 7982
2.264 2.248 1.642 4128
2.359 2.341 1.694 7486
2.262 2.246 1.629 3429
2.362 2.345 1.684 6284
2.265 2.249 1.620 2443
2.436 2.418 1.722 5563
2.340 2.322 1.658 2629
2.419 2.401 1.698 7179
2.307 2.290 1.625 1200
2.422 2.405 1.689 9055
2.326 2.308 1.625 1055
2.436 2.418 1.685 11450
2.339 2.322 1.623 1221
2.439 2.421 1.675 11738
2.536 2.518 1.738 1419
2.442 2.424 1.666 7833
2.540 2.521 1.727 1799
2.456 2.438 1.662 6597
2.553 2.534 1.724 1314
2.459 2.441 1.652 6851
2.467 2.449 1.645 5274
2.511 2.493 1.661 4111
2.551 2.532 1.673 4609
2.453 2.435 1.613 1185
2.554 2.535 1.662 5572
2.552 2.533 1.649 5759
2.550 2.531 1.635 5602
2.648 2.629 1.694 1315
2.584 2.565 1.643 5433
2.485 2.467 1.585 1250
2.597 2.578 1.639 6407
2.696 2.676 1.697 1540
2.600 2.581 1.629 5054
2.699 2.679 1.686 2830
2.635 2.615 1.636 5573
2.760 2.739 1.708 2056
2.643 2.624 1.628 6750
2.763 2.742 1.697 2102
2.662 2.642 1.626 6285
2.761 2.740 1.683 2445
2.686 2.666 1.627 5806
2.785 2.764 1.683 1350
2.694 2.674 1.619 4914
2.793 2.773 1.675 1268
2.697 2.677 1.609 3482
2.796 2.776 1.663 1819
2.815 2.795 1.661 4276
2.716 2.696 1.606 1858
2.824 2.803 1.652 6970
2.724 2.704 1.598 1305
2.832 2.811 1.644 6293
2.732 2.712 1.590 1026
2.851 2.830 1.640 4473
2.751 2.731 1.587 1657
2.859 2.838 1.632 5035
2.759 2.739 1.579 1421
2.852 2.831 1.615 4898
2.952 2.930 1.667 1316
2.850 2.829 1.600 3898
2.960 2.938 1.658 1882
2.890 2.868 1.608 3983
2.990 2.968 1.659 2258
2.914 2.892 1.607 3956
3.051 3.029 1.677 1604
2.970 2.948 1.622 3402
2.869 2.848 1.571 2339
2.994 2.972 1.620 4159
3.094 3.072 1.671 2092
3.034 3.012 1.626 3823
3.135 3.112 1.676 2605
3.127 3.104 1.659 3467
3.026 3.004 1.609 2787
3.146 3.123 1.654 4678
3.045 3.023 1.604 2843
3.160 3.137 1.646 5416
3.059 3.037 1.597 2748
3.094 3.071 1.600 4821
3.200 3.177 1.651 3958
3.214 3.190 1.643 4845
3.108 3.085 1.592 4296
3.217 3.194 1.630 5797
3.111 3.088 1.580 2513
3.220 3.197 1.617 3844
3.108 3.085 1.565 1354
3.277 3.253 1.628 3649
3.378 3.353 1.675 1049
3.301 3.277 1.625 3813
3.403 3.378 1.671 1083
3.358 3.333 1.635 3805
3.256 3.232 1.590 1807
3.361 3.336 1.622 4905
3.259 3.235 1.576 1004
3.364 3.339 1.608 3977
3.388 3.364 1.604 2977
3.397 3.372 1.592 4631
3.394 3.369 1.576 7099
3.397 3.372 1.562 9276
3.406 3.381 1.551 8090
3.508 3.482 1.594 1102
3.414 3.389 1.539 7099
3.516 3.491 1.582 1347
3.412 3.386 1.523 9145
3.514 3.488 1.565 1306
3.409 3.384 1.507 11174
3.539 3.513 1.560 1261
3.412 3.387 1.493 9705
3.623 3.596 1.578 1336
3.409 3.384 1.477 8435
3.696 3.669 1.591 1847
3.417 3.392 1.465 9391
3.704 3.677 1.578 2210
3.426 3.400 1.454 8444
3.707 3.680 1.563 2223
3.423 3.398 1.438 4400
3.705 3.677 1.546 2853
3.507 3.481 1.455 2574
3.708 3.680 1.531 2424
3.515 3.489 1.442 2901
3.906 3.877 1.589 2056
4.094 4.064 1.641 2733
3.512 3.486 1.426 2615
4.097 4.067 1.625 4439
3.510 3.484 1.410 1988
4.100 4.070 1.608 4854
4.263 4.232 1.667 3512
4.266 4.235 1.650 8250
4.103 4.073 1.591 3785
4.269 4.238 1.632 11055
4.106 4.076 1.575 2367
4.272 4.241 1.615 11384
4.169 4.138 1.579 1975
4.276 4.244 1.598 9327
4.172 4.141 1.562 1614
4.279 4.247 1.580 6861
4.382 4.350 1.615 1595
4.287 4.255 1.564 5987
4.440 4.407 1.616 1769
4.301 4.269 1.551 6183
4.405 4.372 1.585 2303
4.304 4.272 1.533 4490
4.495 4.462 1.596 3811
4.498 4.465 1.577 5866
4.394 4.362 1.544 2781
4.501 4.468 1.559 7292
4.638 4.604 1.603 4706
4.504 4.471 1.541 7761
4.641 4.607 1.584 5408
4.513 4.479 1.524 7075
4.639 4.605 1.563 4052
4.515 4.482 1.506 6071
4.642 4.607 1.544 4014
4.650 4.616 1.527 4475
4.518 4.485 1.487 4468
4.653 4.619 1.508 3863
4.521 4.488 1.469 2457
4.656 4.621 1.489 2581
4.936 4.900 1.571 1743
4.906 4.870 1.541 2095
4.659 4.624 1.470 1694
4.893 4.857 1.517 1948
5.140 5.103 1.587 1713
5.072 5.034 1.546 2467
5.177 5.138 1.575 1687
5.196 5.158 1.559 3011
5.075 5.037 1.525 2115
5.199 5.161 1.537 2778
5.304 5.265 1.566 1513
5.263 5.224 1.532 2004
5.367 5.328 1.560 1437
5.376 5.336 1.540 2102
5.199 5.161 1.493 1427
5.390 5.350 1.521 3167
5.561 5.520 1.565 1352
5.382 5.342 1.496 2381
5.553 5.512 1.539 1886
5.993 5.949 1.626 2097
5.545 5.504 1.514 1702
6.002 5.957 1.603 2455
5.642 5.600 1.514 2017
6.010 5.966 1.579 2386
5.650 5.608 1.493 2068
5.658 5.617 1.471 2103
6.013 5.969 1.555 1955
5.667 5.625 1.449 2086
6.021 5.977 1.532 1968
6.024 5.980 1.507 2588
6.357 6.310 1.583 1583
6.038 5.994 1.485 2324
6.360 6.313 1.557 2007
6.369 6.322 1.532 2656
6.041 5.996 1.460 2434
6.033 5.988 1.433 3163
6.377 6.330 1.507 2999
6.035 5.991 1.408 3192
6.369 6.322 1.479 2346
6.043 5.999 1.385 2632
6.371 6.324 1.453 1533
6.052 6.007 1.361 1991
6.369 6.322 1.426 1647
6.371 6.324 1.400 1816
6.054 6.009 1.337 1517
6.379 6.332 1.375 1417
1.597 1.576 1.708 2154
1.684 1.661 1.796 1182
1.601 1.579 1.702 4308
1.688 1.665 1.789 2408
1.604 1.582 1.695 4308
1.691 1.668 1.782 2452
1.635 1.613 1.716 3738
1.722 1.699 1.803 1371
1.684 1.661 1.755 4609
1.596 1.575 1.669 2002
1.678 1.655 1.739 4378
1.766 1.742 1.825 1876
1.742 1.718 1.791 6453
1.654 1.631 1.705 3371
1.745 1.722 1.784 6453
1.657 1.635 1.699 3371
1.749 1.725 1.777 7976
1.660 1.638 1.692 2531
1.747 1.724 1.766 9518
1.635 1.613 1.659 2109
1.746 1.722 1.754 9756
1.648 1.626 1.661 2084
1.749 1.726 1.747 10379
1.660 1.638 1.663 2262
1.753 1.729 1.740 8542
1.664 1.641 1.657 1557
1.766 1.742 1.742 7016
1.676 1.653 1.659 1198
1.769 1.745 1.735 6921
1.679 1.657 1.652 1427
1.767 1.743 1.723 6324
1.678 1.655 1.641 1575
1.766 1.742 1.712 5971
1.676 1.653 1.630 1745
1.769 1.745 1.705 7108
1.679 1.656 1.623 2317
1.773 1.748 1.698 8333
1.863 1.837 1.779 2839
1.780 1.756 1.695 7176
1.690 1.667 1.614 3138
1.788 1.764 1.692 6163
1.698 1.675 1.612 3818
1.706 1.683 1.609 4396
1.796 1.772 1.689 4249
1.709 1.686 1.602 4690
1.867 1.841 1.740 4374
1.712 1.689 1.595 4553
1.860 1.835 1.725 4015
1.715 1.692 1.588 4416
1.859 1.834 1.713 3992
1.886 1.861 1.726 4065
1.718 1.695 1.582 3492
1.894 1.869 1.723 5142
1.726 1.702 1.579 2575
1.902 1.877 1.719 5144
1.724 1.700 1.568 2042
1.906 1.880 1.712 5190
1.727 1.703 1.561 1517
1.914 1.888 1.708 6691
1.735 1.711 1.558 1602
1.917 1.891 1.700 8233
2.009 1.982 1.777 1605
1.930 1.904 1.701 8250
2.022 1.995 1.777 1382
1.938 1.912 1.697 8750
2.031 2.003 1.773 1495
1.946 1.920 1.693 6117
2.039 2.011 1.768 1159
1.979 1.952 1.709 4353
1.972 1.945 1.693 3539
2.024 1.997 1.724 3449
2.013 1.986 1.704 4834
2.021 1.994 1.700 4991
2.024 1.997 1.692 5157
2.028 2.000 1.684 5154
2.121 2.092 1.757 1104
2.031 2.003 1.676 5152
2.125 2.096 1.748 1610
2.044 2.016 1.675 4919
2.138 2.109 1.747 2038
2.121 2.093 1.724 4538
2.027 2.000 1.652 2304
2.115 2.086 1.707 5769
2.118 2.089 1.699 4909
2.126 2.097 1.694 4127
2.124 2.096 1.682 4821
2.219 2.189 1.752 1013
2.123 2.094 1.670 5622
2.218 2.187 1.739 2106
2.126 2.097 1.661 5608
2.221 2.191 1.730 2797
2.124 2.095 1.649 5447
2.219 2.189 1.718 3060
2.132 2.103 1.644 4044
2.227 2.197 1.713 2672
2.195 2.166 1.678 4492
2.100 2.072 1.610 1425
2.204 2.174 1.673 4834
2.299 2.268 1.741 1835
2.212 2.182 1.668 4920
2.076 2.048 1.572 2254
2.240 2.210 1.677 5762
2.336 2.305 1.744 2970
2.294 2.263 1.703 5277
2.198 2.168 1.636 2655
2.297 2.266 1.693 7601
2.201 2.171 1.627 1896
2.301 2.269 1.684 8980
2.204 2.174 1.618 1822
2.304 2.272 1.675 8850
2.400 2.368 1.740 3182
2.368 2.336 1.707 7611
2.271 2.241 1.642 3720
2.371 2.339 1.697 7652
2.274 2.244 1.632 3587
2.374 2.342 1.687 6526
2.278 2.247 1.623 2470
2.383 2.350 1.681 5569
2.286 2.255 1.617 1411
2.432 2.399 1.702 6865
2.335 2.303 1.638 1851
2.435 2.402 1.692 8408
2.338 2.306 1.629 1520
2.443 2.410 1.685 10436
2.346 2.314 1.623 1416
2.447 2.413 1.675 10490
2.544 2.510 1.738 1350
2.450 2.417 1.666 6600
2.547 2.513 1.727 1578
2.463 2.430 1.662 4965
2.561 2.526 1.724 1019
2.461 2.428 1.649 5045
2.559 2.524 1.710 1150
2.516 2.482 1.671 4719
2.418 2.385 1.610 1092
2.519 2.485 1.661 3859
2.559 2.524 1.673 3956
2.460 2.427 1.613 1051
2.562 2.527 1.662 4596
2.570 2.535 1.655 4724
2.563 2.528 1.639 4899
2.661 2.625 1.697 1113
2.561 2.526 1.625 5129
2.659 2.623 1.683 1062
2.605 2.570 1.639 5617
2.704 2.668 1.697 1540
2.614 2.578 1.632 4589
2.713 2.676 1.689 2472
2.643 2.607 1.636 5327
2.768 2.731 1.708 1946
2.656 2.620 1.631 6620
2.761 2.723 1.691 2175
2.665 2.629 1.624 6469
2.764 2.727 1.680 2914
2.689 2.652 1.624 5516
2.788 2.750 1.680 1990
2.702 2.666 1.619 4219
2.802 2.764 1.675 1630
2.705 2.669 1.609 3341
2.805 2.767 1.663 2295
2.824 2.786 1.661 4695
2.719 2.682 1.603 2083
2.832 2.794 1.652 7230
2.733 2.695 1.598 1719
2.836 2.797 1.641 6351
2.736 2.698 1.587 1045
2.849 2.811 1.635 3752
2.863 2.824 1.629 4386
2.963 2.923 1.682 1110
2.861 2.822 1.615 4973
2.961 2.921 1.667 1324
2.858 2.820 1.600 3913
2.980 2.940 1.663 1704
2.898 2.859 1.608 3422
2.999 2.958 1.659 2340
2.923 2.883 1.607 3682
3.023 2.982 1.658 1964
3.058 3.017 1.662 3132
2.942 2.902 1.603 2310
3.003 2.962 1.620 3960
3.104 3.062 1.671 2259
3.059 3.018 1.634 3578
3.160 3.117 1.684 2710
3.132 3.089 1.656 3573
3.031 2.989 1.606 2668
3.156 3.113 1.654 4454
3.055 3.013 1.604 3290
3.170 3.127 1.646 5272
3.069 3.027 1.597 2870
3.104 3.061 1.600 4807
3.210 3.167 1.651 3706
3.117 3.075 1.592 4283
3.224 3.180 1.643 4077
3.227 3.183 1.630 5463
3.120 3.078 1.580 2422
3.241 3.197 1.622 3966
3.113 3.070 1.562 1100
3.271 3.227 1.621 3551
3.373 3.327 1.668 1548
3.312 3.267 1.625 3426
3.413 3.367 1.671 1036
3.374 3.328 1.638 3227
3.272 3.227 1.592 1861
3.377 3.331 1.624 4402
3.369 3.323 1.606 3617
3.421 3.374 1.613 2459
3.407 3.361 1.592 3985
3.405 3.359 1.576 6507
3.413 3.367 1.565 8937
3.416 3.370 1.551 8086
3.519 3.471 1.594 1731
3.425 3.378 1.539 7482
3.527 3.480 1.582 2333
3.428 3.381 1.525 9694
3.536 3.488 1.570 1862
3.420 3.373 1.507 10515
3.544 3.496 1.557 1817
3.422 3.376 1.493 7962
3.542 3.494 1.541 1845
3.420 3.373 1.477 6371
3.713 3.662 1.593 2051
3.428 3.382 1.465 7876
3.716 3.665 1.578 2335
3.431 3.384 1.451 7486
3.534 3.486 1.491 2360
3.433 3.387 1.438 3954
3.716 3.666 1.546 2335
3.523 3.475 1.457 2619
3.725 3.674 1.533 2326
3.526 3.478 1.442 3040
4.103 4.048 1.658 2826
4.106 4.051 1.641 3920
3.529 3.481 1.428 2418
4.110 4.054 1.625 5968
3.526 3.478 1.412 1716
4.113 4.057 1.608 6633
4.276 4.218 1.667 3605
4.280 4.221 1.650 8679
4.116 4.060 1.591 5335
4.283 4.225 1.632 11477
4.119 4.063 1.575 3239
4.286 4.228 1.615 11480
4.133 4.076 1.562 2075
4.289 4.231 1.598 9267
4.393 4.333 1.633 1757
4.292 4.234 1.580 7250
4.396 4.336 1.615 2105
4.295 4.237 1.563 6480
4.399 4.339 1.597 2054
4.303 4.245 1.547 6244
4.407 4.348 1.581 3441
4.405 4.345 1.562 4471
4.301 4.242 1.528 4115
4.512 4.451 1.577 5593
4.408 4.348 1.544 3298
4.515 4.454 1.559 7300
4.653 4.590 1.603 4773
4.518 4.457 1.541 7580
4.656 4.593 1.584 5567
4.521 4.460 1.522 6975
4.653 4.590 1.563 4382
4.529 4.468 1.506 6119
4.656 4.593 1.544 4534
4.665 4.601 1.527 5101
4.532 4.471 1.487 4349
4.673 4.610 1.509 4225
4.535 4.473 1.469 2361
4.670 4.607 1.489 2669
4.924 4.857 1.563 1864
4.910 4.844 1.538 2213
4.673 4.610 1.470 1745
4.908 4.841 1.517 1976
5.156 5.086 1.587 1629
5.082 5.013 1.544 2189
5.187 5.117 1.574 1736
5.218 5.147 1.560 3017
5.079 5.010 1.522 1917
5.221 5.150 1.539 2799
5.326 5.254 1.567 1450
5.356 5.284 1.553 1627
5.218 5.147 1.516 1623
5.393 5.319 1.540 2026
5.210 5.139 1.492 1223
5.407 5.333 1.521 3109
5.650 5.574 1.583 1177
5.398 5.325 1.496 2491
5.565 5.489 1.538 1494
5.679 5.602 1.543 1733
6.012 5.930 1.626 1698
5.665 5.588 1.516 2571
6.026 5.944 1.604 2099
5.673 5.596 1.494 3307
6.029 5.947 1.579 2295
5.676 5.599 1.471 3369
5.876 5.796 1.518 2388
5.684 5.607 1.449 3144
6.040 5.958 1.532 2176
6.043 5.961 1.507 2835
5.687 5.610 1.426 2372
6.046 5.964 1.482 2265
6.380 6.293 1.557 1908
6.388 6.302 1.532 2556
6.054 5.972 1.459 1780
6.397 6.310 1.507 2900
6.051 5.969 1.433 2098
6.388 6.302 1.479 2317
6.054 5.972 1.408 2178
6.742 6.651 1.526 1975
6.062 5.980 1.385 1849
6.394 6.307 1.427 1669
6.745 6.654 1.498 1354
6.391 6.304 1.400 1852
6.399 6.312 1.375 1382
1.602 1.571 1.708 2233
1.689 1.657 1.796 1374
