1.031 2.682 1.720 6430
0.984 2.560 1.646 5201
1.036 2.693 1.715 7497
0.988 2.570 1.642 4714
1.035 2.691 1.703 9064
0.988 2.568 1.630 3185
1.036 2.695 1.695 10689
0.989 2.572 1.622 1604
1.036 2.693 1.683 9534
1.083 2.816 1.755 2027
1.040 2.703 1.678 8213
1.087 2.827 1.750 2474
1.044 2.714 1.674 8490
1.091 2.838 1.745 2558
1.045 2.718 1.665 6625
1.093 2.842 1.736 3330
1.077 2.801 1.702 5007
1.029 2.677 1.631 1796
1.076 2.798 1.689 5851
1.028 2.674 1.619 1027
1.078 2.802 1.681 7171
1.126 2.927 1.750 1039
1.082 2.813 1.676 7621
1.130 2.938 1.745 1195
1.091 2.837 1.678 7337
1.139 2.962 1.747 1447
1.100 2.861 1.680 6909
1.148 2.986 1.749 1350
1.110 2.885 1.682 5270
1.061 2.760 1.614 1026
1.114 2.896 1.677 5171
1.162 3.021 1.745 1450
1.123 2.920 1.678 8024
1.127 2.931 1.673 11210
1.129 2.935 1.664 11227
1.177 3.061 1.731 1226
1.135 2.952 1.662 8777
1.184 3.078 1.728 1524
1.150 2.989 1.670 6798
1.144 2.974 1.651 6988
1.192 3.100 1.716 1647
1.145 2.978 1.642 6860
1.194 3.104 1.707 2809
1.178 3.062 1.673 7861
1.129 2.935 1.609 2536
1.184 3.079 1.671 6677
1.136 2.953 1.606 1946
1.189 3.090 1.664 5235
1.188 3.088 1.652 4933
1.189 3.092 1.642 5433
1.191 3.096 1.633 5539
1.197 3.113 1.630 7454
1.202 3.124 1.623 9006
1.208 3.142 1.620 9073
1.271 3.304 1.698 1201
1.212 3.153 1.614 7895
1.272 3.308 1.688 1476
1.240 3.224 1.636 9606
1.289 3.353 1.696 1071
1.249 3.249 1.635 11094
1.200 3.120 1.575 1432
1.261 3.280 1.638 10508
1.311 3.409 1.698 1257
1.266 3.291 1.631 9321
1.315 3.420 1.690 1237
1.265 3.288 1.618 7643
1.314 3.417 1.677 1648
1.297 3.374 1.645 7234
1.248 3.244 1.586 2799
1.296 3.371 1.631 8186
1.247 3.241 1.573 1817
1.295 3.368 1.618 6308
1.345 3.498 1.676 1535
1.323 3.440 1.638 8628
1.273 3.311 1.580 1391
1.325 3.444 1.627 9675
1.275 3.315 1.570 1402
1.324 3.442 1.613 8612
1.274 3.312 1.557 1106
1.323 3.439 1.600 8201
1.321 3.436 1.586 8541
1.372 3.566 1.642 1865
1.323 3.440 1.576 6676
1.373 3.570 1.631 2847
1.327 3.451 1.568 3114
1.377 3.581 1.623 2661
1.368 3.558 1.600 3508
1.370 3.562 1.589 6592
1.420 3.693 1.644 1275
1.395 3.628 1.604 8640
1.345 3.497 1.550 2401
1.397 3.632 1.593 7620
1.346 3.500 1.539 1904
1.401 3.643 1.584 4769
1.451 3.774 1.637 2113
1.448 3.764 1.620 4571
1.397 3.633 1.568 4304
1.444 3.754 1.603 5532
1.393 3.623 1.551 4141
1.429 3.717 1.575 5078
1.480 3.849 1.627 2319
1.466 3.811 1.599 5310
1.412 3.672 1.545 2942
1.459 3.794 1.579 5418
1.408 3.662 1.528 2046
1.455 3.784 1.562 4006
1.506 3.916 1.612 2057
1.508 3.920 1.600 4650
1.457 3.788 1.550 2389
1.507 3.917 1.585 4871
1.456 3.785 1.536 1593
1.484 3.858 1.550 4402
1.535 3.991 1.599 2175
1.510 3.925 1.561 3423
1.561 4.058 1.610 1373
1.525 3.964 1.562 4261
1.576 4.097 1.610 1842
1.526 3.968 1.550 4496
1.577 4.101 1.598 3062
1.533 3.986 1.542 4991
1.584 4.119 1.590 2247
1.537 3.996 1.532 5492
1.602 4.165 1.592 2486
1.566 4.071 1.545 5804
1.617 4.204 1.591 3302
1.605 4.173 1.566 4545
1.553 4.039 1.520 2074
1.620 4.212 1.565 3485
1.568 4.078 1.520 2162
1.616 4.202 1.548 4411
1.564 4.068 1.502 2019
1.615 4.198 1.532 5823
1.563 4.064 1.487 1716
1.619 4.209 1.522 4960
1.670 4.343 1.566 1858
1.631 4.241 1.518 5122
1.683 4.375 1.562 1241
1.633 4.245 1.505 5149
1.684 4.379 1.549 1067
1.650 4.291 1.505 4308
1.702 4.426 1.549 1244
1.684 4.380 1.519 5103
1.633 4.245 1.476 1304
1.689 4.391 1.508 5274
1.740 4.525 1.550 1716
1.690 4.394 1.494 3778
1.742 4.529 1.536 1937
1.686 4.384 1.476 2908
1.738 4.519 1.518 2597
1.737 4.515 1.502 3059
1.685 4.380 1.461 1895
1.735 4.512 1.486 2634
1.787 4.647 1.527 1884
1.734 4.508 1.470 1986
1.791 4.658 1.514 1869
1.828 4.754 1.527 3364
1.738 4.519 1.458 1826
1.833 4.765 1.515 5466
1.781 4.630 1.475 2416
1.837 4.776 1.502 6611
1.894 4.926 1.545 1939
1.838 4.780 1.487 6272
1.901 4.944 1.534 2865
1.848 4.805 1.478 5602
1.900 4.941 1.517 4016
1.849 4.808 1.463 5156
1.902 4.944 1.501 4380
1.933 5.027 1.508 3712
1.856 4.826 1.452 2703
1.935 5.030 1.492 4956
1.987 5.167 1.529 1568
1.939 5.041 1.478 4549
2.057 5.349 1.561 2365
2.056 5.346 1.543 3347
1.910 4.966 1.442 2546
2.005 5.214 1.490 3444
2.058 5.350 1.526 2893
2.092 5.440 1.532 2884
2.007 5.217 1.474 2478
2.091 5.437 1.513 2882
2.038 5.300 1.478 1573
2.084 5.419 1.491 3023
2.161 5.620 1.542 2341
2.157 5.609 1.521 3702
2.080 5.408 1.470 2722
2.159 5.613 1.503 4788
2.076 5.397 1.450 1945
2.163 5.624 1.487 2826
2.216 5.761 1.521 1761
2.203 5.729 1.494 2996
2.256 5.866 1.527 1558
2.202 5.725 1.475 3713
2.255 5.862 1.507 1728
2.262 5.880 1.492 2644
2.206 5.736 1.459 2446
2.266 5.891 1.476 4453
2.213 5.754 1.444 1425
2.267 5.895 1.457 3508
2.328 6.054 1.493 1506
2.346 6.101 1.484 2978
2.277 5.920 1.444 1691
2.353 6.119 1.468 3062
2.295 5.967 1.435 1858
2.366 6.152 1.456 2460
2.288 5.949 1.412 1958
2.367 6.155 1.436 2236
2.448 6.366 1.481 2232
2.444 6.355 1.458 2190
2.371 6.166 1.419 1840
2.445 6.358 1.439 2508
2.498 6.496 1.467 1293
2.441 6.347 1.416 1909
2.500 6.500 1.447 1772
2.507 6.518 1.430 1720
2.652 6.895 1.505 1319
2.648 6.885 1.481 1919
2.533 6.587 1.422 1767
2.535 6.590 1.402 2067
2.649 6.888 1.459 1911
2.693 7.001 1.459 2177
2.578 6.703 1.402 1774
2.753 7.157 1.465 2263
2.697 7.012 1.438 1956
2.754 7.161 1.443 2637
2.690 6.993 1.412 1630
2.691 6.997 1.391 1822
2.753 7.157 1.420 1698
2.723 7.080 1.383 1657
2.869 7.460 1.450 1649
2.868 7.456 1.426 2091
2.968 7.718 1.472 1473
2.869 7.459 1.403 1868
2.970 7.722 1.448 1745
2.893 7.521 1.389 1488
2.831 7.361 1.362 1385
2.911 7.568 1.373 1678
3.116 8.101 1.461 1338
3.117 8.105 1.435 1511
3.047 7.922 1.406 1290
3.045 7.919 1.380 1200
3.119 8.109 1.410 1105
3.339 8.682 1.473 1516
2.974 7.732 1.326 1247
3.335 8.671 1.444 1285
2.975 7.735 1.302 1024
3.331 8.660 1.415 1137
3.354 8.722 1.341 1454
3.350 8.710 1.312 1006
0.814 2.098 1.713 3152
0.770 1.984 1.625 1161
0.816 2.102 1.706 6305
0.772 1.988 1.619 2322
0.818 2.106 1.700 6305
0.773 1.992 1.613 2322
0.819 2.110 1.693 7192
0.775 1.996 1.607 2166
0.823 2.121 1.691 8115
0.779 2.006 1.605 2082
0.825 2.125 1.685 6586
0.771 1.985 1.581 1721
0.834 2.147 1.692 5115
0.775 1.995 1.579 1440
0.835 2.151 1.685 5115
0.776 1.999 1.573 1022
0.832 2.143 1.670 5070
0.877 2.259 1.755 1242
0.834 2.148 1.663 5096
0.879 2.264 1.748 1405
0.835 2.152 1.657 4622
0.880 2.268 1.741 1993
0.870 2.242 1.712 5226
0.825 2.125 1.628 2964
0.872 2.246 1.705 5607
0.827 2.129 1.622 2504
0.874 2.250 1.698 5989
0.828 2.133 1.615 2044
0.875 2.255 1.691 7257
0.830 2.137 1.609 1467
0.877 2.259 1.684 8526
0.922 2.376 1.767 1639
0.876 2.257 1.673 8466
0.922 2.374 1.755 2064
0.880 2.267 1.670 10177
0.926 2.385 1.752 2503
0.884 2.277 1.668 12460
0.930 2.396 1.749 3039
0.886 2.282 1.661 12690
0.932 2.400 1.742 3103
0.887 2.286 1.654 12920
0.933 2.404 1.734 3168
0.889 2.290 1.647 10907
0.935 2.409 1.727 3294
0.888 2.288 1.636 8936
0.944 2.432 1.732 3593
0.890 2.292 1.629 7992
0.943 2.430 1.720 4284
0.894 2.302 1.626 7065
0.942 2.428 1.709 5022
0.949 2.445 1.710 7621
0.895 2.306 1.619 6374
0.953 2.455 1.706 10805
0.897 2.310 1.612 5682
0.955 2.459 1.699 11678
0.901 2.320 1.609 4444
0.954 2.457 1.687 12766
0.902 2.324 1.602 3228
0.958 2.468 1.684 11626
0.904 2.328 1.594 2163
0.965 2.485 1.684 10984
1.011 2.605 1.761 1713
0.971 2.502 1.685 11487
1.018 2.623 1.761 2575
0.978 2.519 1.685 13326
1.025 2.640 1.761 2441
0.982 2.529 1.681 11168
1.029 2.651 1.757 1891
0.993 2.559 1.689 9521
1.041 2.680 1.764 1134
0.995 2.563 1.681 7450
1.042 2.685 1.756 1787
0.987 2.542 1.658 5587
1.034 2.664 1.732 4750
0.986 2.539 1.646 6486
1.036 2.668 1.724 5391
1.040 2.679 1.720 6819
0.992 2.556 1.646 5731
1.042 2.683 1.711 8347
0.994 2.561 1.638 5176
1.043 2.687 1.703 9925
0.996 2.565 1.630 3587
1.045 2.692 1.695 11503
0.997 2.569 1.622 1573
1.044 2.689 1.683 10310
1.092 2.812 1.755 2050
1.048 2.700 1.678 9184
1.096 2.823 1.750 2383
1.052 2.711 1.674 9577
1.100 2.834 1.745 2270
1.054 2.715 1.665 6950
1.102 2.838 1.736 2724
1.076 2.771 1.687 4455
1.124 2.895 1.757 1061
1.082 2.788 1.686 4941
1.087 2.799 1.681 5901
1.135 2.923 1.750 1088
1.093 2.816 1.679 6462
1.142 2.941 1.749 1177
1.103 2.840 1.682 6989
1.151 2.965 1.751 1489
1.107 2.851 1.676 6708
1.155 2.976 1.745 1940
1.121 2.888 1.686 5155
1.073 2.763 1.617 1237
1.125 2.899 1.680 5187
1.174 3.024 1.748 1394
1.132 2.916 1.678 7996
1.181 3.042 1.746 1338
1.136 2.927 1.673 11137
1.185 3.053 1.740 1231
1.138 2.931 1.664 11259
1.187 3.057 1.731 1496
1.145 2.949 1.662 8822
1.194 3.074 1.728 1117
1.162 2.992 1.674 7594
1.113 2.866 1.608 1027
1.168 3.010 1.671 7062
1.119 2.884 1.606 1208
1.180 3.041 1.676 7842
1.131 2.914 1.611 2497
1.185 3.052 1.670 8654
1.135 2.925 1.605 2504
1.191 3.069 1.667 6957
1.142 2.942 1.603 1889
1.198 3.087 1.664 5231
1.202 3.097 1.658 5202
1.204 3.102 1.649 5900
1.203 3.099 1.636 5960
1.207 3.110 1.630 8071
1.257 3.237 1.692 1418
1.211 3.120 1.623 9507
1.261 3.248 1.685 1335
1.216 3.131 1.617 9246
1.278 3.293 1.694 1472
1.220 3.142 1.610 7671
1.280 3.297 1.684 1995
1.248 3.214 1.633 10387
1.297 3.342 1.693 1379
1.257 3.238 1.632 10776
1.307 3.366 1.692 1474
1.269 3.269 1.635 9695
1.319 3.398 1.695 1584
1.273 3.280 1.628 9127
1.323 3.409 1.687 1703
1.272 3.277 1.615 8300
1.322 3.406 1.674 2122
1.308 3.369 1.645 6624
1.258 3.240 1.586 3072
1.307 3.367 1.631 8010
1.257 3.237 1.573 2316
1.306 3.364 1.618 6483
1.356 3.493 1.676 1679
1.334 3.436 1.638 8532
1.284 3.307 1.580 1518
1.336 3.440 1.627 9962
1.285 3.310 1.570 1537
1.334 3.437 1.613 9165
1.284 3.308 1.557 1053
1.331 3.428 1.597 8032
1.381 3.558 1.653 1443
1.330 3.425 1.583 7654
1.380 3.555 1.639 2195
1.334 3.436 1.576 5888
1.384 3.566 1.631 2954
1.378 3.549 1.611 4057
1.327 3.419 1.556 1974
1.377 3.547 1.598 4573
1.378 3.551 1.587 7224
1.429 3.681 1.641 1390
1.404 3.616 1.601 8623
1.353 3.486 1.547 1814
1.408 3.627 1.593 7237
1.357 3.496 1.539 2061
1.410 3.631 1.582 4402
1.461 3.763 1.634 2463
1.406 3.621 1.565 4756
1.460 3.760 1.620 4654
1.415 3.646 1.562 5507
1.466 3.778 1.614 4306
1.441 3.712 1.575 5127
1.492 3.844 1.627 2112
1.480 3.813 1.601 4900
1.429 3.681 1.550 2558
1.458 3.755 1.565 4830
1.509 3.887 1.616 1960
1.462 3.766 1.557 3606
1.513 3.898 1.607 1997
1.523 3.923 1.603 3627
1.471 3.790 1.553 2652
1.489 3.836 1.557 4649
1.541 3.968 1.606 2293
1.496 3.854 1.550 5847
1.547 3.986 1.599 2760
1.503 3.871 1.543 4100
1.554 4.004 1.592 3030
1.537 3.959 1.562 4138
1.589 4.092 1.610 1742
1.538 3.963 1.550 4526
1.590 4.096 1.598 2929
1.581 4.072 1.575 5372
1.529 3.939 1.527 3991
1.580 4.069 1.560 5961
1.528 3.936 1.513 3664
1.578 4.066 1.545 5798
1.630 4.199 1.591 3394
1.585 4.083 1.537 4506
1.637 4.217 1.583 2311
1.595 4.108 1.532 3596
1.647 4.242 1.577 2035
1.624 4.182 1.543 3507
1.572 4.049 1.497 1794
1.628 4.193 1.532 5695
1.576 4.059 1.487 1831
1.632 4.204 1.522 5594
1.684 4.338 1.566 1778
1.644 4.236 1.518 5684
1.697 4.370 1.562 1505
1.646 4.240 1.505 5645
1.698 4.374 1.549 1588
1.686 4.342 1.524 3745
1.634 4.208 1.480 1605
1.695 4.367 1.517 5482
1.643 4.233 1.474 1299
1.702 4.385 1.508 5494
1.755 4.520 1.550 1851
1.704 4.389 1.494 4399
1.756 4.524 1.536 2299
1.700 4.379 1.476 3967
1.752 4.513 1.518 2869
1.754 4.517 1.504 2476
1.701 4.382 1.463 2443
1.794 4.620 1.520 2100
1.741 4.485 1.479 1127
1.801 4.638 1.510 2354
1.745 4.496 1.468 1167
1.808 4.656 1.500 2995
1.752 4.514 1.458 1651
1.845 4.752 1.512 5101
1.792 4.617 1.473 1780
1.852 4.770 1.502 6219
1.799 4.635 1.463 1904
1.853 4.774 1.487 6254
1.911 4.924 1.530 1978
1.863 4.799 1.478 6447
1.916 4.935 1.517 3421
1.864 4.803 1.463 5624
1.917 4.938 1.501 4234
1.946 5.014 1.506 3790
1.871 4.821 1.452 2472
1.951 5.024 1.492 4880
2.003 5.160 1.529 1489
1.955 5.035 1.478 4260
2.008 5.171 1.515 2280
2.012 5.182 1.501 2647
2.065 5.318 1.537 2604
2.016 5.193 1.487 2921
2.069 5.329 1.522 2739
2.067 5.326 1.504 2997
2.015 5.189 1.469 2029
2.127 5.480 1.526 2657
2.075 5.344 1.491 2579
2.137 5.505 1.514 2684
2.084 5.369 1.480 1936
2.144 5.524 1.501 3614
2.091 5.387 1.467 2470
2.146 5.527 1.484 3992
2.093 5.391 1.450 1851
2.181 5.617 1.487 2113
2.234 5.754 1.521 1778
2.224 5.729 1.496 3174
2.277 5.866 1.529 1279
2.225 5.733 1.478 4159
2.279 5.870 1.510 1341
2.238 5.765 1.467 3185
2.291 5.902 1.499 2065
2.281 5.877 1.474 4355
2.228 5.740 1.442 1434
2.286 5.888 1.457 3357
2.345 6.039 1.492 1373
2.368 6.101 1.486 2824
2.293 5.906 1.442 1779
2.375 6.119 1.470 3264
2.317 5.967 1.437 1874
2.385 6.144 1.456 3089
2.312 5.956 1.415 1832
2.387 6.148 1.436 2894
2.468 6.358 1.481 2215
2.385 6.144 1.416 2306
2.470 6.361 1.461 2054
2.465 6.351 1.439 2073
2.538 6.539 1.477 1364
2.515 6.477 1.444 1892
2.455 6.325 1.413 1827
2.527 6.510 1.430 1888
2.448 6.307 1.389 1515
2.554 6.579 1.422 1953
2.669 6.876 1.481 1923
2.668 6.873 1.458 2013
2.555 6.582 1.402 2001
2.709 6.978 1.456 1784
2.596 6.687 1.401 1574
2.724 7.018 1.441 1890
2.781 7.163 1.468 1728
2.777 7.152 1.443 1989
2.712 6.985 1.412 1713
2.713 6.988 1.391 1790
2.897 7.461 1.476 1694
2.745 7.072 1.383 1720
2.892 7.451 1.450 1686
2.891 7.447 1.426 1908
3.055 7.869 1.499 1376
2.909 7.494 1.410 2035
3.054 7.866 1.474 1762
2.916 7.512 1.389 1614
3.055 7.869 1.449 1457
3.141 8.092 1.461 1684
2.932 7.552 1.372 1622
3.143 8.095 1.435 1794
3.075 7.920 1.407 1301
3.144 8.099 1.410 1342
3.073 7.916 1.381 1248
3.369 8.679 1.474 1456
3.069 7.905 1.355 1252
3.365 8.668 1.445 1166
3.263 8.405 1.405 1077
3.358 8.650 1.415 1071
0.825 2.094 1.713 2995
0.826 2.098 1.706 5990
0.781 1.984 1.619 1351
0.828 2.102 1.700 5990
0.757 1.922 1.563 1408
0.830 2.106 1.693 6925
0.761 1.932 1.561 1581
0.831 2.111 1.687 7859
0.779 1.978 1.587 1786
0.833 2.115 1.680 6798
0.785 1.994 1.590 1587
0.835 2.119 1.674 5737
0.787 1.998 1.584 1409
0.836 2.123 1.667 5627
0.882 2.238 1.753 1395
0.840 2.133 1.665 6019
0.886 2.249 1.750 1562
0.842 2.137 1.659 6477
0.887 2.253 1.743 1919
0.846 2.148 1.657 5687
0.892 2.264 1.741 2487
0.881 2.237 1.712 5841
0.835 2.121 1.628 3058
0.883 2.242 1.705 5868
0.837 2.125 1.622 2740
0.887 2.252 1.703 5971
0.841 2.135 1.620 2861
0.886 2.250 1.691 7803
0.840 2.133 1.609 1715
0.888 2.254 1.684 9711
0.934 2.372 1.767 1707
0.890 2.259 1.677 9647
0.936 2.376 1.759 2045
0.891 2.263 1.670 11178
0.938 2.380 1.752 2665
0.895 2.273 1.668 13180
0.942 2.391 1.749 3204
0.897 2.277 1.661 12908
0.943 2.395 1.742 3690
0.899 2.281 1.654 12636
0.945 2.400 1.734 4175
0.900 2.285 1.647 10689
0.947 2.404 1.727 4050
0.899 2.283 1.636 8804
0.953 2.421 1.728 4159
0.903 2.294 1.633 8272
0.955 2.425 1.720 4121
0.905 2.298 1.626 7802
0.954 2.423 1.709 4130
0.907 2.302 1.619 7295
0.963 2.446 1.714 6820
0.965 2.450 1.706 9710
0.911 2.312 1.616 6795
0.967 2.455 1.699 10309
0.912 2.316 1.609 5460
0.966 2.453 1.687 11041
0.914 2.320 1.602 4125
0.973 2.470 1.688 9967
0.915 2.324 1.594 2684
0.979 2.486 1.688 10071
1.027 2.607 1.765 1643
0.986 2.503 1.689 11221
1.033 2.624 1.765 2111
0.990 2.514 1.685 13337
1.038 2.635 1.761 2326
0.994 2.524 1.681 11492
1.042 2.645 1.757 1792
1.006 2.554 1.689 9431
1.054 2.675 1.764 1040
1.008 2.558 1.681 7276
1.055 2.680 1.756 1637
0.997 2.530 1.654 5513
1.045 2.652 1.728 4373
0.998 2.535 1.646 6511
1.049 2.663 1.724 4839
1.051 2.667 1.716 6798
1.002 2.545 1.642 5863
1.055 2.678 1.711 8844
1.007 2.556 1.638 5631
1.056 2.682 1.703 10156
1.008 2.560 1.630 3892
1.058 2.686 1.695 11468
1.010 2.564 1.622 1538
1.060 2.691 1.687 10295
1.108 2.813 1.759 1513
1.061 2.695 1.678 9481
1.110 2.818 1.750 2158
1.066 2.705 1.674 10099
1.114 2.829 1.745 1960
1.070 2.716 1.669 7163
1.118 2.839 1.740 2025
1.087 2.759 1.683 4764
1.135 2.883 1.754 1159
1.091 2.770 1.678 4141
1.140 2.894 1.748 1320
1.100 2.794 1.681 4272
1.149 2.918 1.750 1142
1.110 2.817 1.683 5109
1.159 2.942 1.752 1210
1.119 2.841 1.685 6360
1.168 2.966 1.754 1400
1.121 2.845 1.676 6159
1.170 2.970 1.745 2080
1.143 2.902 1.696 4915
1.094 2.777 1.628 2072
1.142 2.900 1.684 4943
1.191 3.025 1.752 1397
1.149 2.917 1.682 7809
1.198 3.042 1.749 1358
1.151 2.921 1.673 10838
1.200 3.047 1.740 1563
1.155 2.932 1.668 11206
1.204 3.058 1.734 1506
1.159 2.943 1.662 8831
1.209 3.069 1.728 1070
1.179 2.993 1.677 7799
1.129 2.868 1.611 1212
1.186 3.011 1.675 7428
1.136 2.885 1.609 1574
1.198 3.042 1.679 8600
1.148 2.915 1.614 2920
1.200 3.046 1.670 9194
1.150 2.919 1.605 2503
1.206 3.063 1.667 7349
1.157 2.937 1.603 2002
1.213 3.081 1.664 5527
1.220 3.098 1.662 5958
1.222 3.102 1.652 6616
1.221 3.100 1.639 6505
1.222 3.104 1.630 8447
1.273 3.231 1.692 1832
1.227 3.114 1.623 9694
1.277 3.242 1.685 1615
1.228 3.118 1.614 9162
1.289 3.273 1.688 1735
1.233 3.129 1.607 7383
1.293 3.284 1.681 2446
1.263 3.207 1.633 10944
1.314 3.335 1.693 1542
1.270 3.225 1.629 10492
1.321 3.353 1.689 1942
1.285 3.263 1.635 8689
1.336 3.391 1.695 1658
1.289 3.274 1.628 8922
1.340 3.402 1.687 1752
1.288 3.271 1.615 8674
1.339 3.400 1.674 2143
1.293 3.282 1.608 6415
1.343 3.410 1.666 2775
1.324 3.360 1.631 7927
1.273 3.231 1.573 2431
1.322 3.358 1.618 6393
1.373 3.487 1.676 1677
1.353 3.436 1.641 8006
1.303 3.307 1.583 1915
1.352 3.434 1.627 9547
1.301 3.304 1.570 1502
1.351 3.431 1.613 8959
1.347 3.421 1.597 7370
1.399 3.551 1.653 1921
1.344 3.411 1.580 6483
1.395 3.541 1.636 3519
1.380 3.504 1.608 6278
1.329 3.374 1.552 1331
1.390 3.529 1.606 6238
1.339 3.399 1.551 1266
1.394 3.540 1.598 6143
1.396 3.544 1.587 7759
1.447 3.674 1.641 1420
1.422 3.610 1.601 8177
1.370 3.479 1.547 1617
1.426 3.620 1.593 6580
1.374 3.490 1.539 2018
1.428 3.624 1.582 3986
1.479 3.755 1.634 2464
1.424 3.614 1.565 5054
1.475 3.746 1.617 4373
1.431 3.632 1.559 6188
1.482 3.763 1.611 3812
1.457 3.698 1.572 5674
1.508 3.830 1.624 2259
1.466 3.723 1.569 4492
1.518 3.854 1.620 2819
1.468 3.727 1.557 5154
1.520 3.858 1.608 3223
1.467 3.724 1.543 4155
1.519 3.855 1.594 2632
1.506 3.825 1.569 3212
1.558 3.957 1.619 1770
1.511 3.836 1.559 5627
1.563 3.968 1.609 1966
1.515 3.846 1.550 6469
1.567 3.979 1.599 3341
1.541 3.913 1.561 4255
1.593 4.045 1.610 1624
1.543 3.917 1.549 4332
1.595 4.049 1.597 2429
1.555 3.948 1.547 4449
1.607 4.081 1.595 2813
1.598 4.057 1.572 6038
1.546 3.924 1.525 3491
1.599 4.061 1.560 6595
1.547 3.928 1.513 3219
1.598 4.058 1.545 5463
1.651 4.191 1.591 2833
1.602 4.069 1.535 4492
1.655 4.202 1.581 2196
1.629 4.136 1.544 3926
1.681 4.269 1.590 1088
1.641 4.167 1.540 3544
1.589 4.034 1.495 1370
1.648 4.185 1.532 5219
1.596 4.052 1.487 1731
1.653 4.196 1.522 5621
1.705 4.330 1.566 1624
1.662 4.221 1.516 5585
1.715 4.355 1.560 1952
1.667 4.232 1.505 5587
1.719 4.366 1.549 1995
1.710 4.341 1.526 4041
1.657 4.207 1.483 1964
1.714 4.352 1.515 5687
1.775 4.507 1.564 1040
1.721 4.370 1.506 5185
1.774 4.504 1.548 1900
1.725 4.381 1.494 4405
1.778 4.515 1.536 2561
1.721 4.370 1.476 4043
1.774 4.505 1.518 3423
1.723 4.374 1.463 2605
1.781 4.522 1.508 2521
1.808 4.590 1.514 2115
1.861 4.725 1.554 1373
1.821 4.622 1.508 2534
1.874 4.757 1.548 1347
1.864 4.732 1.525 2480
1.783 4.526 1.464 1251
1.865 4.736 1.510 4146
1.784 4.530 1.450 1359
1.872 4.754 1.500 4909
1.819 4.619 1.461 1211
1.877 4.765 1.487 5525
1.930 4.900 1.526 1443
1.887 4.790 1.478 6257
1.940 4.925 1.517 2261
1.891 4.801 1.465 5278
1.944 4.936 1.503 3455
1.965 4.990 1.502 3885
1.903 4.833 1.458 2543
1.975 5.015 1.492 4642
1.922 4.879 1.455 2170
1.977 5.018 1.476 3820
2.033 5.161 1.515 2917
2.034 5.165 1.499 3491
2.088 5.301 1.535 2590
2.030 5.154 1.479 3090
2.087 5.297 1.517 2642
2.096 5.323 1.506 3125
2.029 5.151 1.461 1926
2.101 5.334 1.491 2868
2.157 5.477 1.528 2547
2.128 5.402 1.491 2564
2.209 5.610 1.543 1955
2.171 5.513 1.501 4032
2.118 5.377 1.467 2390
2.170 5.509 1.482 5053
2.224 5.646 1.516 1652
2.174 5.520 1.467 2549
2.259 5.736 1.519 1831
2.255 5.725 1.498 3199
2.309 5.862 1.530 1070
2.259 5.736 1.481 4340
2.180 5.535 1.434 1079
2.269 5.761 1.469 3625
2.323 5.898 1.501 1837
2.310 5.866 1.474 4078
2.256 5.729 1.442 1408
2.315 5.877 1.457 3001
2.394 6.078 1.503 1177
2.398 6.089 1.486 2361
2.325 5.902 1.444 1712
2.405 6.107 1.470 2987
2.351 5.970 1.440 1934
2.413 6.125 1.454 3073
2.359 5.988 1.424 1871
2.414 6.129 1.435 3095
2.502 6.353 1.483 2145
2.415 6.132 1.416 2575
2.501 6.349 1.461 2229
2.531 6.425 1.457 2260
2.414 6.129 1.395 1537
2.543 6.458 1.442 1950
2.481 6.298 1.410 1879
2.590 6.577 1.446 1949
2.476 6.287 1.388 1611
2.703 6.863 1.481 1900
2.620 6.653 1.439 1810
2.702 6.859 1.458 2152
2.622 6.656 1.419 2024
2.712 6.885 1.441 1697
2.626 6.667 1.399 1513
2.762 7.012 1.442 1845
2.679 6.801 1.403 1437
2.935 7.451 1.501 1774
2.763 7.015 1.420 1764
2.933 7.447 1.476 2158
2.744 6.968 1.389 1775
2.935 7.451 1.453 1819
2.780 7.058 1.383 1616
2.936 7.454 1.430 1687
3.091 7.847 1.498 1343
2.946 7.480 1.410 2078
3.092 7.851 1.474 1663
2.953 7.498 1.389 1556
3.165 8.036 1.480 1351
3.181 8.076 1.461 1635
2.966 7.530 1.371 1391
3.182 8.080 1.435 1601
3.119 7.919 1.410 1484
3.115 7.908 1.383 1306
3.184 8.083 1.410 1246
3.412 8.663 1.474 1266
3.314 8.415 1.436 1228
3.310 8.404 1.407 1035
3.408 8.652 1.445 1008
3.453 8.768 1.407 1095
0.834 2.097 1.717 2772
0.836 2.101 1.711 5544
0.750 1.885 1.545 1529
0.837 2.105 1.704 5544
0.792 1.991 1.617 1437
0.839 2.110 1.698 6406
0.762 1.917 1.552 1259
0.838 2.108 1.687 7302
0.762 1.915 1.542 1240
0.838 2.106 1.676 7035
0.883 2.221 1.762 1058
0.839 2.110 1.669 6847
0.885 2.225 1.755 1578
0.841 2.114 1.663 6596
0.887 2.229 1.748 1578
0.845 2.124 1.661 7353
0.891 2.240 1.746 1969
0.849 2.135 1.659 8301
0.895 2.250 1.743 2316
0.853 2.145 1.657 6984
0.899 2.261 1.741 2836
0.862 2.167 1.663 6731
0.908 2.283 1.747 1432
0.864 2.171 1.657 6259
0.910 2.288 1.740 2173
0.895 2.249 1.703 5942
0.848 2.133 1.620 3455
0.894 2.247 1.691 8104
0.847 2.130 1.609 2163
0.895 2.251 1.684 10419
0.947 2.381 1.775 1863
0.895 2.249 1.673 10343
0.944 2.373 1.759 2204
0.899 2.260 1.670 11692
0.945 2.377 1.752 3066
0.903 2.270 1.668 13434
0.950 2.388 1.749 3752
0.905 2.274 1.661 13239
0.951 2.392 1.742 4526
0.906 2.278 1.654 13043
0.953 2.397 1.734 5300
0.908 2.282 1.647 11205
0.957 2.407 1.731 4951
0.907 2.280 1.636 9555
0.962 2.418 1.728 5123
0.911 2.291 1.633 8678
0.966 2.428 1.725 4486
0.913 2.295 1.626 7990
0.972 2.445 1.725 4089
0.914 2.299 1.619 7508
0.972 2.443 1.714 6228
0.973 2.447 1.706 8407
0.918 2.309 1.616 7119
0.975 2.452 1.699 8730
0.920 2.313 1.609 5883
0.977 2.456 1.691 9053
0.919 2.311 1.597 4690
0.986 2.479 1.696 8824
0.923 2.321 1.594 3110
0.990 2.489 1.692 9813
0.925 2.325 1.587 1573
0.997 2.506 1.693 11259
1.045 2.627 1.769 1539
0.998 2.511 1.685 13205
1.046 2.631 1.761 2109
1.003 2.521 1.681 11625
1.051 2.642 1.757 1608
1.014 2.551 1.689 9407
1.016 2.555 1.681 7204
1.064 2.676 1.756 1392
1.005 2.527 1.654 5382
1.053 2.649 1.728 3619
1.007 2.531 1.646 6312
1.058 2.659 1.724 4041
1.059 2.664 1.716 6538
1.011 2.542 1.642 5904
1.061 2.668 1.707 9035
1.013 2.546 1.634 5702
1.065 2.679 1.703 9919
1.017 2.556 1.630 4140
1.070 2.689 1.699 10889
1.021 2.567 1.626 1729
1.069 2.687 1.687 9872
1.117 2.810 1.759 1237
1.073 2.698 1.682 9439
1.122 2.821 1.754 1524
1.077 2.708 1.677 10347
1.126 2.831 1.749 1508
1.084 2.725 1.677 7396
1.133 2.849 1.747 1393
1.096 2.756 1.683 5333
1.098 2.760 1.675 3870
1.147 2.883 1.745 1485
1.136 2.855 1.717 3128
1.086 2.731 1.648 1863
1.132 2.846 1.701 4359
1.083 2.722 1.632 1460
1.131 2.844 1.689 5665
1.082 2.720 1.620 1276
1.130 2.842 1.676 5447
1.180 2.966 1.745 2114
1.119 2.813 1.650 4794
1.168 2.938 1.718 3775
1.154 2.903 1.687 4643
1.105 2.778 1.620 1556
1.159 2.913 1.682 7591
1.208 3.038 1.749 1466
1.160 2.918 1.673 10484
1.210 3.043 1.740 1747
1.165 2.928 1.668 11122
1.214 3.054 1.734 1688
1.166 2.932 1.658 8873
1.216 3.058 1.725 1707
1.189 2.989 1.677 7584
1.139 2.864 1.611 1322
1.199 3.013 1.678 7462
1.148 2.888 1.613 2066
1.208 3.038 1.679 8870
1.158 2.911 1.614 2651
1.210 3.042 1.670 9160
1.160 2.915 1.605 2299
1.214 3.052 1.664 7274
1.164 2.926 1.600 1830
1.226 3.083 1.668 5889
1.176 2.957 1.604 1153
1.231 3.094 1.662 7094
1.232 3.098 1.652 7717
1.231 3.096 1.639 7222
1.282 3.223 1.702 1147
1.233 3.100 1.630 8621
1.283 3.227 1.692 2059
1.234 3.104 1.620 9242
1.285 3.231 1.682 2333
1.239 3.114 1.614 8456
1.297 3.262 1.685 2034
1.272 3.199 1.643 7979
1.222 3.071 1.582 1826
1.274 3.203 1.633 11348
1.325 3.331 1.693 1681
1.278 3.214 1.626 10092
1.329 3.342 1.686 2276
1.293 3.252 1.632 7580
1.344 3.380 1.692 2101
1.298 3.262 1.625 8717
1.349 3.391 1.684 2192
1.302 3.273 1.618 9061
1.353 3.402 1.677 1762
1.303 3.277 1.608 7230
1.355 3.406 1.666 3079
1.335 3.356 1.631 7650
1.283 3.227 1.573 2498
1.334 3.353 1.618 5978
1.385 3.482 1.676 1606
1.365 3.432 1.641 7075
1.314 3.303 1.583 1855
1.367 3.436 1.630 8604
1.315 3.307 1.573 1603
1.363 3.426 1.613 8278
1.414 3.556 1.670 1043
1.362 3.424 1.600 6761
1.413 3.553 1.656 1640
1.393 3.503 1.622 7317
1.341 3.373 1.566 2694
1.392 3.500 1.608 8795
1.340 3.370 1.552 1321
1.399 3.517 1.603 8340
1.347 3.387 1.548 1041
1.406 3.535 1.598 7592
1.408 3.539 1.587 8342
1.459 3.669 1.641 1320
1.431 3.598 1.598 7913
1.379 3.467 1.545 1146
1.435 3.609 1.590 6172
1.383 3.478 1.537 1380
1.440 3.620 1.582 3578
1.492 3.750 1.634 2176
1.438 3.617 1.568 5012
1.490 3.748 1.620 3648
1.440 3.620 1.556 6797
1.492 3.752 1.608 3159
1.469 3.693 1.572 6396
1.521 3.825 1.624 2105
1.479 3.718 1.569 5156
1.531 3.849 1.620 2609
1.477 3.715 1.555 5555
1.530 3.846 1.606 3393
1.479 3.719 1.543 4967
1.531 3.850 1.594 2679
1.519 3.820 1.569 3796
1.467 3.688 1.519 1509
1.526 3.837 1.562 6426
1.579 3.969 1.612 1722
1.528 3.841 1.550 6620
1.580 3.973 1.599 3632
1.551 3.901 1.559 4934
1.604 4.033 1.607 2238
1.553 3.905 1.547 5089
1.606 4.037 1.595 2731
1.557 3.915 1.537 4619
1.610 4.048 1.585 4172
1.611 4.052 1.572 6903
1.559 3.919 1.525 3168
1.613 4.056 1.560 7162
1.560 3.923 1.513 2569
1.609 4.045 1.542 5005
1.662 4.178 1.589 2087
1.613 4.056 1.532 4333
1.666 4.189 1.578 2014
1.643 4.130 1.544 4092
1.696 4.263 1.590 1105
1.655 4.162 1.540 3831
1.602 4.029 1.495 1272
1.665 4.187 1.535 5069
1.612 4.053 1.490 1753
1.669 4.198 1.524 5435
1.723 4.331 1.569 1459
1.677 4.215 1.516 4922
1.730 4.349 1.560 2219
1.681 4.226 1.505 4965
1.734 4.360 1.549 2298
1.727 4.343 1.528 4447
1.674 4.209 1.485 2071
1.729 4.346 1.515 6004
1.736 4.364 1.506 4674
1.789 4.498 1.548 1775
1.743 4.382 1.497 4441
1.796 4.516 1.539 2592
1.741 4.378 1.481 4449
1.795 4.513 1.522 3587
1.799 4.524 1.511 2726
1.740 4.375 1.465 2723
1.834 4.612 1.522 2425
1.888 4.747 1.563 1052
1.836 4.616 1.508 3001
1.889 4.751 1.548 1257
1.846 4.641 1.500 2059
1.792 4.506 1.460 1131
1.878 4.723 1.508 2367
1.799 4.524 1.450 1083
1.888 4.748 1.500 3063
1.893 4.759 1.487 4303
1.946 4.894 1.526 1098
1.902 4.783 1.478 5346
1.962 4.933 1.521 1592
1.907 4.794 1.465 4759
1.978 4.972 1.515 3121
1.971 4.955 1.494 4476
1.917 4.819 1.456 3084
1.986 4.994 1.488 4840
1.932 4.858 1.451 2678
1.988 4.998 1.473 3743
2.050 5.154 1.515 3627
2.049 5.151 1.497 4294
2.103 5.287 1.533 3238
2.044 5.140 1.477 3230
2.110 5.305 1.520 2339
2.114 5.316 1.506 2745
2.046 5.144 1.461 1907
2.121 5.334 1.493 2858
2.175 5.470 1.528 2367
2.137 5.373 1.485 3066
2.228 5.602 1.543 1760
2.187 5.499 1.499 4257
2.133 5.362 1.465 2544
2.188 5.502 1.482 6106
2.243 5.638 1.516 1994
2.193 5.513 1.467 3341
2.278 5.728 1.519 1968
2.280 5.732 1.501 3312
2.200 5.531 1.453 1388
2.281 5.736 1.483 4357
2.198 5.527 1.434 1168
2.288 5.754 1.469 3663
2.343 5.890 1.501 1622
2.327 5.851 1.472 3402
2.273 5.714 1.441 1293
2.331 5.862 1.456 2425
2.429 6.106 1.511 1006
2.430 6.110 1.492 1758
2.350 5.908 1.447 1735
2.429 6.106 1.471 2506
2.374 5.970 1.441 1939
2.433 6.117 1.454 2904
2.378 5.980 1.424 2130
2.434 6.121 1.435 3166
2.529 6.359 1.486 2114
2.436 6.124 1.416 2668
2.533 6.370 1.467 2116
2.555 6.424 1.458 2486
2.431 6.113 1.394 1687
2.611 6.565 1.466 2043
2.556 6.427 1.438 1841
2.612 6.568 1.446 2137
2.497 6.279 1.388 1500
2.634 6.623 1.435 1943
2.723 6.847 1.479 1797
2.725 6.850 1.458 2186
2.644 6.648 1.419 1848
2.735 6.876 1.441 1944
2.648 6.658 1.399 1437
2.788 7.010 1.444 1870
2.889 7.263 1.491 1566
2.959 7.441 1.501 1895
2.792 7.020 1.423 1851
2.961 7.445 1.477 2381
2.799 7.038 1.404 1961
2.959 7.441 1.453 1979
2.804 7.049 1.383 1641
2.964 7.452 1.431 1594
2.906 7.307 1.406 1200
2.974 7.477 1.411 1765
3.118 7.840 1.474 1432
3.195 8.033 1.481 1432
2.978 7.488 1.389 1335
3.205 8.058 1.459 1629
3.150 7.920 1.437 1429
3.148 7.916 1.411 1496
3.209 8.069 1.435 1476
3.144 7.905 1.384 1291
3.211 8.073 1.410 1156
3.342 8.404 1.436 1206
3.137 7.887 1.356 1139
3.477 8.742 1.461 1033
3.475 8.738 1.432 1412
3.480 8.749 1.406 1598
3.481 8.753 1.379 1227
0.840 2.094 1.717 2539
0.842 2.099 1.711 5079
0.789 1.967 1.610 1785
0.843 2.103 1.704 5079
0.790 1.971 1.604 1785
0.845 2.107 1.698 5815
0.792 1.975 1.598 1246
0.835 2.081 1.669 6760
0.762 1.901 1.533 1007
0.841 2.097 1.671 7313
0.887 2.212 1.757 1110
0.843 2.102 1.665 7879
0.889 2.216 1.751 1657
0.847 2.112 1.663 7503
0.893 2.227 1.748 1645
0.851 2.122 1.661 8552
0.897 2.237 1.746 2100
0.855 2.132 1.659 9965
0.901 2.248 1.743 2484
0.862 2.148 1.661 8235
0.908 2.264 1.745 2441
0.871 2.171 1.668 8192
0.917 2.287 1.752 1036
0.870 2.169 1.657 7080
0.916 2.285 1.740 2007
0.871 2.173 1.650 6038
0.918 2.289 1.733 2448
0.900 2.245 1.691 7738
0.853 2.128 1.609 2673
0.902 2.249 1.684 9797
0.954 2.378 1.775 1955
0.901 2.247 1.673 9742
0.951 2.370 1.759 2340
0.905 2.257 1.670 11241
0.952 2.375 1.752 3373
0.909 2.268 1.668 12969
0.957 2.385 1.749 4192
0.911 2.272 1.661 13111
0.958 2.389 1.742 5096
0.913 2.276 1.654 13254
0.960 2.394 1.734 6000
0.912 2.274 1.643 12155
0.964 2.404 1.731 5835
0.913 2.278 1.636 11348
0.968 2.415 1.728 6147
0.915 2.282 1.629 9938
0.973 2.425 1.725 5124
0.919 2.292 1.626 8709
0.979 2.442 1.725 4528
0.921 2.296 1.619 7473
0.981 2.446 1.718 5788
0.983 2.451 1.710 7048
0.925 2.306 1.616 6509
0.985 2.455 1.703 7249
0.927 2.310 1.609 5427
0.986 2.459 1.695 7451
0.928 2.314 1.602 4346
0.996 2.482 1.700 8479
0.930 2.318 1.594 3077
1.000 2.493 1.696 10000
0.931 2.322 1.587 1809
1.004 2.503 1.693 11257
1.052 2.624 1.769 1330
1.008 2.514 1.689 12781
1.057 2.635 1.765 1408
1.010 2.518 1.681 11228
1.058 2.639 1.757 1348
1.022 2.548 1.689 9220
1.023 2.552 1.681 7132
1.072 2.673 1.756 1100
1.012 2.524 1.654 5092
1.061 2.646 1.728 2849
1.011 2.522 1.642 5895
1.065 2.656 1.724 3244
1.067 2.661 1.716 6067
1.018 2.539 1.642 5703
1.066 2.658 1.704 8907
1.017 2.536 1.630 5446
1.073 2.676 1.703 9241
1.024 2.553 1.630 4243
1.077 2.686 1.699 9823
1.028 2.564 1.626 1761
1.076 2.684 1.687 9091
1.083 2.701 1.686 9118
1.132 2.824 1.757 1165
1.087 2.712 1.681 10232
1.137 2.835 1.753 1370
1.094 2.729 1.680 7607
1.144 2.852 1.751 1278
1.104 2.752 1.683 5866
1.054 2.629 1.613 1048
1.103 2.750 1.671 4104
1.152 2.874 1.741 1703
1.146 2.858 1.721 3382
1.092 2.722 1.644 2363
1.145 2.856 1.709 4456
1.085 2.706 1.625 2244
1.142 2.847 1.692 5073
1.087 2.710 1.616 1826
1.128 2.812 1.662 4949
1.178 2.937 1.731 3035
1.127 2.810 1.650 4893
1.177 2.934 1.718 3318
1.160 2.893 1.684 4489
1.210 3.017 1.752 1427
1.167 2.910 1.682 7269
1.217 3.035 1.749 1421
1.169 2.914 1.673 9942
1.219 3.039 1.740 1743
1.170 2.918 1.664 10786
1.221 3.044 1.731 2023
1.175 2.929 1.658 8755
1.225 3.054 1.725 1847
1.198 2.986 1.677 7093
1.147 2.860 1.611 1414
1.207 3.010 1.678 6981
1.157 2.884 1.613 1943
1.217 3.034 1.679 8278
1.166 2.908 1.614 2148
1.218 3.038 1.670 8308
1.168 2.912 1.605 1899
1.223 3.049 1.664 6602
1.172 2.923 1.600 1651
1.238 3.086 1.671 6101
1.187 2.960 1.607 1069
1.242 3.097 1.665 7853
1.244 3.101 1.655 8485
1.243 3.099 1.642 7607
1.294 3.226 1.705 1253
1.239 3.089 1.626 8405
1.290 3.217 1.689 2208
1.243 3.100 1.620 8415
1.294 3.227 1.682 2380
1.248 3.111 1.614 7351
1.299 3.238 1.675 2178
1.281 3.195 1.643 7894
1.230 3.068 1.582 1934
1.283 3.199 1.633 10694
1.334 3.327 1.693 1756
1.285 3.204 1.623 9314
1.336 3.331 1.683 2359
1.303 3.248 1.632 6472
1.354 3.376 1.692 2105
1.307 3.259 1.625 8467
1.358 3.387 1.684 2023
1.311 3.270 1.618 9223
1.363 3.398 1.677 1752
1.313 3.274 1.608 7733
1.364 3.402 1.666 3294
1.347 3.359 1.634 7560
1.295 3.230 1.576 2791
1.346 3.356 1.621 5514
1.294 3.227 1.563 1387
1.375 3.428 1.641 5964
1.323 3.299 1.583 1624
1.376 3.432 1.630 7532
1.325 3.303 1.573 1539
1.375 3.429 1.616 7465
1.374 3.426 1.603 6189
1.426 3.556 1.659 1131
1.403 3.499 1.622 8401
1.351 3.369 1.566 2479
1.402 3.496 1.608 10133
1.350 3.366 1.552 1202
1.409 3.513 1.603 9538
1.357 3.383 1.548 1000
1.416 3.531 1.598 8398
1.418 3.535 1.587 8631
1.470 3.665 1.641 1094
1.439 3.587 1.595 7786
1.386 3.457 1.542 1048
1.443 3.598 1.587 6197
1.455 3.629 1.587 3530
1.508 3.760 1.640 1434
1.451 3.619 1.570 4837
1.504 3.750 1.623 2608
1.450 3.616 1.556 6924
1.503 3.747 1.608 2520
1.482 3.696 1.575 6669
1.535 3.827 1.627 1872
1.487 3.707 1.566 5499
1.539 3.838 1.618 2927
1.488 3.711 1.555 5469
1.541 3.842 1.606 3050
1.492 3.721 1.546 5364
1.545 3.853 1.596 2283
1.530 3.815 1.569 3928
1.477 3.684 1.519 1656
1.537 3.833 1.562 6378
1.590 3.965 1.612 1805
1.539 3.837 1.550 5737
1.592 3.969 1.599 3735
1.560 3.889 1.556 5566
1.613 4.021 1.605 2753
1.561 3.893 1.544 5820
1.614 4.025 1.592 3068
1.568 3.911 1.537 4641
1.621 4.043 1.585 4474
1.620 4.040 1.570 7267
1.567 3.908 1.522 2549
1.625 4.051 1.560 7145
1.571 3.918 1.513 1995
1.623 4.048 1.545 4579
1.677 4.181 1.591 2024
1.625 4.052 1.532 4217
1.678 4.184 1.578 1989
1.663 4.146 1.551 4023
1.610 4.013 1.505 1707
1.667 4.157 1.540 4115
1.614 4.024 1.495 1216
1.683 4.196 1.539 4971
1.629 4.063 1.494 1877
1.681 4.193 1.524 4520
1.735 4.326 1.569 1545
1.694 4.225 1.520 3722
1.748 4.358 1.564 1836
1.696 4.228 1.507 3766
1.749 4.362 1.551 2042
1.740 4.338 1.528 4512
1.686 4.204 1.485 1643
1.741 4.341 1.515 6023
1.751 4.366 1.508 4493
1.805 4.500 1.550 1616
1.755 4.377 1.497 4575
1.809 4.511 1.539 2882
1.757 4.381 1.483 4526
1.811 4.515 1.525 3983
1.812 4.518 1.511 3248
1.753 4.370 1.465 2634
1.819 4.536 1.501 2915
1.882 4.692 1.548 1171
1.846 4.604 1.506 3224
1.900 4.738 1.546 1280
1.853 4.622 1.496 2104
1.924 4.799 1.548 1031
1.929 4.809 1.535 1818
1.858 4.632 1.483 1677
1.896 4.728 1.496 1933
1.842 4.593 1.457 1075
1.906 4.753 1.487 3222
1.960 4.888 1.526 1174
1.916 4.778 1.478 3876
1.976 4.927 1.521 1522
1.932 4.817 1.473 4310
1.992 4.967 1.515 3446
1.985 4.949 1.494 5328
1.930 4.814 1.456 3455
1.995 4.974 1.484 5546
1.940 4.839 1.447 2709
2.108 5.256 1.544 4139
1.999 4.985 1.471 3924
2.061 5.138 1.495 4481
2.115 5.274 1.531 3525
2.056 5.127 1.475 3269
2.128 5.306 1.522 2345
2.129 5.310 1.506 2124
2.061 5.138 1.461 1879
2.145 5.349 1.498 2353
2.200 5.485 1.533 1825
2.144 5.346 1.480 3407
2.230 5.560 1.534 1734
2.203 5.492 1.499 4088
2.148 5.356 1.465 2768
2.204 5.496 1.482 6404
2.259 5.632 1.516 2404
2.208 5.507 1.467 3705
2.295 5.722 1.519 1930
2.296 5.725 1.501 3112
2.195 5.474 1.441 1551
2.298 5.729 1.483 3866
2.243 5.593 1.451 1355
2.302 5.740 1.467 3193
2.357 5.876 1.499 1448
2.341 5.837 1.471 2927
2.272 5.664 1.431 1195
2.348 5.855 1.456 1967
2.450 6.110 1.494 1508
2.370 5.909 1.449 1474
2.403 5.991 1.448 2416
2.458 6.128 1.478 1773
2.448 6.103 1.452 2571
2.393 5.966 1.423 2166
2.452 6.114 1.435 2948
2.553 6.366 1.489 1898
2.453 6.117 1.416 2472
2.554 6.370 1.469 2079
2.573 6.417 1.458 2442
2.628 6.554 1.486 1646
2.630 6.557 1.466 1952
2.514 6.268 1.407 1746
2.634 6.568 1.447 1895
2.515 6.272 1.388 1379
2.650 6.608 1.434 1712
2.743 6.839 1.479 1657
2.744 6.843 1.458 2103
2.663 6.640 1.419 1457
2.754 6.868 1.441 2008
2.699 6.730 1.414 1687
2.814 7.016 1.446 2024
2.759 6.879 1.421 1630
2.818 7.027 1.426 2110
2.981 7.432 1.501 1991
2.982 7.436 1.477 2602
2.819 7.030 1.404 2219
2.981 7.432 1.453 2300
2.821 7.034 1.382 1660
2.997 7.472 1.436 1448
2.921 7.284 1.403 1334
3.001 7.483 1.414 1770
2.908 7.251 1.374 1312
3.215 8.016 1.480 1557
2.999 7.479 1.389 1408
3.228 8.049 1.459 1483
3.173 7.911 1.437 1461
3.174 7.915 1.412 1478
3.314 8.263 1.468 1459
3.053 7.613 1.339 1367
3.170 7.903 1.385 1224
3.060 7.630 1.317 1125
3.363 8.387 1.435 1063
3.496 8.718 1.458 1219
3.324 8.288 1.393 1163
3.500 8.728 1.432 1838
3.505 8.739 1.406 2142
3.506 8.743 1.379 1706
0.847 2.092 1.717 2246
0.792 1.954 1.611 1064
0.849 2.096 1.711 4492
0.793 1.958 1.605 2128
0.851 2.100 1.704 4492
0.795 1.962 1.599 2128
0.838 2.068 1.671 5422
0.792 1.954 1.584 1291
0.839 2.072 1.664 6908
0.843 2.083 1.662 7710
0.897 2.215 1.762 1180
0.850 2.099 1.665 8848
0.896 2.213 1.751 1733
0.852 2.103 1.659 8354
0.898 2.218 1.744 1733
0.858 2.119 1.661 9667
0.905 2.234 1.746 2112
0.862 2.129 1.659 11614
0.909 2.245 1.743 2446
0.871 2.152 1.666 9674
0.918 2.267 1.750 1845
0.878 2.168 1.668 9600
0.925 2.284 1.752 1063
0.877 2.166 1.657 7902
0.924 2.282 1.740 1936
0.879 2.170 1.650 6271
0.926 2.286 1.733 2275
0.910 2.248 1.696 6800
0.863 2.131 1.613 3721
0.912 2.252 1.689 7961
0.865 2.135 1.606 2838
0.911 2.250 1.677 7936
0.961 2.373 1.764 2395
0.913 2.254 1.670 9510
0.960 2.371 1.752 3538
0.917 2.264 1.668 11062
0.965 2.382 1.749 4488
0.919 2.269 1.661 11579
0.966 2.386 1.742 5397
0.920 2.273 1.654 12096
0.968 2.390 1.734 6307
0.920 2.271 1.643 11705
0.972 2.401 1.731 6599
0.921 2.275 1.636 11638
0.977 2.412 1.728 7178
0.923 2.279 1.629 10794
0.981 2.422 1.725 5890
0.925 2.283 1.622 9949
0.988 2.439 1.725 4992
0.929 2.293 1.619 8034
0.989 2.443 1.718 5318
0.933 2.303 1.616 6419
0.994 2.454 1.714 5713
0.998 2.464 1.711 6137
0.934 2.307 1.609 5018
1.005 2.481 1.712 6972
0.936 2.311 1.602 3616
1.007 2.485 1.704 8745
0.938 2.315 1.594 2634
1.008 2.489 1.696 10517
0.939 2.319 1.587 1652
1.013 2.500 1.693 11157
0.933 2.304 1.568 1112
1.017 2.511 1.689 12053
1.066 2.631 1.765 1161
1.018 2.515 1.681 10437
1.067 2.635 1.757 1074
1.030 2.544 1.689 8920
1.035 2.555 1.685 7208
1.018 2.514 1.650 4607
1.067 2.636 1.724 2289
1.020 2.518 1.642 5145
1.074 2.653 1.724 2646
1.061 2.619 1.692 6124
1.011 2.497 1.619 2740
1.067 2.636 1.692 8672
1.018 2.514 1.619 3633
1.082 2.672 1.703 8120
1.033 2.550 1.630 4197
1.086 2.682 1.699 8260
1.037 2.560 1.626 1789
1.088 2.687 1.690 8003
1.039 2.564 1.618 1029
1.092 2.697 1.686 8586
1.142 2.820 1.757 1095
1.099 2.714 1.685 9804
1.149 2.837 1.756 1324
1.106 2.732 1.684 7613
1.057 2.609 1.613 1520
1.113 2.749 1.683 6239
1.063 2.626 1.613 1157
1.112 2.746 1.671 4813
1.162 2.870 1.741 1829
1.156 2.855 1.721 3649
1.096 2.705 1.637 3452
1.155 2.852 1.709 4594
1.095 2.703 1.625 3512
1.157 2.857 1.700 4772
1.096 2.707 1.616 2707
1.153 2.848 1.684 4744
1.103 2.724 1.615 1522
1.139 2.813 1.653 4885
1.189 2.937 1.722 2580
1.165 2.876 1.677 4634
1.215 3.000 1.745 1771
1.177 2.906 1.682 6712
1.227 3.031 1.749 1255
1.179 2.910 1.673 9051
1.229 3.035 1.740 1599
1.180 2.914 1.664 10148
1.231 3.039 1.731 1850
1.185 2.925 1.658 8579
1.235 3.050 1.725 1891
1.208 2.982 1.677 6626
1.157 2.857 1.611 1399
1.217 3.006 1.678 6359
1.167 2.880 1.613 1759
1.227 3.030 1.679 7245
1.176 2.904 1.614 1908
1.226 3.027 1.666 7152
1.175 2.902 1.602 1459
1.230 3.038 1.660 5657
1.179 2.912 1.596 1390
1.248 3.082 1.671 6247
1.253 3.093 1.665 8253
1.254 3.097 1.655 8972
1.306 3.224 1.718 1022
1.251 3.088 1.639 7988
1.302 3.215 1.702 1676
1.250 3.085 1.626 8081
1.306 3.225 1.695 1830
1.254 3.096 1.620 7228
1.305 3.223 1.682 2323
1.255 3.100 1.610 5977
1.307 3.227 1.672 2871
1.292 3.191 1.643 7214
1.241 3.064 1.582 1842
1.294 3.195 1.633 9163
1.346 3.323 1.693 1803
1.293 3.192 1.620 8181
1.347 3.327 1.683 2323
1.297 3.203 1.613 5424
1.357 3.351 1.682 2859
1.321 3.261 1.628 7545
1.373 3.389 1.687 1483
1.322 3.265 1.618 8581
1.374 3.393 1.677 1729
1.327 3.276 1.611 7613
1.379 3.404 1.669 3099
1.358 3.354 1.634 7143
1.306 3.226 1.576 2522
1.363 3.365 1.627 5177
1.311 3.236 1.569 1587
1.378 3.403 1.632 4919
1.326 3.274 1.574 1141
1.388 3.427 1.630 6249
1.336 3.298 1.573 1452
1.384 3.418 1.613 6581
1.437 3.547 1.670 1029
1.413 3.490 1.632 6175
1.361 3.360 1.576 2873
1.415 3.494 1.622 8396
1.363 3.364 1.566 2394
1.414 3.491 1.608 10433
1.361 3.361 1.552 1142
1.418 3.502 1.600 10141
1.428 3.526 1.598 8688
1.433 3.537 1.589 8879
1.445 3.568 1.590 8270
1.452 3.586 1.584 6745
1.471 3.631 1.590 3711
1.418 3.501 1.537 1441
1.475 3.642 1.581 5093
1.528 3.772 1.634 1088
1.463 3.611 1.556 6773
1.516 3.742 1.608 2040
1.498 3.698 1.578 6587
1.551 3.829 1.629 1829
1.499 3.702 1.566 5512
1.552 3.833 1.618 3015
1.534 3.788 1.587 5676
1.481 3.657 1.536 2661
1.508 3.723 1.549 5349
1.561 3.855 1.599 1581
1.523 3.762 1.550 4060
1.599 3.948 1.621 1369
1.550 3.828 1.562 5709
1.604 3.959 1.612 1939
1.571 3.880 1.568 5736
1.625 4.012 1.617 1560
1.573 3.884 1.556 6652
1.626 4.016 1.605 2740
1.575 3.888 1.544 6954
1.628 4.020 1.592 3218
1.582 3.905 1.537 5031
1.635 4.038 1.585 4453
1.637 4.042 1.572 7048
1.583 3.909 1.525 2596
1.638 4.045 1.560 6818
1.692 4.178 1.607 1994
1.640 4.049 1.547 4962
1.694 4.182 1.594 2914
1.639 4.046 1.532 4837
1.692 4.179 1.578 2732
1.640 4.050 1.520 3629
1.694 4.183 1.565 2218
1.681 4.151 1.540 3833
1.628 4.019 1.495 1227
1.700 4.197 1.542 5032
1.646 4.064 1.497 2195
1.701 4.201 1.529 3369
1.755 4.334 1.573 1507
1.726 4.261 1.534 3149
1.724 4.258 1.519 2973
1.754 4.332 1.528 4237
1.700 4.198 1.485 1030
1.756 4.335 1.515 5435
1.766 4.360 1.508 4062
1.820 4.494 1.550 1538
1.773 4.378 1.499 4605
1.827 4.512 1.541 3131
1.775 4.382 1.485 4682
1.829 4.516 1.527 4538
1.828 4.512 1.511 3779
1.773 4.378 1.469 2443
1.832 4.523 1.499 3443
1.886 4.657 1.539 1160
1.862 4.597 1.506 3151
1.808 4.463 1.465 1200
1.872 4.622 1.498 2707
1.941 4.792 1.548 1254
1.871 4.619 1.481 3013
1.945 4.803 1.535 2215
1.869 4.615 1.465 2326
1.947 4.807 1.520 2141
1.911 4.718 1.479 2481
1.965 4.853 1.518 1482
1.950 4.814 1.490 2955
1.895 4.679 1.452 1775
1.954 4.825 1.477 4574
2.009 4.960 1.515 4046
2.002 4.942 1.494 6005
1.947 4.807 1.456 3447
2.006 4.953 1.480 6528
1.951 4.818 1.443 2446
2.013 4.971 1.469 4516
2.123 5.241 1.542 4169
2.072 5.117 1.491 4338
2.127 5.252 1.527 3679
2.071 5.113 1.473 3284
2.149 5.306 1.524 2602
2.113 5.217 1.484 2248
2.208 5.452 1.545 1797
2.152 5.313 1.491 2146
2.210 5.456 1.528 2049
2.159 5.331 1.478 3626
2.246 5.545 1.532 2086
2.224 5.492 1.501 3782
2.169 5.356 1.467 3042
2.226 5.496 1.484 5911
2.281 5.631 1.517 2139
2.230 5.506 1.468 3657
2.317 5.721 1.521 2013
2.319 5.725 1.503 2847
2.234 5.517 1.453 1528
2.320 5.728 1.485 3299
2.265 5.592 1.453 1603
2.322 5.732 1.467 2623
2.377 5.868 1.499 1322
2.361 5.829 1.471 2408
2.291 5.657 1.431 1273
2.365 5.840 1.454 1710
2.422 5.980 1.466 1488
2.477 6.116 1.497 1306
2.423 5.983 1.448 2257
2.479 6.120 1.478 1610
2.468 6.095 1.452 2287
2.413 5.958 1.423 2059
2.470 6.098 1.433 2611
2.525 6.235 1.463 2241
2.474 6.109 1.416 2154
2.576 6.361 1.469 2053
2.604 6.429 1.463 1972
2.659 6.566 1.491 1638
2.652 6.548 1.466 1902
2.532 6.253 1.406 1738
2.651 6.545 1.444 1667
2.534 6.256 1.386 1403
2.664 6.577 1.429 1605
2.763 6.822 1.478 1448
2.735 6.754 1.442 1940
2.680 6.617 1.416 1177
2.734 6.750 1.420 2300
2.836 7.003 1.468 1632
2.838 7.006 1.446 2190
2.729 6.739 1.396 1589
2.842 7.017 1.426 2360
3.006 7.422 1.501 1663
3.008 7.426 1.477 2424
2.843 7.021 1.404 2398
3.006 7.422 1.453 2448
2.848 7.031 1.383 1668
3.022 7.462 1.436 1552
2.940 7.259 1.401 1356
3.029 7.480 1.415 1964
3.232 7.980 1.501 1369
3.239 7.998 1.478 1646
3.025 7.469 1.389 1488
3.250 8.023 1.457 1371
3.194 7.886 1.434 1308
3.527 8.709 1.543 1453
3.342 8.252 1.468 1386
3.082 7.609 1.340 1578
3.297 8.139 1.424 1556
3.086 7.620 1.317 1289
3.298 8.143 1.399 1106
3.523 8.698 1.457 1420
3.355 8.284 1.394 1280
3.533 8.724 1.433 2365
3.535 8.727 1.406 2866
3.539 8.738 1.380 2429
3.543 8.748 1.353 1608
3.545 8.752 1.326 1001
0.563 1.391 0.025 1015
0.563 1.391 0.021 1026
0.563 1.390 0.017 1025
0.563 1.390 0.013 1032
0.829 2.029 1.671 2140
0.831 2.034 1.665 4281
0.770 1.884 1.550 1685
0.833 2.038 1.659 4281
0.769 1.882 1.540 1130
0.842 2.060 1.666 5317
0.795 1.946 1.579 1133
0.843 2.064 1.660 6847
0.847 2.074 1.658 7837
0.894 2.188 1.744 1324
0.854 2.090 1.660 9469
0.901 2.205 1.746 1921
0.858 2.100 1.659 8944
0.905 2.215 1.744 1847
0.862 2.110 1.657 10448
0.909 2.225 1.741 2025
0.869 2.127 1.659 12898
0.916 2.242 1.743 2223
0.878 2.149 1.666 10929
0.925 2.264 1.750 1703
0.885 2.165 1.668 10876
0.932 2.281 1.752 1092
0.884 2.163 1.657 8590
0.931 2.279 1.740 1922
0.886 2.167 1.650 6375
0.933 2.283 1.733 2263
0.920 2.251 1.700 6032
0.872 2.135 1.617 4524
0.921 2.255 1.693 6914
0.874 2.139 1.611 3640
0.923 2.259 1.686 6893
0.875 2.143 1.604 3248
0.922 2.257 1.675 7724
0.970 2.374 1.756 3468
0.924 2.262 1.668 8535
0.972 2.379 1.749 4569
0.926 2.266 1.661 9197
0.974 2.383 1.742 5398
0.927 2.270 1.654 9860
0.978 2.394 1.738 6245
0.927 2.268 1.643 9642
0.980 2.398 1.731 7020
0.928 2.272 1.636 9552
0.984 2.409 1.728 7828
0.930 2.276 1.629 9544
0.986 2.413 1.720 6585
0.931 2.280 1.622 9537
0.990 2.423 1.717 5351
0.936 2.290 1.619 7922
0.997 2.440 1.718 4763
0.937 2.294 1.612 6481
1.004 2.457 1.719 4613
1.011 2.474 1.719 5615
0.941 2.304 1.609 4788
1.012 2.478 1.712 6967
0.946 2.315 1.606 3098
1.014 2.482 1.704 9030
0.947 2.319 1.598 2075
1.016 2.486 1.696 11094
0.949 2.322 1.591 1053
1.020 2.497 1.693 11073
1.022 2.501 1.685 11385
1.071 2.621 1.761 1203
1.026 2.512 1.681 9496
1.038 2.541 1.689 8501
1.045 2.558 1.689 7371
1.052 2.575 1.689 4952
1.033 2.528 1.650 4179
1.082 2.649 1.724 2389
1.069 2.615 1.692 6107
1.019 2.494 1.619 2520
1.070 2.619 1.684 8644
1.021 2.498 1.611 2289
1.075 2.630 1.680 7864
1.025 2.508 1.607 2213
1.076 2.634 1.672 7088
1.096 2.683 1.690 6964
1.046 2.561 1.618 1021
1.103 2.700 1.690 8048
1.053 2.578 1.618 1411
1.110 2.718 1.689 9167
1.060 2.595 1.617 1555
1.115 2.728 1.684 7512
1.064 2.605 1.613 1497
1.122 2.745 1.683 6446
1.071 2.622 1.613 1169
1.121 2.743 1.671 5429
1.171 2.866 1.741 2014
1.104 2.702 1.637 4509
1.165 2.851 1.721 3779
1.103 2.699 1.625 4591
1.164 2.849 1.709 4571
1.168 2.859 1.703 4547
1.107 2.710 1.620 3454
1.165 2.851 1.687 4761
1.114 2.727 1.619 1752
1.161 2.842 1.671 5447
1.212 2.966 1.739 1334
1.168 2.859 1.670 5342
1.219 2.983 1.737 2046
1.180 2.889 1.675 6252
1.231 3.014 1.742 1723
1.188 2.907 1.673 8235
1.238 3.031 1.740 1370
1.189 2.911 1.664 9463
1.240 3.036 1.731 1575
1.194 2.921 1.658 8572
1.245 3.046 1.725 1913
1.198 2.932 1.653 6835
1.249 3.057 1.719 2434
1.224 2.996 1.675 6110
1.173 2.870 1.609 1165
1.234 3.020 1.676 6569
1.182 2.894 1.611 1591
1.235 3.024 1.666 6535
1.184 2.898 1.602 1630
1.242 3.041 1.664 5322
1.191 2.915 1.600 1752
1.258 3.078 1.671 6393
1.206 2.952 1.607 1034
1.262 3.089 1.665 8108
1.264 3.093 1.655 8927
1.315 3.220 1.718 1330
1.260 3.084 1.639 8233
1.312 3.211 1.702 2179
1.259 3.081 1.626 7738
1.316 3.221 1.695 2015
1.263 3.092 1.620 6003
1.315 3.219 1.682 2461
1.303 3.190 1.656 4971
1.251 3.063 1.594 2297
1.305 3.194 1.646 6260
1.253 3.066 1.585 2010
1.304 3.191 1.633 6959
1.356 3.319 1.693 1700
1.303 3.188 1.620 6613
1.355 3.316 1.680 2151
1.307 3.199 1.613 5002
1.365 3.340 1.679 2781
1.331 3.257 1.628 5938
1.383 3.385 1.687 1401
1.332 3.261 1.618 7023
1.385 3.389 1.677 1650
1.337 3.272 1.611 6736
1.389 3.400 1.669 2983
1.369 3.350 1.634 7037
1.316 3.222 1.576 2238
1.373 3.361 1.627 5411
1.321 3.232 1.569 1418
1.386 3.392 1.629 4844
1.390 3.403 1.621 5301
1.392 3.407 1.610 6039
1.445 3.536 1.667 1207
1.424 3.485 1.632 5677
1.371 3.356 1.576 2864
1.426 3.489 1.622 7300
1.373 3.360 1.566 2243
1.425 3.487 1.608 9499
1.372 3.357 1.552 1081
1.426 3.491 1.597 10016
1.442 3.529 1.600 8434
1.389 3.399 1.546 1209
1.443 3.533 1.589 9057
1.450 3.550 1.584 8789
1.463 3.581 1.584 7114
1.516 3.712 1.638 1094
1.476 3.613 1.584 3747
1.529 3.743 1.637 1342
1.489 3.644 1.584 5456
1.436 3.514 1.532 1087
1.474 3.607 1.556 6445
1.527 3.737 1.608 1881
1.509 3.693 1.578 6471
1.562 3.824 1.629 2018
1.511 3.697 1.566 5571
1.564 3.828 1.618 3238
1.543 3.777 1.584 6761
1.490 3.646 1.533 2978
1.536 3.760 1.564 5598
1.483 3.629 1.514 1408
1.538 3.764 1.553 4494
1.622 3.971 1.632 1678
1.565 3.830 1.565 5128
1.618 3.961 1.614 1834
1.583 3.875 1.568 5922
1.637 4.007 1.617 1394
1.585 3.879 1.556 7475
1.639 4.011 1.605 2458
1.586 3.883 1.544 7661
1.640 4.015 1.592 3181
1.591 3.894 1.534 5078
1.645 4.026 1.582 4139
1.649 4.037 1.572 6388
1.595 3.904 1.525 2687
1.651 4.040 1.560 6383
1.705 4.173 1.607 2401
1.652 4.044 1.547 5487
1.706 4.177 1.594 3825
1.654 4.048 1.535 5022
1.708 4.180 1.581 3498
1.650 4.038 1.517 3176
1.704 4.170 1.563 2874
1.720 4.209 1.562 3880
