1.005 5.295 1.492 4534
1.033 5.438 1.529 2403
1.022 5.382 1.498 3813
1.049 5.525 1.534 2190
1.043 5.492 1.508 4806
1.015 5.348 1.472 2840
1.046 5.511 1.496 4166
1.019 5.367 1.460 3148
1.051 5.537 1.485 3363
1.024 5.393 1.450 2495
1.065 5.609 1.486 3331
1.111 5.851 1.544 1685
1.115 5.870 1.531 2778
1.087 5.726 1.496 2664
1.115 5.874 1.513 4014
1.088 5.730 1.479 1755
1.115 5.871 1.494 5859
1.087 5.727 1.461 1068
1.115 5.874 1.477 5367
1.143 6.019 1.510 2515
1.120 5.901 1.465 4692
1.148 6.045 1.498 2534
1.121 5.905 1.447 3985
1.149 6.049 1.480 2249
1.142 6.015 1.454 2091
1.115 5.871 1.422 1391
1.185 6.239 1.484 1650
1.146 6.034 1.439 1216
1.191 6.274 1.472 3025
1.142 6.015 1.416 1292
1.190 6.270 1.452 3838
1.218 6.414 1.482 1576
1.191 6.273 1.433 3333
1.219 6.418 1.464 1544
1.250 6.582 1.477 2528
1.222 6.437 1.448 1595
1.252 6.594 1.460 3513
1.292 6.807 1.503 1937
1.254 6.605 1.442 2560
1.293 6.811 1.483 1851
1.255 6.609 1.422 2091
1.291 6.800 1.460 1531
1.328 6.994 1.476 2023
1.258 6.628 1.406 1635
1.329 6.998 1.456 2803
1.300 6.845 1.427 1993
1.329 7.002 1.435 2614
1.389 7.316 1.494 2081
1.394 7.342 1.476 2663
1.339 7.052 1.423 2259
1.392 7.331 1.452 3406
1.357 7.147 1.419 2764
1.391 7.327 1.429 3243
1.428 7.519 1.463 2666
1.389 7.315 1.404 2217
1.430 7.530 1.442 2034
1.493 7.864 1.476 1698
1.388 7.311 1.382 1598
1.465 7.714 1.427 1936
1.523 8.021 1.479 1878
1.516 7.986 1.449 2485
1.465 7.718 1.404 1548
1.517 7.990 1.425 1983
1.489 7.844 1.401 1264
1.499 7.894 1.386 1463
1.617 8.516 1.485 1338
1.616 8.512 1.458 1803
1.520 8.005 1.379 1127
1.615 8.508 1.432 1408
1.579 8.316 1.403 1279
1.618 8.520 1.408 1502
1.739 9.158 1.504 1252
1.618 8.523 1.383 2112
1.737 9.147 1.474 1703
1.673 8.812 1.399 2186
1.736 9.143 1.446 1929
1.737 9.147 1.419 2058
1.674 8.815 1.373 1847
1.740 9.166 1.394 2530
1.769 9.320 1.416 1441
1.744 9.185 1.369 2601
1.772 9.331 1.389 1323
1.744 9.188 1.342 1472
0.421 2.197 1.703 3403
0.444 2.317 1.791 1412
0.421 2.202 1.697 6807
0.445 2.322 1.784 2825
0.422 2.206 1.691 6807
0.447 2.333 1.782 2872
0.445 2.325 1.766 4978
0.422 2.204 1.680 4379
0.446 2.330 1.760 7101
0.423 2.209 1.673 1954
0.447 2.334 1.753 10905
0.424 2.213 1.667 1699
0.447 2.333 1.742 14856
0.423 2.211 1.656 1388
0.447 2.337 1.735 14856
0.424 2.215 1.650 1262
0.448 2.342 1.728 16111
0.425 2.220 1.643 1186
0.449 2.346 1.721 17366
0.426 2.224 1.637 1236
0.451 2.357 1.719 13888
0.455 2.375 1.721 11218
0.455 2.379 1.714 9705
0.479 2.502 1.797 1024
0.458 2.390 1.711 8207
0.481 2.514 1.794 1088
0.458 2.395 1.704 7962
0.482 2.518 1.787 1088
0.458 2.393 1.693 7723
0.482 2.516 1.775 1498
0.459 2.397 1.686 7720
0.483 2.521 1.768 1326
0.460 2.402 1.679 7707
0.484 2.526 1.761 1519
0.461 2.406 1.672 7697
0.484 2.530 1.753 1964
0.475 2.483 1.712 6802
0.476 2.487 1.705 8879
0.477 2.492 1.697 8753
0.477 2.489 1.686 8736
0.479 2.500 1.683 6360
0.481 2.512 1.680 4175
0.482 2.516 1.672 6233
0.506 2.642 1.751 1549
0.484 2.527 1.669 8459
0.508 2.653 1.747 1936
0.483 2.525 1.658 9104
0.507 2.651 1.736 2274
0.483 2.522 1.646 9924
0.507 2.649 1.724 2451
0.485 2.533 1.643 7607
0.509 2.660 1.720 2575
0.499 2.605 1.676 7907
0.474 2.477 1.599 1666
0.502 2.622 1.676 7961
0.478 2.495 1.600 2087
0.503 2.627 1.669 8163
0.478 2.499 1.593 1356
0.501 2.618 1.653 6650
0.526 2.745 1.729 1431
0.516 2.696 1.689 7727
0.492 2.568 1.614 1494
0.518 2.707 1.685 7555
0.518 2.705 1.673 5412
0.508 2.655 1.634 4788
0.533 2.784 1.708 1469
0.513 2.680 1.638 4799
0.538 2.809 1.712 2301
0.515 2.691 1.634 5208
0.540 2.820 1.707 3301
0.517 2.702 1.630 5702
0.542 2.831 1.703 3383
0.518 2.706 1.622 6518
0.543 2.836 1.695 3776
0.519 2.710 1.615 6826
0.544 2.840 1.687 2992
0.521 2.722 1.610 6292
0.559 2.920 1.720 3599
0.523 2.733 1.606 5662
0.560 2.924 1.711 4656
0.562 2.936 1.706 5326
0.524 2.737 1.598 3972
0.563 2.940 1.698 6152
0.523 2.734 1.587 3162
0.564 2.945 1.689 6639
0.523 2.731 1.575 4031
0.566 2.956 1.684 6338
0.525 2.742 1.571 4145
0.568 2.967 1.679 5806
0.527 2.753 1.566 4411
0.575 3.006 1.689 6766
0.528 2.757 1.558 3282
0.578 3.018 1.684 10087
0.521 2.720 1.529 1835
0.578 3.022 1.675 10797
0.552 2.883 1.603 1615
0.582 3.040 1.673 8384
0.554 2.894 1.598 1347
0.589 3.079 1.682 8181
0.564 2.947 1.615 2433
0.592 3.091 1.677 8252
0.566 2.959 1.610 3254
0.592 3.095 1.668 9146
0.567 2.963 1.601 2595
0.595 3.107 1.662 8592
0.569 2.974 1.596 1793
0.595 3.111 1.653 7059
0.570 2.978 1.587 1054
0.598 3.122 1.647 8324
0.572 2.989 1.582 1114
0.600 3.134 1.642 10744
0.625 3.267 1.707 1817
0.601 3.138 1.632 11609
0.626 3.271 1.697 2581
0.601 3.142 1.623 9088
0.627 3.276 1.687 3536
0.621 3.245 1.661 7540
0.596 3.111 1.597 3596
0.625 3.263 1.658 8800
0.599 3.129 1.595 2458
0.627 3.275 1.652 9833
0.601 3.141 1.589 2155
0.628 3.279 1.642 9378
0.602 3.145 1.580 1840
0.627 3.276 1.630 10817
0.601 3.142 1.567 1131
0.628 3.281 1.620 12886
0.630 3.292 1.614 13133
0.631 3.296 1.604 10262
0.657 3.431 1.665 1919
0.633 3.307 1.598 8014
0.659 3.443 1.658 3989
0.635 3.319 1.591 8932
0.661 3.454 1.651 4526
0.636 3.323 1.581 7153
0.670 3.501 1.660 3642
0.649 3.391 1.600 6262
0.675 3.527 1.659 3313
0.650 3.395 1.590 4777
0.677 3.538 1.652 3039
0.678 3.543 1.642 4013
0.652 3.407 1.583 3040
0.674 3.518 1.619 7108
0.647 3.382 1.561 1727
0.677 3.537 1.615 7091
0.651 3.401 1.557 2248
0.694 3.627 1.641 5697
0.660 3.448 1.565 3186
0.695 3.632 1.630 7681
0.658 3.437 1.549 1409
0.695 3.629 1.616 8024
0.721 3.766 1.673 1265
0.697 3.640 1.609 7298
0.726 3.792 1.671 1486
0.699 3.652 1.601 5296
0.729 3.811 1.666 2147
0.694 3.627 1.579 3878
0.730 3.815 1.654 2757
0.730 3.812 1.640 3646
0.694 3.624 1.565 2879
0.729 3.809 1.626 4229
0.703 3.671 1.572 2013
0.729 3.806 1.612 4874
0.702 3.668 1.558 1620
0.732 3.825 1.607 4350
0.706 3.687 1.553 1550
0.733 3.829 1.596 4492
0.759 3.967 1.649 2083
0.734 3.833 1.584 5887
0.760 3.971 1.637 4107
0.737 3.852 1.579 6119
0.764 3.990 1.631 3267
0.742 3.878 1.576 4055
0.780 4.075 1.650 1896
0.744 3.889 1.567 3090
0.779 4.072 1.635 2839
0.779 4.069 1.620 3560
0.747 3.901 1.558 3488
0.784 4.095 1.616 4503
0.753 3.934 1.557 3556
0.786 4.106 1.607 6297
0.755 3.945 1.549 2677
0.785 4.103 1.592 7405
0.812 4.243 1.642 2428
0.785 4.100 1.578 6640
0.817 4.269 1.638 2507
0.807 4.214 1.604 4061
0.780 4.075 1.555 2973
0.808 4.219 1.592 6201
0.834 4.358 1.641 2100
0.810 4.230 1.582 7688
0.837 4.370 1.631 2882
0.811 4.234 1.570 7381
0.840 4.389 1.623 3689
0.811 4.238 1.557 4354
0.842 4.401 1.612 3352
0.811 4.235 1.542 2687
0.853 4.457 1.617 2163
0.810 4.232 1.528 2805
0.862 4.505 1.618 2178
0.814 4.250 1.520 2727
0.862 4.502 1.603 1939
0.817 4.269 1.512 2498
0.878 4.588 1.616 2421
0.893 4.666 1.627 3185
0.818 4.273 1.500 2095
0.894 4.670 1.613 3336
0.817 4.270 1.485 1763
0.879 4.593 1.573 3352
0.821 4.288 1.477 1167
0.881 4.604 1.562 3470
0.908 4.745 1.606 1163
0.884 4.616 1.551 3728
0.912 4.765 1.597 1516
0.889 4.642 1.544 2942
0.916 4.784 1.587 1886
0.901 4.706 1.549 3241
0.928 4.847 1.591 1280
0.914 4.777 1.555 3994
0.887 4.635 1.512 1170
0.915 4.781 1.541 5203
0.942 4.923 1.583 1052
0.917 4.792 1.529 6271
0.945 4.934 1.571 2381
0.921 4.811 1.519 5881
0.948 4.953 1.560 3800
0.946 4.943 1.542 3703
0.919 4.800 1.501 2748
0.937 4.894 1.512 2831
0.970 5.066 1.561 1625
0.949 4.958 1.515 2540
0.976 5.100 1.555 1836
0.953 4.977 1.504 3924
0.980 5.119 1.544 1544
0.971 5.071 1.514 3951
0.943 4.928 1.475 1760
0.974 5.090 1.503 3672
1.003 5.240 1.544 1497
0.985 5.146 1.502 3618
0.958 5.003 1.464 1790
1.012 5.286 1.523 5245
0.984 5.143 1.485 3227
1.014 5.297 1.510 8789
0.979 5.116 1.462 2247
1.015 5.301 1.494 6607
1.042 5.444 1.531 2409
1.050 5.486 1.525 4701
1.023 5.343 1.488 3460
1.051 5.490 1.508 5263
1.023 5.347 1.472 2132
1.055 5.509 1.496 3766
1.083 5.660 1.534 2470
1.068 5.581 1.497 3377
1.029 5.377 1.446 2026
1.073 5.607 1.486 3270
1.120 5.849 1.544 1744
1.077 5.626 1.473 2966
1.122 5.861 1.529 2659
1.123 5.865 1.512 3579
1.078 5.630 1.456 1641
1.123 5.869 1.494 5223
1.096 5.725 1.461 1190
1.123 5.865 1.475 4821
1.150 6.009 1.508 2850
1.148 5.998 1.487 4475
1.121 5.854 1.455 2965
1.150 6.009 1.471 3605
1.123 5.865 1.439 2043
1.151 6.013 1.454 2596
1.123 5.869 1.422 1201
1.152 6.017 1.436 1957
1.201 6.276 1.492 1560
1.202 6.279 1.474 2977
1.152 6.021 1.418 1701
1.200 6.268 1.452 3752
1.152 6.017 1.399 1472
1.201 6.272 1.433 3328
1.228 6.416 1.464 1408
1.261 6.588 1.479 2548
1.233 6.443 1.449 1708
1.262 6.592 1.460 3806
1.303 6.805 1.503 1660
1.264 6.603 1.442 2728
1.303 6.809 1.483 1629
1.265 6.607 1.422 2003
1.301 6.798 1.460 1612
1.320 6.893 1.457 1842
1.347 7.038 1.485 1577
1.339 6.996 1.456 2645
1.311 6.851 1.428 2040
1.340 7.000 1.435 2690
1.401 7.321 1.495 1954
1.405 7.340 1.476 2512
1.349 7.050 1.423 2509
1.404 7.337 1.453 3368
1.368 7.145 1.419 2800
1.404 7.333 1.430 3336
1.439 7.516 1.463 2675
1.401 7.321 1.406 2103
1.440 7.520 1.441 2049
1.509 7.884 1.480 1774
1.465 7.654 1.441 1688
1.535 8.019 1.479 2270
1.507 7.873 1.454 1910
1.531 7.999 1.451 2631
1.477 7.715 1.404 1494
1.530 7.995 1.426 1958
1.503 7.849 1.403 1332
1.509 7.884 1.384 1505
1.630 8.514 1.485 1378
1.629 8.510 1.458 1854
1.502 7.849 1.355 1156
1.630 8.514 1.433 1467
1.536 8.021 1.358 1251
1.630 8.517 1.408 1559
1.751 9.148 1.503 1066
1.631 8.521 1.383 2146
1.680 8.775 1.420 1526
1.685 8.802 1.397 1882
1.630 8.517 1.357 1785
1.750 9.144 1.419 1908
1.686 8.805 1.371 1560
1.753 9.155 1.393 2314
1.725 9.009 1.373 1323
1.756 9.174 1.368 2426
1.784 9.321 1.388 1265
1.757 9.178 1.341 1377
0.427 2.196 1.703 3549
0.450 2.316 1.791 1825
0.428 2.201 1.697 7099
0.451 2.321 1.784 3650
0.428 2.205 1.691 7099
0.452 2.326 1.778 3650
0.453 2.330 1.771 5566
0.429 2.210 1.684 4595
0.454 2.335 1.764 7482
0.429 2.208 1.673 2123
0.453 2.333 1.753 11424
0.430 2.212 1.667 1797
0.453 2.331 1.742 15482
0.429 2.210 1.656 1414
0.454 2.336 1.735 15482
0.430 2.214 1.650 1289
0.455 2.341 1.728 16795
0.431 2.219 1.643 1231
0.456 2.345 1.721 18109
0.432 2.223 1.637 1297
0.458 2.356 1.719 14597
0.461 2.374 1.721 11949
0.462 2.378 1.714 10461
0.464 2.389 1.711 8986
0.464 2.387 1.700 9075
0.488 2.510 1.783 1292
0.465 2.392 1.693 9176
0.489 2.515 1.775 1656
0.464 2.389 1.682 9153
0.488 2.513 1.764 2350
0.466 2.400 1.679 9063
0.490 2.524 1.761 2011
0.467 2.405 1.672 9002
0.491 2.529 1.753 2593
0.482 2.481 1.712 7431
0.458 2.357 1.631 1105
0.483 2.486 1.705 9452
0.483 2.484 1.693 9168
0.483 2.488 1.686 9043
0.486 2.499 1.683 6557
0.488 2.510 1.680 4428
0.489 2.515 1.672 6665
0.513 2.641 1.751 1321
0.491 2.526 1.669 9080
0.515 2.652 1.747 1651
0.490 2.523 1.658 9673
0.515 2.650 1.736 2052
0.490 2.521 1.646 10554
0.514 2.648 1.724 2299
0.491 2.525 1.639 8061
0.515 2.652 1.716 2788
0.506 2.603 1.676 7704
0.481 2.476 1.599 1809
0.509 2.621 1.676 7661
0.484 2.494 1.600 2315
0.510 2.625 1.669 7758
0.485 2.498 1.593 1628
0.508 2.616 1.653 6630
0.533 2.744 1.729 1321
0.524 2.695 1.689 7354
0.499 2.567 1.614 1961
0.526 2.706 1.685 6970
0.501 2.578 1.610 1264
0.527 2.710 1.677 4861
0.514 2.647 1.630 4575
0.539 2.776 1.704 1647
0.519 2.672 1.634 4320
0.544 2.800 1.708 2353
0.521 2.683 1.630 4451
0.546 2.812 1.704 3291
0.525 2.701 1.630 4758
0.550 2.830 1.703 3140
0.527 2.712 1.626 5773
0.552 2.841 1.699 3186
0.528 2.716 1.618 6073
0.553 2.845 1.690 2670
0.528 2.720 1.610 5429
0.567 2.918 1.720 3525
0.529 2.724 1.602 4651
0.568 2.923 1.711 4363
0.570 2.934 1.706 5154
0.530 2.728 1.594 3373
0.572 2.945 1.702 6109
0.532 2.740 1.590 3336
0.572 2.943 1.689 6500
0.532 2.737 1.579 4555
0.574 2.954 1.684 5992
0.534 2.748 1.574 4671
0.576 2.966 1.679 5260
0.535 2.752 1.566 4788
0.582 2.998 1.685 6147
0.535 2.756 1.558 3529
0.586 3.016 1.684 9258
0.559 2.878 1.612 2088
0.587 3.020 1.675 10050
0.560 2.882 1.603 1793
0.593 3.053 1.680 8287
0.562 2.893 1.598 1379
0.598 3.078 1.682 8735
0.572 2.946 1.615 2322
0.600 3.089 1.677 8635
0.574 2.957 1.610 3219
0.601 3.094 1.668 9295
0.575 2.961 1.601 2527
0.603 3.105 1.662 8429
0.577 2.972 1.596 1799
0.604 3.109 1.653 6807
0.578 2.976 1.587 1130
0.606 3.121 1.647 8416
0.580 2.988 1.582 1067
0.608 3.132 1.642 11143
0.634 3.265 1.707 1479
0.609 3.136 1.632 11948
0.635 3.269 1.697 2252
0.610 3.140 1.623 9264
0.636 3.274 1.687 3458
0.630 3.243 1.661 8625
0.604 3.109 1.597 3026
0.632 3.255 1.655 8846
0.606 3.121 1.591 1684
0.636 3.273 1.652 9013
0.610 3.139 1.589 1863
0.637 3.277 1.642 8941
0.611 3.143 1.580 1631
0.636 3.275 1.630 10316
0.610 3.140 1.567 1038
0.637 3.279 1.620 12080
0.639 3.290 1.614 12248
0.639 3.287 1.601 9913
0.665 3.422 1.662 1938
0.642 3.306 1.598 8206
0.668 3.441 1.658 3953
0.644 3.317 1.591 9250
0.671 3.452 1.651 4887
0.645 3.321 1.581 7522
0.680 3.499 1.660 3738
0.660 3.397 1.603 5291
0.686 3.532 1.662 3071
0.657 3.379 1.584 4010
0.687 3.537 1.652 2733
0.689 3.548 1.645 3807
0.663 3.412 1.586 3009
0.687 3.538 1.628 6966
0.661 3.402 1.570 2790
0.688 3.542 1.618 7318
0.662 3.406 1.560 2588
0.689 3.547 1.607 5635
0.716 3.683 1.665 2242
0.705 3.630 1.630 6998
0.679 3.493 1.573 1264
0.705 3.627 1.616 7555
0.731 3.764 1.673 1055
0.707 3.638 1.609 6921
0.736 3.790 1.671 1498
0.709 3.650 1.601 4975
0.739 3.801 1.663 2463
0.710 3.654 1.590 3602
0.739 3.806 1.651 2748
0.716 3.687 1.591 3557
0.743 3.824 1.646 2698
0.723 3.720 1.592 3924
0.750 3.858 1.646 2190
0.739 3.804 1.612 4887
0.712 3.666 1.558 1758
0.743 3.823 1.607 4655
0.716 3.685 1.553 1787
0.744 3.827 1.596 5108
0.770 3.965 1.649 2185
0.744 3.831 1.584 5982
0.771 3.969 1.637 4371
0.748 3.850 1.579 5669
0.775 3.988 1.631 3509
0.754 3.883 1.578 3892
0.793 4.080 1.652 1996
0.755 3.887 1.567 3213
0.792 4.077 1.638 2710
0.757 3.899 1.558 3510
0.793 4.081 1.626 2946
0.795 4.093 1.616 4165
0.765 3.939 1.560 3657
0.797 4.104 1.607 6431
0.766 3.943 1.549 3023
0.797 4.101 1.592 7796
0.827 4.255 1.648 2920
0.796 4.098 1.578 6766
0.829 4.267 1.638 3508
0.830 4.271 1.625 3720
0.798 4.109 1.568 3700
0.819 4.216 1.592 5171
0.846 4.356 1.641 2556
0.821 4.228 1.582 6996
0.850 4.375 1.633 3405
0.822 4.232 1.570 6541
0.852 4.387 1.623 4197
0.853 4.391 1.610 3728
0.823 4.236 1.557 3450
0.842 4.336 1.577 3084
0.870 4.476 1.624 2282
0.826 4.252 1.535 3116
0.871 4.481 1.611 2430
0.827 4.256 1.522 2664
0.868 4.470 1.593 2510
0.889 4.578 1.614 2987
0.829 4.267 1.512 2056
0.889 4.575 1.598 3663
0.830 4.271 1.500 1577
0.888 4.571 1.582 3565
0.846 4.356 1.513 1214
0.892 4.590 1.573 3449
0.897 4.617 1.567 3835
0.924 4.758 1.611 1003
0.895 4.606 1.549 3749
0.922 4.747 1.592 1957
0.896 4.610 1.535 2964
0.923 4.751 1.578 2562
0.914 4.703 1.549 3296
0.941 4.845 1.591 1051
0.929 4.782 1.557 4317
0.902 4.640 1.515 1436
0.928 4.778 1.541 5687
0.931 4.790 1.529 6997
0.958 4.932 1.571 1835
0.934 4.809 1.519 6445
0.962 4.951 1.560 2712
0.938 4.828 1.509 3639
0.966 4.970 1.550 2055
0.949 4.884 1.510 2878
0.984 5.064 1.561 1388
0.961 4.948 1.512 2490
0.989 5.090 1.552 1669
0.966 4.974 1.504 4220
0.994 5.117 1.544 1412
0.977 5.031 1.504 4454
1.015 5.226 1.557 1318
0.990 5.095 1.505 3613
1.019 5.245 1.546 1759
0.999 5.144 1.502 3430
0.972 5.001 1.464 2164
1.028 5.290 1.525 6148
0.997 5.132 1.483 3346
1.029 5.294 1.510 10269
0.994 5.114 1.462 2499
1.031 5.306 1.496 8844
1.066 5.487 1.543 2563
1.065 5.483 1.525 5250
1.033 5.317 1.482 4513
1.066 5.487 1.508 5481
1.094 5.630 1.545 2196
1.070 5.506 1.496 3497
1.099 5.657 1.534 2552
1.078 5.548 1.489 3024
1.106 5.691 1.524 2225
1.099 5.657 1.498 3586
1.071 5.514 1.464 1868
1.094 5.631 1.475 3405
1.138 5.858 1.529 2635
1.139 5.862 1.512 2895
1.093 5.627 1.456 1812
1.138 5.858 1.493 4207
1.110 5.714 1.459 1170
1.137 5.854 1.474 4322
1.165 5.998 1.507 3256
1.165 5.995 1.487 4436
1.137 5.851 1.455 2804
1.167 6.006 1.471 3364
1.139 5.862 1.439 1953
1.168 6.010 1.454 2991
1.140 5.866 1.422 1030
1.168 6.014 1.436 2743
1.220 6.280 1.494 1534
1.221 6.284 1.475 2846
1.168 6.010 1.416 2168
1.219 6.272 1.453 3387
1.170 6.021 1.400 1651
1.218 6.268 1.433 2991
1.247 6.421 1.465 1383
1.279 6.584 1.479 2563
1.251 6.440 1.449 1649
1.280 6.588 1.460 4173
1.252 6.443 1.430 1532
1.281 6.592 1.440 2983
1.344 6.920 1.505 1440
1.281 6.596 1.421 1978
1.342 6.909 1.482 1910
1.339 6.889 1.457 2027
1.284 6.607 1.403 1486
1.360 7.000 1.457 2406
1.332 6.855 1.430 1849
1.373 7.065 1.448 2598
1.422 7.317 1.495 1777
1.369 7.046 1.423 2634
1.425 7.336 1.476 2268
1.425 7.333 1.453 3261
1.387 7.141 1.419 2773
1.424 7.329 1.430 3454
1.460 7.512 1.463 2667
1.462 7.524 1.442 2071
1.423 7.325 1.407 1981
1.534 7.895 1.483 2145
1.488 7.658 1.442 1860
1.559 8.022 1.480 2730
1.530 7.876 1.455 2145
1.556 8.010 1.454 2873
1.528 7.865 1.430 1643
1.554 7.999 1.428 1981
1.526 7.853 1.404 1271
1.523 7.841 1.378 1396
1.653 8.509 1.485 1304
1.652 8.505 1.458 1838
1.555 8.006 1.380 1186
1.653 8.509 1.433 1553
1.558 8.017 1.358 1460
1.655 8.520 1.409 1594
1.656 8.524 1.384 2093
1.705 8.778 1.421 1353
1.655 8.520 1.358 1659
1.709 8.797 1.397 1602
1.750 9.008 1.401 1743
1.710 8.800 1.371 1421
1.778 9.151 1.393 1911
1.749 9.004 1.373 1431
1.782 9.169 1.368 2158
1.810 9.316 1.388 1119
1.781 9.165 1.340 1350
0.429 2.196 1.703 3561
0.452 2.316 1.791 2152
0.430 2.200 1.697 7122
0.453 2.320 1.784 4304
0.431 2.205 1.691 7122
0.454 2.325 1.778 4304
0.455 2.330 1.771 5959
0.432 2.209 1.684 4640
0.456 2.334 1.764 7614
0.431 2.207 1.673 2170
0.456 2.333 1.753 11551
0.432 2.212 1.667 1830
0.457 2.337 1.746 15721
0.433 2.216 1.660 1489
0.457 2.342 1.739 15721
0.434 2.220 1.654 1384
0.457 2.340 1.728 17012
0.433 2.218 1.643 1261
0.458 2.345 1.721 18348
0.434 2.222 1.637 1326
0.460 2.356 1.719 14827
0.464 2.373 1.721 12162
0.464 2.378 1.714 10713
0.465 2.382 1.707 9265
0.489 2.505 1.790 1186
0.466 2.387 1.700 9782
0.490 2.510 1.783 1186
0.467 2.391 1.693 10300
0.491 2.515 1.775 1731
0.467 2.389 1.682 10268
0.491 2.513 1.764 2613
0.469 2.400 1.679 10066
0.493 2.524 1.761 2330
0.470 2.404 1.672 9925
0.494 2.529 1.753 2997
0.485 2.481 1.712 7743
0.460 2.356 1.631 1311
0.485 2.485 1.705 9670
0.485 2.483 1.693 9274
0.485 2.481 1.682 9120
0.485 2.485 1.675 6732
0.485 2.483 1.663 4484
0.510 2.609 1.742 1035
0.491 2.514 1.672 6707
0.516 2.640 1.751 1116
0.493 2.525 1.669 9098
0.518 2.651 1.747 1377
0.493 2.523 1.658 9668
0.517 2.649 1.736 1827
0.492 2.521 1.646 10588
0.517 2.647 1.724 2120
0.493 2.525 1.639 8145
0.518 2.652 1.716 2551
0.510 2.609 1.680 7157
0.485 2.482 1.603 2288
0.511 2.614 1.672 7045
0.486 2.487 1.596 2051
0.513 2.625 1.669 7046
0.488 2.497 1.593 1803
0.511 2.616 1.653 6313
0.536 2.743 1.729 1116
0.526 2.694 1.689 6718
0.501 2.566 1.614 2520
0.527 2.699 1.681 6242
0.502 2.570 1.607 1729
0.516 2.642 1.638 4511
0.541 2.771 1.713 1404
0.517 2.647 1.630 4385
0.542 2.775 1.704 1668
0.520 2.664 1.630 4072
0.546 2.793 1.704 2321
0.523 2.675 1.627 4013
0.548 2.804 1.700 3149
0.527 2.700 1.630 4040
0.553 2.829 1.703 2964
0.531 2.718 1.630 5160
0.556 2.847 1.702 2647
0.530 2.715 1.618 5379
0.556 2.845 1.690 2630
0.531 2.720 1.610 4668
0.570 2.918 1.720 3270
0.571 2.922 1.711 3882
0.532 2.724 1.602 3881
0.573 2.934 1.706 4843
0.533 2.728 1.594 2965
0.575 2.945 1.702 5962
0.535 2.739 1.590 3388
0.575 2.942 1.689 6240
0.536 2.743 1.582 4701
0.576 2.947 1.681 5469
0.537 2.747 1.574 4773
0.537 2.751 1.566 4845
0.579 2.965 1.679 4494
0.585 2.997 1.685 5341
0.538 2.755 1.558 3516
0.589 3.015 1.684 8224
0.562 2.877 1.612 2271
0.591 3.027 1.678 9279
0.563 2.881 1.603 1900
0.596 3.052 1.680 8322
0.564 2.885 1.595 1379
0.601 3.077 1.682 8831
0.575 2.945 1.615 2209
0.603 3.089 1.677 8442
0.577 2.956 1.610 3076
0.604 3.093 1.668 8973
0.578 2.961 1.601 2408
0.606 3.104 1.662 8047
0.580 2.972 1.596 1826
0.607 3.109 1.653 6537
0.581 2.976 1.587 1269
0.609 3.120 1.647 8351
0.583 2.987 1.582 1116
0.612 3.131 1.642 11246
0.638 3.264 1.707 1291
0.612 3.136 1.632 11980
0.638 3.269 1.697 2133
0.615 3.147 1.627 9384
0.641 3.280 1.691 2851
0.632 3.236 1.658 9502
0.606 3.102 1.594 2213
0.636 3.254 1.655 8891
0.609 3.120 1.591 1443
0.639 3.272 1.652 8059
0.613 3.138 1.589 1583
0.640 3.277 1.642 8337
0.614 3.142 1.580 1426
0.639 3.274 1.630 9456
0.640 3.278 1.620 10854
0.643 3.290 1.614 11065
0.642 3.287 1.601 9148
0.668 3.422 1.662 1794
0.646 3.305 1.598 7905
0.672 3.440 1.658 3708
0.648 3.316 1.591 9077
0.676 3.459 1.654 4927
0.649 3.320 1.581 7461
0.682 3.492 1.657 3656
0.663 3.396 1.603 4695
0.690 3.532 1.662 2887
0.666 3.407 1.596 3774
0.692 3.543 1.655 2490
0.694 3.555 1.648 3713
0.668 3.419 1.589 3295
0.692 3.545 1.631 6923
0.666 3.408 1.573 3147
0.692 3.542 1.618 7499
0.665 3.405 1.560 2458
0.693 3.546 1.607 5766
0.719 3.682 1.665 2243
0.709 3.629 1.630 6224
0.682 3.493 1.573 1431
0.708 3.626 1.616 6897
0.709 3.630 1.606 6402
0.736 3.767 1.662 1702
0.713 3.649 1.601 4547
0.740 3.786 1.657 2757
0.721 3.689 1.605 4435
0.747 3.827 1.660 2250
0.720 3.686 1.591 4661
0.747 3.824 1.646 1910
0.725 3.712 1.589 4264
0.752 3.850 1.643 1992
0.743 3.803 1.612 4560
0.716 3.666 1.558 1949
0.747 3.822 1.607 4648
0.720 3.684 1.553 2110
0.749 3.833 1.598 5425
0.776 3.971 1.652 1843
0.747 3.823 1.582 5921
0.774 3.961 1.634 4582
0.772 3.951 1.617 5513
0.745 3.813 1.565 4436
0.758 3.882 1.578 3436
0.795 4.072 1.650 2107
0.761 3.894 1.570 2981
0.796 4.076 1.638 2594
0.761 3.898 1.558 3346
0.798 4.088 1.628 2556
0.769 3.938 1.560 4037
0.799 4.092 1.616 3751
0.802 4.104 1.607 6217
0.772 3.950 1.551 3405
0.801 4.100 1.592 7681
0.832 4.262 1.650 3289
0.802 4.105 1.580 6543
0.833 4.266 1.638 4293
0.836 4.278 1.628 4315
0.804 4.116 1.571 3998
0.841 4.304 1.623 3848
0.813 4.164 1.574 2830
0.826 4.227 1.582 5848
0.856 4.382 1.636 3687
0.828 4.239 1.572 5526
0.858 4.393 1.625 4485
0.849 4.346 1.595 4123
0.822 4.206 1.547 2024
0.848 4.343 1.580 3701
0.876 4.483 1.627 2389
0.830 4.251 1.535 3283
0.875 4.480 1.611 2809
0.874 4.477 1.595 3130
0.831 4.255 1.522 2309
0.894 4.577 1.614 3475
0.867 4.436 1.568 2003
0.893 4.574 1.598 4479
0.866 4.433 1.552 1132
0.891 4.563 1.580 3866
0.919 4.704 1.625 1318
0.898 4.597 1.576 3569
0.870 4.456 1.531 1027
0.903 4.623 1.569 4223
0.899 4.605 1.549 3614
0.927 4.746 1.592 2287
0.928 4.750 1.578 3006
0.900 4.609 1.535 2983
0.926 4.740 1.560 3554
0.898 4.598 1.517 2111
0.932 4.773 1.555 4364
0.905 4.632 1.512 1585
0.933 4.777 1.541 5678
0.937 4.796 1.531 6977
0.965 4.938 1.573 1279
0.939 4.808 1.519 6626
0.967 4.950 1.560 1744
0.943 4.827 1.509 3551
0.971 4.969 1.550 1487
0.954 4.883 1.510 3096
0.982 5.025 1.550 1373
0.959 4.909 1.502 2415
0.987 5.052 1.542 1675
0.970 4.966 1.502 3671
0.998 5.108 1.542 1822
0.984 5.037 1.506 4560
1.021 5.225 1.557 1484
0.996 5.101 1.507 3626
1.024 5.244 1.546 1958
1.004 5.143 1.502 3226
0.977 5.000 1.464 2378
1.033 5.289 1.525 5950
1.002 5.131 1.483 3318
1.035 5.301 1.512 10216
1.000 5.120 1.464 2287
1.036 5.305 1.496 9946
1.064 5.448 1.533 2558
1.037 5.309 1.480 5935
1.071 5.482 1.525 5037
1.072 5.486 1.508 5155
1.036 5.305 1.463 2426
1.074 5.497 1.494 3189
1.103 5.648 1.532 2455
1.106 5.660 1.517 3241
1.077 5.516 1.482 2660
1.103 5.649 1.497 4170
1.075 5.505 1.462 1809
1.100 5.630 1.475 3466
1.144 5.857 1.529 2350
1.145 5.861 1.512 2333
1.100 5.634 1.458 1999
1.143 5.849 1.491 3320
1.106 5.660 1.447 1616
1.143 5.853 1.474 4237
1.171 5.997 1.507 3467
1.169 5.986 1.486 4394
1.141 5.842 1.453 3083
1.171 5.997 1.470 3212
1.143 5.853 1.437 1881
1.174 6.009 1.454 3049
1.146 5.865 1.422 1085
1.174 6.013 1.436 2891
1.203 6.157 1.467 1547
1.229 6.290 1.477 2543
1.174 6.009 1.416 2236
1.225 6.271 1.453 3022
1.176 6.020 1.400 1755
1.224 6.267 1.433 2642
1.267 6.488 1.479 1403
1.286 6.583 1.479 2386
1.258 6.438 1.449 1537
1.287 6.587 1.460 3834
1.258 6.442 1.430 1541
1.287 6.591 1.440 2680
1.259 6.446 1.411 1512
1.349 6.907 1.482 2152
1.301 6.663 1.434 1685
1.344 6.880 1.456 2139
1.372 7.026 1.484 1429
1.367 6.999 1.457 2213
1.339 6.854 1.430 1655
1.380 7.064 1.448 2638
1.430 7.324 1.496 1526
1.377 7.052 1.424 2598
1.431 7.327 1.475 1988
1.432 7.331 1.453 3105
1.395 7.140 1.419 2632
1.433 7.335 1.431 3444
1.467 7.511 1.463 2480
1.435 7.346 1.411 1952
1.469 7.522 1.442 1874
1.543 7.902 1.484 2371
1.497 7.664 1.443 2033
1.567 8.020 1.480 2900
1.538 7.875 1.455 2093
1.564 8.009 1.454 2992
1.536 7.863 1.430 1547
1.562 7.997 1.428 2040
1.534 7.851 1.404 1169
1.528 7.824 1.376 1305
1.608 8.231 1.441 1229
1.663 8.511 1.459 1700
1.566 8.020 1.383 1221
1.567 8.023 1.359 1655
1.662 8.507 1.433 1512
1.664 8.519 1.409 1507
1.569 8.034 1.336 1082
1.666 8.530 1.385 1949
1.714 8.776 1.421 1289
1.759 9.003 1.427 1548
1.665 8.526 1.359 1494
1.761 9.014 1.402 1902
1.717 8.791 1.370 1381
1.761 9.018 1.375 1599
1.790 9.164 1.395 1417
1.789 9.160 1.367 1923
1.761 9.014 1.347 1001
1.785 9.140 1.337 1374
0.436 2.194 1.703 3600
0.460 2.314 1.791 2438
0.437 2.199 1.697 7201
0.461 2.319 1.784 4877
0.438 2.203 1.691 7201
0.462 2.324 1.778 4877
0.462 2.328 1.771 6271
0.439 2.208 1.684 4746
0.463 2.333 1.764 7666
0.439 2.212 1.678 2291
0.463 2.331 1.753 11685
0.439 2.210 1.667 1898
0.464 2.336 1.746 16013
0.440 2.215 1.660 1529
0.465 2.341 1.739 16013
0.441 2.219 1.654 1431
0.465 2.339 1.728 17220
0.440 2.217 1.643 1300
0.465 2.343 1.721 18557
0.441 2.221 1.637 1352
0.468 2.354 1.719 14991
0.470 2.365 1.716 12299
0.471 2.370 1.709 10827
0.473 2.381 1.707 9398
0.497 2.504 1.790 1132
0.474 2.385 1.700 10350
0.498 2.508 1.783 1132
0.475 2.390 1.693 11302
0.499 2.513 1.775 1769
0.474 2.387 1.682 11252
0.499 2.511 1.764 2741
0.476 2.398 1.679 10918
0.501 2.522 1.761 2504
0.477 2.403 1.672 10650
0.502 2.527 1.753 3214
0.479 2.414 1.669 8079
0.504 2.538 1.750 2127
0.493 2.484 1.705 9802
0.493 2.482 1.693 9277
0.493 2.479 1.682 9117
0.492 2.477 1.670 6891
0.493 2.482 1.663 4791
0.499 2.513 1.672 6619
0.501 2.524 1.669 8882
0.526 2.650 1.747 1146
0.501 2.521 1.658 9474
0.526 2.648 1.736 1602
0.500 2.519 1.646 10450
0.525 2.645 1.724 1911
0.501 2.523 1.639 8135
0.526 2.650 1.716 2283
0.518 2.608 1.680 6479
0.493 2.481 1.603 2272
0.519 2.612 1.672 6320
0.494 2.485 1.596 2073
0.521 2.623 1.669 6237
0.496 2.496 1.593 1890
0.519 2.614 1.653 5822
0.545 2.742 1.729 1003
0.535 2.692 1.689 6323
0.509 2.565 1.614 3197
0.536 2.697 1.681 5806
0.510 2.569 1.607 2416
0.524 2.641 1.638 4350
0.550 2.769 1.713 1319
0.525 2.645 1.630 4277
0.551 2.773 1.704 1586
0.528 2.656 1.627 4001
0.553 2.785 1.700 2337
0.531 2.674 1.627 3950
0.557 2.803 1.700 3013
0.539 2.712 1.638 3663
0.564 2.841 1.711 2117
0.541 2.723 1.634 4759
0.567 2.852 1.706 2148
0.539 2.714 1.618 4690
0.565 2.843 1.690 2617
0.540 2.718 1.610 4053
0.579 2.916 1.720 3005
0.565 2.845 1.670 3714
0.539 2.715 1.599 3305
0.582 2.932 1.706 4609
0.543 2.733 1.598 2918
0.585 2.943 1.702 5936
0.544 2.737 1.590 3281
0.584 2.941 1.689 6140
0.545 2.741 1.582 4334
0.585 2.945 1.681 5023
0.547 2.752 1.578 4544
0.548 2.757 1.570 4799
0.591 2.977 1.687 3726
0.595 2.995 1.685 4467
0.548 2.761 1.562 3444
0.599 3.013 1.684 7240
0.571 2.875 1.612 2400
0.601 3.025 1.678 8729
0.572 2.879 1.603 1942
0.607 3.057 1.684 8469
0.581 2.925 1.616 1414
0.611 3.075 1.682 8683
0.585 2.943 1.615 2086
0.613 3.087 1.677 7878
0.587 2.954 1.610 2845
0.614 3.091 1.668 8411
0.588 2.959 1.601 2238
0.616 3.102 1.662 7614
0.590 2.970 1.596 1833
0.617 3.107 1.653 6317
0.591 2.974 1.587 1412
0.619 3.118 1.647 8168
0.593 2.985 1.582 1201
0.622 3.129 1.642 11126
0.648 3.262 1.707 1313
0.624 3.141 1.636 11915
0.650 3.274 1.700 1889
0.625 3.145 1.627 9409
0.651 3.278 1.691 2820
0.642 3.233 1.658 10238
0.616 3.100 1.594 1982
0.645 3.245 1.652 8964
0.618 3.111 1.588 1098
0.648 3.263 1.649 7233
0.622 3.129 1.586 1030
0.650 3.275 1.642 7804
0.624 3.141 1.580 1232
0.651 3.279 1.633 8753
0.625 3.145 1.571 1166
0.651 3.276 1.620 9592
0.653 3.287 1.614 9961
0.680 3.422 1.675 1062
0.652 3.285 1.601 8293
0.679 3.419 1.662 1899
0.656 3.303 1.598 7437
0.683 3.438 1.658 3419
0.658 3.314 1.591 8624
0.687 3.457 1.654 4800
0.659 3.318 1.581 7099
0.689 3.468 1.647 3755
0.677 3.408 1.609 4458
0.704 3.544 1.669 2324
0.678 3.412 1.599 3815
0.705 3.548 1.658 2308
0.706 3.552 1.648 3671
0.679 3.416 1.589 3417
0.704 3.542 1.631 6819
0.677 3.406 1.573 3085
0.703 3.539 1.618 7387
0.676 3.403 1.560 2276
0.702 3.536 1.604 5885
0.730 3.673 1.662 2702
0.720 3.627 1.630 5507
0.693 3.490 1.573 1749
0.720 3.624 1.616 6168
0.721 3.628 1.606 5959
0.748 3.765 1.662 1963
0.726 3.654 1.604 4329
0.753 3.791 1.660 2896
0.732 3.687 1.605 5934
0.760 3.824 1.660 2026
0.732 3.684 1.591 5825
0.759 3.821 1.646 1469
0.735 3.703 1.586 4585
0.763 3.840 1.641 1849
0.755 3.801 1.612 4222
0.728 3.663 1.558 2018
0.759 3.820 1.607 4481
0.731 3.682 1.553 2227
0.761 3.831 1.598 5515
0.788 3.969 1.652 1935
0.760 3.828 1.584 5666
0.788 3.966 1.637 3984
0.786 3.956 1.620 5680
0.758 3.818 1.568 4599
0.788 3.967 1.611 3555
0.761 3.829 1.559 2818
0.773 3.891 1.570 2756
0.809 4.074 1.638 2532
0.774 3.895 1.558 3196
0.811 4.085 1.628 2307
0.782 3.936 1.560 3995
0.814 4.097 1.619 3376
0.815 4.101 1.607 5881
0.786 3.955 1.554 3548
0.815 4.105 1.595 7348
0.846 4.259 1.650 3403
0.815 4.102 1.580 6244
0.847 4.263 1.638 4642
0.817 4.113 1.571 4751
0.849 4.275 1.628 4626
0.853 4.294 1.620 3793
0.821 4.132 1.564 3136
0.841 4.232 1.585 4587
0.871 4.386 1.638 3895
0.874 4.398 1.628 4612
0.841 4.236 1.572 4559
0.863 4.343 1.595 4941
0.890 4.483 1.642 2364
0.862 4.340 1.580 4477
0.890 4.480 1.627 2727
0.870 4.381 1.579 3333
0.842 4.241 1.532 2675
0.889 4.474 1.595 3691
0.845 4.252 1.522 1751
0.907 4.567 1.611 3778
0.879 4.426 1.565 1689
0.908 4.571 1.598 4846
0.880 4.430 1.552 1363
0.906 4.560 1.580 3930
0.934 4.701 1.625 1218
0.914 4.601 1.578 3740
0.886 4.460 1.533 1365
0.918 4.620 1.569 4139
0.914 4.602 1.549 3106
0.942 4.743 1.592 2393
0.943 4.747 1.578 3088
0.915 4.606 1.535 2820
0.941 4.737 1.560 3630
0.913 4.595 1.517 2206
0.946 4.763 1.553 4289
0.918 4.621 1.510 1614
0.948 4.774 1.541 5140
0.952 4.793 1.531 6376
0.980 4.935 1.573 1074
0.954 4.805 1.519 6462
0.983 4.947 1.560 1150
0.957 4.816 1.507 3516
0.985 4.958 1.548 1331
0.971 4.887 1.512 3651
0.999 5.030 1.553 1294
0.973 4.899 1.500 2789
1.001 5.041 1.540 1796
1.002 5.045 1.525 3720
0.974 4.903 1.485 1419
1.001 5.042 1.508 4974
1.036 5.214 1.555 1507
1.004 5.053 1.495 4329
1.041 5.241 1.546 2034
1.012 5.094 1.490 2923
1.043 5.252 1.533 2847
1.050 5.286 1.525 5213
1.017 5.121 1.481 2932
1.052 5.298 1.512 9399
1.016 5.117 1.464 1946
1.053 5.301 1.496 9898
1.081 5.444 1.533 2621
1.054 5.305 1.480 6556
1.088 5.479 1.525 4322
1.089 5.483 1.508 4622
1.053 5.302 1.463 2905
1.090 5.486 1.492 3164
1.120 5.637 1.530 2455
1.122 5.649 1.515 3612
1.094 5.505 1.480 2523
1.120 5.638 1.495 4535
1.091 5.494 1.460 1604
1.116 5.619 1.473 3653
1.163 5.853 1.529 2116
1.118 5.630 1.458 2392
1.157 5.827 1.504 2391
1.160 5.838 1.489 3278
1.124 5.657 1.447 2367
1.162 5.850 1.474 4593
1.190 5.994 1.507 3606
1.167 5.876 1.461 4572
1.196 6.020 1.494 2712
1.171 5.895 1.447 3326
1.200 6.039 1.480 1262
1.193 6.005 1.454 3090
1.164 5.861 1.422 1163
1.194 6.009 1.436 2936
1.222 6.153 1.467 1792
1.194 6.013 1.418 2151
1.249 6.286 1.477 2094
1.246 6.275 1.455 2395
1.195 6.016 1.400 1782
1.244 6.263 1.433 2107
1.286 6.476 1.478 1561
1.307 6.579 1.479 2061
1.277 6.427 1.448 1545
1.306 6.575 1.458 3389
1.277 6.430 1.429 1742
1.308 6.587 1.440 2291
1.280 6.442 1.411 1845
1.371 6.903 1.482 2198
1.342 6.758 1.454 1674
1.366 6.876 1.456 2284
1.395 7.021 1.484 1333
1.391 7.002 1.459 1784
1.362 6.857 1.431 1696
1.402 7.059 1.448 2505
1.436 7.227 1.479 1342
1.400 7.048 1.424 2539
1.438 7.239 1.459 2134
1.454 7.319 1.452 2925
1.417 7.135 1.419 2265
1.458 7.338 1.433 3456
1.491 7.506 1.463 2152
1.461 7.357 1.414 2035
1.568 7.893 1.507 1844
1.568 7.897 1.484 2512
1.521 7.659 1.443 2021
1.592 8.015 1.480 2945
1.563 7.870 1.455 2118
1.591 8.011 1.455 3148
1.562 7.866 1.431 1561
1.589 8.000 1.429 2209
1.543 7.770 1.391 1163
1.547 7.789 1.371 1147
1.634 8.226 1.441 1083
1.688 8.498 1.458 1441
1.593 8.022 1.384 1255
1.593 8.018 1.359 1779
1.689 8.502 1.433 1341
1.693 8.521 1.410 1340
1.593 8.022 1.335 1235
1.693 8.525 1.385 1740
1.792 9.024 1.459 1348
1.792 9.020 1.431 1851
1.692 8.521 1.359 1355
1.792 9.024 1.404 2165
1.745 8.786 1.370 1350
1.790 9.012 1.375 1715
1.819 9.158 1.395 1151
1.818 9.154 1.367 1703
1.789 9.008 1.347 1011
1.814 9.135 1.337 1331
0.442 2.200 1.708 3705
0.466 2.320 1.796 2442
0.443 2.204 1.702 7410
0.467 2.324 1.789 4959
0.444 2.209 1.695 7410
0.468 2.329 1.782 5034
0.467 2.327 1.771 6455
0.443 2.207 1.684 4893
0.470 2.338 1.769 7716
0.445 2.218 1.682 2496
0.468 2.330 1.753 11771
0.444 2.209 1.667 2004
0.469 2.335 1.746 16228
0.445 2.214 1.660 1616
0.470 2.340 1.739 16228
0.445 2.218 1.654 1521
0.469 2.338 1.728 17366
0.445 2.216 1.643 1354
0.470 2.342 1.721 18713
0.446 2.220 1.637 1375
0.471 2.347 1.714 15193
0.475 2.364 1.716 12341
0.476 2.369 1.709 10865
0.477 2.373 1.703 9389
0.501 2.496 1.785 1310
0.479 2.384 1.700 10721
0.503 2.507 1.783 1086
0.480 2.389 1.693 12095
0.504 2.512 1.775 1750
0.481 2.393 1.686 12040
0.505 2.517 1.768 2117
0.481 2.397 1.679 11561
0.506 2.521 1.761 2534
0.484 2.408 1.676 11151
0.509 2.533 1.757 2493
0.484 2.413 1.669 8307
0.509 2.537 1.750 2157
0.499 2.483 1.705 9821
0.474 2.358 1.624 1026
0.498 2.481 1.693 9178
0.498 2.478 1.682 8988
0.497 2.476 1.670 6978
0.498 2.481 1.663 4993
0.523 2.606 1.742 1036
0.504 2.511 1.672 6387
0.507 2.522 1.669 8444
0.505 2.514 1.654 9158
0.530 2.640 1.731 1679
0.506 2.518 1.646 10137
0.531 2.644 1.724 1749
0.506 2.522 1.639 8003
0.532 2.649 1.716 2045
0.507 2.526 1.632 5870
0.533 2.653 1.708 2341
0.510 2.537 1.628 5574
0.535 2.665 1.705 3200
0.520 2.589 1.649 5555
0.545 2.716 1.725 1662
0.525 2.613 1.653 5236
0.540 2.691 1.689 5858
0.513 2.557 1.610 3983
0.541 2.696 1.681 5338
0.516 2.568 1.607 3117
0.530 2.639 1.638 4269
0.556 2.768 1.713 1363
0.532 2.650 1.634 4361
0.558 2.779 1.708 1622
0.533 2.655 1.627 4122
0.559 2.783 1.700 2154
0.537 2.673 1.627 4108
0.563 2.801 1.700 2742
0.540 2.690 1.626 3506
0.566 2.819 1.699 2993
0.547 2.722 1.634 4411
0.573 2.851 1.706 2051
0.546 2.719 1.622 4272
0.572 2.849 1.694 2317
0.547 2.724 1.614 3500
0.573 2.853 1.686 2942
0.571 2.844 1.670 3926
0.545 2.714 1.599 2690
0.587 2.924 1.703 4537
0.550 2.739 1.602 2688
0.589 2.935 1.698 6176
0.551 2.743 1.594 3287
0.590 2.939 1.689 6300
0.552 2.747 1.586 3904
0.591 2.944 1.681 4701
0.552 2.751 1.578 3877
0.552 2.748 1.566 3856
0.578 2.879 1.636 3194
0.601 2.994 1.685 3633
0.575 2.863 1.616 3203
0.606 3.019 1.687 6489
0.577 2.874 1.612 2458
0.609 3.030 1.682 8552
0.579 2.885 1.607 1975
0.614 3.056 1.684 8688
0.587 2.924 1.616 1523
0.617 3.074 1.682 8402
0.591 2.942 1.615 1999
0.618 3.078 1.673 7172
0.592 2.946 1.606 2036
0.620 3.090 1.668 7708
0.594 2.957 1.601 2057
0.621 3.094 1.658 7200
0.595 2.962 1.592 1328
0.619 3.084 1.642 6147
0.646 3.217 1.708 1062
0.626 3.117 1.647 7812
0.599 2.984 1.582 1281
0.630 3.135 1.645 10763
0.656 3.268 1.710 1238
0.630 3.139 1.636 11602
0.657 3.272 1.700 2012
0.631 3.144 1.627 9163
0.658 3.277 1.691 2902
0.649 3.232 1.658 10760
0.622 3.099 1.594 1923
0.651 3.244 1.652 9220
0.624 3.110 1.588 1128
0.654 3.255 1.645 6981
0.659 3.280 1.646 7574
0.632 3.146 1.583 1418
0.660 3.285 1.636 8231
0.633 3.150 1.574 1425
0.659 3.282 1.623 8500
0.686 3.416 1.685 1049
0.660 3.286 1.614 9063
0.687 3.421 1.675 1559
0.661 3.290 1.604 7578
0.688 3.425 1.665 1675
0.663 3.302 1.598 6871
0.690 3.437 1.658 3094
0.665 3.313 1.591 7874
0.695 3.462 1.658 4525
0.666 3.317 1.581 6428
0.696 3.467 1.647 3733
0.686 3.414 1.612 4450
0.713 3.549 1.672 2095
0.689 3.432 1.608 4268
0.662 3.297 1.549 1810
0.712 3.544 1.645 3657
0.684 3.408 1.586 3133
0.711 3.541 1.631 6751
0.684 3.405 1.573 2762
0.712 3.545 1.621 7306
0.685 3.409 1.563 2084
0.710 3.535 1.604 6204
0.737 3.671 1.662 3007
0.712 3.546 1.597 5416
0.740 3.683 1.654 3475
0.727 3.622 1.616 5426
0.727 3.619 1.603 5518
0.754 3.756 1.659 2620
0.741 3.688 1.619 4779
0.713 3.552 1.563 2965
0.742 3.693 1.608 7431
0.714 3.556 1.552 2308
0.739 3.682 1.591 6971
0.767 3.820 1.646 1896
0.742 3.694 1.583 4935
0.769 3.831 1.638 2588
0.764 3.807 1.615 4004
0.737 3.669 1.561 2444
0.768 3.825 1.610 4238
0.740 3.688 1.556 2368
0.769 3.829 1.598 5404
0.797 3.967 1.652 1796
0.768 3.826 1.584 5502
0.796 3.964 1.637 3425
0.794 3.954 1.620 5314
0.766 3.816 1.568 4560
0.798 3.973 1.614 4060
0.770 3.835 1.562 2886
0.799 3.977 1.602 2558
0.826 4.116 1.654 1599
0.788 3.923 1.569 2909
0.820 4.083 1.628 2194
0.791 3.942 1.563 3908
0.822 4.095 1.619 3028
0.823 4.099 1.607 5341
0.795 3.960 1.557 3806
0.824 4.103 1.595 6669
0.855 4.257 1.650 3254
0.825 4.108 1.583 5846
0.856 4.261 1.638 4805
0.827 4.119 1.573 5532
0.857 4.266 1.625 4917
0.862 4.292 1.620 3720
0.828 4.123 1.561 3464
0.882 4.392 1.641 4112
0.851 4.237 1.587 3468
0.887 4.418 1.635 5165
0.850 4.234 1.572 3639
0.872 4.341 1.595 5481
0.900 4.481 1.642 2712
0.871 4.338 1.580 4952
0.899 4.478 1.627 3003
0.881 4.387 1.582 4192
0.909 4.527 1.628 2912
0.899 4.479 1.598 4020
0.871 4.339 1.552 1750
0.917 4.565 1.611 3872
0.888 4.424 1.565 1684
0.919 4.576 1.600 4720
0.891 4.436 1.555 1595
0.923 4.595 1.591 4022
0.894 4.455 1.546 1889
0.927 4.614 1.583 3981
0.898 4.473 1.538 1795
0.927 4.618 1.569 3784
0.943 4.697 1.578 3020
0.915 4.556 1.535 1669
0.933 4.649 1.549 3432
0.962 4.790 1.592 1501
0.952 4.742 1.562 3455
0.924 4.601 1.519 2348
0.956 4.761 1.553 4044
0.928 4.620 1.510 1549
0.958 4.772 1.541 4291
0.964 4.799 1.533 5381
0.964 4.803 1.519 6096
1.002 4.989 1.573 1012
0.967 4.814 1.507 3728
0.995 4.956 1.548 1208
0.981 4.885 1.512 4171
1.010 5.027 1.553 1222
0.980 4.882 1.496 3038
1.009 5.024 1.536 2083
1.013 5.043 1.525 3905
0.977 4.863 1.475 1057
1.015 5.054 1.512 4936
0.986 4.912 1.473 1578
1.016 5.058 1.497 4407
1.046 5.208 1.538 2049
1.021 5.085 1.488 3025
1.053 5.242 1.531 2883
1.058 5.269 1.521 4264
1.026 5.111 1.479 2518
1.062 5.288 1.510 7877
1.029 5.122 1.466 1648
1.064 5.299 1.496 8799
1.096 5.457 1.537 2594
1.065 5.303 1.480 6483
1.100 5.476 1.525 3600
1.100 5.480 1.508 4197
1.064 5.299 1.463 3295
1.101 5.484 1.492 3399
1.130 5.627 1.528 2604
1.132 5.639 1.513 3907
1.104 5.496 1.478 2617
1.130 5.628 1.493 4484
1.159 5.771 1.528 1555
1.128 5.616 1.473 3147
1.170 5.828 1.523 2422
1.170 5.824 1.504 3083
1.132 5.635 1.460 2461
1.172 5.836 1.489 3806
1.135 5.654 1.447 3100
1.174 5.847 1.474 5006
1.203 5.991 1.507 3649
1.179 5.874 1.461 4884
1.208 6.018 1.494 2589
1.183 5.893 1.447 3398
1.212 6.037 1.480 1340
1.207 6.010 1.455 2990
1.178 5.866 1.423 1333
1.208 6.014 1.438 2564
1.237 6.158 1.469 1961
1.207 6.010 1.418 1878
1.236 6.154 1.449 1652
1.209 6.021 1.402 1839
1.258 6.264 1.453 1698
1.280 6.375 1.457 1839
1.251 6.230 1.427 1278
1.321 6.576 1.479 1883
1.284 6.394 1.441 1791
1.320 6.572 1.458 2984
1.289 6.420 1.427 2176
1.293 6.439 1.411 2329
1.322 6.584 1.440 1945
1.386 6.900 1.482 2235
1.295 6.450 1.394 1907
1.388 6.911 1.463 2370
1.345 6.698 1.422 1221
1.413 7.037 1.466 1653
1.376 6.854 1.431 1561
1.417 7.056 1.448 2493
1.451 7.224 1.479 1811
1.453 7.236 1.459 2791
1.418 7.060 1.427 2563
1.461 7.278 1.445 3020
1.432 7.132 1.419 2013
1.474 7.343 1.434 3353
1.507 7.503 1.463 1809
1.478 7.362 1.415 2074
1.584 7.889 1.507 1789
1.585 7.893 1.484 2393
1.537 7.656 1.443 2198
1.609 8.012 1.480 2891
1.580 7.866 1.455 1999
1.608 8.008 1.455 3210
1.579 7.863 1.431 1474
1.606 7.997 1.429 2332
1.561 7.774 1.393 1192
1.610 8.016 1.408 1085
1.563 7.785 1.371 1070
1.590 7.919 1.368 1278
1.706 8.495 1.458 1270
1.609 8.015 1.359 1810
1.650 8.215 1.390 1261
1.610 8.018 1.335 1303
1.818 9.055 1.491 1252
1.813 9.028 1.460 1817
1.714 8.537 1.387 1545
1.812 9.024 1.432 2337
1.744 8.686 1.383 1351
1.811 9.020 1.404 2547
1.763 8.782 1.370 1365
1.812 9.024 1.377 1885
1.761 8.770 1.342 1093
1.836 9.143 1.366 1390
1.832 9.123 1.336 1328
0.447 2.199 1.708 3941
0.471 2.318 1.796 2622
0.448 2.203 1.702 7883
0.472 2.323 1.789 5324
0.449 2.208 1.695 7883
0.473 2.328 1.782 5404
0.473 2.326 1.771 6655
0.448 2.206 1.684 5193
0.475 2.337 1.769 7767
0.450 2.217 1.682 2827
0.473 2.329 1.753 11968
0.449 2.208 1.667 2202
0.474 2.334 1.746 16591
0.450 2.213 1.660 1783
0.475 2.338 1.739 16591
0.451 2.217 1.654 1681
0.475 2.337 1.728 17677
0.450 2.215 1.643 1447
0.476 2.341 1.721 19058
0.451 2.219 1.637 1426
0.477 2.346 1.714 15511
0.480 2.363 1.716 12385
0.481 2.368 1.709 10854
0.481 2.366 1.698 9352
0.506 2.488 1.781 1548
0.484 2.383 1.700 11027
0.509 2.506 1.783 1054
0.485 2.387 1.693 12875
0.510 2.511 1.775 1698
0.486 2.392 1.686 12838
0.511 2.516 1.768 2060
0.487 2.396 1.679 12171
0.512 2.520 1.761 2486
0.489 2.407 1.676 11615
0.514 2.531 1.757 2454
0.490 2.412 1.669 8448
0.515 2.536 1.750 2152
0.504 2.482 1.705 9840
0.479 2.357 1.624 1097
0.504 2.479 1.693 9055
0.502 2.471 1.678 8890
0.503 2.475 1.670 7082
0.504 2.479 1.663 5274
0.529 2.605 1.742 1090
0.509 2.504 1.668 6210
0.534 2.629 1.747 1031
0.511 2.515 1.665 8056
0.537 2.641 1.743 1104
0.511 2.512 1.654 8874
0.536 2.639 1.731 1507
0.510 2.510 1.642 9832
0.536 2.636 1.720 1727
0.512 2.521 1.639 7867
0.538 2.648 1.716 1776
0.513 2.525 1.632 5960
0.539 2.652 1.708 1986
0.515 2.536 1.628 5892
0.541 2.663 1.705 2820
0.518 2.547 1.625 6085
0.544 2.674 1.701 3924
0.519 2.551 1.617 6015
0.544 2.679 1.693 4713
0.545 2.683 1.685 5420
0.519 2.556 1.610 4891
0.548 2.695 1.681 5028
0.522 2.567 1.607 3883
0.538 2.645 1.642 4448
0.564 2.773 1.716 1283
0.538 2.649 1.634 4860
0.565 2.778 1.708 1587
0.541 2.660 1.630 4563
0.567 2.789 1.704 2062
0.543 2.671 1.627 4516
0.569 2.800 1.700 2677
0.545 2.682 1.623 3652
0.571 2.811 1.695 3246
0.553 2.721 1.634 3896
0.579 2.850 1.706 2188
0.554 2.725 1.626 3918
0.580 2.854 1.698 2196
0.575 2.831 1.675 3800
0.549 2.702 1.603 2657
0.578 2.843 1.670 4233
0.551 2.713 1.599 2339
0.580 2.854 1.665 4675
0.606 2.984 1.736 2667
0.596 2.934 1.698 6534
0.559 2.749 1.598 2890
0.597 2.938 1.689 6515
0.558 2.746 1.586 3258
0.597 2.936 1.677 4451
0.559 2.750 1.578 3310
0.581 2.857 1.625 3388
0.554 2.727 1.555 2480
0.582 2.862 1.616 3144
0.608 2.993 1.685 2861
0.613 3.018 1.687 6004
0.584 2.873 1.612 2410
0.617 3.036 1.686 8702
0.585 2.877 1.603 1917
0.619 3.047 1.680 9038
0.593 2.916 1.613 1406
0.623 3.066 1.678 8196
0.596 2.934 1.611 1528
0.624 3.070 1.670 6541
0.597 2.938 1.603 1367
0.626 3.081 1.664 7064
0.599 2.949 1.597 1419
0.627 3.086 1.655 6901
0.654 3.218 1.721 1089
0.628 3.090 1.646 6105
0.655 3.222 1.712 1278
0.633 3.115 1.647 7418
0.606 2.982 1.582 1331
0.637 3.134 1.645 10340
0.664 3.266 1.710 1390
0.638 3.138 1.636 11243
0.665 3.271 1.700 2233
0.640 3.149 1.630 8938
0.667 3.282 1.694 2395
0.655 3.224 1.654 11182
0.628 3.090 1.591 1625
0.657 3.235 1.648 9818
0.630 3.101 1.585 1097
0.660 3.246 1.642 7396
0.666 3.279 1.646 7804
0.639 3.145 1.583 1371
0.669 3.290 1.639 8090
0.641 3.156 1.577 1636
0.668 3.287 1.626 7741
0.695 3.422 1.688 1192
0.668 3.285 1.614 8528
0.695 3.419 1.675 2074
0.668 3.289 1.604 7148
0.696 3.423 1.665 1989
0.672 3.307 1.601 6572
0.700 3.442 1.661 2611
0.673 3.311 1.591 7172
0.705 3.468 1.661 4199
0.674 3.315 1.581 5616
0.704 3.465 1.647 3547
0.695 3.419 1.615 4332
0.722 3.555 1.675 1827
0.699 3.438 1.612 4550
0.671 3.302 1.553 1833
0.701 3.449 1.605 4072
0.729 3.585 1.663 2310
0.719 3.539 1.631 6553
0.692 3.403 1.573 2377
0.720 3.543 1.621 6863
0.693 3.407 1.563 1614
0.718 3.533 1.604 6159
0.746 3.670 1.662 3434
0.720 3.545 1.597 5747
0.748 3.681 1.654 4214
0.723 3.556 1.590 5253
0.750 3.693 1.646 4445
0.728 3.582 1.588 5555
0.756 3.718 1.644 4831
0.749 3.687 1.619 5578
0.721 3.550 1.563 3102
0.750 3.691 1.608 8793
0.722 3.554 1.552 2162
0.748 3.681 1.591 7796
0.776 3.818 1.646 2786
0.749 3.685 1.580 5149
0.777 3.822 1.635 3768
0.775 3.812 1.618 3978
0.747 3.674 1.564 2729
0.779 3.831 1.612 4113
0.751 3.693 1.559 2354
0.779 3.835 1.601 5325
0.751 3.697 1.548 1658
0.779 3.832 1.587 5218
0.807 3.970 1.640 2524
0.805 3.960 1.623 4611
0.777 3.821 1.570 4485
0.807 3.971 1.614 4261
0.779 3.833 1.562 2763
0.808 3.975 1.602 2900
0.836 4.114 1.654 1701
0.798 3.928 1.572 2970
0.830 4.082 1.628 2184
0.801 3.940 1.563 3869
0.829 4.078 1.614 2757
0.831 4.090 1.604 4589
0.803 3.951 1.554 3901
0.832 4.094 1.592 5457
0.865 4.255 1.650 2828
0.834 4.106 1.583 5208
0.864 4.252 1.635 4617
0.837 4.117 1.573 6238
0.865 4.256 1.623 4904
0.838 4.121 1.561 3832
0.870 4.283 1.618 3574
0.892 4.390 1.641 4338
0.864 4.250 1.592 2944
0.899 4.423 1.638 5888
0.871 4.284 1.590 3117
0.880 4.332 1.592 6200
0.909 4.472 1.640 3262
0.890 4.380 1.594 5582
0.919 4.520 1.642 2108
0.893 4.392 1.584 5228
0.921 4.532 1.631 2940
0.910 4.477 1.598 4200
0.881 4.337 1.552 2017
0.924 4.548 1.606 4153
0.896 4.407 1.561 1022
0.933 4.589 1.605 4682
0.904 4.448 1.560 2168
0.935 4.601 1.594 4168
0.906 4.460 1.549 2208
0.937 4.612 1.583 4046
0.909 4.471 1.538 1772
0.938 4.616 1.569 3224
0.948 4.665 1.569 3439
0.944 4.647 1.549 4102
0.973 4.788 1.592 1643
0.942 4.636 1.530 3080
0.971 4.777 1.573 2841
0.960 4.722 1.541 3402
0.968 4.763 1.539 3305
0.976 4.804 1.536 4053
0.976 4.801 1.519 5463
0.976 4.804 1.505 3758
1.005 4.946 1.546 1101
0.992 4.883 1.512 4874
1.021 5.025 1.553 1064
0.992 4.880 1.496 3559
1.021 5.022 1.536 2137
1.026 5.048 1.527 3659
0.986 4.853 1.473 1385
1.028 5.060 1.514 4575
0.999 4.917 1.475 1543
1.029 5.063 1.499 4482
1.058 5.206 1.538 2098
1.030 5.067 1.484 3180
1.059 5.210 1.523 2870
1.063 5.229 1.511 4125
1.034 5.086 1.473 1970
1.074 5.285 1.510 6360
1.041 5.120 1.466 1443
1.077 5.297 1.496 6918
1.112 5.470 1.541 2542
1.077 5.301 1.480 5698
1.112 5.474 1.525 2971
1.078 5.304 1.465 3772
1.113 5.478 1.508 3550
1.113 5.474 1.490 3304
1.143 5.625 1.528 2911
1.146 5.636 1.513 4268
1.116 5.493 1.478 2797
1.139 5.602 1.487 4510
1.177 5.791 1.533 2005
1.181 5.810 1.520 3353
1.138 5.599 1.469 2824
1.182 5.814 1.503 4022
1.148 5.648 1.463 2413
1.184 5.825 1.487 4356
1.149 5.652 1.447 3204
1.188 5.844 1.474 5403
1.217 5.988 1.507 3508
1.192 5.863 1.460 5004
1.221 6.007 1.492 3138
1.214 5.973 1.466 3581
1.185 5.829 1.434 1570
1.221 6.007 1.455 2965
1.250 6.151 1.487 1363
1.222 6.011 1.438 2348
1.251 6.155 1.469 2212
1.249 6.144 1.447 1930
1.219 6.000 1.416 1480
1.303 6.413 1.486 1870
1.226 6.034 1.405 1806
1.293 6.364 1.456 2174
1.227 6.037 1.387 1150
1.297 6.383 1.440 2071
1.334 6.565 1.477 1727
1.332 6.554 1.455 2478
1.303 6.409 1.426 2409
1.308 6.436 1.411 2609
1.337 6.581 1.440 1657
1.402 6.897 1.482 2104
1.310 6.447 1.394 2044
1.404 6.908 1.463 2436
1.359 6.687 1.420 1337
1.394 6.859 1.432 1618
1.430 7.034 1.466 1498
1.433 7.053 1.448 2416
1.468 7.221 1.479 2114
1.471 7.240 1.461 3293
1.434 7.057 1.427 2563
1.475 7.259 1.442 3371
1.446 7.114 1.416 1808
1.493 7.347 1.436 3437
1.551 7.630 1.486 1678
1.497 7.366 1.416 2335
1.578 7.763 1.486 1942
1.555 7.652 1.443 2383
1.603 7.890 1.484 2261
1.628 8.008 1.480 2773
1.558 7.664 1.422 2082
1.627 8.004 1.455 3222
1.498 7.369 1.350 1398
1.624 7.993 1.429 2509
1.498 7.372 1.328 1187
1.641 8.073 1.417 1355
1.611 7.927 1.394 1102
1.638 8.061 1.391 1397
1.609 7.916 1.368 1323
1.627 8.004 1.358 1712
1.670 8.218 1.391 1341
1.838 9.043 1.490 1956
1.627 8.007 1.334 1293
1.834 9.024 1.460 2411
1.764 8.678 1.409 1323
1.833 9.020 1.432 2897
1.765 8.682 1.383 1432
1.832 9.016 1.404 3034
1.784 8.778 1.370 1287
1.835 9.027 1.378 2194
1.777 8.743 1.339 1030
1.857 9.138 1.366 1192
1.852 9.111 1.335 1288
0.452 2.204 1.713 4104
0.476 2.324 1.800 2261
0.453 2.209 1.706 8209
0.477 2.329 1.794 4658
0.453 2.213 1.700 8209
0.478 2.334 1.787 4793
0.476 2.326 1.771 6487
0.452 2.205 1.684 5295
0.479 2.337 1.769 7388
0.454 2.216 1.682 3028
0.477 2.328 1.753 11706
0.452 2.207 1.667 2269
0.478 2.333 1.746 16334
0.453 2.212 1.660 1818
0.479 2.338 1.739 16334
0.454 2.216 1.654 1702
0.479 2.336 1.728 17409
0.454 2.214 1.643 1413
0.480 2.340 1.721 18811
0.455 2.218 1.637 1360
0.480 2.345 1.714 15317
0.483 2.356 1.712 12070
0.484 2.360 1.705 10544
0.485 2.365 1.698 9019
0.510 2.488 1.781 1388
0.488 2.382 1.700 10885
0.489 2.387 1.693 13121
0.514 2.510 1.775 1544
0.490 2.391 1.686 13112
0.515 2.515 1.768 1876
0.491 2.395 1.679 12283
0.516 2.519 1.761 2279
0.493 2.406 1.676 11592
0.518 2.531 1.757 2241
0.494 2.411 1.669 8255
0.519 2.535 1.750 2023
0.508 2.481 1.705 9566
0.483 2.356 1.624 1136
0.508 2.479 1.693 8717
0.506 2.470 1.678 8616
0.507 2.474 1.670 7033
0.508 2.479 1.663 5450
0.534 2.604 1.742 1070
0.511 2.496 1.664 6172
0.537 2.622 1.743 1185
0.514 2.507 1.661 7748
0.540 2.633 1.739 1213
