1.333 3.642 1.626 1131
1.294 3.535 1.570 3897
1.342 3.667 1.624 2444
1.336 3.650 1.604 5058
1.288 3.518 1.550 2353
1.338 3.654 1.593 5745
1.289 3.522 1.539 1299
1.357 3.707 1.601 6538
1.308 3.574 1.548 2176
1.363 3.725 1.595 6594
1.315 3.592 1.543 3041
1.365 3.729 1.584 6094
1.316 3.596 1.532 2382
1.364 3.726 1.570 6436
1.412 3.858 1.621 2833
1.365 3.729 1.558 4865
1.414 3.862 1.609 3354
1.385 3.782 1.565 6164
1.336 3.649 1.515 1465
1.407 3.842 1.575 6914
1.358 3.709 1.525 1320
1.431 3.909 1.587 5675
1.382 3.776 1.537 2739
1.435 3.920 1.578 5660
1.381 3.773 1.523 3111
1.437 3.924 1.566 5421
1.388 3.791 1.516 2063
1.441 3.935 1.556 4427
1.500 4.097 1.615 1073
1.460 3.988 1.562 3411
1.509 4.122 1.610 1334
1.461 3.992 1.550 5425
1.518 4.147 1.605 2015
1.460 3.989 1.535 5852
1.509 4.123 1.582 3013
1.511 4.127 1.570 4925
1.462 3.993 1.523 3491
1.520 4.152 1.564 5878
1.471 4.018 1.518 2277
1.524 4.163 1.554 4565
1.475 4.029 1.508 1565
1.512 4.131 1.529 4201
1.562 4.266 1.575 2232
1.542 4.213 1.543 4566
1.493 4.078 1.497 1469
1.546 4.224 1.532 4645
1.596 4.359 1.577 1203
1.581 4.320 1.550 4153
1.532 4.185 1.505 2363
1.575 4.303 1.530 4254
1.526 4.168 1.485 1065
1.576 4.306 1.516 6686
1.580 4.317 1.505 8165
1.630 4.453 1.549 2609
1.587 4.335 1.497 5872
1.637 4.471 1.540 2458
1.588 4.339 1.483 3858
1.656 4.524 1.541 2710
1.658 4.528 1.528 2579
1.590 4.343 1.470 2017
1.662 4.539 1.516 2462
1.711 4.675 1.557 2100
1.663 4.543 1.502 2948
1.713 4.679 1.543 1601
1.662 4.540 1.486 3172
1.717 4.690 1.531 1663
1.692 4.622 1.495 3395
1.642 4.486 1.455 1434
1.720 4.697 1.502 3195
1.670 4.561 1.462 1661
1.758 4.801 1.517 3693
1.703 4.651 1.473 2411
1.764 4.820 1.506 5156
1.701 4.647 1.457 1899
1.768 4.831 1.493 7097
1.818 4.967 1.532 1555
1.772 4.841 1.480 5883
1.822 4.978 1.519 2528
1.776 4.852 1.467 3942
1.826 4.989 1.505 2899
1.825 4.985 1.488 3389
1.891 5.165 1.537 1969
1.895 5.177 1.523 3732
1.842 5.032 1.484 3121
1.896 5.180 1.507 5453
1.946 5.317 1.544 2951
1.895 5.177 1.489 4117
1.945 5.314 1.526 3716
1.931 5.274 1.498 3017
1.981 5.412 1.534 2972
1.972 5.386 1.510 3039
1.922 5.249 1.474 1781
2.000 5.463 1.511 3522
1.949 5.325 1.476 2514
2.006 5.481 1.498 2619
2.065 5.640 1.538 1873
2.021 5.521 1.490 2989
2.071 5.658 1.524 2567
2.020 5.517 1.471 2866
2.070 5.655 1.505 2246
2.061 5.629 1.481 2478
2.008 5.484 1.446 1824
2.091 5.713 1.482 1797
2.033 5.553 1.444 1653
2.151 5.876 1.502 2282
2.101 5.738 1.470 1478
2.160 5.902 1.489 2537
2.110 5.764 1.457 1511
2.162 5.906 1.471 2816
2.111 5.767 1.439 1555
2.166 5.916 1.454 2323
2.222 6.069 1.488 1631
2.186 5.971 1.447 2602
2.236 6.109 1.478 1668
2.192 5.989 1.432 2894
2.243 6.127 1.462 1625
2.191 5.985 1.412 2069
2.359 6.444 1.510 1246
2.358 6.441 1.489 1869
2.195 5.996 1.395 1689
2.354 6.430 1.466 2054
2.287 6.248 1.428 1941
2.350 6.419 1.443 2706
2.401 6.558 1.472 2275
2.434 6.649 1.469 2736
2.354 6.430 1.425 2145
2.422 6.616 1.441 2508
2.478 6.770 1.472 2300
2.485 6.788 1.454 2307
2.426 6.627 1.422 1997
2.433 6.645 1.405 1581
2.500 6.828 1.440 1269
2.581 7.051 1.460 1994
2.434 6.648 1.384 1799
2.583 7.055 1.438 2473
2.633 7.194 1.464 1726
2.544 6.948 1.396 2457
2.627 7.175 1.438 2074
2.542 6.944 1.374 2111
2.733 7.465 1.467 2102
2.723 7.439 1.439 1806
2.672 7.300 1.414 1449
2.711 7.406 1.409 2235
2.762 7.545 1.433 1027
2.710 7.402 1.385 2096
2.777 7.586 1.416 1596
2.948 8.052 1.470 2004
2.781 7.596 1.394 1844
2.949 8.056 1.445 2024
2.785 7.607 1.372 1820
2.961 8.088 1.425 1657
2.886 7.883 1.392 1568
2.970 8.114 1.403 1934
3.202 8.747 1.503 1254
2.963 8.095 1.375 1908
3.252 8.883 1.496 1310
3.250 8.879 1.467 1724
2.959 8.084 1.348 1519
3.246 8.868 1.438 1608
3.109 8.492 1.382 1101
3.207 8.761 1.394 1665
3.261 8.908 1.416 1263
3.208 8.764 1.367 2463
3.262 8.912 1.388 1271
3.210 8.768 1.340 2635
3.264 8.915 1.360 1061
3.213 8.778 1.314 2390
3.215 8.781 1.287 1971
3.216 8.785 1.260 1453
0.785 2.102 1.708 3500
0.740 1.981 1.616 1363
0.786 2.106 1.702 7001
0.741 1.985 1.610 2726
0.788 2.111 1.695 7001
0.743 1.989 1.604 2726
0.790 2.115 1.689 6429
0.747 2.000 1.602 1817
0.789 2.113 1.678 5999
0.795 2.129 1.680 7767
0.801 2.146 1.683 10801
0.844 2.262 1.769 1092
0.803 2.150 1.676 10801
0.846 2.266 1.762 1092
0.807 2.160 1.674 12642
0.850 2.277 1.759 1238
0.808 2.164 1.668 14595
0.852 2.281 1.752 1503
0.810 2.169 1.661 10933
0.853 2.285 1.745 1676
0.816 2.185 1.663 7336
0.859 2.302 1.747 1630
0.827 2.214 1.674 6389
0.870 2.331 1.758 2319
0.835 2.237 1.681 6843
0.879 2.354 1.764 2731
0.832 2.229 1.665 6246
0.876 2.346 1.748 3092
0.831 2.226 1.654 5983
0.882 2.363 1.749 2972
0.833 2.231 1.647 5315
0.891 2.386 1.755 3475
0.858 2.297 1.683 4505
0.902 2.415 1.765 3270
0.896 2.401 1.745 5219
0.852 2.283 1.664 4001
0.856 2.293 1.661 5051
0.900 2.412 1.742 4586
0.855 2.291 1.650 6089
0.904 2.422 1.738 4028
0.854 2.289 1.638 5604
0.911 2.439 1.740 4300
0.856 2.293 1.631 5176
0.912 2.444 1.732 4842
0.914 2.448 1.725 6844
0.860 2.303 1.629 4024
0.913 2.446 1.713 8887
0.866 2.320 1.630 3320
0.920 2.463 1.714 10542
0.868 2.324 1.623 2311
0.924 2.474 1.710 12824
0.876 2.347 1.628 1333
0.923 2.472 1.699 13414
0.968 2.592 1.776 1203
0.922 2.470 1.687 14196
0.967 2.590 1.764 1260
0.924 2.474 1.680 13554
0.969 2.595 1.757 1375
0.928 2.484 1.676 12962
0.973 2.606 1.753 1349
0.934 2.501 1.676 11436
0.979 2.623 1.753 2446
0.938 2.512 1.673 11104
0.983 2.634 1.749 2947
0.971 2.600 1.717 8605
0.925 2.478 1.641 4176
0.972 2.604 1.709 10846
0.927 2.482 1.634 2821
0.976 2.615 1.705 9480
0.930 2.492 1.630 3100
0.978 2.619 1.697 7963
0.932 2.496 1.623 2985
0.977 2.617 1.685 7660
0.931 2.494 1.611 2478
0.988 2.647 1.692 5733
0.942 2.524 1.619 2621
0.992 2.657 1.688 5259
0.941 2.521 1.607 1754
0.996 2.668 1.684 5525
0.950 2.545 1.611 1510
1.003 2.685 1.683 6004
0.956 2.562 1.611 1174
1.002 2.683 1.671 6660
1.048 2.807 1.743 1768
1.008 2.700 1.671 5797
1.054 2.824 1.742 2327
1.019 2.731 1.677 6238
1.071 2.868 1.756 1532
1.045 2.800 1.706 7376
0.999 2.676 1.636 1995
1.047 2.804 1.698 9742
1.001 2.680 1.627 1596
1.049 2.809 1.689 10459
1.002 2.684 1.619 1185
1.050 2.813 1.681 9583
1.097 2.938 1.750 1594
1.052 2.817 1.672 7990
1.098 2.942 1.741 2003
1.058 2.835 1.671 6410
1.105 2.960 1.740 1830
1.070 2.865 1.676 4884
1.116 2.991 1.745 1323
1.079 2.889 1.678 4356
1.080 2.893 1.670 5314
1.127 3.019 1.737 1583
1.092 2.924 1.675 6854
1.098 2.941 1.673 8709
1.051 2.815 1.606 1016
1.102 2.952 1.668 8859
1.055 2.826 1.601 1171
1.111 2.976 1.669 9080
1.064 2.850 1.603 1346
1.115 2.987 1.663 8174
1.163 3.114 1.729 1087
1.117 2.991 1.654 8101
1.164 3.118 1.720 1463
1.118 2.996 1.645 7502
1.166 3.123 1.710 2548
1.117 2.993 1.632 7114
1.165 3.120 1.697 3719
1.116 2.990 1.620 5408
1.164 3.118 1.684 3723
1.151 3.082 1.654 3851
1.103 2.954 1.591 1175
1.170 3.133 1.668 4169
1.122 3.005 1.605 1633
1.174 3.144 1.662 5503
1.126 3.016 1.599 1112
1.160 3.108 1.633 5647
1.208 3.236 1.695 2663
1.162 3.112 1.623 7337
1.210 3.240 1.685 3136
1.171 3.136 1.623 7110
1.219 3.264 1.685 2368
1.177 3.154 1.620 7035
1.225 3.282 1.682 2035
1.212 3.246 1.652 5484
1.164 3.117 1.591 3277
1.213 3.250 1.642 10456
1.165 3.121 1.582 1715
1.217 3.261 1.635 12624
1.169 3.132 1.575 1094
1.224 3.278 1.632 9022
1.233 3.303 1.631 7321
1.227 3.287 1.612 5914
1.275 3.416 1.671 2524
1.267 3.393 1.648 7676
1.218 3.263 1.589 3890
1.261 3.377 1.628 8659
1.254 3.360 1.609 8472
1.303 3.490 1.666 1234
1.289 3.453 1.638 5005
1.241 3.323 1.580 3167
1.291 3.457 1.627 5009
1.242 3.327 1.570 1800
1.290 3.454 1.613 4158
1.291 3.459 1.603 5330
1.290 3.456 1.589 7357
1.339 3.586 1.645 1331
1.292 3.460 1.579 7723
1.341 3.591 1.634 2322
1.296 3.470 1.571 5920
1.345 3.602 1.626 1832
1.310 3.509 1.575 4579
1.359 3.640 1.629 1338
1.317 3.527 1.570 4212
1.366 3.658 1.624 2897
1.359 3.641 1.604 6370
1.310 3.510 1.550 2492
1.364 3.652 1.596 6557
1.314 3.520 1.542 1557
1.378 3.691 1.598 5447
1.329 3.559 1.545 2275
1.387 3.716 1.595 5704
1.338 3.584 1.543 2910
1.391 3.727 1.586 6171
1.342 3.594 1.534 2603
1.388 3.717 1.570 6261
1.437 3.849 1.621 3079
1.381 3.700 1.550 4527
1.433 3.839 1.604 3560
1.411 3.780 1.568 6468
1.362 3.648 1.517 1793
1.426 3.819 1.570 7094
1.475 3.952 1.620 1660
1.461 3.914 1.592 5498
1.412 3.781 1.542 3012
1.463 3.918 1.580 5641
1.405 3.764 1.523 3274
1.462 3.915 1.566 5114
1.412 3.782 1.516 2382
1.471 3.940 1.561 3966
1.526 4.087 1.615 1192
1.483 3.972 1.559 3810
1.533 4.105 1.608 1554
1.487 3.983 1.550 5007
1.539 4.123 1.600 2006
1.486 3.979 1.535 5633
1.536 4.113 1.582 2933
1.534 4.110 1.567 5269
1.484 3.976 1.520 3201
1.544 4.135 1.562 5896
1.494 4.001 1.515 2038
1.553 4.160 1.557 4290
1.503 4.026 1.510 1544
1.568 4.199 1.556 4390
1.518 4.065 1.510 1794
1.569 4.203 1.543 5308
1.519 4.069 1.497 1822
1.571 4.207 1.530 4974
1.520 4.073 1.485 1481
1.609 4.310 1.550 4263
1.559 4.175 1.505 2651
1.603 4.293 1.530 4379
1.552 4.158 1.485 1240
1.601 4.289 1.514 6451
1.608 4.307 1.505 7423
1.658 4.442 1.549 2071
1.615 4.325 1.497 5307
1.665 4.460 1.540 1990
1.613 4.322 1.481 3193
1.685 4.514 1.541 2901
1.684 4.510 1.525 2918
1.615 4.325 1.468 1611
1.683 4.507 1.509 2729
1.741 4.664 1.557 1881
1.689 4.525 1.500 3221
1.743 4.668 1.543 1539
1.693 4.536 1.488 3729
1.752 4.693 1.535 2112
1.751 4.690 1.519 3205
1.692 4.532 1.472 2879
1.787 4.786 1.531 3482
1.736 4.650 1.491 2235
1.786 4.783 1.515 4423
1.735 4.647 1.475 2090
1.795 4.808 1.506 5104
1.744 4.672 1.467 2097
1.796 4.812 1.491 6889
1.847 4.948 1.530 1357
1.801 4.823 1.478 5966
1.854 4.966 1.519 2743
1.807 4.841 1.467 4743
1.858 4.977 1.505 3879
1.860 4.981 1.490 4030
1.809 4.844 1.452 2472
1.928 5.164 1.523 3580
1.858 4.977 1.473 3103
1.940 5.197 1.515 4813
1.857 4.974 1.455 3017
1.942 5.201 1.499 4306
2.014 5.395 1.550 2927
2.016 5.399 1.534 3475
1.962 5.255 1.496 3174
2.039 5.460 1.532 3079
1.931 5.172 1.458 2405
2.035 5.450 1.511 3333
1.927 5.161 1.438 2328
2.055 5.504 1.507 2391
1.996 5.345 1.467 1675
2.056 5.508 1.490 2827
2.107 5.645 1.524 2574
2.098 5.620 1.500 2778
2.047 5.482 1.466 2230
2.099 5.623 1.482 2515
2.048 5.486 1.449 1471
2.117 5.671 1.475 1972
2.066 5.533 1.442 1377
2.181 5.841 1.497 2291
2.129 5.703 1.464 1349
2.195 5.881 1.487 2482
2.144 5.743 1.455 1523
2.205 5.906 1.474 2821
2.154 5.768 1.442 1636
2.214 5.932 1.461 2295
2.266 6.069 1.492 1301
2.221 5.950 1.445 2088
2.273 6.088 1.476 1974
2.225 5.960 1.429 2291
2.277 6.098 1.459 2048
2.229 5.971 1.412 1898
2.398 6.422 1.509 1374
2.396 6.418 1.487 2192
2.233 5.982 1.395 1859
2.392 6.408 1.464 2298
2.327 6.233 1.428 1936
2.391 6.404 1.443 2987
2.442 6.542 1.472 2016
2.395 6.415 1.425 2552
2.471 6.619 1.466 2405
2.464 6.600 1.441 2262
2.402 6.433 1.408 1914
2.528 6.772 1.454 1894
2.466 6.604 1.421 1787
2.475 6.629 1.405 1442
2.595 6.951 1.466 1383
2.626 7.034 1.460 2067
2.506 6.713 1.399 1832
2.628 7.038 1.438 2536
2.679 7.177 1.464 1887
2.585 6.925 1.395 2457
2.673 7.159 1.438 2193
2.587 6.928 1.374 2046
2.726 7.301 1.441 1705
2.730 7.312 1.419 1539
2.784 7.458 1.445 1439
2.756 7.381 1.408 2229
2.808 7.520 1.432 1343
2.757 7.385 1.385 2225
2.828 7.575 1.418 1469
2.764 7.403 1.365 1999
3.002 8.040 1.471 1730
2.768 7.413 1.343 1706
2.833 7.589 1.372 1692
3.015 8.077 1.426 1545
2.936 7.864 1.392 1515
3.025 8.102 1.404 1961
3.260 8.733 1.504 1236
3.015 8.076 1.375 1706
3.259 8.730 1.475 1276
3.307 8.858 1.467 1457
3.008 8.058 1.347 1417
3.297 8.832 1.435 1444
3.245 8.693 1.415 1258
3.263 8.740 1.394 1723
3.315 8.880 1.414 1056
3.264 8.744 1.367 2525
3.187 8.538 1.338 1092
3.266 8.747 1.340 2678
3.270 8.758 1.314 2472
3.271 8.761 1.287 1978
3.272 8.764 1.260 1478
0.792 2.099 1.708 4606
0.747 1.979 1.616 1114
0.794 2.104 1.702 9212
0.748 1.983 1.610 2228
0.795 2.108 1.695 9212
0.750 1.987 1.604 2228
0.797 2.112 1.689 8508
0.751 1.991 1.598 1551
0.798 2.116 1.682 7803
0.802 2.127 1.680 8938
0.846 2.242 1.766 1001
0.811 2.149 1.687 11377
0.812 2.153 1.681 11377
0.814 2.157 1.674 13365
0.858 2.274 1.759 1218
0.815 2.162 1.668 15353
0.859 2.278 1.752 1518
0.817 2.166 1.661 11478
0.861 2.283 1.745 1636
0.819 2.170 1.655 7603
0.863 2.287 1.738 1754
0.832 2.205 1.670 6675
0.876 2.322 1.753 2260
0.840 2.228 1.676 7383
0.885 2.345 1.759 2767
0.840 2.226 1.665 7051
0.884 2.343 1.748 2823
0.839 2.224 1.654 6811
0.893 2.366 1.754 2818
0.840 2.228 1.647 6119
0.897 2.377 1.751 3388
0.865 2.294 1.683 5644
0.910 2.412 1.765 2941
0.865 2.292 1.672 6329
0.909 2.411 1.753 4446
0.864 2.290 1.661 7005
0.909 2.409 1.742 4028
0.863 2.288 1.650 8179
0.913 2.419 1.738 3486
0.865 2.292 1.643 7589
0.919 2.436 1.740 3940
0.866 2.296 1.636 6999
0.923 2.447 1.736 4587
0.922 2.445 1.725 6402
0.868 2.300 1.629 5618
0.922 2.443 1.713 8368
0.874 2.317 1.630 4496
0.928 2.460 1.714 10653
0.873 2.315 1.619 3684
0.930 2.464 1.706 13499
0.875 2.319 1.612 2885
0.931 2.468 1.699 14296
0.876 2.323 1.605 2346
0.930 2.466 1.687 15345
0.880 2.333 1.602 1812
0.934 2.477 1.684 14342
0.980 2.598 1.761 1247
0.936 2.481 1.676 13591
0.982 2.602 1.753 1443
0.945 2.505 1.680 12353
0.991 2.626 1.757 2226
0.949 2.515 1.677 12443
0.995 2.637 1.753 2548
0.955 2.532 1.677 8857
1.001 2.654 1.753 1376
0.979 2.594 1.705 10354
0.933 2.472 1.630 2291
0.980 2.598 1.697 8738
0.934 2.476 1.622 1824
0.987 2.615 1.697 7382
0.941 2.493 1.623 2947
0.983 2.607 1.681 7615
0.937 2.484 1.607 2314
0.997 2.643 1.692 5990
0.951 2.521 1.619 2913
1.001 2.654 1.688 5694
0.955 2.531 1.615 1868
1.013 2.684 1.695 6946
0.966 2.561 1.623 2425
1.014 2.688 1.687 8409
0.968 2.565 1.615 1490
1.016 2.693 1.679 8844
1.062 2.816 1.751 1303
1.020 2.703 1.675 7822
1.067 2.827 1.746 1975
1.026 2.721 1.674 7816
1.073 2.844 1.745 1668
1.055 2.797 1.706 7369
1.008 2.672 1.636 1654
1.059 2.807 1.702 9587
1.012 2.683 1.631 1929
1.058 2.805 1.689 10478
1.011 2.681 1.619 1132
1.060 2.809 1.681 9869
1.107 2.934 1.750 1626
1.061 2.814 1.672 8342
1.109 2.938 1.741 2226
1.070 2.837 1.674 6708
1.118 2.963 1.743 1712
1.077 2.855 1.673 5412
1.124 2.980 1.741 1921
1.079 2.859 1.664 4151
1.126 2.984 1.732 2235
1.090 2.890 1.670 4486
1.138 3.015 1.737 1748
1.104 2.927 1.678 7202
1.108 2.938 1.673 9763
1.061 2.812 1.606 1102
1.112 2.949 1.668 9770
1.065 2.822 1.601 1299
1.121 2.973 1.669 8553
1.074 2.846 1.603 1351
1.128 2.990 1.667 7338
1.127 2.988 1.654 7671
1.175 3.114 1.720 1441
1.126 2.985 1.642 7404
1.174 3.112 1.707 2954
1.128 2.989 1.632 6750
1.176 3.116 1.697 3644
1.129 2.993 1.623 4869
1.177 3.120 1.687 3248
1.169 3.098 1.664 2898
1.121 2.970 1.601 1555
1.188 3.149 1.678 3134
1.140 3.021 1.615 1143
1.190 3.153 1.669 3924
1.141 3.025 1.606 1050
1.168 3.097 1.629 5324
1.217 3.225 1.692 2659
1.172 3.108 1.623 7441
1.221 3.236 1.685 2856
1.182 3.132 1.623 7299
1.230 3.260 1.685 1904
1.188 3.149 1.620 7022
1.237 3.278 1.682 1631
1.195 3.167 1.617 5987
1.243 3.296 1.678 1280
1.224 3.246 1.642 11359
1.176 3.117 1.582 1985
1.229 3.257 1.635 13415
1.180 3.128 1.575 1301
1.235 3.274 1.632 9173
1.244 3.299 1.631 7094
1.238 3.282 1.612 6260
1.287 3.412 1.671 2338
1.276 3.382 1.645 7657
1.227 3.252 1.586 3071
1.272 3.372 1.628 9119
1.266 3.356 1.609 8568
1.315 3.486 1.666 1453
1.301 3.449 1.638 6033
1.252 3.319 1.580 2773
1.303 3.453 1.627 6205
1.253 3.323 1.570 1673
1.304 3.457 1.616 5243
1.303 3.454 1.603 6244
1.302 3.451 1.589 8068
1.351 3.582 1.645 1632
1.303 3.455 1.579 7774
1.353 3.586 1.634 2778
1.336 3.542 1.603 5229
1.287 3.411 1.548 1699
1.332 3.532 1.586 4608
1.382 3.663 1.641 1021
1.360 3.605 1.604 5160
1.310 3.474 1.550 2179
1.372 3.637 1.604 7563
1.322 3.505 1.550 2688
1.376 3.648 1.596 7369
1.326 3.516 1.542 1802
1.380 3.658 1.587 5016
1.330 3.527 1.534 1632
1.400 3.711 1.595 4862
1.350 3.579 1.543 2808
1.404 3.722 1.586 6508
1.354 3.590 1.534 2560
1.403 3.719 1.572 5998
1.453 3.851 1.624 2709
1.386 3.674 1.542 4561
1.436 3.806 1.593 3863
1.427 3.782 1.571 6683
1.377 3.650 1.520 2173
1.439 3.814 1.570 7149
1.389 3.682 1.519 1876
1.446 3.832 1.563 5494
1.496 3.965 1.613 2697
1.476 3.913 1.580 5306
1.418 3.759 1.523 3401
1.472 3.903 1.563 4650
1.422 3.770 1.514 2608
1.487 3.942 1.564 3408
1.437 3.809 1.515 1389
1.496 3.967 1.559 3982
1.547 4.100 1.608 1519
1.498 3.971 1.547 4724
1.548 4.104 1.595 1841
1.499 3.974 1.535 5272
1.550 4.108 1.582 2516
1.543 4.091 1.562 5166
1.493 3.957 1.515 3172
1.558 4.130 1.562 5304
1.505 3.989 1.513 2444
1.575 4.176 1.564 4344
1.525 4.042 1.518 1771
1.582 4.194 1.556 4809
1.532 4.060 1.510 1746
1.584 4.198 1.543 5582
1.533 4.064 1.497 2183
1.585 4.202 1.530 5276
1.532 4.060 1.482 1751
1.621 4.297 1.547 4075
1.570 4.163 1.503 2447
1.615 4.280 1.527 4389
1.564 4.145 1.483 1120
1.613 4.277 1.512 5854
1.623 4.302 1.505 6464
1.674 4.436 1.549 1712
1.630 4.320 1.497 5116
1.680 4.454 1.540 1823
1.663 4.408 1.510 3183
1.714 4.543 1.553 1807
1.697 4.498 1.523 3201
1.646 4.362 1.481 1540
1.695 4.494 1.507 3150
1.765 4.679 1.564 1405
1.700 4.505 1.495 3487
1.772 4.697 1.554 1776
1.709 4.530 1.488 4197
1.771 4.694 1.537 2778
1.710 4.534 1.474 3271
1.770 4.691 1.521 3176
1.803 4.780 1.531 3781
1.714 4.545 1.462 2362
1.802 4.777 1.515 5108
1.727 4.577 1.456 1482
1.812 4.802 1.506 5176
1.760 4.666 1.467 1929
1.813 4.806 1.491 6525
1.864 4.942 1.530 1499
1.814 4.809 1.476 6122
1.871 4.960 1.519 3012
1.824 4.835 1.467 5477
1.875 4.971 1.505 4476
1.877 4.974 1.490 4689
1.825 4.838 1.452 3292
1.875 4.971 1.473 3829
1.946 5.158 1.523 3166
1.961 5.197 1.517 4220
1.874 4.967 1.455 3631
1.962 5.201 1.501 4316
2.033 5.388 1.550 2980
2.034 5.392 1.534 3710
1.974 5.234 1.492 3278
2.055 5.446 1.530 3404
1.946 5.158 1.456 2808
2.021 5.356 1.489 3235
1.945 5.154 1.438 2456
2.076 5.504 1.509 2417
2.019 5.353 1.471 2034
2.124 5.630 1.522 2466
2.072 5.493 1.488 2417
2.120 5.620 1.501 2740
2.068 5.483 1.468 2062
2.124 5.631 1.486 2642
2.067 5.479 1.449 1474
2.136 5.663 1.475 2800
2.085 5.526 1.442 1168
2.179 5.775 1.483 2353
2.127 5.638 1.451 1079
2.197 5.822 1.475 2459
2.145 5.685 1.444 1325
2.231 5.913 1.477 3010
2.179 5.775 1.446 1794
2.235 5.924 1.461 2283
2.169 5.750 1.421 1409
2.291 6.073 1.474 2247
2.239 5.935 1.444 1652
2.295 6.083 1.457 2407
2.237 5.931 1.424 2171
2.250 5.964 1.412 1919
2.302 6.101 1.441 1553
2.418 6.410 1.487 2317
2.328 6.170 1.436 1940
2.411 6.392 1.463 2451
2.337 6.196 1.422 1993
2.410 6.388 1.442 3152
2.308 6.119 1.386 1932
2.417 6.406 1.425 2849
2.488 6.596 1.463 1901
2.426 6.432 1.409 2203
2.484 6.585 1.440 1750
2.472 6.552 1.412 1837
2.543 6.741 1.449 1794
2.542 6.737 1.427 1839
2.467 6.541 1.389 1637
2.538 6.726 1.403 1994
2.650 7.025 1.460 1986
2.649 7.022 1.437 2498
2.701 7.160 1.463 2068
2.609 6.916 1.395 2332
2.697 7.149 1.438 2144
2.610 6.919 1.374 1976
2.754 7.299 1.442 1367
2.821 7.478 1.450 1569
2.617 6.937 1.355 1374
2.822 7.481 1.427 2154
2.770 7.342 1.403 1481
2.782 7.375 1.385 2011
2.860 7.580 1.420 1439
2.786 7.386 1.364 1884
3.035 8.044 1.474 1564
2.821 7.477 1.355 1684
2.873 7.616 1.378 1391
3.060 8.110 1.433 1666
2.825 7.488 1.333 1395
3.053 8.092 1.404 1812
3.290 8.722 1.504 1206
3.046 8.073 1.376 1375
3.289 8.718 1.475 1311
3.285 8.707 1.446 1449
3.036 8.047 1.347 1214
3.275 8.681 1.415 1455
3.328 8.821 1.435 1187
3.290 8.722 1.393 1804
3.218 8.531 1.366 1072
3.294 8.732 1.367 2300
3.214 8.519 1.337 1200
3.296 8.736 1.340 2345
3.302 8.754 1.315 2320
3.301 8.749 1.287 1776
3.299 8.745 1.259 1322
0.798 2.097 1.708 4572
0.800 2.101 1.702 9144
0.731 1.920 1.564 1929
0.802 2.105 1.695 9144
0.749 1.967 1.590 1722
0.803 2.110 1.689 8650
0.750 1.970 1.584 1326
0.805 2.114 1.682 8156
0.809 2.124 1.680 9627
0.853 2.240 1.766 1008
0.815 2.140 1.683 12316
0.859 2.256 1.769 1010
0.817 2.145 1.676 12316
0.861 2.261 1.762 1010
0.820 2.155 1.674 14135
0.865 2.271 1.759 1161
0.822 2.159 1.668 15997
0.866 2.275 1.752 1506
0.824 2.163 1.661 12020
0.868 2.280 1.745 1614
0.825 2.167 1.655 8043
0.870 2.284 1.738 1722
0.839 2.202 1.670 6792
0.883 2.319 1.753 1960
0.845 2.219 1.672 7680
0.889 2.336 1.755 2605
0.846 2.223 1.665 7588
0.891 2.341 1.748 2529
0.848 2.227 1.658 7496
0.902 2.370 1.758 2579
0.850 2.231 1.652 6864
0.904 2.374 1.751 3093
0.870 2.285 1.679 6870
0.915 2.403 1.761 2922
0.872 2.289 1.672 7728
0.917 2.408 1.753 3890
0.871 2.287 1.661 8607
0.916 2.406 1.742 3522
0.872 2.292 1.654 9698
0.920 2.417 1.738 3022
0.872 2.289 1.643 8980
0.929 2.440 1.744 3468
0.873 2.293 1.636 8272
0.931 2.444 1.736 4064
0.877 2.304 1.633 6952
0.930 2.442 1.725 5672
0.929 2.440 1.713 7599
0.879 2.308 1.626 5674
0.933 2.451 1.710 10305
0.880 2.312 1.619 5040
0.937 2.461 1.706 13503
0.882 2.316 1.612 4405
0.936 2.459 1.695 14371
0.886 2.326 1.609 3574
0.938 2.464 1.687 15578
0.887 2.330 1.602 2778
0.942 2.474 1.684 14293
0.889 2.334 1.594 1899
0.946 2.485 1.680 13591
0.992 2.606 1.757 1404
0.955 2.508 1.685 12847
1.001 2.629 1.761 1968
0.959 2.519 1.681 13547
1.005 2.640 1.757 2089
0.965 2.536 1.681 10351
1.012 2.657 1.757 1007
0.979 2.572 1.693 10027
0.933 2.450 1.618 1099
0.983 2.582 1.689 8243
0.987 2.593 1.685 6929
1.034 2.715 1.759 1603
0.991 2.604 1.681 7267
0.945 2.481 1.607 2313
1.005 2.640 1.692 6127
0.959 2.518 1.619 3063
1.022 2.683 1.707 6681
0.975 2.560 1.634 3855
1.023 2.688 1.699 8425
0.976 2.565 1.626 2920
1.025 2.692 1.691 10170
0.978 2.569 1.619 1622
1.024 2.689 1.679 10616
1.071 2.813 1.751 1434
1.028 2.700 1.675 9533
1.075 2.824 1.746 1974
1.035 2.717 1.674 9226
1.082 2.841 1.745 1601
1.036 2.722 1.665 7446
1.083 2.846 1.736 3146
1.068 2.804 1.702 8890
1.020 2.680 1.631 1721
1.067 2.802 1.689 9830
1.068 2.806 1.681 9562
1.116 2.931 1.750 1539
1.070 2.810 1.672 8234
1.117 2.935 1.741 2262
1.079 2.834 1.674 6889
1.127 2.959 1.743 1812
1.086 2.852 1.673 5654
1.133 2.977 1.741 2062
1.085 2.849 1.661 4266
1.132 2.974 1.729 2526
1.101 2.893 1.673 4434
1.149 3.018 1.741 1477
1.113 2.924 1.678 7549
1.117 2.934 1.673 10499
1.069 2.808 1.606 1110
1.121 2.945 1.668 10424
1.073 2.819 1.601 1324
1.128 2.963 1.665 8512
1.080 2.836 1.599 1071
1.140 2.993 1.670 7397
1.136 2.984 1.654 7492
1.184 3.111 1.720 1328
1.135 2.982 1.642 7054
1.183 3.108 1.707 2757
1.137 2.986 1.632 6019
1.185 3.113 1.697 3365
1.177 3.090 1.674 4406
1.128 2.963 1.610 3021
1.181 3.101 1.668 2643
1.132 2.974 1.604 1220
1.172 3.078 1.645 2600
1.171 3.076 1.632 3730
1.220 3.203 1.695 1941
1.175 3.086 1.626 5418
1.224 3.214 1.689 2453
1.184 3.111 1.626 7800
1.233 3.239 1.689 1769
1.191 3.128 1.623 7788
1.240 3.256 1.685 1405
1.198 3.146 1.620 7229
1.247 3.274 1.682 1271
1.204 3.163 1.617 6414
1.253 3.292 1.678 1200
1.232 3.235 1.639 11751
1.183 3.106 1.578 1586
1.238 3.253 1.635 13385
1.189 3.124 1.575 1368
1.245 3.270 1.632 9581
1.254 3.295 1.631 7938
1.251 3.285 1.615 7043
1.300 3.415 1.674 1681
1.286 3.378 1.645 7254
1.237 3.248 1.586 3224
1.282 3.368 1.628 8947
1.233 3.239 1.570 1101
1.276 3.352 1.609 8396
1.326 3.482 1.666 1742
1.312 3.445 1.638 6469
1.262 3.315 1.580 2501
1.313 3.449 1.627 7035
1.264 3.319 1.570 1449
1.312 3.446 1.613 6265
1.314 3.450 1.603 6879
1.312 3.447 1.589 8354
1.362 3.578 1.645 1692
1.314 3.451 1.579 7520
1.364 3.582 1.634 2953
1.347 3.538 1.603 5056
1.297 3.407 1.548 1558
1.346 3.535 1.589 4420
1.396 3.666 1.643 1018
1.368 3.594 1.601 5827
1.318 3.463 1.547 1498
1.383 3.632 1.604 8130
1.333 3.501 1.550 2709
1.387 3.643 1.596 7753
1.337 3.512 1.542 2110
1.389 3.647 1.584 5358
1.339 3.516 1.531 1435
1.395 3.665 1.579 4487
1.446 3.797 1.631 2844
1.418 3.725 1.589 6855
1.368 3.593 1.537 2682
1.420 3.728 1.578 6118
1.369 3.596 1.526 2635
1.434 3.767 1.580 4713
1.384 3.635 1.528 3332
1.438 3.778 1.571 6555
1.388 3.646 1.520 2073
1.448 3.803 1.567 6840
1.397 3.670 1.517 1953
1.457 3.828 1.563 5377
1.508 3.960 1.613 2613
1.491 3.915 1.583 4688
1.427 3.748 1.520 3271
1.487 3.905 1.566 4209
1.431 3.758 1.511 2531
1.496 3.930 1.561 3271
1.446 3.797 1.512 1410
1.511 3.969 1.562 3898
1.562 4.102 1.610 1429
1.513 3.973 1.550 4485
1.563 4.106 1.598 1664
1.514 3.977 1.537 4842
1.565 4.110 1.585 1766
1.553 4.079 1.560 4910
1.502 3.945 1.513 3254
1.557 4.090 1.550 4888
1.506 3.956 1.503 2223
1.591 4.178 1.566 4512
1.540 4.044 1.520 2200
1.595 4.189 1.556 4487
1.544 4.055 1.510 1837
1.596 4.193 1.543 4964
1.545 4.059 1.497 2356
1.598 4.197 1.530 5068
1.547 4.063 1.485 1797
1.634 4.292 1.547 3826
1.583 4.158 1.503 2334
1.625 4.268 1.525 4247
1.574 4.134 1.481 1018
1.624 4.265 1.509 5118
1.636 4.297 1.505 5546
1.687 4.431 1.549 1518
1.643 4.315 1.497 4902
1.694 4.449 1.540 1550
1.674 4.396 1.508 3870
1.725 4.531 1.550 2221
1.675 4.400 1.494 3253
1.727 4.535 1.536 2135
1.712 4.496 1.509 2937
1.660 4.361 1.468 1932
1.713 4.500 1.495 3539
1.786 4.692 1.554 1898
1.720 4.518 1.486 4501
1.785 4.689 1.537 2936
1.724 4.529 1.474 3588
1.787 4.692 1.523 2846
1.815 4.768 1.529 3673
1.728 4.539 1.462 2749
1.817 4.771 1.515 5128
1.732 4.550 1.450 1672
1.826 4.796 1.506 5074
1.775 4.661 1.467 1988
1.828 4.800 1.491 6311
1.879 4.936 1.530 1841
1.832 4.811 1.478 6445
1.884 4.947 1.517 3356
1.836 4.822 1.465 5926
1.888 4.958 1.503 4655
1.892 4.969 1.490 4522
1.840 4.833 1.452 3622
1.890 4.965 1.473 3627
1.951 5.123 1.515 2830
1.892 4.969 1.457 3547
1.979 5.199 1.519 2991
1.978 5.195 1.501 3456
1.893 4.972 1.442 2782
2.045 5.371 1.530 3234
1.988 5.220 1.490 2818
2.041 5.361 1.510 3716
1.962 5.152 1.456 2375
2.037 5.350 1.489 4121
2.092 5.494 1.526 2204
2.101 5.519 1.514 2674
2.038 5.354 1.473 2054
2.051 5.386 1.463 2385
2.136 5.609 1.519 2290
2.137 5.613 1.501 2658
2.052 5.390 1.447 2368
2.150 5.646 1.491 2692
2.084 5.473 1.449 1638
2.154 5.657 1.475 2977
2.206 5.794 1.508 1062
2.196 5.769 1.483 2868
2.144 5.631 1.451 1453
2.209 5.801 1.472 2614
2.156 5.664 1.440 1434
2.249 5.906 1.477 3261
2.183 5.733 1.438 1790
2.253 5.917 1.461 2301
2.187 5.743 1.421 1485
2.309 6.065 1.474 2449
2.249 5.906 1.439 1598
2.311 6.069 1.456 2589
2.253 5.917 1.422 2306
2.268 5.957 1.412 1890
2.354 6.181 1.460 1777
2.347 6.163 1.436 2261
2.438 6.403 1.487 2143
2.431 6.385 1.463 2246
2.345 6.160 1.416 2067
2.429 6.381 1.442 3057
2.327 6.112 1.386 2046
2.434 6.392 1.423 2906
2.508 6.588 1.463 1450
2.443 6.417 1.408 2190
2.496 6.555 1.435 1652
2.492 6.544 1.412 2033
2.555 6.712 1.445 1923
2.559 6.722 1.426 2239
2.487 6.533 1.389 1784
2.561 6.726 1.405 2044
2.661 6.988 1.455 1885
2.668 7.006 1.436 2324
2.720 7.145 1.461 2068
2.669 7.010 1.414 2099
2.722 7.148 1.439 2058
2.631 6.911 1.374 1685
2.704 7.101 1.408 1386
2.844 7.469 1.450 1730
2.772 7.279 1.417 1475
2.845 7.473 1.427 2307
2.940 7.721 1.470 1421
2.844 7.469 1.403 1881
2.941 7.725 1.446 1448
2.892 7.597 1.400 1548
2.839 7.458 1.377 1527
2.844 7.468 1.355 1680
2.896 7.607 1.378 1567
3.087 8.108 1.434 1875
3.012 7.911 1.403 1293
3.083 8.097 1.407 1665
3.019 7.929 1.380 1530
3.020 7.932 1.356 1541
3.313 8.701 1.474 1301
3.311 8.697 1.446 1507
3.010 7.906 1.327 1254
3.304 8.679 1.416 1595
3.076 8.078 1.327 1241
3.317 8.712 1.393 1779
3.102 8.147 1.311 1021
3.318 8.715 1.366 1918
3.240 8.510 1.337 1053
3.328 8.740 1.342 1820
3.335 8.758 1.317 2004
3.330 8.747 1.288 1441
3.326 8.735 1.259 1025
0.806 2.094 1.708 4600
0.807 2.098 1.702 9201
0.747 1.942 1.582 1851
0.809 2.103 1.695 9201
0.749 1.946 1.576 1785
0.811 2.107 1.689 9132
0.746 1.938 1.561 1460
0.810 2.105 1.678 9144
0.742 1.929 1.546 1315
0.816 2.121 1.680 10538
0.823 2.138 1.683 12927
0.778 2.022 1.597 1023
0.824 2.142 1.676 12927
0.826 2.146 1.670 14634
0.870 2.262 1.755 1222
0.830 2.156 1.668 16435
0.874 2.272 1.752 1507
0.831 2.160 1.661 12450
0.876 2.277 1.745 1683
0.833 2.165 1.655 8464
0.878 2.281 1.738 1860
0.844 2.193 1.666 7080
0.889 2.310 1.749 1621
0.850 2.210 1.668 7915
0.895 2.327 1.751 2182
0.854 2.220 1.665 8127
0.899 2.337 1.748 2118
0.858 2.230 1.663 8364
0.911 2.367 1.758 2349
0.862 2.241 1.660 8166
0.912 2.371 1.751 2813
0.876 2.276 1.675 8086
0.921 2.394 1.756 2798
0.880 2.286 1.672 8831
0.925 2.405 1.753 3275
0.879 2.284 1.661 9743
0.925 2.403 1.742 2988
0.881 2.288 1.654 10683
0.929 2.413 1.738 2491
0.882 2.293 1.647 9835
0.937 2.436 1.744 2790
0.884 2.297 1.640 8988
0.942 2.447 1.740 3319
0.885 2.301 1.633 7729
0.936 2.433 1.720 4808
0.938 2.437 1.713 6752
0.887 2.305 1.626 6470
0.942 2.447 1.710 9787
0.888 2.309 1.619 5718
0.946 2.458 1.706 13184
0.892 2.319 1.616 5001
0.945 2.456 1.695 14343
0.894 2.323 1.609 4056
0.944 2.454 1.683 15791
0.895 2.327 1.602 3111
0.948 2.464 1.680 14098
0.897 2.331 1.594 2169
0.957 2.488 1.684 13948
1.004 2.608 1.761 1481
0.964 2.505 1.685 13939
1.010 2.626 1.761 2078
0.970 2.522 1.685 15333
1.017 2.643 1.761 1710
0.974 2.532 1.681 12541
1.021 2.654 1.757 1182
0.986 2.562 1.689 10635
0.939 2.440 1.614 1345
0.990 2.573 1.685 8274
1.037 2.694 1.760 1298
0.994 2.583 1.681 6779
1.041 2.705 1.756 2327
0.983 2.555 1.654 7844
1.030 2.677 1.728 4668
1.017 2.643 1.696 6705
0.970 2.521 1.623 3794
1.031 2.680 1.707 8105
0.984 2.557 1.634 4664
1.033 2.684 1.699 9960
0.985 2.561 1.626 3299
1.034 2.688 1.691 11815
0.987 2.565 1.619 1549
1.036 2.692 1.683 12232
1.083 2.816 1.755 1206
1.038 2.697 1.675 11370
1.085 2.820 1.746 1893
1.044 2.714 1.674 10830
1.097 2.850 1.753 1406
1.046 2.718 1.665 7925
1.093 2.842 1.736 2630
1.078 2.800 1.702 7585
1.030 2.676 1.631 1855
1.077 2.798 1.689 8494
1.078 2.802 1.681 8640
1.126 2.927 1.750 1463
1.082 2.813 1.676 7673
1.130 2.938 1.745 1866
1.089 2.830 1.674 6746
1.137 2.955 1.743 1972
1.096 2.848 1.673 5599
1.144 2.973 1.741 2210
1.092 2.839 1.657 4315
1.140 2.964 1.725 2647
1.114 2.896 1.677 4631
1.162 3.021 1.745 1165
1.123 2.920 1.678 7941
1.128 2.930 1.673 11345
1.079 2.805 1.606 1189
1.132 2.941 1.668 11380
1.083 2.815 1.601 1372
1.136 2.952 1.662 8916
1.153 2.996 1.674 7681
1.104 2.870 1.608 1112
1.147 2.980 1.654 7588
1.195 3.107 1.720 1164
1.146 2.978 1.642 6938
1.194 3.104 1.707 2402
1.145 2.975 1.629 5501
1.194 3.102 1.694 3546
1.187 3.086 1.674 4396
1.139 2.959 1.610 2757
1.192 3.097 1.668 3002
1.143 2.970 1.604 1021
1.188 3.088 1.652 3074
1.184 3.078 1.635 4453
1.234 3.206 1.698 1018
1.186 3.082 1.626 6139
1.235 3.210 1.689 1589
1.198 3.113 1.630 8973
1.202 3.124 1.623 9040
1.209 3.142 1.620 7933
1.258 3.270 1.682 1087
1.213 3.152 1.614 6871
1.262 3.281 1.675 1368
1.243 3.231 1.639 12068
1.194 3.102 1.578 1258
1.250 3.248 1.635 13027
1.200 3.120 1.575 1345
1.257 3.266 1.632 9567
1.306 3.395 1.692 1181
1.266 3.290 1.631 8247
1.262 3.281 1.615 7434
1.312 3.410 1.674 1611
1.295 3.367 1.642 6594
1.246 3.237 1.583 2775
1.292 3.357 1.625 8713
1.242 3.228 1.567 1235
1.291 3.354 1.612 9019
1.340 3.484 1.670 2011
1.326 3.447 1.641 6967
1.276 3.317 1.583 2461
1.325 3.444 1.627 7970
1.275 3.314 1.570 1390
1.324 3.441 1.613 7470
1.326 3.445 1.603 7300
1.327 3.449 1.592 8111
1.377 3.580 1.648 1425
1.326 3.446 1.579 7043
1.376 3.577 1.634 2780
1.359 3.533 1.603 5058
1.309 3.402 1.548 1360
1.366 3.551 1.598 4095
1.373 3.568 1.592 6416
1.396 3.628 1.604 8137
1.345 3.496 1.550 2452
1.400 3.638 1.596 7787
1.349 3.507 1.542 2434
1.402 3.642 1.584 5864
1.452 3.774 1.637 1779
1.403 3.646 1.573 5111
1.454 3.778 1.626 3654
1.431 3.720 1.589 7229
1.381 3.588 1.537 2665
1.433 3.723 1.578 6470
1.382 3.592 1.526 2403
1.445 3.755 1.577 4911
1.394 3.623 1.526 2365
1.452 3.773 1.571 6116
1.401 3.641 1.520 2093
1.461 3.798 1.567 6129
1.410 3.665 1.517 2090
1.471 3.823 1.563 4921
1.522 3.955 1.613 2285
1.478 3.840 1.557 3793
1.427 3.708 1.507 2530
1.485 3.858 1.550 4105
1.433 3.725 1.501 2117
1.494 3.883 1.546 4101
1.545 4.016 1.595 1352
1.498 3.894 1.536 4220
1.549 4.027 1.585 1782
1.529 3.975 1.552 4443
1.581 4.108 1.600 1772
1.531 3.978 1.540 4650
1.582 4.112 1.587 1840
1.567 4.073 1.560 5020
1.516 3.940 1.513 3537
1.569 4.077 1.547 4641
1.620 4.211 1.594 2690
1.608 4.180 1.569 4322
1.557 4.046 1.522 2840
1.583 4.113 1.532 3904
1.634 4.247 1.577 2244
1.606 4.173 1.538 4286
1.554 4.039 1.493 2106
1.610 4.184 1.528 4934
1.558 4.050 1.482 1808
1.620 4.209 1.522 3651
1.671 4.343 1.566 1868
1.637 4.255 1.523 3896
1.689 4.389 1.567 1223
1.639 4.259 1.509 4094
1.690 4.393 1.553 1066
1.651 4.291 1.505 4449
1.703 4.425 1.549 1422
1.658 4.309 1.497 4489
1.710 4.443 1.540 1185
1.689 4.390 1.508 4624
1.741 4.525 1.550 2153
1.688 4.387 1.492 4216
1.740 4.522 1.534 2614
1.687 4.384 1.476 3337
1.739 4.518 1.518 2138
1.732 4.501 1.497 2970
1.797 4.671 1.550 1774
1.736 4.512 1.486 3842
1.802 4.682 1.537 2634
1.740 4.522 1.474 3201
1.792 4.658 1.514 2404
1.832 4.761 1.529 3492
1.744 4.533 1.462 2881
1.833 4.765 1.515 5220
1.748 4.544 1.450 2109
1.840 4.783 1.504 5224
1.893 4.918 1.543 1669
1.845 4.794 1.491 6253
1.897 4.929 1.530 2163
1.849 4.805 1.478 7075
1.901 4.940 1.517 3364
1.853 4.815 1.465 6628
1.905 4.951 1.503 4076
1.909 4.962 1.490 3975
1.857 4.826 1.452 3620
1.966 5.109 1.513 3294
1.913 4.973 1.476 3132
1.909 4.962 1.457 3341
1.962 5.098 1.494 1913
1.911 4.966 1.442 3175
1.999 5.195 1.503 2450
2.061 5.357 1.528 2835
2.003 5.206 1.489 2553
2.054 5.339 1.506 4788
2.002 5.203 1.471 2133
2.053 5.336 1.487 5090
2.114 5.494 1.528 2231
2.121 5.512 1.514 2472
2.054 5.339 1.471 2008
2.075 5.393 1.467 2448
2.156 5.602 1.519 2175
2.074 5.390 1.448 2435
2.160 5.613 1.503 2379
2.169 5.638 1.491 2417
2.100 5.458 1.447 1742
2.174 5.649 1.475 2658
2.226 5.786 1.508 1143
2.219 5.768 1.485 3357
2.167 5.631 1.453 1836
2.229 5.793 1.472 2864
2.176 5.656 1.440 1864
2.270 5.898 1.477 3280
2.203 5.725 1.438 1984
2.276 5.916 1.462 2198
2.329 6.054 1.493 1615
2.328 6.050 1.473 2584
2.267 5.891 1.437 1597
2.327 6.046 1.452 2600
2.274 5.909 1.422 2399
2.370 6.159 1.457 2219
2.289 5.949 1.412 1911
2.368 6.155 1.436 2691
2.296 5.967 1.396 1725
2.370 6.158 1.417 2301
2.453 6.376 1.463 1877
2.449 6.365 1.440 2807
2.349 6.104 1.386 1943
2.451 6.369 1.420 2685
2.504 6.507 1.448 1802
2.505 6.510 1.428 2030
2.429 6.314 1.389 1824
2.512 6.528 1.411 1949
2.565 6.666 1.438 1773
2.552 6.633 1.410 2415
2.606 6.772 1.437 1552
2.573 6.688 1.399 2120
2.685 6.979 1.455 1719
2.687 6.982 1.433 2218
2.745 7.135 1.461 1771
2.694 7.000 1.414 2096
2.601 6.760 1.370 1722
2.698 7.011 1.393 1747
2.600 6.756 1.347 1371
2.870 7.459 1.450 1834
2.724 7.080 1.383 1785
2.871 7.463 1.427 2291
2.967 7.711 1.470 1513
2.873 7.466 1.404 1967
2.971 7.722 1.448 1543
2.919 7.586 1.400 1804
2.866 7.448 1.377 1529
2.918 7.582 1.376 1758
2.864 7.444 1.353 1506
3.116 8.097 1.434 1896
3.040 7.900 1.403 1638
3.050 7.925 1.381 1959
3.120 8.108 1.410 1509
3.048 7.921 1.356 2010
3.220 8.367 1.425 1621
3.342 8.686 1.446 1445
3.044 7.910 1.329 1411
3.335 8.667 1.416 1586
3.104 8.067 1.327 1260
3.345 8.692 1.392 1630
3.133 8.143 1.313 1139
3.352 8.711 1.367 1369
3.378 8.780 1.349 1543
3.377 8.776 1.321 1739
3.378 8.779 1.294 1038
0.814 2.098 1.713 4256
0.816 2.102 1.706 8513
0.755 1.946 1.587 1977
0.817 2.106 1.700 8513
0.757 1.950 1.581 1977
0.817 2.104 1.689 8850
0.746 1.923 1.552 1803
0.816 2.103 1.678 9462
0.746 1.921 1.542 1747
0.820 2.113 1.676 10725
0.747 1.925 1.536 1224
0.826 2.129 1.678 12901
0.830 2.139 1.676 12775
0.832 2.144 1.670 14355
0.877 2.259 1.755 1137
0.833 2.148 1.663 15934
0.879 2.264 1.748 1475
0.837 2.158 1.661 12101
0.883 2.274 1.745 1692
0.839 2.162 1.655 8301
0.884 2.279 1.738 2014
0.848 2.185 1.661 6987
0.893 2.301 1.744 1549
0.857 2.207 1.668 7827
0.912 2.349 1.768 1731
0.861 2.218 1.665 8324
0.913 2.353 1.761 1731
0.869 2.240 1.671 9287
0.917 2.364 1.758 2073
0.869 2.238 1.660 9280
0.919 2.368 1.751 2459
0.880 2.267 1.670 9050
0.926 2.385 1.752 2574
0.884 2.278 1.668 9635
0.930 2.396 1.749 2875
0.885 2.282 1.661 10256
0.931 2.400 1.742 2472
0.887 2.286 1.654 10876
0.933 2.404 1.734 2068
0.889 2.290 1.647 10104
0.944 2.434 1.744 2117
0.890 2.294 1.640 9331
0.949 2.444 1.740 2639
0.892 2.298 1.633 8064
0.943 2.430 1.720 4139
0.891 2.296 1.622 6883
0.942 2.428 1.709 6085
0.946 2.438 1.706 8937
0.895 2.306 1.619 5984
0.950 2.449 1.702 12298
0.899 2.317 1.616 5210
0.950 2.447 1.691 13432
0.901 2.321 1.609 4254
0.951 2.451 1.683 14976
0.902 2.325 1.602 3298
0.955 2.462 1.680 13223
0.904 2.329 1.594 2278
0.967 2.491 1.688 14101
1.014 2.612 1.765 1480
0.973 2.508 1.689 14677
1.020 2.629 1.765 1702
0.977 2.519 1.685 16614
1.024 2.640 1.761 1687
0.982 2.529 1.681 14019
1.029 2.651 1.757 1249
0.993 2.559 1.689 10970
0.946 2.438 1.614 1491
0.997 2.570 1.685 8279
1.044 2.691 1.760 1360
0.984 2.535 1.654 7108
1.031 2.657 1.728 4031
0.988 2.546 1.650 8217
1.035 2.668 1.724 4610
1.025 2.640 1.696 6990
0.977 2.518 1.623 4044
1.039 2.677 1.707 8985
0.991 2.554 1.634 5284
1.040 2.681 1.699 10616
0.993 2.558 1.626 3653
1.042 2.685 1.691 12247
0.994 2.562 1.619 1524
1.044 2.689 1.683 12696
1.091 2.812 1.755 1265
1.045 2.694 1.675 12005
1.093 2.817 1.746 1789
1.052 2.711 1.674 11476
1.105 2.847 1.753 1213
1.054 2.715 1.665 7934
1.102 2.839 1.736 2139
1.086 2.797 1.702 6192
1.037 2.673 1.631 2239
1.085 2.795 1.689 6899
1.036 2.671 1.619 1078
1.086 2.799 1.681 7250
1.134 2.923 1.750 1321
1.090 2.810 1.676 6694
1.139 2.934 1.745 1818
1.100 2.834 1.678 6232
1.148 2.958 1.747 1836
1.104 2.845 1.673 5256
1.152 2.969 1.741 2279
1.095 2.822 1.650 4335
1.144 2.947 1.718 2785
1.102 2.840 1.648 4566
1.151 2.965 1.716 2499
1.134 2.923 1.682 7660
1.086 2.798 1.615 1216
1.136 2.927 1.673 11221
1.087 2.802 1.606 1105
1.140 2.938 1.668 11690
1.091 2.812 1.601 1272
1.144 2.949 1.662 9334
1.164 2.999 1.677 7701
1.115 2.873 1.611 1261
1.153 2.970 1.651 7669
1.202 3.096 1.716 1172
1.152 2.968 1.638 6881
1.201 3.094 1.703 2442
1.153 2.972 1.629 5252
1.202 3.098 1.694 3049
1.194 3.076 1.671 4347
1.144 2.949 1.606 2354
1.203 3.100 1.671 3706
1.154 2.973 1.607 1069
1.205 3.104 1.662 4334
1.206 3.108 1.652 4970
1.205 3.106 1.639 6618
1.207 3.110 1.630 10066
1.211 3.121 1.623 10174
1.261 3.248 1.685 1300
1.215 3.131 1.617 8674
1.265 3.259 1.678 1479
1.246 3.210 1.643 7173
1.196 3.081 1.582 1243
1.250 3.220 1.636 12137
1.300 3.349 1.696 1220
1.257 3.238 1.632 12012
1.306 3.367 1.692 1342
1.266 3.262 1.632 9072
1.316 3.391 1.692 1344
1.273 3.280 1.628 8692
1.323 3.409 1.687 1244
1.274 3.284 1.618 8242
1.324 3.413 1.677 1276
1.273 3.281 1.605 6494
1.323 3.410 1.663 2439
1.301 3.353 1.625 8387
1.251 3.224 1.567 1462
1.300 3.350 1.612 9111
1.350 3.480 1.670 2468
1.336 3.443 1.641 7145
1.286 3.314 1.583 2729
1.335 3.440 1.627 8301
1.285 3.311 1.570 1356
1.334 3.438 1.613 7939
1.336 3.442 1.603 7109
1.337 3.446 1.592 7257
1.388 3.576 1.648 1291
1.352 3.484 1.596 6359
1.369 3.529 1.603 5964
1.319 3.398 1.548 1137
1.376 3.547 1.598 5137
1.381 3.558 1.589 7308
1.431 3.688 1.644 1067
1.377 3.548 1.573 8125
1.428 3.679 1.627 2338
1.410 3.634 1.596 7546
1.360 3.503 1.542 2488
1.412 3.638 1.584 5959
1.463 3.770 1.637 1969
1.411 3.635 1.570 5531
1.462 3.767 1.623 3888
1.439 3.708 1.586 7356
1.388 3.577 1.534 2370
1.443 3.719 1.578 6655
1.392 3.588 1.526 2062
1.453 3.744 1.574 4935
1.402 3.612 1.523 1824
1.460 3.762 1.568 5395
1.409 3.630 1.517 1874
1.475 3.800 1.570 5095
1.424 3.668 1.519 2213
1.479 3.811 1.561 4112
1.530 3.944 1.611 2076
1.489 3.836 1.557 3933
1.437 3.704 1.507 2459
1.496 3.854 1.550 4697
1.444 3.721 1.501 2087
1.508 3.886 1.548 4762
1.559 4.018 1.597 1689
1.509 3.889 1.536 5309
1.561 4.022 1.585 2301
1.519 3.914 1.532 4710
1.571 4.047 1.580 2404
1.548 3.988 1.545 4637
1.618 4.170 1.610 2040
1.579 4.069 1.560 5052
1.527 3.936 1.513 3374
1.581 4.073 1.547 4329
1.632 4.206 1.594 2780
1.585 4.084 1.537 4189
1.636 4.217 1.583 2081
1.592 4.101 1.529 4070
1.652 4.256 1.582 1467
1.618 4.169 1.538 3706
1.566 4.035 1.493 1874
1.625 4.186 1.530 4576
1.573 4.053 1.485 1674
1.634 4.211 1.524 4118
1.686 4.345 1.569 1687
1.647 4.243 1.520 3856
1.699 4.377 1.564 1672
1.651 4.254 1.509 3756
1.703 4.388 1.553 1383
1.661 4.279 1.503 3640
1.713 4.413 1.546 1373
1.673 4.311 1.499 4164
1.750 4.509 1.562 1084
1.699 4.378 1.506 4870
1.751 4.513 1.548 2086
1.701 4.382 1.492 4788
1.753 4.517 1.534 2495
1.702 4.386 1.479 3998
1.757 4.528 1.522 2258
1.747 4.503 1.500 2410
1.695 4.368 1.458 1985
1.749 4.507 1.486 2984
1.821 4.691 1.542 1982
1.753 4.517 1.474 2407
1.830 4.717 1.533 1973
1.843 4.749 1.527 3327
1.757 4.528 1.462 2453
1.844 4.753 1.512 5192
1.761 4.539 1.450 2175
1.848 4.763 1.500 5294
1.907 4.913 1.543 1524
1.858 4.788 1.491 6120
1.911 4.924 1.530 2046
1.862 4.799 1.478 7038
1.915 4.935 1.517 2943
1.869 4.817 1.467 6313
1.922 4.953 1.505 3417
1.937 4.992 1.500 4146
1.874 4.828 1.454 3057
1.936 4.989 1.482 3851
1.989 5.125 1.519 3267
1.924 4.957 1.457 3571
1.976 5.093 1.494 2492
1.925 4.960 1.442 2928
2.058 5.304 1.533 2412
2.024 5.215 1.492 2767
2.077 5.351 1.528 2165
2.067 5.326 1.504 5333
2.014 5.190 1.469 1992
2.068 5.330 1.487 5258
2.130 5.488 1.528 2134
2.092 5.391 1.485 1989
2.031 5.233 1.446 1959
2.093 5.394 1.469 2579
2.146 5.531 1.503 2127
2.139 5.513 1.480 2927
2.086 5.376 1.447 1987
2.141 5.517 1.463 1963
2.194 5.654 1.496 1499
2.226 5.736 1.498 2226
2.173 5.600 1.465 1554
2.236 5.762 1.485 3543
2.149 5.538 1.432 1693
2.271 5.852 1.487 2990
2.195 5.657 1.442 1821
2.286 5.892 1.477 3280
2.202 5.675 1.428 1797
2.293 5.910 1.462 2219
2.347 6.047 1.493 1739
2.340 6.029 1.470 2637
2.261 5.827 1.425 1845
2.341 6.033 1.451 2478
2.288 5.895 1.421 2320
2.382 6.137 1.454 2511
2.306 5.942 1.412 1878
2.386 6.148 1.436 2699
2.313 5.960 1.396 1581
2.387 6.152 1.417 2329
2.317 5.971 1.379 1666
2.462 6.344 1.437 2452
2.369 6.104 1.388 1643
2.466 6.354 1.419 2306
2.519 6.492 1.447 2200
2.524 6.503 1.428 2083
2.448 6.307 1.389 1821
2.567 6.615 1.429 1943
2.621 6.753 1.456 1375
2.585 6.662 1.417 2608
2.532 6.524 1.391 1411
2.590 6.673 1.398 2252
2.694 6.942 1.449 1620
2.704 6.967 1.431 2359
2.828 7.287 1.491 1614
2.711 6.985 1.412 2200
2.620 6.753 1.370 1634
2.738 7.054 1.403 1835
2.684 6.916 1.378 1463
2.742 7.065 1.382 1908
2.891 7.451 1.450 1751
2.893 7.454 1.427 1858
2.989 7.702 1.470 1377
2.908 7.494 1.410 1726
2.993 7.713 1.448 1432
2.941 7.578 1.400 1838
3.060 7.884 1.452 1345
2.939 7.574 1.376 1692
3.061 7.888 1.427 1494
3.062 7.891 1.403 1780
3.139 8.088 1.434 1706
3.072 7.917 1.381 2108
3.245 8.362 1.452 1572
3.071 7.913 1.356 2148
3.244 8.358 1.425 1809
3.069 7.909 1.330 1450
3.370 8.683 1.447 1304
3.357 8.650 1.415 1453
3.155 8.131 1.338 1236
3.367 8.676 1.391 1345
3.421 8.815 1.411 1262
3.416 8.803 1.382 1202
3.401 8.763 1.348 1427
3.402 8.766 1.321 1476
0.821 2.095 1.713 4224
0.777 1.981 1.625 1147
0.823 2.099 1.706 8448
0.778 1.985 1.619 2295
0.825 2.103 1.700 8448
0.780 1.989 1.613 2295
0.822 2.096 1.684 9097
0.751 1.915 1.548 1975
0.818 2.088 1.669 10197
0.750 1.913 1.537 1957
0.827 2.110 1.676 11325
0.782 1.995 1.590 1390
0.831 2.120 1.674 13241
0.876 2.235 1.760 1016
0.835 2.130 1.672 12869
0.839 2.141 1.670 14169
0.885 2.256 1.755 1073
0.841 2.145 1.663 15508
0.886 2.261 1.748 1441
0.845 2.155 1.661 11583
0.890 2.271 1.745 1763
0.846 2.159 1.655 7882
0.892 2.276 1.738 2243
0.855 2.182 1.661 6843
0.901 2.298 1.744 1369
0.864 2.204 1.668 7612
0.922 2.352 1.772 1449
0.868 2.215 1.665 8400
0.924 2.356 1.765 1449
0.879 2.243 1.676 10522
0.834 2.126 1.593 2396
0.879 2.241 1.665 10496
0.927 2.365 1.751 2029
0.885 2.258 1.666 10093
0.931 2.376 1.748 2259
0.892 2.275 1.668 10441
0.938 2.392 1.749 2281
0.893 2.279 1.661 10840
0.940 2.397 1.742 2041
0.895 2.283 1.654 11240
0.941 2.401 1.734 1801
0.897 2.287 1.647 10546
0.943 2.406 1.727 1837
0.898 2.291 1.640 9853
0.954 2.435 1.736 2320
0.900 2.295 1.633 8700
0.949 2.420 1.716 3617
0.899 2.293 1.622 7705
0.951 2.425 1.709 5311
0.955 2.435 1.706 7827
0.903 2.303 1.619 6735
0.959 2.446 1.702 10712
0.907 2.313 1.616 6110
0.958 2.444 1.691 12144
0.908 2.318 1.609 5010
0.957 2.442 1.679 13807
0.910 2.321 1.602 3911
0.964 2.458 1.680 12129
0.912 2.325 1.594 2745
0.978 2.494 1.692 14443
0.913 2.329 1.587 1579
0.982 2.505 1.689 15537
1.029 2.626 1.765 1623
0.986 2.515 1.685 17735
1.033 2.636 1.761 1642
0.990 2.526 1.681 15237
1.038 2.647 1.757 1289
0.992 2.530 1.673 11896
1.039 2.651 1.748 1338
0.991 2.528 1.662 8654
1.039 2.649 1.736 2319
0.993 2.532 1.654 7624
1.040 2.654 1.728 3708
0.994 2.536 1.646 8488
1.042 2.658 1.720 4378
1.031 2.630 1.692 7410
0.983 2.508 1.619 3572
1.048 2.673 1.707 9627
1.000 2.551 1.634 5876
1.050 2.677 1.699 10840
1.002 2.555 1.626 4050
1.054 2.688 1.695 12082
1.006 2.565 1.622 1582
1.053 2.686 1.683 12587
1.101 2.809 1.755 1210
1.055 2.690 1.675 12172
1.103 2.813 1.746 1640
1.061 2.707 1.674 11686
1.110 2.830 1.745 1044
1.063 2.711 1.665 7778
1.111 2.835 1.736 1676
1.087 2.774 1.690 4946
1.039 2.650 1.620 1484
1.092 2.785 1.686 5327
1.043 2.661 1.615 1039
1.096 2.795 1.681 5520
1.145 2.920 1.750 1190
1.103 2.813 1.679 5446
1.151 2.937 1.749 1492
1.109 2.830 1.678 5472
1.158 2.954 1.747 1948
1.129 2.880 1.695 5183
1.080 2.755 1.626 1292
1.136 2.897 1.693 4573
1.087 2.773 1.625 1309
1.135 2.895 1.680 4678
1.184 3.020 1.748 1184
1.144 2.919 1.682 8246
1.095 2.794 1.615 1113
1.146 2.923 1.673 11931
1.195 3.049 1.740 1159
1.150 2.934 1.668 12507
1.101 2.808 1.601 1215
1.154 2.945 1.662 9772
1.174 2.995 1.677 7893
1.125 2.869 1.611 1352
1.163 2.966 1.651 7559
1.212 3.092 1.716 1306
1.164 2.970 1.642 6573
1.214 3.097 1.707 1833
1.197 3.054 1.673 5112
1.148 2.928 1.609 2522
1.202 3.065 1.667 4388
1.152 2.938 1.603 1915
1.214 3.096 1.671 4789
1.164 2.969 1.607 1080
1.215 3.100 1.662 6042
1.220 3.111 1.655 6569
1.170 2.984 1.592 1037
1.219 3.108 1.642 7691
1.220 3.112 1.633 10835
1.270 3.240 1.695 1218
1.222 3.116 1.623 10909
1.272 3.244 1.685 1926
1.226 3.127 1.617 9062
1.276 3.255 1.678 2092
1.257 3.205 1.643 7628
1.206 3.077 1.582 1410
1.261 3.216 1.636 11692
1.311 3.344 1.696 1344
1.268 3.234 1.632 10575
1.318 3.362 1.692 1641
1.280 3.265 1.635 8509
1.229 3.136 1.575 1369
1.284 3.276 1.628 9368
1.335 3.404 1.687 1227
1.286 3.280 1.618 9160
1.336 3.408 1.677 1357
1.287 3.284 1.608 6729
1.338 3.413 1.666 2317
1.313 3.349 1.625 8126
1.262 3.220 1.567 1495
1.314 3.353 1.615 8871
1.365 3.482 1.673 2527
1.351 3.445 1.644 7127
1.300 3.316 1.586 3283
1.350 3.443 1.630 8320
1.299 3.313 1.573 1408
1.346 3.433 1.613 7854
1.347 3.437 1.603 6675
1.368 3.489 1.613 7876
1.375 3.507 1.608 8854
1.382 3.524 1.603 7768
1.330 3.394 1.548 1038
1.389 3.542 1.598 6712
1.390 3.546 1.587 8308
1.441 3.677 1.641 1078
1.392 3.550 1.576 7962
1.443 3.681 1.629 1707
1.420 3.623 1.593 6914
1.369 3.492 1.539 1765
1.424 3.634 1.584 5678
1.476 3.765 1.637 1927
1.423 3.631 1.570 5634
1.475 3.762 1.623 3543
1.452 3.704 1.586 7260
1.400 3.572 1.534 2021
1.456 3.714 1.578 7040
1.405 3.583 1.526 1799
1.463 3.732 1.572 5226
1.515 3.864 1.623 2261
1.467 3.743 1.563 4988
1.519 3.875 1.614 2245
1.488 3.795 1.570 4000
1.436 3.663 1.519 2032
1.492 3.806 1.561 3657
1.440 3.674 1.511 1721
1.505 3.838 1.559 4513
1.453 3.706 1.510 2654
1.509 3.849 1.550 5332
1.561 3.981 1.599 2629
1.524 3.887 1.551 5440
1.576 4.020 1.600 1986
1.525 3.891 1.539 6119
1.577 4.024 1.587 2552
1.568 4.000 1.565 5291
1.516 3.867 1.517 3872
1.575 4.018 1.557 5229
1.523 3.885 1.510 2521
1.593 4.064 1.560 4968
1.541 3.931 1.513 3014
1.592 4.060 1.545 3869
1.644 4.193 1.591 3095
1.599 4.078 1.537 4195
1.651 4.211 1.583 1747
1.603 4.089 1.527 4381
1.663 4.243 1.580 1091
1.632 4.163 1.538 3744
1.580 4.029 1.493 1719
1.642 4.188 1.532 4116
1.589 4.054 1.487 1568
1.649 4.206 1.524 4472
1.701 4.339 1.569 1554
1.661 4.238 1.520 4093
1.714 4.372 1.564 1839
1.668 4.256 1.512 3597
1.721 4.389 1.555 1451
1.681 4.287 1.508 3319
1.704 4.348 1.512 4500
1.768 4.510 1.564 1009
1.711 4.366 1.503 5258
1.767 4.507 1.548 1671
1.716 4.376 1.492 5028
1.768 4.511 1.534 2318
1.717 4.380 1.479 4570
1.775 4.529 1.525 2804
1.718 4.384 1.465 2885
1.774 4.525 1.508 2300
1.767 4.508 1.488 2318
1.848 4.713 1.550 1432
1.771 4.519 1.476 2035
1.824 4.653 1.516 1757
1.856 4.735 1.525 2860
1.773 4.522 1.462 1903
1.858 4.739 1.510 4422
1.777 4.533 1.450 1744
1.859 4.743 1.496 4812
1.921 4.899 1.541 1222
1.869 4.768 1.487 5616
1.925 4.910 1.528 1710
1.882 4.800 1.480 6767
1.935 4.935 1.519 2314
1.886 4.811 1.467 5873
1.939 4.946 1.505 3261
1.954 4.986 1.500 5128
1.896 4.836 1.458 2878
1.953 4.982 1.482 5174
2.006 5.118 1.519 3389
1.955 4.986 1.467 4233
2.008 5.122 1.503 2459
2.004 5.111 1.484 2834
2.057 5.247 1.520 2663
2.044 5.215 1.494 3462
1.991 5.079 1.458 1299
2.085 5.319 1.504 5021
2.032 5.183 1.469 1788
2.089 5.330 1.489 4864
2.143 5.466 1.524 1880
2.108 5.376 1.484 2552
2.054 5.240 1.449 2133
2.112 5.387 1.469 2779
2.165 5.524 1.503 2159
2.161 5.513 1.482 3539
2.108 5.376 1.448 1919
2.157 5.502 1.461 2458
