-1.334 3.213 1.659 3681
-1.322 3.184 1.633 5595
-1.269 3.057 1.572 1601
-1.321 3.181 1.620 4352
-1.373 3.308 1.680 1098
-1.350 3.252 1.641 2682
-1.297 3.125 1.581 1424
-1.369 3.296 1.650 3897
-1.313 3.162 1.587 1477
-1.373 3.307 1.643 5037
-1.320 3.179 1.584 2415
-1.377 3.318 1.635 5303
-1.324 3.190 1.577 3500
-1.388 3.342 1.634 4696
-1.334 3.214 1.576 2707
-1.386 3.339 1.621 5679
-1.333 3.211 1.563 2056
-1.391 3.350 1.613 7618
-1.338 3.222 1.556 2259
-1.395 3.361 1.606 8818
-1.342 3.232 1.549 2262
-1.400 3.372 1.599 8649
-1.453 3.500 1.655 2627
-1.413 3.403 1.600 7278
-1.466 3.532 1.656 2978
-1.448 3.488 1.624 9174
-1.395 3.359 1.569 3730
-1.450 3.492 1.614 13027
-1.396 3.363 1.558 3422
-1.454 3.503 1.606 11426
-1.398 3.367 1.548 2452
-1.464 3.527 1.603 12401
-1.466 3.531 1.592 14748
-1.468 3.535 1.581 12403
-1.469 3.539 1.570 8953
-1.474 3.550 1.562 6475
-1.481 3.567 1.556 5905
-1.491 3.592 1.554 5125
-1.501 3.616 1.551 5701
-1.503 3.620 1.539 6740
-0.946 2.279 1.013 1715
-1.507 3.630 1.531 7307
-0.950 2.289 1.009 2371
-1.503 3.620 1.514 8059
-0.954 2.298 1.004 1931
-1.502 3.617 1.500 13509
-0.961 2.314 1.003 1355
-1.506 3.628 1.491 14137
-1.678 4.042 1.648 1745
-1.510 3.638 1.483 11318
-1.683 4.053 1.638 1848
-1.512 3.642 1.471 9385
-1.693 4.078 1.633 2314
-1.516 3.652 1.463 6450
-1.695 4.082 1.620 2753
-1.518 3.656 1.451 5709
-1.699 4.093 1.610 2660
-1.519 3.659 1.440 4232
-1.706 4.110 1.602 2292
-1.521 3.663 1.428 2648
-1.731 4.170 1.609 2637
-1.736 4.181 1.599 3699
-1.681 4.049 1.552 2208
-1.734 4.178 1.583 4363
-1.680 4.046 1.537 1548
-1.739 4.189 1.573 6522
-1.684 4.056 1.527 1008
-1.743 4.199 1.562 8711
-1.833 4.415 1.636 1113
-1.742 4.196 1.546 6901
-1.829 4.406 1.618 1804
-1.747 4.207 1.536 4046
-1.834 4.416 1.606 2181
-1.835 4.420 1.592 3913
-1.763 4.246 1.534 3274
-1.834 4.417 1.576 6054
-1.761 4.242 1.519 3864
-1.838 4.428 1.565 6465
-1.763 4.246 1.505 3168
-1.843 4.439 1.553 4242
-1.901 4.579 1.598 2239
-1.903 4.583 1.584 2630
-1.842 4.436 1.537 1636
-1.849 4.454 1.528 2301
-1.913 4.608 1.576 1795
-1.850 4.457 1.514 2716
-1.973 4.752 1.606 2632
-1.975 4.756 1.591 3126
-1.896 4.566 1.532 2749
-1.979 4.767 1.578 3208
-1.900 4.577 1.520 2217
-1.984 4.778 1.565 3402
-2.060 4.961 1.621 1804
-2.085 5.022 1.622 2568
-1.982 4.775 1.548 2012
-2.078 5.004 1.600 2264
-1.981 4.772 1.531 1836
-2.076 5.001 1.582 2983
-1.991 4.797 1.522 2031
-2.104 5.069 1.585 3720
-1.999 4.814 1.512 1977
-2.100 5.059 1.565 4254
-2.165 5.214 1.609 3258
-2.166 5.218 1.593 3343
-2.102 5.062 1.549 3328
-2.200 5.300 1.598 4146
-2.144 5.165 1.561 1808
-2.202 5.304 1.582 4347
-2.264 5.453 1.622 1829
-2.177 5.244 1.548 3592
-2.233 5.379 1.584 2891
-2.196 5.290 1.543 3841
-2.267 5.460 1.588 3161
-2.272 5.471 1.573 4959
-2.204 5.308 1.530 4738
-2.273 5.475 1.556 5332
-2.217 5.340 1.521 3122
-2.325 5.600 1.570 4517
-2.269 5.465 1.535 3011
-2.329 5.611 1.554 3827
-2.273 5.476 1.520 1871
-2.346 5.650 1.546 3361
-2.402 5.786 1.580 2353
-2.350 5.661 1.530 3312
-2.445 5.889 1.586 3307
-2.464 5.936 1.578 3976
-2.399 5.779 1.540 2351
-2.466 5.940 1.560 3681
-2.356 5.676 1.496 1874
-2.471 5.951 1.543 2971
-2.545 6.129 1.585 1806
-2.478 5.969 1.527 3056
-2.549 6.140 1.568 1512
-2.477 5.965 1.507 2673
-2.581 6.216 1.565 1502
-2.582 6.220 1.545 1823
-2.478 5.969 1.488 1676
-2.613 6.295 1.542 1767
-2.557 6.159 1.511 1147
-2.612 6.291 1.521 1695
-2.605 6.274 1.496 1964
-2.694 6.489 1.543 1696
-2.669 6.428 1.509 2539
-2.606 6.277 1.477 2267
-2.676 6.446 1.492 2281
-2.733 6.582 1.521 1933
-2.734 6.586 1.500 2119
-2.806 6.758 1.536 1771
-2.822 6.798 1.522 3280
-2.751 6.626 1.487 2568
-2.824 6.802 1.501 2983
-2.749 6.622 1.464 2174
-2.846 6.856 1.489 1676
-2.789 6.719 1.462 1544
-2.800 6.744 1.445 1908
-2.887 6.953 1.486 1708
-2.885 6.949 1.463 2081
-2.801 6.748 1.424 1841
-2.913 7.018 1.453 1509
-3.003 7.234 1.494 1215
-2.930 7.057 1.438 1458
-3.076 7.410 1.503 1244
-3.138 7.558 1.506 1841
-2.934 7.068 1.417 1548
-3.145 7.576 1.485 1612
-2.906 6.999 1.382 1347
-3.159 7.609 1.466 1317
-2.913 7.017 1.362 1143
-3.406 8.204 1.545 1845
-3.163 7.619 1.444 1373
-3.411 8.215 1.520 2712
-3.168 7.630 1.421 1620
-3.409 8.212 1.493 3126
-3.283 7.908 1.443 1999
-3.411 8.215 1.467 2797
-3.345 8.056 1.441 1793
-3.415 8.226 1.443 2597
-3.352 8.074 1.418 1788
-3.414 8.222 1.416 2808
-3.354 8.078 1.393 1206
-3.415 8.226 1.390 2438
-3.580 8.624 1.451 1595
-3.582 8.627 1.424 1645
-3.416 8.229 1.364 1408
-3.595 8.660 1.401 1303
-0.383 0.922 0.161 1223
-0.386 0.929 0.159 1580
-0.383 0.922 0.156 1978
-0.383 0.922 0.153 2605
-0.386 0.930 0.150 2849
-0.383 0.922 0.148 2990
-0.383 0.922 0.145 3139
-0.383 0.922 0.142 2975
-0.383 0.922 0.139 2772
-0.383 0.922 0.137 2411
-0.383 0.922 0.134 1994
-0.383 0.922 0.131 1620
-0.383 0.922 0.128 1094
-0.839 2.039 1.680 3676
-0.841 2.043 1.674 7352
-0.843 2.047 1.668 7352
-0.844 2.052 1.661 9631
-0.848 2.062 1.660 11980
-0.848 2.060 1.649 13225
-0.895 2.174 1.735 1157
-0.849 2.064 1.642 14541
-0.896 2.178 1.728 1753
-0.851 2.068 1.636 11873
-0.898 2.183 1.721 1753
-0.850 2.066 1.625 9294
-0.897 2.181 1.710 3042
-0.879 2.136 1.668 10588
-0.832 2.021 1.583 1647
-0.883 2.147 1.666 9759
-0.836 2.031 1.582 1805
-0.888 2.157 1.663 9120
-0.840 2.041 1.580 1499
-0.887 2.155 1.652 12139
-0.886 2.153 1.641 15462
-0.934 2.269 1.724 1284
-0.888 2.157 1.635 16007
-0.936 2.273 1.717 1862
-0.889 2.161 1.628 16551
-0.937 2.277 1.710 2439
-0.891 2.165 1.621 15346
-0.939 2.282 1.703 2367
-0.893 2.169 1.615 14141
-0.941 2.286 1.696 2080
-0.894 2.173 1.608 14141
-0.955 2.321 1.711 2088
-0.896 2.177 1.601 12480
-0.954 2.319 1.699 2786
-0.898 2.181 1.595 10819
-0.956 2.323 1.692 3493
-0.897 2.179 1.584 8254
-0.960 2.334 1.689 3730
-0.896 2.176 1.573 6100
-0.944 2.294 1.652 4445
-0.943 2.292 1.641 5049
-0.895 2.174 1.562 4444
-0.945 2.296 1.634 5455
-0.896 2.178 1.555 2940
-0.972 2.363 1.668 6572
-0.900 2.188 1.553 2279
-0.977 2.373 1.665 8048
-0.905 2.198 1.550 1723
-0.981 2.383 1.662 8931
-0.906 2.202 1.543 1149
-0.985 2.394 1.659 10341
-0.989 2.404 1.655 9691
-1.039 2.524 1.732 1083
-0.996 2.421 1.656 9469
-1.046 2.540 1.733 1124
-0.995 2.419 1.644 6793
-1.045 2.538 1.721 1568
-1.028 2.498 1.685 5259
-0.979 2.378 1.609 1973
-0.999 2.427 1.629 5436
-1.048 2.547 1.705 2467
-1.003 2.437 1.626 6599
-1.053 2.558 1.701 2932
-1.005 2.441 1.618 6471
-1.065 2.587 1.709 3574
-1.009 2.451 1.615 4880
-1.074 2.610 1.713 3977
-1.047 2.545 1.662 3963
-0.997 2.423 1.588 1652
-1.052 2.555 1.658 4081
-1.002 2.434 1.584 1299
-1.056 2.566 1.654 4364
-1.058 2.570 1.646 4751
-1.108 2.691 1.718 1253
-1.059 2.574 1.638 5065
-1.109 2.696 1.710 1892
-1.093 2.655 1.675 6491
-1.042 2.533 1.603 2246
-1.094 2.659 1.667 8495
-1.145 2.781 1.739 1885
-1.096 2.663 1.659 8508
-1.146 2.786 1.730 2322
-1.103 2.680 1.658 6759
-1.153 2.803 1.729 2009
-1.110 2.697 1.657 6448
-1.161 2.820 1.728 2169
-1.117 2.714 1.656 5305
-1.168 2.837 1.726 2122
-1.156 2.809 1.699 3981
-1.105 2.686 1.629 1779
-1.158 2.813 1.690 5154
-1.088 2.644 1.595 1120
-1.165 2.830 1.689 5676
-1.169 2.841 1.684 4803
-1.203 2.924 1.718 5217
-1.152 2.800 1.650 2057
-1.202 2.921 1.705 6358
-1.146 2.784 1.630 1847
-1.201 2.919 1.693 7474
-1.145 2.782 1.618 1559
-1.200 2.917 1.680 7490
-1.149 2.792 1.613 1117
-1.205 2.927 1.675 6161
-1.153 2.803 1.608 1290
-1.196 2.905 1.652 5346
-1.247 3.030 1.718 3458
-1.197 2.909 1.642 6310
-1.249 3.034 1.708 4283
-1.204 2.926 1.640 7626
-1.256 3.052 1.706 5618
-1.250 3.036 1.686 10217
-1.198 2.911 1.621 5874
-1.246 3.027 1.670 13425
-1.194 2.901 1.605 4171
-1.253 3.044 1.667 12477
-1.201 2.919 1.603 4142
-1.255 3.049 1.658 14440
-1.203 2.923 1.594 2868
-1.256 3.053 1.648 18503
-1.204 2.927 1.585 1600
-1.258 3.057 1.639 20064
-1.262 3.067 1.633 16027
-1.267 3.078 1.626 11059
-1.319 3.205 1.689 1276
-1.271 3.089 1.620 8485
-1.323 3.216 1.682 2315
-1.273 3.093 1.610 7433
-1.325 3.220 1.672 2810
-1.272 3.090 1.598 5397
-1.324 3.217 1.659 2962
-1.312 3.188 1.633 5506
-1.260 3.060 1.572 1636
-1.311 3.185 1.620 4753
-1.363 3.313 1.680 1126
-1.326 3.223 1.625 2882
-1.379 3.350 1.685 1014
-1.361 3.307 1.653 3970
-1.303 3.166 1.587 1811
-1.366 3.318 1.646 5024
-1.307 3.177 1.581 2819
-1.367 3.322 1.635 5083
-1.312 3.187 1.574 4066
-1.366 3.319 1.622 4319
-1.313 3.191 1.564 3559
-1.348 3.276 1.590 5290
-1.410 3.425 1.657 2836
-1.378 3.348 1.610 6466
-1.431 3.476 1.668 1749
-1.382 3.358 1.603 7007
-1.435 3.487 1.660 2034
-1.401 3.403 1.610 8043
-1.342 3.261 1.548 2032
-1.402 3.407 1.600 7015
-1.455 3.536 1.656 2975
-1.435 3.486 1.622 9844
-1.381 3.357 1.566 4190
-1.439 3.497 1.614 14869
-1.386 3.367 1.558 3474
-1.443 3.507 1.606 13728
-1.390 3.378 1.551 2254
-1.451 3.525 1.600 14265
-1.397 3.395 1.546 1109
-1.455 3.536 1.592 15503
-1.457 3.540 1.581 12228
-1.458 3.544 1.570 8482
-1.460 3.547 1.559 6029
-1.514 3.678 1.612 1014
-1.467 3.565 1.554 5582
-1.480 3.596 1.554 6290
-0.906 2.202 0.997 1100
-1.487 3.614 1.548 5607
-1.489 3.618 1.537 5524
-0.939 2.282 1.013 1640
-1.493 3.628 1.528 5997
-0.940 2.285 1.006 2115
-1.495 3.632 1.517 5874
-0.944 2.294 1.002 1513
-1.493 3.629 1.503 9159
-1.661 4.036 1.658 1036
-1.495 3.632 1.491 9748
-1.663 4.040 1.645 1987
-1.499 3.643 1.483 7307
-1.664 4.044 1.633 1878
-1.501 3.647 1.471 5717
-1.683 4.090 1.636 2366
-1.505 3.657 1.463 4017
-1.682 4.087 1.620 3580
-1.686 4.098 1.610 4678
-1.507 3.661 1.451 3458
-1.694 4.116 1.602 4334
-1.508 3.664 1.440 2645
-1.695 4.120 1.590 2705
-1.509 3.668 1.428 1991
-1.723 4.186 1.599 3272
-1.668 4.054 1.552 2119
-1.722 4.183 1.583 4631
-1.667 4.051 1.537 1623
-1.726 4.194 1.573 6891
-1.671 4.061 1.527 1270
-1.730 4.205 1.562 9528
-1.676 4.072 1.517 1084
-1.726 4.195 1.544 7725
-1.815 4.411 1.618 1302
-1.728 4.198 1.531 4131
-1.823 4.429 1.608 1775
-1.824 4.433 1.595 3258
-1.747 4.244 1.532 2799
-1.823 4.430 1.578 4770
-1.745 4.241 1.516 4054
-1.828 4.441 1.567 4813
-1.744 4.238 1.501 3772
-1.832 4.452 1.555 4092
-1.748 4.248 1.490 2181
-1.834 4.456 1.541 3087
-1.891 4.596 1.586 3025
-1.835 4.459 1.528 2810
-1.893 4.600 1.572 2577
-1.837 4.463 1.514 2541
-1.895 4.604 1.557 2423
-1.893 4.600 1.541 3676
-1.960 4.762 1.591 3143
-1.964 4.773 1.578 3151
-1.892 4.597 1.524 2695
-1.969 4.784 1.565 3300
-2.076 5.045 1.644 1683
-2.069 5.028 1.622 2581
-2.011 4.887 1.580 2486
-2.013 4.891 1.564 2870
-2.083 5.060 1.614 2401
-2.093 5.085 1.605 2892
-2.011 4.888 1.547 2588
-2.092 5.082 1.587 3965
-2.013 4.891 1.532 2164
-2.149 5.221 1.609 4753
-2.087 5.072 1.567 4179
-2.153 5.232 1.595 5708
-2.095 5.090 1.555 3421
-2.155 5.236 1.579 4184
-2.099 5.101 1.541 1961
-2.188 5.318 1.584 4675
-2.244 5.452 1.621 1651
-2.161 5.250 1.548 4892
-2.216 5.385 1.584 2542
-2.177 5.290 1.541 3870
-2.253 5.475 1.590 2944
-2.252 5.471 1.571 5282
-2.187 5.315 1.530 4547
-2.253 5.475 1.554 5739
-2.198 5.340 1.519 3033
-2.308 5.607 1.570 3988
-2.252 5.472 1.535 3406
-2.312 5.618 1.554 3260
-2.256 5.483 1.520 2216
-2.325 5.650 1.544 3291
-2.267 5.508 1.508 2052
-2.330 5.661 1.528 3400
-2.436 5.918 1.591 3204
-2.446 5.944 1.578 3681
-2.329 5.658 1.508 2114
-2.451 5.955 1.561 3416
-2.339 5.683 1.496 1717
-2.458 5.973 1.546 3221
-2.514 6.109 1.578 1706
-2.466 5.991 1.531 3688
-2.533 6.155 1.569 1518
-2.473 6.009 1.515 3149
-2.555 6.209 1.562 1359
-2.557 6.213 1.542 2298
-2.486 6.041 1.503 2099
-2.559 6.217 1.523 2439
-2.584 6.278 1.516 1669
-2.652 6.443 1.552 1067
-2.579 6.267 1.493 2278
-2.650 6.440 1.531 1626
-2.590 6.292 1.478 2483
-2.649 6.436 1.509 2444
-2.656 6.454 1.492 2244
-2.600 6.318 1.463 2180
-2.667 6.479 1.476 2210
-2.782 6.760 1.534 1903
-2.798 6.799 1.520 3426
-2.727 6.627 1.485 2020
-2.803 6.810 1.501 2914
-2.729 6.630 1.464 2126
-2.730 6.634 1.444 1724
-2.825 6.864 1.489 1353
-2.779 6.753 1.445 1695
-2.865 6.962 1.486 1373
-2.861 6.951 1.461 1846
-2.784 6.763 1.425 1687
-2.984 7.250 1.495 1820
-2.847 6.918 1.433 1519
-2.911 7.073 1.439 1935
-2.970 7.218 1.466 1339
-2.912 7.077 1.417 2002
-3.115 7.568 1.506 1869
-3.116 7.571 1.483 1692
-2.926 7.109 1.400 1423
-3.126 7.597 1.463 1261
-2.894 7.033 1.364 1204
-3.381 8.215 1.545 1491
-3.223 7.832 1.479 1461
-3.385 8.226 1.520 2162
-3.147 7.647 1.422 1404
-3.387 8.229 1.494 2386
-3.259 7.918 1.443 1713
-3.385 8.226 1.467 1844
-3.323 8.074 1.443 1513
-3.387 8.229 1.441 1779
-3.327 8.085 1.418 1624
-3.388 8.233 1.416 2186
-3.558 8.646 1.480 1232
-3.387 8.229 1.389 1749
-3.551 8.628 1.450 1582
-3.549 8.624 1.421 1509
-3.578 8.693 1.404 1289
-3.579 8.696 1.377 1019
-0.380 0.923 0.161 1474
-0.383 0.931 0.159 1870
-0.380 0.923 0.156 2271
-0.380 0.923 0.153 2888
-0.383 0.931 0.150 3098
-0.380 0.923 0.148 3216
-0.380 0.923 0.145 3338
-0.380 0.923 0.142 3133
-0.380 0.923 0.139 2885
-0.380 0.923 0.137 2447
-0.380 0.923 0.134 1976
-0.380 0.923 0.131 1592
-0.380 0.923 0.128 1065
-0.833 2.042 1.680 2774
-0.835 2.046 1.674 5548
-0.837 2.050 1.668 5548
-0.838 2.054 1.661 8303
-0.842 2.064 1.660 11186
-0.842 2.062 1.649 12103
-0.888 2.177 1.735 1000
-0.843 2.066 1.642 13149
-0.890 2.181 1.728 1472
-0.845 2.070 1.636 10927
-0.892 2.185 1.721 1472
-0.874 2.141 1.679 9144
-0.827 2.026 1.594 2204
-0.875 2.145 1.672 9630
-0.828 2.030 1.588 2204
-0.877 2.149 1.666 9502
-0.830 2.034 1.582 1518
-0.879 2.153 1.659 9374
-0.878 2.151 1.648 13613
-0.925 2.267 1.731 1025
-0.880 2.156 1.641 17942
-0.927 2.272 1.724 1252
-0.881 2.160 1.635 18050
-0.929 2.276 1.717 1944
-0.883 2.164 1.628 18159
-0.930 2.280 1.710 2637
-0.885 2.168 1.621 16118
-0.932 2.284 1.703 2586
-0.886 2.172 1.615 14077
-0.936 2.295 1.701 2397
-0.888 2.176 1.608 14077
-0.941 2.305 1.698 2439
-0.889 2.180 1.601 12583
-0.947 2.322 1.699 3010
-0.891 2.183 1.595 11089
-0.952 2.332 1.696 3723
-0.890 2.181 1.584 8777
-0.956 2.343 1.693 3915
-0.889 2.179 1.573 6945
-0.960 2.353 1.690 4338
-0.891 2.183 1.566 5395
-0.962 2.357 1.683 4657
-0.938 2.299 1.634 5073
-0.890 2.180 1.555 3894
-0.965 2.365 1.668 6229
-0.894 2.190 1.553 2973
-0.967 2.370 1.661 7482
-0.898 2.201 1.550 2151
-0.974 2.386 1.662 8078
-0.900 2.204 1.543 1379
-0.978 2.397 1.659 9272
-0.982 2.407 1.655 8593
-1.031 2.527 1.732 1054
-0.989 2.424 1.656 8446
-1.038 2.544 1.733 1013
-0.991 2.428 1.648 6299
-1.040 2.548 1.725 1100
-1.021 2.502 1.685 4665
-0.972 2.381 1.609 2011
-0.991 2.430 1.629 5728
-1.041 2.550 1.705 2265
-0.996 2.440 1.626 6608
-1.045 2.561 1.701 2837
-0.997 2.444 1.618 6128
-1.057 2.590 1.709 3737
-1.002 2.454 1.615 4473
-1.064 2.607 1.709 4325
-1.066 2.612 1.701 3647
-1.003 2.458 1.607 2864
-1.047 2.565 1.661 4218
-0.997 2.443 1.588 1350
-1.046 2.562 1.650 5265
-1.050 2.573 1.646 5521
-1.100 2.695 1.718 1380
-1.052 2.577 1.638 5556
-1.101 2.699 1.710 2158
-1.085 2.658 1.675 6361
-1.035 2.536 1.603 2215
-1.086 2.662 1.667 7985
-1.136 2.785 1.739 2173
-1.091 2.673 1.662 7894
-1.141 2.795 1.734 2195
-1.098 2.690 1.662 6487
-1.148 2.813 1.733 1617
-1.105 2.707 1.661 6310
-1.155 2.830 1.731 1577
-1.106 2.711 1.652 5342
-1.157 2.834 1.723 1860
-1.148 2.813 1.699 3713
-1.097 2.689 1.629 1936
-1.149 2.817 1.690 4825
-1.080 2.648 1.595 1099
-1.154 2.827 1.685 5339
-1.204 2.951 1.754 1078
-1.190 2.916 1.723 4858
-1.140 2.792 1.655 2961
-1.192 2.921 1.714 6160
-1.141 2.797 1.646 3203
-1.194 2.925 1.705 6658
-1.140 2.794 1.634 3009
-1.193 2.923 1.693 6192
-1.142 2.798 1.625 2101
-1.192 2.920 1.680 5583
-1.141 2.796 1.613 1234
-1.209 2.964 1.692 5177
-1.158 2.839 1.625 1829
-1.214 2.975 1.686 5288
-1.163 2.850 1.620 2102
-1.191 2.919 1.646 5236
-1.242 3.045 1.712 4093
-1.196 2.930 1.640 6501
-1.247 3.055 1.706 5530
-1.240 3.040 1.686 10216
-1.189 2.914 1.621 4983
-1.239 3.037 1.673 13496
-1.188 2.912 1.609 3697
-1.244 3.048 1.667 12854
-1.192 2.922 1.603 3786
-1.246 3.052 1.658 15094
-1.194 2.926 1.594 2968
-1.245 3.050 1.645 19059
-1.193 2.923 1.581 1511
-1.246 3.054 1.635 20668
-1.298 3.180 1.698 1021
-1.251 3.065 1.629 16252
-1.302 3.191 1.692 1044
-1.260 3.089 1.630 11446
-1.209 2.962 1.567 1196
-1.262 3.093 1.620 9219
-1.314 3.220 1.682 1525
-1.266 3.103 1.614 7931
-1.318 3.230 1.675 1837
-1.265 3.101 1.601 5392
-1.317 3.228 1.662 1945
-1.300 3.185 1.629 5286
-1.248 3.057 1.569 1328
-1.301 3.189 1.620 5087
-1.353 3.317 1.680 1069
-1.311 3.213 1.619 3328
-1.363 3.341 1.679 1680
-1.351 3.311 1.653 4195
-1.296 3.177 1.590 2057
-1.356 3.322 1.646 5089
-1.298 3.181 1.581 2979
-1.363 3.340 1.642 4877
-1.302 3.191 1.574 4081
-1.351 3.310 1.616 4080
-1.298 3.182 1.558 3413
-1.341 3.287 1.593 4827
-1.397 3.422 1.654 3085
-1.371 3.359 1.613 4948
-1.318 3.230 1.556 2112
-1.389 3.403 1.621 6341
-1.333 3.268 1.561 3926
-1.390 3.407 1.610 8141
-1.335 3.271 1.551 2184
-1.392 3.411 1.600 6749
-1.445 3.540 1.656 2526
-1.424 3.490 1.622 9561
-1.371 3.361 1.566 3665
-1.426 3.494 1.611 14857
-1.373 3.365 1.555 3537
-1.433 3.512 1.606 14001
-1.377 3.375 1.548 2253
-1.440 3.529 1.600 14285
-0.897 2.197 1.041 1422
-1.445 3.540 1.592 14758
-0.900 2.207 1.037 1185
-1.446 3.544 1.581 10900
-0.896 2.195 1.024 1426
-1.448 3.548 1.570 7104
-0.897 2.198 1.017 1849
-1.449 3.552 1.559 5150
-0.895 2.193 1.008 1711
-1.459 3.576 1.556 5065
-0.893 2.189 0.998 1492
-1.469 3.601 1.554 6395
-0.897 2.198 0.994 1316
-1.474 3.611 1.545 5125
-0.898 2.200 0.988 1113
-1.478 3.622 1.537 4464
-0.930 2.278 1.011 1372
-1.482 3.633 1.528 4615
-0.933 2.287 1.006 1736
-1.484 3.636 1.517 4043
-0.901 2.207 0.967 1341
-1.483 3.633 1.503 5718
-1.598 3.917 1.611 1039
-1.484 3.637 1.491 6371
-1.648 4.038 1.643 1913
-1.488 3.647 1.483 4461
-1.579 3.869 1.566 2182
-1.490 3.651 1.471 3003
-1.583 3.880 1.556 2704
-1.670 4.092 1.620 3859
-1.588 3.891 1.547 2218
-1.674 4.103 1.610 5706
-1.496 3.665 1.451 1833
-1.679 4.114 1.600 5651
-1.611 3.947 1.540 1568
-1.680 4.118 1.587 3753
-1.615 3.958 1.530 1645
-1.671 4.094 1.564 3430
-1.500 3.676 1.417 1335
-1.706 4.181 1.581 4609
-1.652 4.049 1.535 1652
-1.714 4.199 1.573 6249
-1.648 4.038 1.517 1799
-1.718 4.210 1.562 8795
-1.664 4.077 1.517 1237
-1.714 4.200 1.544 7619
-1.712 4.197 1.529 4233
-1.812 4.442 1.611 1359
-1.811 4.438 1.595 2656
-1.717 4.207 1.518 2369
-1.810 4.435 1.578 3796
-1.730 4.239 1.514 3768
-1.728 4.236 1.499 4361
-1.814 4.446 1.567 3669
-1.819 4.457 1.555 4152
-1.730 4.239 1.485 2923
-1.820 4.461 1.541 4510
-1.875 4.595 1.584 3335
-1.822 4.465 1.528 3289
-1.879 4.605 1.572 3200
-1.881 4.609 1.557 2934
-1.821 4.461 1.511 2476
-1.880 4.606 1.541 3985
-1.943 4.761 1.589 2712
-1.881 4.610 1.527 2972
-1.950 4.779 1.578 2706
-1.955 4.790 1.565 2756
-1.894 4.642 1.521 1646
-1.997 4.893 1.580 3140
-2.063 5.055 1.628 2397
-1.995 4.890 1.562 3781
-2.067 5.066 1.614 2941
-2.078 5.092 1.605 3408
-1.994 4.886 1.545 3274
-2.079 5.096 1.589 3649
-1.996 4.890 1.530 2319
-2.136 5.234 1.611 5469
-2.072 5.078 1.567 3576
-2.138 5.238 1.595 7546
-2.083 5.103 1.557 3390
-2.145 5.256 1.582 5643
-2.090 5.121 1.545 2246
-2.149 5.267 1.568 5585
-2.207 5.409 1.607 2211
-2.145 5.257 1.548 6451
-2.209 5.413 1.590 2953
-2.155 5.282 1.537 4310
-2.214 5.424 1.575 2799
-2.233 5.471 1.569 4925
-2.171 5.321 1.530 3758
-2.234 5.475 1.552 5619
-2.289 5.610 1.587 2417
-2.239 5.486 1.537 3497
-2.294 5.621 1.572 3059
-2.249 5.511 1.525 2687
-2.304 5.646 1.560 2176
-2.312 5.665 1.546 3031
-2.250 5.515 1.508 1998
-2.424 5.940 1.595 3390
-2.310 5.661 1.526 3199
-2.431 5.958 1.580 3454
-2.309 5.658 1.507 2069
-2.439 5.976 1.565 3318
-2.383 5.840 1.532 1578
-2.443 5.987 1.548 3511
-2.499 6.123 1.580 1618
-2.448 5.998 1.531 3715
-2.515 6.163 1.569 1554
-2.458 6.023 1.517 3617
-2.534 6.210 1.560 1287
-2.538 6.221 1.542 2562
-2.468 6.049 1.503 2499
-2.543 6.232 1.524 3013
-2.481 6.081 1.490 1378
-2.565 6.286 1.516 2250
-2.629 6.444 1.551 1241
-2.569 6.297 1.498 2598
-2.631 6.447 1.531 1684
-2.571 6.300 1.478 2626
-2.633 6.451 1.510 2248
-2.584 6.333 1.464 2318
-2.640 6.469 1.493 2111
-2.650 6.494 1.477 2432
-2.765 6.775 1.536 1954
-2.775 6.801 1.519 3322
-2.652 6.498 1.457 1750
-2.785 6.826 1.502 2708
-2.703 6.624 1.461 2090
-2.710 6.642 1.444 1742
-2.766 6.779 1.471 1178
-2.765 6.775 1.448 1450
-2.841 6.963 1.485 1325
-2.837 6.952 1.460 1879
-2.766 6.779 1.427 1651
-2.962 7.259 1.495 1860
-2.827 6.927 1.433 1745
-2.890 7.082 1.439 2052
-2.955 7.241 1.469 1427
-2.888 7.078 1.416 2101
-3.089 7.570 1.505 1905
-3.085 7.559 1.479 1820
-2.958 7.248 1.423 1580
-2.974 7.288 1.407 1583
-3.198 7.837 1.503 1526
-3.197 7.834 1.477 1991
-2.978 7.298 1.385 1442
-3.361 8.236 1.520 1855
-3.198 7.837 1.453 1449
-3.362 8.240 1.494 2046
-3.235 7.928 1.443 1391
-3.364 8.243 1.468 1414
-3.299 8.084 1.443 1165
-3.303 8.094 1.418 1352
-3.362 8.239 1.441 1301
-3.364 8.243 1.416 1733
-3.535 8.664 1.481 1231
-3.525 8.638 1.450 1376
-3.362 8.239 1.389 1370
-3.523 8.635 1.421 1232
-3.560 8.725 1.407 1394
-3.553 8.707 1.377 1155
-0.377 0.924 0.161 1513
-0.380 0.932 0.159 1898
-0.377 0.924 0.156 2268
-0.377 0.924 0.153 2825
-0.377 0.925 0.150 2998
-0.377 0.925 0.148 3089
-0.377 0.925 0.145 3161
-0.377 0.925 0.142 2939
-0.377 0.925 0.139 2680
-0.377 0.925 0.137 2232
-0.377 0.925 0.134 1773
-0.377 0.925 0.131 1404
-0.833 2.069 1.699 2398
-0.835 2.074 1.692 4797
-0.836 2.078 1.686 4797
-0.838 2.082 1.680 7481
-0.837 2.080 1.669 10232
-0.832 2.066 1.649 10668
-0.878 2.181 1.735 1058
-0.833 2.070 1.642 11325
-0.879 2.185 1.728 1410
-0.859 2.135 1.681 10185
-0.813 2.020 1.596 1228
-0.863 2.145 1.679 9347
-0.817 2.030 1.594 1829
-0.865 2.149 1.672 8652
-0.819 2.034 1.588 1829
-0.864 2.147 1.661 9593
-0.866 2.152 1.655 10783
-0.868 2.156 1.648 15850
-0.914 2.272 1.731 1074
-0.867 2.154 1.637 20927
-0.914 2.270 1.720 1513
-0.868 2.158 1.630 20569
-0.915 2.274 1.713 2338
-0.870 2.162 1.624 20211
-0.917 2.279 1.706 3163
-0.874 2.172 1.621 16872
-0.921 2.289 1.703 3051
-0.876 2.176 1.615 13679
-0.923 2.293 1.696 2951
-0.877 2.180 1.608 13679
-0.927 2.304 1.693 3015
-0.879 2.184 1.601 12368
-0.931 2.314 1.691 3353
-0.881 2.188 1.595 11057
-0.940 2.337 1.696 3976
-0.880 2.185 1.584 9136
-0.945 2.347 1.693 4340
-0.876 2.177 1.569 7850
-0.949 2.358 1.690 4810
-0.878 2.181 1.562 6420
-0.951 2.362 1.683 4952
-0.955 2.372 1.680 5102
-0.879 2.185 1.555 4991
-0.954 2.370 1.668 6027
-0.883 2.195 1.553 3764
-0.956 2.374 1.661 6960
-0.887 2.205 1.550 2619
-0.962 2.391 1.662 7015
-0.889 2.209 1.543 1628
-0.966 2.401 1.659 7781
-1.015 2.521 1.736 1050
-0.973 2.418 1.659 7303
-0.985 2.447 1.668 7690
-0.979 2.433 1.648 6241
-1.027 2.553 1.725 1053
-0.978 2.430 1.637 5151
-1.027 2.551 1.713 1571
-0.980 2.434 1.629 6321
-1.028 2.555 1.705 2223
-0.981 2.438 1.622 6461
-1.030 2.559 1.697 2875
-0.986 2.449 1.618 5617
-1.047 2.602 1.713 3889
-1.049 2.606 1.705 4923
-0.987 2.453 1.611 3894
-1.053 2.617 1.701 4437
-0.991 2.463 1.607 2198
-1.037 2.576 1.665 4371
-0.988 2.454 1.592 1372
-1.033 2.567 1.650 5998
-1.035 2.571 1.642 6038
-1.084 2.693 1.715 1895
-1.037 2.575 1.634 5704
-1.086 2.698 1.706 2977
-1.072 2.663 1.675 6555
-1.023 2.541 1.603 2066
-1.076 2.674 1.671 7523
-1.126 2.797 1.742 1996
-1.078 2.678 1.662 7092
-1.127 2.801 1.734 2372
-1.087 2.702 1.665 6279
-1.137 2.825 1.736 1156
-1.092 2.712 1.661 6227
-1.141 2.835 1.731 1145
-1.093 2.716 1.652 5497
-1.143 2.840 1.723 1496
-1.132 2.811 1.695 3590
-1.082 2.688 1.626 2180
-1.133 2.816 1.687 4562
-1.183 2.940 1.756 1152
-1.138 2.826 1.682 5088
-1.187 2.950 1.751 1446
-1.173 2.916 1.720 5383
-1.123 2.791 1.651 4217
-1.178 2.926 1.714 6687
-1.128 2.802 1.646 5313
-1.179 2.931 1.705 6544
-1.129 2.806 1.638 4919
-1.184 2.941 1.700 5260
-1.134 2.817 1.632 3270
-1.188 2.952 1.694 4165
-1.138 2.827 1.627 2086
-1.198 2.976 1.696 5449
-1.147 2.851 1.629 2222
-1.199 2.980 1.686 6023
-1.149 2.855 1.620 1613
-1.199 2.978 1.674 5293
-1.137 2.826 1.594 1301
-1.195 2.969 1.658 5476
-1.245 3.095 1.723 1692
-1.226 3.046 1.686 9370
-1.175 2.920 1.621 3773
-1.225 3.043 1.673 12594
-1.174 2.917 1.609 2638
-1.229 3.054 1.667 12409
-1.178 2.928 1.603 3292
-1.231 3.058 1.658 14541
-1.180 2.932 1.594 2947
-1.230 3.056 1.645 18526
-1.179 2.929 1.581 1466
-1.231 3.060 1.635 20412
-1.233 3.064 1.626 15923
-1.245 3.095 1.630 11904
-1.194 2.968 1.567 1272
-1.250 3.105 1.623 9617
-1.254 3.116 1.617 7911
-1.203 2.989 1.555 1010
-1.256 3.120 1.607 5462
-1.204 2.992 1.546 1070
-1.284 3.191 1.629 5069
-1.233 3.063 1.569 1762
-1.286 3.195 1.620 5232
-1.224 3.040 1.547 1733
-1.296 3.219 1.619 3877
-1.225 3.044 1.537 2055
-1.335 3.318 1.653 4475
-1.284 3.190 1.594 2503
-1.340 3.329 1.646 5064
-1.283 3.187 1.581 2922
-1.349 3.353 1.645 4594
-1.284 3.191 1.571 3802
-1.288 3.201 1.564 4009
-1.354 3.364 1.637 3855
-1.325 3.293 1.593 4964
-1.377 3.422 1.651 4091
-1.363 3.386 1.623 5120
-1.311 3.257 1.565 3857
-1.378 3.424 1.627 6882
-1.318 3.274 1.561 3993
-1.377 3.421 1.613 8202
-1.316 3.271 1.548 2241
-1.376 3.418 1.600 6589
-1.428 3.547 1.656 1887
-1.407 3.497 1.622 8441
-1.355 3.367 1.566 3036
-1.409 3.501 1.611 13457
-1.357 3.371 1.555 3247
-1.413 3.512 1.603 12861
-1.361 3.382 1.548 2216
-1.420 3.529 1.598 13145
-0.886 2.202 1.041 2020
-1.428 3.547 1.592 13023
-0.887 2.204 1.034 1656
-1.429 3.551 1.581 8568
-0.885 2.200 1.024 2095
-1.431 3.555 1.570 4746
-0.886 2.202 1.017 3085
-1.432 3.559 1.559 3751
-0.884 2.197 1.008 3301
-1.453 3.611 1.568 5126
-0.885 2.200 1.001 2681
-1.452 3.608 1.554 5444
-0.886 2.202 0.994 1756
-1.453 3.611 1.542 3967
-0.887 2.204 0.988 1617
-1.458 3.622 1.534 3398
-0.888 2.207 0.981 2137
-1.465 3.640 1.528 3242
-0.889 2.209 0.974 2248
-1.466 3.643 1.517 2452
-0.890 2.211 0.967 1878
-1.465 3.640 1.503 2703
-1.518 3.772 1.553 1799
-1.467 3.644 1.491 3298
-1.556 3.866 1.575 2337
-1.560 3.877 1.566 3355
-1.468 3.648 1.480 2178
-1.562 3.880 1.554 4063
-1.654 4.110 1.638 2138
-1.650 4.100 1.620 3845
-1.566 3.891 1.544 3543
-1.652 4.104 1.608 6035
-1.568 3.895 1.532 2520
-1.659 4.122 1.600 6278
-1.566 3.892 1.517 1858
-1.658 4.119 1.585 4696
-1.579 3.923 1.515 1811
-1.656 4.116 1.569 4577
-1.581 3.927 1.503 1507
-1.680 4.175 1.576 5152
-1.627 4.043 1.530 1834
-1.690 4.200 1.570 5376
-1.631 4.053 1.520 2840
-1.698 4.218 1.562 7308
-1.633 4.057 1.507 2096
-1.694 4.208 1.544 6723
-1.632 4.054 1.492 1269
-1.695 4.212 1.531 4121
-1.630 4.050 1.477 1429
-1.697 4.215 1.518 2580
-1.793 4.454 1.597 2064
-1.701 4.226 1.507 3307
-1.791 4.451 1.581 2953
-1.708 4.244 1.499 4701
-1.796 4.462 1.569 2809
-1.797 4.466 1.555 4200
-1.710 4.248 1.485 3986
-1.796 4.463 1.539 5393
-1.853 4.604 1.584 3625
-1.857 4.614 1.572 3889
-1.798 4.466 1.525 3512
-1.859 4.618 1.557 3149
-1.799 4.470 1.511 2379
-1.857 4.615 1.541 3155
-1.803 4.481 1.500 2218
-1.859 4.619 1.527 2905
-1.964 4.880 1.606 2000
-1.966 4.884 1.591 3162
-1.869 4.644 1.519 1940
-1.973 4.902 1.580 4474
-2.041 5.072 1.630 2198
-1.975 4.906 1.564 5221
-2.043 5.076 1.614 3317
-1.970 4.896 1.545 4020
-2.053 5.102 1.605 3719
-2.061 5.120 1.593 3580
-1.975 4.907 1.532 2536
-2.111 5.244 1.611 5739
-2.051 5.095 1.569 2771
-2.115 5.256 1.597 8605
-2.061 5.120 1.559 3063
-2.125 5.281 1.586 8729
-2.071 5.146 1.549 2236
-2.127 5.285 1.570 8179
-2.184 5.427 1.609 3052
-2.123 5.274 1.550 7574
-2.183 5.424 1.590 4269
-2.127 5.285 1.535 4909
-2.185 5.428 1.573 3438
-2.200 5.467 1.566 4228
-2.140 5.318 1.526 2619
-2.205 5.478 1.550 5278
-2.259 5.614 1.586 2104
-2.215 5.504 1.539 3980
-2.270 5.639 1.574 2208
-2.222 5.522 1.525 2983
-2.297 5.707 1.572 1701
-2.296 5.704 1.553 2744
-2.221 5.518 1.506 2019
-2.398 5.959 1.597 3525
-2.277 5.658 1.523 2607
-2.403 5.970 1.580 3458
-2.348 5.834 1.547 2080
-2.410 5.988 1.565 3313
-2.349 5.837 1.529 1846
-2.411 5.992 1.546 3525
-2.466 6.128 1.578 1510
-2.419 6.010 1.531 3536
-2.364 5.873 1.499 1476
-2.429 6.035 1.517 3747
-2.495 6.200 1.555 1331
-2.511 6.240 1.544 2684
-2.439 6.060 1.503 2543
-2.516 6.251 1.526 3315
-2.452 6.093 1.490 2051
-2.538 6.305 1.517 2752
-2.454 6.096 1.471 1752
-2.539 6.309 1.498 2859
-2.600 6.460 1.531 1657
-2.541 6.312 1.478 2691
-2.604 6.471 1.512 2184
-2.554 6.345 1.464 2368
-2.612 6.489 1.495 2334
-2.619 6.507 1.477 2914
-2.735 6.796 1.537 1866
-2.748 6.828 1.522 3057
-2.649 6.583 1.472 2210
-2.755 6.846 1.504 2761
-2.660 6.608 1.456 2175
-2.757 6.850 1.482 1688
-2.673 6.641 1.441 1513
-2.750 6.832 1.457 1576
-2.840 7.056 1.500 1326
-2.792 6.937 1.455 1983
-2.737 6.799 1.428 1633
-2.927 7.273 1.495 1852
-2.793 6.940 1.433 1813
-2.859 7.103 1.441 1946
-2.920 7.255 1.469 1538
-2.854 7.092 1.416 1982
-2.921 7.259 1.446 1860
-2.923 7.262 1.423 2626
-2.867 7.124 1.399 1591
-2.930 7.280 1.403 2336
-3.160 7.853 1.503 1836
-3.159 7.849 1.477 2486
-2.934 7.291 1.382 1518
-3.158 7.846 1.452 2004
-3.102 7.708 1.428 1790
-3.098 7.697 1.402 1421
-3.156 7.842 1.426 1182
-3.166 7.867 1.405 1005
-3.514 8.731 1.489 1116
-3.513 8.728 1.461 1339
-3.517 8.739 1.434 1404
-3.518 8.742 1.407 1597
-3.511 8.724 1.377 1286
-3.520 8.745 1.324 1009
-3.521 8.748 1.297 1032
-0.373 0.926 0.161 1409
-0.376 0.934 0.159 1735
-0.373 0.926 0.156 2053
-0.373 0.926 0.153 2525
-0.376 0.934 0.150 2659
-0.373 0.926 0.148 2717
-0.373 0.926 0.145 2742
-0.373 0.926 0.142 2507
-0.373 0.926 0.139 2265
-0.373 0.926 0.137 1864
-0.373 0.926 0.134 1465
-0.373 0.926 0.131 1156
-0.827 2.072 1.699 2384
-0.829 2.076 1.692 4768
-0.830 2.080 1.686 4768
-0.832 2.084 1.680 7066
-0.834 2.089 1.673 9364
-0.848 2.123 1.690 9627
-0.852 2.133 1.687 11552
-0.806 2.018 1.602 1115
-0.853 2.137 1.681 11552
-0.807 2.022 1.596 1006
-0.855 2.142 1.674 9866
-0.859 2.152 1.672 8221
-0.813 2.036 1.588 1529
-0.858 2.150 1.661 10191
-0.860 2.154 1.655 12203
-0.859 2.152 1.644 17593
-0.906 2.268 1.727 1257
-0.861 2.156 1.637 23030
-0.907 2.273 1.720 1568
-0.862 2.160 1.630 22265
-0.909 2.277 1.713 2507
-0.864 2.164 1.624 21499
-0.911 2.281 1.706 3446
-0.866 2.168 1.617 17095
-0.912 2.285 1.699 3418
-0.870 2.178 1.615 13062
-0.917 2.296 1.696 3321
-0.871 2.182 1.608 13062
-0.921 2.306 1.693 3426
-0.873 2.186 1.601 11793
-0.922 2.310 1.686 3689
-0.874 2.190 1.595 10524
-0.936 2.346 1.700 4151
-0.871 2.182 1.579 8978
-0.938 2.350 1.693 4638
-0.870 2.179 1.569 8216
-0.940 2.354 1.686 5125
-0.872 2.183 1.562 6893
-0.944 2.364 1.683 5156
-0.873 2.187 1.555 5571
-0.946 2.369 1.676 5188
-0.947 2.373 1.668 5839
-0.877 2.197 1.553 4180
-0.946 2.371 1.657 6494
-0.881 2.207 1.550 2848
-0.956 2.394 1.662 6105
-0.880 2.205 1.539 1747
-0.962 2.410 1.663 6460
-1.010 2.530 1.740 1061
-0.977 2.446 1.676 6528
-0.929 2.326 1.598 1422
-0.981 2.457 1.672 7617
-0.933 2.336 1.595 1071
-0.975 2.442 1.652 6156
-0.974 2.439 1.641 5687
-1.022 2.560 1.717 1351
-0.973 2.437 1.629 6428
-1.021 2.558 1.705 2339
-0.975 2.441 1.622 6068
-1.023 2.562 1.697 2901
-0.979 2.452 1.618 5031
-1.040 2.605 1.713 3919
-1.042 2.609 1.705 5407
-0.980 2.456 1.611 3347
-1.043 2.613 1.697 5215
-0.995 2.492 1.623 1989
-1.035 2.592 1.673 4651
-0.986 2.470 1.599 1372
-1.026 2.570 1.650 6168
-1.028 2.574 1.642 6042
-1.077 2.696 1.715 2093
-1.058 2.649 1.676 6027
-1.009 2.527 1.603 1904
-1.064 2.666 1.675 6792
-1.015 2.544 1.603 1896
-1.069 2.677 1.671 6983
-1.118 2.800 1.742 2045
-1.073 2.687 1.666 6116
-1.122 2.811 1.738 1908
-1.080 2.705 1.665 5897
-1.031 2.581 1.594 1114
-1.084 2.715 1.661 5962
-1.083 2.713 1.649 5438
-1.132 2.836 1.719 1542
-1.121 2.808 1.692 3852
-1.072 2.684 1.622 2262
-1.120 2.806 1.679 4862
-1.170 2.930 1.749 1594
-1.127 2.823 1.678 5159
-1.177 2.947 1.747 1614
-1.121 2.808 1.658 5858
-1.170 2.932 1.727 4736
-1.120 2.805 1.646 7111
-1.170 2.930 1.714 6346
-1.122 2.809 1.638 6470
-1.171 2.934 1.705 5863
-1.176 2.945 1.700 4477
-1.126 2.820 1.632 4202
-1.183 2.962 1.698 3856
-1.133 2.837 1.631 2790
-1.189 2.979 1.696 5643
-1.139 2.854 1.629 2282
-1.191 2.984 1.686 6523
-1.141 2.858 1.620 1224
-1.193 2.988 1.677 5907
-1.189 2.979 1.661 4871
-1.134 2.840 1.589 1048
-1.217 3.049 1.686 8045
-1.167 2.923 1.621 2863
-1.216 3.047 1.673 11023
-1.166 2.921 1.609 2067
-1.218 3.051 1.664 11331
-1.168 2.925 1.600 2381
-1.220 3.055 1.654 12926
-1.169 2.929 1.591 2225
-1.219 3.052 1.642 16962
-1.168 2.926 1.578 1115
-1.220 3.057 1.632 19452
-1.225 3.067 1.626 15403
-1.237 3.098 1.630 11782
-1.186 2.971 1.567 1327
-1.241 3.109 1.623 9370
-1.190 2.981 1.561 1038
-1.245 3.119 1.617 7609
-1.194 2.992 1.555 1304
-1.247 3.123 1.607 5489
-1.196 2.996 1.546 1476
-1.275 3.195 1.629 4687
-1.216 3.047 1.559 2586
-1.277 3.199 1.620 4961
-1.218 3.051 1.550 2461
-1.287 3.223 1.619 4168
-1.217 3.048 1.537 2785
-1.323 3.315 1.650 4909
-1.272 3.186 1.590 2574
-1.328 3.326 1.643 5115
-1.276 3.197 1.584 2793
-1.340 3.357 1.645 4224
-1.275 3.194 1.571 3403
-1.355 3.395 1.650 4425
-1.282 3.212 1.567 4009
-1.354 3.392 1.636 6199
-1.303 3.263 1.578 3573
-1.359 3.403 1.629 5964
-1.307 3.274 1.571 4454
-1.368 3.427 1.627 6917
-1.309 3.278 1.561 3836
-1.367 3.425 1.613 7670
-1.313 3.288 1.554 2370
-1.366 3.422 1.600 6064
-1.314 3.292 1.544 2076
-1.389 3.480 1.613 6704
-1.338 3.351 1.557 1882
-1.399 3.505 1.611 10790
-1.347 3.375 1.555 2936
-1.404 3.516 1.603 10636
-0.879 2.202 1.047 1868
-1.411 3.533 1.598 11123
-0.880 2.204 1.041 2120
-1.418 3.551 1.592 10806
-0.881 2.206 1.034 1784
-1.422 3.562 1.584 6421
-0.879 2.202 1.024 2227
-0.880 2.204 1.017 3698
-1.421 3.559 1.570 2792
-0.878 2.200 1.008 4460
-1.447 3.625 1.584 3376
-1.443 3.615 1.568 5204
-0.879 2.202 1.001 3778
-1.447 3.625 1.559 4572
-0.880 2.205 0.994 2317
-1.449 3.629 1.548 3152
-0.881 2.207 0.988 2196
-1.484 3.716 1.569 3606
-0.882 2.209 0.981 2985
-1.488 3.727 1.560 3584
-0.883 2.211 0.974 2894
-1.489 3.731 1.549 2586
-0.884 2.214 0.967 2158
-1.496 3.748 1.542 3130
-1.552 3.887 1.595 2193
-1.545 3.870 1.575 3627
-1.492 3.738 1.525 2967
-1.547 3.874 1.563 4430
-1.494 3.742 1.514 1817
-1.548 3.878 1.551 5096
-1.640 4.107 1.636 1946
-1.552 3.889 1.541 4786
-1.639 4.104 1.620 3458
-1.640 4.108 1.608 5604
-1.557 3.899 1.532 3167
-1.645 4.119 1.597 6076
-1.555 3.896 1.517 2076
-1.646 4.123 1.585 5195
-1.560 3.907 1.508 1935
-1.648 4.127 1.572 5702
-1.570 3.932 1.503 1671
-1.666 4.173 1.574 5938
-1.613 4.040 1.527 1781
-1.673 4.191 1.565 5388
-1.620 4.058 1.520 3149
-1.686 4.223 1.562 5838
-1.622 4.062 1.507 2391
-1.685 4.220 1.546 5343
-1.623 4.065 1.494 1489
-1.683 4.216 1.531 3800
-1.619 4.055 1.477 1393
-1.682 4.213 1.516 2628
-1.620 4.059 1.464 1769
-1.686 4.224 1.505 2688
-1.625 4.069 1.454 2252
-1.696 4.249 1.499 4475
-1.783 4.467 1.569 2226
-1.698 4.252 1.485 4410
-1.785 4.471 1.555 3955
-1.784 4.468 1.539 5186
-1.837 4.602 1.582 3901
-1.844 4.620 1.572 4418
-1.782 4.464 1.523 3113
-1.846 4.623 1.557 3468
-1.784 4.468 1.509 2109
-1.791 4.486 1.500 2188
-1.845 4.620 1.541 2019
-1.846 4.624 1.527 2437
-1.951 4.886 1.606 1953
-1.952 4.890 1.591 3607
-1.850 4.635 1.514 2676
-1.962 4.915 1.582 5283
-2.030 5.085 1.632 2007
-1.964 4.919 1.567 5869
-2.029 5.082 1.614 3202
-1.957 4.901 1.545 3857
-2.039 5.107 1.605 3635
-2.049 5.133 1.595 3608
-1.964 4.919 1.534 2302
-2.096 5.250 1.611 5349
-2.042 5.115 1.573 2249
-2.103 5.269 1.599 8457
-2.047 5.126 1.559 2468
-2.111 5.287 1.586 11192
-2.057 5.151 1.549 1896
-2.112 5.291 1.570 9741
-2.169 5.433 1.609 3460
-2.111 5.287 1.552 7225
-2.168 5.430 1.590 5144
-2.112 5.291 1.535 4604
-2.169 5.434 1.573 3922
-2.182 5.466 1.564 3580
-2.122 5.316 1.524 1920
-2.201 5.513 1.558 4782
-2.255 5.649 1.593 1666
-2.205 5.524 1.542 4658
-2.288 5.731 1.596 1715
-2.207 5.528 1.525 3051
-2.287 5.728 1.576 2109
-2.286 5.725 1.556 2615
-2.205 5.524 1.506 1947
-2.381 5.965 1.597 3373
-2.310 5.786 1.553 2146
-2.386 5.976 1.580 3399
-2.332 5.840 1.547 2328
-2.390 5.987 1.563 3295
-2.333 5.844 1.529 2150
-2.395 5.998 1.546 3379
-2.340 5.862 1.514 1730
-2.402 6.017 1.531 3209
-2.347 5.880 1.499 1672
-2.409 6.035 1.515 3403
-2.478 6.207 1.555 1271
-2.497 6.254 1.545 2713
-2.416 6.053 1.500 2203
-2.501 6.265 1.527 3350
-2.435 6.100 1.490 2239
-2.523 6.319 1.519 2915
-2.437 6.103 1.471 2262
-2.521 6.316 1.498 2812
-2.585 6.474 1.532 1646
-2.523 6.320 1.478 2722
-2.589 6.485 1.513 2503
-2.594 6.496 1.495 3001
-2.533 6.345 1.463 2280
-2.601 6.514 1.477 3483
-2.722 6.818 1.540 1840
-2.732 6.843 1.523 3061
-2.602 6.518 1.457 2647
-2.736 6.854 1.504 2977
-2.638 6.608 1.454 2282
-2.741 6.865 1.484 2371
-2.640 6.612 1.434 1229
-2.739 6.861 1.461 2299
-2.817 7.057 1.499 1396
-2.770 6.937 1.453 2044
-2.715 6.800 1.427 1401
-2.785 6.977 1.438 1694
-2.904 7.274 1.494 1526
-2.842 7.118 1.442 1641
-2.900 7.263 1.469 1482
-2.901 7.267 1.446 2019
-2.837 7.107 1.417 1649
-2.902 7.270 1.423 2960
-2.847 7.132 1.399 1586
-2.907 7.281 1.402 2519
-3.139 7.862 1.503 1863
-3.137 7.858 1.477 2610
-3.079 7.713 1.452 1790
-3.133 7.847 1.450 2277
-3.078 7.709 1.427 2019
-3.079 7.712 1.403 1526
-3.134 7.851 1.426 1417
-3.304 8.276 1.470 1504
-3.144 7.876 1.405 1336
-3.305 8.279 1.444 1205
-3.146 7.879 1.380 1063
-3.490 8.741 1.489 1002
-3.485 8.730 1.460 1355
-3.490 8.741 1.433 1460
-3.494 8.752 1.407 1582
-3.490 8.741 1.378 1185
-3.495 8.755 1.324 1204
-3.496 8.758 1.297 1159
-0.370 0.927 0.161 1205
-0.373 0.935 0.159 1459
-0.370 0.927 0.156 1711
-0.370 0.927 0.153 2088
-0.373 0.935 0.150 2193
-0.370 0.927 0.148 2236
-0.370 0.927 0.145 2232
-0.370 0.927 0.142 2009
-0.370 0.927 0.139 1795
-0.370 0.927 0.137 1449
-0.370 0.927 0.134 1117
-0.821 2.074 1.699 2907
-0.822 2.079 1.692 5814
-0.824 2.083 1.686 5814
-0.828 2.093 1.684 7302
-0.837 2.115 1.691 9177
-0.843 2.132 1.694 11257
-0.798 2.017 1.608 1181
-0.845 2.136 1.687 13496
-0.847 2.140 1.681 13496
-0.848 2.144 1.674 11211
-0.850 2.148 1.668 8926
-0.849 2.146 1.657 11721
-0.851 2.150 1.650 14627
-0.897 2.267 1.734 1030
-0.852 2.155 1.644 19948
-0.899 2.271 1.727 1375
-0.854 2.159 1.637 25269
-0.900 2.275 1.720 1719
-0.856 2.163 1.630 24081
-0.902 2.280 1.713 2721
-0.857 2.167 1.624 22892
-0.904 2.284 1.706 3722
-0.859 2.171 1.617 17801
-0.905 2.288 1.699 3690
-0.863 2.181 1.615 12769
-0.909 2.299 1.696 3622
-0.864 2.185 1.608 12769
-0.914 2.309 1.693 3797
-0.866 2.189 1.601 11304
-0.915 2.313 1.686 4002
-0.868 2.193 1.595 9839
-0.929 2.348 1.700 4380
-0.864 2.184 1.579 8733
-0.931 2.353 1.693 4965
-0.863 2.182 1.569 8391
-0.933 2.357 1.686 5549
-0.865 2.186 1.562 7185
-0.934 2.361 1.679 5515
-0.866 2.190 1.555 5978
-0.936 2.365 1.671 5481
-0.937 2.369 1.664 5945
-0.870 2.200 1.553 4442
-0.939 2.374 1.657 6410
-0.874 2.210 1.550 2943
-0.943 2.384 1.654 5252
-0.991 2.504 1.731 1797
-0.962 2.432 1.675 5336
-0.915 2.312 1.597 1146
-0.971 2.455 1.680 6349
-0.924 2.335 1.603 1747
-0.976 2.466 1.676 7595
-0.928 2.346 1.599 1565
-0.972 2.457 1.660 6175
-0.966 2.442 1.641 5878
-1.014 2.563 1.717 1699
-0.965 2.440 1.629 6171
-1.013 2.561 1.705 2814
-0.967 2.444 1.622 5458
-1.015 2.565 1.697 3437
-0.971 2.455 1.618 4360
-1.029 2.601 1.709 4166
-1.034 2.612 1.705 6304
-0.973 2.459 1.611 2778
-1.033 2.610 1.693 6455
-0.984 2.488 1.619 1672
-1.032 2.608 1.681 5569
-0.984 2.486 1.607 1396
-1.023 2.586 1.657 5927
-1.025 2.590 1.649 5563
-1.073 2.713 1.722 2080
-1.049 2.652 1.676 6928
-1.001 2.530 1.603 1764
-1.051 2.657 1.668 7144
-1.100 2.779 1.740 1629
-1.060 2.680 1.671 6163
-1.109 2.803 1.742 1970
-1.093 2.762 1.707 5384
-1.042 2.632 1.632 5223
-1.092 2.760 1.695 5568
-1.043 2.636 1.624 5096
-1.094 2.764 1.687 5770
-1.045 2.641 1.616 3675
-1.072 2.710 1.645 5254
-1.121 2.833 1.715 1982
-1.105 2.792 1.681 4895
-1.154 2.916 1.750 2178
-1.109 2.803 1.676 6114
-1.158 2.927 1.745 2157
-1.111 2.807 1.667 6030
-1.160 2.931 1.736 2640
-1.112 2.811 1.658 7457
-1.161 2.935 1.727 4098
-1.111 2.809 1.646 9093
-1.161 2.933 1.714 5392
-1.115 2.819 1.641 8129
-1.165 2.944 1.709 4539
-1.120 2.830 1.636 5143
-1.169 2.955 1.703 3592
-1.137 2.873 1.648 3725
-1.186 2.999 1.715 2843
-1.180 2.983 1.696 5790
-1.131 2.858 1.629 2244
-1.182 2.987 1.686 6982
-1.184 2.992 1.677 6602
-1.191 3.009 1.675 4862
-1.141 2.883 1.609 1102
-1.203 3.040 1.679 6430
-1.153 2.914 1.614 1592
-1.204 3.044 1.670 8931
-1.154 2.918 1.605 1783
-1.206 3.048 1.660 9974
-1.156 2.922 1.596 1823
-1.205 3.045 1.648 11352
-1.155 2.919 1.584 1100
-1.207 3.050 1.638 14543
-1.211 3.060 1.632 17676
-1.215 3.071 1.626 14552
-1.227 3.102 1.630 11339
-1.177 2.974 1.567 1329
-1.232 3.113 1.623 8589
-1.181 2.985 1.561 1115
-1.236 3.123 1.617 7118
-1.185 2.996 1.555 1389
-1.237 3.127 1.607 5362
-1.187 2.999 1.546 1550
-1.258 3.178 1.620 4190
-1.207 3.050 1.559 3225
-1.265 3.196 1.616 4362
-1.211 3.061 1.553 3128
-1.277 3.227 1.619 4571
-1.210 3.058 1.540 3562
-1.313 3.319 1.650 5353
-1.262 3.190 1.590 3376
-1.317 3.330 1.643 5136
-1.267 3.201 1.584 3286
-1.332 3.368 1.648 3891
-1.271 3.212 1.577 3357
-1.345 3.399 1.650 5244
-1.275 3.222 1.570 3984
-1.346 3.403 1.639 7735
-1.295 3.274 1.581 3754
-1.348 3.407 1.629 7307
-1.297 3.278 1.571 4478
-1.355 3.425 1.624 6551
-1.304 3.295 1.567 4143
-1.357 3.429 1.613 6543
-1.305 3.299 1.557 2940
-1.356 3.426 1.600 5159
-1.304 3.296 1.544 2724
-1.373 3.471 1.607 4944
-1.311 3.314 1.539 2075
-1.380 3.489 1.602 7200
-1.432 3.619 1.657 1272
-1.390 3.513 1.600 7414
-0.869 2.197 1.044 1187
-1.400 3.538 1.598 8339
-0.870 2.200 1.038 2085
-1.404 3.548 1.589 8136
-0.871 2.202 1.031 2061
-1.408 3.559 1.581 4567
-0.872 2.205 1.024 2041
-0.873 2.207 1.017 3438
-1.437 3.632 1.598 2568
-0.871 2.203 1.008 4957
-1.433 3.622 1.582 3529
-1.432 3.619 1.568 5140
-0.872 2.205 1.001 4569
-1.444 3.651 1.567 4777
-0.876 2.214 0.997 2903
-1.451 3.668 1.561 4759
-1.506 3.807 1.616 3137
-1.472 3.721 1.569 4762
-0.875 2.212 0.981 3771
-1.479 3.738 1.563 4707
-0.876 2.214 0.974 3418
-1.481 3.742 1.551 3347
-0.877 2.216 0.967 2287
-1.482 3.746 1.540 3832
-1.534 3.878 1.590 3146
-1.530 3.868 1.572 5457
-1.478 3.736 1.523 3143
-1.532 3.872 1.560 5894
-1.480 3.740 1.511 2008
-1.536 3.883 1.551 5995
-1.605 4.057 1.615 1756
-1.540 3.893 1.541 5971
-1.618 4.089 1.613 3014
-1.628 4.113 1.608 4684
-1.545 3.904 1.532 3842
-1.632 4.124 1.597 5491
-1.541 3.894 1.515 2126
-1.633 4.128 1.585 5472
-1.559 3.940 1.518 1684
-1.638 4.139 1.574 6704
-1.560 3.943 1.505 1658
-1.650 4.171 1.571 6670
-1.598 4.038 1.525 1591
-1.657 4.189 1.563 5953
-1.605 4.056 1.517 3255
-1.665 4.207 1.555 4666
-1.612 4.074 1.509 2700
-1.677 4.239 1.551 4202
-1.610 4.070 1.494 1714
-1.673 4.229 1.533 3756
-1.606 4.060 1.477 1325
-1.669 4.218 1.516 3118
-1.608 4.064 1.464 1629
-1.668 4.215 1.500 2356
-1.612 4.074 1.454 2082
-1.683 4.254 1.499 3575
-1.775 4.487 1.574 2047
-1.685 4.258 1.485 3905
-1.774 4.483 1.558 3451
-1.770 4.473 1.539 4131
-1.823 4.607 1.582 4034
-1.827 4.618 1.570 4918
-1.769 4.470 1.523 2269
-1.829 4.622 1.555 4972
-1.767 4.466 1.507 1572
-1.825 4.612 1.537 2922
-1.771 4.477 1.495 1604
-1.832 4.630 1.527 2790
-1.938 4.899 1.608 1804
-1.833 4.633 1.512 3622
-1.940 4.903 1.593 3517
-1.947 4.921 1.582 5475
-1.838 4.644 1.500 2064
-1.951 4.932 1.569 6033
-2.016 5.095 1.617 2464
-1.947 4.922 1.549 3391
-2.029 5.128 1.609 3146
-2.042 5.160 1.601 3575
-1.969 4.975 1.548 1851
-2.071 5.235 1.605 4950
-1.962 4.958 1.527 2032
-2.090 5.282 1.601 8085
-2.031 5.132 1.559 1887
-2.091 5.286 1.584 13071
-2.038 5.151 1.547 1469
-2.096 5.297 1.570 10624
-2.152 5.440 1.609 3382
-2.097 5.301 1.553 6079
-2.151 5.437 1.590 5386
-2.153 5.441 1.573 4107
-2.099 5.305 1.537 4023
-2.188 5.530 1.579 3465
-2.103 5.316 1.522 1800
-2.192 5.541 1.563 6013
-2.263 5.720 1.610 2085
-2.191 5.538 1.544 5335
-2.268 5.731 1.594 2323
-2.190 5.535 1.525 2619
-2.269 5.735 1.576 2524
-2.271 5.739 1.558 2345
-2.217 5.603 1.524 1610
-2.363 5.973 1.597 2835
-2.298 5.807 1.556 1984
-2.367 5.984 1.580 2966
-2.314 5.847 1.547 2297
-2.369 5.988 1.561 3081
-2.315 5.851 1.529 2432
-2.376 6.006 1.546 3069
-2.322 5.869 1.514 2113
-2.418 6.110 1.551 2984
-2.332 5.894 1.501 1786
-2.385 6.028 1.512 2777
-2.459 6.215 1.555 1111
-2.480 6.269 1.547 2564
-2.392 6.046 1.496 1794
-2.485 6.280 1.529 3248
-2.416 6.107 1.490 2311
-2.506 6.334 1.521 2988
-2.421 6.118 1.473 2711
-2.502 6.324 1.498 2609
-2.422 6.122 1.454 1656
-2.569 6.493 1.513 2827
-2.501 6.320 1.477 2518
-2.574 6.504 1.495 3557
-2.508 6.338 1.460 2000
-2.578 6.515 1.476 3762
-2.707 6.840 1.543 2008
-2.711 6.851 1.523 3065
-2.582 6.526 1.457 2992
-2.718 6.870 1.505 3082
-2.618 6.616 1.454 2128
-2.720 6.873 1.484 2985
-2.774 7.011 1.511 1171
-2.721 6.877 1.462 3108
-2.793 7.058 1.497 1247
-2.720 6.873 1.439 2270
-2.837 7.171 1.496 1407
-2.839 7.174 1.474 1776
-2.767 6.993 1.440 1634
-2.883 7.287 1.471 1544
-2.768 6.996 1.418 1169
-2.879 7.276 1.446 2414
-3.008 7.602 1.505 1177
-2.880 7.279 1.423 3459
-2.825 7.141 1.399 1486
-2.884 7.290 1.402 2895
-3.111 7.864 1.502 1702
-3.113 7.868 1.477 2421
-2.886 7.293 1.379 1951
-3.109 7.857 1.450 2327
-3.054 7.718 1.427 2085
-3.058 7.729 1.404 1670
-3.113 7.867 1.427 1606
-3.276 8.279 1.468 2024
-3.120 7.885 1.405 1571
-3.280 8.289 1.444 1550
-3.121 7.889 1.380 1195
-3.327 8.410 1.436 1190
-3.456 8.734 1.458 1354
-3.463 8.752 1.433 1479
-3.467 8.763 1.407 1467
-3.474 8.781 1.382 1073
-3.465 8.758 1.323 1254
-3.469 8.769 1.297 1142
-0.370 0.936 0.159 1084
-0.367 0.928 0.156 1274
-0.367 0.928 0.153 1556
-0.370 0.936 0.150 1623
-0.367 0.929 0.148 1635
-0.367 0.929 0.145 1606
-0.367 0.929 0.142 1426
-0.367 0.929 0.139 1256
-0.812 2.071 1.694 3610
-0.814 2.075 1.688 7221
-0.815 2.079 1.682 7221
-0.824 2.102 1.689 7850
-0.835 2.130 1.701 10267
-0.790 2.015 1.614 1244
-0.837 2.134 1.694 12636
-0.838 2.138 1.687 15004
-0.840 2.143 1.681 15004
-0.842 2.147 1.674 12404
-0.841 2.145 1.663 9908
-0.843 2.149 1.657 13161
-0.844 2.153 1.650 16415
-0.890 2.269 1.734 1126
-0.846 2.157 1.644 21242
-0.892 2.274 1.727 1502
-0.847 2.161 1.637 26069
-0.893 2.278 1.720 1877
-0.849 2.165 1.630 24566
-0.895 2.282 1.713 2856
-0.851 2.169 1.624 23063
-0.897 2.287 1.706 3836
-0.852 2.173 1.617 17799
-0.898 2.291 1.699 3780
-0.854 2.177 1.610 12535
-0.902 2.301 1.696 3645
-0.855 2.181 1.604 12535
-0.906 2.312 1.693 3878
-0.857 2.185 1.597 10735
-0.908 2.316 1.686 4056
-0.861 2.196 1.595 9024
-0.924 2.358 1.705 4367
-0.858 2.187 1.579 8238
-0.924 2.356 1.693 5016
-0.857 2.185 1.569 8139
-0.923 2.353 1.682 5721
-0.858 2.189 1.562 7000
-0.927 2.364 1.679 5756
-0.860 2.192 1.555 5862
-0.929 2.368 1.671 5833
-0.930 2.372 1.664 6114
-0.864 2.203 1.553 4296
-0.932 2.376 1.657 6394
-0.865 2.206 1.546 2776
-0.933 2.381 1.650 4799
-0.980 2.500 1.727 1977
-0.960 2.448 1.683 4882
-0.913 2.328 1.606 1833
-0.964 2.458 1.680 6071
-0.917 2.338 1.603 1809
-0.968 2.469 1.676 7472
-0.921 2.348 1.599 1643
-0.967 2.467 1.664 5983
-1.017 2.594 1.745 1310
-0.989 2.522 1.689 5603
-0.941 2.401 1.613 2283
-0.958 2.443 1.629 5507
-1.005 2.564 1.705 3503
-1.002 2.556 1.689 4820
-0.955 2.434 1.614 4408
-1.021 2.605 1.709 4784
-0.964 2.458 1.618 3728
-1.023 2.609 1.701 7408
-0.975 2.487 1.626 2385
-1.025 2.613 1.693 7756
-0.977 2.491 1.619 1569
-1.024 2.611 1.681 6617
-0.976 2.489 1.607 1107
-1.020 2.602 1.665 5869
-1.068 2.725 1.738 1110
-1.035 2.639 1.676 6004
-0.987 2.516 1.603 1806
-1.039 2.649 1.672 7612
-0.991 2.526 1.600 1316
-1.040 2.653 1.664 7541
-1.089 2.776 1.736 1520
-1.032 2.632 1.641 6340
-1.080 2.755 1.712 4473
-1.082 2.759 1.704 5799
-1.033 2.636 1.632 5461
-1.083 2.763 1.695 6124
-1.035 2.640 1.624 5380
-1.085 2.767 1.687 6449
-1.037 2.644 1.616 3895
-1.089 2.778 1.682 5335
-1.041 2.654 1.612 2508
-1.094 2.789 1.677 5946
-1.142 2.913 1.747 2643
-1.098 2.800 1.672 7498
-1.146 2.924 1.741 2737
-1.102 2.810 1.667 7112
-1.151 2.935 1.736 2468
-1.104 2.814 1.658 8500
-1.152 2.939 1.727 3270
-1.105 2.819 1.650 10125
-1.154 2.943 1.718 3897
-1.107 2.823 1.641 8983
-1.156 2.948 1.709 3236
-1.114 2.840 1.639 5553
-1.163 2.965 1.707 2773
-1.125 2.870 1.645 4133
-1.175 2.996 1.712 2905
-1.171 2.987 1.696 5666
-1.122 2.861 1.629 2504
-1.175 2.998 1.690 7153
-1.126 2.872 1.624 1121
-1.177 3.002 1.681 7198
-1.128 2.876 1.615 1111
-1.181 3.013 1.675 5642
-1.132 2.887 1.609 1084
-1.188 3.030 1.672 6707
-1.139 2.904 1.607 1035
-1.190 3.034 1.663 8752
-1.140 2.908 1.598 1236
-1.189 3.032 1.650 10836
-1.182 3.016 1.631 12202
-1.232 3.143 1.695 1908
-1.197 3.053 1.638 11768
-1.201 3.064 1.632 14805
-1.251 3.191 1.695 1012
-1.206 3.075 1.626 12782
-1.215 3.099 1.626 10065
-1.165 2.971 1.564 1094
-1.219 3.110 1.620 7261
-1.269 3.237 1.682 1203
-1.229 3.134 1.620 6573
-1.179 3.006 1.559 1860
-1.228 3.131 1.607 4906
-1.178 3.003 1.546 1423
-1.248 3.182 1.620 3991
-1.198 3.054 1.559 3381
-1.239 3.159 1.597 4349
-1.289 3.288 1.658 2868
-1.269 3.238 1.622 5195
-1.201 3.062 1.540 3964
-1.266 3.228 1.606 6116
-1.199 3.059 1.528 3204
-1.307 3.334 1.643 4965
-1.257 3.205 1.584 3832
