0.784 2.524 1.660 6710
0.822 2.648 1.737 2352
0.811 2.613 1.705 6897
0.773 2.489 1.629 2870
0.813 2.617 1.697 8483
0.774 2.493 1.621 2432
0.814 2.622 1.689 10070
0.765 2.464 1.594 1757
0.815 2.626 1.681 8730
0.764 2.462 1.583 1325
0.817 2.630 1.673 7153
0.816 2.628 1.662 7043
0.855 2.753 1.736 1227
0.840 2.705 1.696 6450
0.801 2.579 1.623 1606
0.843 2.716 1.692 8611
0.804 2.590 1.619 1975
0.847 2.727 1.688 7236
0.808 2.601 1.615 2601
0.852 2.744 1.687 5981
0.813 2.618 1.615 3598
0.864 2.782 1.698 5383
0.825 2.655 1.626 4785
0.869 2.799 1.697 7345
0.830 2.673 1.625 4586
0.871 2.804 1.689 8618
0.831 2.677 1.617 4876
0.872 2.808 1.680 7698
0.833 2.681 1.609 3547
0.873 2.812 1.672 6778
0.834 2.685 1.601 1554
0.872 2.810 1.660 6085
0.912 2.937 1.730 2466
0.901 2.901 1.699 7319
0.861 2.774 1.629 2806
0.898 2.892 1.683 9548
0.858 2.764 1.614 2339
0.897 2.890 1.671 11293
0.858 2.762 1.602 1512
0.899 2.894 1.662 14011
0.938 3.022 1.731 1021
0.900 2.898 1.653 14890
0.940 3.026 1.722 1084
0.901 2.902 1.645 13245
0.941 3.030 1.712 2255
0.903 2.906 1.636 9277
0.942 3.035 1.703 3900
0.908 2.924 1.634 7171
0.948 3.053 1.701 3281
0.920 2.962 1.643 6644
0.960 3.091 1.710 2330
0.930 2.993 1.648 5553
0.970 3.122 1.714 3032
0.935 3.011 1.646 5951
0.975 3.140 1.712 2992
0.934 3.009 1.633 5819
0.974 3.138 1.699 3367
0.959 3.088 1.662 6678
0.919 2.958 1.597 2519
0.960 3.092 1.653 6571
0.920 2.962 1.588 1508
0.961 3.096 1.643 5888
1.002 3.226 1.708 2440
0.993 3.196 1.681 8152
0.952 3.066 1.617 5684
0.992 3.194 1.668 7673
0.951 3.063 1.605 3664
0.989 3.184 1.652 6933
0.948 3.054 1.589 2234
0.990 3.188 1.642 8764
0.950 3.058 1.580 1547
0.989 3.186 1.630 10046
0.993 3.197 1.623 7167
1.033 3.328 1.685 1552
1.000 3.222 1.623 5861
1.041 3.353 1.685 1347
1.002 3.226 1.614 5049
1.042 3.357 1.675 1534
1.001 3.223 1.601 3880
1.042 3.354 1.661 2854
1.036 3.338 1.642 3502
0.996 3.206 1.582 1771
1.036 3.335 1.629 4324
1.077 3.467 1.688 1054
1.037 3.339 1.619 5689
1.078 3.471 1.678 1320
1.038 3.343 1.608 5567
1.079 3.475 1.667 1826
1.042 3.354 1.601 4494
1.083 3.487 1.660 2784
1.073 3.456 1.634 4355
1.032 3.324 1.576 2350
1.079 3.474 1.630 5779
1.038 3.342 1.572 3379
1.089 3.506 1.632 6204
1.048 3.373 1.574 3256
1.094 3.524 1.627 5099
1.053 3.391 1.570 3253
1.096 3.529 1.616 3867
1.054 3.395 1.560 2954
1.073 3.455 1.573 3630
1.114 3.589 1.629 2354
1.083 3.488 1.575 4113
1.124 3.621 1.630 2100
1.095 3.527 1.579 5117
1.137 3.660 1.634 1626
1.103 3.552 1.577 6276
1.144 3.686 1.632 1176
1.113 3.584 1.577 8725
1.154 3.718 1.632 1166
1.114 3.588 1.567 7305
1.156 3.722 1.621 2497
1.144 3.684 1.593 4540
1.102 3.550 1.539 2004
1.161 3.737 1.601 4198
1.119 3.603 1.548 2702
1.162 3.741 1.590 3724
1.120 3.607 1.537 2176
1.167 3.760 1.584 4125
1.126 3.625 1.532 2026
1.175 3.785 1.581 5474
1.133 3.650 1.529 1591
1.181 3.803 1.575 8334
1.182 3.807 1.564 8199
1.210 3.896 1.584 4319
1.168 3.761 1.533 2259
1.207 3.886 1.567 3703
1.249 4.021 1.618 2395
1.221 3.933 1.571 4817
1.179 3.797 1.521 1084
1.222 3.937 1.559 6364
1.265 4.072 1.609 1137
1.224 3.941 1.547 4824
1.266 4.077 1.597 1833
1.254 4.038 1.569 5681
1.212 3.902 1.520 2211
1.259 4.056 1.562 5551
1.217 3.920 1.513 1503
1.263 4.067 1.552 5128
1.305 4.203 1.600 1648
1.266 4.078 1.542 4391
1.309 4.214 1.590 1513
1.281 4.125 1.545 4758
1.323 4.262 1.592 1383
1.291 4.158 1.542 5036
1.334 4.294 1.589 1532
1.319 4.248 1.559 4946
1.277 4.111 1.513 1748
1.323 4.259 1.549 5225
1.344 4.328 1.557 6279
1.301 4.191 1.512 1643
1.343 4.325 1.542 6389
1.300 4.188 1.497 1587
1.344 4.329 1.529 3704
1.387 4.466 1.573 1316
1.334 4.296 1.504 3013
1.379 4.441 1.550 2888
1.369 4.409 1.526 4280
1.326 4.271 1.482 2242
1.372 4.420 1.514 4317
1.330 4.282 1.471 2143
1.387 4.467 1.515 4403
1.344 4.329 1.472 1845
1.395 4.493 1.508 3849
1.352 4.355 1.465 1434
1.398 4.504 1.497 3592
1.453 4.678 1.550 1248
1.424 4.587 1.507 2080
1.382 4.449 1.465 1178
1.426 4.591 1.493 2445
1.470 4.733 1.520 2317
1.427 4.595 1.479 2000
1.466 4.722 1.502 3750
1.509 4.861 1.542 2225
1.463 4.712 1.483 4084
1.506 4.850 1.523 3031
1.512 4.868 1.512 4056
1.464 4.715 1.469 3560
1.513 4.872 1.498 3905
1.470 4.734 1.459 1990
1.519 4.891 1.487 2660
1.564 5.037 1.528 1614
1.529 4.924 1.480 3015
1.597 5.143 1.541 2103
1.560 5.023 1.491 4071
1.603 5.162 1.529 3506
1.604 5.165 1.514 5810
1.561 5.026 1.476 4714
1.607 5.177 1.500 7692
1.564 5.037 1.463 3899
1.659 5.342 1.527 6196
1.611 5.188 1.486 6130
1.653 5.323 1.505 5831
1.610 5.184 1.468 2923
1.652 5.320 1.487 4281
1.695 5.459 1.522 3265
1.694 5.456 1.504 3376
1.651 5.316 1.469 2332
1.730 5.570 1.515 3393
1.682 5.416 1.476 3164
1.733 5.581 1.500 3246
1.681 5.412 1.458 2663
1.762 5.673 1.504 2439
1.711 5.511 1.465 2311
1.763 5.677 1.487 3428
1.717 5.530 1.452 2701
1.723 5.548 1.439 2840
1.773 5.710 1.477 2730
1.795 5.781 1.475 2962
1.839 5.921 1.508 2154
1.814 5.843 1.471 1906
1.858 5.984 1.504 1656
1.823 5.869 1.459 2965
1.866 6.010 1.490 1361
1.826 5.880 1.442 3593
1.870 6.021 1.474 2009
1.852 5.965 1.443 2132
1.910 6.150 1.483 1221
1.849 5.954 1.421 2243
1.909 6.146 1.463 1661
1.944 6.261 1.468 1992
1.875 6.039 1.421 1706
1.945 6.265 1.449 1972
1.991 6.413 1.481 1208
2.025 6.521 1.483 1643
1.917 6.172 1.410 1345
2.021 6.510 1.460 2033
1.950 6.280 1.413 1067
2.016 6.491 1.436 1993
2.122 6.832 1.504 1586
2.104 6.777 1.472 2422
2.017 6.495 1.416 1736
2.152 6.929 1.480 2576
2.108 6.788 1.453 2315
2.155 6.940 1.461 3006
2.109 6.792 1.432 2063
2.161 6.959 1.442 3682
2.209 7.115 1.472 1853
2.164 6.970 1.423 3903
2.211 7.119 1.450 2395
2.165 6.973 1.402 3339
2.239 7.212 1.445 2293
2.167 6.977 1.380 2686
2.294 7.387 1.454 1953
2.165 6.973 1.358 2082
2.350 7.569 1.463 1799
2.310 7.439 1.417 1926
2.389 7.692 1.461 1870
2.309 7.435 1.393 2400
2.394 7.711 1.440 1749
2.307 7.431 1.369 2271
2.352 7.573 1.393 1833
2.499 8.047 1.447 2234
2.348 7.561 1.367 1580
2.500 8.050 1.422 2427
2.426 7.811 1.384 1555
2.503 8.061 1.399 2306
2.429 7.822 1.361 1664
2.507 8.072 1.376 1982
2.555 8.229 1.400 1466
2.559 8.240 1.376 1931
2.510 8.083 1.352 1286
2.560 8.244 1.351 2071
2.658 8.558 1.397 1007
2.561 8.247 1.326 1748
2.628 8.464 1.357 1319
2.627 8.460 1.331 1182
2.515 8.101 1.280 1115
0.672 2.154 1.717 7694
0.673 2.159 1.711 15388
0.675 2.163 1.704 15388
0.711 2.280 1.791 1010
0.680 2.180 1.707 12217
0.681 2.184 1.701 9440
0.683 2.188 1.694 7146
0.720 2.306 1.780 1516
0.705 2.261 1.737 7159
0.669 2.143 1.651 4225
0.707 2.265 1.730 7159
0.670 2.147 1.645 3675
0.710 2.276 1.728 7944
0.673 2.158 1.643 3072
0.713 2.287 1.726 9019
0.676 2.168 1.641 2647
0.717 2.297 1.723 6968
0.680 2.178 1.639 2626
0.724 2.321 1.730 6096
0.677 2.170 1.624 2521
0.725 2.325 1.723 4471
0.678 2.174 1.617 2355
0.727 2.330 1.716 2846
0.680 2.178 1.611 2189
0.736 2.359 1.726 2533
0.681 2.182 1.604 1671
0.743 2.383 1.732 2924
0.706 2.262 1.650 1775
0.745 2.387 1.725 3239
0.707 2.267 1.643 1761
0.748 2.398 1.722 3273
0.710 2.277 1.640 1851
0.751 2.409 1.719 3504
0.714 2.288 1.638 2119
0.755 2.419 1.716 4169
0.717 2.298 1.635 1819
0.758 2.430 1.713 4868
0.720 2.309 1.633 1427
0.756 2.422 1.697 4995
0.755 2.420 1.686 5505
0.764 2.450 1.695 4764
0.726 2.328 1.616 1368
0.768 2.460 1.692 4960
0.729 2.338 1.613 1592
0.769 2.465 1.685 6580
0.807 2.587 1.763 1974
0.770 2.469 1.677 8200
0.809 2.592 1.756 2838
0.772 2.473 1.670 9545
0.810 2.596 1.748 3021
0.771 2.471 1.659 11007
0.811 2.601 1.740 3205
0.774 2.482 1.655 8909
0.813 2.605 1.732 3104
0.782 2.505 1.660 7607
0.820 2.629 1.737 2257
0.789 2.529 1.664 6871
0.828 2.653 1.741 2102
0.792 2.540 1.661 6836
0.831 2.664 1.737 2251
0.816 2.616 1.697 7462
0.778 2.492 1.621 2263
0.818 2.620 1.689 8784
0.771 2.470 1.598 1487
0.821 2.631 1.685 7300
0.770 2.467 1.587 1021
0.820 2.629 1.673 5678
0.822 2.633 1.665 5556
0.861 2.758 1.739 1036
0.844 2.704 1.696 6471
0.804 2.578 1.623 1620
0.847 2.714 1.692 8535
0.808 2.589 1.619 2006
0.848 2.719 1.684 6991
0.809 2.593 1.611 1641
0.860 2.756 1.695 5635
0.821 2.630 1.622 3258
0.865 2.774 1.694 5169
0.826 2.648 1.622 3582
0.873 2.798 1.697 7173
0.834 2.672 1.625 4209
0.876 2.809 1.692 8551
0.837 2.683 1.621 4638
0.876 2.807 1.680 7647
0.836 2.680 1.609 3267
0.877 2.811 1.672 6769
0.837 2.684 1.601 1523
0.876 2.809 1.660 6227
0.916 2.936 1.730 2545
0.907 2.906 1.703 7373
0.867 2.779 1.633 3301
0.904 2.897 1.687 8669
0.864 2.770 1.617 2686
0.901 2.888 1.671 10418
0.861 2.761 1.602 1521
0.902 2.893 1.662 13415
0.904 2.897 1.653 14492
0.944 3.025 1.722 1075
0.905 2.901 1.645 12889
0.945 3.029 1.712 2427
0.906 2.905 1.636 8953
0.946 3.034 1.703 4275
0.922 2.957 1.652 7184
0.963 3.085 1.719 1209
0.926 2.968 1.646 6995
0.966 3.096 1.713 2425
0.929 2.979 1.641 6137
0.970 3.108 1.707 3682
0.937 3.003 1.642 5917
0.977 3.132 1.708 3827
0.938 3.007 1.633 6265
0.979 3.137 1.699 3592
0.937 3.005 1.621 6047
0.978 3.134 1.686 4392
0.964 3.091 1.653 6134
0.924 2.961 1.588 1500
0.968 3.102 1.647 6018
1.008 3.232 1.711 1975
0.997 3.195 1.681 8742
0.956 3.065 1.617 6108
1.000 3.206 1.675 7799
0.960 3.076 1.612 4822
1.004 3.217 1.669 6310
0.963 3.087 1.606 3205
0.994 3.187 1.642 7785
0.954 3.057 1.580 1496
0.994 3.184 1.630 9734
1.034 3.315 1.692 1016
0.999 3.202 1.626 8046
1.040 3.333 1.688 1438
1.005 3.220 1.623 7043
1.046 3.351 1.685 1414
1.006 3.224 1.614 5675
1.047 3.356 1.675 1546
1.007 3.228 1.604 3579
1.048 3.360 1.665 2363
1.041 3.336 1.642 3737
1.000 3.205 1.582 1653
1.040 3.334 1.629 5198
1.081 3.465 1.688 1157
1.041 3.338 1.619 6914
1.083 3.470 1.678 1437
1.043 3.342 1.608 6402
1.084 3.474 1.667 1911
1.046 3.353 1.601 4967
1.087 3.485 1.660 2739
1.076 3.448 1.631 5420
1.034 3.315 1.573 1815
1.081 3.466 1.627 7268
1.040 3.333 1.569 2859
1.091 3.498 1.629 6767
1.050 3.365 1.571 3436
1.099 3.523 1.627 5390
1.058 3.390 1.570 3599
1.068 3.422 1.572 4213
1.109 3.555 1.628 3340
1.080 3.461 1.576 4068
1.121 3.594 1.632 2127
1.088 3.486 1.575 4549
1.129 3.619 1.630 1981
1.100 3.525 1.579 5173
1.142 3.659 1.634 1655
1.110 3.557 1.580 5861
1.152 3.691 1.635 1119
1.118 3.582 1.577 7936
1.159 3.716 1.632 1207
1.121 3.594 1.570 6789
1.163 3.727 1.624 2635
1.169 3.746 1.618 4203
1.122 3.597 1.559 3919
1.168 3.743 1.604 4164
1.126 3.608 1.551 2685
1.167 3.740 1.590 3901
1.125 3.605 1.537 2588
1.170 3.751 1.581 4416
1.128 3.616 1.529 2282
1.183 3.790 1.584 5658
1.141 3.656 1.532 1923
1.186 3.801 1.575 8804
1.187 3.805 1.564 9183
1.186 3.802 1.549 4491
1.228 3.937 1.600 2008
1.223 3.920 1.580 3436
1.181 3.785 1.530 1224
1.229 3.938 1.574 5085
1.187 3.803 1.524 1343
1.230 3.942 1.562 6392
1.229 3.939 1.547 4544
1.271 4.075 1.597 1991
1.259 4.036 1.569 5969
1.217 3.900 1.520 2260
1.265 4.054 1.562 6219
1.307 4.190 1.610 1595
1.268 4.065 1.552 5700
1.311 4.201 1.600 1866
1.272 4.076 1.542 4789
1.314 4.213 1.590 1329
1.287 4.123 1.545 5170
1.329 4.260 1.592 1295
1.297 4.156 1.542 5966
1.339 4.293 1.589 1482
1.325 4.246 1.559 4743
1.195 3.829 1.418 2379
1.328 4.257 1.549 5275
1.198 3.840 1.409 2692
1.350 4.326 1.557 6820
1.199 3.843 1.397 2409
1.351 4.330 1.544 6823
1.308 4.193 1.499 1862
1.352 4.334 1.531 3745
1.309 4.197 1.486 1090
1.380 4.425 1.546 3152
1.338 4.287 1.502 2433
1.377 4.414 1.528 4299
1.334 4.277 1.484 2180
1.378 4.418 1.514 4227
1.335 4.280 1.471 2031
1.393 4.465 1.515 4320
1.350 4.327 1.472 1655
1.401 4.491 1.508 4015
1.358 4.353 1.465 1375
1.407 4.509 1.499 4008
1.459 4.676 1.550 1231
1.401 4.491 1.479 2047
1.444 4.629 1.520 1614
1.430 4.582 1.491 2136
1.473 4.720 1.532 1112
1.476 4.731 1.520 2443
1.431 4.586 1.477 1727
1.475 4.728 1.504 3885
1.518 4.866 1.544 1706
1.472 4.717 1.485 3605
1.515 4.855 1.525 3110
1.516 4.859 1.510 4266
1.471 4.713 1.469 2890
1.517 4.863 1.496 3907
1.474 4.724 1.457 1632
1.518 4.867 1.481 2049
1.573 5.042 1.530 1654
1.536 4.922 1.480 2584
1.599 5.126 1.537 2205
1.564 5.013 1.489 3840
1.610 5.159 1.529 3169
1.613 5.171 1.516 5008
1.570 5.031 1.478 4267
1.614 5.174 1.500 7289
1.665 5.336 1.543 3894
1.666 5.339 1.527 6670
1.618 5.185 1.486 6160
1.663 5.329 1.507 6296
1.603 5.138 1.457 2997
1.661 5.325 1.489 4704
1.705 5.465 1.524 2873
1.702 5.454 1.504 3602
1.658 5.314 1.469 2551
1.737 5.568 1.515 3623
1.691 5.421 1.478 3408
1.741 5.579 1.500 3423
1.690 5.417 1.460 3058
1.721 5.516 1.467 2315
1.769 5.671 1.504 2263
1.773 5.682 1.489 3190
1.725 5.527 1.452 2599
1.829 5.863 1.514 2852
1.779 5.701 1.475 2768
1.805 5.785 1.477 2812
1.849 5.926 1.510 2107
1.822 5.841 1.471 1886
1.866 5.981 1.504 1702
1.828 5.859 1.457 2709
1.872 6.000 1.489 1602
1.834 5.878 1.442 3112
1.878 6.018 1.474 2359
1.872 6.000 1.451 2172
1.828 5.859 1.420 1591
1.857 5.952 1.421 2213
1.922 6.159 1.466 1836
1.955 6.266 1.470 1935
1.863 5.970 1.406 1615
1.954 6.262 1.449 1864
2.002 6.418 1.482 1251
2.036 6.525 1.484 1817
1.930 6.184 1.413 1387
2.032 6.514 1.461 2215
2.127 6.818 1.524 1341
2.131 6.830 1.504 1897
2.029 6.503 1.439 1882
2.132 6.833 1.484 2340
2.025 6.492 1.416 1405
2.161 6.926 1.480 2317
2.117 6.785 1.453 1972
2.164 6.937 1.461 3078
2.118 6.789 1.432 1672
2.170 6.956 1.442 3802
2.217 7.105 1.471 1819
2.174 6.967 1.423 3498
2.220 7.116 1.450 2363
2.175 6.971 1.402 2813
2.251 7.216 1.446 2257
2.176 6.974 1.380 2331
2.304 7.384 1.454 1926
2.305 7.387 1.431 1790
2.358 7.559 1.462 1724
2.320 7.436 1.417 1834
2.397 7.682 1.459 1659
2.319 7.432 1.393 2265
2.363 7.573 1.417 1684
2.317 7.428 1.369 2143
2.362 7.570 1.393 1744
2.507 8.036 1.446 2184
2.358 7.558 1.367 1442
2.511 8.047 1.422 2349
2.359 7.561 1.344 1270
2.514 8.058 1.399 2220
2.440 7.819 1.361 1614
2.520 8.076 1.377 1947
2.569 8.233 1.401 1591
2.570 8.237 1.376 1871
2.521 8.080 1.352 1265
2.571 8.240 1.351 1766
2.669 8.555 1.397 1080
2.572 8.244 1.326 1468
2.637 8.453 1.356 1314
2.526 8.097 1.280 1141
2.639 8.457 1.331 1118
0.680 2.159 1.722 8585
0.681 2.163 1.715 17171
0.682 2.167 1.709 17171
0.686 2.178 1.707 13769
0.687 2.182 1.701 10776
0.688 2.187 1.694 8314
0.726 2.304 1.780 1094
0.684 2.172 1.674 6819
0.721 2.290 1.760 3687
0.687 2.183 1.672 6497
0.724 2.301 1.757 2892
0.716 2.274 1.728 7117
0.679 2.156 1.643 3526
0.719 2.285 1.726 8122
0.682 2.166 1.641 3132
0.723 2.296 1.723 6199
0.685 2.177 1.639 3102
0.730 2.319 1.730 5298
0.685 2.175 1.628 2833
0.733 2.330 1.727 3733
0.684 2.172 1.617 2484
0.741 2.353 1.733 2395
0.685 2.176 1.611 2155
0.744 2.364 1.730 2390
0.687 2.181 1.604 1643
0.752 2.387 1.736 2590
0.714 2.267 1.654 1766
0.751 2.385 1.725 2704
0.713 2.265 1.643 1573
0.758 2.409 1.731 2554
0.720 2.288 1.649 1821
0.762 2.419 1.728 2701
0.722 2.292 1.642 1687
0.763 2.424 1.720 3401
0.723 2.296 1.635 1410
0.765 2.428 1.713 4102
0.726 2.307 1.633 1179
0.762 2.420 1.697 4678
0.759 2.411 1.682 5621
0.798 2.533 1.761 1000
0.771 2.448 1.695 4930
0.732 2.326 1.616 1624
0.774 2.458 1.692 5209
0.736 2.336 1.613 1726
0.775 2.463 1.685 7506
0.814 2.585 1.763 1560
0.777 2.467 1.677 9803
0.815 2.590 1.756 2248
0.778 2.471 1.670 10802
0.817 2.594 1.748 2313
0.777 2.469 1.659 11901
0.820 2.605 1.744 2470
0.781 2.480 1.655 9234
0.820 2.603 1.732 2501
0.790 2.510 1.664 7348
0.829 2.633 1.741 1892
0.798 2.534 1.668 7191
0.837 2.657 1.745 1791
0.801 2.544 1.665 7491
0.840 2.668 1.741 1931
0.803 2.549 1.657 6595
0.842 2.673 1.733 2156
0.826 2.625 1.693 7507
0.787 2.501 1.618 1291
0.828 2.629 1.685 6003
0.831 2.640 1.681 4450
0.847 2.690 1.701 4715
0.808 2.565 1.627 1531
0.851 2.701 1.696 6614
0.811 2.576 1.623 1669
0.854 2.712 1.692 8603
0.815 2.587 1.619 2059
0.855 2.717 1.684 6925
0.816 2.591 1.611 1632
0.867 2.754 1.695 5455
0.828 2.628 1.622 2442
0.873 2.771 1.694 4992
0.833 2.646 1.622 2956
0.880 2.796 1.697 6958
0.841 2.670 1.625 4132
0.884 2.807 1.692 8406
0.844 2.680 1.621 4447
0.883 2.804 1.680 7503
0.843 2.678 1.609 3145
0.884 2.809 1.672 6620
0.844 2.682 1.601 1494
0.884 2.806 1.660 6278
0.924 2.933 1.730 2532
0.914 2.904 1.703 7308
0.874 2.777 1.633 3466
0.914 2.902 1.690 7874
0.874 2.774 1.621 3051
0.909 2.886 1.671 9513
0.869 2.758 1.602 1488
0.910 2.890 1.662 12637
0.911 2.894 1.653 13815
0.952 3.022 1.722 1107
0.913 2.899 1.645 12371
0.953 3.027 1.712 2554
0.914 2.903 1.636 8649
0.954 3.031 1.703 4519
0.930 2.954 1.652 7389
0.971 3.083 1.719 1334
0.934 2.965 1.646 7431
0.974 3.094 1.713 2718
0.937 2.976 1.641 6679
0.978 3.105 1.707 4049
0.945 3.001 1.642 5923
0.985 3.130 1.708 4076
0.944 2.998 1.630 6574
0.985 3.127 1.695 4056
0.945 3.002 1.621 6563
0.986 3.132 1.686 4822
0.985 3.129 1.673 6037
0.944 3.000 1.609 5658
0.980 3.113 1.654 6239
0.939 2.983 1.589 2885
1.005 3.192 1.681 8876
0.964 3.062 1.617 6388
1.009 3.203 1.675 7712
0.968 3.073 1.612 5418
1.014 3.221 1.672 6274
0.973 3.091 1.609 4540
1.003 3.185 1.642 6876
0.962 3.054 1.580 1489
1.002 3.182 1.630 9523
1.043 3.312 1.692 1069
1.007 3.200 1.626 8967
1.049 3.330 1.688 1542
1.013 3.218 1.623 8028
1.054 3.349 1.685 1503
1.014 3.222 1.614 6208
1.056 3.353 1.675 1566
1.044 3.316 1.645 3673
1.003 3.184 1.585 1704
1.050 3.334 1.642 4006
1.008 3.202 1.582 1548
1.049 3.331 1.629 5702
1.090 3.463 1.688 1119
1.050 3.335 1.619 7441
1.092 3.467 1.678 1406
1.051 3.339 1.608 6728
1.093 3.471 1.667 1818
1.055 3.350 1.601 5244
1.096 3.482 1.660 2507
1.085 3.445 1.631 6373
1.043 3.312 1.573 1814
1.090 3.463 1.627 8314
1.049 3.330 1.569 2804
1.098 3.488 1.626 7117
1.056 3.355 1.568 3254
1.080 3.429 1.588 5457
1.122 3.562 1.645 2860
1.077 3.419 1.572 4072
1.118 3.552 1.628 3294
1.091 3.465 1.579 4190
1.133 3.598 1.635 1873
1.097 3.483 1.575 5059
1.139 3.616 1.630 1805
1.109 3.522 1.579 5768
1.151 3.656 1.634 1772
1.115 3.540 1.574 5611
1.157 3.674 1.629 1658
1.129 3.587 1.580 6652
1.171 3.720 1.635 1100
1.131 3.591 1.570 5820
1.173 3.724 1.624 2761
1.178 3.743 1.618 4319
1.132 3.595 1.559 3366
1.180 3.747 1.607 4166
1.133 3.598 1.548 2600
1.174 3.730 1.587 4245
1.132 3.595 1.534 2867
1.180 3.748 1.581 4802
1.138 3.613 1.529 2598
1.190 3.780 1.581 5841
1.148 3.646 1.529 1790
1.196 3.798 1.575 9135
1.197 3.802 1.564 9995
1.196 3.799 1.549 5293
1.239 3.934 1.600 2056
1.236 3.924 1.583 3557
1.193 3.789 1.533 1618
1.239 3.935 1.574 5323
1.196 3.800 1.524 1307
1.240 3.939 1.562 6242
1.294 4.110 1.625 1039
1.233 3.915 1.540 4218
1.275 4.050 1.589 3036
1.270 4.033 1.569 6306
1.227 3.897 1.520 2567
1.276 4.051 1.562 7119
1.318 4.187 1.610 1831
1.279 4.062 1.552 6470
1.322 4.198 1.600 2215
1.280 4.066 1.540 5273
1.323 4.202 1.587 1668
1.302 4.134 1.550 5522
1.259 3.998 1.503 1306
1.310 4.160 1.545 6730
1.353 4.296 1.591 1332
1.311 4.164 1.532 4259
1.354 4.300 1.578 1976
1.339 4.254 1.549 4874
1.208 3.837 1.409 1629
1.361 4.323 1.557 7206
1.209 3.840 1.397 2064
1.362 4.327 1.544 7313
1.208 3.837 1.383 1802
1.366 4.338 1.533 4027
1.323 4.201 1.489 1302
1.385 4.399 1.539 3628
1.342 4.262 1.495 1694
1.389 4.410 1.528 4140
1.345 4.273 1.484 1971
1.388 4.407 1.512 3930
1.344 4.270 1.469 1750
1.405 4.461 1.515 3821
1.361 4.324 1.472 1552
1.415 4.494 1.510 3990
1.372 4.357 1.468 1406
1.419 4.505 1.499 4178
1.473 4.679 1.552 1142
1.422 4.516 1.487 2238
1.470 4.669 1.533 1704
1.464 4.651 1.513 2008
1.486 4.720 1.518 2641
1.443 4.582 1.477 1518
1.490 4.731 1.506 3999
1.446 4.593 1.465 1555
1.484 4.713 1.485 3360
1.528 4.851 1.525 2860
1.529 4.855 1.510 4064
1.483 4.709 1.469 2529
1.528 4.852 1.494 3716
1.484 4.713 1.455 1493
1.529 4.855 1.479 2036
1.584 5.031 1.528 1716
1.569 4.983 1.498 2598
1.613 5.122 1.537 2221
1.575 5.002 1.487 3520
1.621 5.148 1.527 2897
1.624 5.159 1.514 4051
1.581 5.020 1.476 3762
1.628 5.170 1.500 6387
1.681 5.338 1.545 4551
1.680 5.335 1.527 6746
1.629 5.174 1.484 5841
1.676 5.324 1.507 6483
1.616 5.134 1.457 3462
1.678 5.328 1.490 5148
1.722 5.467 1.526 2608
1.716 5.449 1.504 3883
1.672 5.310 1.469 2614
1.710 5.431 1.482 3671
1.754 5.571 1.517 3601
1.755 5.574 1.500 3547
1.704 5.413 1.460 3415
1.710 5.431 1.447 2597
1.759 5.585 1.485 2143
1.790 5.685 1.491 2713
1.739 5.523 1.452 2533
1.844 5.858 1.514 2925
1.793 5.696 1.475 2798
1.820 5.781 1.477 2706
1.864 5.921 1.510 1861
1.805 5.733 1.447 2383
1.849 5.873 1.480 1666
1.843 5.855 1.457 2411
1.888 5.995 1.489 1703
1.886 5.991 1.469 2959
1.842 5.851 1.438 2316
1.892 6.010 1.454 2655
1.939 6.157 1.487 1655
1.875 5.954 1.423 2126
1.940 6.161 1.468 2096
2.025 6.431 1.506 1930
1.971 6.261 1.470 1909
1.970 6.257 1.449 1735
2.021 6.420 1.484 1341
2.065 6.557 1.492 2112
1.946 6.179 1.413 1239
2.049 6.509 1.461 2406
2.145 6.813 1.524 1678
2.149 6.824 1.504 2045
2.051 6.513 1.442 1759
2.152 6.835 1.485 2121
2.070 6.576 1.434 1406
2.177 6.913 1.479 2033
2.130 6.765 1.450 1587
2.183 6.932 1.461 2837
2.133 6.776 1.431 1393
2.188 6.950 1.442 3575
2.235 7.099 1.471 1737
2.192 6.961 1.423 3060
2.236 7.103 1.449 2283
2.195 6.972 1.403 2588
2.270 7.210 1.446 2016
2.194 6.968 1.380 2306
2.316 7.355 1.450 1811
2.409 7.649 1.479 1766
2.319 7.366 1.429 1521
2.375 7.541 1.436 1876
2.419 7.683 1.461 1463
2.338 7.426 1.393 1962
2.383 7.567 1.417 1609
2.337 7.422 1.369 1924
2.381 7.563 1.393 1596
2.528 8.029 1.446 1900
2.437 7.738 1.398 1408
2.529 8.033 1.421 2087
2.593 8.235 1.453 1151
2.547 8.089 1.405 2173
2.465 7.827 1.364 1523
2.541 8.070 1.377 1942
2.590 8.227 1.401 1605
2.591 8.230 1.376 1709
2.540 8.066 1.351 1313
2.593 8.234 1.351 1375
2.689 8.540 1.396 1146
2.660 8.446 1.356 1249
2.591 8.230 1.325 1153
2.552 8.106 1.282 1142
2.661 8.450 1.331 1089
0.691 2.155 1.722 10192
0.692 2.159 1.715 20384
0.655 2.043 1.628 1350
0.694 2.164 1.709 20384
0.656 2.047 1.622 1350
0.695 2.168 1.703 16577
0.698 2.179 1.701 13169
0.698 2.177 1.690 10476
0.736 2.294 1.775 1352
0.697 2.175 1.678 8526
0.735 2.293 1.764 2377
0.699 2.179 1.672 8288
0.736 2.297 1.757 2377
0.702 2.190 1.670 6907
0.740 2.308 1.755 3171
0.729 2.275 1.721 7907
0.691 2.156 1.637 3816
0.733 2.286 1.719 6397
0.695 2.167 1.635 3991
0.738 2.302 1.721 5191
0.696 2.171 1.628 3810
0.742 2.313 1.718 3903
0.695 2.169 1.617 3039
0.745 2.324 1.716 2757
0.697 2.173 1.611 2318
0.746 2.328 1.709 3061
0.698 2.177 1.604 1788
0.748 2.333 1.702 3365
0.699 2.181 1.598 1258
0.747 2.331 1.690 3354
0.786 2.451 1.772 1085
0.746 2.329 1.679 3187
0.785 2.449 1.761 1773
0.742 2.314 1.659 3057
0.782 2.441 1.745 2622
0.751 2.343 1.669 3144
0.790 2.464 1.750 2622
0.763 2.380 1.683 3813
0.802 2.501 1.764 1699
0.770 2.403 1.689 4923
0.774 2.414 1.686 6337
0.785 2.450 1.700 6200
0.793 2.474 1.705 6812
0.754 2.352 1.626 1022
0.792 2.471 1.693 9293
0.794 2.476 1.686 11794
0.754 2.353 1.608 1057
0.795 2.480 1.678 11277
0.834 2.603 1.756 1356
0.796 2.484 1.671 10760
0.836 2.607 1.748 1732
0.798 2.489 1.663 7983
0.837 2.612 1.740 2189
0.807 2.519 1.672 6572
0.847 2.642 1.749 1612
0.811 2.530 1.668 7438
0.851 2.653 1.745 1816
0.812 2.534 1.661 8307
0.852 2.657 1.737 2366
0.816 2.545 1.657 6942
0.855 2.668 1.733 2177
0.842 2.627 1.697 4578
0.802 2.503 1.622 1774
0.846 2.638 1.693 3430
0.806 2.514 1.618 1693
0.860 2.682 1.709 4422
0.820 2.557 1.634 2620
0.861 2.686 1.701 5491
0.821 2.561 1.627 2050
0.862 2.690 1.692 7508
0.822 2.565 1.619 1946
0.866 2.701 1.688 9539
0.826 2.576 1.615 2076
0.867 2.705 1.680 7429
0.827 2.580 1.607 1667
0.884 2.756 1.699 5448
0.843 2.630 1.626 3237
0.857 2.674 1.641 5239
0.898 2.800 1.713 3951
0.895 2.791 1.697 6226
0.854 2.665 1.625 4588
0.896 2.795 1.689 7689
0.856 2.669 1.617 4266
0.898 2.800 1.680 6775
0.857 2.673 1.609 3165
0.897 2.797 1.668 5877
0.937 2.924 1.739 1760
0.926 2.888 1.708 6613
0.885 2.762 1.638 3079
0.927 2.893 1.699 7167
0.887 2.766 1.629 3307
0.929 2.897 1.690 6552
0.888 2.770 1.621 3253
0.922 2.874 1.667 7783
0.881 2.747 1.598 1218
0.925 2.885 1.662 10814
0.926 2.890 1.653 12096
0.967 3.017 1.722 1126
0.928 2.894 1.645 11096
0.969 3.022 1.712 2616
0.931 2.905 1.639 8049
0.972 3.033 1.707 4212
0.946 2.949 1.652 8138
0.987 3.078 1.719 1366
0.949 2.960 1.646 8407
0.990 3.089 1.713 3033
0.953 2.971 1.641 7683
0.994 3.100 1.707 4665
0.956 2.982 1.636 6272
0.997 3.111 1.701 5098
0.960 2.993 1.630 7035
1.001 3.122 1.695 4686
0.961 2.997 1.621 7469
1.002 3.126 1.686 6511
1.004 3.131 1.677 8515
0.962 3.001 1.612 7010
1.005 3.135 1.667 7991
0.964 3.006 1.603 5710
0.995 3.105 1.641 8677
1.037 3.235 1.705 2539
0.995 3.102 1.628 8770
1.036 3.232 1.692 4869
0.996 3.107 1.619 7363
1.038 3.237 1.682 5214
1.002 3.124 1.616 6571
1.043 3.255 1.679 3329
1.021 3.183 1.633 9146
1.062 3.314 1.695 1231
1.026 3.201 1.630 10185
1.068 3.332 1.692 1751
1.032 3.219 1.627 9166
1.074 3.350 1.688 1527
1.033 3.223 1.617 6673
1.075 3.354 1.678 1451
1.052 3.283 1.633 4431
1.067 3.328 1.642 4527
1.025 3.197 1.582 1252
1.068 3.332 1.632 6241
1.067 3.330 1.619 7635
1.110 3.461 1.678 1133
1.069 3.334 1.608 6580
1.111 3.465 1.667 1354
1.070 3.338 1.598 5084
1.112 3.470 1.657 2179
1.103 3.439 1.631 7184
1.060 3.307 1.573 1656
1.108 3.457 1.627 9111
1.066 3.325 1.569 2502
1.114 3.475 1.623 7200
1.072 3.343 1.565 2895
1.095 3.417 1.585 6648
1.138 3.549 1.642 3350
1.097 3.421 1.575 4189
1.139 3.553 1.631 2874
1.107 3.453 1.576 3631
1.149 3.585 1.632 1591
1.113 3.470 1.572 4534
1.155 3.604 1.627 1679
1.127 3.517 1.579 6594
1.170 3.650 1.634 2533
1.131 3.528 1.571 5665
1.174 3.661 1.626 2777
1.148 3.581 1.580 4972
1.191 3.714 1.635 1466
1.154 3.599 1.575 4485
1.197 3.732 1.629 2398
1.198 3.736 1.618 4300
1.153 3.596 1.562 2473
1.195 3.726 1.601 4580
1.149 3.586 1.545 2645
1.191 3.716 1.584 5510
1.148 3.582 1.531 3340
1.200 3.742 1.581 5312
1.156 3.607 1.529 3240
1.210 3.774 1.581 5952
1.167 3.640 1.529 2037
1.222 3.813 1.583 9347
1.179 3.679 1.532 1268
1.217 3.796 1.564 11060
1.216 3.793 1.549 6600
1.259 3.928 1.600 2141
1.256 3.918 1.583 3816
1.213 3.783 1.533 2189
1.264 3.943 1.579 5198
1.221 3.808 1.529 1574
1.263 3.940 1.565 5231
1.318 4.111 1.627 1305
1.251 3.901 1.537 4300
1.294 4.036 1.586 2938
1.293 4.033 1.571 6698
1.250 3.898 1.523 3471
1.297 4.044 1.562 8395
1.340 4.180 1.610 2256
1.298 4.048 1.550 7633
1.341 4.184 1.598 3273
1.301 4.059 1.540 5892
1.345 4.195 1.587 2303
1.328 4.142 1.555 6100
1.284 4.006 1.508 1540
1.331 4.153 1.545 7332
1.384 4.318 1.601 1469
1.337 4.171 1.537 5434
1.386 4.322 1.588 2543
1.387 4.326 1.575 5004
1.343 4.189 1.529 2226
1.386 4.323 1.560 7812
1.342 4.186 1.514 2174
1.387 4.327 1.546 7671
1.343 4.190 1.501 2835
1.400 4.366 1.545 5328
1.354 4.223 1.498 2436
1.406 4.385 1.537 5487
1.450 4.522 1.581 1137
1.407 4.389 1.523 4777
1.465 4.569 1.581 1191
1.406 4.385 1.508 3671
1.468 4.580 1.569 1548
1.430 4.461 1.517 3270
1.474 4.599 1.560 1698
1.438 4.487 1.510 4187
1.482 4.624 1.553 1349
1.442 4.498 1.499 4230
1.488 4.643 1.543 1260
1.445 4.509 1.487 2552
1.492 4.654 1.531 2081
1.489 4.643 1.513 2859
1.444 4.505 1.471 1399
1.492 4.654 1.501 3065
1.543 4.814 1.548 1259
1.512 4.716 1.504 4278
1.468 4.578 1.463 1080
1.508 4.705 1.485 3739
1.553 4.843 1.525 2194
1.566 4.884 1.521 3375
1.510 4.709 1.471 2283
1.578 4.924 1.516 3259
1.534 4.785 1.477 1356
1.554 4.847 1.479 2527
1.598 4.986 1.518 2009
1.593 4.968 1.496 3301
1.637 5.106 1.535 1829
1.629 5.081 1.511 3982
1.584 4.942 1.473 2951
1.635 5.099 1.500 3550
1.707 5.326 1.561 2301
1.709 5.330 1.545 5616
1.650 5.147 1.496 5101
1.708 5.326 1.527 6335
1.642 5.122 1.473 5707
1.704 5.315 1.507 6127
1.641 5.118 1.455 3117
1.717 5.356 1.500 5968
1.672 5.217 1.464 2035
1.723 5.374 1.487 4889
1.779 5.550 1.532 2575
1.743 5.437 1.486 4041
1.788 5.576 1.520 3106
1.786 5.572 1.502 3604
1.732 5.404 1.460 3516
1.738 5.422 1.447 3039
1.783 5.562 1.481 2600
1.836 5.727 1.503 2757
1.782 5.558 1.463 2371
1.875 5.848 1.514 2588
1.823 5.687 1.475 2535
1.824 5.690 1.458 2551
1.883 5.874 1.501 2050
1.832 5.716 1.446 3129
1.877 5.856 1.478 1657
1.834 5.720 1.428 2354
1.916 5.977 1.487 2155
1.920 5.989 1.471 3209
1.875 5.849 1.439 1524
1.923 6.000 1.454 3528
1.973 6.155 1.488 1912
1.974 6.158 1.470 2665
1.922 5.996 1.434 2580
2.058 6.420 1.506 2432
1.973 6.155 1.449 2119
1.981 6.180 1.435 1828
2.067 6.446 1.491 1708
2.099 6.546 1.492 2893
2.042 6.369 1.455 1491
2.086 6.506 1.463 2794
2.178 6.794 1.522 2076
2.182 6.805 1.503 2382
2.092 6.524 1.446 1887
2.185 6.817 1.484 2045
2.109 6.580 1.437 1691
2.189 6.828 1.464 2053
2.267 7.072 1.512 1531
2.221 6.928 1.462 1915
2.273 7.091 1.494 1728
2.224 6.939 1.442 2137
2.274 7.095 1.472 1762
2.271 7.083 1.448 2243
2.226 6.942 1.421 1718
2.234 6.968 1.404 2066
2.346 7.317 1.468 1987
2.345 7.314 1.445 2598
2.233 6.964 1.382 2248
2.346 7.317 1.422 2032
2.439 7.607 1.473 1970
2.411 7.521 1.435 1686
2.314 7.217 1.382 1585
2.415 7.532 1.413 1583
2.467 7.696 1.441 1390
2.480 7.737 1.424 1756
2.416 7.536 1.390 1528
2.596 8.098 1.459 1482
2.479 7.733 1.399 1343
2.595 8.094 1.433 1810
2.514 7.841 1.392 1159
2.594 8.090 1.407 2346
2.512 7.837 1.367 1593
2.597 8.101 1.384 2001
2.511 7.833 1.342 1219
2.732 8.523 1.422 1392
2.582 8.053 1.351 1264
2.774 8.653 1.415 1260
2.729 8.511 1.394 1226
2.768 8.634 1.386 1020
2.599 8.107 1.284 1253
2.605 8.125 1.261 1157
2.898 9.040 1.304 1096
0.699 2.152 1.722 10256
0.701 2.157 1.715 20513
0.663 2.040 1.628 1354
0.702 2.161 1.709 20513
0.664 2.044 1.622 1354
0.704 2.165 1.703 16862
0.742 2.282 1.789 1218
0.707 2.176 1.701 13433
0.745 2.293 1.787 1031
0.707 2.174 1.690 10695
0.745 2.291 1.775 1395
0.706 2.172 1.678 8512
0.744 2.290 1.764 2064
0.707 2.176 1.672 8316
0.746 2.294 1.757 2064
0.711 2.187 1.670 7018
0.749 2.305 1.755 2720
0.738 2.272 1.721 7125
0.700 2.154 1.637 3916
0.742 2.283 1.719 5946
0.703 2.164 1.635 4310
0.745 2.293 1.716 4853
0.705 2.168 1.628 4258
0.751 2.310 1.718 3804
0.704 2.166 1.617 3307
0.756 2.327 1.720 3391
0.705 2.170 1.611 2403
0.756 2.325 1.709 3859
0.707 2.174 1.604 1699
0.755 2.323 1.697 4526
0.794 2.443 1.780 1374
0.756 2.328 1.690 4486
0.795 2.448 1.772 1142
0.756 2.326 1.679 4447
0.795 2.446 1.761 1902
0.757 2.330 1.672 4368
0.796 2.450 1.753 2479
0.759 2.334 1.665 4215
0.798 2.455 1.746 2691
0.770 2.370 1.679 4483
0.810 2.491 1.760 2023
0.778 2.393 1.685 5007
0.786 2.417 1.690 6427
0.799 2.460 1.708 6934
0.760 2.338 1.629 1699
0.803 2.470 1.705 8156
0.763 2.349 1.626 1119
0.804 2.475 1.697 9725
0.765 2.353 1.619 1557
0.806 2.479 1.690 11293
0.766 2.357 1.612 1994
0.807 2.483 1.682 10562
0.767 2.361 1.605 1862
0.809 2.488 1.675 9831
0.769 2.365 1.597 1729
0.812 2.498 1.671 7820
0.852 2.621 1.748 1852
0.818 2.516 1.672 6461
0.858 2.639 1.749 1588
0.821 2.526 1.668 7336
0.861 2.650 1.745 1617
0.822 2.530 1.661 8281
0.863 2.654 1.737 1997
0.826 2.541 1.657 7068
0.866 2.665 1.733 1854
0.827 2.545 1.650 4565
0.868 2.669 1.725 2047
0.831 2.556 1.646 3478
0.871 2.680 1.721 2515
0.873 2.685 1.713 4599
0.832 2.560 1.638 2897
0.872 2.682 1.701 6073
0.831 2.558 1.627 2160
0.873 2.687 1.692 8138
0.833 2.562 1.619 2250
0.875 2.691 1.684 10203
0.834 2.566 1.611 2339
0.876 2.695 1.676 7807
0.835 2.570 1.603 1761
0.867 2.667 1.649 5690
0.907 2.792 1.722 3534
0.868 2.671 1.641 5506
0.909 2.796 1.713 3771
0.904 2.781 1.693 5395
0.863 2.655 1.622 4040
0.907 2.792 1.689 6769
0.866 2.666 1.617 4036
0.909 2.796 1.680 5915
0.868 2.670 1.609 3043
0.934 2.874 1.713 5248
0.893 2.747 1.642 2638
0.938 2.885 1.708 6508
0.896 2.758 1.638 3193
0.939 2.889 1.699 6646
0.898 2.762 1.629 3157
0.943 2.900 1.694 5577
0.901 2.773 1.625 3336
0.933 2.871 1.667 6428
0.892 2.744 1.598 1081
0.937 2.882 1.662 8948
0.938 2.886 1.653 10154
0.979 3.013 1.722 1055
0.939 2.890 1.645 9533
0.981 3.018 1.712 2461
0.943 2.901 1.639 7184
0.984 3.029 1.707 4200
0.955 2.939 1.648 7503
0.997 3.067 1.715 1683
0.959 2.950 1.643 7791
1.000 3.078 1.710 3177
0.964 2.967 1.641 7118
1.006 3.096 1.707 4576
0.966 2.972 1.632 5573
1.008 3.100 1.698 5198
0.974 2.996 1.633 6445
1.016 3.125 1.699 4723
1.013 3.116 1.683 7565
0.971 2.987 1.618 6940
1.014 3.120 1.673 9658
0.972 2.991 1.609 6961
1.015 3.124 1.664 8736
0.973 2.995 1.600 5440
1.010 3.108 1.644 8224
0.968 2.978 1.580 1736
1.007 3.098 1.628 8406
1.049 3.228 1.692 4431
1.008 3.103 1.619 7489
1.051 3.232 1.682 4986
1.014 3.120 1.616 6759
1.056 3.250 1.679 3189
1.033 3.179 1.633 8423
1.076 3.310 1.695 1602
1.041 3.204 1.633 9719
1.084 3.334 1.695 1832
1.047 3.222 1.630 8938
1.090 3.352 1.691 1459
1.055 3.247 1.630 6506
1.068 3.285 1.636 4891
1.083 3.331 1.645 4781
1.040 3.200 1.585 1303
1.086 3.342 1.638 5916
1.044 3.211 1.578 1061
1.081 3.325 1.619 6635
1.080 3.322 1.605 5856
1.123 3.454 1.664 1190
1.086 3.340 1.601 4784
1.128 3.472 1.660 1318
1.114 3.428 1.628 7253
1.122 3.453 1.627 8410
1.079 3.321 1.569 2218
1.105 3.401 1.592 6802
1.148 3.533 1.650 2945
1.109 3.412 1.585 6733
1.152 3.545 1.642 2963
1.113 3.423 1.578 4423
1.156 3.556 1.634 2390
1.114 3.427 1.567 3263
1.157 3.560 1.624 1899
1.138 3.501 1.586 3822
1.181 3.634 1.642 1513
1.139 3.505 1.576 6552
1.182 3.638 1.631 2929
1.143 3.516 1.568 5551
1.186 3.649 1.623 3357
1.174 3.611 1.595 3460
1.130 3.478 1.540 2280
1.170 3.601 1.578 3453
1.214 3.735 1.632 1887
1.208 3.718 1.612 4129
1.160 3.570 1.553 2063
1.210 3.722 1.601 5049
1.166 3.588 1.548 2711
1.206 3.712 1.584 6063
1.163 3.578 1.531 3301
1.215 3.737 1.581 5626
1.171 3.603 1.529 3216
1.225 3.769 1.581 6090
1.181 3.635 1.529 2021
1.238 3.808 1.583 8844
1.194 3.674 1.532 1228
1.232 3.791 1.564 10420
1.276 3.926 1.615 1007
1.231 3.788 1.549 6539
1.275 3.923 1.600 2064
1.269 3.905 1.580 3908
1.226 3.771 1.530 2415
1.282 3.945 1.582 4910
1.236 3.803 1.529 1887
1.281 3.942 1.567 4334
1.237 3.807 1.518 1488
1.266 3.896 1.537 4282
1.310 4.031 1.586 2655
1.309 4.028 1.571 6491
1.265 3.893 1.523 3570
1.313 4.039 1.562 8450
1.269 3.904 1.513 2414
1.314 4.043 1.550 7731
1.358 4.179 1.598 3523
1.318 4.054 1.540 5807
1.362 4.190 1.587 2586
1.347 4.144 1.557 6233
1.303 4.008 1.510 1506
1.350 4.155 1.547 7544
1.404 4.319 1.604 1423
1.354 4.166 1.537 5863
1.405 4.323 1.591 2775
1.406 4.327 1.577 4946
1.362 4.191 1.532 2376
1.405 4.324 1.562 7251
1.361 4.188 1.517 2308
1.404 4.321 1.546 7061
1.360 4.185 1.501 2823
1.417 4.361 1.545 5653
1.371 4.217 1.498 2854
1.421 4.372 1.534 6270
1.377 4.235 1.490 1002
1.425 4.383 1.523 4700
1.483 4.563 1.581 1091
1.423 4.380 1.508 3030
1.487 4.574 1.569 1576
1.446 4.448 1.515 3317
1.490 4.585 1.558 1799
1.456 4.481 1.510 4164
1.501 4.618 1.553 1458
1.460 4.492 1.499 3968
1.505 4.629 1.541 1292
1.461 4.496 1.485 2320
1.508 4.640 1.529 1933
1.505 4.630 1.511 2948
1.460 4.492 1.469 1353
1.511 4.648 1.501 3595
1.567 4.822 1.552 1376
1.533 4.717 1.506 4500
1.488 4.579 1.465 1220
1.530 4.706 1.487 4064
1.582 4.866 1.533 2126
1.592 4.899 1.527 3245
1.533 4.717 1.475 2880
1.598 4.917 1.516 3608
1.537 4.728 1.463 1707
1.571 4.834 1.477 3514
1.616 4.972 1.516 1992
1.613 4.961 1.496 3131
1.568 4.823 1.458 1927
1.649 5.074 1.511 3880
1.604 4.936 1.473 2587
1.658 5.100 1.502 4086
1.729 5.319 1.561 2289
1.659 5.104 1.486 5516
1.732 5.330 1.547 5460
1.655 5.093 1.467 6111
1.731 5.327 1.528 5401
1.728 5.316 1.508 5257
1.654 5.089 1.449 3221
1.738 5.349 1.500 5780
1.784 5.488 1.535 1866
1.744 5.367 1.487 4977
1.790 5.506 1.523 2371
1.765 5.430 1.486 3932
1.810 5.569 1.520 2716
1.806 5.558 1.500 3364
1.754 5.397 1.460 3170
1.808 5.562 1.483 2995
1.760 5.415 1.447 2769
1.811 5.573 1.468 2980
1.859 5.720 1.503 2916
1.898 5.841 1.514 2135
1.848 5.687 1.477 2000
1.876 5.771 1.479 2318
1.921 5.911 1.511 1081
1.858 5.716 1.447 2861
1.937 5.959 1.504 1823
1.938 5.962 1.485 2451
1.857 5.712 1.428 2321
1.953 6.010 1.477 3238
1.908 5.870 1.446 1431
1.947 5.992 1.454 3514
1.998 6.147 1.488 1775
1.946 5.988 1.434 2910
2.001 6.158 1.471 2453
2.084 6.412 1.506 2262
1.955 6.014 1.421 2114
2.004 6.165 1.434 1788
2.090 6.431 1.490 1650
2.125 6.538 1.492 2903
2.077 6.390 1.461 1469
2.124 6.534 1.470 2635
2.203 6.778 1.521 2261
2.209 6.797 1.503 2509
2.118 6.516 1.446 1862
2.213 6.808 1.484 1891
2.136 6.571 1.437 1607
2.214 6.811 1.463 1876
2.264 6.967 1.493 1647
2.268 6.978 1.474 1960
2.217 6.822 1.444 1762
2.305 7.093 1.473 1771
2.252 6.930 1.442 1405
2.299 7.074 1.448 2222
2.253 6.933 1.421 1221
2.300 7.078 1.426 2148
2.375 7.308 1.468 1977
2.376 7.311 1.446 2859
2.261 6.955 1.382 1971
2.378 7.315 1.424 2403
2.467 7.590 1.472 2165
2.345 7.215 1.383 2020
2.466 7.586 1.448 1917
2.496 7.679 1.440 1367
2.387 7.344 1.383 1262
2.514 7.734 1.425 1675
2.388 7.348 1.360 1153
2.629 8.088 1.459 1371
2.513 7.731 1.400 1303
2.630 8.091 1.434 1874
2.545 7.831 1.392 1310
2.629 8.087 1.408 2449
2.546 7.834 1.368 1623
2.632 8.098 1.385 2061
2.857 8.791 1.492 1219
2.858 8.795 1.465 1446
2.638 8.117 1.362 1286
2.809 8.642 1.415 1336
2.860 8.798 1.438 1195
2.807 8.638 1.388 1112
2.863 8.809 1.413 1022
2.634 8.104 1.285 1332
2.637 8.115 1.261 1226
2.937 9.035 1.305 1076
0.705 2.150 1.722 10114
0.707 2.155 1.715 20229
0.669 2.038 1.628 1208
0.708 2.159 1.709 20229
0.746 2.276 1.796 1391
0.710 2.163 1.703 16768
0.748 2.280 1.789 1417
0.713 2.174 1.701 13356
0.752 2.291 1.787 1198
0.712 2.172 1.690 10630
0.751 2.289 1.775 1395
0.712 2.170 1.678 8297
0.750 2.288 1.764 1807
0.713 2.174 1.672 8152
0.752 2.292 1.757 1807
0.717 2.185 1.670 7006
0.755 2.303 1.755 2361
0.745 2.270 1.721 6359
0.706 2.152 1.637 3909
0.746 2.274 1.714 5413
0.707 2.156 1.630 4132
0.748 2.279 1.707 4467
0.709 2.160 1.624 4354
0.759 2.314 1.723 3498
0.712 2.170 1.622 3430
0.765 2.331 1.724 3415
0.711 2.168 1.611 2487
0.764 2.329 1.713 4004
0.713 2.172 1.604 1711
0.761 2.321 1.697 4821
0.801 2.441 1.780 1273
0.761 2.319 1.686 4794
0.800 2.439 1.768 1471
0.762 2.323 1.679 4700
0.802 2.444 1.761 1852
0.789 2.404 1.723 4793
0.749 2.283 1.642 2171
0.765 2.332 1.665 4349
0.805 2.453 1.746 2542
0.779 2.374 1.683 4425
0.819 2.495 1.764 1414
0.789 2.404 1.693 5030
0.801 2.440 1.707 6535
0.761 2.319 1.627 2656
0.806 2.457 1.708 7475
0.766 2.336 1.629 2258
0.810 2.468 1.705 9016
0.770 2.346 1.626 1584
0.813 2.479 1.701 9952
0.773 2.357 1.623 1823
0.815 2.483 1.694 10954
0.775 2.361 1.616 1795
0.814 2.481 1.682 10186
0.774 2.359 1.605 1340
0.815 2.485 1.675 9591
0.856 2.608 1.752 1494
0.817 2.490 1.667 7554
0.857 2.612 1.744 2058
0.837 2.552 1.696 6084
0.828 2.524 1.668 6716
0.868 2.647 1.745 1433
0.831 2.535 1.665 7676
0.872 2.658 1.741 1409
0.833 2.539 1.657 6570
0.873 2.663 1.733 1583
0.836 2.550 1.654 4212
0.877 2.673 1.729 1642
0.842 2.567 1.654 3320
0.883 2.691 1.728 2286
0.880 2.682 1.713 4675
0.839 2.558 1.638 2845
0.879 2.680 1.701 6399
0.838 2.556 1.627 2240
0.881 2.684 1.692 8419
0.840 2.560 1.619 2300
0.882 2.689 1.684 10439
0.841 2.564 1.611 2361
0.883 2.693 1.676 7892
0.924 2.818 1.749 1883
0.874 2.664 1.649 5742
0.915 2.790 1.722 3705
0.875 2.668 1.641 5498
0.917 2.794 1.713 3486
0.879 2.679 1.637 4920
0.920 2.805 1.708 4141
0.911 2.776 1.681 6127
0.869 2.650 1.610 2813
0.912 2.780 1.673 5402
0.871 2.654 1.602 2219
0.942 2.871 1.713 4982
0.896 2.731 1.635 3227
0.945 2.882 1.708 6271
0.904 2.756 1.638 3387
0.947 2.886 1.699 6146
0.905 2.760 1.629 3009
0.950 2.897 1.694 4849
0.909 2.770 1.625 3010
0.941 2.868 1.667 5460
0.899 2.741 1.598 1027
0.942 2.872 1.658 7415
0.984 3.000 1.727 1407
0.946 2.883 1.653 8417
0.988 3.011 1.722 1075
0.947 2.888 1.645 8154
0.989 3.015 1.712 2379
0.951 2.898 1.639 6457
0.993 3.026 1.707 4238
0.963 2.936 1.648 6785
1.005 3.064 1.715 1636
0.967 2.947 1.643 7001
1.009 3.075 1.710 3110
0.973 2.965 1.641 6191
1.015 3.093 1.707 4598
1.014 3.091 1.694 5434
0.972 2.962 1.629 4423
1.018 3.102 1.689 5730
0.975 2.973 1.623 5024
1.021 3.113 1.683 8295
0.979 2.984 1.618 6341
1.023 3.117 1.673 10525
0.980 2.988 1.609 6626
1.024 3.121 1.664 9364
0.982 2.992 1.600 5229
1.021 3.112 1.648 7926
0.978 2.983 1.584 1910
1.016 3.096 1.628 7839
1.058 3.225 1.692 3913
1.019 3.107 1.622 7425
1.062 3.236 1.685 4101
1.023 3.118 1.616 6918
1.065 3.248 1.679 2932
1.044 3.183 1.636 7725
1.087 3.313 1.698 1771
1.052 3.208 1.636 8870
1.095 3.338 1.698 1765
1.063 3.240 1.639 8695
1.020 3.109 1.578 1331
1.069 3.258 1.636 6863
1.026 3.127 1.575 1186
1.077 3.282 1.636 5176
1.096 3.342 1.651 4894
1.053 3.211 1.591 1936
1.100 3.353 1.644 5808
1.057 3.222 1.584 1476
1.090 3.322 1.619 5569
1.091 3.326 1.608 5163
1.095 3.337 1.601 4565
1.138 3.469 1.660 1269
1.123 3.425 1.628 6897
1.132 3.450 1.627 7450
1.088 3.318 1.569 1886
1.110 3.384 1.586 6711
1.153 3.516 1.644 3900
1.118 3.409 1.585 6600
1.162 3.541 1.642 2686
1.122 3.420 1.578 4712
1.165 3.552 1.634 2339
1.126 3.431 1.570 3250
1.169 3.564 1.626 1906
1.150 3.505 1.589 4172
1.193 3.638 1.645 1303
1.149 3.502 1.576 6337
1.192 3.635 1.631 3024
1.150 3.506 1.565 5708
1.196 3.646 1.623 3707
1.147 3.496 1.549 3550
1.200 3.657 1.615 2783
1.183 3.605 1.581 2993
1.226 3.738 1.635 1481
1.216 3.707 1.610 4218
1.161 3.539 1.542 2497
1.217 3.711 1.598 5525
1.174 3.578 1.545 2907
1.216 3.708 1.584 6529
1.173 3.575 1.531 3308
1.222 3.726 1.579 5540
1.178 3.592 1.526 2933
1.235 3.766 1.581 5949
1.191 3.632 1.529 1964
1.248 3.805 1.583 8246
1.204 3.671 1.532 1224
1.243 3.788 1.564 9255
1.287 3.922 1.615 1161
1.242 3.785 1.549 6058
1.286 3.919 1.600 1969
1.275 3.888 1.575 3991
1.231 3.753 1.525 2063
1.293 3.941 1.582 4230
1.246 3.799 1.529 2353
1.294 3.945 1.570 3465
1.250 3.810 1.520 1750
1.277 3.892 1.537 4087
1.321 4.027 1.586 2404
1.320 4.024 1.571 5990
1.276 3.889 1.523 3496
1.324 4.035 1.562 7869
1.279 3.900 1.513 2527
1.325 4.039 1.550 7316
1.370 4.175 1.598 3516
1.329 4.050 1.540 5655
1.373 4.186 1.587 2702
1.358 4.140 1.557 6299
1.314 4.004 1.510 1372
1.362 4.151 1.547 8018
1.317 4.015 1.500 1299
1.365 4.162 1.537 6552
1.417 4.320 1.591 2733
1.418 4.324 1.577 4457
1.371 4.180 1.529 2523
1.417 4.320 1.562 6275
1.373 4.184 1.517 2462
1.416 4.317 1.546 6253
1.371 4.181 1.501 2907
1.427 4.350 1.543 5265
1.382 4.213 1.498 3006
1.433 4.368 1.534 5889
1.388 4.231 1.490 1139
1.437 4.379 1.523 4297
1.450 4.419 1.521 2772
1.499 4.570 1.569 1502
1.460 4.452 1.517 3365
1.505 4.589 1.560 1600
1.469 4.477 1.510 4310
1.514 4.614 1.553 1356
1.472 4.488 1.499 3681
1.517 4.625 1.541 1276
1.473 4.492 1.485 1902
1.519 4.629 1.527 1657
1.515 4.618 1.508 2631
1.470 4.481 1.467 1144
1.521 4.637 1.499 3679
1.580 4.818 1.552 1493
1.541 4.698 1.502 4540
1.496 4.561 1.461 1130
1.543 4.702 1.487 4628
1.595 4.862 1.533 2220
1.546 4.713 1.475 3728
1.608 4.902 1.529 3168
1.614 4.920 1.518 3435
1.550 4.724 1.463 2145
1.584 4.830 1.477 3830
1.630 4.968 1.516 1787
1.624 4.950 1.494 3093
1.578 4.811 1.456 2031
1.666 5.077 1.513 3351
1.620 4.939 1.475 2655
1.672 5.096 1.502 4262
1.746 5.321 1.563 2217
1.673 5.099 1.486 5646
1.747 5.325 1.547 4798
1.672 5.096 1.469 5888
1.748 5.329 1.530 4269
1.747 5.326 1.512 4301
1.668 5.085 1.449 3107
1.753 5.344 1.500 5299
1.799 5.483 1.535 1953
1.762 5.370 1.489 4669
1.807 5.509 1.524 2137
1.780 5.425 1.486 3862
1.825 5.564 1.520 2319
1.822 5.553 1.500 3014
1.769 5.392 1.460 2695
1.830 5.579 1.488 3009
1.780 5.425 1.451 2476
1.829 5.575 1.470 3409
1.875 5.714 1.503 3055
1.830 5.579 1.453 2154
1.893 5.770 1.498 1974
1.891 5.766 1.479 2444
1.937 5.905 1.511 1010
1.873 5.711 1.447 2417
1.953 5.953 1.504 2014
1.954 5.957 1.485 2650
1.872 5.707 1.428 2049
1.970 6.005 1.477 3187
1.910 5.821 1.436 1612
1.961 5.979 1.452 3327
2.015 6.141 1.488 1666
1.963 5.983 1.434 2931
2.021 6.160 1.473 2307
1.969 6.001 1.419 2256
2.102 6.406 1.506 2105
2.011 6.130 1.427 1776
2.088 6.366 1.477 1737
2.143 6.532 1.492 2762
2.092 6.377 1.460 1630
2.221 6.772 1.521 2479
2.139 6.521 1.469 2479
2.225 6.783 1.501 2715
2.133 6.502 1.445 1768
2.231 6.802 1.484 1853
2.154 6.565 1.437 1495
2.286 6.968 1.495 1804
2.196 6.694 1.441 1620
2.287 6.972 1.474 1990
2.231 6.802 1.441 1525
2.327 7.094 1.475 1657
2.281 6.953 1.448 1255
2.323 7.083 1.450 1933
2.272 6.927 1.421 1142
2.317 7.064 1.425 1910
2.395 7.301 1.468 1909
2.396 7.305 1.446 2993
2.477 7.550 1.490 1814
2.400 7.316 1.425 2701
2.485 7.576 1.471 2286
2.365 7.208 1.383 2445
2.486 7.579 1.448 2070
2.407 7.338 1.383 1609
2.548 7.768 1.456 1471
2.537 7.735 1.426 1571
2.408 7.341 1.360 1351
2.651 8.080 1.459 1309
2.536 7.731 1.402 1243
2.652 8.084 1.434 1942
2.567 7.824 1.392 1365
2.653 8.088 1.410 2513
2.568 7.827 1.368 1599
2.654 8.091 1.385 2070
2.879 8.776 1.491 1476
2.880 8.779 1.464 1653
2.660 8.109 1.362 1342
2.830 8.627 1.414 1394
2.881 8.783 1.437 1354
2.882 8.787 1.411 1215
2.829 8.623 1.387 1196
2.656 8.097 1.285 1373
2.891 8.812 1.387 1051
2.660 8.107 1.261 1220
2.834 8.640 1.309 1090
2.961 9.027 1.305 1058
0.708 2.149 1.722 9900
0.710 2.154 1.715 19800
0.748 2.270 1.803 1340
0.711 2.158 1.709 19800
0.749 2.275 1.796 1546
0.712 2.162 1.703 16546
0.751 2.279 1.789 1599
0.714 2.167 1.696 13293
0.752 2.284 1.782 1651
0.715 2.171 1.690 10498
0.754 2.288 1.775 1424
0.715 2.169 1.678 8086
0.753 2.287 1.764 1621
0.716 2.173 1.672 7997
0.755 2.291 1.757 1621
0.717 2.178 1.665 7149
0.756 2.296 1.750 2552
0.721 2.188 1.663 6469
0.760 2.306 1.748 2874
0.720 2.186 1.652 5396
0.759 2.305 1.736 3440
0.715 2.172 1.633 4668
0.755 2.290 1.716 4055
0.715 2.169 1.622 3492
0.762 2.313 1.723 3257
0.768 2.330 1.724 3464
0.714 2.167 1.611 2470
0.767 2.328 1.713 4233
0.715 2.171 1.604 1653
0.764 2.320 1.697 5178
0.804 2.440 1.780 1214
0.766 2.324 1.690 5156
0.805 2.444 1.772 1009
0.788 2.392 1.726 5281
0.749 2.272 1.645 1618
0.792 2.403 1.723 5668
0.752 2.282 1.642 2025
0.791 2.401 1.712 4787
0.751 2.280 1.631 1541
0.788 2.392 1.696 4271
0.794 2.409 1.697 5116
0.754 2.288 1.617 1380
0.806 2.446 1.711 6815
0.766 2.324 1.631 3080
0.811 2.463 1.712 8097
0.771 2.341 1.633 2473
0.813 2.467 1.705 9947
0.773 2.345 1.626 1859
0.816 2.478 1.701 10516
0.776 2.356 1.623 2034
0.818 2.482 1.694 11133
0.778 2.360 1.616 1894
0.819 2.486 1.686 10370
0.779 2.364 1.609 1575
0.818 2.484 1.675 9820
0.859 2.607 1.752 1396
0.820 2.489 1.667 7470
0.860 2.611 1.744 1945
0.840 2.551 1.696 5681
0.800 2.428 1.620 1457
0.831 2.523 1.668 6129
0.872 2.646 1.745 1265
0.835 2.534 1.665 6951
0.875 2.657 1.741 1225
0.836 2.538 1.657 5963
0.877 2.661 1.733 1350
0.840 2.549 1.654 3925
0.880 2.672 1.729 1437
0.852 2.585 1.666 3449
0.893 2.709 1.740 1799
0.883 2.681 1.713 4711
0.842 2.557 1.638 2934
0.883 2.679 1.701 6779
0.842 2.555 1.627 2459
0.884 2.683 1.692 8768
0.843 2.559 1.619 2371
0.885 2.688 1.684 10756
0.844 2.563 1.611 2284
0.885 2.685 1.672 8020
0.926 2.810 1.745 2275
0.877 2.663 1.649 5701
0.919 2.788 1.722 3716
0.879 2.667 1.641 5415
0.922 2.799 1.717 3155
0.882 2.678 1.637 4834
0.924 2.804 1.708 3338
0.905 2.748 1.666 6147
0.947 2.874 1.738 2634
0.911 2.766 1.665 5230
0.953 2.892 1.736 2725
0.945 2.870 1.713 4635
0.902 2.737 1.638 3762
0.949 2.881 1.708 5936
0.907 2.754 1.638 3487
0.953 2.892 1.703 5735
0.911 2.765 1.633 3118
0.956 2.903 1.698 4359
0.915 2.776 1.628 2801
0.945 2.867 1.667 4655
0.986 2.994 1.736 1131
0.946 2.871 1.658 6059
0.988 2.998 1.727 1587
0.950 2.882 1.653 6761
0.991 3.009 1.722 1208
0.951 2.886 1.645 6819
0.993 3.014 1.712 2370
0.957 2.904 1.643 5778
0.999 3.032 1.710 3624
0.994 3.016 1.691 6748
0.951 2.888 1.624 3610
0.997 3.027 1.685 6890
0.955 2.899 1.618 3371
1.003 3.045 1.683 5990
0.961 2.916 1.617 2888
1.018 3.089 1.694 5806
0.976 2.961 1.629 3385
1.019 3.094 1.685 6269
0.977 2.965 1.620 3673
1.023 3.105 1.679 8948
0.980 2.976 1.614 5108
1.027 3.116 1.673 11280
0.984 2.987 1.609 6074
1.026 3.113 1.660 10000
0.983 2.984 1.596 4347
1.025 3.111 1.648 7621
0.982 2.981 1.584 1804
1.022 3.101 1.632 7006
1.064 3.231 1.695 2795
1.025 3.112 1.625 7188
1.068 3.242 1.689 2982
1.029 3.123 1.619 7004
1.072 3.253 1.682 2129
1.046 3.175 1.633 7076
1.089 3.305 1.695 2282
1.066 3.234 1.649 8064
1.023 3.104 1.587 2470
1.071 3.252 1.646 8719
1.028 3.122 1.585 2316
1.075 3.263 1.639 7074
1.032 3.132 1.578 1799
1.083 3.288 1.639 5223
1.040 3.157 1.578 1187
1.100 3.340 1.651 5143
1.057 3.209 1.591 2044
1.104 3.351 1.644 5928
1.061 3.220 1.584 1511
1.112 3.376 1.644 5612
1.111 3.373 1.630 4847
1.101 3.343 1.605 4484
1.145 3.474 1.663 1193
1.126 3.416 1.625 6170
1.122 3.407 1.609 6506
1.117 3.390 1.589 6256
1.160 3.522 1.647 2854
1.123 3.408 1.585 5952
1.166 3.540 1.642 2459
1.131 3.433 1.584 4977
1.174 3.565 1.640 1734
1.139 3.457 1.582 3701
1.183 3.590 1.638 1069
1.154 3.503 1.589 5171
1.198 3.636 1.645 1207
1.153 3.500 1.576 6295
1.197 3.633 1.631 2976
1.152 3.497 1.562 6321
1.201 3.644 1.623 3874
1.151 3.494 1.549 4466
1.204 3.655 1.615 2734
1.157 3.512 1.544 3244
1.215 3.688 1.615 2632
1.221 3.706 1.610 4079
1.165 3.537 1.542 3009
1.220 3.703 1.596 5868
1.176 3.569 1.542 2868
1.219 3.700 1.582 7045
1.175 3.566 1.529 2818
1.225 3.718 1.576 5590
1.181 3.584 1.523 2566
1.240 3.764 1.581 5987
1.196 3.630 1.529 1888
1.255 3.810 1.586 7593
