1.880 4.068 1.584 2462
1.860 4.024 1.554 5780
1.800 3.894 1.508 3634
1.868 4.042 1.546 6198
1.808 3.911 1.500 2284
1.873 4.052 1.536 4836
1.942 4.203 1.588 1768
1.849 4.001 1.504 3507
1.925 4.165 1.561 2817
1.917 4.149 1.540 3557
1.857 4.018 1.496 2794
1.919 4.152 1.527 3600
1.859 4.022 1.483 1758
1.937 4.190 1.526 3915
1.876 4.060 1.482 1269
1.954 4.228 1.524 4281
2.015 4.359 1.567 1323
1.962 4.246 1.515 4541
2.023 4.377 1.558 2349
1.980 4.284 1.512 4637
2.040 4.415 1.555 1800
2.023 4.377 1.528 3647
1.962 4.246 1.485 2790
2.022 4.374 1.511 4808
2.095 4.533 1.562 1925
2.020 4.371 1.495 3275
2.097 4.537 1.547 1951
2.098 4.540 1.533 2957
2.038 4.409 1.492 2252
2.100 4.544 1.519 4305
2.039 4.412 1.478 2619
2.102 4.548 1.504 4616
2.041 4.416 1.464 2784
2.107 4.558 1.492 5612
2.046 4.426 1.452 2503
2.111 4.569 1.479 4911
2.172 4.701 1.518 3192
2.174 4.704 1.503 3983
2.110 4.565 1.463 2466
2.192 4.742 1.498 2549
2.262 4.895 1.543 2045
2.258 4.885 1.523 4476
2.190 4.739 1.481 3253
2.256 4.882 1.506 6950
2.185 4.729 1.462 2812
2.258 4.885 1.490 6089
2.351 5.087 1.547 3136
2.256 4.882 1.473 3608
2.347 5.077 1.527 3084
2.303 4.983 1.484 2849
2.435 5.269 1.562 2803
2.434 5.266 1.543 3762
2.314 5.008 1.473 2917
2.435 5.270 1.526 3654
2.332 5.046 1.467 2081
2.444 5.287 1.513 5255
2.505 5.420 1.548 2025
2.445 5.291 1.496 5115
2.507 5.424 1.531 2695
2.450 5.302 1.481 3331
2.512 5.435 1.515 2359
2.458 5.319 1.468 4357
2.520 5.452 1.501 2489
2.460 5.323 1.451 3528
2.521 5.456 1.484 2352
2.653 5.740 1.535 2860
2.536 5.487 1.473 2162
2.658 5.751 1.519 4367
2.515 5.442 1.444 2227
2.659 5.754 1.501 4576
2.562 5.544 1.450 1730
2.661 5.758 1.482 3250
2.570 5.561 1.436 1528
2.705 5.853 1.485 2541
2.643 5.719 1.454 1235
2.723 5.891 1.474 2309
2.785 6.025 1.505 1953
2.783 6.022 1.484 2402
2.708 5.860 1.448 1828
2.710 5.863 1.429 2834
2.788 6.032 1.466 2295
2.711 5.867 1.410 3186
2.845 6.156 1.473 2827
2.847 6.159 1.454 3021
2.785 6.025 1.425 2452
2.975 6.438 1.492 2458
2.855 6.177 1.437 2127
2.977 6.441 1.472 4123
2.915 6.307 1.444 2316
2.936 6.353 1.432 3992
2.998 6.487 1.460 1774
2.941 6.364 1.414 3215
3.023 6.540 1.449 1944
2.952 6.388 1.398 2418
3.116 6.742 1.468 2269
3.042 6.582 1.414 2360
2.957 6.398 1.379 2136
3.260 7.053 1.483 1811
3.047 6.593 1.395 1644
3.314 7.170 1.482 2584
3.251 7.035 1.457 1520
3.309 7.159 1.456 3390
3.247 7.025 1.431 1553
3.307 7.156 1.432 3293
3.245 7.021 1.408 1538
3.318 7.180 1.413 3010
3.450 7.464 1.464 1336
3.320 7.184 1.390 2662
3.448 7.460 1.439 1743
3.325 7.194 1.369 2494
3.450 7.464 1.415 2006
3.323 7.190 1.344 2004
3.451 7.467 1.391 1409
3.811 8.245 1.495 1697
3.367 7.286 1.337 1567
3.809 8.242 1.468 2813
3.747 8.106 1.446 1744
3.811 8.245 1.442 2986
3.748 8.110 1.420 1874
3.809 8.241 1.414 2636
3.904 8.448 1.446 1354
3.807 8.238 1.387 2700
3.978 8.608 1.443 1781
3.805 8.234 1.359 2725
3.980 8.611 1.416 2000
3.810 8.244 1.334 2373
3.896 8.429 1.361 1846
3.815 8.254 1.309 2023
3.900 8.440 1.335 1347
3.816 8.257 1.282 1370
3.928 8.500 1.316 1189
0.908 1.946 1.639 4844
0.971 2.080 1.745 1175
0.910 1.950 1.633 9689
0.973 2.084 1.738 2350
0.912 1.954 1.627 9689
0.975 2.088 1.732 2350
0.911 1.952 1.616 7518
0.976 2.092 1.725 3177
0.932 1.997 1.642 6275
0.984 2.108 1.728 3718
0.947 2.030 1.658 7532
0.895 1.918 1.572 3370
0.952 2.040 1.656 9211
0.894 1.916 1.561 2724
0.957 2.050 1.654 8073
0.904 1.938 1.569 2623
0.961 2.060 1.652 6827
0.909 1.947 1.567 3126
0.980 2.100 1.672 7644
0.922 1.975 1.579 3862
0.979 2.098 1.661 9387
0.921 1.973 1.568 2986
0.975 2.090 1.646 11563
1.028 2.203 1.730 3515
0.985 2.112 1.652 12467
1.038 2.225 1.736 2942
0.990 2.122 1.650 13972
1.043 2.235 1.733 3203
0.989 2.120 1.639 10338
1.042 2.234 1.722 3798
1.022 2.190 1.680 8632
0.969 2.076 1.598 2383
1.024 2.194 1.673 8610
0.970 2.079 1.591 2108
1.023 2.192 1.662 11595
0.969 2.077 1.580 1516
1.027 2.202 1.659 14583
0.974 2.087 1.578 1832
1.029 2.206 1.652 12323
0.976 2.091 1.572 1554
1.031 2.210 1.645 10062
1.085 2.325 1.726 2056
1.036 2.220 1.643 10903
1.090 2.335 1.723 3019
1.041 2.230 1.640 11928
1.095 2.346 1.719 3853
1.045 2.240 1.637 11791
1.099 2.356 1.716 3586
1.047 2.244 1.630 11787
1.101 2.360 1.709 3955
1.075 2.303 1.660 11197
1.009 2.162 1.565 1183
1.077 2.307 1.653 13269
1.011 2.166 1.558 1147
1.081 2.317 1.650 10405
1.027 2.200 1.572 1211
1.086 2.327 1.646 7805
1.031 2.210 1.569 1874
1.088 2.331 1.639 6979
1.143 2.448 1.716 3097
1.090 2.335 1.632 6153
1.144 2.452 1.708 4770
1.132 2.426 1.680 6397
1.077 2.308 1.604 3861
1.134 2.430 1.673 7147
1.079 2.312 1.597 2312
1.133 2.428 1.661 8099
1.078 2.310 1.586 1557
1.135 2.432 1.654 8135
1.080 2.314 1.578 1249
1.142 2.448 1.654 7579
1.198 2.566 1.728 1600
1.144 2.452 1.646 7296
1.200 2.571 1.720 3562
1.140 2.444 1.630 7178
1.196 2.562 1.704 5032
1.189 2.548 1.685 7073
1.133 2.429 1.611 4230
1.194 2.558 1.681 8703
1.138 2.439 1.607 3386
1.193 2.556 1.669 6908
1.137 2.436 1.596 1935
1.192 2.553 1.657 5273
1.247 2.673 1.729 1707
1.208 2.589 1.668 5823
1.264 2.709 1.740 1288
1.222 2.618 1.675 7256
1.166 2.498 1.603 2221
1.224 2.622 1.666 7420
1.280 2.742 1.738 1719
1.226 2.626 1.658 6262
1.282 2.747 1.729 1672
1.227 2.630 1.650 5105
1.293 2.770 1.731 1749
1.265 2.710 1.686 3803
1.209 2.590 1.615 1773
1.288 2.759 1.703 4437
1.231 2.638 1.633 3131
1.292 2.770 1.698 6299
1.236 2.649 1.628 4022
1.297 2.780 1.692 6106
1.241 2.659 1.624 3596
1.311 2.810 1.698 6856
1.255 2.688 1.630 2558
1.298 2.782 1.671 7045
1.318 2.824 1.684 9326
1.261 2.703 1.616 2670
1.326 2.841 1.682 11111
1.269 2.719 1.615 2682
1.340 2.871 1.687 10122
1.274 2.730 1.610 2397
1.330 2.849 1.664 8385
1.387 2.972 1.731 2453
1.329 2.847 1.652 7317
1.386 2.969 1.718 4172
1.327 2.844 1.639 8060
1.385 2.967 1.705 5583
1.338 2.868 1.640 6808
1.396 2.990 1.706 5670
1.349 2.891 1.642 6971
1.407 3.014 1.707 4922
1.363 2.921 1.646 7451
1.421 3.044 1.711 2557
1.380 2.957 1.654 6671
1.438 3.081 1.718 2511
1.418 3.039 1.685 8641
1.361 2.916 1.621 2081
1.420 3.043 1.675 7126
1.363 2.920 1.612 1362
1.437 3.080 1.682 6968
1.380 2.956 1.619 2487
1.442 3.091 1.675 7199
1.384 2.967 1.613 2160
1.447 3.101 1.669 9976
1.389 2.977 1.607 1785
1.452 3.112 1.662 12079
1.394 2.988 1.600 1497
1.457 3.122 1.656 12345
1.399 2.998 1.594 1459
1.459 3.126 1.646 9327
1.473 3.157 1.649 4478
1.478 3.167 1.642 4546
1.536 3.292 1.702 1124
1.468 3.145 1.619 5536
1.526 3.270 1.679 3774
1.469 3.149 1.609 5612
1.528 3.274 1.669 5289
1.520 3.258 1.649 6142
1.462 3.133 1.590 3593
1.522 3.262 1.639 6498
1.464 3.137 1.580 1411
1.536 3.293 1.640 7179
1.478 3.167 1.582 1344
1.541 3.303 1.633 6636
1.565 3.353 1.644 6404
1.506 3.228 1.586 1318
1.570 3.364 1.636 8986
1.511 3.238 1.579 1631
1.572 3.368 1.625 9705
1.513 3.242 1.569 1017
1.577 3.379 1.618 7030
1.636 3.505 1.674 1183
1.616 3.462 1.642 5103
1.554 3.329 1.583 3337
1.615 3.460 1.628 5631
1.555 3.333 1.573 2887
1.616 3.464 1.617 4771
1.557 3.337 1.562 1728
1.618 3.468 1.606 5256
1.559 3.341 1.552 1343
1.623 3.478 1.598 6834
1.564 3.351 1.544 1130
1.628 3.489 1.590 6725
1.633 3.499 1.582 4873
1.692 3.627 1.635 1420
1.641 3.516 1.576 4548
1.716 3.678 1.643 1859
1.680 3.601 1.598 5704
1.621 3.473 1.545 1582
1.682 3.605 1.586 7522
1.623 3.477 1.534 1478
1.684 3.609 1.575 7142
1.744 3.737 1.627 1127
1.686 3.612 1.564 5726
1.687 3.616 1.552 4293
1.747 3.744 1.603 1639
1.721 3.687 1.567 4021
1.661 3.559 1.517 1122
1.760 3.772 1.587 3773
1.700 3.644 1.537 1527
1.768 3.790 1.580 3913
1.708 3.661 1.531 1456
1.770 3.794 1.568 4844
1.830 3.922 1.617 1088
1.778 3.811 1.561 6323
1.786 3.828 1.554 5832
1.847 3.957 1.603 1948
1.836 3.934 1.580 6540
1.775 3.805 1.532 3519
1.841 3.945 1.570 6877
1.780 3.815 1.522 3237
1.839 3.942 1.555 4634
1.900 4.071 1.602 2183
1.882 4.034 1.574 4304
1.822 3.904 1.528 3999
1.881 4.031 1.559 5124
1.820 3.901 1.513 3413
1.870 4.007 1.536 4393
1.931 4.137 1.582 1623
1.856 3.977 1.512 3450
1.916 4.107 1.557 2793
1.864 3.994 1.504 4352
1.931 4.138 1.554 3028
1.929 4.135 1.538 3962
1.869 4.004 1.493 3139
1.938 4.152 1.530 4058
1.877 4.022 1.485 2020
1.949 4.176 1.523 4064
2.010 4.307 1.567 1892
1.973 4.228 1.526 3962
2.034 4.359 1.569 1037
2.013 4.314 1.540 4065
1.952 4.184 1.497 1968
1.999 4.284 1.515 4013
2.060 4.414 1.557 1509
2.039 4.370 1.528 3548
1.978 4.239 1.485 2222
2.034 4.360 1.509 3871
2.115 4.532 1.564 2384
2.036 4.363 1.495 3903
2.117 4.536 1.550 2293
2.057 4.408 1.494 3944
2.118 4.539 1.535 3902
2.120 4.543 1.521 5332
2.059 4.412 1.480 3693
2.122 4.547 1.506 5911
2.060 4.415 1.466 3513
2.127 4.557 1.494 7025
2.065 4.426 1.454 2636
2.128 4.561 1.479 5930
2.190 4.692 1.518 3562
2.195 4.703 1.505 5429
2.130 4.564 1.465 3991
2.196 4.707 1.490 4236
2.135 4.575 1.452 3393
2.279 4.884 1.525 5038
2.185 4.682 1.467 3142
2.277 4.880 1.508 6496
2.190 4.693 1.454 2267
2.276 4.877 1.490 5564
2.370 5.079 1.547 2873
2.278 4.881 1.475 3867
2.359 5.055 1.523 2506
2.341 5.016 1.495 2845
2.455 5.260 1.562 2484
2.333 4.999 1.473 3363
2.453 5.257 1.543 2576
2.452 5.254 1.524 2573
2.364 5.065 1.474 2399
2.463 5.278 1.513 4645
2.362 5.062 1.456 2332
2.465 5.282 1.496 4869
2.527 5.415 1.531 2874
2.470 5.292 1.481 3375
2.532 5.425 1.515 2468
2.478 5.310 1.468 4350
2.540 5.443 1.501 2202
2.480 5.313 1.451 3647
2.542 5.446 1.484 2105
2.677 5.737 1.537 2453
2.556 5.478 1.473 2181
2.679 5.741 1.519 4158
2.561 5.488 1.458 1675
2.681 5.744 1.501 4383
2.579 5.527 1.449 1389
2.725 5.839 1.504 3139
2.663 5.706 1.472 1496
2.727 5.843 1.485 2749
2.802 6.004 1.523 1047
2.745 5.881 1.474 2187
2.807 6.015 1.505 2063
2.809 6.018 1.486 2390
2.730 5.850 1.448 1918
2.731 5.853 1.429 2632
2.810 6.022 1.466 2095
2.733 5.857 1.410 2873
2.868 6.145 1.473 2598
2.869 6.149 1.454 2948
2.807 6.015 1.425 2492
2.874 6.159 1.436 2359
2.960 6.342 1.474 2259
3.001 6.430 1.472 3514
2.938 6.296 1.444 2253
3.002 6.434 1.451 3279
2.940 6.300 1.424 2252
2.968 6.360 1.415 3227
3.050 6.536 1.451 2073
2.976 6.377 1.398 3383
3.058 6.554 1.433 2308
2.981 6.388 1.379 2780
3.066 6.571 1.414 2466
3.289 7.048 1.484 1786
2.982 6.391 1.358 1699
3.340 7.158 1.482 2593
3.277 7.023 1.457 1388
3.335 7.147 1.456 3254
3.272 7.013 1.431 1407
3.337 7.150 1.434 3213
3.476 7.448 1.488 1564
3.345 7.168 1.413 3014
3.269 7.005 1.384 1359
3.347 7.171 1.390 2726
3.479 7.455 1.440 1659
3.348 7.175 1.367 2465
3.484 7.465 1.417 1958
3.350 7.178 1.344 1830
3.489 7.476 1.395 1352
3.778 8.096 1.473 1573
3.844 8.238 1.497 1537
3.843 8.235 1.469 2450
3.780 8.100 1.447 2208
3.844 8.238 1.443 2585
3.781 8.103 1.421 2393
3.843 8.234 1.415 2248
3.932 8.426 1.445 1529
3.838 8.223 1.387 2517
3.940 8.444 1.420 1455
3.836 8.220 1.359 2783
3.929 8.419 1.389 1818
3.837 8.223 1.333 2361
3.930 8.422 1.362 2121
3.845 8.240 1.309 1950
3.935 8.432 1.336 1539
3.956 8.478 1.315 1445
3.847 8.243 1.282 1378
0.910 1.938 1.634 4308
0.976 2.077 1.745 1128
0.912 1.942 1.628 8616
0.978 2.082 1.738 2257
0.914 1.946 1.622 8616
0.980 2.086 1.732 2257
0.918 1.955 1.620 7024
0.982 2.090 1.725 3123
0.934 1.989 1.637 5475
0.986 2.100 1.723 3866
0.952 2.028 1.658 6185
0.900 1.916 1.572 3817
0.957 2.038 1.656 7837
0.902 1.920 1.566 3626
0.964 2.054 1.659 6993
0.912 1.941 1.573 3526
0.980 2.087 1.674 6358
0.922 1.963 1.581 4585
0.985 2.097 1.672 7410
0.924 1.967 1.574 4585
0.984 2.095 1.661 9107
0.925 1.970 1.568 3582
0.980 2.087 1.646 11226
1.033 2.201 1.730 3268
0.991 2.109 1.652 11744
1.044 2.223 1.736 2793
0.995 2.119 1.650 13033
1.049 2.233 1.733 3081
0.994 2.117 1.639 9071
1.048 2.231 1.722 3579
1.027 2.187 1.680 8782
0.974 2.073 1.598 1974
1.029 2.191 1.673 8709
0.975 2.077 1.591 1794
1.031 2.195 1.666 11144
0.977 2.081 1.585 1613
1.033 2.199 1.659 13650
0.979 2.085 1.578 1594
1.038 2.209 1.657 11661
0.984 2.095 1.576 1659
1.048 2.232 1.662 9896
0.994 2.116 1.582 2091
1.050 2.236 1.655 11315
0.996 2.120 1.575 1748
1.052 2.240 1.648 12734
1.106 2.355 1.728 2286
1.051 2.237 1.637 11622
1.105 2.353 1.716 3161
1.081 2.302 1.671 11599
1.027 2.186 1.593 2558
1.083 2.306 1.664 12883
1.029 2.190 1.586 1833
1.085 2.310 1.657 14167
1.140 2.427 1.735 1160
1.087 2.314 1.650 11219
1.142 2.431 1.727 1770
1.092 2.325 1.646 8447
1.146 2.441 1.724 2161
1.096 2.335 1.643 7339
1.151 2.452 1.720 3167
1.101 2.345 1.640 6417
1.156 2.462 1.716 4026
1.106 2.355 1.636 5174
1.161 2.472 1.713 3568
1.151 2.452 1.689 4367
1.096 2.334 1.613 3214
1.136 2.419 1.657 4322
1.081 2.301 1.582 1930
1.138 2.423 1.650 4379
1.082 2.305 1.574 1608
1.151 2.452 1.658 4589
1.096 2.333 1.583 1676
1.177 2.505 1.681 4983
1.121 2.387 1.607 2503
1.181 2.516 1.677 5627
1.126 2.397 1.603 1879
1.192 2.538 1.681 6729
1.136 2.420 1.607 1874
1.197 2.549 1.677 8370
1.141 2.430 1.603 1341
1.199 2.553 1.669 6842
1.255 2.672 1.741 1574
1.198 2.551 1.657 5415
1.254 2.670 1.729 2205
1.197 2.548 1.645 5526
1.253 2.668 1.717 2063
1.225 2.609 1.671 6155
1.169 2.489 1.599 1794
1.230 2.619 1.666 6604
1.286 2.739 1.738 1718
1.232 2.623 1.658 6249
1.288 2.743 1.729 1690
1.234 2.627 1.650 5893
1.299 2.767 1.731 1838
1.236 2.631 1.641 4349
1.292 2.752 1.711 1997
1.294 2.756 1.703 4025
1.238 2.635 1.633 3222
1.299 2.766 1.698 5794
1.242 2.646 1.628 3735
1.301 2.771 1.689 5796
1.244 2.649 1.620 3294
1.318 2.806 1.698 6527
1.261 2.685 1.630 2598
1.323 2.817 1.693 6494
1.266 2.696 1.625 2535
1.325 2.821 1.684 9317
1.268 2.700 1.616 2494
1.333 2.838 1.682 10789
1.276 2.716 1.615 2461
1.338 2.848 1.677 9543
1.280 2.727 1.610 2269
1.337 2.846 1.664 7838
1.394 2.968 1.731 2547
1.335 2.844 1.652 6697
1.393 2.966 1.718 4371
1.334 2.841 1.639 7469
1.392 2.964 1.705 6135
1.394 2.968 1.695 6411
1.336 2.845 1.630 5931
1.399 2.978 1.689 7318
1.341 2.856 1.624 3906
1.398 2.976 1.677 7941
1.340 2.853 1.612 2353
1.402 2.986 1.671 7249
1.345 2.863 1.606 1944
1.423 3.029 1.681 8917
1.365 2.906 1.617 1531
1.422 3.027 1.668 8071
1.479 3.150 1.732 1078
1.445 3.077 1.682 7335
1.387 2.953 1.619 2609
1.450 3.087 1.675 7313
1.392 2.963 1.613 2417
1.455 3.098 1.669 9495
1.397 2.974 1.607 2224
1.463 3.115 1.666 11756
1.404 2.991 1.604 2142
1.468 3.125 1.659 12403
1.409 3.001 1.597 1726
1.470 3.129 1.649 9293
1.411 3.005 1.588 1140
1.471 3.133 1.639 3867
1.476 3.144 1.632 3221
1.535 3.269 1.692 1741
1.475 3.141 1.619 5542
1.534 3.266 1.679 3901
1.477 3.145 1.609 6260
1.536 3.270 1.669 5262
1.531 3.261 1.652 6047
1.473 3.136 1.593 4484
1.533 3.265 1.642 6554
1.474 3.140 1.583 2028
1.544 3.289 1.640 7925
1.486 3.163 1.582 1539
1.546 3.293 1.630 6992
1.573 3.350 1.644 5439
1.514 3.224 1.586 1503
1.578 3.360 1.636 7493
1.519 3.234 1.579 1832
1.580 3.364 1.625 7752
1.521 3.238 1.569 1153
1.585 3.375 1.618 5533
1.644 3.501 1.674 1018
1.624 3.459 1.642 4672
1.562 3.325 1.583 2761
1.623 3.456 1.628 5196
1.563 3.329 1.573 2637
1.625 3.460 1.617 4080
1.565 3.333 1.562 2275
1.627 3.464 1.606 4315
1.567 3.337 1.552 1656
1.632 3.474 1.598 6167
1.572 3.347 1.544 1074
1.633 3.478 1.587 6311
1.693 3.605 1.641 1242
1.629 3.468 1.570 4988
1.689 3.596 1.624 2483
1.650 3.512 1.576 3936
1.709 3.640 1.629 2096
1.686 3.590 1.595 4839
1.746 3.718 1.648 1911
1.688 3.594 1.584 6515
1.748 3.722 1.636 2113
1.693 3.604 1.575 7384
1.753 3.732 1.627 1477
1.698 3.615 1.566 6669
1.758 3.743 1.618 1147
1.725 3.673 1.576 5072
1.665 3.545 1.525 1630
1.736 3.697 1.572 4480
1.676 3.568 1.522 1517
1.760 3.748 1.579 4846
1.700 3.619 1.529 1077
1.765 3.758 1.570 4601
1.825 3.887 1.619 1412
1.779 3.789 1.568 4672
1.840 3.918 1.617 1049
1.788 3.807 1.561 5908
1.793 3.817 1.552 5377
1.853 3.946 1.600 1856
1.845 3.929 1.580 5655
1.785 3.800 1.532 3580
1.847 3.933 1.567 6642
1.786 3.804 1.520 2357
1.849 3.937 1.555 4636
1.910 4.066 1.602 2535
1.895 4.036 1.577 5420
1.835 3.907 1.530 3480
1.894 4.033 1.561 5532
1.833 3.904 1.515 2983
1.860 3.962 1.522 4107
1.921 4.091 1.568 3092
1.865 3.972 1.512 3757
1.926 4.102 1.557 2180
1.874 3.990 1.504 4699
1.938 4.126 1.551 2952
1.936 4.123 1.536 4086
1.875 3.993 1.491 3095
1.951 4.154 1.532 4534
1.890 4.024 1.488 1852
1.959 4.172 1.523 4510
2.020 4.302 1.567 2159
1.987 4.230 1.528 3678
2.027 4.316 1.542 3801
1.966 4.186 1.499 2338
2.029 4.320 1.528 3599
1.967 4.189 1.486 1923
2.050 4.365 1.528 3071
1.988 4.234 1.485 1849
2.042 4.348 1.507 3031
2.126 4.527 1.564 2236
2.063 4.393 1.506 4712
2.128 4.531 1.550 2276
2.065 4.396 1.492 5577
2.129 4.534 1.535 4117
2.131 4.538 1.521 5682
2.069 4.407 1.480 4241
2.133 4.542 1.506 5738
2.071 4.410 1.466 3867
2.134 4.545 1.492 6597
2.073 4.414 1.452 2839
2.139 4.556 1.479 6635
2.201 4.687 1.518 3592
2.141 4.559 1.465 4854
2.203 4.691 1.503 3606
2.136 4.549 1.446 3634
2.214 4.715 1.494 3062
2.284 4.864 1.521 6058
2.213 4.712 1.477 2988
2.286 4.868 1.506 7122
2.211 4.708 1.460 2167
2.288 4.872 1.490 6094
2.382 5.073 1.547 2862
2.293 4.882 1.476 4801
2.391 5.091 1.534 2443
2.347 4.997 1.491 3354
2.285 4.865 1.455 2267
2.342 4.987 1.472 4222
2.469 5.258 1.545 2203
2.347 4.997 1.458 2659
2.471 5.262 1.528 2446
2.476 5.272 1.513 4171
2.374 5.056 1.456 2283
2.478 5.276 1.496 4242
2.540 5.408 1.531 2890
2.479 5.279 1.479 3097
2.542 5.412 1.513 2266
2.491 5.304 1.468 3931
2.583 5.500 1.517 2079
2.492 5.307 1.451 3509
2.581 5.496 1.498 2077
2.573 5.479 1.475 2120
2.694 5.738 1.539 2082
2.693 5.734 1.519 3649
2.588 5.510 1.464 1416
2.695 5.738 1.501 3913
2.632 5.605 1.469 1228
2.739 5.833 1.504 2952
2.653 5.650 1.461 1460
2.744 5.843 1.487 2601
2.813 5.990 1.521 1012
2.756 5.868 1.473 2050
2.818 6.001 1.503 1911
2.823 6.012 1.486 2078
2.747 5.850 1.449 1854
2.746 5.847 1.429 2190
2.831 6.029 1.470 1923
2.886 6.145 1.475 2360
2.747 5.850 1.410 2251
2.884 6.142 1.454 2906
2.821 6.008 1.425 2343
2.886 6.145 1.434 2546
2.982 6.349 1.477 2376
3.016 6.423 1.472 2731
2.894 6.163 1.417 2075
3.018 6.427 1.451 2751
2.955 6.293 1.424 1884
2.987 6.360 1.416 3277
3.066 6.529 1.451 2016
2.991 6.370 1.398 4005
3.078 6.553 1.434 2210
2.996 6.380 1.379 3201
3.079 6.557 1.413 2306
2.998 6.384 1.358 1804
3.223 6.864 1.450 1702
3.358 7.150 1.482 2297
3.142 6.690 1.395 1620
3.349 7.132 1.455 3055
3.207 6.828 1.399 1743
3.354 7.142 1.434 3209
3.225 6.867 1.383 1586
3.366 7.167 1.414 3031
3.286 6.997 1.384 1373
3.364 7.163 1.390 2631
3.500 7.453 1.441 1583
3.365 7.167 1.367 2195
3.505 7.464 1.419 2087
3.590 7.644 1.425 1618
3.789 8.069 1.497 1527
3.794 8.080 1.472 1780
3.588 7.641 1.399 1350
3.799 8.091 1.447 2400
3.866 8.232 1.470 1934
3.804 8.101 1.422 2617
3.868 8.236 1.444 2149
3.869 8.239 1.417 1958
3.956 8.424 1.446 1905
3.861 8.221 1.388 2181
3.961 8.434 1.420 2031
3.856 8.210 1.359 2579
3.952 8.416 1.390 2247
3.951 8.412 1.362 2503
3.857 8.213 1.333 2157
3.955 8.423 1.336 1761
3.865 8.231 1.309 1679
3.974 8.461 1.314 1619
3.867 8.234 1.282 1181
3.972 8.457 1.286 1095
0.916 1.935 1.634 3825
0.982 2.074 1.745 1035
0.918 1.939 1.628 7650
0.984 2.079 1.738 2071
0.920 1.943 1.622 7650
0.986 2.083 1.732 2071
0.924 1.952 1.620 6639
0.988 2.087 1.725 2832
0.926 1.956 1.614 5668
0.984 2.080 1.710 3689
0.942 1.990 1.631 5363
0.995 2.101 1.717 3990
0.966 2.041 1.660 6368
0.908 1.917 1.566 4363
0.971 2.051 1.659 5852
0.918 1.939 1.573 4310
0.989 2.090 1.679 5783
0.925 1.954 1.576 5372
0.991 2.094 1.672 6696
0.927 1.958 1.570 5372
0.990 2.092 1.661 8383
0.931 1.968 1.568 4243
0.990 2.090 1.650 10368
0.933 1.971 1.562 3118
0.997 2.106 1.652 10787
1.051 2.219 1.736 2479
1.002 2.116 1.650 11860
1.055 2.230 1.733 2696
1.012 2.138 1.656 8595
1.066 2.252 1.739 1207
1.034 2.184 1.680 8866
0.980 2.070 1.598 1542
1.033 2.182 1.669 8749
0.979 2.068 1.587 1098
1.035 2.186 1.662 11170
0.981 2.072 1.580 1055
1.040 2.196 1.659 13477
0.985 2.082 1.578 1419
1.042 2.200 1.652 11419
1.096 2.315 1.733 1308
1.058 2.234 1.667 10077
1.003 2.119 1.586 2836
1.060 2.238 1.659 11692
1.005 2.123 1.579 1943
1.062 2.242 1.652 13308
1.116 2.358 1.732 1370
1.066 2.252 1.650 11441
1.121 2.368 1.729 1312
1.088 2.299 1.671 12686
1.034 2.183 1.593 1916
1.090 2.303 1.664 13635
1.035 2.187 1.586 1685
1.092 2.307 1.657 14583
1.147 2.423 1.735 1951
1.094 2.311 1.650 11954
1.149 2.427 1.727 2584
1.099 2.321 1.646 9384
1.154 2.438 1.724 2796
1.101 2.325 1.639 8174
1.156 2.442 1.716 3710
1.106 2.335 1.636 7019
1.161 2.452 1.712 4445
1.113 2.352 1.636 5644
1.169 2.469 1.713 3720
1.121 2.368 1.637 4742
1.177 2.485 1.713 3131
1.123 2.372 1.629 3888
1.179 2.489 1.705 2652
1.128 2.382 1.626 2738
1.183 2.500 1.701 1895
1.177 2.485 1.681 3517
1.121 2.367 1.607 2047
1.184 2.502 1.681 4630
1.128 2.383 1.607 1640
1.189 2.512 1.677 5164
1.200 2.535 1.681 6228
1.256 2.653 1.754 1275
1.205 2.545 1.677 7940
1.261 2.664 1.750 1472
1.207 2.549 1.669 6678
1.263 2.668 1.741 1832
1.209 2.553 1.661 5415
1.265 2.672 1.733 2192
1.202 2.538 1.641 5565
1.258 2.658 1.713 2426
1.204 2.542 1.633 4823
1.272 2.687 1.720 2425
1.238 2.615 1.666 5447
1.295 2.735 1.738 1709
1.240 2.619 1.658 5926
1.297 2.739 1.729 1687
1.239 2.617 1.646 6415
1.296 2.737 1.716 1759
1.244 2.627 1.641 4977
1.301 2.748 1.711 1791
1.288 2.720 1.684 3646
1.231 2.600 1.615 2534
1.305 2.756 1.694 5340
1.248 2.635 1.625 3643
1.307 2.760 1.685 5598
1.249 2.639 1.616 3260
1.330 2.809 1.702 5934
1.272 2.688 1.633 2712
1.332 2.813 1.693 6211
1.274 2.692 1.625 2477
1.337 2.823 1.687 8832
1.279 2.702 1.620 2542
1.339 2.827 1.678 10095
1.281 2.706 1.611 2010
1.343 2.838 1.673 8789
1.401 2.960 1.740 2055
1.345 2.842 1.664 7057
1.403 2.964 1.731 2641
1.344 2.839 1.652 5935
1.402 2.962 1.718 4490
1.343 2.837 1.639 6650
1.401 2.959 1.705 6374
1.400 2.957 1.692 6750
1.342 2.835 1.627 4875
1.408 2.974 1.689 7859
1.350 2.851 1.624 3140
1.410 2.978 1.680 8570
1.352 2.855 1.615 2206
1.418 2.995 1.677 8106
1.360 2.872 1.613 2130
1.426 3.012 1.674 9727
1.368 2.889 1.611 1191
1.431 3.023 1.668 9265
1.489 3.146 1.732 1081
1.454 3.072 1.682 7501
1.396 2.949 1.619 2307
1.429 3.018 1.642 7902
1.487 3.141 1.705 1252
1.464 3.093 1.669 8748
1.406 2.969 1.607 2511
1.472 3.110 1.666 11025
1.414 2.986 1.604 2161
1.477 3.121 1.659 12032
1.419 2.997 1.597 1503
1.479 3.125 1.649 8928
1.420 3.001 1.588 1018
1.506 3.181 1.665 4013
1.447 3.057 1.604 1571
1.520 3.211 1.667 3482
1.461 3.087 1.607 2234
1.488 3.143 1.622 5629
1.547 3.268 1.682 3542
1.490 3.147 1.612 6826
1.549 3.272 1.672 4708
1.492 3.151 1.602 6011
1.551 3.276 1.661 4915
1.550 3.273 1.648 6571
1.490 3.148 1.589 3196
1.552 3.277 1.637 7746
1.492 3.152 1.579 1256
1.553 3.281 1.627 6552
1.558 3.292 1.619 4542
1.618 3.418 1.677 1873
1.592 3.362 1.639 6087
1.532 3.236 1.582 1944
1.590 3.359 1.625 5963
1.531 3.233 1.569 1087
1.595 3.370 1.618 4514
1.536 3.244 1.561 1078
1.635 3.453 1.642 3908
1.566 3.307 1.578 1950
1.630 3.444 1.625 4543
1.571 3.318 1.570 2422
1.598 3.375 1.582 3725
1.658 3.501 1.637 1885
1.606 3.392 1.577 3651
1.666 3.519 1.632 2063
1.645 3.476 1.601 5172
1.585 3.349 1.547 1142
1.647 3.480 1.590 5652
1.707 3.607 1.644 1483
1.674 3.537 1.601 5326
1.614 3.410 1.548 1441
1.667 3.521 1.582 3797
1.727 3.648 1.634 1978
1.697 3.585 1.595 4103
1.757 3.712 1.648 1862
1.699 3.589 1.584 5904
1.759 3.716 1.636 2370
1.704 3.599 1.575 7961
1.764 3.727 1.627 1766
1.709 3.610 1.566 7502
1.769 3.738 1.618 1327
1.733 3.661 1.573 5591
1.672 3.533 1.523 1453
1.751 3.698 1.575 4786
1.690 3.570 1.525 1433
1.768 3.736 1.576 6166
1.773 3.746 1.567 5830
1.834 3.874 1.617 1325
1.791 3.784 1.568 4605
1.796 3.794 1.559 5508
1.795 3.791 1.544 4937
1.856 3.920 1.592 1943
1.858 3.924 1.580 4750
1.797 3.795 1.532 3528
1.859 3.928 1.567 6364
1.798 3.799 1.520 2086
1.858 3.924 1.552 4956
1.919 4.054 1.599 2965
1.908 4.030 1.577 5871
1.847 3.901 1.530 3579
1.910 4.034 1.564 5791
1.849 3.905 1.518 3002
1.876 3.963 1.524 4497
1.937 4.092 1.570 2023
1.881 3.973 1.514 4079
1.965 4.151 1.576 2404
1.889 3.990 1.506 4781
1.963 4.148 1.561 2601
1.949 4.117 1.536 3624
1.888 3.987 1.491 3036
1.967 4.155 1.534 4724
1.905 4.025 1.490 1732
1.972 4.165 1.523 4638
2.034 4.296 1.567 2205
2.006 4.238 1.533 3641
2.040 4.310 1.542 3091
1.979 4.180 1.499 2618
2.049 4.327 1.532 3312
1.987 4.197 1.490 2396
2.060 4.352 1.525 3164
1.998 4.221 1.483 1884
2.055 4.341 1.507 2885
2.140 4.520 1.564 1947
2.080 4.393 1.508 5440
2.145 4.531 1.552 2075
2.082 4.397 1.494 5966
2.147 4.535 1.537 3530
2.145 4.531 1.521 4405
2.083 4.400 1.480 3874
2.144 4.528 1.504 4493
2.082 4.397 1.464 3319
2.149 4.539 1.492 4961
2.087 4.407 1.452 2563
2.154 4.549 1.479 5496
2.216 4.680 1.518 3870
2.208 4.663 1.497 4592
2.145 4.532 1.459 3841
2.285 4.826 1.529 3243
2.199 4.646 1.476 2911
2.296 4.850 1.519 6673
2.195 4.636 1.457 2681
2.301 4.861 1.506 7786
2.193 4.632 1.441 1989
2.303 4.864 1.490 6879
2.398 5.066 1.547 3245
2.305 4.868 1.475 5236
2.406 5.083 1.534 3177
2.356 4.976 1.488 4244
2.418 5.108 1.524 2572
2.357 4.979 1.472 4419
2.492 5.264 1.549 2731
2.494 5.268 1.532 3650
2.362 4.990 1.458 2842
2.492 5.265 1.513 3871
2.555 5.397 1.548 1884
2.494 5.268 1.496 3379
2.557 5.401 1.531 2731
2.539 5.362 1.503 2614
2.476 5.230 1.469 1654
2.514 5.310 1.471 3320
2.600 5.491 1.517 2299
2.512 5.307 1.453 3186
2.601 5.495 1.500 2258
2.550 5.387 1.455 1999
2.716 5.736 1.541 1871
2.711 5.726 1.519 3061
2.605 5.502 1.464 1234
2.712 5.729 1.501 3357
2.649 5.597 1.469 1435
2.760 5.831 1.505 2277
2.668 5.635 1.459 2144
2.762 5.835 1.487 2188
2.673 5.646 1.443 1330
2.737 5.782 1.455 1915
2.833 5.985 1.502 1512
2.765 5.842 1.449 1738
2.842 6.003 1.486 1638
2.770 5.852 1.432 1776
2.853 6.027 1.471 1692
2.905 6.136 1.475 2099
2.775 5.862 1.415 1769
2.903 6.133 1.454 2638
2.840 5.999 1.425 1681
2.905 6.136 1.434 2384
3.001 6.340 1.477 2320
3.040 6.421 1.473 2248
2.910 6.146 1.416 1790
3.038 6.417 1.451 2379
2.975 6.283 1.424 1457
3.006 6.350 1.416 2893
3.136 6.625 1.472 2023
3.011 6.361 1.398 3916
3.141 6.635 1.452 2317
3.016 6.371 1.379 3181
3.146 6.646 1.432 2308
3.245 6.854 1.450 1868
3.151 6.656 1.412 1830
3.380 7.139 1.482 1867
3.159 6.674 1.394 1840
3.371 7.121 1.455 2770
3.228 6.818 1.399 2047
3.376 7.132 1.434 3169
3.243 6.850 1.382 1750
3.388 7.156 1.414 3035
3.304 6.980 1.383 1295
3.390 7.160 1.391 2498
3.527 7.450 1.443 1488
3.532 7.460 1.420 2065
3.384 7.149 1.366 1810
3.614 7.633 1.425 1897
3.533 7.463 1.396 1573
3.820 8.068 1.472 1789
3.612 7.629 1.399 1622
3.825 8.079 1.447 2312
3.892 8.220 1.470 1371
3.826 8.082 1.421 2438
3.893 8.224 1.444 1790
3.982 8.411 1.446 2173
3.908 8.255 1.422 2040
3.987 8.422 1.420 2460
3.906 8.252 1.394 2181
3.985 8.418 1.392 2662
3.881 8.198 1.359 2247
3.980 8.407 1.363 2831
3.883 8.201 1.333 1855
3.982 8.410 1.336 2030
3.891 8.219 1.309 1388
4.000 8.449 1.314 1706
3.998 8.445 1.286 1175
0.925 1.931 1.634 3386
0.927 1.935 1.628 6773
0.994 2.074 1.738 1842
0.929 1.939 1.622 6773
0.996 2.078 1.732 1842
0.933 1.948 1.620 6376
0.986 2.059 1.707 2523
0.935 1.952 1.614 6051
0.988 2.063 1.701 3374
0.937 1.956 1.608 5179
0.990 2.067 1.694 3829
0.956 1.995 1.629 5260
1.009 2.107 1.714 3963
0.929 1.940 1.578 5236
0.983 2.052 1.663 4644
0.934 1.950 1.576 6363
0.999 2.086 1.679 5019
0.936 1.954 1.570 6363
1.001 2.090 1.672 5756
1.000 2.088 1.661 7497
0.938 1.957 1.564 5006
0.999 2.086 1.650 9398
0.942 1.967 1.562 3669
1.010 2.108 1.657 9850
0.941 1.965 1.552 2397
1.014 2.117 1.654 10928
1.069 2.231 1.737 1743
1.022 2.133 1.656 8463
1.076 2.247 1.739 1061
1.041 2.173 1.676 8993
0.958 2.000 1.550 1032
1.043 2.177 1.669 8958
1.042 2.175 1.658 10684
1.047 2.185 1.655 12385
1.052 2.195 1.652 10033
0.997 2.081 1.572 1069
1.068 2.229 1.667 9484
1.013 2.115 1.586 2966
1.073 2.240 1.664 11437
1.018 2.125 1.584 2334
1.075 2.244 1.657 13447
1.020 2.128 1.577 1160
1.085 2.266 1.662 11742
1.027 2.144 1.579 1436
1.096 2.288 1.667 13785
1.041 2.172 1.588 1778
1.101 2.298 1.664 14222
1.045 2.182 1.586 2318
1.106 2.308 1.661 14878
1.038 2.168 1.566 2939
1.108 2.312 1.654 12360
1.163 2.428 1.731 2857
1.107 2.310 1.642 9899
1.162 2.426 1.720 4042
1.111 2.320 1.639 8521
1.167 2.437 1.716 4071
1.122 2.342 1.644 7555
1.178 2.459 1.720 3623
1.124 2.346 1.636 6518
1.180 2.463 1.713 3950
1.129 2.357 1.633 5602
1.185 2.474 1.709 3831
1.169 2.441 1.677 4866
1.113 2.323 1.602 2341
1.171 2.445 1.669 4614
1.115 2.327 1.594 1146
1.176 2.455 1.666 3881
1.193 2.490 1.677 4092
1.201 2.507 1.677 4513
1.212 2.529 1.681 5599
1.268 2.648 1.754 1489
1.216 2.540 1.677 7595
1.273 2.658 1.750 1773
1.224 2.556 1.676 6643
1.168 2.437 1.603 1989
1.229 2.566 1.672 6298
1.172 2.447 1.600 2063
1.210 2.526 1.637 5583
1.270 2.652 1.713 2555
1.215 2.537 1.633 4885
1.281 2.675 1.716 2248
1.238 2.585 1.651 5196
1.295 2.704 1.723 2543
1.246 2.601 1.650 6095
1.303 2.721 1.721 2115
1.251 2.611 1.646 7292
1.308 2.731 1.716 1898
1.253 2.615 1.638 6053
1.310 2.735 1.708 1780
1.258 2.626 1.633 4386
1.315 2.746 1.703 3324
1.311 2.737 1.687 5303
1.254 2.617 1.617 3760
1.313 2.741 1.678 5932
1.255 2.621 1.609 3333
1.321 2.758 1.676 5216
1.263 2.637 1.608 2262
1.348 2.813 1.696 5781
1.290 2.692 1.628 2811
1.349 2.817 1.687 8098
1.291 2.696 1.620 2353
1.351 2.821 1.678 9203
1.293 2.700 1.611 1859
1.356 2.832 1.673 7992
1.298 2.710 1.606 2007
1.355 2.829 1.661 6222
1.414 2.951 1.727 2831
1.400 2.923 1.700 5418
1.342 2.801 1.634 3889
1.402 2.927 1.691 7733
1.344 2.805 1.625 4277
1.407 2.938 1.685 7698
1.349 2.816 1.620 3402
1.425 2.974 1.693 8184
1.366 2.852 1.628 2513
1.430 2.984 1.687 9001
1.371 2.862 1.622 2055
1.435 2.995 1.681 9090
1.376 2.872 1.616 1941
1.440 3.005 1.674 11064
1.375 2.870 1.604 1314
1.439 3.003 1.662 10760
1.497 3.126 1.725 1132
1.437 3.001 1.649 9031
1.496 3.124 1.712 1403
1.439 3.005 1.639 9127
1.498 3.128 1.702 1459
1.478 3.086 1.669 7942
1.419 2.963 1.607 2645
1.490 3.110 1.669 9868
1.431 2.986 1.607 2591
1.492 3.114 1.659 11112
1.432 2.990 1.597 1373
1.500 3.131 1.655 8509
1.440 3.007 1.594 1456
1.521 3.174 1.665 5680
1.461 3.050 1.604 1263
1.526 3.185 1.658 4787
1.466 3.060 1.597 1134
1.502 3.136 1.622 6125
1.562 3.261 1.682 3508
1.504 3.140 1.612 7543
1.564 3.265 1.672 4542
1.509 3.151 1.605 6566
1.569 3.275 1.664 4317
1.565 3.266 1.648 6376
1.505 3.141 1.589 3339
1.567 3.270 1.637 7173
1.507 3.145 1.579 1357
1.565 3.268 1.624 5674
1.570 3.278 1.616 4042
1.630 3.404 1.674 2075
1.613 3.368 1.645 4427
1.553 3.242 1.588 1916
1.618 3.378 1.637 4096
1.555 3.246 1.578 1579
1.614 3.369 1.621 3243
1.554 3.243 1.564 1560
1.619 3.380 1.613 2691
1.559 3.254 1.557 1261
1.649 3.443 1.628 3363
1.589 3.317 1.573 2316
1.610 3.361 1.580 3761
1.670 3.487 1.635 1727
1.631 3.404 1.586 4016
1.691 3.531 1.641 1354
1.636 3.415 1.578 4076
1.696 3.542 1.632 2120
1.686 3.519 1.610 5120
1.625 3.392 1.556 2855
1.687 3.523 1.598 5772
1.627 3.396 1.545 1317
1.667 3.480 1.568 3933
1.728 3.607 1.621 2216
1.710 3.570 1.592 3142
1.771 3.698 1.645 1853
1.719 3.588 1.586 5415
1.779 3.715 1.639 2026
1.720 3.591 1.575 8084
1.781 3.719 1.627 1916
1.725 3.602 1.566 7495
1.786 3.729 1.618 1343
1.746 3.646 1.571 5914
1.685 3.518 1.520 1019
1.771 3.697 1.578 4927
1.710 3.569 1.527 1376
1.786 3.727 1.576 7214
1.724 3.600 1.526 1372
1.791 3.738 1.567 6982
1.729 3.610 1.518 1615
1.805 3.769 1.566 4579
1.867 3.897 1.615 1060
1.807 3.772 1.554 5471
1.869 3.901 1.602 1357
1.806 3.769 1.539 5765
1.867 3.898 1.587 1751
1.811 3.780 1.529 3953
1.875 3.915 1.580 3625
1.874 3.912 1.565 5599
1.812 3.783 1.517 2416
1.873 3.909 1.550 5356
1.934 4.038 1.597 3229
1.930 4.028 1.579 5751
1.868 3.899 1.532 4263
1.931 4.032 1.566 5369
1.870 3.903 1.520 3275
1.894 3.954 1.524 4156
1.976 4.124 1.585 2310
1.909 3.985 1.521 3739
1.984 4.142 1.576 3469
1.911 3.989 1.509 4530
1.989 4.152 1.565 3384
1.987 4.149 1.550 3806
1.916 3.999 1.498 3139
1.986 4.146 1.534 4950
1.924 4.016 1.490 1792
1.988 4.150 1.521 4514
2.050 4.279 1.565 2061
1.996 4.167 1.512 3637
2.058 4.297 1.556 2137
2.021 4.218 1.515 3689
2.083 4.348 1.558 1066
2.022 4.222 1.501 3544
2.085 4.352 1.544 2432
2.073 4.328 1.521 3562
2.011 4.198 1.479 2235
2.105 4.394 1.527 3185
2.042 4.263 1.485 1885
2.103 4.391 1.511 5311
2.172 4.535 1.556 1337
2.102 4.387 1.494 5241
2.171 4.532 1.539 2730
2.169 4.528 1.523 3903
2.107 4.398 1.482 2681
2.164 4.518 1.504 3127
2.102 4.387 1.464 2468
2.163 4.515 1.488 2718
2.100 4.384 1.448 2034
2.178 4.546 1.481 3508
2.240 4.677 1.520 2353
2.186 4.563 1.471 3237
2.249 4.694 1.509 2474
2.303 4.808 1.527 3486
2.240 4.677 1.488 2352
2.315 4.833 1.517 6046
2.245 4.688 1.475 3093
2.320 4.843 1.504 6941
2.227 4.650 1.449 2783
2.325 4.854 1.490 6642
2.421 5.055 1.547 3595
2.370 4.947 1.500 5214
2.433 5.079 1.536 3615
2.375 4.958 1.486 4790
2.438 5.090 1.522 3665
2.383 4.975 1.473 4349
2.516 5.253 1.549 3430
2.518 5.256 1.532 4733
2.385 4.979 1.458 2731
2.520 5.260 1.515 3729
2.583 5.392 1.550 1470
2.571 5.368 1.525 2853
2.508 5.236 1.491 1592
2.563 5.351 1.503 3008
2.500 5.219 1.469 1232
2.545 5.313 1.475 3339
2.625 5.480 1.517 2239
2.540 5.302 1.454 3094
2.623 5.476 1.498 2364
2.578 5.382 1.456 2280
2.655 5.542 1.496 1834
2.737 5.713 1.519 2223
2.593 5.414 1.446 1643
2.742 5.724 1.502 2696
2.678 5.591 1.470 2062
2.693 5.623 1.459 2963
2.757 5.755 1.490 1975
2.759 5.759 1.472 2127
2.695 5.626 1.441 1757
2.760 5.762 1.453 2359
2.795 5.836 1.451 1634
2.879 6.011 1.490 1268
2.811 5.867 1.438 1736
2.884 6.021 1.473 1431
2.819 5.885 1.423 2048
2.936 6.130 1.477 1580
2.931 6.119 1.454 2282
3.012 6.287 1.490 1802
3.020 6.305 1.473 2211
2.930 6.116 1.433 2104
3.069 6.407 1.473 2325
3.005 6.273 1.445 1637
3.071 6.410 1.453 2439
3.134 6.544 1.480 1394
3.035 6.336 1.416 2253
3.163 6.603 1.471 2186
3.040 6.347 1.398 3414
3.168 6.614 1.451 2334
3.045 6.357 1.379 2857
3.176 6.631 1.432 2300
3.181 6.642 1.412 2166
3.276 6.839 1.450 1971
3.190 6.659 1.394 2155
3.271 6.828 1.426 1930
3.404 7.106 1.455 2239
3.262 6.810 1.400 2189
3.409 7.116 1.434 2980
3.274 6.835 1.382 1785
3.421 7.141 1.414 3015
3.286 6.859 1.364 1227
3.426 7.151 1.393 2264
3.669 7.659 1.482 1683
3.566 7.444 1.420 1904
3.660 7.641 1.454 1660
3.652 7.624 1.426 1924
3.571 7.454 1.397 1595
3.647 7.613 1.399 1670
3.853 8.044 1.471 1528
3.858 8.054 1.446 2001
3.645 7.609 1.373 1051
3.863 8.065 1.421 2042
3.944 8.234 1.448 1575
4.020 8.393 1.446 2332
3.946 8.238 1.422 2226
4.022 8.396 1.419 2739
3.948 8.241 1.395 2547
4.020 8.393 1.391 2962
3.949 8.244 1.369 2331
4.018 8.389 1.363 3145
3.920 8.184 1.333 1419
4.020 8.392 1.336 2307
4.035 8.424 1.313 1746
4.091 8.540 1.301 1225
4.026 8.405 1.283 1031
4.092 8.543 1.274 1164
0.925 1.923 1.630 3052
0.927 1.927 1.624 6105
0.980 2.038 1.711 1669
0.929 1.931 1.617 6105
0.982 2.042 1.704 1669
0.933 1.941 1.616 6182
0.987 2.052 1.703 2351
0.935 1.945 1.610 6268
0.989 2.056 1.696 3111
0.937 1.949 1.604 5375
0.991 2.060 1.690 3457
0.925 1.923 1.575 5333
0.987 2.052 1.674 3969
0.932 1.939 1.578 5693
0.986 2.050 1.663 3854
0.937 1.948 1.576 6897
1.002 2.084 1.679 4338
0.939 1.952 1.570 6897
1.004 2.088 1.672 4912
1.003 2.086 1.661 6457
0.941 1.956 1.564 5425
1.005 2.090 1.655 8078
0.945 1.966 1.562 3986
1.013 2.106 1.657 8479
0.944 1.963 1.552 2691
1.020 2.122 1.659 9550
0.946 1.967 1.545 1428
1.028 2.138 1.661 7799
0.965 2.007 1.565 1317
1.044 2.172 1.676 8245
0.964 2.004 1.554 1441
1.043 2.170 1.665 8156
0.966 2.008 1.548 1228
1.045 2.174 1.658 9300
0.970 2.018 1.546 1017
1.050 2.184 1.655 10452
1.058 2.200 1.657 8480
1.003 2.085 1.576 1309
1.074 2.234 1.671 8615
1.019 2.119 1.590 3378
1.076 2.238 1.664 10598
1.021 2.123 1.584 2396
1.081 2.248 1.661 12839
1.026 2.133 1.581 1624
1.092 2.270 1.666 11937
1.036 2.155 1.587 2135
1.100 2.286 1.667 13835
1.044 2.171 1.588 2386
1.104 2.296 1.664 13830
1.049 2.181 1.586 2018
1.109 2.306 1.661 14395
1.165 2.422 1.739 2388
1.111 2.310 1.654 12249
1.167 2.426 1.731 3022
1.107 2.302 1.638 10330
1.163 2.418 1.716 4921
1.115 2.318 1.639 8734
1.171 2.435 1.716 4087
1.123 2.335 1.640 7700
1.179 2.451 1.716 3985
1.128 2.345 1.636 6797
1.184 2.462 1.713 3962
1.132 2.355 1.633 6046
1.189 2.472 1.709 3842
1.173 2.439 1.677 6278
1.117 2.322 1.602 2685
1.175 2.443 1.669 6181
1.118 2.326 1.594 1268
1.174 2.441 1.658 5235
1.230 2.558 1.732 1075
1.170 2.432 1.642 4180
1.229 2.556 1.720 2214
1.205 2.505 1.677 3896
1.148 2.387 1.603 1081
1.224 2.546 1.692 5210
1.168 2.428 1.619 2988
1.226 2.550 1.684 7525
1.169 2.432 1.611 2365
1.234 2.567 1.684 7203
1.177 2.448 1.611 3161
1.236 2.571 1.676 7403
1.179 2.452 1.603 2860
1.241 2.581 1.671 5809
1.184 2.462 1.599 2290
1.240 2.579 1.659 5177
1.297 2.698 1.731 1685
1.239 2.576 1.647 6165
1.296 2.696 1.719 2485
1.247 2.593 1.647 6693
1.305 2.713 1.718 2448
1.252 2.603 1.642 7847
1.310 2.723 1.713 2355
1.257 2.613 1.638 6805
1.315 2.733 1.708 2026
1.259 2.617 1.629 5007
1.317 2.738 1.699 3692
1.309 2.723 1.679 5998
1.252 2.602 1.610 3881
1.314 2.733 1.674 6571
1.256 2.613 1.605 3541
1.316 2.737 1.666 5414
1.374 2.858 1.734 2489
1.355 2.817 1.700 5437
1.297 2.697 1.632 2740
1.354 2.815 1.687 7350
1.296 2.694 1.620 2056
1.356 2.819 1.678 8465
1.298 2.698 1.611 1740
1.358 2.823 1.670 7579
1.416 2.945 1.737 1821
1.360 2.827 1.661 5689
1.418 2.949 1.727 3013
1.405 2.921 1.700 6016
1.346 2.799 1.634 3677
1.407 2.925 1.691 8821
1.348 2.803 1.625 4148
1.406 2.923 1.678 8951
1.347 2.801 1.613 2716
1.432 2.978 1.696 8219
1.373 2.856 1.631 2518
1.437 2.989 1.690 9233
1.378 2.866 1.626 2697
1.442 2.999 1.684 9837
1.383 2.877 1.620 2512
1.444 3.003 1.674 11868
1.379 2.868 1.604 1801
1.443 3.001 1.662 11841
1.442 2.998 1.649 10640
1.501 3.121 1.712 1316
1.447 3.009 1.642 9729
1.506 3.132 1.705 1229
1.483 3.084 1.669 7496
1.424 2.961 1.607 2469
1.495 3.108 1.669 8806
1.435 2.984 1.607 2402
1.500 3.118 1.662 9959
1.440 2.994 1.601 1571
1.508 3.135 1.659 8080
1.448 3.011 1.598 1711
1.522 3.165 1.661 6465
1.463 3.041 1.601 1032
1.527 3.176 1.654 5631
1.510 3.141 1.625 6267
1.570 3.265 1.685 2984
1.509 3.138 1.612 7511
1.569 3.262 1.672 4261
1.514 3.148 1.605 6402
1.574 3.273 1.664 4191
1.573 3.270 1.651 6215
1.513 3.146 1.592 3709
1.572 3.268 1.637 6722
1.511 3.143 1.579 1462
1.570 3.265 1.624 4957
1.575 3.276 1.616 3611
1.636 3.401 1.674 1749
1.587 3.299 1.615 3283
1.647 3.425 1.672 1178
1.592 3.310 1.607 3332
1.652 3.435 1.664 1147
1.594 3.314 1.597 3189
1.654 3.439 1.653 1295
1.602 3.331 1.592 2409
1.662 3.457 1.648 1362
1.600 3.328 1.579 2374
1.661 3.454 1.634 1934
1.618 3.365 1.582 3691
1.679 3.491 1.637 1192
1.636 3.402 1.586 4724
1.697 3.528 1.641 1274
1.638 3.406 1.575 4470
1.699 3.532 1.629 2240
1.649 3.429 1.573 4818
1.710 3.556 1.627 3497
1.664 3.460 1.573 5970
1.725 3.587 1.626 2175
1.669 3.470 1.565 4397
1.730 3.597 1.618 1751
1.677 3.487 1.559 3238
1.738 3.615 1.612 2060
1.724 3.585 1.586 5256
1.663 3.458 1.534 2045
1.729 3.595 1.578 7653
1.790 3.723 1.629 1476
1.734 3.606 1.569 7036
1.752 3.643 1.571 6203
1.780 3.701 1.580 4666
1.718 3.573 1.530 1920
1.791 3.725 1.576 7237
1.730 3.597 1.526 1862
1.796 3.735 1.567 7365
1.735 3.607 1.518 1954
1.808 3.759 1.563 4744
1.869 3.887 1.612 1152
1.813 3.770 1.554 6264
1.875 3.898 1.602 1440
1.811 3.767 1.539 6727
1.876 3.902 1.590 1796
1.816 3.777 1.529 4444
1.878 3.906 1.577 3013
1.877 3.903 1.562 4968
1.815 3.774 1.515 2867
1.879 3.906 1.550 5753
1.941 4.035 1.597 2855
1.880 3.910 1.537 5193
1.942 4.039 1.584 4502
1.941 4.036 1.569 4802
1.879 3.907 1.522 3598
1.900 3.951 1.524 3663
1.982 4.121 1.585 2996
1.990 4.138 1.576 4529
1.918 3.989 1.524 3103
1.995 4.149 1.565 4207
1.917 3.986 1.509 3759
1.997 4.153 1.552 4415
1.928 4.010 1.503 2942
1.996 4.150 1.537 4904
1.933 4.020 1.492 2158
1.994 4.146 1.521 4422
2.057 4.276 1.565 1621
2.002 4.164 1.512 3949
2.065 4.294 1.556 1663
2.031 4.222 1.517 4162
2.029 4.219 1.501 3827
2.091 4.349 1.544 1894
2.077 4.318 1.519 3475
2.014 4.188 1.477 2144
2.118 4.404 1.531 3258
2.055 4.274 1.489 2294
2.113 4.394 1.513 4536
2.051 4.264 1.471 1460
2.112 4.391 1.496 4039
2.191 4.556 1.548 1736
2.170 4.511 1.519 2614
2.107 4.381 1.478 1741
2.201 4.577 1.523 2288
2.118 4.405 1.470 2198
2.216 4.608 1.517 2242
2.117 4.401 1.454 2056
2.234 4.646 1.512 3139
2.171 4.515 1.473 1537
2.243 4.663 1.501 3473
2.306 4.794 1.540 1649
2.317 4.819 1.531 3568
2.251 4.681 1.490 2188
2.323 4.829 1.517 5318
2.190 4.553 1.438 2573
2.328 4.840 1.504 5884
2.235 4.646 1.449 2485
2.329 4.843 1.488 6021
2.429 5.051 1.547 3571
2.378 4.944 1.500 5412
2.441 5.075 1.536 3757
2.383 4.954 1.486 4525
2.446 5.086 1.522 4013
2.524 5.249 1.549 4029
2.391 4.972 1.473 3801
2.523 5.246 1.530 5026
2.393 4.975 1.458 2307
2.525 5.249 1.513 3634
2.588 5.381 1.548 1494
2.583 5.371 1.527 2647
2.520 5.239 1.493 1390
2.581 5.368 1.508 3010
2.556 5.316 1.477 3803
2.637 5.482 1.519 2141
2.551 5.305 1.456 3182
2.635 5.479 1.500 2436
2.587 5.378 1.456 2373
2.674 5.559 1.501 1999
2.679 5.570 1.485 2075
2.598 5.403 1.444 1666
2.704 5.622 1.479 3055
2.768 5.755 1.511 1337
2.706 5.626 1.461 3520
2.769 5.758 1.492 2050
2.771 5.762 1.474 2394
2.707 5.629 1.443 2155
2.769 5.758 1.453 2342
2.774 5.769 1.437 1511
2.855 5.936 1.475 1314
2.816 5.856 1.437 1724
2.890 6.010 1.471 1221
2.828 5.880 1.423 2179
3.013 6.265 1.507 1513
3.015 6.269 1.487 2081
2.937 6.108 1.452 1988
3.020 6.279 1.469 2599
3.084 6.412 1.497 1943
3.082 6.409 1.475 2709
3.018 6.276 1.447 2075
3.081 6.405 1.453 2604
3.145 6.539 1.480 1532
3.173 6.598 1.471 2289
3.089 6.423 1.435 2183
3.050 6.342 1.398 2684
3.175 6.602 1.449 2474
3.055 6.352 1.379 2344
3.187 6.626 1.432 2286
3.192 6.637 1.412 2381
3.283 6.826 1.449 1921
3.204 6.661 1.395 2145
3.332 6.928 1.446 2030
3.269 6.798 1.399 1998
3.347 6.960 1.429 1723
3.423 7.118 1.435 2710
3.285 6.830 1.382 1473
3.432 7.136 1.414 2889
3.540 7.361 1.455 1447
3.681 7.653 1.482 2074
3.440 7.153 1.394 1940
3.682 7.657 1.458 1985
3.581 7.445 1.421 1706
3.667 7.625 1.427 1895
3.582 7.449 1.397 1452
3.658 7.607 1.399 1645
3.859 8.023 1.468 1235
3.871 8.048 1.446 1530
3.619 7.526 1.361 1166
4.025 8.369 1.471 1645
3.872 8.051 1.420 1591
4.030 8.380 1.445 2607
3.962 8.238 1.423 2204
4.032 8.383 1.418 2977
3.960 8.235 1.395 2635
4.030 8.379 1.390 3129
3.962 8.238 1.369 2551
4.031 8.383 1.363 3207
3.967 8.248 1.343 1492
4.036 8.393 1.337 2336
4.048 8.417 1.313 1661
4.104 8.534 1.301 1259
4.039 8.399 1.283 1025
4.106 8.537 1.274 1233
0.920 1.890 1.607 3217
0.974 2.000 1.694 1139
0.922 1.894 1.601 6435
0.976 2.004 1.688 2279
0.924 1.898 1.595 6435
0.978 2.008 1.682 2279
0.940 1.931 1.611 6112
0.994 2.041 1.698 2393
0.945 1.940 1.610 6630
0.999 2.051 1.696 3075
0.947 1.944 1.604 5727
1.001 2.055 1.690 3325
0.934 1.919 1.575 5528
1.000 2.053 1.678 3606
0.945 1.940 1.582 6121
1.005 2.063 1.676 3575
0.947 1.944 1.576 7364
1.010 2.073 1.674 3831
0.949 1.948 1.570 7364
1.015 2.083 1.672 4156
0.950 1.951 1.564 5747
1.014 2.081 1.661 5268
1.016 2.085 1.655 6389
0.955 1.961 1.562 4144
1.026 2.107 1.661 6416
0.957 1.965 1.556 3272
1.031 2.117 1.659 7208
0.959 1.968 1.550 2400
1.042 2.139 1.665 6635
0.966 1.984 1.552 2227
1.055 2.166 1.676 8204
0.971 1.994 1.550 2307
1.054 2.164 1.665 8190
0.976 2.003 1.548 1773
1.050 2.157 1.649 9207
0.977 2.007 1.542 1241
1.055 2.166 1.646 10112
1.060 2.176 1.644 7637
1.116 2.290 1.725 1328
1.085 2.228 1.671 6862
1.030 2.114 1.590 3436
1.093 2.245 1.672 9027
1.037 2.130 1.592 3168
1.098 2.255 1.669 11677
1.042 2.140 1.590 1872
1.106 2.271 1.670 12273
1.050 2.156 1.591 3238
1.111 2.281 1.667 14134
1.055 2.166 1.588 4300
1.116 2.291 1.664 13856
1.060 2.176 1.586 4082
1.121 2.301 1.661 14300
1.064 2.185 1.583 3958
1.120 2.299 1.650 12441
1.176 2.415 1.727 3591
1.116 2.291 1.634 11566
1.172 2.407 1.712 5296
1.120 2.301 1.631 9277
1.177 2.417 1.708 4743
1.134 2.329 1.640 8223
1.191 2.445 1.716 3528
1.136 2.333 1.632 7545
1.193 2.449 1.709 4172
1.141 2.343 1.629 7007
1.198 2.460 1.705 4226
1.182 2.427 1.673 7266
1.125 2.310 1.598 2845
1.184 2.431 1.665 7325
1.127 2.314 1.590 1711
1.186 2.435 1.658 6393
1.243 2.552 1.732 1970
1.182 2.427 1.642 5793
1.245 2.556 1.724 3520
1.181 2.424 1.630 5684
1.247 2.561 1.716 4212
1.243 2.552 1.700 6096
1.186 2.434 1.627 4633
1.245 2.556 1.692 8121
1.188 2.438 1.619 3586
1.250 2.567 1.688 8487
1.192 2.448 1.615 4076
1.252 2.571 1.680 9109
1.194 2.452 1.607 3492
1.257 2.581 1.675 8100
1.199 2.462 1.603 2951
1.256 2.579 1.663 6830
1.198 2.460 1.592 1547
1.255 2.577 1.651 7365
1.313 2.696 1.723 2405
1.260 2.587 1.647 7496
1.318 2.706 1.718 2683
1.265 2.597 1.642 8191
1.323 2.716 1.713 2798
1.267 2.601 1.634 7467
1.325 2.721 1.704 3112
1.269 2.605 1.626 5724
1.327 2.725 1.695 4873
1.323 2.716 1.679 6841
1.264 2.596 1.610 4455
1.328 2.726 1.674 7224
1.269 2.606 1.605 4002
1.333 2.737 1.669 5817
1.274 2.616 1.601 2733
1.369 2.811 1.700 4990
1.310 2.690 1.632 2259
1.368 2.808 1.687 6507
1.309 2.688 1.620 1665
1.370 2.812 1.678 7898
1.311 2.692 1.611 1520
1.372 2.816 1.670 7626
1.431 2.938 1.737 1840
1.374 2.820 1.661 5711
1.433 2.942 1.727 3326
1.422 2.920 1.704 6928
1.363 2.799 1.638 3732
1.421 2.918 1.691 10336
1.362 2.796 1.625 4121
1.420 2.916 1.678 10722
1.361 2.794 1.613 2969
1.416 2.907 1.662 8958
1.475 3.029 1.727 3105
1.455 2.988 1.694 9428
1.396 2.866 1.629 4021
1.460 2.998 1.687 10714
1.401 2.876 1.623 3708
1.459 2.996 1.674 12485
1.396 2.867 1.607 2518
1.458 2.994 1.662 12529
1.398 2.871 1.598 1233
1.457 2.991 1.649 12062
1.517 3.114 1.712 1624
1.462 3.002 1.642 10283
1.522 3.125 1.705 1566
1.495 3.070 1.666 7269
1.435 2.947 1.603 1584
1.507 3.094 1.666 7495
1.447 2.970 1.604 1829
1.515 3.111 1.662 8309
1.455 2.987 1.601 1555
1.523 3.128 1.659 7344
1.463 3.004 1.598 1821
1.538 3.158 1.661 6631
1.478 3.034 1.601 1213
1.543 3.168 1.654 5979
1.526 3.133 1.625 6110
1.586 3.257 1.685 2705
1.525 3.130 1.612 7017
1.585 3.255 1.672 3871
1.527 3.134 1.602 5828
1.587 3.259 1.661 4176
1.589 3.263 1.651 6084
1.528 3.138 1.592 3313
1.591 3.267 1.640 6343
1.530 3.142 1.582 1991
1.590 3.264 1.627 3873
1.529 3.139 1.569 1216
1.592 3.268 1.616 2762
1.652 3.393 1.674 1281
1.603 3.291 1.615 3528
1.608 3.302 1.607 4570
1.669 3.427 1.664 1048
1.613 3.312 1.600 4851
1.674 3.438 1.656 1106
1.618 3.323 1.592 4135
1.620 3.327 1.582 2847
1.648 3.383 1.594 4987
1.653 3.394 1.586 6233
1.714 3.520 1.641 1230
1.652 3.391 1.572 5521
1.713 3.517 1.627 2032
1.660 3.408 1.567 5094
1.721 3.534 1.621 3261
1.681 3.452 1.573 6116
1.743 3.578 1.626 1814
1.683 3.455 1.562 4851
1.751 3.595 1.621 1352
1.691 3.472 1.556 4122
1.753 3.599 1.609 2421
1.745 3.583 1.589 5817
1.683 3.456 1.537 3050
1.747 3.587 1.578 7551
1.685 3.460 1.526 1574
1.765 3.624 1.580 6615
1.767 3.628 1.568 6692
1.798 3.692 1.580 4279
1.736 3.564 1.530 1903
1.806 3.709 1.574 6397
1.744 3.582 1.524 1956
1.812 3.720 1.565 6818
1.749 3.592 1.515 2006
1.826 3.750 1.563 4846
1.761 3.616 1.511 1019
1.832 3.761 1.554 7243
1.894 3.889 1.602 1294
1.833 3.764 1.541 7893
1.899 3.899 1.592 1829
1.835 3.768 1.529 4914
1.898 3.896 1.577 2484
1.896 3.893 1.562 4287
1.834 3.765 1.515 3163
1.901 3.904 1.552 5898
1.839 3.775 1.505 1939
1.903 3.907 1.540 5662
1.966 4.036 1.586 2791
1.921 3.945 1.539 4803
1.984 4.074 1.586 1788
1.976 4.057 1.565 3813
1.913 3.928 1.520 2966
2.007 4.122 1.574 5309
1.938 3.979 1.524 2439
2.013 4.132 1.563 4508
1.940 3.983 1.511 2874
2.018 4.143 1.552 4525
1.955 4.014 1.508 3070
2.016 4.140 1.537 4813
1.953 4.010 1.492 2419
2.018 4.143 1.523 4540
2.081 4.273 1.567 1777
2.023 4.154 1.512 4236
2.086 4.283 1.556 1829
2.065 4.239 1.526 4532
2.002 4.110 1.483 1041
2.053 4.216 1.503 3334
2.126 4.366 1.553 1458
2.098 4.308 1.519 3310
2.035 4.178 1.477 1727
2.140 4.394 1.531 2948
2.077 4.264 1.489 2208
2.142 4.397 1.517 3334
2.078 4.267 1.476 1650
2.133 4.380 1.496 2747
2.220 4.558 1.552 1072
2.222 4.562 1.538 1829
2.135 4.384 1.482 1566
2.210 4.538 1.515 2580
2.140 4.394 1.470 2172
2.262 4.645 1.531 2820
2.199 4.514 1.492 2168
2.257 4.635 1.512 3150
2.194 4.504 1.473 1557
2.246 4.611 1.489 2927
2.346 4.817 1.550 2229
2.345 4.814 1.533 3604
2.237 4.594 1.468 3435
2.350 4.825 1.519 3685
2.236 4.590 1.451 2845
2.355 4.835 1.506 4038
2.479 5.090 1.579 2184
2.353 4.832 1.488 4523
2.451 5.032 1.545 3512
2.405 4.939 1.501 4918
2.469 5.070 1.538 3388
2.407 4.942 1.486 3786
2.474 5.081 1.524 3701
2.547 5.229 1.547 4989
2.416 4.960 1.473 3093
2.549 5.233 1.530 5351
2.421 4.970 1.459 1732
2.550 5.237 1.513 4247
2.615 5.368 1.548 1546
2.610 5.358 1.527 3053
2.545 5.226 1.493 2455
2.611 5.362 1.510 3544
2.547 5.230 1.476 1187
2.583 5.303 1.477 3753
2.674 5.490 1.524 2372
2.584 5.306 1.460 2892
2.666 5.473 1.501 2797
2.664 5.469 1.482 2452
2.728 5.601 1.515 2028
2.710 5.563 1.487 2965
2.628 5.397 1.446 1346
2.732 5.609 1.479 3805
2.796 5.741 1.511 1441
