7.050 3.948 1.634 1209
6.884 3.855 1.575 4979
7.034 3.939 1.606 1697
6.895 3.861 1.553 5239
7.031 3.937 1.582 2166
6.898 3.863 1.530 4819
7.354 4.118 1.623 1930
6.902 3.865 1.508 4043
7.371 4.128 1.601 1681
6.898 3.863 1.483 2545
7.375 4.130 1.577 2070
7.372 4.128 1.551 2795
8.067 4.517 1.685 1716
7.369 4.126 1.525 2208
7.825 4.382 1.612 1805
8.081 4.525 1.632 2003
7.815 4.376 1.583 1815
8.167 4.573 1.621 3002
7.812 4.375 1.556 2232
8.171 4.575 1.593 3475
7.816 4.377 1.530 2059
8.195 4.589 1.570 2649
7.826 4.382 1.505 1568
8.219 4.602 1.546 2237
7.829 4.384 1.479 1011
8.216 4.601 1.518 1685
8.212 4.599 1.489 1424
8.202 4.593 1.460 1254
8.198 4.591 1.431 1220
8.215 4.601 1.406 1234
2.045 1.137 1.777 3943
2.049 1.140 1.771 7886
1.903 1.058 1.651 1445
2.054 1.142 1.764 7886
1.907 1.060 1.645 1445
2.058 1.144 1.757 9186
1.911 1.062 1.639 1110
2.062 1.146 1.750 10485
2.072 1.152 1.748 8569
2.081 1.157 1.746 7111
2.190 1.218 1.832 1083
2.086 1.160 1.739 7111
2.194 1.220 1.824 1083
2.130 1.184 1.764 6840
2.139 1.190 1.761 7689
2.031 1.129 1.677 1148
2.149 1.195 1.759 5865
2.040 1.135 1.674 1099
2.153 1.197 1.752 4093
2.198 1.222 1.775 4993
2.088 1.161 1.692 2232
2.214 1.231 1.777 6936
2.104 1.170 1.694 1828
2.218 1.233 1.770 6936
2.108 1.172 1.687 1424
2.228 1.239 1.767 6720
2.118 1.178 1.684 1066
2.232 1.241 1.759 6603
2.122 1.180 1.677 1080
2.236 1.243 1.752 6111
2.263 1.259 1.762 6199
2.153 1.197 1.681 1001
2.232 1.241 1.729 5430
2.231 1.240 1.717 5674
2.241 1.246 1.714 5003
2.352 1.308 1.794 1075
2.256 1.255 1.715 4811
2.368 1.317 1.795 1016
2.272 1.263 1.716 4858
2.384 1.326 1.796 1148
2.288 1.272 1.717 5378
2.400 1.334 1.796 1216
2.286 1.271 1.706 6394
2.398 1.333 1.784 1642
2.290 1.273 1.698 7456
2.402 1.336 1.776 1834
2.306 1.282 1.699 6972
2.418 1.345 1.776 1371
2.333 1.298 1.707 8192
2.349 1.306 1.708 6892
2.377 1.322 1.716 6613
2.375 1.321 1.705 5113
2.373 1.320 1.693 3676
2.541 1.413 1.805 1277
2.443 1.358 1.729 3347
2.329 1.295 1.653 1426
2.447 1.361 1.721 3391
2.561 1.424 1.796 1391
2.439 1.356 1.705 3838
2.565 1.426 1.787 2066
2.467 1.372 1.713 4156
2.581 1.435 1.787 2616
2.477 1.377 1.708 4830
2.592 1.441 1.782 3634
2.578 1.433 1.762 5319
2.463 1.370 1.689 3867
2.552 1.419 1.734 5617
2.437 1.355 1.661 2721
2.556 1.421 1.726 5371
2.441 1.357 1.653 1990
2.608 1.450 1.748 5902
2.487 1.383 1.672 2783
2.643 1.469 1.759 7741
2.527 1.405 1.687 2677
2.659 1.479 1.757 9371
2.543 1.414 1.686 2068
2.669 1.484 1.753 9063
2.535 1.410 1.670 1152
2.673 1.486 1.744 7043
2.677 1.489 1.735 5023
2.681 1.491 1.726 7065
2.804 1.559 1.800 1266
2.692 1.497 1.721 10896
2.814 1.565 1.794 2887
2.702 1.502 1.716 12678
2.818 1.567 1.785 3886
2.712 1.508 1.711 10403
2.829 1.573 1.780 3959
2.728 1.517 1.709 7023
2.845 1.582 1.778 3161
2.726 1.516 1.696 4905
2.843 1.581 1.765 3277
2.817 1.566 1.737 6116
2.699 1.501 1.670 2669
2.821 1.568 1.728 8288
2.938 1.634 1.796 1984
2.831 1.574 1.722 8443
2.949 1.640 1.789 2319
2.835 1.576 1.713 8209
2.953 1.642 1.780 2903
2.839 1.579 1.704 6920
2.957 1.644 1.770 2786
2.849 1.584 1.698 6132
2.967 1.650 1.764 2997
2.965 1.649 1.751 6035
2.847 1.583 1.685 5018
2.969 1.651 1.741 10766
2.851 1.585 1.676 3159
2.980 1.657 1.734 12981
2.861 1.591 1.670 2611
2.990 1.663 1.728 13178
2.871 1.596 1.664 2906
2.994 1.665 1.718 14363
2.875 1.599 1.654 2276
2.998 1.667 1.708 14206
3.130 1.740 1.778 1929
2.996 1.666 1.695 13007
3.134 1.743 1.768 3556
3.000 1.668 1.685 11085
3.132 1.741 1.755 6123
3.130 1.740 1.741 8368
3.010 1.674 1.679 7426
3.153 1.753 1.740 8256
3.026 1.683 1.675 4264
3.163 1.759 1.733 8866
3.043 1.692 1.672 3503
3.161 1.757 1.720 7732
3.041 1.691 1.659 3465
3.158 1.756 1.706 4889
3.038 1.689 1.645 2882
3.226 1.794 1.727 9223
3.055 1.698 1.642 2433
3.223 1.792 1.714 12275
3.058 1.701 1.632 1182
3.227 1.795 1.703 10314
3.263 1.815 1.708 6851
3.280 1.824 1.703 7930
3.329 1.851 1.714 7473
3.207 1.783 1.656 1596
3.333 1.853 1.703 7063
3.211 1.786 1.645 1095
3.349 1.862 1.698 6319
3.360 1.868 1.690 7241
3.364 1.870 1.679 8560
3.511 1.952 1.747 1048
3.361 1.869 1.665 9051
3.528 1.962 1.742 2137
3.372 1.875 1.657 6666
3.532 1.964 1.730 2845
3.363 1.870 1.640 4391
3.523 1.959 1.713 2955
3.366 1.872 1.629 3940
3.534 1.965 1.704 3427
3.396 1.888 1.629 5193
3.538 1.967 1.692 5146
3.542 1.969 1.681 6191
3.400 1.890 1.618 4259
3.546 1.972 1.669 5322
3.403 1.892 1.607 1782
3.550 1.974 1.657 3713
3.672 2.042 1.711 3018
3.683 2.048 1.701 5342
3.560 1.979 1.648 3372
3.687 2.050 1.689 4966
3.564 1.982 1.637 2917
3.697 2.056 1.680 4125
3.561 1.980 1.622 1715
3.714 2.065 1.673 4429
3.591 1.997 1.621 1085
3.718 2.067 1.661 4903
3.842 2.136 1.712 1129
3.729 2.073 1.651 5170
3.852 2.142 1.702 2565
3.843 2.137 1.684 4894
3.719 2.068 1.633 3354
3.854 2.143 1.674 6002
3.730 2.074 1.624 2696
3.864 2.149 1.664 6493
3.740 2.080 1.614 2652
3.868 2.151 1.651 6631
3.744 2.082 1.602 1652
3.865 2.149 1.636 6691
3.990 2.218 1.684 2371
3.961 2.202 1.659 4306
3.836 2.133 1.610 2655
3.945 2.194 1.638 5999
3.820 2.124 1.590 1785
3.949 2.196 1.625 7565
4.073 2.265 1.672 1530
3.979 2.212 1.622 8191
4.009 2.229 1.618 10132
4.026 2.239 1.610 11142
4.102 2.281 1.623 7285
3.977 2.211 1.577 2366
4.106 2.283 1.610 11334
4.271 2.375 1.670 1516
4.110 2.285 1.596 9083
3.984 2.215 1.551 1379
4.113 2.287 1.583 9562
4.117 2.289 1.569 12504
4.421 2.458 1.676 1612
4.121 2.291 1.555 12625
4.260 2.369 1.604 2028
4.124 2.293 1.542 8937
4.296 2.389 1.601 3022
4.300 2.391 1.587 4004
4.128 2.295 1.528 3647
4.450 2.474 1.622 5636
4.310 2.397 1.575 2495
4.454 2.476 1.607 4057
4.307 2.395 1.559 1632
4.510 2.508 1.610 3693
4.637 2.578 1.652 1952
4.528 2.518 1.599 3291
4.654 2.588 1.641 2901
4.638 2.579 1.619 2537
4.511 2.508 1.578 2440
4.742 2.637 1.635 2889
4.522 2.514 1.565 2219
4.739 2.635 1.618 4789
4.612 2.564 1.578 1773
4.736 2.633 1.600 4747
4.883 2.715 1.646 2013
4.753 2.643 1.588 2769
4.900 2.725 1.634 2028
4.770 2.652 1.577 2759
4.944 2.749 1.630 2689
4.907 2.729 1.601 2966
4.780 2.658 1.563 2368
4.911 2.731 1.585 3213
4.784 2.660 1.547 1151
4.975 2.766 1.586 4691
5.102 2.837 1.624 2296
5.086 2.828 1.601 6448
4.959 2.757 1.564 4499
5.090 2.830 1.584 7890
4.962 2.759 1.548 3399
5.093 2.832 1.567 7765
5.261 2.926 1.615 3442
5.097 2.834 1.551 6487
5.278 2.935 1.601 3174
5.101 2.836 1.534 4104
5.296 2.945 1.587 3506
5.373 2.988 1.590 3855
5.104 2.838 1.517 2314
5.384 2.994 1.574 2906
5.599 3.113 1.632 1830
5.603 3.116 1.614 2742
5.360 2.981 1.549 2407
5.742 3.193 1.630 2883
5.357 2.979 1.530 2675
5.739 3.191 1.610 2790
5.361 2.981 1.512 1779
5.729 3.186 1.587 2793
5.601 3.114 1.554 1687
5.726 3.184 1.566 3010
6.050 3.364 1.648 2221
6.061 3.370 1.630 3388
5.736 3.190 1.549 2580
6.071 3.376 1.611 3743
5.862 3.259 1.560 2533
6.068 3.374 1.589 5333
5.865 3.261 1.540 1612
6.079 3.380 1.571 6916
5.950 3.309 1.540 1256
6.096 3.390 1.554 5200
5.967 3.318 1.524 1436
6.106 3.395 1.535 3836
6.574 3.656 1.643 1495
6.130 3.409 1.520 3564
6.687 3.718 1.646 1536
6.141 3.414 1.501 2834
6.582 3.660 1.600 1465
6.096 3.390 1.470 1848
6.891 3.832 1.645 1837
6.895 3.834 1.622 2395
5.950 3.309 1.417 1246
6.885 3.829 1.596 3162
5.953 3.310 1.398 1472
6.896 3.834 1.575 3929
7.039 3.914 1.605 1893
6.906 3.840 1.553 3909
7.036 3.912 1.580 2103
6.910 3.842 1.530 3551
7.373 4.100 1.624 1902
6.913 3.844 1.508 3090
7.391 4.109 1.603 1682
7.394 4.112 1.578 2220
6.910 3.842 1.483 1966
7.384 4.106 1.551 3110
7.828 4.353 1.636 1620
7.381 4.104 1.525 2484
8.193 4.556 1.679 2107
8.184 4.550 1.649 2786
7.828 4.353 1.583 1391
8.187 4.553 1.622 4143
8.058 4.480 1.598 1372
8.191 4.555 1.595 4902
7.829 4.353 1.530 1052
8.208 4.564 1.570 3872
8.233 4.578 1.546 3077
7.849 4.365 1.480 1007
8.229 4.576 1.518 2333
7.846 4.363 1.453 1051
8.226 4.574 1.489 1993
8.223 4.572 1.461 1687
8.212 4.566 1.431 1618
8.229 4.576 1.406 1669
8.239 4.581 1.380 1347
2.043 1.128 1.773 3751
2.047 1.130 1.766 7502
1.906 1.052 1.651 1636
2.051 1.132 1.759 7502
1.910 1.054 1.645 1636
2.061 1.138 1.757 8871
1.914 1.056 1.639 1314
2.065 1.140 1.750 10375
1.923 1.062 1.637 1012
2.075 1.145 1.748 8645
2.091 1.154 1.751 7627
2.199 1.214 1.836 1007
2.095 1.156 1.744 7627
2.203 1.216 1.829 1007
2.128 1.174 1.759 6473
2.143 1.183 1.761 6553
2.034 1.123 1.677 1063
2.147 1.185 1.754 5020
2.186 1.207 1.774 3612
2.077 1.146 1.690 1734
2.219 1.225 1.788 4645
2.109 1.164 1.705 2090
2.223 1.227 1.781 6425
2.113 1.167 1.698 1178
2.227 1.229 1.774 6425
2.117 1.169 1.691 1121
2.232 1.232 1.767 6643
2.121 1.171 1.684 1063
2.236 1.234 1.759 6875
2.125 1.173 1.677 1093
2.240 1.236 1.752 6174
2.267 1.252 1.762 6074
2.230 1.231 1.725 6167
2.235 1.233 1.717 6930
2.244 1.239 1.714 6214
2.356 1.300 1.794 1080
2.266 1.251 1.719 6705
2.282 1.260 1.720 6821
2.292 1.265 1.717 7413
2.404 1.327 1.796 1002
2.290 1.264 1.706 6882
2.402 1.326 1.784 1550
2.288 1.263 1.694 6726
2.401 1.325 1.772 2013
2.322 1.282 1.707 6060
2.349 1.297 1.716 8085
2.371 1.309 1.720 7783
2.381 1.314 1.716 7955
2.379 1.313 1.705 5694
2.443 1.349 1.737 3501
2.557 1.411 1.813 1134
2.447 1.351 1.729 3227
2.561 1.414 1.804 1203
2.433 1.343 1.709 2981
2.553 1.409 1.788 1392
2.443 1.349 1.705 3845
2.564 1.415 1.784 2406
2.471 1.364 1.713 4826
2.586 1.427 1.787 3184
2.481 1.370 1.708 5455
2.596 1.433 1.782 3964
2.582 1.425 1.762 5395
2.467 1.362 1.689 4014
2.556 1.411 1.734 5136
2.441 1.347 1.661 2571
2.560 1.413 1.726 4938
2.445 1.350 1.653 2013
2.619 1.446 1.752 5687
2.485 1.372 1.668 2336
2.641 1.458 1.755 7786
2.495 1.377 1.664 2132
2.664 1.470 1.757 9838
2.548 1.406 1.686 1935
2.674 1.476 1.753 9688
2.558 1.412 1.681 1176
2.678 1.478 1.744 7668
2.657 1.467 1.720 5656
2.774 1.531 1.791 1143
2.692 1.486 1.730 8096
2.809 1.550 1.800 1385
2.696 1.488 1.721 11819
2.819 1.556 1.794 2988
2.706 1.494 1.716 12902
2.823 1.558 1.785 3966
2.717 1.500 1.711 10214
2.834 1.564 1.780 4249
2.733 1.509 1.709 6753
2.850 1.573 1.778 3564
2.731 1.507 1.696 4876
2.848 1.572 1.765 3761
2.828 1.561 1.741 5935
2.710 1.496 1.673 3117
2.832 1.563 1.732 7542
2.714 1.498 1.664 1906
2.836 1.565 1.722 8325
2.954 1.630 1.789 2147
2.840 1.568 1.713 8850
2.958 1.633 1.780 2809
2.850 1.573 1.707 7531
2.968 1.638 1.773 2581
2.860 1.579 1.701 6680
2.985 1.648 1.771 3171
2.977 1.643 1.754 5415
2.858 1.578 1.689 4784
2.981 1.645 1.744 8842
2.862 1.580 1.679 3114
2.985 1.648 1.734 10596
2.866 1.582 1.670 3259
2.995 1.653 1.728 11785
2.876 1.588 1.664 3767
2.999 1.656 1.718 13372
2.880 1.590 1.654 2954
3.003 1.658 1.708 12686
3.135 1.731 1.778 2424
3.007 1.660 1.698 11143
3.146 1.736 1.771 3612
3.005 1.659 1.685 9550
3.150 1.739 1.761 5335
3.135 1.730 1.741 7820
3.015 1.664 1.679 7257
3.158 1.743 1.740 8462
3.032 1.673 1.675 4832
3.168 1.749 1.733 9090
3.048 1.683 1.672 3647
3.172 1.751 1.723 7843
3.052 1.685 1.662 3756
3.183 1.757 1.716 5088
3.062 1.690 1.655 3533
3.212 1.773 1.718 7996
3.060 1.689 1.642 2142
3.229 1.782 1.714 11036
3.057 1.688 1.629 1189
3.233 1.785 1.703 9638
3.269 1.804 1.708 6132
3.058 1.688 1.605 1095
3.286 1.814 1.703 7427
3.062 1.690 1.595 1037
3.322 1.833 1.708 7472
3.200 1.766 1.650 1128
3.332 1.839 1.700 7749
3.330 1.838 1.686 6149
3.372 1.861 1.693 5744
3.369 1.860 1.679 7257
3.367 1.859 1.665 9427
3.515 1.940 1.733 1595
3.364 1.857 1.651 8668
3.532 1.950 1.727 2082
3.362 1.856 1.637 6636
3.536 1.952 1.716 2513
3.366 1.858 1.626 6208
3.553 1.961 1.710 3975
3.382 1.867 1.621 6675
3.544 1.956 1.692 5634
3.541 1.955 1.678 6338
3.393 1.873 1.612 4620
3.545 1.957 1.666 5565
3.390 1.871 1.598 1899
3.549 1.959 1.654 4080
3.679 2.031 1.711 3770
3.689 2.036 1.701 6728
3.566 1.968 1.648 4026
3.700 2.042 1.692 6257
3.570 1.971 1.637 3686
3.717 2.052 1.685 4294
3.567 1.969 1.622 2350
3.721 2.054 1.673 4127
3.564 1.968 1.608 1321
3.718 2.052 1.658 5015
3.741 2.065 1.654 5140
3.865 2.134 1.705 1920
3.778 2.085 1.655 4731
3.902 2.154 1.705 2186
3.854 2.127 1.671 6268
3.730 2.059 1.621 2982
3.831 2.115 1.648 8014
3.956 2.184 1.698 1922
3.835 2.117 1.635 8028
3.960 2.186 1.685 2572
3.872 2.137 1.636 7287
3.996 2.206 1.684 2001
3.830 2.114 1.605 4861
3.974 2.194 1.661 4175
3.965 2.189 1.643 5228
3.833 2.116 1.592 5014
3.962 2.187 1.627 6284
3.837 2.118 1.580 3349
3.986 2.200 1.622 6895
3.861 2.131 1.575 1654
4.016 2.217 1.618 10426
3.891 2.148 1.572 1457
4.033 2.226 1.610 12448
3.907 2.157 1.564 1121
4.056 2.239 1.604 7267
4.182 2.308 1.650 1507
4.119 2.274 1.612 10077
4.278 2.361 1.670 1791
4.117 2.272 1.596 8170
3.991 2.203 1.551 1294
4.120 2.274 1.583 9310
4.279 2.362 1.639 1463
4.124 2.276 1.569 12099
4.270 2.357 1.620 2548
4.128 2.278 1.555 11852
4.267 2.355 1.604 2667
4.131 2.280 1.542 7976
4.310 2.379 1.603 3075
4.308 2.378 1.587 4948
4.434 2.447 1.630 3575
4.451 2.457 1.620 5700
4.311 2.380 1.573 3567
4.455 2.459 1.605 4284
4.275 2.360 1.545 2296
4.525 2.498 1.612 3273
4.265 2.354 1.527 2105
4.649 2.566 1.636 3311
4.522 2.496 1.595 2833
4.652 2.568 1.621 3072
4.259 2.351 1.494 2346
4.750 2.622 1.635 2650
4.503 2.485 1.557 2178
4.747 2.620 1.618 5085
4.493 2.480 1.538 1669
4.751 2.622 1.602 5216
4.891 2.700 1.646 1783
4.761 2.628 1.588 2530
4.902 2.706 1.632 2043
4.945 2.730 1.628 2494
4.812 2.656 1.587 2052
4.922 2.717 1.603 3393
4.795 2.647 1.565 1610
4.926 2.719 1.587 3676
4.785 2.641 1.545 1238
4.977 2.747 1.584 4974
5.104 2.818 1.622 1423
4.987 2.753 1.570 4638
5.115 2.823 1.607 3082
5.092 2.811 1.582 5223
4.964 2.740 1.546 2791
5.102 2.816 1.567 4882
4.974 2.746 1.531 3342
5.106 2.818 1.551 4056
5.274 2.911 1.598 3181
5.285 2.917 1.582 3981
4.995 2.757 1.502 3313
5.383 2.971 1.590 3522
5.524 3.049 1.629 1860
5.373 2.966 1.569 3313
5.508 3.040 1.605 2181
5.619 3.102 1.615 2289
5.363 2.960 1.547 2048
5.745 3.171 1.629 2635
5.616 3.100 1.595 1944
5.749 3.173 1.610 2266
5.620 3.102 1.576 1886
5.732 3.164 1.585 1971
5.604 3.093 1.553 1693
6.061 3.345 1.648 2142
5.736 3.166 1.566 1855
6.071 3.351 1.630 3223
5.943 3.280 1.598 2184
6.082 3.357 1.611 2973
5.953 3.286 1.580 2619
6.079 3.355 1.589 3993
5.950 3.284 1.558 1935
6.089 3.361 1.571 5748
5.960 3.290 1.540 1524
6.100 3.367 1.552 4623
6.317 3.487 1.603 1432
6.110 3.373 1.534 3131
6.586 3.635 1.643 1657
6.120 3.378 1.515 2884
6.440 3.555 1.587 1807
6.117 3.377 1.493 2340
6.444 3.557 1.566 1805
6.597 3.642 1.578 1833
6.107 3.371 1.470 1508
6.921 3.820 1.625 1768
6.621 3.655 1.560 1281
6.897 3.807 1.596 2086
5.964 3.292 1.398 1539
6.901 3.809 1.573 2685
7.044 3.888 1.603 2078
6.918 3.819 1.553 2509
7.048 3.890 1.580 1996
6.929 3.825 1.532 2227
7.386 4.077 1.624 1610
6.925 3.823 1.508 1981
7.403 4.087 1.603 1495
7.407 4.089 1.578 2162
7.277 4.017 1.553 1834
7.397 4.083 1.551 3131
7.267 4.011 1.526 1513
8.207 4.530 1.679 2650
7.394 4.081 1.525 2499
8.198 4.525 1.649 3502
7.835 4.325 1.582 1397
8.201 4.527 1.622 5239
8.071 4.455 1.598 1368
8.212 4.533 1.596 6457
8.082 4.461 1.573 1155
8.229 4.543 1.571 5274
8.240 4.548 1.545 4041
7.856 4.337 1.479 1213
8.243 4.550 1.518 2966
7.859 4.338 1.453 1209
8.240 4.549 1.489 2447
8.237 4.547 1.461 1992
8.226 4.541 1.431 1920
8.243 4.550 1.406 2028
8.246 4.552 1.379 1636
2.047 1.122 1.773 3492
2.051 1.124 1.766 6985
1.909 1.046 1.651 1377
2.055 1.126 1.759 6985
1.913 1.049 1.645 1377
2.059 1.129 1.753 8416
1.917 1.051 1.639 1108
2.069 1.134 1.750 9974
2.084 1.142 1.753 8212
2.100 1.151 1.755 7519
2.104 1.153 1.748 7519
2.125 1.165 1.755 6311
2.016 1.105 1.670 1035
2.135 1.170 1.752 5730
2.026 1.110 1.668 1103
2.145 1.176 1.750 4838
2.126 1.165 1.725 4003
2.236 1.225 1.809 2515
2.228 1.221 1.793 4556
2.119 1.161 1.709 2823
2.233 1.224 1.785 6035
2.123 1.163 1.703 1835
2.237 1.226 1.778 6035
2.127 1.166 1.696 1429
2.241 1.228 1.771 6556
2.131 1.168 1.689 1024
2.239 1.227 1.759 7025
2.238 1.226 1.748 6082
2.271 1.245 1.762 5740
2.234 1.225 1.725 6603
2.238 1.227 1.717 7733
2.260 1.239 1.723 7210
2.276 1.247 1.724 8363
2.286 1.253 1.720 8648
2.296 1.258 1.717 9428
2.300 1.260 1.710 7731
2.412 1.322 1.788 1204
2.292 1.256 1.694 6454
2.404 1.318 1.772 2098
2.331 1.278 1.711 5881
2.365 1.296 1.724 8361
2.375 1.302 1.720 8408
2.385 1.307 1.716 8615
2.383 1.306 1.705 6118
2.381 1.305 1.693 3801
2.543 1.394 1.801 1339
2.451 1.344 1.729 3094
2.565 1.406 1.804 1146
2.437 1.336 1.709 2793
2.558 1.402 1.788 1321
2.465 1.351 1.717 3909
2.580 1.414 1.791 2440
2.481 1.360 1.716 5519
2.596 1.423 1.791 3275
2.492 1.366 1.712 6204
2.606 1.429 1.786 3541
2.586 1.418 1.762 5163
2.471 1.355 1.689 4093
2.560 1.403 1.734 4450
2.445 1.340 1.661 2328
2.625 1.439 1.764 4609
2.485 1.362 1.676 2479
2.629 1.441 1.756 5543
2.471 1.354 1.657 1665
2.646 1.450 1.755 7784
2.475 1.356 1.649 1543
2.668 1.462 1.757 9877
2.552 1.399 1.686 1892
2.678 1.468 1.753 9800
2.562 1.404 1.681 1575
2.682 1.470 1.744 7888
2.566 1.406 1.673 1194
2.662 1.459 1.720 6293
2.778 1.523 1.791 1362
2.697 1.478 1.730 8343
2.813 1.542 1.800 1459
2.701 1.480 1.721 11643
2.818 1.544 1.791 2932
2.711 1.486 1.716 12291
2.828 1.550 1.785 3791
2.721 1.491 1.711 9374
2.838 1.556 1.780 4281
2.737 1.500 1.709 5786
2.855 1.565 1.778 3849
2.834 1.553 1.754 5077
2.717 1.489 1.686 3338
2.832 1.552 1.741 5632
2.714 1.488 1.673 2432
2.836 1.555 1.732 6536
2.718 1.490 1.664 1452
2.840 1.557 1.722 7818
2.958 1.622 1.789 1974
2.844 1.559 1.713 9091
2.963 1.624 1.780 2646
2.861 1.568 1.711 8104
2.986 1.636 1.780 2509
2.871 1.574 1.705 7429
2.990 1.639 1.771 3190
2.900 1.590 1.709 5010
3.019 1.655 1.775 3181
2.992 1.640 1.748 6971
2.873 1.575 1.683 3150
2.996 1.642 1.738 8302
2.877 1.577 1.673 4299
3.000 1.644 1.728 9808
2.881 1.579 1.664 4374
3.004 1.646 1.718 11509
2.885 1.581 1.654 3347
3.008 1.649 1.708 10760
3.134 1.718 1.775 2650
3.012 1.651 1.698 9507
3.157 1.730 1.775 3629
3.016 1.653 1.689 8525
3.168 1.736 1.768 5096
3.020 1.655 1.679 7311
3.140 1.721 1.741 7224
3.163 1.734 1.740 7966
3.037 1.664 1.675 5144
3.174 1.739 1.733 8490
3.041 1.666 1.665 3451
3.178 1.742 1.723 7321
3.057 1.676 1.662 3581
3.188 1.747 1.716 5635
3.067 1.681 1.655 3338
3.205 1.757 1.712 7969
3.065 1.680 1.642 1888
3.228 1.769 1.710 9795
3.062 1.678 1.629 1032
3.232 1.771 1.700 8631
3.242 1.777 1.692 5733
3.064 1.679 1.605 1242
3.285 1.800 1.700 6909
3.067 1.681 1.595 1361
3.321 1.820 1.705 7251
3.199 1.753 1.647 1003
3.331 1.826 1.697 8030
3.335 1.828 1.686 5905
3.378 1.851 1.693 4801
3.255 1.784 1.636 1025
3.375 1.850 1.679 6028
3.373 1.848 1.665 8361
3.514 1.926 1.730 1266
3.370 1.847 1.651 8225
3.518 1.928 1.718 1570
3.367 1.846 1.637 6401
3.555 1.948 1.721 2110
3.371 1.848 1.626 6033
3.559 1.950 1.710 4077
3.388 1.857 1.621 6240
3.550 1.946 1.692 5660
3.547 1.944 1.678 6116
3.392 1.859 1.609 4231
3.545 1.943 1.663 5372
3.389 1.857 1.595 1920
3.685 2.020 1.711 4093
3.549 1.945 1.652 3844
3.695 2.025 1.701 7318
3.572 1.958 1.648 3336
3.706 2.031 1.692 6995
3.576 1.960 1.637 3211
3.723 2.040 1.685 4508
3.573 1.958 1.622 2105
3.727 2.043 1.673 3995
3.603 1.975 1.621 1057
3.724 2.041 1.658 5231
3.748 2.054 1.654 4884
3.872 2.122 1.705 1613
3.784 2.074 1.655 5553
3.908 2.142 1.705 1911
3.814 2.091 1.653 8061
3.939 2.159 1.703 2308
3.812 2.089 1.638 11980
3.936 2.157 1.687 3675
3.822 2.095 1.628 11848
3.947 2.163 1.677 3388
3.832 2.100 1.618 9317
3.957 2.169 1.666 2625
3.829 2.099 1.603 8270
3.981 2.182 1.661 4180
3.833 2.101 1.590 8474
3.978 2.180 1.645 5174
3.844 2.107 1.580 5648
3.969 2.175 1.627 5236
4.005 2.195 1.627 5286
3.834 2.101 1.562 2974
4.029 2.208 1.621 10235
3.838 2.103 1.550 2128
4.039 2.214 1.610 12582
3.914 2.145 1.564 1474
4.056 2.223 1.602 7574
4.182 2.292 1.647 1987
4.126 2.262 1.612 7958
4.278 2.345 1.667 1898
4.123 2.260 1.596 6948
4.289 2.351 1.655 1468
4.127 2.262 1.583 8291
4.286 2.349 1.639 1903
4.131 2.264 1.569 10294
4.277 2.344 1.620 3624
4.134 2.266 1.555 9912
4.281 2.346 1.606 3720
4.138 2.268 1.542 6360
4.298 2.355 1.597 3589
4.308 2.361 1.585 5624
4.441 2.434 1.630 3857
4.452 2.440 1.617 5631
4.318 2.367 1.573 4265
4.455 2.442 1.603 4789
4.289 2.351 1.547 2705
4.452 2.440 1.586 3298
4.272 2.342 1.527 2506
4.656 2.552 1.636 3066
4.469 2.450 1.576 2560
4.660 2.554 1.621 2999
4.486 2.459 1.565 2980
4.490 2.461 1.550 3360
4.758 2.608 1.635 2528
4.761 2.610 1.620 5158
4.494 2.463 1.536 2621
4.765 2.612 1.604 5525
4.899 2.685 1.646 1543
4.802 2.632 1.599 2916
4.675 2.562 1.559 1544
4.833 2.649 1.591 2789
4.960 2.719 1.630 2354
4.944 2.710 1.607 4219
4.816 2.640 1.569 2136
4.948 2.712 1.591 4664
4.820 2.642 1.553 2001
4.978 2.729 1.582 5227
4.851 2.659 1.545 1548
4.989 2.734 1.568 4868
5.117 2.804 1.605 1925
4.992 2.736 1.552 4634
5.120 2.806 1.588 2329
5.003 2.742 1.537 5117
5.272 2.890 1.613 2438
5.013 2.748 1.522 4630
5.276 2.892 1.596 3064
5.003 2.742 1.502 4659
5.287 2.897 1.580 4076
5.297 2.903 1.564 2861
4.993 2.737 1.482 2746
5.517 3.024 1.605 2616
5.328 2.920 1.554 1745
5.527 3.029 1.589 2228
5.656 3.100 1.623 1664
5.748 3.150 1.627 2290
5.619 3.080 1.593 1497
5.758 3.156 1.610 1917
5.629 3.085 1.576 1586
5.965 3.269 1.642 1696
5.640 3.091 1.560 1630
5.969 3.272 1.623 2367
6.098 3.342 1.655 1390
5.952 3.262 1.598 3185
6.081 3.333 1.630 2689
5.963 3.268 1.580 3413
6.092 3.339 1.611 2046
6.096 3.341 1.591 2796
5.967 3.270 1.560 2561
6.099 3.343 1.571 4622
5.970 3.272 1.540 1668
6.110 3.349 1.552 4078
6.334 3.472 1.605 1676
6.120 3.354 1.534 2610
6.399 3.507 1.598 1954
6.457 3.539 1.589 2124
6.124 3.356 1.513 1847
6.461 3.541 1.568 1959
6.604 3.620 1.600 1674
6.615 3.625 1.579 1770
6.949 3.808 1.652 1383
6.959 3.814 1.631 1807
6.632 3.635 1.560 1267
6.902 3.783 1.595 1709
5.974 3.274 1.398 1357
7.049 3.863 1.602 2128
6.905 3.785 1.572 2070
7.053 3.865 1.579 2017
6.923 3.794 1.552 1710
7.302 4.002 1.605 1367
6.933 3.800 1.530 1366
7.429 4.072 1.605 1210
7.203 3.948 1.561 1187
7.419 4.066 1.578 1874
7.289 3.995 1.553 1625
7.409 4.061 1.551 2806
7.840 4.297 1.634 1559
8.214 4.502 1.677 2725
7.406 4.059 1.525 2243
8.211 4.500 1.649 3695
7.855 4.305 1.583 2239
8.222 4.506 1.623 5667
7.858 4.307 1.557 2078
8.226 4.508 1.596 7229
7.869 4.313 1.532 1983
8.243 4.518 1.571 6106
7.866 4.311 1.505 1726
8.254 4.524 1.545 4631
7.862 4.309 1.478 1328
8.257 4.526 1.518 3272
8.254 4.524 1.489 2564
8.250 4.522 1.461 2045
8.247 4.520 1.432 1977
8.257 4.525 1.406 2115
8.260 4.527 1.379 1686
2.044 1.112 1.768 3325
2.048 1.115 1.761 6650
1.918 1.044 1.656 1190
2.053 1.117 1.755 6650
1.922 1.046 1.649 1190
2.062 1.122 1.753 8029
2.072 1.127 1.750 9554
2.088 1.136 1.753 7751
2.109 1.147 1.760 7682
2.113 1.150 1.753 7682
2.123 1.155 1.750 6668
2.127 1.157 1.743 5717
2.137 1.163 1.741 5231
2.247 1.222 1.825 1183
2.147 1.168 1.738 4783
2.257 1.228 1.822 1450
2.232 1.214 1.793 4563
2.122 1.155 1.709 3090
2.242 1.220 1.790 5892
2.132 1.160 1.707 2420
2.246 1.222 1.783 5892
2.136 1.162 1.700 1805
2.245 1.221 1.771 6635
2.123 1.155 1.680 1265
2.249 1.224 1.764 7367
2.126 1.157 1.673 1259
2.241 1.219 1.748 6103
2.210 1.203 1.715 5800
2.322 1.263 1.796 2019
2.238 1.218 1.725 7057
2.248 1.223 1.722 8596
2.270 1.235 1.727 8712
2.285 1.243 1.728 10615
2.295 1.249 1.725 11012
2.305 1.254 1.721 12034
2.309 1.256 1.714 9259
2.319 1.262 1.710 6544
2.359 1.284 1.727 6261
2.369 1.289 1.724 8513
2.379 1.294 1.720 8775
2.389 1.300 1.716 9042
2.387 1.299 1.705 6527
2.525 1.374 1.797 1223
2.385 1.298 1.693 4180
2.541 1.383 1.797 1587
2.389 1.300 1.685 3394
2.546 1.385 1.788 1467
2.441 1.328 1.709 2726
2.562 1.394 1.788 1398
2.470 1.344 1.717 4119
2.584 1.406 1.791 2652
2.486 1.352 1.716 6423
2.601 1.415 1.791 3604
2.496 1.358 1.712 7274
2.611 1.420 1.786 3578
2.500 1.360 1.704 5559
2.615 1.423 1.778 3489
2.510 1.366 1.700 3894
2.631 1.432 1.777 3043
2.623 1.427 1.761 4441
2.508 1.364 1.688 2645
2.628 1.430 1.752 5861
2.506 1.363 1.676 1469
2.644 1.438 1.751 8094
2.467 1.342 1.641 1291
2.666 1.451 1.754 9995
2.550 1.387 1.682 1520
2.677 1.456 1.749 9931
2.560 1.393 1.677 1645
2.681 1.458 1.740 8268
2.564 1.395 1.669 1233
2.666 1.451 1.720 7123
2.789 1.518 1.794 1452
2.701 1.470 1.730 8527
2.818 1.533 1.800 1654
2.711 1.475 1.725 11013
2.829 1.539 1.794 2828
2.715 1.477 1.716 11107
2.833 1.541 1.785 3512
2.726 1.483 1.711 8575
2.843 1.547 1.780 4340
2.742 1.492 1.709 5762
2.860 1.556 1.778 4381
2.839 1.545 1.754 5415
2.721 1.481 1.686 3195
2.843 1.547 1.745 5129
2.725 1.483 1.677 2511
2.835 1.542 1.728 5266
2.953 1.607 1.796 1400
2.839 1.545 1.719 7145
2.957 1.609 1.786 2113
2.849 1.550 1.713 9339
2.968 1.615 1.780 2449
2.866 1.559 1.711 9119
2.991 1.627 1.780 2462
2.882 1.568 1.708 8645
3.001 1.633 1.774 2950
2.893 1.574 1.702 6038
3.012 1.638 1.768 3691
3.003 1.634 1.751 5502
2.884 1.569 1.686 4277
3.007 1.636 1.741 6428
2.888 1.571 1.677 5771
3.005 1.635 1.728 7626
2.886 1.570 1.664 5235
3.009 1.637 1.718 9186
2.890 1.572 1.654 3897
3.013 1.639 1.708 8618
3.139 1.708 1.775 2997
3.017 1.642 1.698 7802
3.175 1.727 1.781 3864
3.028 1.647 1.692 7634
3.186 1.733 1.774 5450
3.031 1.649 1.682 7687
3.152 1.715 1.744 6280
3.169 1.724 1.740 6726
3.042 1.655 1.675 5683
3.179 1.730 1.733 6931
3.046 1.657 1.665 3365
3.183 1.732 1.723 5920
3.062 1.666 1.662 3387
3.200 1.741 1.719 6118
3.079 1.675 1.658 3232
3.204 1.743 1.708 8752
3.070 1.670 1.642 1908
3.221 1.752 1.704 8771
3.237 1.761 1.700 7518
3.248 1.767 1.692 5510
3.062 1.666 1.602 1098
3.284 1.787 1.697 6423
3.079 1.675 1.598 1446
3.326 1.810 1.705 7183
3.089 1.681 1.591 1331
3.337 1.815 1.697 8674
3.086 1.679 1.578 1095
3.334 1.814 1.683 5894
3.383 1.841 1.693 4176
3.261 1.774 1.636 1185
3.381 1.839 1.679 5272
3.378 1.838 1.665 7721
3.501 1.905 1.721 1116
3.376 1.837 1.651 7981
3.498 1.903 1.707 1644
3.373 1.835 1.637 6112
3.574 1.944 1.727 1877
3.377 1.837 1.626 5404
3.571 1.943 1.713 4055
3.556 1.935 1.692 5547
3.387 1.843 1.618 5070
3.553 1.933 1.678 5438
3.397 1.848 1.609 3202
3.538 1.925 1.658 4806
3.668 1.995 1.714 1750
3.691 2.008 1.711 4184
3.542 1.927 1.646 3943
3.702 2.014 1.701 7387
3.571 1.943 1.646 2983
3.719 2.023 1.695 7507
3.582 1.949 1.637 3027
3.729 2.029 1.685 4956
3.579 1.947 1.622 2307
3.727 2.027 1.670 4323
3.583 1.949 1.610 1127
3.724 2.026 1.655 5651
3.734 2.032 1.646 4667
3.865 2.103 1.699 1546
3.797 2.066 1.657 6961
3.922 2.134 1.708 1480
3.814 2.075 1.650 10731
3.939 2.143 1.700 2071
3.818 2.077 1.638 15642
3.943 2.145 1.687 2918
3.828 2.083 1.628 16262
3.953 2.151 1.677 2518
3.832 2.085 1.615 13780
3.957 2.153 1.664 2620
3.829 2.083 1.600 12843
3.987 2.169 1.661 4355
3.840 2.089 1.590 12430
4.011 2.182 1.656 6051
3.843 2.091 1.577 8462
4.015 2.184 1.642 5259
4.045 2.201 1.639 5203
3.840 2.089 1.562 5167
4.042 2.199 1.623 9447
3.844 2.091 1.550 3889
4.046 2.201 1.610 11698
3.848 2.093 1.537 2143
4.063 2.211 1.602 7727
4.189 2.279 1.647 2279
4.113 2.238 1.605 5689
4.272 2.324 1.662 1934
4.117 2.240 1.591 5613
4.296 2.337 1.655 1386
4.134 2.249 1.583 6494
4.294 2.336 1.639 2153
4.138 2.251 1.569 7265
4.284 2.331 1.620 4832
4.141 2.253 1.555 6875
4.288 2.333 1.606 5362
4.298 2.339 1.594 4608
4.145 2.255 1.542 4106
4.309 2.344 1.582 6107
4.455 2.424 1.632 4009
4.466 2.430 1.620 5620
4.319 2.350 1.571 4621
4.470 2.432 1.605 5190
4.296 2.337 1.547 3014
4.467 2.430 1.588 4417
4.279 2.328 1.527 2754
4.477 2.436 1.576 4174
4.671 2.541 1.639 2468
4.487 2.441 1.563 4732
4.681 2.547 1.625 2647
4.491 2.443 1.548 5295
4.772 2.596 1.638 2860
4.776 2.599 1.622 5131
4.501 2.449 1.536 3892
4.787 2.604 1.608 5341
4.505 2.451 1.521 1954
4.831 2.628 1.605 4449
4.690 2.551 1.562 2059
4.841 2.634 1.591 4221
4.969 2.703 1.630 2713
4.946 2.691 1.605 5586
4.818 2.621 1.567 2800
4.956 2.696 1.591 6305
4.828 2.627 1.553 3453
4.973 2.706 1.579 5677
4.845 2.636 1.541 2794
4.997 2.719 1.568 5210
4.869 2.649 1.531 1763
4.987 2.713 1.548 6786
5.298 2.882 1.636 1844
5.004 2.723 1.535 6147
5.281 2.873 1.613 2270
5.022 2.732 1.522 4846
5.285 2.875 1.596 3109
5.012 2.727 1.502 5521
5.289 2.877 1.578 3382
5.001 2.721 1.482 3626
5.299 2.883 1.563 2235
5.526 3.007 1.605 2763
5.323 2.896 1.551 1855
5.537 3.012 1.589 2583
5.327 2.898 1.533 1399
5.744 3.125 1.623 1866
5.554 3.022 1.574 1508
5.748 3.127 1.604 1914
5.958 3.241 1.658 1188
5.968 3.247 1.640 1996
5.819 3.166 1.603 1374
5.972 3.249 1.621 3138
5.836 3.175 1.587 1296
5.962 3.244 1.598 4212
6.092 3.314 1.630 1865
5.973 3.250 1.580 3867
6.109 3.324 1.613 1370
5.977 3.252 1.560 2964
6.113 3.326 1.593 1900
6.103 3.320 1.569 3515
5.967 3.246 1.537 2120
6.113 3.326 1.551 3501
6.352 3.456 1.606 1762
6.117 3.328 1.531 2184
6.410 3.487 1.598 1968
6.482 3.527 1.592 2243
6.114 3.326 1.509 1683
6.479 3.525 1.569 1942
6.117 3.328 1.489 1668
6.974 3.794 1.655 1568
6.626 3.605 1.579 1499
6.978 3.796 1.632 2057
6.185 3.365 1.462 1238
6.995 3.806 1.612 1631
7.276 3.958 1.672 1077
7.054 3.838 1.601 2131
6.903 3.756 1.569 1713
7.051 3.836 1.576 2082
7.290 3.966 1.625 1416
7.308 3.976 1.604 1417
7.041 3.831 1.550 1329
7.531 4.097 1.623 1388
7.222 3.929 1.562 1384
7.541 4.103 1.600 1628
7.315 3.980 1.555 1463
7.429 4.042 1.552 2302
7.861 4.277 1.635 2007
7.864 4.279 1.609 2741
8.228 4.477 1.677 2571
8.232 4.479 1.650 3543
7.868 4.281 1.583 2912
8.236 4.481 1.623 5655
7.872 4.283 1.557 2596
8.246 4.487 1.597 7451
7.875 4.285 1.531 2279
8.257 4.492 1.571 6450
7.879 4.287 1.505 1816
8.268 4.498 1.545 4825
7.882 4.289 1.479 1095
8.271 4.500 1.518 3228
8.275 4.502 1.490 2386
8.264 4.496 1.461 1852
8.261 4.494 1.432 1759
8.271 4.500 1.406 1897
8.274 4.502 1.379 1455
2.048 1.106 1.768 3133
2.052 1.108 1.761 6267
2.056 1.111 1.755 6267
2.066 1.116 1.753 7503
2.070 1.118 1.746 8902
2.178 1.177 1.832 1244
2.091 1.130 1.753 7455
2.113 1.141 1.760 8228
2.004 1.082 1.674 1044
2.117 1.143 1.753 8228
2.008 1.084 1.667 1062
2.121 1.146 1.746 7550
2.125 1.148 1.739 6872
2.135 1.153 1.736 5894
2.245 1.212 1.820 1475
2.151 1.162 1.738 5433
2.260 1.221 1.822 1560
2.236 1.208 1.793 4521
2.126 1.148 1.709 2867
2.246 1.213 1.790 5908
2.135 1.154 1.707 2387
2.250 1.215 1.783 5908
2.139 1.156 1.700 1739
2.254 1.218 1.775 6732
2.126 1.148 1.680 1239
2.253 1.217 1.764 7584
2.124 1.147 1.669 1228
2.245 1.213 1.748 6066
2.214 1.196 1.715 5927
2.325 1.256 1.796 2043
2.242 1.211 1.725 7110
2.252 1.216 1.722 8947
2.279 1.231 1.731 9759
2.289 1.237 1.728 12425
2.299 1.242 1.725 12925
2.309 1.247 1.721 14164
2.319 1.253 1.718 10748
2.323 1.255 1.710 7490
2.363 1.276 1.727 6504
2.379 1.285 1.728 8314
2.383 1.287 1.720 8578
2.387 1.289 1.712 8842
2.513 1.357 1.797 1153
2.385 1.288 1.701 6589
2.523 1.363 1.793 1449
2.383 1.287 1.689 4683
2.540 1.372 1.793 1802
2.399 1.296 1.689 3845
2.544 1.374 1.784 1661
2.409 1.301 1.685 3306
2.560 1.383 1.784 1565
2.480 1.339 1.721 4402
2.594 1.401 1.795 2508
2.496 1.348 1.720 7308
2.611 1.410 1.795 3266
2.500 1.350 1.712 8309
2.615 1.413 1.786 3447
2.504 1.353 1.704 6453
2.619 1.415 1.778 3082
2.514 1.358 1.700 4645
2.642 1.427 1.781 2504
2.628 1.419 1.761 4510
2.512 1.357 1.688 3499
2.632 1.422 1.752 6485
2.516 1.359 1.680 2401
2.642 1.427 1.747 8464
2.526 1.364 1.675 1860
2.671 1.443 1.754 9911
2.554 1.380 1.682 1674
2.681 1.448 1.749 9907
2.564 1.385 1.677 1745
2.685 1.450 1.740 8523
2.568 1.387 1.669 1284
2.671 1.443 1.720 7878
2.794 1.509 1.794 1511
2.706 1.462 1.730 8364
2.823 1.525 1.800 1707
2.716 1.467 1.725 9543
2.833 1.530 1.794 2634
2.714 1.466 1.712 8738
2.831 1.529 1.782 3375
2.724 1.471 1.707 6447
2.842 1.535 1.776 4453
2.846 1.537 1.767 5721
2.728 1.474 1.698 3408
2.850 1.539 1.757 5566
2.732 1.476 1.689 2612
2.854 1.542 1.748 4577
2.736 1.478 1.680 2071
2.827 1.527 1.721 4108
2.945 1.591 1.788 1862
2.837 1.533 1.715 6234
2.956 1.597 1.782 2178
2.854 1.542 1.713 8849
2.973 1.606 1.780 2141
2.877 1.554 1.714 9542
2.996 1.618 1.780 2244
2.887 1.559 1.708 9505
3.006 1.624 1.774 2560
2.897 1.565 1.702 7039
3.016 1.629 1.768 3239
2.901 1.567 1.693 5312
3.021 1.632 1.758 4588
2.899 1.566 1.680 6011
3.018 1.631 1.745 5713
3.004 1.623 1.725 6019
2.884 1.558 1.660 4836
3.014 1.628 1.718 7034
2.894 1.563 1.654 4224
3.024 1.634 1.712 7080
3.144 1.699 1.775 3022
3.035 1.639 1.705 6693
3.187 1.721 1.785 3854
3.039 1.641 1.695 7158
3.191 1.724 1.774 5689
3.049 1.647 1.689 8255
3.208 1.733 1.770 5745
3.059 1.653 1.682 6535
3.212 1.735 1.760 5383
3.184 1.720 1.733 4914
3.063 1.655 1.672 3834
3.188 1.722 1.723 4617
3.067 1.657 1.662 3316
3.205 1.731 1.719 6945
3.084 1.666 1.658 2940
3.209 1.733 1.708 9183
3.081 1.665 1.645 2014
3.220 1.739 1.701 7915
3.243 1.752 1.700 6214
3.253 1.757 1.692 5020
3.276 1.770 1.691 6085
3.398 1.836 1.750 1498
3.287 1.775 1.683 6947
3.409 1.841 1.742 2061
3.336 1.802 1.694 8604
3.091 1.670 1.578 1128
3.314 1.790 1.671 5740
3.436 1.856 1.728 1036
3.311 1.789 1.657 3501
3.434 1.855 1.714 1738
3.386 1.829 1.679 4433
3.377 1.824 1.662 6566
3.500 1.891 1.718 1123
3.381 1.826 1.651 6743
3.504 1.893 1.707 1761
3.385 1.829 1.640 5222
3.508 1.895 1.695 2165
3.389 1.831 1.629 4682
3.583 1.936 1.716 3716
3.562 1.924 1.692 5269
3.393 1.833 1.618 3971
3.552 1.919 1.675 4769
3.403 1.838 1.609 2294
3.530 1.907 1.652 4380
3.674 1.984 1.714 2297
3.691 1.994 1.708 4212
3.541 1.913 1.643 3758
3.708 2.003 1.701 6972
3.564 1.925 1.640 2532
3.725 2.012 1.695 7414
3.594 1.941 1.639 2418
3.729 2.014 1.682 5079
3.585 1.936 1.622 1902
3.733 2.016 1.670 4491
3.589 1.939 1.610 1026
3.730 2.015 1.655 5839
3.854 2.082 1.707 1233
3.799 2.052 1.670 4868
3.675 1.985 1.619 1784
3.810 2.058 1.660 8145
3.935 2.125 1.710 1111
3.820 2.064 1.650 11824
3.945 2.131 1.700 1586
3.824 2.066 1.638 16843
3.949 2.133 1.687 2153
3.835 2.071 1.628 18572
3.960 2.139 1.677 1874
3.838 2.073 1.615 17270
3.964 2.141 1.664 2373
3.836 2.072 1.600 16416
3.994 2.157 1.661 4359
3.846 2.078 1.590 15337
4.018 2.170 1.656 6437
3.850 2.080 1.577 10809
4.028 2.176 1.645 6339
3.847 2.078 1.562 7200
4.052 2.189 1.639 6125
4.056 2.191 1.626 8705
3.850 2.080 1.550 5402
4.059 2.193 1.613 10294
3.854 2.082 1.537 3041
4.076 2.202 1.604 8430
4.203 2.270 1.650 2231
4.087 2.208 1.593 7736
4.213 2.276 1.638 1950
4.091 2.210 1.580 6657
4.217 2.278 1.625 1388
4.134 2.233 1.580 4323
4.294 2.319 1.637 2247
4.291 2.318 1.620 5344
4.145 2.239 1.569 4110
4.295 2.320 1.606 6280
4.148 2.241 1.555 3823
4.299 2.322 1.592 5501
4.465 2.412 1.649 2279
4.309 2.328 1.580 6409
4.469 2.414 1.634 4232
4.473 2.416 1.620 5709
4.313 2.330 1.566 4825
4.477 2.418 1.605 5049
4.303 2.324 1.547 3110
4.481 2.420 1.590 4963
4.286 2.315 1.527 2439
4.484 2.422 1.576 5318
4.679 2.527 1.639 1701
4.495 2.428 1.563 6059
4.702 2.540 1.630 2364
4.505 2.433 1.550 6544
4.787 2.586 1.640 3498
4.784 2.584 1.622 4912
4.509 2.435 1.536 4667
4.801 2.593 1.610 4919
4.512 2.437 1.521 2588
4.845 2.617 1.607 6090
4.691 2.534 1.559 2389
4.856 2.623 1.593 6280
4.984 2.692 1.632 2693
4.954 2.676 1.605 6584
4.826 2.607 1.567 3780
4.883 2.638 1.567 8629
5.011 2.707 1.605 3137
4.968 2.684 1.575 7199
4.840 2.614 1.537 3109
4.972 2.686 1.558 6350
4.843 2.616 1.521 1294
4.982 2.691 1.544 9029
5.313 2.870 1.638 1742
4.992 2.697 1.529 6968
5.290 2.857 1.613 2944
5.030 2.717 1.522 4632
5.300 2.863 1.598 3639
5.020 2.712 1.502 5546
5.318 2.872 1.584 2584
5.010 2.706 1.482 3950
5.484 2.962 1.610 2070
5.535 2.990 1.605 2632
5.325 2.876 1.549 1671
5.546 2.996 1.589 2626
5.329 2.878 1.531 1263
5.794 3.130 1.634 1888
5.556 3.001 1.572 1674
5.757 3.110 1.604 2104
5.628 3.040 1.571 1319
5.978 3.229 1.640 2055
5.801 3.134 1.596 1255
5.975 3.228 1.619 3528
5.846 3.158 1.587 1234
5.965 3.222 1.596 4680
6.095 3.292 1.628 1360
5.976 3.228 1.578 3860
6.105 3.298 1.610 1903
5.980 3.230 1.558 3169
6.109 3.300 1.589 2625
6.113 3.302 1.569 3504
5.976 3.228 1.537 2720
6.116 3.304 1.549 3337
6.362 3.437 1.606 1734
6.496 3.509 1.615 1937
6.291 3.398 1.568 1916
6.499 3.511 1.594 2244
6.294 3.400 1.547 1946
6.202 3.350 1.505 2097
6.496 3.509 1.571 1845
6.199 3.348 1.483 1747
6.986 3.773 1.655 1611
6.983 3.772 1.631 2153
6.757 3.650 1.582 1507
7.000 3.781 1.611 1551
6.767 3.655 1.562 1125
7.065 3.817 1.601 2023
6.915 3.735 1.569 1425
7.055 3.811 1.574 1987
7.302 3.944 1.625 1239
7.052 3.809 1.550 1430
7.224 3.902 1.584 1357
7.543 4.075 1.623 1574
7.234 3.908 1.562 1430
7.554 4.080 1.600 1775
7.341 3.965 1.558 1593
7.338 3.964 1.533 2553
7.468 4.034 1.558 1690
7.341 3.966 1.508 2242
8.241 4.452 1.677 1890
8.245 4.454 1.650 2783
7.881 4.257 1.583 1743
8.256 4.460 1.624 4929
7.596 4.103 1.505 1773
8.260 4.462 1.597 6757
7.613 4.112 1.482 1503
8.270 4.467 1.571 5986
8.281 4.473 1.545 4492
8.285 4.475 1.518 2821
8.288 4.477 1.490 1898
8.285 4.475 1.462 1485
8.281 4.473 1.433 1473
8.284 4.475 1.406 1588
8.294 4.480 1.380 1190
2.047 1.094 1.763 2868
2.051 1.096 1.757 5736
2.055 1.098 1.750 5736
2.164 1.156 1.837 1214
2.065 1.103 1.748 6885
2.174 1.161 1.835 1391
2.075 1.109 1.746 8230
2.184 1.167 1.832 1430
2.096 1.120 1.753 7605
2.118 1.132 1.760 9098
2.009 1.073 1.674 1223
2.122 1.134 1.753 9098
2.013 1.075 1.667 1236
2.126 1.136 1.746 8878
2.016 1.077 1.661 1044
2.130 1.138 1.739 8659
2.140 1.143 1.736 6942
2.250 1.202 1.820 1649
2.156 1.152 1.738 6135
2.266 1.211 1.822 1774
2.160 1.154 1.731 4795
2.270 1.213 1.815 3028
2.257 1.206 1.794 6135
2.147 1.147 1.711 2481
2.261 1.208 1.787 6135
2.151 1.149 1.704 1793
2.260 1.207 1.775 6893
2.137 1.142 1.684 1002
2.258 1.207 1.764 7678
2.245 1.199 1.743 6072
2.219 1.186 1.715 5865
2.331 1.246 1.796 2081
2.247 1.201 1.725 7010
2.257 1.206 1.722 8901
2.285 1.221 1.731 10473
2.295 1.226 1.728 13748
2.305 1.231 1.725 14369
2.315 1.237 1.721 15813
2.325 1.242 1.718 12077
2.335 1.248 1.714 8508
2.369 1.266 1.727 6612
2.385 1.274 1.728 7924
2.389 1.276 1.720 8090
2.509 1.341 1.801 1088
2.393 1.279 1.712 8255
2.519 1.346 1.797 1416
2.391 1.278 1.701 6389
2.529 1.352 1.793 1720
2.389 1.276 1.689 4830
2.540 1.357 1.789 2063
2.405 1.285 1.689 4095
2.544 1.359 1.780 1820
2.421 1.294 1.689 3887
2.566 1.371 1.784 1739
2.486 1.328 1.721 4891
2.601 1.390 1.795 2529
2.502 1.337 1.720 8047
2.617 1.398 1.795 3168
2.506 1.339 1.712 9081
2.621 1.401 1.786 3196
2.510 1.341 1.704 7241
2.626 1.403 1.778 2778
2.520 1.347 1.700 5414
2.654 1.418 1.785 2103
2.628 1.404 1.757 4801
2.512 1.342 1.684 4470
2.638 1.410 1.752 7128
2.516 1.344 1.676 3708
2.649 1.415 1.747 8806
2.526 1.350 1.671 3166
2.677 1.430 1.754 9829
2.561 1.368 1.682 2055
2.688 1.436 1.749 10022
2.571 1.374 1.677 2041
2.686 1.435 1.736 8818
2.569 1.372 1.665 1230
2.677 1.430 1.720 8675
2.801 1.496 1.794 1531
2.712 1.449 1.730 8181
2.830 1.512 1.800 1747
2.723 1.455 1.725 8433
2.840 1.517 1.794 2501
2.727 1.457 1.716 7126
2.844 1.520 1.785 3052
2.737 1.462 1.711 5507
2.855 1.525 1.780 4374
2.859 1.528 1.770 5985
2.741 1.464 1.702 3416
2.863 1.530 1.761 5899
2.745 1.467 1.693 2676
2.867 1.532 1.752 4495
2.749 1.469 1.684 1992
2.828 1.511 1.718 3399
2.946 1.574 1.785 2011
2.838 1.516 1.712 5275
2.957 1.580 1.779 2148
2.867 1.532 1.717 8197
2.986 1.595 1.783 1580
2.884 1.541 1.714 9742
3.003 1.604 1.780 1845
2.894 1.546 1.708 10263
3.013 1.610 1.774 2023
2.898 1.548 1.699 8141
3.018 1.612 1.764 3617
2.902 1.551 1.689 5710
3.022 1.615 1.754 5573
3.026 1.617 1.745 6246
2.900 1.549 1.677 5521
3.030 1.619 1.735 5350
2.904 1.551 1.667 5265
3.040 1.625 1.728 5904
2.908 1.554 1.658 4472
3.044 1.627 1.718 6839
2.924 1.562 1.655 3012
3.055 1.632 1.712 6733
3.194 1.707 1.785 3613
3.059 1.634 1.702 7973
3.205 1.712 1.778 5493
3.069 1.640 1.695 10081
3.216 1.718 1.770 5955
3.073 1.642 1.685 8094
3.226 1.724 1.763 6019
3.096 1.654 1.685 5757
3.237 1.729 1.756 5160
3.234 1.728 1.742 4950
3.100 1.657 1.675 4515
3.219 1.720 1.722 8201
3.092 1.652 1.658 3294
3.223 1.722 1.712 9298
3.095 1.654 1.648 2602
3.227 1.724 1.701 7007
3.106 1.659 1.641 1459
3.257 1.740 1.703 4991
3.129 1.672 1.640 1321
3.268 1.746 1.695 4596
3.139 1.677 1.633 1097
3.278 1.751 1.688 6186
3.400 1.817 1.746 1574
3.295 1.760 1.683 6675
3.417 1.826 1.742 2300
3.337 1.783 1.691 8504
3.329 1.778 1.674 5671
3.320 1.774 1.657 3320
3.442 1.839 1.714 1501
3.401 1.817 1.682 3736
3.386 1.809 1.662 5163
3.509 1.875 1.718 1048
3.389 1.811 1.651 5017
3.513 1.877 1.707 1917
3.400 1.817 1.643 4046
3.523 1.882 1.698 2357
3.404 1.819 1.632 3651
3.527 1.885 1.687 3496
3.544 1.894 1.681 4909
3.408 1.821 1.621 2666
3.529 1.885 1.661 4545
3.678 1.965 1.726 1751
3.533 1.887 1.649 4175
3.683 1.968 1.714 2675
3.687 1.970 1.702 4292
3.543 1.893 1.640 3654
3.717 1.986 1.701 6378
3.566 1.906 1.637 2646
3.734 1.995 1.695 6842
3.609 1.929 1.642 2412
3.738 1.997 1.682 4617
3.613 1.931 1.630 1448
3.742 1.999 1.670 4133
3.739 1.998 1.655 5749
3.864 2.064 1.707 1504
3.815 2.039 1.672 5295
3.690 1.972 1.622 1967
3.819 2.041 1.660 8809
3.694 1.974 1.610 1124
3.830 2.046 1.650 11498
3.955 2.113 1.700 1136
3.834 2.048 1.638 15651
3.959 2.115 1.687 1473
3.844 2.054 1.628 18440
3.969 2.121 1.677 1700
3.848 2.056 1.615 19104
3.993 2.134 1.672 2662
3.852 2.058 1.603 18523
4.004 2.139 1.661 4301
3.855 2.060 1.590 16818
4.027 2.152 1.656 5895
3.852 2.058 1.575 12391
4.038 2.158 1.645 6513
3.856 2.060 1.562 8604
4.062 2.170 1.639 6768
4.066 2.172 1.626 7802
3.866 2.066 1.552 6208
4.069 2.174 1.613 8266
3.870 2.068 1.539 3538
4.093 2.187 1.606 9919
4.219 2.255 1.652 2086
4.097 2.189 1.593 11811
4.223 2.257 1.638 2739
4.094 2.187 1.577 9526
4.221 2.255 1.622 2488
4.098 2.189 1.564 4618
4.304 2.300 1.637 2386
4.302 2.298 1.620 5202
4.095 2.188 1.548 2221
4.305 2.300 1.606 6254
4.092 2.186 1.532 1833
4.309 2.302 1.592 6025
4.476 2.392 1.649 2094
4.313 2.304 1.578 6347
4.480 2.394 1.634 4386
4.491 2.399 1.622 5674
4.317 2.306 1.564 4722
4.494 2.401 1.607 4381
4.320 2.308 1.550 2936
4.492 2.400 1.590 4789
4.330 2.314 1.538 1879
4.489 2.398 1.573 6028
4.771 2.549 1.665 1383
4.506 2.407 1.563 6723
4.727 2.526 1.634 2208
4.516 2.413 1.550 6854
4.799 2.564 1.640 3638
4.520 2.415 1.536 4806
4.802 2.566 1.624 4441
4.840 2.586 1.619 4766
4.712 2.518 1.579 3476
4.857 2.595 1.607 7456
4.695 2.509 1.557 2619
4.874 2.604 1.595 8323
5.003 2.673 1.634 2295
4.892 2.614 1.583 9115
5.020 2.682 1.621 2467
4.895 2.616 1.567 12159
5.024 2.684 1.605 2428
4.899 2.618 1.551 10558
5.027 2.686 1.588 4397
4.977 2.659 1.556 8736
4.848 2.591 1.519 1469
4.987 2.665 1.542 11284
5.326 2.846 1.638 1744
5.005 2.674 1.529 7892
5.303 2.833 1.613 3718
5.056 2.701 1.526 4791
5.320 2.843 1.599 4327
5.025 2.685 1.500 5031
5.344 2.855 1.587 3101
5.022 2.683 1.482 3649
5.457 2.916 1.599 2785
5.583 2.983 1.614 2877
5.454 2.914 1.580 1699
5.614 2.999 1.603 2428
5.464 2.919 1.563 1441
5.801 3.100 1.632 2228
5.651 3.020 1.593 1916
5.778 3.087 1.606 1970
5.648 3.018 1.573 1602
6.006 3.209 1.644 2017
5.761 3.078 1.582 1561
5.997 3.204 1.621 3514
5.799 3.098 1.572 1268
5.980 3.195 1.596 4725
5.809 3.104 1.554 1474
6.059 3.237 1.595 3813
5.929 3.168 1.563 1571
5.994 3.203 1.558 3219
6.124 3.272 1.589 2352
5.991 3.201 1.537 3157
6.121 3.270 1.568 2923
6.111 3.265 1.544 2619
6.316 3.375 1.592 1950
6.299 3.366 1.567 2655
6.101 3.260 1.521 1860
6.310 3.371 1.547 2361
6.515 3.481 1.594 2137
6.320 3.377 1.528 1848
6.512 3.479 1.571 1744
6.749 3.606 1.600 1600
7.009 3.745 1.657 1586
6.766 3.615 1.581 2482
7.000 3.740 1.631 2092
6.777 3.621 1.560 1902
7.010 3.746 1.609 1435
7.090 3.788 1.602 1780
6.781 3.623 1.538 1463
6.770 3.617 1.513 1790
7.066 3.775 1.573 1658
7.207 3.851 1.577 1886
7.063 3.774 1.548 1354
7.555 4.037 1.622 1752
7.238 3.867 1.559 1421
7.366 3.936 1.559 2085
7.572 4.046 1.600 1918
7.356 3.930 1.533 2948
7.590 4.055 1.577 1767
7.366 3.936 1.510 2590
7.593 4.057 1.552 1931
7.597 4.059 1.527 2636
8.272 4.420 1.652 1747
8.276 4.422 1.624 3750
7.614 4.068 1.505 2497
8.280 4.424 1.597 5260
7.625 4.074 1.481 1829
8.291 4.430 1.571 4807
7.621 4.072 1.455 1184
8.301 4.435 1.545 3637
7.618 4.070 1.428 1028
8.305 4.437 1.518 2034
8.308 4.439 1.490 1127
8.315 4.443 1.435 1112
8.318 4.445 1.408 1189
2.049 1.091 1.763 2482
2.053 1.093 1.757 4964
2.057 1.095 1.750 4964
2.165 1.153 1.837 1119
2.073 1.103 1.753 6037
2.181 1.161 1.839 1067
2.077 1.105 1.746 7286
2.186 1.163 1.832 1586
2.098 1.117 1.753 7335
2.119 1.128 1.760 9375
2.010 1.070 1.674 1267
2.124 1.130 1.753 9375
2.014 1.072 1.667 1275
2.128 1.133 1.746 9229
2.018 1.074 1.661 1094
2.132 1.135 1.739 9082
2.142 1.140 1.736 7024
2.252 1.199 1.820 1793
2.163 1.152 1.743 6090
2.274 1.210 1.826 1541
2.249 1.197 1.797 4904
2.138 1.138 1.714 2938
2.259 1.203 1.794 6377
2.148 1.144 1.711 2310
2.263 1.205 1.787 6377
2.152 1.146 1.704 1712
2.262 1.204 1.775 6917
2.260 1.203 1.764 7489
2.247 1.196 1.743 5852
2.221 1.182 1.715 5396
2.333 1.242 1.796 2009
2.255 1.200 1.729 6610
2.265 1.206 1.726 8398
2.287 1.217 1.731 10490
2.297 1.223 1.728 14055
2.307 1.228 1.725 14651
2.323 1.236 1.725 16126
2.327 1.239 1.718 12395
2.337 1.244 1.714 8884
2.377 1.265 1.731 6513
2.387 1.271 1.728 7533
2.391 1.273 1.720 7554
2.505 1.333 1.797 1204
2.395 1.275 1.712 7575
2.515 1.339 1.793 1534
2.393 1.274 1.701 5992
2.526 1.344 1.789 1862
2.391 1.273 1.689 4668
2.536 1.350 1.785 2230
2.407 1.281 1.689 4001
2.546 1.355 1.780 1904
2.423 1.290 1.689 3956
2.568 1.367 1.784 1793
2.482 1.321 1.717 5302
2.597 1.382 1.791 2747
2.498 1.330 1.716 8333
2.613 1.391 1.791 3414
2.508 1.335 1.712 9316
2.624 1.397 1.786 2855
2.512 1.337 1.704 7652
2.628 1.399 1.778 2523
2.516 1.339 1.696 5989
2.632 1.401 1.769 2253
2.520 1.342 1.688 5287
2.636 1.403 1.761 4750
2.640 1.406 1.752 7248
2.518 1.340 1.676 4701
2.651 1.411 1.747 8643
2.528 1.346 1.671 4055
2.673 1.423 1.750 9713
2.538 1.351 1.667 2621
2.690 1.432 1.749 10071
2.573 1.370 1.677 2283
2.682 1.427 1.733 9250
2.564 1.365 1.662 1314
2.680 1.426 1.720 9488
2.797 1.489 1.791 1531
2.690 1.432 1.715 7978
2.807 1.494 1.785 2090
2.731 1.454 1.728 6767
2.849 1.516 1.798 2231
2.741 1.459 1.723 4897
2.859 1.522 1.793 2497
2.851 1.518 1.776 4680
2.733 1.455 1.707 4135
2.861 1.523 1.770 6326
2.743 1.460 1.702 3452
2.866 1.525 1.761 6223
2.747 1.462 1.693 3048
2.870 1.528 1.752 4761
2.751 1.464 1.684 2413
2.874 1.530 1.742 3402
2.755 1.467 1.675 1232
2.840 1.512 1.712 4515
2.959 1.575 1.779 1821
2.870 1.527 1.717 7395
2.989 1.591 1.783 1213
2.892 1.540 1.718 9429
3.012 1.603 1.784 1342
2.896 1.542 1.708 10382
3.016 1.605 1.774 1670
2.900 1.544 1.699 8715
3.020 1.608 1.764 3885
3.024 1.610 1.754 6398
2.898 1.543 1.686 5951
3.035 1.615 1.748 7113
2.902 1.545 1.677 4980
3.039 1.618 1.738 5733
2.906 1.547 1.667 4507
3.049 1.623 1.732 6299
2.910 1.549 1.658 3911
3.053 1.625 1.722 7821
2.933 1.561 1.658 3177
3.057 1.628 1.712 8068
3.197 1.702 1.785 3310
3.068 1.633 1.705 10169
3.208 1.707 1.778 5095
3.072 1.635 1.695 12369
3.225 1.716 1.774 6200
3.082 1.641 1.688 9195
3.229 1.719 1.763 6760
3.233 1.721 1.753 6435
3.099 1.650 1.685 6187
3.231 1.720 1.739 6370
3.097 1.648 1.671 5307
3.222 1.715 1.722 9170
3.094 1.647 1.658 4739
3.226 1.717 1.712 9418
3.098 1.649 1.648 3726
3.230 1.719 1.701 6491
3.108 1.655 1.641 1986
3.260 1.735 1.703 4450
3.131 1.667 1.640 1654
3.277 1.744 1.699 4549
3.135 1.669 1.630 1342
3.281 1.746 1.688 6035
3.416 1.818 1.753 1470
3.298 1.755 1.683 6136
3.420 1.820 1.742 2377
3.340 1.778 1.691 7993
3.463 1.843 1.749 1009
3.331 1.773 1.674 5389
3.454 1.839 1.731 1437
3.329 1.772 1.660 3121
3.452 1.837 1.717 1613
3.404 1.812 1.682 3402
3.388 1.804 1.662 4289
3.512 1.869 1.718 1003
3.392 1.806 1.651 3963
3.516 1.871 1.707 1994
3.429 1.825 1.654 3237
3.598 1.915 1.730 1776
3.524 1.876 1.684 3728
3.400 1.810 1.629 2467
3.534 1.881 1.675 5070
3.410 1.815 1.621 1574
3.525 1.876 1.658 4845
3.681 1.960 1.726 1656
3.529 1.878 1.646 4180
3.653 1.945 1.700 2799
3.650 1.943 1.685 4466
3.526 1.877 1.632 2903
3.713 1.977 1.698 5964
3.589 1.910 1.646 2696
3.737 1.989 1.695 6191
3.612 1.923 1.642 2720
3.741 1.991 1.682 3890
3.616 1.925 1.630 1335
3.745 1.993 1.670 3416
3.742 1.992 1.655 5281
3.867 2.058 1.707 1670
3.805 2.026 1.667 5254
3.680 1.959 1.616 1569
3.822 2.035 1.660 8603
3.697 1.968 1.610 1112
3.833 2.040 1.650 10266
3.837 2.042 1.638 13231
3.975 2.116 1.692 1067
3.847 2.048 1.628 16500
3.999 2.129 1.687 1980
3.851 2.050 1.615 18511
4.003 2.131 1.674 3153
3.855 2.052 1.603 18042
4.007 2.133 1.661 4087
3.859 2.054 1.590 15847
4.031 2.146 1.656 4759
3.856 2.052 1.575 11970
4.055 2.158 1.650 5655
3.859 2.054 1.562 8418
4.072 2.167 1.642 6745
4.082 2.173 1.631 7126
3.870 2.060 1.552 5802
4.086 2.175 1.617 7505
3.873 2.062 1.539 3285
4.097 2.181 1.606 11946
4.223 2.248 1.652 2297
4.100 2.183 1.593 15069
4.227 2.250 1.638 3571
4.097 2.181 1.577 11666
4.224 2.249 1.622 3383
4.094 2.179 1.562 5820
4.221 2.247 1.606 3011
4.305 2.292 1.620 4549
