0.685 6.828 1.387 2983
0.723 7.208 1.456 1963
0.686 6.839 1.368 1966
0.744 7.413 1.472 1681
0.743 7.409 1.449 2320
0.713 7.107 1.395 2211
0.742 7.397 1.425 2321
0.713 7.110 1.374 2200
0.761 7.587 1.435 1983
0.743 7.409 1.404 1681
0.761 7.583 1.412 1815
0.744 7.412 1.383 1603
0.761 7.579 1.388 1766
0.744 7.416 1.361 1491
0.772 7.692 1.384 1591
0.855 8.524 1.520 1383
0.777 7.742 1.369 1884
0.856 8.528 1.495 1599
0.854 8.508 1.466 1543
0.776 7.738 1.345 1380
0.886 8.831 1.491 1836
0.846 8.426 1.428 1481
0.884 8.812 1.461 3470
0.907 9.038 1.495 1256
0.885 8.816 1.436 3797
0.924 9.213 1.494 1979
0.886 8.827 1.411 3595
0.925 9.217 1.468 1847
0.936 9.330 1.456 2988
0.886 8.831 1.385 2881
0.936 9.326 1.428 3167
0.887 8.842 1.361 2828
0.946 9.431 1.414 2764
0.888 8.846 1.335 2708
0.946 9.427 1.386 2595
0.889 8.857 1.310 1569
0.939 9.360 1.349 2512
0.924 9.212 1.330 1149
0.942 9.387 1.325 1775
0.228 2.206 1.690 2558
0.228 2.211 1.683 5117
0.241 2.333 1.771 1945
0.229 2.215 1.677 5117
0.241 2.337 1.764 1945
0.229 2.220 1.671 4223
0.242 2.342 1.757 2232
0.239 2.314 1.728 4186
0.226 2.192 1.642 1650
0.240 2.325 1.726 4970
0.228 2.203 1.640 1343
0.241 2.337 1.724 5986
0.242 2.341 1.717 5986
0.242 2.346 1.710 5981
0.242 2.344 1.699 6014
0.243 2.355 1.697 7366
0.244 2.366 1.694 8817
0.245 2.370 1.687 9735
0.258 2.495 1.771 1075
0.245 2.375 1.681 10653
0.258 2.500 1.764 1153
0.245 2.373 1.670 8592
0.258 2.498 1.752 1601
0.253 2.450 1.710 6999
0.253 2.448 1.699 6944
0.253 2.452 1.692 5793
0.248 2.404 1.651 5225
0.261 2.530 1.732 3148
0.258 2.501 1.703 5897
0.245 2.375 1.623 2060
0.260 2.512 1.700 7231
0.246 2.386 1.620 1557
0.260 2.517 1.693 9193
0.247 2.390 1.613 1066
0.260 2.521 1.686 11156
0.262 2.539 1.687 8314
0.265 2.564 1.692 7062
0.265 2.568 1.685 4972
0.269 2.600 1.694 3040
0.266 2.570 1.666 3492
0.266 2.575 1.659 4174
0.267 2.586 1.655 4355
0.269 2.604 1.656 4970
0.288 2.787 1.765 1145
0.271 2.622 1.656 3799
0.288 2.792 1.757 1165
0.273 2.647 1.661 3082
0.292 2.823 1.765 1289
0.282 2.726 1.697 3952
0.295 2.855 1.772 1054
0.282 2.731 1.689 5989
0.295 2.860 1.764 1250
0.283 2.735 1.681 6717
0.296 2.865 1.756 3022
0.296 2.863 1.744 5778
0.282 2.733 1.669 5288
0.296 2.867 1.736 6601
0.283 2.737 1.662 3354
0.297 2.879 1.731 5378
0.282 2.735 1.650 3122
0.296 2.863 1.711 4575
0.282 2.732 1.638 3031
0.299 2.895 1.718 6471
0.282 2.730 1.626 2523
0.300 2.900 1.710 8691
0.282 2.727 1.615 2184
0.299 2.890 1.694 10263
0.282 2.731 1.607 2193
0.300 2.902 1.690 12068
0.284 2.749 1.607 1987
0.302 2.927 1.692 13889
0.287 2.774 1.610 2018
0.304 2.938 1.688 12974
0.288 2.786 1.606 1380
0.305 2.950 1.683 12777
0.318 3.082 1.754 1327
0.307 2.968 1.682 11045
0.320 3.101 1.752 1253
0.311 3.008 1.692 12304
0.297 2.875 1.622 1160
0.310 3.005 1.679 10523
0.310 3.003 1.667 9956
0.324 3.136 1.736 1305
0.314 3.035 1.673 7583
0.316 3.061 1.675 7453
0.317 3.072 1.670 6440
0.319 3.091 1.668 4775
0.326 3.158 1.691 4529
0.312 3.024 1.624 3369
0.328 3.177 1.689 4987
0.314 3.043 1.622 2958
0.329 3.189 1.683 5277
0.316 3.054 1.617 2672
0.331 3.200 1.677 4933
0.317 3.066 1.611 2353
0.333 3.219 1.675 5821
0.319 3.084 1.609 3758
0.334 3.237 1.672 6574
0.320 3.103 1.607 5880
0.323 3.128 1.609 6656
0.337 3.263 1.673 6523
0.337 3.261 1.660 8031
0.323 3.125 1.596 5197
0.335 3.244 1.641 8663
0.321 3.108 1.577 2042
0.333 3.219 1.618 8136
0.347 3.355 1.682 2649
0.333 3.224 1.609 8484
0.347 3.359 1.672 3654
0.341 3.299 1.633 8960
0.327 3.163 1.570 1765
0.341 3.297 1.620 13622
0.355 3.433 1.682 1294
0.342 3.308 1.613 10473
0.356 3.444 1.675 1851
0.345 3.341 1.617 7223
0.359 3.478 1.678 1227
0.351 3.396 1.630 5727
0.337 3.259 1.569 1375
0.352 3.407 1.623 6069
0.338 3.270 1.562 1154
0.352 3.404 1.610 6149
0.367 3.549 1.673 1458
0.353 3.416 1.603 4305
0.367 3.553 1.663 1980
0.358 3.464 1.612 5369
0.372 3.601 1.672 1532
0.358 3.468 1.602 5041
0.372 3.605 1.661 2226
0.359 3.479 1.595 5849
0.374 3.617 1.654 2927
0.361 3.491 1.588 7377
0.376 3.643 1.653 3982
0.362 3.502 1.581 5956
0.378 3.655 1.645 5530
0.381 3.688 1.647 8051
0.362 3.506 1.571 3132
0.381 3.693 1.636 9542
0.367 3.554 1.579 1564
0.382 3.697 1.625 8793
0.368 3.558 1.569 1480
0.383 3.709 1.618 8441
0.369 3.570 1.561 1740
0.384 3.713 1.607 7189
0.398 3.852 1.663 2221
0.392 3.798 1.628 8788
0.378 3.659 1.573 3455
0.393 3.802 1.617 9272
0.378 3.663 1.562 2457
0.393 3.806 1.606 6095
0.408 3.946 1.661 2879
0.394 3.811 1.595 3256
0.408 3.950 1.649 2925
0.403 3.903 1.618 3293
0.421 4.072 1.683 2336
0.402 3.893 1.601 4740
0.420 4.069 1.668 3742
0.421 4.074 1.657 5748
0.399 3.860 1.576 5179
0.409 3.960 1.601 6028
0.424 4.100 1.653 4367
0.410 3.972 1.592 6722
0.425 4.112 1.644 2755
0.409 3.961 1.575 4590
0.434 4.198 1.662 3867
0.434 4.202 1.650 5096
0.410 3.965 1.564 3344
0.434 4.199 1.635 5393
0.419 4.058 1.584 2315
0.436 4.218 1.628 6300
0.421 4.077 1.578 3667
0.437 4.230 1.619 5981
0.422 4.089 1.569 3592
0.426 4.123 1.567 4378
0.440 4.264 1.617 3982
0.443 4.291 1.612 5227
0.427 4.134 1.558 3579
0.445 4.310 1.605 5819
0.428 4.146 1.548 2096
0.446 4.321 1.595 4175
0.461 4.463 1.643 1867
0.451 4.370 1.598 3845
0.466 4.512 1.645 2182
0.455 4.405 1.595 3841
0.440 4.263 1.547 1457
0.465 4.499 1.612 4192
0.448 4.341 1.560 2693
0.465 4.503 1.599 7141
0.448 4.338 1.545 1606
0.465 4.500 1.583 7179
0.450 4.357 1.537 1037
0.464 4.489 1.565 4266
0.478 4.631 1.611 1556
0.471 4.560 1.574 2494
0.491 4.756 1.636 1805
0.472 4.565 1.561 2630
0.491 4.752 1.620 2207
0.473 4.576 1.550 2972
0.491 4.757 1.606 2155
0.494 4.783 1.599 3060
0.475 4.603 1.543 2639
0.495 4.795 1.588 3807
0.477 4.614 1.532 2449
0.496 4.799 1.574 3556
0.476 4.603 1.514 1602
0.499 4.826 1.567 4312
0.502 4.861 1.562 4407
0.487 4.717 1.519 1157
0.502 4.857 1.545 4152
0.517 5.001 1.587 1314
0.501 4.846 1.527 3687
0.515 4.990 1.568 2381
0.516 4.994 1.554 2811
0.501 4.850 1.513 2574
0.526 5.089 1.565 3833
0.507 4.907 1.514 3348
0.525 5.078 1.546 5070
0.509 4.926 1.504 3956
0.523 5.059 1.525 3982
0.508 4.915 1.485 2787
0.536 5.185 1.544 4221
0.521 5.040 1.504 3331
0.534 5.166 1.522 4605
0.519 5.022 1.483 1896
0.533 5.162 1.505 4482
0.548 5.307 1.544 3324
0.538 5.204 1.500 3601
0.553 5.349 1.539 3320
0.538 5.208 1.485 3897
0.555 5.368 1.527 3384
0.558 5.403 1.519 4784
0.538 5.212 1.470 2410
0.557 5.392 1.500 5714
0.572 5.537 1.537 1919
0.567 5.487 1.507 6656
0.552 5.342 1.471 2193
0.567 5.491 1.491 4851
0.552 5.346 1.455 2175
0.574 5.556 1.490 2930
0.556 5.380 1.447 2702
0.578 5.591 1.482 3997
0.563 5.445 1.446 1648
0.580 5.618 1.471 4155
0.601 5.817 1.519 2004
0.601 5.813 1.500 3557
0.585 5.660 1.464 2685
0.602 5.825 1.485 4560
0.587 5.679 1.451 1621
0.604 5.844 1.471 5341
0.589 5.698 1.438 2001
0.605 5.856 1.456 3529
0.623 6.032 1.496 1566
0.607 5.875 1.442 2086
0.630 6.098 1.492 1709
0.622 6.017 1.456 2503
0.644 6.232 1.504 1527
0.657 6.359 1.512 2070
0.621 6.013 1.437 1579
0.658 6.371 1.495 2170
0.641 6.209 1.461 1454
0.659 6.383 1.478 2656
0.642 6.213 1.443 1468
0.662 6.410 1.465 2830
0.647 6.263 1.434 1693
0.665 6.437 1.451 3219
0.649 6.282 1.419 1768
0.665 6.440 1.432 2661
0.680 6.587 1.462 1875
0.700 6.776 1.480 2782
0.677 6.552 1.435 2726
0.704 6.811 1.466 3923
0.676 6.548 1.414 2559
0.704 6.815 1.446 3392
0.677 6.552 1.395 1910
0.713 6.904 1.442 2823
0.698 6.757 1.414 1602
0.718 6.946 1.430 2951
0.702 6.799 1.402 2639
0.707 6.841 1.389 2848
0.723 6.996 1.418 1844
0.709 6.861 1.372 2057
0.765 7.403 1.471 2005
0.764 7.399 1.448 2596
0.734 7.105 1.395 2144
0.764 7.395 1.425 2389
0.734 7.108 1.374 1982
0.784 7.585 1.435 1939
0.766 7.414 1.406 1679
0.783 7.581 1.412 1759
0.765 7.410 1.383 1592
0.783 7.577 1.388 1691
0.766 7.414 1.361 1587
0.798 7.721 1.389 2103
0.880 8.521 1.520 1445
0.799 7.732 1.368 2567
0.881 8.525 1.495 1729
0.799 7.735 1.345 1880
0.879 8.513 1.468 1555
0.907 8.782 1.483 1518
0.870 8.424 1.428 1460
0.909 8.801 1.460 2838
0.949 9.191 1.519 1522
0.910 8.805 1.434 3254
0.951 9.210 1.494 2579
0.911 8.817 1.410 3112
0.952 9.214 1.468 2297
0.968 9.366 1.462 2760
0.912 8.828 1.385 2348
0.971 9.401 1.439 3020
0.913 8.840 1.361 2214
0.973 9.421 1.413 2790
0.914 8.851 1.336 2170
0.974 9.424 1.386 2613
0.953 9.221 1.359 1701
0.967 9.365 1.350 2324
0.952 9.217 1.331 1323
0.969 9.377 1.324 1698
0.234 2.206 1.690 3236
0.247 2.327 1.777 1070
0.234 2.210 1.683 6473
0.247 2.332 1.771 2141
0.235 2.215 1.677 6473
0.248 2.337 1.764 2141
0.235 2.219 1.671 5216
0.248 2.341 1.757 2576
0.245 2.314 1.728 5326
0.232 2.191 1.642 1800
0.246 2.325 1.726 6058
0.233 2.202 1.640 1455
0.248 2.336 1.724 7287
0.248 2.340 1.717 7287
0.249 2.345 1.710 7108
0.248 2.343 1.699 6930
0.250 2.354 1.697 7484
0.251 2.372 1.699 8199
0.251 2.370 1.687 8963
0.264 2.494 1.771 1283
0.252 2.374 1.681 9765
0.265 2.499 1.764 1423
0.251 2.372 1.670 8348
0.265 2.497 1.752 1946
0.252 2.377 1.663 6984
0.265 2.502 1.745 2268
0.252 2.381 1.656 6646
0.266 2.506 1.738 2433
0.254 2.392 1.653 5871
0.267 2.518 1.735 3422
0.264 2.489 1.706 6510
0.250 2.363 1.625 2537
0.265 2.500 1.703 6646
0.252 2.374 1.623 2328
0.266 2.512 1.700 6947
0.253 2.385 1.620 1795
0.267 2.516 1.693 8956
0.253 2.389 1.613 1231
0.268 2.527 1.690 11064
0.270 2.545 1.691 8830
0.272 2.563 1.692 7821
0.272 2.567 1.685 5472
0.273 2.572 1.677 3123
0.273 2.576 1.670 3212
0.273 2.574 1.659 3334
0.274 2.585 1.655 3371
0.274 2.590 1.648 3441
0.288 2.718 1.724 1253
0.276 2.601 1.644 2518
0.289 2.730 1.721 1606
0.287 2.707 1.697 2600
0.273 2.578 1.621 1460
0.289 2.725 1.697 3986
0.275 2.596 1.621 1308
0.290 2.737 1.693 5658
0.304 2.866 1.768 1430
0.291 2.741 1.685 6503
0.304 2.871 1.760 3404
0.303 2.862 1.744 6910
0.290 2.732 1.669 5227
0.304 2.867 1.736 7868
0.290 2.736 1.662 3710
0.304 2.864 1.723 6463
0.290 2.734 1.650 3203
0.303 2.862 1.711 5614
0.289 2.731 1.638 2793
0.307 2.894 1.718 6968
0.290 2.736 1.630 2199
0.308 2.906 1.714 9107
0.290 2.733 1.619 1869
0.306 2.889 1.694 10726
0.290 2.737 1.611 2068
0.307 2.901 1.690 12856
0.294 2.769 1.618 2239
0.309 2.919 1.689 13709
0.295 2.781 1.614 2465
0.311 2.938 1.688 12242
0.296 2.792 1.609 1726
0.313 2.949 1.683 11738
0.327 3.081 1.754 1307
0.314 2.960 1.678 9778
0.328 3.093 1.748 1474
0.319 3.007 1.692 11226
0.305 2.874 1.622 1178
0.315 2.969 1.661 10182
0.329 3.102 1.730 2728
0.316 2.981 1.656 9534
0.330 3.114 1.725 2443
0.316 2.985 1.648 6341
0.330 3.118 1.716 2652
0.325 3.067 1.678 6120
0.311 2.933 1.610 1329
0.326 3.078 1.673 5364
0.312 2.945 1.605 1317
0.333 3.146 1.696 4590
0.319 3.005 1.625 2498
0.335 3.158 1.691 5536
0.320 3.017 1.620 2456
0.337 3.176 1.689 6155
0.322 3.042 1.622 2464
0.338 3.188 1.683 6413
0.324 3.053 1.617 2569
0.340 3.206 1.681 6281
0.326 3.072 1.615 2905
0.341 3.218 1.675 7625
0.327 3.083 1.609 3935
0.343 3.237 1.672 8373
0.329 3.102 1.607 5923
0.343 3.241 1.663 7473
0.329 3.106 1.598 6132
0.344 3.245 1.654 8668
0.330 3.110 1.589 4603
0.344 3.243 1.641 9154
0.329 3.107 1.577 1830
0.341 3.218 1.618 7777
0.355 3.354 1.682 2482
0.341 3.216 1.606 7633
0.355 3.351 1.669 3821
0.349 3.291 1.629 9183
0.363 3.427 1.692 1384
0.349 3.296 1.620 13408
0.364 3.432 1.682 1500
0.351 3.307 1.613 10053
0.365 3.444 1.675 1836
0.358 3.376 1.633 7201
0.343 3.240 1.572 1308
0.360 3.395 1.630 6013
0.345 3.258 1.569 1432
0.361 3.406 1.623 6552
0.347 3.269 1.562 1171
0.361 3.403 1.610 6240
0.375 3.541 1.670 1742
0.370 3.487 1.635 5734
0.355 3.350 1.575 1501
0.370 3.491 1.625 6905
0.355 3.354 1.565 1137
0.369 3.481 1.608 5955
0.384 3.619 1.667 1827
0.369 3.478 1.595 6365
0.383 3.616 1.654 3133
0.370 3.490 1.588 7810
0.386 3.642 1.653 3927
0.371 3.501 1.581 6996
0.388 3.661 1.648 5462
0.391 3.687 1.647 7934
0.372 3.505 1.571 4204
0.391 3.692 1.636 8989
0.377 3.553 1.579 2152
0.392 3.696 1.625 8153
0.377 3.557 1.569 1715
0.393 3.708 1.618 7793
0.378 3.569 1.561 1957
0.400 3.770 1.630 7067
0.385 3.631 1.575 3817
0.403 3.804 1.631 9275
0.388 3.665 1.576 3356
0.404 3.808 1.620 9778
0.389 3.669 1.565 2553
0.403 3.805 1.606 6407
0.418 3.945 1.661 2532
0.403 3.802 1.592 3248
0.418 3.942 1.646 2818
0.414 3.902 1.618 3717
0.431 4.071 1.683 2695
0.413 3.899 1.604 5216
0.431 4.068 1.668 3992
0.432 4.073 1.657 5619
0.416 3.925 1.601 5105
0.420 3.959 1.601 5708
0.434 4.099 1.653 4203
0.422 3.978 1.595 5897
0.436 4.118 1.647 2937
0.444 4.189 1.659 4307
0.420 3.960 1.575 3893
0.444 4.194 1.647 5655
0.421 3.972 1.566 3039
0.445 4.198 1.635 5408
0.423 3.990 1.560 2309
0.448 4.225 1.631 5891
0.433 4.084 1.580 4124
0.449 4.236 1.621 5844
0.434 4.095 1.571 3849
0.449 4.241 1.609 4460
0.434 4.099 1.559 3399
0.454 4.282 1.610 5634
0.438 4.133 1.558 3241
0.456 4.301 1.602 6311
0.439 4.145 1.548 1894
0.458 4.320 1.595 4407
0.475 4.484 1.651 1811
0.458 4.324 1.582 3438
0.476 4.489 1.638 2418
0.459 4.329 1.570 3518
0.477 4.500 1.627 2257
0.478 4.512 1.617 3625
0.460 4.340 1.560 2906
0.477 4.502 1.599 6233
0.460 4.337 1.545 1492
0.477 4.498 1.583 6606
0.478 4.510 1.573 4180
0.493 4.652 1.619 1455
0.483 4.559 1.574 3229
0.504 4.754 1.636 1655
0.484 4.571 1.563 3461
0.504 4.759 1.622 2002
0.485 4.575 1.550 2733
0.504 4.755 1.606 1917
0.507 4.782 1.599 2667
0.491 4.632 1.553 2219
0.506 4.779 1.583 3465
0.489 4.613 1.532 1935
0.509 4.798 1.574 3195
0.488 4.602 1.514 1233
0.512 4.832 1.569 4310
0.515 4.859 1.562 5284
0.500 4.716 1.519 1190
0.515 4.863 1.547 4601
0.514 4.852 1.529 3218
0.529 4.996 1.571 2390
0.529 4.993 1.554 2860
0.514 4.849 1.513 2239
0.539 5.088 1.565 3768
0.520 4.906 1.514 2806
0.539 5.084 1.548 4578
0.524 4.940 1.508 2744
0.537 5.065 1.527 4186
0.522 4.921 1.487 2307
0.538 5.077 1.515 4366
0.553 5.221 1.554 2818
0.548 5.172 1.525 3906
0.533 5.028 1.485 1982
0.547 5.161 1.505 3174
0.563 5.313 1.546 2877
0.563 5.310 1.529 3353
0.546 5.150 1.486 3125
0.551 5.199 1.483 3556
0.572 5.397 1.535 3204
0.572 5.401 1.519 4677
0.551 5.203 1.468 2421
0.572 5.398 1.502 5668
0.587 5.543 1.539 1827
0.581 5.478 1.505 6212
0.596 5.623 1.542 1849
0.575 5.429 1.476 4773
0.591 5.574 1.512 2874
0.588 5.547 1.489 3699
0.572 5.394 1.451 2580
0.592 5.582 1.480 4381
0.575 5.421 1.441 1648
0.596 5.624 1.473 4558
0.611 5.769 1.508 2361
0.611 5.766 1.489 3380
0.596 5.620 1.455 2766
0.617 5.823 1.485 4549
0.593 5.593 1.431 1589
0.619 5.842 1.471 5832
0.639 6.027 1.514 1625
0.620 5.854 1.456 3807
0.639 6.031 1.496 1382
0.623 5.881 1.444 2100
0.639 6.027 1.477 1656
0.638 6.023 1.458 2862
0.623 5.877 1.425 1536
0.639 6.027 1.440 2369
0.674 6.358 1.512 1763
0.675 6.369 1.495 2011
0.639 6.031 1.423 1428
0.676 6.381 1.478 2471
0.657 6.204 1.441 1329
0.682 6.431 1.470 2869
0.666 6.285 1.439 1529
0.683 6.443 1.452 3225
0.666 6.281 1.419 1388
0.682 6.439 1.432 2629
0.698 6.585 1.462 1801
0.694 6.550 1.435 2864
0.717 6.767 1.478 2494
0.722 6.817 1.467 3576
0.694 6.546 1.414 2630
0.722 6.813 1.446 3282
0.693 6.542 1.394 1962
0.731 6.902 1.442 3084
0.750 7.080 1.476 1702
0.735 6.937 1.428 3288
0.720 6.789 1.401 2321
0.727 6.863 1.394 2751
0.743 7.010 1.421 2024
0.785 7.409 1.472 2272
0.731 6.897 1.379 2200
0.784 7.397 1.448 2596
0.733 6.917 1.362 2079
0.784 7.393 1.425 2167
0.817 7.711 1.480 2028
0.803 7.575 1.434 1798
0.786 7.412 1.406 1520
0.803 7.579 1.412 1663
0.785 7.408 1.383 1518
0.818 7.715 1.412 1780
0.786 7.412 1.361 1631
0.818 7.718 1.389 2843
0.903 8.519 1.520 1433
0.819 7.730 1.368 3211
0.903 8.523 1.495 1809
0.820 7.733 1.345 2343
0.903 8.519 1.469 1600
0.956 9.021 1.521 1514
0.930 8.772 1.482 1419
0.932 8.791 1.459 2295
0.975 9.196 1.520 1760
0.976 9.208 1.494 2930
0.932 8.795 1.433 2651
0.976 9.212 1.468 2461
0.933 8.806 1.409 2399
0.992 9.364 1.462 2446
0.977 9.215 1.441 1808
0.996 9.399 1.439 2749
0.978 9.227 1.415 1908
0.998 9.418 1.413 2518
0.979 9.238 1.389 1951
0.999 9.422 1.386 2360
0.977 9.219 1.359 1768
0.989 9.331 1.346 1905
0.993 9.374 1.324 1392
0.240 2.205 1.690 3575
0.253 2.326 1.777 1194
0.240 2.209 1.683 7151
0.254 2.331 1.771 2389
0.241 2.214 1.677 7151
0.254 2.336 1.764 2389
0.242 2.225 1.675 5725
0.255 2.347 1.762 2398
0.252 2.313 1.728 6168
0.238 2.191 1.642 1870
0.253 2.324 1.726 6900
0.239 2.201 1.640 1510
0.254 2.335 1.724 8239
0.254 2.340 1.717 8239
0.255 2.344 1.710 7906
0.255 2.342 1.699 7578
0.256 2.353 1.697 7480
0.269 2.477 1.781 1142
0.259 2.378 1.703 7708
0.258 2.369 1.687 8274
0.271 2.493 1.771 1491
0.257 2.367 1.676 9060
0.271 2.492 1.759 2357
0.258 2.371 1.670 8159
0.272 2.496 1.752 2309
0.258 2.376 1.663 7258
0.272 2.501 1.745 2664
0.259 2.380 1.656 7013
0.273 2.506 1.738 2879
0.269 2.477 1.709 6514
0.256 2.352 1.628 2680
0.271 2.488 1.706 7870
0.257 2.362 1.625 2692
0.272 2.500 1.703 7466
0.258 2.373 1.623 2483
0.272 2.504 1.696 7111
0.259 2.378 1.616 1493
0.274 2.515 1.693 9065
0.260 2.389 1.613 1317
0.275 2.526 1.690 11160
0.277 2.544 1.691 9404
0.279 2.562 1.692 8808
0.279 2.567 1.685 6089
0.282 2.591 1.690 3487
0.280 2.576 1.670 3057
0.280 2.573 1.659 2788
0.281 2.585 1.655 2916
0.295 2.713 1.732 1097
0.282 2.589 1.648 3087
0.296 2.718 1.724 1458
0.293 2.695 1.701 2726
0.279 2.566 1.624 1729
0.293 2.693 1.689 3471
0.279 2.564 1.613 1037
0.296 2.724 1.697 3962
0.282 2.595 1.621 1500
0.298 2.736 1.693 5318
0.312 2.865 1.768 1806
0.298 2.740 1.685 6132
0.312 2.870 1.760 3881
0.311 2.861 1.744 7658
0.297 2.731 1.669 5075
0.312 2.866 1.736 8693
0.298 2.736 1.662 3960
0.311 2.863 1.723 7305
0.297 2.733 1.650 3273
0.311 2.861 1.711 6467
0.297 2.731 1.638 2619
0.315 2.893 1.718 7332
0.299 2.749 1.638 2029
0.316 2.905 1.714 9439
0.297 2.732 1.619 1614
0.315 2.896 1.698 11045
0.301 2.764 1.626 1956
0.315 2.900 1.690 13364
0.301 2.769 1.618 2488
0.317 2.911 1.685 13662
0.302 2.780 1.614 2704
0.319 2.930 1.684 11662
0.304 2.791 1.609 1915
0.320 2.941 1.679 10855
0.334 3.073 1.750 1482
0.321 2.953 1.675 8931
0.336 3.085 1.745 1625
0.327 3.006 1.692 10034
0.313 2.873 1.622 1224
0.323 2.968 1.661 10425
0.337 3.101 1.730 2734
0.323 2.973 1.653 9561
0.338 3.106 1.722 2761
0.325 2.984 1.648 5975
0.339 3.117 1.716 2530
0.334 3.073 1.682 5320
0.320 2.940 1.614 1859
0.335 3.077 1.673 4804
0.320 2.944 1.605 1341
0.342 3.145 1.696 4943
0.326 2.997 1.622 2122
0.343 3.157 1.691 6297
0.329 3.023 1.624 2135
0.345 3.168 1.685 7039
0.330 3.034 1.618 2043
0.347 3.187 1.683 7211
0.332 3.053 1.617 2510
0.349 3.205 1.681 7168
0.334 3.071 1.615 2882
0.350 3.217 1.675 8719
0.335 3.082 1.609 3901
0.351 3.228 1.669 9358
0.336 3.094 1.604 5423
0.352 3.240 1.663 8143
0.338 3.105 1.598 5899
0.353 3.244 1.654 9203
0.338 3.109 1.589 4426
0.353 3.242 1.641 9640
0.338 3.106 1.577 1695
0.353 3.246 1.632 7680
0.368 3.382 1.695 1700
0.358 3.293 1.642 6860
0.343 3.157 1.579 2345
0.358 3.290 1.629 9531
0.373 3.426 1.692 1591
0.358 3.295 1.620 12622
0.373 3.431 1.682 1711
0.360 3.306 1.613 9193
0.374 3.443 1.675 1796
0.367 3.375 1.633 6984
0.352 3.239 1.572 1230
0.369 3.394 1.630 6061
0.354 3.257 1.569 1428
0.370 3.398 1.620 6787
0.386 3.549 1.687 1074
0.370 3.402 1.610 6260
0.385 3.539 1.670 1914
0.379 3.486 1.635 7446
0.364 3.349 1.575 1554
0.380 3.490 1.625 8546
0.379 3.488 1.612 6999
0.394 3.625 1.671 1525
0.378 3.477 1.595 6674
0.393 3.615 1.654 3204
0.379 3.489 1.588 7921
0.396 3.641 1.653 3758
0.381 3.500 1.581 7805
0.399 3.667 1.651 5226
0.401 3.686 1.647 7410
0.381 3.504 1.571 5194
0.401 3.691 1.636 8112
0.384 3.530 1.570 2677
0.403 3.702 1.628 7340
0.388 3.564 1.572 2276
0.408 3.750 1.635 6983
0.393 3.612 1.579 4458
0.411 3.777 1.633 7315
0.395 3.630 1.575 3726
0.414 3.803 1.631 9459
0.398 3.664 1.576 3157
0.414 3.807 1.620 9965
0.399 3.668 1.565 2370
0.414 3.804 1.606 6729
0.429 3.943 1.661 2210
0.413 3.794 1.589 3649
0.428 3.933 1.644 2637
0.424 3.901 1.618 3804
0.443 4.077 1.686 2795
0.424 3.898 1.604 5036
0.443 4.074 1.671 4057
0.443 4.071 1.657 5244
0.428 3.931 1.604 5024
0.430 3.950 1.598 5384
0.445 4.091 1.650 4304
0.433 3.977 1.595 5158
0.448 4.117 1.647 3016
0.455 4.188 1.659 4510
0.431 3.966 1.578 3285
0.455 4.185 1.644 5782
0.432 3.970 1.566 2620
0.456 4.197 1.635 5411
0.434 3.989 1.560 2114
0.459 4.223 1.631 5674
0.444 4.082 1.580 3938
0.461 4.235 1.621 5661
0.445 4.094 1.571 3510
0.462 4.247 1.612 4628
0.447 4.106 1.562 3049
0.466 4.281 1.610 6083
0.450 4.139 1.560 2870
0.468 4.300 1.602 6530
0.451 4.151 1.551 1748
0.470 4.319 1.595 4398
0.487 4.476 1.648 1991
0.470 4.323 1.582 3417
0.488 4.487 1.638 2272
0.471 4.327 1.570 3519
0.490 4.507 1.630 2284
0.491 4.518 1.619 3588
0.472 4.339 1.560 2819
0.490 4.508 1.601 5055
0.472 4.343 1.547 1370
0.490 4.504 1.586 5872
0.492 4.524 1.577 4667
0.507 4.666 1.623 1555
0.496 4.558 1.574 3901
0.511 4.700 1.619 1553
0.497 4.569 1.563 3796
0.517 4.750 1.620 1907
0.506 4.656 1.576 2975
0.491 4.513 1.531 1328
0.516 4.743 1.588 2697
0.500 4.600 1.543 1624
0.517 4.755 1.576 3648
0.502 4.612 1.532 1740
0.520 4.782 1.569 2778
0.502 4.616 1.519 1054
0.526 4.839 1.571 4012
0.529 4.865 1.564 5707
0.514 4.722 1.521 1367
0.530 4.869 1.550 4719
0.514 4.726 1.508 1055
0.540 4.964 1.562 3044
0.524 4.821 1.520 1671
0.539 4.953 1.543 2683
0.554 5.097 1.584 1457
0.553 5.086 1.565 3273
0.533 4.904 1.514 2659
0.553 5.083 1.548 3772
0.537 4.939 1.508 2213
0.551 5.064 1.527 4082
0.535 4.920 1.487 2122
0.553 5.083 1.517 5154
0.537 4.939 1.477 2101
0.553 5.087 1.502 4512
0.569 5.231 1.541 1798
0.555 5.099 1.489 3431
0.579 5.319 1.548 2331
0.576 5.300 1.527 3320
0.557 5.118 1.478 3031
0.563 5.175 1.477 3612
0.587 5.396 1.535 2852
0.588 5.407 1.521 4310
0.565 5.194 1.466 2659
0.588 5.404 1.504 5211
0.603 5.549 1.541 1736
0.589 5.415 1.490 5621
0.608 5.591 1.534 2428
0.590 5.427 1.476 4687
0.606 5.572 1.512 2237
0.601 5.530 1.485 3242
0.586 5.385 1.449 2410
0.612 5.626 1.491 3114
0.589 5.412 1.439 1709
0.612 5.630 1.475 4266
0.628 5.775 1.509 2380
0.615 5.657 1.464 3736
0.631 5.802 1.498 2753
0.633 5.821 1.485 3997
0.615 5.653 1.445 1745
0.635 5.841 1.471 5738
0.655 6.025 1.514 1539
0.636 5.852 1.456 4016
0.656 6.029 1.496 1406
0.639 5.879 1.444 2230
0.655 6.025 1.477 1358
0.650 5.975 1.447 2011
0.684 6.290 1.517 1358
0.656 6.033 1.442 2012
0.682 6.271 1.494 1602
0.657 6.036 1.424 1873
0.693 6.367 1.495 1809
0.693 6.371 1.477 2287
0.657 6.040 1.407 1701
0.699 6.429 1.470 3107
0.683 6.283 1.439 1289
0.700 6.441 1.452 3373
0.683 6.279 1.419 1100
0.700 6.437 1.432 2627
0.716 6.583 1.462 1710
0.712 6.549 1.435 2742
0.735 6.757 1.477 2198
0.742 6.823 1.469 2967
0.711 6.537 1.413 2460
0.739 6.796 1.443 2899
0.711 6.540 1.394 1881
0.750 6.900 1.442 3060
0.734 6.753 1.414 1675
0.754 6.934 1.428 3353
0.738 6.787 1.401 2104
0.748 6.876 1.396 2743
0.771 7.093 1.436 2281
0.805 7.399 1.471 2398
0.773 7.105 1.417 2295
0.805 7.403 1.449 2442
0.773 7.108 1.396 2225
0.838 7.709 1.480 2076
0.805 7.399 1.426 1651
0.825 7.581 1.435 1455
0.777 7.146 1.360 1326
0.838 7.701 1.433 1522
0.805 7.398 1.382 1442
0.839 7.712 1.412 2314
0.806 7.410 1.361 1624
0.839 7.716 1.389 3397
0.925 8.509 1.518 1300
0.840 7.727 1.368 3664
0.927 8.520 1.495 1756
0.841 7.731 1.345 2699
0.927 8.524 1.470 1558
0.981 9.018 1.521 1555
0.910 8.365 1.420 1491
0.955 8.781 1.458 1958
1.000 9.193 1.520 1867
1.001 9.205 1.494 3015
0.956 8.792 1.433 2150
1.002 9.209 1.468 2457
0.957 8.796 1.408 1782
1.018 9.361 1.462 2052
1.002 9.213 1.441 1955
1.022 9.396 1.439 2365
1.003 9.224 1.415 2209
1.004 9.228 1.388 2205
1.024 9.415 1.413 2174
1.024 9.419 1.386 2000
1.004 9.232 1.361 1888
1.013 9.313 1.344 1682
1.018 9.363 1.323 1062
0.243 2.205 1.690 3782
0.256 2.326 1.777 1387
0.244 2.209 1.683 7565
0.257 2.331 1.771 2775
0.244 2.214 1.677 7565
0.257 2.336 1.764 2775
0.245 2.224 1.675 5871
0.259 2.347 1.762 2819
0.255 2.313 1.728 6860
0.241 2.190 1.642 1793
0.256 2.324 1.726 7621
0.243 2.201 1.640 1426
0.258 2.341 1.728 9119
0.259 2.346 1.721 9119
0.258 2.344 1.710 8586
0.258 2.342 1.699 8126
0.259 2.353 1.697 7485
0.273 2.477 1.781 1308
0.262 2.377 1.703 7242
0.261 2.369 1.687 7733
0.275 2.493 1.771 1741
0.261 2.367 1.676 8586
0.275 2.491 1.759 2767
0.261 2.371 1.670 8074
0.275 2.496 1.752 2691
0.263 2.382 1.667 7592
0.276 2.507 1.749 2622
0.262 2.380 1.656 7404
0.276 2.505 1.738 3290
0.273 2.477 1.709 7188
0.259 2.351 1.628 2747
0.274 2.488 1.706 9130
0.260 2.362 1.625 2813
0.275 2.493 1.699 8453
0.261 2.366 1.618 1998
0.274 2.484 1.683 7957
0.277 2.515 1.693 9505
0.263 2.388 1.613 1370
0.278 2.526 1.690 11485
0.280 2.544 1.691 9937
0.282 2.555 1.688 9396
0.282 2.560 1.681 6474
0.282 2.557 1.669 3576
0.283 2.569 1.666 3594
0.285 2.586 1.667 3806
0.286 2.591 1.659 3692
0.300 2.719 1.736 1172
0.286 2.595 1.652 3579
0.300 2.724 1.728 1424
0.296 2.688 1.697 3369
0.282 2.559 1.620 1326
0.297 2.692 1.689 4136
0.283 2.563 1.613 1065
0.298 2.704 1.685 3937
0.312 2.833 1.761 1970
0.302 2.735 1.693 4801
0.316 2.865 1.768 2158
0.303 2.747 1.689 5632
0.317 2.876 1.764 3708
0.315 2.861 1.744 8244
0.301 2.731 1.669 4793
0.316 2.865 1.736 9310
0.302 2.735 1.662 4050
0.316 2.863 1.723 8002
0.301 2.733 1.650 3338
0.315 2.861 1.711 7179
0.301 2.730 1.638 2579
0.319 2.893 1.718 7514
0.304 2.762 1.646 2175
0.320 2.904 1.714 9502
0.306 2.773 1.641 1922
0.319 2.895 1.698 11194
0.305 2.764 1.626 2210
0.320 2.900 1.690 13697
0.305 2.768 1.618 2690
0.320 2.904 1.681 13751
0.306 2.772 1.610 2686
0.322 2.922 1.680 11415
0.308 2.791 1.609 2016
0.324 2.941 1.679 10396
0.339 3.073 1.750 1290
0.325 2.952 1.675 8673
0.340 3.084 1.745 1474
0.327 2.964 1.670 9166
0.341 3.096 1.739 2206
0.326 2.961 1.657 10962
0.341 3.094 1.727 2976
0.328 2.972 1.653 9701
0.342 3.105 1.722 2786
0.328 2.977 1.644 5774
0.343 3.110 1.713 2821
0.339 3.079 1.686 4664
0.325 2.946 1.617 2293
0.339 3.077 1.673 4504
0.324 2.943 1.605 1361
0.347 3.145 1.696 5212
0.332 3.011 1.629 2170
0.347 3.149 1.687 6982
0.332 3.015 1.620 2206
0.349 3.168 1.685 7834
0.334 3.034 1.618 2357
0.350 3.179 1.679 7995
0.336 3.045 1.613 2225
0.353 3.205 1.681 7980
0.338 3.070 1.615 2738
0.355 3.216 1.675 9589
0.340 3.082 1.609 3708
0.356 3.228 1.669 10016
0.341 3.093 1.604 5173
0.356 3.232 1.660 8528
0.341 3.097 1.595 5252
0.358 3.244 1.654 9742
0.343 3.109 1.589 4232
0.357 3.241 1.641 10353
0.342 3.106 1.577 1620
0.358 3.246 1.632 8006
0.373 3.381 1.695 1825
0.363 3.293 1.642 7710
0.348 3.157 1.579 2384
0.363 3.290 1.629 9686
0.378 3.426 1.692 1780
0.363 3.294 1.620 11489
0.378 3.430 1.682 1887
0.364 3.306 1.613 8091
0.379 3.442 1.675 1828
0.372 3.375 1.633 6845
0.357 3.238 1.572 1097
0.374 3.393 1.630 6021
0.359 3.257 1.569 1357
0.375 3.398 1.620 6724
0.359 3.261 1.559 1000
0.376 3.409 1.613 6009
0.391 3.546 1.673 1868
0.384 3.486 1.635 9042
0.369 3.348 1.575 1571
0.385 3.490 1.625 10150
0.384 3.487 1.612 8150
0.400 3.624 1.671 1513
0.383 3.477 1.595 7093
0.398 3.614 1.654 3241
0.385 3.488 1.588 8366
0.401 3.641 1.653 3669
0.386 3.500 1.581 8636
0.405 3.674 1.654 5077
0.406 3.686 1.647 6755
0.387 3.511 1.574 5957
0.407 3.690 1.636 7050
0.389 3.530 1.570 3130
0.408 3.702 1.628 6424
0.393 3.563 1.572 2380
0.414 3.757 1.638 6981
0.399 3.618 1.582 4527
0.416 3.776 1.633 7354
0.401 3.637 1.578 3646
0.419 3.802 1.631 8919
0.404 3.663 1.576 3079
0.420 3.807 1.620 9623
0.404 3.667 1.565 2379
0.419 3.804 1.606 7035
0.435 3.943 1.661 1838
0.418 3.793 1.589 4190
0.434 3.933 1.644 2391
0.429 3.893 1.615 3970
0.449 4.077 1.686 2722
0.430 3.897 1.604 5107
0.449 4.074 1.671 3989
0.433 3.931 1.604 5215
0.450 4.078 1.659 4837
0.435 3.950 1.598 5162
0.451 4.090 1.650 4005
0.439 3.984 1.597 4489
0.461 4.183 1.671 2608
0.462 4.187 1.659 4560
0.440 3.988 1.586 2919
0.461 4.184 1.644 5786
0.438 3.970 1.566 2170
0.463 4.196 1.635 5324
0.440 3.989 1.560 1759
0.466 4.223 1.631 5374
0.450 4.082 1.580 3626
0.467 4.234 1.621 5303
0.451 4.093 1.571 3047
0.469 4.253 1.614 4865
0.453 4.112 1.565 2438
0.471 4.273 1.607 6643
0.455 4.131 1.558 2305
0.473 4.292 1.600 6616
0.458 4.150 1.551 1618
0.475 4.311 1.592 4352
0.492 4.460 1.643 2266
0.477 4.323 1.582 3445
0.494 4.479 1.635 2545
0.477 4.327 1.570 3481
0.497 4.506 1.630 2862
0.499 4.525 1.622 3796
0.478 4.338 1.560 2739
0.497 4.507 1.601 4243
0.478 4.335 1.545 1320
0.497 4.504 1.586 5345
0.499 4.523 1.577 5252
0.514 4.665 1.623 1737
0.502 4.557 1.574 4480
0.518 4.700 1.619 1484
0.504 4.569 1.563 4035
0.524 4.749 1.620 1802
0.513 4.655 1.576 3440
0.497 4.513 1.531 1405
0.521 4.727 1.583 3063
0.505 4.584 1.539 1092
0.522 4.731 1.569 4102
0.506 4.588 1.526 1251
0.523 4.743 1.558 2850
0.534 4.845 1.573 3685
0.518 4.702 1.530 1116
0.536 4.865 1.564 6035
0.520 4.721 1.521 1332
0.537 4.869 1.550 4812
0.521 4.725 1.508 1162
0.546 4.956 1.560 3105
0.531 4.812 1.518 1127
0.541 4.907 1.530 3048
0.557 5.051 1.571 1641
0.541 4.911 1.516 2753
0.561 5.085 1.565 2595
0.556 5.044 1.538 2988
0.540 4.900 1.497 1635
0.557 5.056 1.525 3865
0.541 4.911 1.485 1936
0.560 5.082 1.517 5619
0.544 4.938 1.477 2017
0.561 5.086 1.502 5143
0.577 5.231 1.541 1248
0.561 5.090 1.487 4057
0.589 5.341 1.554 1931
0.584 5.300 1.527 3318
0.563 5.109 1.476 3279
0.570 5.174 1.477 3494
0.586 5.319 1.515 2879
0.596 5.407 1.521 3748
0.573 5.193 1.466 2837
0.596 5.411 1.506 4513
0.612 5.556 1.543 1702
0.597 5.415 1.490 4903
0.616 5.590 1.534 2258
0.598 5.426 1.476 4276
0.620 5.625 1.526 2356
0.609 5.522 1.483 2992
0.625 5.667 1.519 2758
0.620 5.625 1.491 3286
0.597 5.418 1.441 1736
0.620 5.621 1.473 4271
0.636 5.767 1.508 2835
0.634 5.748 1.485 3728
0.618 5.602 1.451 2438
0.643 5.828 1.487 3331
0.626 5.683 1.453 1958
0.644 5.840 1.471 5223
0.628 5.694 1.438 1405
0.645 5.851 1.456 3904
0.665 6.028 1.496 1641
0.648 5.878 1.444 2365
0.664 6.024 1.477 1444
0.656 5.951 1.442 1779
0.692 6.282 1.515 1416
0.691 6.270 1.494 1590
0.668 6.062 1.449 1391
0.700 6.351 1.492 1644
0.668 6.059 1.429 1494
0.702 6.370 1.477 2138
0.682 6.185 1.438 1215
0.710 6.436 1.471 3215
0.693 6.289 1.441 1090
0.710 6.440 1.452 3438
0.683 6.193 1.402 1116
0.709 6.436 1.432 2567
0.726 6.582 1.462 1690
0.723 6.555 1.436 2597
0.744 6.748 1.475 1713
0.744 6.744 1.454 2576
0.721 6.536 1.413 2335
0.748 6.787 1.442 2547
0.720 6.532 1.392 1853
0.763 6.922 1.447 2887
0.747 6.775 1.419 2110
0.764 6.933 1.428 3299
0.810 7.351 1.506 1764
0.759 6.883 1.398 2651
0.782 7.092 1.436 2327
0.783 7.103 1.417 2535
0.816 7.398 1.471 2492
0.784 7.107 1.396 2384
0.817 7.409 1.450 2354
0.850 7.708 1.480 2156
0.785 7.118 1.377 1649
0.849 7.704 1.457 1497
0.893 8.099 1.525 1412
0.849 7.700 1.433 1733
0.892 8.095 1.500 1504
0.850 7.711 1.412 2684
0.834 7.564 1.387 1785
0.851 7.715 1.389 3725
0.926 8.398 1.501 1363
0.852 7.726 1.368 3880
0.927 8.410 1.477 1594
0.852 7.730 1.345 2866
0.923 8.375 1.447 1658
0.922 8.363 1.420 1679
0.994 9.017 1.521 1428
1.014 9.200 1.521 1955
0.967 8.772 1.457 1793
1.015 9.204 1.494 3019
0.968 8.783 1.432 1719
1.015 9.207 1.468 2421
0.999 9.059 1.446 1419
1.016 9.219 1.442 2078
1.033 9.367 1.463 1639
1.017 9.223 1.415 2439
1.036 9.394 1.439 1852
1.017 9.226 1.388 2356
1.037 9.406 1.412 1680
1.018 9.230 1.361 1904
1.038 9.417 1.386 1513
1.027 9.312 1.344 1405
0.250 2.210 1.694 3813
0.264 2.332 1.782 1387
0.251 2.215 1.688 7627
0.265 2.336 1.775 2774
0.251 2.219 1.682 7627
0.265 2.341 1.768 2774
0.261 2.307 1.734 6034
0.247 2.185 1.648 2662
0.262 2.312 1.728 7403
0.248 2.189 1.642 1395
0.264 2.329 1.730 8258
0.250 2.207 1.644 1563
0.265 2.341 1.728 9905
0.265 2.345 1.721 9905
0.265 2.343 1.710 9168
0.265 2.341 1.699 8575
0.279 2.465 1.783 1228
0.266 2.352 1.697 7465
0.280 2.476 1.781 1504
0.269 2.376 1.703 6752
0.267 2.361 1.683 7334
0.281 2.486 1.766 2601
0.268 2.366 1.676 8266
0.282 2.490 1.759 3258
0.269 2.377 1.674 8086
0.283 2.502 1.756 2598
0.270 2.381 1.667 8085
0.284 2.506 1.749 3109
0.270 2.386 1.660 7983
0.284 2.511 1.742 3576
0.280 2.476 1.709 7848
0.266 2.350 1.628 2785
0.282 2.487 1.706 10377
0.267 2.361 1.625 2865
0.282 2.492 1.699 9611
0.268 2.366 1.618 2024
0.281 2.483 1.683 9267
0.285 2.514 1.693 10181
0.270 2.388 1.613 1334
0.286 2.525 1.690 11991
0.287 2.536 1.687 10519
0.289 2.554 1.688 9828
0.289 2.552 1.677 7068
0.289 2.557 1.669 4347
0.304 2.684 1.747 1136
0.291 2.568 1.666 4757
0.305 2.696 1.744 1122
0.293 2.586 1.667 5543
0.309 2.727 1.752 1077
0.293 2.590 1.659 4907
0.308 2.718 1.736 1238
0.294 2.594 1.652 4271
0.308 2.723 1.728 1426
0.303 2.680 1.693 3935
0.305 2.691 1.689 4715
0.290 2.562 1.613 1153
0.305 2.696 1.681 4107
0.321 2.832 1.761 2159
0.310 2.741 1.697 4274
0.325 2.871 1.772 1973
0.322 2.848 1.748 5442
0.308 2.718 1.673 3781
0.324 2.860 1.744 8629
0.309 2.730 1.669 4282
0.323 2.857 1.732 9691
0.309 2.727 1.658 3754
0.324 2.862 1.723 8537
0.309 2.732 1.650 3301
0.324 2.860 1.711 7742
0.309 2.729 1.638 2586
0.327 2.892 1.718 7527
0.313 2.761 1.646 2430
0.329 2.903 1.714 9348
0.314 2.772 1.641 2287
0.328 2.901 1.702 11207
0.314 2.770 1.630 2723
0.328 2.899 1.690 13816
0.313 2.767 1.618 2765
0.329 2.903 1.681 13763
0.314 2.771 1.610 2569
0.330 2.914 1.677 11360
0.315 2.783 1.606 1838
0.333 2.940 1.679 10161
0.348 3.072 1.750 1116
0.333 2.937 1.667 9110
0.347 3.070 1.737 1928
0.335 2.956 1.666 9681
0.350 3.088 1.736 2215
0.335 2.960 1.657 11520
0.350 3.093 1.727 2702
0.336 2.964 1.649 9830
0.351 3.097 1.718 2944
0.337 2.976 1.644 5590
0.352 3.109 1.713 2859
0.349 3.085 1.689 4269
0.334 2.952 1.621 2493
0.348 3.076 1.673 4429
0.333 2.942 1.605 1373
0.347 3.066 1.657 5634
0.362 3.200 1.725 1108
0.356 3.148 1.687 7690
0.341 3.014 1.620 2616
0.358 3.167 1.685 8567
0.343 3.033 1.618 2800
0.360 3.178 1.679 8951
0.345 3.044 1.613 2163
0.363 3.204 1.681 8846
0.347 3.069 1.615 2358
0.364 3.215 1.675 10290
0.349 3.081 1.609 3277
0.365 3.227 1.669 10410
0.350 3.092 1.604 4723
0.366 3.231 1.660 8771
0.351 3.096 1.595 4844
0.366 3.236 1.650 10304
0.351 3.101 1.586 3588
0.367 3.240 1.641 10998
0.351 3.105 1.577 1523
0.368 3.252 1.635 7981
0.383 3.387 1.698 1910
0.372 3.284 1.639 8400
0.356 3.149 1.576 1779
0.372 3.289 1.629 9636
0.388 3.425 1.692 1895
0.373 3.293 1.620 10185
0.388 3.429 1.682 2034
0.375 3.312 1.617 6832
0.390 3.448 1.679 1427
0.382 3.373 1.633 6860
0.383 3.385 1.626 5995
0.385 3.396 1.620 6549
0.392 3.458 1.635 6589
0.376 3.321 1.575 2860
0.394 3.484 1.635 10460
0.379 3.347 1.575 1622
0.395 3.489 1.625 11493
0.395 3.493 1.615 9254
0.411 3.631 1.674 1383
0.393 3.476 1.595 7248
0.409 3.613 1.654 3199
0.395 3.487 1.588 8511
0.412 3.639 1.653 3589
0.396 3.498 1.581 9206
0.415 3.666 1.651 4955
0.397 3.510 1.574 6616
0.417 3.684 1.647 5967
0.418 3.696 1.639 5950
0.399 3.529 1.570 3573
0.413 3.649 1.607 6006
0.429 3.788 1.664 2632
0.425 3.756 1.638 7387
0.409 3.617 1.582 4498
0.427 3.775 1.633 7613
0.412 3.636 1.578 3640
0.430 3.801 1.631 8075
0.415 3.662 1.576 3147
0.431 3.805 1.620 9183
0.415 3.666 1.565 2514
0.430 3.802 1.606 7636
0.446 3.942 1.661 1482
0.429 3.792 1.589 5130
0.445 3.931 1.644 2096
0.440 3.884 1.612 4230
0.461 4.075 1.686 2529
0.441 3.896 1.604 5210
0.461 4.072 1.671 3692
0.445 3.930 1.604 5037
0.462 4.077 1.659 4431
0.446 3.941 1.595 4833
0.462 4.081 1.648 3762
0.452 3.990 1.600 3607
0.473 4.181 1.671 2512
0.474 4.186 1.659 4502
0.452 3.994 1.589 2566
0.474 4.183 1.644 5704
0.450 3.976 1.569 1638
0.475 4.195 1.635 5154
0.459 4.054 1.584 1626
0.477 4.214 1.628 4999
0.461 4.073 1.578 2891
0.480 4.240 1.624 4714
0.464 4.099 1.574 2862
0.482 4.260 1.617 5134
0.466 4.118 1.567 1936
0.484 4.271 1.607 6849
0.468 4.130 1.558 1901
0.486 4.290 1.600 6140
0.470 4.149 1.551 1539
0.488 4.309 1.592 3881
0.505 4.458 1.643 2562
0.505 4.463 1.630 3175
0.489 4.321 1.582 3108
0.510 4.504 1.630 3501
0.490 4.325 1.570 3100
0.512 4.524 1.622 3966
0.490 4.329 1.557 2400
0.513 4.528 1.609 3631
0.497 4.386 1.562 1438
0.511 4.510 1.588 4823
0.485 4.285 1.515 1075
0.512 4.521 1.577 5974
0.528 4.664 1.623 1939
0.514 4.541 1.569 5128
0.530 4.683 1.615 2566
0.517 4.567 1.563 4169
0.537 4.740 1.618 1869
0.525 4.639 1.571 3345
0.541 4.782 1.616 1390
0.535 4.726 1.583 3132
0.519 4.583 1.539 1199
0.535 4.730 1.569 4544
0.519 4.587 1.526 1484
0.537 4.742 1.558 3285
0.521 4.598 1.514 1028
0.548 4.844 1.573 3296
0.532 4.700 1.530 1357
0.551 4.863 1.564 6004
0.534 4.720 1.521 1490
0.551 4.867 1.550 4605
0.535 4.724 1.508 1260
0.560 4.947 1.557 3214
0.539 4.765 1.505 1323
0.556 4.913 1.532 3414
0.572 5.057 1.573 1544
0.556 4.909 1.516 2763
0.572 5.053 1.557 2155
0.567 5.004 1.527 3128
0.583 5.148 1.567 1602
0.571 5.046 1.523 3623
0.588 5.198 1.565 1716
0.575 5.081 1.517 5680
0.559 4.936 1.477 1866
0.576 5.085 1.502 5313
0.604 5.335 1.570 1183
0.576 5.089 1.487 4387
0.604 5.339 1.554 1829
0.577 5.100 1.474 3472
0.600 5.298 1.527 3076
0.600 5.302 1.511 3914
0.584 5.157 1.473 3101
0.612 5.405 1.521 3042
0.588 5.192 1.466 2846
0.612 5.409 1.506 3899
0.629 5.554 1.543 1386
0.613 5.413 1.490 4157
0.635 5.611 1.540 1706
0.613 5.417 1.474 3904
0.637 5.630 1.527 2174
0.624 5.512 1.481 3030
0.640 5.657 1.517 2896
0.632 5.585 1.482 3536
0.649 5.730 1.517 2010
0.634 5.596 1.467 4048
0.650 5.742 1.502 3877
0.650 5.746 1.485 3829
0.634 5.600 1.451 2271
0.651 5.750 1.469 3340
0.667 5.895 1.503 1837
0.661 5.838 1.471 4499
0.644 5.692 1.438 1257
0.662 5.849 1.456 3683
0.683 6.034 1.498 1582
0.665 5.876 1.444 2503
0.683 6.037 1.480 1710
0.672 5.934 1.439 1656
0.711 6.279 1.515 1468
0.686 6.060 1.449 1607
0.710 6.276 1.495 1543
0.687 6.064 1.431 1819
0.718 6.341 1.490 1604
0.719 6.353 1.474 2083
0.700 6.183 1.438 1241
0.728 6.434 1.471 3462
0.712 6.287 1.441 1160
0.729 6.437 1.452 3698
0.701 6.191 1.402 1148
0.729 6.441 1.434 2617
0.746 6.588 1.463 1559
0.742 6.553 1.436 2454
0.725 6.406 1.407 1358
0.762 6.727 1.451 2218
0.740 6.534 1.413 2128
0.768 6.784 1.442 2082
0.739 6.530 1.392 1675
0.784 6.927 1.448 2604
0.768 6.780 1.420 1841
0.785 6.931 1.428 3020
0.831 7.341 1.505 1889
0.803 7.090 1.436 2540
0.779 6.881 1.398 2369
0.804 7.101 1.417 2843
0.837 7.395 1.471 2403
0.805 7.112 1.398 2634
0.839 7.407 1.450 2206
0.872 7.705 1.480 2061
0.806 7.116 1.377 1734
0.872 7.701 1.457 1493
0.854 7.546 1.430 1481
0.871 7.697 1.433 1863
0.855 7.550 1.408 1809
0.873 7.709 1.412 2916
0.856 7.561 1.387 2249
0.873 7.712 1.389 3873
0.950 8.396 1.501 1633
0.874 7.716 1.367 3927
0.951 8.400 1.476 1789
0.875 7.727 1.345 2911
0.947 8.365 1.446 1726
0.946 8.361 1.420 1793
0.992 8.765 1.482 1355
1.042 9.204 1.523 2010
0.993 8.769 1.457 1694
1.042 9.201 1.494 2950
0.993 8.773 1.431 1424
1.042 9.204 1.468 2330
1.025 9.057 1.446 1308
1.043 9.216 1.442 2179
1.060 9.364 1.463 1352
1.044 9.220 1.415 2630
1.061 9.376 1.437 1402
1.045 9.231 1.389 2473
1.064 9.395 1.411 1163
1.045 9.235 1.362 1907
1.053 9.301 1.343 1158
0.255 2.210 1.694 3803
0.269 2.331 1.782 1530
0.255 2.214 1.688 7607
0.269 2.336 1.775 3060
0.256 2.219 1.682 7607
0.270 2.341 1.768 3060
0.266 2.307 1.734 6242
0.252 2.185 1.648 2157
0.267 2.311 1.728 7617
0.269 2.329 1.730 8643
0.254 2.206 1.644 1439
0.270 2.340 1.728 10398
0.256 2.217 1.642 1234
0.270 2.345 1.721 10398
0.270 2.343 1.710 9492
0.270 2.341 1.699 8772
0.284 2.464 1.783 1513
0.271 2.352 1.697 7338
0.286 2.476 1.781 1699
0.274 2.376 1.703 6269
0.272 2.361 1.683 6998
0.287 2.485 1.766 2916
0.273 2.365 1.676 8024
0.287 2.490 1.759 3717
0.274 2.376 1.674 8142
0.288 2.501 1.756 3055
0.275 2.381 1.667 8466
0.289 2.506 1.749 3603
0.275 2.385 1.660 8452
0.290 2.510 1.742 4124
0.286 2.482 1.713 8403
0.272 2.356 1.632 3755
0.287 2.487 1.706 11393
0.272 2.361 1.625 2840
0.287 2.484 1.695 10710
0.272 2.358 1.614 1478
0.286 2.482 1.683 10376
0.290 2.513 1.693 10842
0.275 2.387 1.613 1253
0.291 2.525 1.690 12461
0.292 2.536 1.687 11091
0.294 2.547 1.684 10354
0.294 2.551 1.677 7572
0.309 2.679 1.755 1171
0.295 2.556 1.669 4789
0.310 2.684 1.747 1360
0.296 2.567 1.666 5454
0.311 2.695 1.744 1214
0.297 2.578 1.663 6432
0.315 2.733 1.756 1155
0.299 2.589 1.659 5711
0.316 2.738 1.748 1224
0.299 2.594 1.652 5058
0.316 2.743 1.741 1293
0.309 2.680 1.693 4284
0.310 2.684 1.685 5144
0.311 2.695 1.681 4378
0.327 2.831 1.761 2355
0.327 2.836 1.752 3807
0.312 2.707 1.677 3252
0.328 2.848 1.748 5708
0.313 2.718 1.673 3250
0.329 2.852 1.740 8764
0.314 2.722 1.666 3400
0.330 2.857 1.732 9827
0.315 2.727 1.658 3462
0.330 2.861 1.723 8735
0.315 2.731 1.650 3124
0.330 2.859 1.711 7923
0.315 2.729 1.638 2534
0.331 2.871 1.707 7468
0.316 2.740 1.634 2065
0.335 2.903 1.714 8992
0.320 2.772 1.641 2549
0.335 2.900 1.702 11020
0.319 2.769 1.630 2895
0.334 2.898 1.690 13645
0.319 2.767 1.618 2693
0.334 2.895 1.677 13475
0.319 2.764 1.606 2035
0.336 2.914 1.677 11188
0.351 3.046 1.747 1653
0.339 2.939 1.679 10230
0.339 2.937 1.667 9673
0.354 3.069 1.737 1674
0.340 2.948 1.662 10380
0.355 3.080 1.732 2176
0.341 2.952 1.654 11798
0.356 3.085 1.723 2622
0.342 2.964 1.649 9746
0.357 3.097 1.718 2888
0.344 2.982 1.648 5402
0.359 3.115 1.716 2633
0.357 3.092 1.693 4147
0.341 2.958 1.625 2413
0.354 3.068 1.670 4566
0.338 2.935 1.602 1080
0.354 3.065 1.657 6660
0.369 3.199 1.725 1078
0.363 3.147 1.687 8322
0.348 3.014 1.620 2957
0.365 3.166 1.685 9277
0.350 3.032 1.618 3219
0.366 3.177 1.679 10087
0.351 3.043 1.613 2086
0.369 3.203 1.681 9872
0.354 3.069 1.615 1893
0.371 3.215 1.675 10764
0.355 3.080 1.609 2776
0.372 3.226 1.669 10416
0.357 3.091 1.604 4210
0.373 3.231 1.660 8721
0.357 3.096 1.595 4360
0.373 3.235 1.650 10646
0.358 3.100 1.586 3234
0.373 3.232 1.638 11457
0.357 3.097 1.574 1248
0.375 3.251 1.635 7864
0.391 3.386 1.698 1912
0.379 3.284 1.639 8604
0.394 3.419 1.702 1677
0.379 3.288 1.629 9143
0.395 3.424 1.692 1896
0.380 3.292 1.620 8577
0.395 3.428 1.682 2046
0.389 3.368 1.643 6652
0.373 3.232 1.581 1426
0.388 3.365 1.630 6967
0.389 3.370 1.620 5900
0.392 3.396 1.620 6132
0.399 3.458 1.635 7038
0.383 3.321 1.575 2896
0.402 3.484 1.635 11304
0.386 3.346 1.575 1635
0.402 3.488 1.625 12317
0.403 3.492 1.615 10108
0.419 3.630 1.674 1412
0.402 3.482 1.598 7294
0.417 3.620 1.657 2810
0.402 3.486 1.588 8222
0.419 3.631 1.650 3504
0.404 3.505 1.584 9251
0.423 3.665 1.651 4697
0.405 3.509 1.574 6933
0.425 3.684 1.647 5198
0.426 3.695 1.639 5099
0.407 3.528 1.570 3850
0.419 3.634 1.602 5692
0.435 3.772 1.658 4080
0.433 3.755 1.638 8075
0.417 3.616 1.582 4307
0.435 3.774 1.633 7926
0.419 3.635 1.578 3645
0.438 3.800 1.631 6755
0.421 3.654 1.573 3340
0.439 3.804 1.620 8337
0.423 3.665 1.565 2741
0.438 3.794 1.603 8182
0.454 3.933 1.658 1583
0.437 3.791 1.589 5808
0.453 3.930 1.644 1783
0.447 3.876 1.610 4378
0.470 4.074 1.686 2186
0.449 3.895 1.604 4873
0.470 4.079 1.674 3427
0.453 3.929 1.604 4784
0.470 4.076 1.659 3999
0.454 3.940 1.595 4987
0.471 4.080 1.648 3219
0.455 3.944 1.584 3618
0.471 4.085 1.636 3323
0.483 4.185 1.659 4309
0.461 4.000 1.591 2725
0.482 4.182 1.644 5350
0.461 3.997 1.577 1559
0.483 4.186 1.632 4955
0.467 4.046 1.582 1468
0.474 4.109 1.591 5019
0.490 4.250 1.641 2572
0.488 4.232 1.621 4141
0.472 4.091 1.571 2277
0.492 4.266 1.619 5168
0.476 4.125 1.570 1764
0.493 4.270 1.607 6829
0.476 4.129 1.558 1248
0.493 4.274 1.595 5621
0.513 4.446 1.654 1052
0.498 4.316 1.595 3589
0.514 4.457 1.643 2831
0.514 4.454 1.628 3647
0.497 4.313 1.580 2796
0.519 4.503 1.630 3955
0.500 4.332 1.572 2809
0.521 4.515 1.619 4299
0.499 4.328 1.557 2053
0.523 4.534 1.611 3562
0.507 4.392 1.564 1364
0.521 4.516 1.591 4351
0.494 4.284 1.515 1465
0.521 4.520 1.577 6108
0.538 4.663 1.623 2091
0.523 4.532 1.567 5311
0.539 4.674 1.612 3210
0.527 4.566 1.563 3924
0.543 4.709 1.608 1976
0.535 4.638 1.571 3277
0.551 4.781 1.616 1548
0.545 4.725 1.583 3308
0.528 4.582 1.539 1291
0.545 4.729 1.569 4554
0.529 4.586 1.526 1395
0.547 4.740 1.558 3386
0.558 4.835 1.571 3053
0.541 4.692 1.528 1250
0.560 4.854 1.562 5958
0.543 4.711 1.519 1413
0.561 4.866 1.550 4337
0.545 4.722 1.508 1237
0.570 4.938 1.555 3413
0.550 4.764 1.505 1471
0.567 4.919 1.534 3853
0.487 4.224 1.335 1369
0.579 5.022 1.548 2670
0.563 4.878 1.507 1909
0.578 5.011 1.529 3455
0.595 5.155 1.570 1470
0.578 5.007 1.512 3885
0.594 5.151 1.552 1972
0.587 5.087 1.519 5361
0.570 4.943 1.479 1887
0.586 5.083 1.502 4827
0.494 4.286 1.286 1656
0.587 5.087 1.487 4097
0.493 4.274 1.269 1993
0.588 5.099 1.474 3335
0.611 5.297 1.527 2964
0.612 5.308 1.513 4418
0.596 5.164 1.475 2955
0.614 5.327 1.502 3862
0.598 5.183 1.464 2491
0.614 5.324 1.484 3297
0.634 5.499 1.529 2514
0.622 5.389 1.484 3470
0.638 5.534 1.521 2315
0.625 5.415 1.474 3606
0.650 5.637 1.529 2014
0.636 5.511 1.481 3291
0.652 5.656 1.517 2656
0.643 5.576 1.480 2734
0.660 5.721 1.515 1890
0.661 5.733 1.500 3980
0.644 5.587 1.465 2749
0.663 5.744 1.485 3789
0.646 5.599 1.451 1943
0.663 5.748 1.469 3088
0.680 5.894 1.503 2107
0.673 5.836 1.471 3427
0.690 5.982 1.505 1051
0.675 5.856 1.458 3273
0.697 6.040 1.500 1462
0.678 5.882 1.446 2867
0.703 6.097 1.494 1945
0.705 6.109 1.478 1970
0.681 5.902 1.432 1725
0.700 6.067 1.450 1641
0.725 6.290 1.499 1572
0.699 6.063 1.431 1973
0.731 6.340 1.490 1646
0.733 6.351 1.474 2102
0.714 6.190 1.439 1307
0.742 6.432 1.471 3602
0.725 6.286 1.441 1270
0.742 6.436 1.452 3951
0.714 6.189 1.402 1186
0.743 6.440 1.434 2622
0.760 6.586 1.463 1431
0.752 6.521 1.430 2142
0.769 6.667 1.460 1268
0.753 6.524 1.411 2012
0.772 6.694 1.445 1942
0.774 6.713 1.428 2021
0.753 6.528 1.392 1517
0.799 6.926 1.448 2304
0.776 6.725 1.410 2114
0.799 6.929 1.428 2584
0.845 7.324 1.502 2081
0.818 7.088 1.436 2512
0.793 6.879 1.398 2101
0.819 7.099 1.417 2875
0.853 7.393 1.471 2226
0.820 7.111 1.398 2712
0.854 7.405 1.450 1967
0.888 7.695 1.479 1943
0.821 7.114 1.377 1719
0.869 7.537 1.429 1739
0.887 7.692 1.455 1540
0.870 7.540 1.407 2170
0.888 7.695 1.433 1990
0.889 7.707 1.412 2929
0.872 7.559 1.387 2396
0.889 7.711 1.389 3701
0.968 8.394 1.501 1809
0.890 7.714 1.367 3693
0.969 8.398 1.476 1933
0.891 7.725 1.345 2771
0.964 8.355 1.444 1806
0.964 8.359 1.420 1946
1.011 8.763 1.482 1266
1.061 9.202 1.523 1999
1.010 8.759 1.455 1583
1.060 9.191 1.493 2810
1.005 8.716 1.423 1528
1.061 9.202 1.468 2212
1.036 8.984 1.436 1278
1.063 9.214 1.442 2260
1.032 8.949 1.404 1352
1.063 9.218 1.415 2790
1.036 8.984 1.382 1190
1.064 9.229 1.389 2560
1.065 9.233 1.362 1861
0.260 2.209 1.694 3726
0.274 2.331 1.782 1590
0.260 2.214 1.688 7452
0.275 2.335 1.775 3180
0.261 2.218 1.682 7452
0.275 2.340 1.768 3180
0.272 2.313 1.739 6169
0.258 2.190 1.652 2482
0.272 2.311 1.728 7417
0.274 2.328 1.730 8661
0.259 2.206 1.644 1405
0.275 2.339 1.728 10528
0.261 2.216 1.642 1298
0.276 2.344 1.721 10528
0.275 2.342 1.710 9508
0.290 2.465 1.795 1120
0.275 2.340 1.699 8704
0.290 2.464 1.783 1707
0.276 2.351 1.697 7115
0.291 2.475 1.781 1803
0.279 2.375 1.703 5885
0.277 2.360 1.683 6801
0.292 2.484 1.766 3106
0.278 2.365 1.676 7971
0.293 2.489 1.759 4023
0.279 2.376 1.674 8287
0.294 2.500 1.756 3397
0.281 2.387 1.671 8935
0.295 2.512 1.754 3632
0.280 2.384 1.660 8872
0.295 2.510 1.742 4568
0.291 2.475 1.709 8836
0.276 2.349 1.628 2734
0.292 2.486 1.706 12160
0.277 2.360 1.625 2769
0.292 2.484 1.695 11615
0.277 2.358 1.614 1441
0.292 2.482 1.683 11227
0.295 2.506 1.689 11441
0.297 2.524 1.690 12924
0.298 2.535 1.687 11562
0.299 2.546 1.684 10703
0.314 2.674 1.763 1298
0.300 2.551 1.677 8007
0.315 2.678 1.755 1500
0.300 2.555 1.669 5312
0.315 2.683 1.747 1702
0.302 2.566 1.666 6353
0.317 2.694 1.744 1401
0.303 2.578 1.663 7663
0.321 2.733 1.756 1344
0.304 2.582 1.655 6653
0.323 2.744 1.753 1377
0.305 2.593 1.652 5779
0.324 2.755 1.749 1477
0.305 2.598 1.644 4655
0.321 2.726 1.721 1667
0.315 2.683 1.685 5233
0.316 2.688 1.677 4524
0.333 2.831 1.761 2420
0.333 2.835 1.752 3901
0.318 2.706 1.677 3321
0.335 2.847 1.748 5724
0.319 2.717 1.673 2945
0.335 2.851 1.740 8619
0.320 2.722 1.666 2942
0.336 2.856 1.732 9575
0.320 2.726 1.658 3084
0.336 2.861 1.723 8537
0.321 2.730 1.650 2897
0.336 2.858 1.711 7646
0.321 2.728 1.638 2446
0.337 2.870 1.707 7205
0.322 2.739 1.634 2041
0.341 2.902 1.714 8386
0.326 2.771 1.641 2815
0.341 2.900 1.702 10590
0.325 2.768 1.630 2943
0.340 2.890 1.686 13334
0.324 2.759 1.614 2102
0.340 2.895 1.677 13165
0.356 3.026 1.749 1833
0.342 2.906 1.673 11030
0.357 3.038 1.744 2162
0.345 2.938 1.679 10434
0.346 2.943 1.671 10179
0.362 3.075 1.741 1167
0.346 2.947 1.662 10875
0.362 3.080 1.732 1804
0.347 2.952 1.654 11826
0.363 3.084 1.723 2092
0.348 2.963 1.649 9483
0.364 3.096 1.718 2693
0.351 2.981 1.648 5230
0.366 3.114 1.716 2850
0.363 3.091 1.693 4181
0.348 2.958 1.625 2120
0.360 3.060 1.666 4933
0.360 3.065 1.657 7438
0.369 3.139 1.684 8725
0.353 3.006 1.617 2484
0.371 3.158 1.682 9716
0.356 3.024 1.615 2875
0.373 3.177 1.679 11013
0.358 3.042 1.613 1889
0.376 3.195 1.677 10907
0.360 3.061 1.611 1212
0.378 3.214 1.675 11117
0.362 3.079 1.609 2241
0.379 3.225 1.669 10108
0.363 3.091 1.604 3680
