-0.262 3.801 1.689 1057
-0.253 3.674 1.624 5043
-0.263 3.813 1.681 1044
-0.254 3.686 1.616 5179
-0.264 3.825 1.673 1169
-0.255 3.698 1.609 5105
-0.265 3.837 1.665 1704
-0.257 3.731 1.610 4792
-0.260 3.765 1.611 7066
-0.260 3.776 1.603 10567
-0.261 3.781 1.592 10168
-0.260 3.778 1.578 7117
-0.270 3.918 1.632 3903
-0.270 3.922 1.621 8734
-0.261 3.782 1.567 4891
-0.272 3.941 1.615 11148
-0.261 3.786 1.556 3417
-0.272 3.953 1.607 9141
-0.261 3.790 1.545 2061
-0.272 3.949 1.592 6494
-0.282 4.090 1.645 1168
-0.272 3.946 1.578 7034
-0.282 4.087 1.630 2198
-0.274 3.980 1.578 9778
-0.284 4.121 1.629 1253
-0.274 3.977 1.564 10602
-0.284 4.118 1.615 2415
-0.275 3.996 1.557 10082
-0.285 4.137 1.608 3396
-0.279 4.045 1.562 8465
-0.289 4.186 1.612 1248
-0.285 4.138 1.582 6150
-0.275 3.989 1.529 4459
-0.286 4.150 1.572 7195
-0.276 4.008 1.523 5011
-0.280 4.064 1.529 8313
-0.290 4.206 1.579 3492
-0.288 4.173 1.554 8110
-0.278 4.031 1.505 4135
-0.289 4.192 1.547 11121
-0.279 4.050 1.498 3186
-0.289 4.196 1.534 8609
-0.279 4.054 1.487 2299
-0.294 4.260 1.542 5712
-0.284 4.118 1.495 3754
-0.294 4.272 1.532 5467
-0.285 4.129 1.485 3193
-0.297 4.306 1.530 5129
-0.287 4.163 1.483 2676
-0.297 4.310 1.518 7652
-0.297 4.306 1.503 8451
-0.297 4.310 1.490 5638
-0.297 4.314 1.478 5248
-0.307 4.457 1.523 1140
-0.298 4.326 1.468 5777
-0.308 4.469 1.512 1313
-0.299 4.337 1.457 3535
-0.309 4.480 1.502 1178
-0.305 4.424 1.470 2923
-0.295 4.280 1.426 1139
-0.307 4.451 1.464 4507
-0.306 4.439 1.447 4879
-0.306 4.443 1.434 3560
-0.316 4.587 1.477 1346
-0.309 4.477 1.430 4364
-0.344 4.985 1.578 1083
-0.311 4.511 1.426 5628
-0.350 5.080 1.590 1793
-0.312 4.523 1.415 4520
-0.352 5.107 1.582 2580
-0.353 5.127 1.572 4752
-0.313 4.534 1.404 3641
-0.354 5.131 1.557 6595
-0.314 4.560 1.397 2076
-0.354 5.135 1.542 6233
-0.364 5.280 1.582 1373
-0.358 5.200 1.544 4226
-0.368 5.345 1.583 1706
-0.358 5.196 1.527 3980
-0.370 5.364 1.572 2288
-0.374 5.422 1.571 4547
-0.363 5.269 1.530 3629
-0.374 5.418 1.553 4668
-0.363 5.266 1.513 2271
-0.377 5.468 1.549 4810
-0.367 5.323 1.511 2288
-0.379 5.503 1.541 4603
-0.368 5.342 1.500 2301
-0.388 5.630 1.556 4759
-0.378 5.484 1.519 3453
-0.388 5.634 1.540 7086
-0.378 5.488 1.503 3214
-0.390 5.653 1.527 6105
-0.379 5.500 1.489 2263
-0.392 5.680 1.517 6522
-0.379 5.496 1.472 1128
-0.392 5.692 1.502 4192
-0.402 5.838 1.537 1968
-0.395 5.726 1.493 3416
-0.405 5.872 1.528 2324
-0.401 5.823 1.498 4279
-0.391 5.677 1.464 1806
-0.402 5.827 1.481 3976
-0.412 5.973 1.515 1998
-0.410 5.946 1.491 4050
-0.400 5.800 1.457 2020
-0.411 5.965 1.477 2420
-0.401 5.819 1.444 1180
-0.415 6.023 1.472 2792
-0.425 6.170 1.504 1570
-0.423 6.135 1.478 3004
-0.409 5.934 1.434 2183
-0.422 6.123 1.457 2521
-0.410 5.946 1.418 1512
-0.421 6.112 1.436 2577
-0.440 6.382 1.494 1741
-0.440 6.378 1.474 3673
-0.426 6.177 1.431 3216
-0.427 6.189 1.415 4647
-0.439 6.374 1.453 4567
-0.441 6.394 1.438 3530
-0.427 6.192 1.397 3362
-0.442 6.405 1.421 4194
-0.461 6.692 1.479 2202
-0.442 6.409 1.403 4971
-0.459 6.664 1.453 2017
-0.443 6.420 1.385 3858
-0.461 6.684 1.437 2619
-0.470 6.819 1.443 3481
-0.460 6.672 1.415 2316
-0.470 6.815 1.422 2583
-0.484 7.017 1.460 1463
-0.477 6.920 1.421 2370
-0.492 7.130 1.460 2237
-0.492 7.141 1.441 3272
-0.477 6.924 1.401 1473
-0.493 7.153 1.421 2564
-0.483 7.005 1.395 1517
-0.501 7.265 1.420 2935
-0.491 7.118 1.394 1254
-0.503 7.292 1.403 2966
-0.516 7.487 1.437 1969
-0.516 7.491 1.415 2533
-0.505 7.319 1.386 2347
-0.509 7.378 1.374 1615
-0.519 7.526 1.399 1269
-0.529 7.669 1.400 1843
-0.539 7.817 1.425 1325
-0.528 7.665 1.376 2233
-0.539 7.813 1.401 1503
-0.536 7.778 1.372 2135
-0.551 7.996 1.406 1969
-0.536 7.782 1.349 2206
-0.552 8.000 1.383 1817
-0.542 7.855 1.337 3191
-0.580 8.410 1.422 1204
-0.541 7.851 1.313 3006
-0.565 8.202 1.366 1687
-0.565 8.190 1.340 1755
-0.541 7.854 1.290 1476
-0.565 8.202 1.317 1297
-0.576 8.358 1.340 1248
-0.577 8.369 1.317 1497
-0.597 8.666 1.359 1375
-0.597 8.662 1.332 1962
-0.631 9.155 1.401 1206
-0.597 8.666 1.307 1753
-0.613 8.885 1.337 1346
-0.613 8.896 1.312 1463
-0.633 9.186 1.351 1166
-0.623 9.040 1.305 1363
-0.613 8.892 1.285 1299
-0.630 9.146 1.291 1310
-0.646 9.373 1.320 1274
-0.649 9.408 1.297 1720
-0.630 9.141 1.264 1553
-0.649 9.411 1.269 1705
-0.630 9.136 1.236 1166
-0.150 2.264 1.727 4322
-0.142 2.142 1.639 1075
-0.151 2.269 1.720 8644
-0.143 2.147 1.633 2150
-0.151 2.274 1.714 8644
-0.143 2.151 1.627 2150
-0.151 2.278 1.707 8117
-0.159 2.401 1.794 2321
-0.152 2.283 1.701 7590
-0.160 2.406 1.787 3028
-0.152 2.294 1.699 6570
-0.161 2.417 1.784 2810
-0.153 2.298 1.692 5703
-0.161 2.422 1.778 3182
-0.153 2.303 1.685 5703
-0.161 2.427 1.771 3182
-0.153 2.307 1.679 4653
-0.161 2.431 1.764 3661
-0.158 2.384 1.721 6185
-0.150 2.260 1.637 1494
-0.161 2.428 1.741 6274
-0.153 2.303 1.657 2702
-0.162 2.439 1.738 8210
-0.154 2.314 1.655 1997
-0.163 2.457 1.740 7942
-0.155 2.332 1.657 1995
-0.164 2.468 1.737 8659
-0.156 2.343 1.654 1939
-0.164 2.473 1.730 8143
-0.156 2.347 1.648 1535
-0.165 2.477 1.723 7065
-0.156 2.352 1.641 1131
-0.164 2.469 1.708 6592
-0.172 2.594 1.789 1221
-0.164 2.473 1.701 5737
-0.173 2.599 1.782 1504
-0.169 2.551 1.740 4885
-0.161 2.424 1.659 1006
-0.169 2.549 1.729 7872
-0.169 2.547 1.717 11019
-0.170 2.558 1.714 12241
-0.170 2.563 1.707 13534
-0.170 2.567 1.700 11399
-0.171 2.578 1.696 9334
-0.175 2.637 1.722 8545
-0.167 2.509 1.644 1442
-0.176 2.648 1.719 11391
-0.167 2.520 1.640 1734
-0.176 2.653 1.711 9824
-0.168 2.524 1.633 1234
-0.176 2.651 1.699 8309
-0.176 2.648 1.688 5047
-0.178 2.687 1.700 2263
-0.181 2.719 1.709 3661
-0.181 2.723 1.701 5253
-0.181 2.728 1.693 6479
-0.182 2.739 1.689 7777
-0.182 2.744 1.681 6438
-0.184 2.769 1.685 7391
-0.194 2.920 1.771 1242
-0.184 2.773 1.677 8937
-0.194 2.918 1.759 2024
-0.184 2.778 1.669 9235
-0.194 2.922 1.751 3173
-0.185 2.789 1.665 9614
-0.194 2.927 1.742 3985
-0.185 2.786 1.653 7032
-0.195 2.932 1.734 3379
-0.185 2.784 1.641 4414
-0.194 2.915 1.714 3037
-0.186 2.802 1.641 4013
-0.195 2.934 1.713 3112
-0.197 2.959 1.716 5031
-0.188 2.827 1.644 4030
-0.196 2.957 1.704 6717
-0.188 2.825 1.632 3103
-0.198 2.975 1.703 6041
-0.189 2.843 1.632 2851
-0.201 3.022 1.716 7358
-0.192 2.889 1.646 3163
-0.200 3.012 1.700 9255
-0.191 2.880 1.630 2643
-0.200 3.017 1.692 12413
-0.192 2.884 1.622 1584
-0.201 3.021 1.683 13117
-0.202 3.040 1.682 10461
-0.201 3.023 1.662 6496
-0.210 3.157 1.731 3377
-0.208 3.126 1.704 7936
-0.199 2.993 1.635 4371
-0.208 3.131 1.695 9028
-0.199 2.997 1.627 3377
-0.208 3.135 1.686 8865
-0.199 3.001 1.618 1653
-0.206 3.098 1.655 8744
-0.215 3.232 1.722 1252
-0.209 3.152 1.671 8362
-0.209 3.149 1.658 9495
-0.209 3.153 1.649 10055
-0.210 3.165 1.644 9419
-0.223 3.364 1.740 1152
-0.214 3.226 1.662 9954
-0.223 3.361 1.727 2469
-0.215 3.238 1.656 9310
-0.224 3.373 1.721 3005
-0.216 3.256 1.654 6492
-0.225 3.392 1.718 3209
-0.218 3.282 1.654 6098
-0.227 3.418 1.718 2717
-0.219 3.301 1.652 6032
-0.228 3.437 1.715 1861
-0.220 3.313 1.645 5983
-0.231 3.478 1.722 1407
-0.220 3.317 1.636 6205
-0.230 3.468 1.705 2073
-0.219 3.300 1.616 8916
-0.228 3.436 1.679 3187
-0.220 3.311 1.610 8826
-0.232 3.498 1.695 3498
-0.220 3.315 1.601 7412
-0.233 3.510 1.688 4234
-0.221 3.327 1.594 4802
-0.234 3.522 1.681 4259
-0.237 3.570 1.690 3770
-0.225 3.389 1.610 3356
-0.233 3.509 1.651 5734
-0.224 3.372 1.591 1790
-0.234 3.528 1.647 9424
-0.225 3.390 1.588 1355
-0.235 3.540 1.640 10681
-0.226 3.402 1.581 1720
-0.235 3.537 1.627 8790
-0.226 3.399 1.568 1538
-0.240 3.606 1.645 7334
-0.230 3.468 1.586 1961
-0.242 3.640 1.647 5637
-0.233 3.502 1.588 2300
-0.243 3.652 1.639 7445
-0.233 3.513 1.581 1435
-0.243 3.656 1.629 7149
-0.252 3.795 1.686 1071
-0.244 3.675 1.624 4259
-0.245 3.694 1.619 3638
-0.255 3.833 1.676 1002
-0.247 3.713 1.615 3913
-0.256 3.852 1.671 1063
-0.250 3.769 1.624 5245
-0.251 3.773 1.614 7904
-0.251 3.777 1.603 10400
-0.252 3.789 1.595 9717
-0.251 3.778 1.578 6643
-0.260 3.918 1.632 3450
-0.261 3.923 1.621 7506
-0.251 3.782 1.567 4374
-0.262 3.942 1.615 9553
-0.251 3.787 1.556 2961
-0.263 3.953 1.607 7812
-0.252 3.791 1.545 2022
-0.262 3.943 1.590 5582
-0.253 3.802 1.537 1317
-0.262 3.940 1.576 6175
-0.271 4.080 1.628 2216
-0.264 3.973 1.575 8993
-0.273 4.114 1.627 1215
-0.264 3.970 1.561 9942
-0.273 4.111 1.612 2009
-0.265 3.997 1.557 8959
-0.275 4.138 1.608 2869
-0.268 4.038 1.559 7294
-0.278 4.179 1.610 1503
-0.275 4.146 1.584 5759
-0.265 3.997 1.532 4413
-0.276 4.158 1.575 6775
-0.267 4.016 1.525 4374
-0.276 4.155 1.560 6745
-0.267 4.013 1.511 3355
-0.277 4.174 1.554 9141
-0.268 4.032 1.505 3758
-0.278 4.193 1.547 12243
-0.269 4.051 1.498 2664
-0.279 4.204 1.537 9362
-0.270 4.062 1.489 1835
-0.281 4.238 1.535 5927
-0.272 4.096 1.487 2010
-0.283 4.257 1.528 5224
-0.273 4.115 1.480 1795
-0.286 4.307 1.530 4635
-0.277 4.164 1.483 2379
-0.286 4.311 1.518 7357
-0.277 4.168 1.471 1018
-0.286 4.307 1.503 8515
-0.304 4.570 1.587 1122
-0.286 4.311 1.490 5987
-0.304 4.582 1.576 1640
-0.287 4.315 1.478 5882
-0.296 4.458 1.523 1451
-0.287 4.326 1.468 6007
-0.297 4.470 1.512 1612
-0.288 4.338 1.457 3659
-0.298 4.481 1.502 1248
-0.294 4.425 1.470 2790
-0.284 4.281 1.426 1095
-0.296 4.451 1.464 4428
-0.295 4.440 1.447 4753
-0.285 4.296 1.404 1086
-0.294 4.429 1.430 3509
-0.304 4.573 1.472 1396
-0.299 4.508 1.439 3843
-0.337 5.069 1.603 1065
-0.300 4.520 1.428 4860
-0.338 5.089 1.593 1982
-0.301 4.531 1.417 4039
-0.339 5.108 1.582 2702
-0.340 5.120 1.569 4616
-0.302 4.542 1.406 3174
-0.340 5.124 1.555 6454
-0.303 4.561 1.397 1745
-0.341 5.136 1.542 6050
-0.351 5.281 1.582 1183
-0.347 5.231 1.552 4053
-0.338 5.087 1.512 1734
-0.349 5.251 1.541 3987
-0.361 5.441 1.592 2043
-0.361 5.430 1.573 3987
-0.351 5.278 1.532 3914
-0.361 5.442 1.559 4273
-0.350 5.274 1.515 2115
-0.363 5.462 1.547 4714
-0.353 5.316 1.509 2081
-0.366 5.504 1.541 5215
-0.355 5.343 1.500 2331
-0.367 5.523 1.529 4791
-0.376 5.669 1.566 3000
-0.374 5.635 1.540 4905
-0.365 5.489 1.503 3049
-0.376 5.662 1.529 5022
-0.364 5.485 1.486 2124
-0.378 5.689 1.519 6307
-0.365 5.497 1.472 1070
-0.379 5.700 1.504 3612
-0.388 5.846 1.539 1880
-0.384 5.789 1.508 3249
-0.387 5.824 1.498 4065
-0.377 5.677 1.464 1477
-0.387 5.828 1.481 3978
-0.397 5.974 1.515 1670
-0.394 5.939 1.489 3631
-0.385 5.793 1.455 1807
-0.399 6.005 1.486 2528
-0.389 5.858 1.453 1535
-0.400 6.024 1.472 3216
-0.390 5.878 1.439 1528
-0.407 6.128 1.476 2943
-0.394 5.935 1.434 2637
-0.406 6.109 1.454 2846
-0.396 5.962 1.422 1808
-0.405 6.105 1.434 2869
-0.424 6.383 1.494 1683
-0.424 6.379 1.474 3487
-0.411 6.194 1.434 2470
-0.423 6.375 1.453 4311
-0.411 6.190 1.415 3765
-0.424 6.387 1.437 3136
-0.411 6.186 1.395 2841
-0.425 6.406 1.421 4346
-0.444 6.693 1.479 2265
-0.426 6.410 1.403 5500
-0.442 6.658 1.452 2150
-0.426 6.421 1.385 3873
-0.444 6.685 1.437 2689
-0.453 6.821 1.443 2959
-0.443 6.673 1.415 2334
-0.454 6.832 1.425 2419
-0.466 7.018 1.460 1532
-0.459 6.913 1.419 2705
-0.474 7.131 1.460 2477
-0.474 7.142 1.441 3688
-0.460 6.925 1.401 1891
-0.475 7.146 1.420 2948
-0.461 6.936 1.382 1655
-0.483 7.267 1.420 2837
-0.473 7.119 1.394 1535
-0.484 7.294 1.403 2506
-0.497 7.488 1.437 2052
-0.498 7.492 1.415 2539
-0.487 7.328 1.387 2001
-0.490 7.379 1.374 1512
-0.516 7.776 1.441 1407
-0.517 7.788 1.419 1853
-0.507 7.640 1.395 1292
-0.509 7.667 1.376 2188
-0.530 7.978 1.427 1692
-0.531 7.998 1.406 2177
-0.509 7.662 1.353 1885
-0.523 7.869 1.362 2079
-0.532 8.017 1.386 1743
-0.522 7.857 1.337 3212
-0.532 8.005 1.360 1171
-0.522 7.852 1.313 2961
-0.544 8.196 1.365 1588
-0.544 8.184 1.339 1629
-0.522 7.864 1.291 1506
-0.578 8.696 1.388 1634
-0.544 8.195 1.316 1360
-0.578 8.707 1.364 1840
-0.556 8.371 1.317 1550
-0.576 8.679 1.335 2092
-0.555 8.358 1.290 1198
-0.577 8.691 1.310 1955
-0.591 8.894 1.338 1120
-0.610 9.179 1.350 1276
-0.591 8.905 1.313 1209
-0.610 9.191 1.324 1440
-0.601 9.042 1.305 1186
-0.610 9.186 1.296 1265
-0.623 9.382 1.321 1109
-0.625 9.409 1.297 1523
-0.607 9.143 1.264 1437
-0.625 9.413 1.269 1508
-0.607 9.138 1.236 1124
-0.145 2.265 1.727 3737
-0.137 2.143 1.639 1100
-0.146 2.269 1.720 7474
-0.138 2.147 1.633 2200
-0.146 2.274 1.714 7474
-0.138 2.151 1.627 2200
-0.146 2.279 1.707 7010
-0.154 2.401 1.794 2570
-0.146 2.283 1.701 6546
-0.154 2.406 1.787 3321
-0.147 2.288 1.694 5165
-0.155 2.411 1.780 3178
-0.147 2.299 1.692 3824
-0.155 2.422 1.778 3037
-0.148 2.303 1.685 3824
-0.156 2.427 1.771 3037
-0.153 2.386 1.732 4937
-0.145 2.262 1.648 1339
-0.153 2.384 1.721 6898
-0.145 2.260 1.637 1186
-0.154 2.402 1.723 6709
-0.146 2.277 1.639 1293
-0.156 2.439 1.738 8674
-0.148 2.314 1.655 1613
-0.158 2.457 1.740 8768
-0.150 2.332 1.657 1858
-0.158 2.468 1.737 9999
-0.150 2.343 1.654 1973
-0.159 2.473 1.730 9240
-0.151 2.347 1.648 1514
-0.158 2.471 1.719 7808
-0.158 2.469 1.708 7302
-0.166 2.595 1.789 1133
-0.159 2.473 1.701 5765
-0.167 2.600 1.782 1436
-0.164 2.551 1.740 5504
-0.163 2.549 1.729 7993
-0.163 2.547 1.717 10588
-0.164 2.552 1.710 11502
-0.164 2.556 1.703 12416
-0.165 2.568 1.700 10755
-0.165 2.572 1.692 9129
-0.173 2.700 1.771 1287
-0.166 2.583 1.689 9206
-0.174 2.711 1.767 1976
-0.170 2.649 1.719 12074
-0.162 2.520 1.640 1708
-0.170 2.653 1.711 10760
-0.162 2.525 1.633 1206
-0.170 2.658 1.703 9445
-0.172 2.676 1.704 5974
-0.173 2.694 1.704 3338
-0.174 2.719 1.709 4014
-0.175 2.730 1.705 4870
-0.167 2.601 1.629 1077
-0.175 2.735 1.697 6175
-0.176 2.739 1.689 7480
-0.176 2.737 1.677 6456
-0.178 2.769 1.685 7733
-0.187 2.920 1.771 1037
-0.178 2.774 1.677 9671
-0.187 2.918 1.759 1761
-0.179 2.785 1.673 9806
-0.187 2.923 1.751 3024
-0.179 2.789 1.665 10076
-0.188 2.927 1.742 3969
-0.179 2.787 1.653 7361
-0.187 2.918 1.726 3652
-0.179 2.784 1.641 4920
-0.187 2.916 1.714 3694
-0.185 2.879 1.683 4546
-0.176 2.747 1.611 2113
-0.188 2.939 1.705 4964
-0.180 2.807 1.633 3283
-0.190 2.957 1.704 6535
-0.181 2.825 1.632 3231
-0.191 2.976 1.703 5760
-0.182 2.843 1.632 2854
-0.194 3.022 1.716 7230
-0.185 2.890 1.646 3193
-0.193 3.013 1.700 9005
-0.185 2.880 1.630 2775
-0.193 3.017 1.692 12259
-0.185 2.884 1.622 1632
-0.194 3.029 1.687 13303
-0.186 2.896 1.617 1011
-0.195 3.040 1.682 11222
-0.195 3.038 1.669 7480
-0.203 3.172 1.738 2528
-0.201 3.127 1.704 9195
-0.192 2.993 1.635 4393
-0.201 3.131 1.695 10394
-0.192 2.997 1.627 3358
-0.201 3.129 1.682 9918
-0.192 2.995 1.615 1327
-0.199 3.098 1.655 9586
-0.207 3.232 1.722 1119
-0.202 3.152 1.671 8751
-0.193 3.017 1.604 1043
-0.202 3.156 1.662 10192
-0.202 3.154 1.649 10972
-0.203 3.165 1.644 9898
-0.216 3.364 1.740 1261
-0.206 3.220 1.659 10110
-0.216 3.362 1.727 2552
-0.207 3.231 1.653 9265
-0.216 3.367 1.717 3295
-0.209 3.257 1.654 6655
-0.218 3.393 1.718 3507
-0.211 3.283 1.654 6778
-0.219 3.419 1.718 3162
-0.211 3.294 1.648 6399
-0.220 3.430 1.712 2339
-0.212 3.313 1.645 5885
-0.223 3.478 1.722 1591
-0.212 3.310 1.633 5982
-0.223 3.475 1.708 2400
-0.212 3.300 1.616 8267
-0.222 3.466 1.692 3848
-0.212 3.304 1.607 8598
-0.223 3.470 1.682 4188
-0.213 3.316 1.601 7454
-0.222 3.467 1.669 4051
-0.213 3.320 1.591 5060
-0.226 3.530 1.684 4166
-0.224 3.491 1.655 4852
-0.215 3.353 1.594 2391
-0.225 3.510 1.651 7367
-0.216 3.372 1.591 1474
-0.227 3.536 1.651 10042
-0.218 3.398 1.591 1257
-0.227 3.547 1.644 11072
-0.219 3.409 1.584 1652
-0.228 3.552 1.633 8501
-0.219 3.414 1.574 1754
-0.231 3.600 1.642 6750
-0.221 3.440 1.574 1775
-0.233 3.641 1.647 5537
-0.225 3.502 1.588 2369
-0.235 3.660 1.642 8419
-0.226 3.521 1.584 1692
-0.235 3.664 1.632 8090
-0.226 3.525 1.574 1033
-0.236 3.683 1.627 4046
-0.240 3.738 1.637 3265
-0.240 3.750 1.629 4342
-0.242 3.769 1.624 7040
-0.242 3.773 1.614 9111
-0.243 3.785 1.606 10338
-0.243 3.789 1.595 9514
-0.252 3.929 1.649 1092
-0.242 3.779 1.578 6177
-0.251 3.919 1.632 2890
-0.252 3.931 1.624 5904
-0.243 3.783 1.567 3873
-0.253 3.942 1.615 7557
-0.243 3.787 1.556 2718
-0.253 3.947 1.604 6231
-0.244 3.799 1.548 2114
-0.251 3.914 1.579 5321
-0.260 4.054 1.631 1343
-0.251 3.918 1.567 5768
-0.260 4.059 1.619 1995
-0.255 3.974 1.575 8084
-0.246 3.833 1.523 1068
-0.255 3.971 1.561 8981
-0.264 4.112 1.612 1418
-0.256 3.990 1.555 7973
-0.265 4.131 1.606 2264
-0.259 4.031 1.557 6654
-0.268 4.172 1.607 1633
-0.260 4.050 1.550 5368
-0.269 4.192 1.600 2430
-0.267 4.159 1.575 5470
-0.258 4.017 1.525 3988
-0.266 4.155 1.560 6195
-0.257 4.013 1.511 2832
-0.268 4.174 1.554 9678
-0.259 4.032 1.505 3233
-0.269 4.193 1.547 12896
-0.260 4.051 1.498 2105
-0.270 4.205 1.537 9678
-0.280 4.362 1.590 1611
-0.271 4.232 1.532 5964
-0.281 4.381 1.582 2221
-0.272 4.243 1.523 4860
-0.281 4.386 1.570 2238
-0.270 4.217 1.500 3740
-0.280 4.360 1.547 2630
-0.276 4.304 1.515 6194
-0.276 4.308 1.503 7621
-0.293 4.571 1.587 2099
-0.276 4.312 1.490 5971
-0.294 4.583 1.576 2836
-0.277 4.316 1.478 6181
-0.295 4.594 1.565 1894
-0.277 4.327 1.468 5627
-0.287 4.470 1.512 2145
-0.278 4.331 1.455 3681
-0.287 4.474 1.499 1725
-0.279 4.350 1.447 3479
-0.288 4.493 1.491 1583
-0.285 4.452 1.464 3860
-0.276 4.308 1.421 1388
-0.282 4.403 1.436 4039
-0.285 4.452 1.436 3104
-0.276 4.308 1.394 1470
-0.291 4.539 1.448 3132
-0.324 5.055 1.598 1286
-0.291 4.535 1.432 3611
-0.326 5.082 1.590 1913
-0.291 4.539 1.419 2866
-0.327 5.101 1.580 2387
-0.328 5.121 1.569 4246
-0.291 4.543 1.406 2201
-0.328 5.117 1.553 6574
-0.292 4.547 1.393 1464
-0.329 5.129 1.540 6274
-0.338 5.274 1.580 1102
-0.335 5.225 1.550 3843
-0.326 5.080 1.510 2400
-0.336 5.244 1.539 3486
-0.349 5.435 1.590 1797
-0.338 5.279 1.532 3761
-0.349 5.439 1.575 3379
-0.350 5.451 1.561 3770
-0.340 5.298 1.521 2036
-0.351 5.470 1.549 4717
-0.341 5.325 1.511 2404
-0.353 5.505 1.541 5821
-0.362 5.650 1.579 2522
-0.354 5.516 1.527 5163
-0.363 5.662 1.564 3082
-0.352 5.482 1.501 3023
-0.361 5.635 1.540 2989
-0.365 5.693 1.537 4471
-0.352 5.486 1.486 1907
-0.365 5.697 1.520 5623
-0.369 5.747 1.515 4184
-0.371 5.782 1.506 3610
-0.373 5.817 1.496 3747
-0.382 5.963 1.531 1157
-0.373 5.821 1.479 4022
-0.383 5.967 1.513 1617
-0.380 5.932 1.487 2951
-0.371 5.786 1.454 1467
-0.382 5.959 1.475 2700
-0.373 5.813 1.442 1086
-0.386 6.025 1.472 3307
-0.377 5.878 1.439 1622
-0.384 5.990 1.446 3242
-0.394 6.137 1.478 2797
-0.392 6.110 1.454 3203
-0.382 5.963 1.422 2186
-0.392 6.106 1.434 3098
-0.409 6.376 1.492 1433
-0.409 6.380 1.474 2889
-0.392 6.110 1.416 2067
-0.409 6.376 1.453 3652
-0.397 6.198 1.416 2844
-0.409 6.380 1.435 2986
-0.397 6.187 1.395 2357
-0.410 6.399 1.420 4590
-0.429 6.694 1.479 2258
-0.411 6.403 1.401 5537
-0.429 6.690 1.458 2380
-0.411 6.415 1.384 3498
-0.429 6.686 1.437 2749
-0.430 6.705 1.421 2683
-0.439 6.853 1.449 1955
-0.443 6.903 1.438 2403
-0.431 6.717 1.403 1763
-0.444 6.922 1.421 2821
-0.458 7.140 1.461 2574
-0.458 7.144 1.441 3895
-0.444 6.918 1.399 2413
-0.458 7.147 1.420 3193
-0.444 6.930 1.381 2214
-0.466 7.268 1.420 2672
-0.457 7.120 1.394 1721
-0.468 7.303 1.404 2311
-0.480 7.489 1.437 2193
-0.481 7.493 1.415 2593
-0.471 7.345 1.390 2277
-0.473 7.372 1.372 1782
-0.499 7.777 1.441 1504
-0.500 7.797 1.421 1870
-0.490 7.649 1.396 1206
-0.492 7.676 1.378 2063
-0.512 7.987 1.428 1888
-0.513 7.999 1.406 2351
-0.492 7.671 1.354 1784
-0.505 7.870 1.362 2002
-0.514 8.018 1.386 1787
-0.504 7.858 1.337 2898
-0.513 8.006 1.360 1189
-0.504 7.854 1.313 2578
-0.522 8.135 1.355 1763
-0.524 8.170 1.336 1596
-0.505 7.873 1.293 1371
-0.557 8.689 1.387 2074
-0.542 8.455 1.353 1519
-0.558 8.701 1.363 2355
-0.536 8.364 1.316 1579
-0.557 8.688 1.336 2392
-0.536 8.360 1.290 1495
-0.557 8.692 1.310 2321
-0.588 9.162 1.374 1137
-0.559 8.711 1.287 1558
-0.589 9.181 1.350 1339
-0.589 9.184 1.323 1487
-0.559 8.714 1.262 1218
-0.590 9.196 1.297 1267
-0.559 8.717 1.237 1030
-0.586 9.144 1.264 1258
-0.603 9.411 1.297 1224
-0.604 9.414 1.269 1192
-0.586 9.132 1.235 1002
-0.140 2.265 1.727 3275
-0.133 2.143 1.639 1032
-0.140 2.270 1.720 6551
-0.133 2.147 1.633 2065
-0.141 2.274 1.714 6551
-0.133 2.152 1.627 2065
-0.141 2.279 1.707 6138
-0.149 2.402 1.794 2693
-0.147 2.374 1.764 5894
-0.139 2.251 1.678 3439
-0.147 2.379 1.757 4726
-0.139 2.256 1.671 2671
-0.147 2.377 1.746 3614
-0.138 2.234 1.647 1821
-0.147 2.382 1.739 3614
-0.140 2.258 1.654 1367
-0.147 2.380 1.728 5440
-0.147 2.384 1.721 7313
-0.149 2.402 1.723 7104
-0.151 2.440 1.738 8879
-0.143 2.315 1.655 1376
-0.152 2.457 1.740 9251
-0.144 2.332 1.657 1765
-0.153 2.469 1.737 10748
-0.145 2.343 1.654 1965
-0.153 2.473 1.730 9848
-0.145 2.348 1.648 1492
-0.153 2.471 1.719 8277
-0.153 2.469 1.708 7775
-0.160 2.595 1.789 1036
-0.153 2.467 1.696 5755
-0.160 2.593 1.778 1584
-0.158 2.552 1.740 5599
-0.158 2.550 1.729 7643
-0.158 2.547 1.717 9758
-0.158 2.552 1.710 10562
-0.158 2.557 1.703 11365
-0.158 2.561 1.695 10255
-0.159 2.566 1.688 9144
-0.167 2.694 1.767 1422
-0.160 2.584 1.689 9675
-0.168 2.712 1.767 1944
-0.164 2.649 1.719 12428
-0.156 2.521 1.640 1632
-0.164 2.654 1.711 11394
-0.156 2.525 1.633 1139
-0.164 2.658 1.703 10359
-0.166 2.676 1.704 7016
-0.167 2.694 1.704 4371
-0.168 2.713 1.705 4161
-0.169 2.731 1.705 4531
-0.169 2.735 1.697 5937
-0.169 2.740 1.689 7343
-0.170 2.744 1.681 6409
-0.171 2.769 1.685 7622
-0.172 2.774 1.677 9586
-0.180 2.918 1.759 1510
-0.172 2.785 1.673 9656
-0.181 2.923 1.751 2795
-0.173 2.790 1.665 9782
-0.181 2.921 1.738 3883
-0.172 2.787 1.653 7079
-0.180 2.919 1.726 3803
-0.178 2.875 1.691 5472
-0.170 2.743 1.619 3398
-0.178 2.879 1.683 5179
-0.170 2.748 1.611 2215
-0.181 2.932 1.701 4986
-0.173 2.800 1.629 2923
-0.183 2.958 1.704 6088
-0.175 2.826 1.632 3114
-0.184 2.976 1.703 5208
-0.176 2.844 1.632 2749
-0.187 3.023 1.716 6718
-0.178 2.883 1.642 3180
-0.186 3.013 1.700 8358
-0.178 2.881 1.630 2657
-0.187 3.018 1.692 11708
-0.178 2.885 1.622 1542
-0.187 3.029 1.687 13046
-0.179 2.896 1.617 1046
-0.188 3.034 1.678 11437
-0.196 3.167 1.747 1013
-0.188 3.045 1.673 8234
-0.197 3.179 1.741 2214
-0.194 3.134 1.707 10060
-0.186 3.001 1.639 5234
-0.194 3.132 1.695 11377
-0.185 2.998 1.627 3266
-0.194 3.129 1.682 10560
-0.185 2.995 1.615 1353
-0.192 3.098 1.655 9740
-0.200 3.233 1.722 1119
-0.195 3.152 1.671 8762
-0.187 3.018 1.604 1076
-0.195 3.157 1.662 10519
-0.195 3.154 1.649 11461
-0.196 3.166 1.644 9963
-0.208 3.365 1.740 1280
-0.199 3.213 1.655 9697
-0.208 3.362 1.727 2480
-0.199 3.224 1.649 8865
-0.208 3.367 1.717 3182
-0.200 3.229 1.640 6829
-0.209 3.379 1.711 3764
-0.203 3.283 1.654 7428
-0.211 3.419 1.718 3337
-0.204 3.295 1.648 6639
-0.212 3.431 1.712 2534
-0.204 3.306 1.642 5705
-0.213 3.443 1.705 1815
-0.204 3.304 1.629 5719
-0.215 3.476 1.708 2625
-0.204 3.301 1.616 7678
-0.214 3.466 1.692 4244
-0.204 3.305 1.607 8329
-0.214 3.463 1.679 4893
-0.205 3.316 1.601 7405
-0.214 3.468 1.669 4707
-0.205 3.321 1.591 5215
-0.215 3.472 1.659 4675
-0.215 3.484 1.652 6173
-0.207 3.347 1.591 2396
-0.217 3.510 1.651 8512
-0.208 3.365 1.588 1300
-0.219 3.536 1.651 10343
-0.210 3.398 1.591 1043
-0.219 3.548 1.644 11288
-0.211 3.410 1.584 1405
-0.220 3.560 1.636 8457
-0.212 3.421 1.577 1674
-0.223 3.600 1.642 6127
-0.213 3.447 1.577 1631
-0.226 3.648 1.650 5670
-0.217 3.510 1.591 2427
-0.226 3.660 1.642 9327
-0.218 3.521 1.584 1815
-0.227 3.664 1.632 8579
-0.218 3.526 1.574 1268
-0.230 3.720 1.642 4680
-0.221 3.581 1.585 1322
-0.231 3.732 1.634 4338
-0.222 3.592 1.578 1068
-0.232 3.751 1.629 5014
-0.233 3.762 1.622 8079
-0.233 3.774 1.614 9940
-0.234 3.786 1.606 10532
-0.235 3.797 1.598 9607
-0.234 3.779 1.578 5775
-0.242 3.919 1.632 2450
-0.243 3.931 1.624 4554
-0.234 3.783 1.567 3441
-0.244 3.943 1.615 5841
-0.235 3.802 1.562 2671
-0.244 3.947 1.604 5000
-0.235 3.807 1.551 2283
-0.242 3.914 1.579 5199
-0.251 4.055 1.631 1210
-0.242 3.918 1.567 5411
-0.251 4.059 1.619 1506
-0.246 3.975 1.575 7353
-0.237 3.834 1.523 1159
-0.246 3.971 1.561 7989
-0.254 4.112 1.612 1035
-0.247 3.990 1.555 7300
-0.255 4.132 1.606 1410
-0.247 4.002 1.546 6570
-0.256 4.143 1.596 2535
-0.250 4.051 1.550 5702
-0.259 4.192 1.600 1747
-0.252 4.070 1.544 6395
-0.260 4.211 1.593 1602
-0.252 4.081 1.535 6339
-0.261 4.223 1.584 2180
-0.258 4.175 1.554 9220
-0.249 4.033 1.505 2725
-0.259 4.194 1.547 12120
-0.251 4.052 1.498 1652
-0.260 4.206 1.537 9146
-0.270 4.363 1.590 1819
-0.261 4.225 1.530 5510
-0.271 4.390 1.585 2558
-0.261 4.221 1.515 4380
-0.270 4.364 1.562 2578
-0.261 4.218 1.500 3671
-0.270 4.360 1.547 2581
-0.266 4.304 1.515 4782
-0.282 4.552 1.595 1298
-0.267 4.316 1.505 6365
-0.283 4.572 1.587 2921
-0.270 4.365 1.507 5629
-0.283 4.576 1.574 3812
-0.267 4.324 1.480 5348
-0.284 4.595 1.565 2434
-0.268 4.328 1.468 4770
-0.276 4.471 1.512 2276
-0.267 4.324 1.453 3577
-0.276 4.467 1.497 1998
-0.269 4.343 1.445 3800
-0.277 4.486 1.489 1771
-0.270 4.362 1.437 3609
-0.279 4.506 1.480 2011
-0.271 4.381 1.429 3773
-0.280 4.525 1.472 1535
-0.270 4.369 1.412 2899
-0.281 4.536 1.461 1598
-0.281 4.540 1.448 2646
-0.304 4.919 1.559 1705
-0.281 4.536 1.432 2907
-0.304 4.916 1.542 2065
-0.312 5.041 1.563 2336
-0.281 4.540 1.419 2114
-0.316 5.106 1.565 4003
-0.281 4.544 1.406 1419
-0.317 5.118 1.553 6829
-0.278 4.502 1.380 1338
-0.317 5.122 1.538 6468
-0.279 4.505 1.367 1098
-0.322 5.202 1.544 3951
-0.313 5.058 1.504 2748
-0.322 5.207 1.529 3280
-0.331 5.351 1.568 2211
-0.327 5.287 1.534 3300
-0.336 5.440 1.575 2748
-0.338 5.459 1.563 3316
-0.328 5.306 1.523 2066
-0.339 5.478 1.551 4745
-0.330 5.333 1.513 2862
-0.340 5.506 1.541 5970
-0.349 5.651 1.579 2645
-0.341 5.517 1.527 5345
-0.350 5.663 1.564 3681
-0.350 5.667 1.548 3417
-0.339 5.483 1.501 3176
-0.352 5.694 1.537 4413
-0.339 5.487 1.486 1820
-0.353 5.706 1.522 5309
-0.344 5.560 1.487 1125
-0.355 5.748 1.515 4217
-0.364 5.894 1.550 1049
-0.358 5.783 1.506 3657
-0.349 5.637 1.471 1191
-0.360 5.818 1.496 3537
-0.351 5.671 1.462 1231
-0.360 5.822 1.479 4139
-0.369 5.968 1.513 1440
-0.361 5.833 1.464 2964
-0.370 5.979 1.498 1566
-0.368 5.945 1.472 2920
-0.377 6.091 1.505 1428
-0.371 5.995 1.465 3216
-0.380 6.142 1.498 1335
-0.370 5.991 1.446 3650
-0.380 6.138 1.478 2676
-0.377 6.103 1.452 3333
-0.368 5.956 1.420 2308
-0.378 6.107 1.434 3260
-0.387 6.254 1.466 1548
-0.378 6.111 1.416 2384
-0.394 6.373 1.472 2244
-0.394 6.370 1.452 2956
-0.384 6.207 1.418 2188
-0.395 6.381 1.435 2940
-0.407 6.575 1.475 1978
-0.396 6.400 1.420 4692
-0.414 6.695 1.479 2140
-0.396 6.404 1.401 5183
-0.414 6.691 1.458 2436
-0.396 6.408 1.382 3028
-0.413 6.671 1.434 2749
-0.414 6.698 1.419 2440
-0.424 6.861 1.451 1673
-0.427 6.912 1.439 2270
-0.415 6.718 1.403 1667
-0.428 6.923 1.421 2881
-0.442 7.141 1.461 2465
-0.442 7.152 1.442 3717
-0.428 6.927 1.401 2751
-0.442 7.148 1.420 3052
-0.429 6.931 1.381 2382
-0.450 7.269 1.420 2468
-0.440 7.121 1.394 1714
-0.463 7.490 1.437 2283
-0.453 7.319 1.407 2171
-0.464 7.502 1.416 2664
-0.454 7.346 1.390 2489
-0.456 7.373 1.372 1863
-0.465 7.521 1.397 1647
-0.482 7.798 1.421 1855
-0.473 7.650 1.396 1008
-0.494 7.989 1.428 1859
-0.484 7.833 1.403 1816
-0.495 8.000 1.406 2275
-0.475 7.680 1.355 1601
-0.487 7.871 1.362 1894
-0.496 8.019 1.386 1747
-0.486 7.859 1.337 2533
-0.514 8.304 1.405 1127
-0.486 7.855 1.313 2182
-0.503 8.136 1.355 1777
-0.504 8.147 1.333 1730
-0.523 8.460 1.379 1520
-0.537 8.690 1.387 2436
-0.523 8.456 1.353 1871
-0.538 8.702 1.363 2703
-0.517 8.358 1.314 1602
-0.537 8.690 1.336 2483
-0.517 8.353 1.289 1687
-0.538 8.693 1.310 2311
-0.567 9.163 1.374 1229
-0.539 8.712 1.287 1767
-0.567 9.174 1.349 1436
-0.539 8.715 1.262 1621
-0.568 9.186 1.323 1462
-0.539 8.719 1.237 1311
-0.569 9.197 1.297 1136
-0.571 9.239 1.275 1133
-0.582 9.412 1.297 1039
-0.137 2.265 1.727 2976
-0.138 2.270 1.720 5952
-0.130 2.148 1.633 1966
-0.138 2.274 1.714 5952
-0.130 2.152 1.627 1966
-0.138 2.286 1.712 5637
-0.146 2.408 1.798 2153
-0.144 2.374 1.764 6079
-0.136 2.251 1.678 3104
-0.144 2.372 1.753 5048
-0.136 2.249 1.667 2225
-0.142 2.351 1.728 4383
-0.135 2.228 1.642 1692
-0.143 2.356 1.721 4383
-0.135 2.232 1.636 1165
-0.144 2.380 1.728 5935
-0.144 2.385 1.721 7759
-0.146 2.402 1.723 7542
-0.148 2.440 1.738 9204
-0.140 2.315 1.655 1221
-0.149 2.458 1.740 9831
-0.141 2.333 1.657 1726
-0.150 2.469 1.737 11522
-0.142 2.344 1.654 1970
-0.150 2.473 1.730 10490
-0.142 2.348 1.648 1494
-0.150 2.471 1.719 8820
-0.150 2.469 1.708 8331
-0.149 2.467 1.696 5972
-0.157 2.594 1.778 1487
-0.154 2.545 1.736 5563
-0.154 2.550 1.729 7156
-0.154 2.548 1.717 8842
-0.155 2.552 1.710 9680
-0.155 2.557 1.703 10519
-0.155 2.561 1.695 10066
-0.155 2.566 1.688 9614
-0.163 2.694 1.767 1358
-0.157 2.584 1.689 10223
-0.164 2.712 1.767 1856
-0.160 2.642 1.714 12956
-0.152 2.514 1.636 1206
-0.161 2.654 1.711 12042
-0.153 2.525 1.633 1099
-0.161 2.658 1.703 11204
-0.162 2.676 1.704 7801
-0.163 2.688 1.700 5074
-0.164 2.713 1.705 4409
-0.165 2.731 1.705 4413
-0.166 2.736 1.697 5650
-0.166 2.740 1.689 6888
-0.166 2.745 1.681 6200
-0.168 2.770 1.685 7623
-0.160 2.639 1.611 1016
-0.168 2.774 1.677 9713
-0.160 2.643 1.603 1318
-0.169 2.786 1.673 9586
-0.177 2.916 1.747 2626
-0.169 2.797 1.669 9573
-0.177 2.928 1.742 3687
-0.169 2.787 1.653 6854
-0.177 2.919 1.726 3945
-0.174 2.875 1.691 6011
-0.166 2.743 1.619 3429
-0.174 2.880 1.683 5688
-0.166 2.748 1.611 3016
-0.177 2.926 1.697 4978
-0.169 2.794 1.625 3236
-0.179 2.951 1.700 5555
-0.171 2.819 1.629 3037
-0.182 3.011 1.721 4525
-0.174 2.879 1.650 3799
-0.183 3.023 1.716 6053
-0.175 2.890 1.646 3271
-0.183 3.014 1.700 7569
-0.175 2.881 1.630 2431
-0.183 3.018 1.692 11037
-0.175 2.885 1.622 1392
-0.184 3.030 1.687 12610
-0.175 2.896 1.617 1141
-0.184 3.034 1.678 11472
-0.192 3.168 1.747 1054
-0.185 3.046 1.673 8905
-0.193 3.179 1.741 2333
-0.190 3.135 1.707 10932
-0.182 3.001 1.639 5056
-0.190 3.132 1.695 12437
-0.182 2.998 1.627 3205
-0.189 3.123 1.678 11270
-0.181 2.988 1.611 1140
-0.188 3.099 1.655 9769
-0.196 3.233 1.722 1199
-0.191 3.153 1.671 8756
-0.183 3.018 1.604 1130
-0.191 3.157 1.662 10875
-0.191 3.154 1.649 11958
-0.192 3.166 1.644 10019
-0.204 3.372 1.744 1305
-0.195 3.213 1.655 9194
-0.204 3.363 1.727 2331
-0.195 3.217 1.646 8525
-0.204 3.367 1.717 2995
-0.195 3.222 1.637 6965
-0.205 3.379 1.711 3594
-0.198 3.276 1.651 8295
-0.207 3.412 1.715 3593
-0.200 3.295 1.648 6932
-0.208 3.431 1.712 2793
-0.200 3.307 1.642 5637
-0.209 3.443 1.705 2401
-0.200 3.304 1.629 5541
-0.210 3.469 1.705 2958
-0.200 3.301 1.616 7243
-0.210 3.466 1.692 4649
-0.200 3.305 1.607 8152
-0.209 3.456 1.675 5638
-0.201 3.317 1.601 7381
-0.210 3.461 1.665 5391
-0.210 3.465 1.655 5475
-0.201 3.321 1.591 5330
-0.211 3.484 1.652 7215
-0.202 3.332 1.585 2503
-0.213 3.510 1.651 9497
-0.203 3.344 1.578 1266
-0.214 3.537 1.651 10489
-0.215 3.548 1.644 11281
-0.207 3.410 1.584 1182
-0.216 3.567 1.640 8397
-0.208 3.429 1.581 1512
-0.218 3.593 1.639 5654
-0.209 3.455 1.580 1497
-0.222 3.663 1.656 5802
-0.214 3.525 1.598 2351
-0.222 3.660 1.642 9574
-0.213 3.522 1.584 1964
-0.222 3.665 1.632 8724
-0.214 3.526 1.574 1501
-0.225 3.720 1.642 6112
-0.217 3.581 1.585 1902
-0.226 3.732 1.634 5826
-0.218 3.593 1.578 1691
-0.227 3.744 1.626 5826
-0.218 3.604 1.570 1293
-0.228 3.763 1.622 8623
-0.219 3.623 1.566 1039
-0.228 3.767 1.611 10546
-0.229 3.786 1.606 11010
-0.221 3.646 1.551 1154
-0.230 3.797 1.598 10143
-0.229 3.787 1.581 5531
-0.238 3.927 1.635 1923
-0.238 3.931 1.624 3284
-0.229 3.784 1.567 3067
-0.239 3.943 1.615 4304
-0.230 3.803 1.562 2849
-0.238 3.933 1.598 4311
-0.230 3.792 1.545 2186
-0.237 3.915 1.579 5313
-0.246 4.055 1.631 1236
-0.238 3.926 1.570 5316
-0.246 4.067 1.622 1358
-0.241 3.975 1.575 6675
-0.232 3.834 1.523 1098
-0.241 3.972 1.561 6999
-0.241 3.983 1.552 6825
-0.242 3.995 1.543 6548
-0.251 4.136 1.594 1948
-0.246 4.058 1.553 6106
-0.237 3.917 1.503 1491
-0.247 4.070 1.544 8052
-0.247 4.082 1.535 7263
-0.256 4.223 1.584 1743
-0.253 4.175 1.554 8432
-0.244 4.033 1.505 2092
-0.254 4.194 1.547 11031
-0.263 4.337 1.595 1567
-0.255 4.213 1.539 8681
-0.264 4.356 1.587 1891
-0.256 4.225 1.530 5303
-0.266 4.390 1.585 2689
-0.255 4.214 1.513 3785
-0.267 4.402 1.575 2852
-0.262 4.331 1.537 3328
-0.254 4.188 1.491 2126
-0.262 4.320 1.520 4399
-0.275 4.545 1.593 1797
-0.265 4.376 1.524 7157
-0.277 4.572 1.587 3761
-0.265 4.373 1.509 6439
-0.277 4.576 1.574 4780
-0.261 4.317 1.478 5023
-0.278 4.596 1.565 2987
-0.262 4.328 1.468 4008
-0.271 4.471 1.512 2456
-0.262 4.317 1.450 3109
-0.271 4.468 1.497 2282
-0.263 4.343 1.445 3747
-0.272 4.487 1.489 1607
-0.264 4.362 1.437 3747
-0.273 4.506 1.480 1952
-0.265 4.373 1.427 3796
-0.274 4.517 1.470 2203
-0.265 4.370 1.412 2761
-0.273 4.514 1.454 1938
-0.275 4.533 1.446 2297
-0.298 4.912 1.556 2285
-0.298 4.916 1.542 2998
-0.270 4.453 1.408 2208
-0.305 5.042 1.563 2716
-0.270 4.464 1.398 1703
-0.309 5.099 1.563 4078
-0.272 4.483 1.389 1657
-0.310 5.118 1.553 7306
-0.272 4.494 1.378 1250
-0.310 5.123 1.538 6856
-0.311 5.134 1.525 4373
-0.320 5.279 1.564 1414
-0.315 5.207 1.529 3889
-0.307 5.062 1.490 2278
-0.316 5.211 1.514 2921
-0.324 5.356 1.552 2219
-0.331 5.467 1.565 3053
-0.317 5.238 1.504 2410
-0.332 5.479 1.551 4818
-0.323 5.334 1.513 3148
-0.334 5.506 1.541 6082
-0.342 5.651 1.579 2567
-0.334 5.518 1.527 5536
-0.343 5.663 1.564 4483
-0.343 5.660 1.546 4833
-0.332 5.483 1.501 3267
-0.344 5.679 1.533 4646
-0.332 5.487 1.486 1696
-0.346 5.706 1.522 5449
-0.337 5.560 1.487 1338
-0.347 5.726 1.510 3860
-0.356 5.871 1.545 1649
-0.352 5.806 1.511 3592
-0.343 5.660 1.476 1844
-0.352 5.818 1.496 3513
-0.344 5.672 1.462 1410
-0.353 5.822 1.479 4363
-0.362 5.968 1.513 1343
-0.353 5.834 1.464 3784
-0.362 5.980 1.498 1459
-0.360 5.945 1.472 3163
-0.369 6.092 1.505 1511
-0.360 5.949 1.455 3562
-0.369 6.096 1.487 2380
-0.362 5.984 1.444 3941
-0.371 6.131 1.476 2810
-0.370 6.103 1.452 3449
-0.361 5.957 1.420 2462
-0.370 6.107 1.434 3448
-0.379 6.254 1.466 1772
-0.370 6.111 1.416 2713
-0.386 6.374 1.472 1691
-0.386 6.370 1.452 2300
-0.398 6.563 1.492 2116
-0.387 6.382 1.435 2941
-0.399 6.583 1.476 2013
-0.388 6.401 1.420 4707
-0.406 6.695 1.479 1969
-0.388 6.405 1.401 4606
-0.405 6.684 1.456 2462
-0.404 6.672 1.434 2774
-0.388 6.400 1.381 2689
-0.404 6.676 1.415 2388
-0.417 6.877 1.454 1548
-0.419 6.912 1.439 2148
-0.407 6.718 1.403 1663
-0.420 6.932 1.422 2880
-0.433 7.149 1.463 2248
-0.433 7.153 1.442 3344
-0.420 6.927 1.401 2968
-0.433 7.149 1.420 2779
-0.420 6.931 1.381 2533
-0.440 7.269 1.420 2340
-0.431 7.121 1.394 1728
-0.454 7.491 1.437 2391
-0.444 7.328 1.408 2170
-0.454 7.503 1.416 2771
-0.445 7.347 1.390 2603
-0.455 7.506 1.395 1837
-0.446 7.358 1.370 1752
-0.473 7.806 1.422 1829
-0.459 7.580 1.385 1123
-0.475 7.833 1.403 1879
-0.484 7.989 1.428 1727
-0.485 8.001 1.406 2049
-0.466 7.696 1.358 1431
-0.478 7.887 1.365 1782
-0.487 8.036 1.388 1529
-0.476 7.860 1.337 2122
-0.490 8.094 1.373 1193
-0.492 8.129 1.354 1777
-0.476 7.855 1.313 1730
-0.513 8.461 1.379 1878
-0.494 8.148 1.333 1810
-0.526 8.691 1.387 2585
-0.512 8.456 1.353 2301
-0.527 8.702 1.363 2955
-0.506 8.358 1.314 1788
-0.527 8.698 1.337 2560
-0.506 8.354 1.289 1848
-0.526 8.686 1.309 2314
-0.506 8.349 1.264 1224
-0.528 8.713 1.287 1918
-0.556 9.175 1.349 1445
-0.528 8.716 1.262 1944
-0.557 9.186 1.323 1426
-0.528 8.719 1.237 1587
-0.570 9.409 1.324 1147
-0.560 9.248 1.276 1009
-0.132 2.266 1.727 2728
-0.132 2.270 1.720 5456
-0.125 2.148 1.633 1843
-0.132 2.275 1.714 5456
-0.139 2.397 1.801 1943
-0.137 2.363 1.766 5742
-0.130 2.241 1.680 2824
-0.138 2.375 1.764 6216
-0.131 2.252 1.678 2776
-0.138 2.373 1.753 5319
-0.131 2.250 1.667 2139
-0.136 2.345 1.724 5205
-0.129 2.222 1.638 1493
-0.136 2.350 1.717 5205
-0.144 2.473 1.802 1054
-0.138 2.380 1.728 6328
-0.139 2.392 1.726 8161
-0.139 2.403 1.723 7934
-0.142 2.440 1.738 9620
-0.134 2.315 1.655 1168
-0.143 2.458 1.740 10469
-0.135 2.333 1.657 1714
-0.143 2.469 1.737 12287
-0.136 2.344 1.654 1928
-0.144 2.474 1.730 11100
-0.136 2.348 1.648 1459
-0.144 2.472 1.719 9349
-0.143 2.463 1.703 8930
-0.150 2.589 1.785 1034
-0.143 2.468 1.696 6209
-0.151 2.594 1.778 1340
-0.148 2.545 1.736 5414
-0.140 2.419 1.655 1342
-0.148 2.550 1.729 6497
-0.148 2.548 1.717 7699
-0.148 2.553 1.710 8686
-0.148 2.557 1.703 9672
-0.149 2.562 1.695 9893
-0.149 2.566 1.688 10115
-0.156 2.694 1.767 1332
-0.150 2.591 1.693 10749
-0.158 2.719 1.772 1402
-0.153 2.629 1.706 13777
-0.154 2.647 1.707 12768
-0.154 2.659 1.703 12104
-0.155 2.677 1.704 8667
-0.156 2.688 1.700 5910
-0.157 2.706 1.701 4699
-0.159 2.731 1.705 4370
-0.159 2.736 1.697 5268
-0.159 2.740 1.689 6166
-0.159 2.745 1.681 5842
-0.160 2.763 1.681 7234
-0.153 2.633 1.607 1354
-0.161 2.775 1.677 9162
-0.153 2.644 1.603 1805
-0.162 2.793 1.677 8852
-0.170 2.924 1.751 2338
-0.162 2.797 1.669 8793
-0.170 2.928 1.742 3457
-0.162 2.795 1.657 6237
-0.170 2.926 1.730 3622
-0.167 2.868 1.687 6193
-0.159 2.737 1.615 2965
-0.167 2.873 1.679 5902
-0.159 2.741 1.607 3148
-0.167 2.884 1.675 5088
-0.160 2.752 1.603 3142
-0.171 2.938 1.692 5063
-0.162 2.784 1.610 3232
-0.169 2.907 1.665 4026
-0.176 3.040 1.736 3165
-0.176 3.023 1.716 5106
-0.168 2.891 1.646 3281
-0.175 3.021 1.704 6519
-0.168 2.888 1.634 2302
-0.175 3.019 1.692 10079
-0.168 2.885 1.622 1245
-0.176 3.023 1.683 11821
-0.168 2.890 1.614 1093
-0.176 3.035 1.678 11152
-0.184 3.168 1.747 1107
-0.177 3.046 1.673 9337
-0.185 3.180 1.741 2427
-0.182 3.128 1.704 11793
-0.174 2.994 1.635 3921
-0.182 3.133 1.695 13562
-0.174 2.999 1.627 3163
-0.181 3.123 1.678 12000
-0.174 2.989 1.611 1226
-0.180 3.106 1.659 9606
-0.188 3.241 1.726 1248
-0.183 3.146 1.668 8738
-0.190 3.281 1.734 1326
-0.183 3.158 1.662 11041
-0.191 3.292 1.728 1064
-0.183 3.155 1.649 12283
-0.184 3.166 1.644 9962
-0.196 3.373 1.744 1245
-0.186 3.206 1.652 8721
-0.195 3.363 1.727 2097
-0.186 3.211 1.643 8343
-0.196 3.368 1.717 2714
-0.190 3.272 1.660 7578
-0.198 3.408 1.725 2889
-0.190 3.277 1.651 9273
-0.198 3.413 1.715 3444
-0.191 3.288 1.645 7310
-0.199 3.425 1.708 2984
-0.192 3.300 1.639 5667
-0.199 3.436 1.702 3061
-0.192 3.304 1.629 5399
-0.201 3.462 1.702 3350
-0.192 3.301 1.616 6905
-0.201 3.460 1.689 5077
-0.192 3.306 1.607 8025
-0.201 3.457 1.675 6425
-0.192 3.310 1.597 7407
-0.201 3.461 1.665 6102
-0.201 3.466 1.655 6249
-0.192 3.314 1.588 5395
-0.202 3.478 1.649 8125
-0.193 3.326 1.582 2558
-0.204 3.511 1.651 10411
-0.194 3.337 1.575 1291
-0.205 3.530 1.647 10326
-0.206 3.556 1.647 10829
-0.207 3.568 1.640 8150
-0.199 3.429 1.581 1194
-0.209 3.594 1.639 5129
-0.201 3.456 1.580 1327
-0.213 3.671 1.659 6748
-0.205 3.533 1.601 2118
-0.213 3.661 1.642 9504
-0.204 3.522 1.584 2093
-0.213 3.665 1.632 7795
-0.205 3.526 1.574 1656
-0.216 3.721 1.642 6723
-0.208 3.582 1.585 2552
-0.216 3.725 1.631 7180
-0.208 3.586 1.575 2219
-0.217 3.737 1.624 6636
-0.209 3.597 1.567 1654
-0.218 3.756 1.619 8715
-0.210 3.616 1.563 1223
-0.219 3.767 1.611 10873
-0.220 3.794 1.609 11860
-0.212 3.654 1.554 1274
-0.221 3.805 1.600 11223
-0.221 3.802 1.587 5848
-0.229 3.942 1.641 1010
-0.224 3.851 1.593 3682
-0.224 3.855 1.582 5050
-0.232 3.995 1.635 1049
-0.224 3.859 1.570 4650
-0.232 4.000 1.623 1286
-0.228 3.923 1.581 5445
-0.236 4.063 1.634 1263
-0.228 3.934 1.573 5332
-0.237 4.075 1.625 1496
-0.231 3.975 1.575 6204
-0.223 3.834 1.523 1013
-0.231 3.972 1.561 6080
-0.232 3.991 1.555 6449
-0.232 3.995 1.543 6589
-0.242 4.167 1.604 1651
-0.236 4.059 1.553 6293
-0.227 3.917 1.503 1539
-0.236 4.071 1.544 9344
-0.237 4.082 1.535 8097
-0.245 4.224 1.584 1429
-0.243 4.183 1.556 7078
-0.235 4.041 1.507 1691
-0.244 4.202 1.549 9248
-0.252 4.345 1.597 1676
-0.245 4.214 1.539 7280
-0.253 4.356 1.587 1935
-0.245 4.226 1.530 4036
-0.255 4.398 1.587 2396
-0.250 4.312 1.545 4035
-0.259 4.455 1.592 2282
-0.251 4.324 1.535 4379
-0.259 4.467 1.582 2351
-0.251 4.328 1.522 4928
-0.264 4.546 1.593 2319
-0.254 4.377 1.524 7483
-0.265 4.565 1.585 4545
-0.254 4.381 1.512 7245
-0.266 4.577 1.574 5644
-0.254 4.370 1.494 4823
-0.266 4.589 1.563 3560
-0.251 4.329 1.468 3215
-0.260 4.472 1.512 2326
-0.250 4.310 1.448 3035
-0.260 4.476 1.499 2337
-0.252 4.336 1.443 3420
-0.260 4.480 1.486 1761
-0.253 4.363 1.437 3544
-0.262 4.507 1.480 2207
-0.254 4.374 1.427 3491
-0.262 4.518 1.470 2649
-0.262 4.507 1.452 2546
-0.253 4.363 1.409 2314
-0.285 4.913 1.556 2891
-0.263 4.526 1.443 2275
-0.285 4.917 1.542 4119
-0.251 4.317 1.369 2360
-0.287 4.944 1.534 3425
-0.251 4.320 1.356 1864
-0.295 5.077 1.557 4492
-0.286 4.933 1.516 1538
-0.297 5.112 1.550 7779
-0.251 4.327 1.331 1066
-0.297 5.123 1.538 6992
-0.296 5.097 1.515 4829
-0.304 5.242 1.554 2913
-0.302 5.208 1.529 4442
-0.294 5.063 1.490 2695
-0.303 5.219 1.516 3841
-0.311 5.364 1.554 2366
-0.304 5.239 1.504 3212
-0.318 5.476 1.567 2969
-0.319 5.487 1.553 4836
-0.310 5.342 1.515 3453
-0.320 5.514 1.543 6211
-0.312 5.369 1.506 2507
-0.320 5.519 1.527 5921
-0.329 5.664 1.564 5017
-0.328 5.653 1.544 6197
-0.319 5.492 1.503 3297
-0.329 5.665 1.529 5159
-0.319 5.488 1.486 1671
-0.331 5.699 1.520 5768
-0.322 5.553 1.485 1381
-0.332 5.711 1.506 3875
-0.340 5.857 1.541 1742
-0.338 5.815 1.513 3653
-0.329 5.669 1.478 2101
-0.339 5.842 1.502 3750
-0.329 5.673 1.462 1584
-0.339 5.831 1.481 4697
-0.347 5.977 1.515 1317
-0.339 5.842 1.466 4602
-0.348 5.989 1.500 1487
-0.345 5.946 1.472 3577
-0.337 5.800 1.439 1852
-0.345 5.950 1.455 3929
-0.354 6.097 1.487 2477
-0.347 5.985 1.444 4204
-0.356 6.131 1.476 2673
-0.354 6.104 1.452 3464
-0.346 5.958 1.420 2507
-0.355 6.108 1.434 3512
-0.363 6.255 1.466 1884
-0.355 6.120 1.418 2927
-0.364 6.267 1.449 1606
-0.363 6.247 1.426 2225
-0.381 6.564 1.492 2037
-0.371 6.390 1.437 2958
-0.382 6.576 1.475 2011
-0.372 6.402 1.420 4422
-0.389 6.696 1.479 1777
-0.372 6.406 1.401 3692
-0.387 6.669 1.453 2620
-0.387 6.665 1.433 2989
-0.371 6.394 1.379 2502
-0.387 6.669 1.413 2389
-0.371 6.397 1.361 1718
-0.402 6.921 1.441 1881
-0.389 6.704 1.400 1470
-0.402 6.933 1.422 2848
-0.415 7.150 1.463 1933
-0.402 6.929 1.401 3005
-0.415 7.154 1.442 2800
-0.402 6.924 1.379 2378
-0.415 7.150 1.420 2336
-0.422 7.270 1.420 2027
-0.413 7.115 1.392 1591
-0.435 7.492 1.437 2490
-0.426 7.336 1.410 2196
-0.436 7.504 1.416 2918
-0.427 7.348 1.390 2694
-0.436 7.515 1.396 2040
-0.428 7.367 1.371 1812
-0.454 7.823 1.425 1843
-0.440 7.581 1.385 1423
-0.455 7.834 1.403 1973
-0.446 7.686 1.379 1497
-0.465 8.010 1.408 1727
-0.447 7.705 1.359 1380
-0.458 7.896 1.366 1651
-0.467 8.045 1.389 1579
-0.457 7.869 1.338 1643
-0.470 8.087 1.372 1640
-0.472 8.122 1.353 1806
-0.492 8.466 1.405 1463
-0.491 8.462 1.379 2171
-0.473 8.141 1.332 1728
-0.491 8.458 1.353 2637
-0.505 8.692 1.387 2541
-0.505 8.696 1.362 3024
-0.491 8.453 1.328 1994
-0.505 8.692 1.336 2551
-0.485 8.355 1.289 2088
-0.504 8.687 1.309 2258
-0.485 8.350 1.264 1403
-0.506 8.714 1.287 1913
-0.533 9.184 1.350 1486
-0.506 8.717 1.262 2017
-0.533 9.180 1.322 1387
-0.506 8.721 1.237 1698
-0.546 9.411 1.324 1268
-0.506 8.724 1.211 1077
-0.131 2.337 1.777 2755
-0.124 2.214 1.690 1030
-0.131 2.341 1.771 5511
-0.124 2.219 1.683 2061
-0.131 2.346 1.764 5511
-0.125 2.223 1.677 2061
-0.132 2.364 1.766 5728
-0.126 2.241 1.680 2667
-0.133 2.368 1.760 6178
-0.125 2.226 1.660 2395
-0.133 2.373 1.753 5441
-0.125 2.237 1.658 2110
-0.131 2.345 1.724 6011
-0.124 2.222 1.638 1444
-0.132 2.350 1.717 6011
-0.139 2.474 1.802 1340
-0.133 2.381 1.728 6592
-0.134 2.392 1.726 8461
-0.135 2.403 1.723 8291
-0.137 2.440 1.738 10077
-0.130 2.316 1.655 1149
-0.138 2.458 1.740 11025
-0.131 2.333 1.657 1655
-0.138 2.469 1.737 12872
-0.131 2.344 1.654 1785
-0.138 2.468 1.726 11570
-0.131 2.342 1.643 1106
-0.138 2.466 1.715 9819
-0.138 2.463 1.703 9493
-0.138 2.461 1.692 6491
-0.145 2.588 1.773 1549
-0.143 2.546 1.736 5026
-0.136 2.419 1.655 1736
-0.142 2.544 1.725 5660
-0.135 2.417 1.644 1092
-0.143 2.548 1.717 6419
-0.143 2.553 1.710 7734
-0.143 2.558 1.703 9050
-0.143 2.562 1.695 9780
-0.144 2.567 1.688 10510
-0.151 2.694 1.767 1173
-0.146 2.598 1.697 11078
-0.153 2.726 1.776 1008
-0.147 2.630 1.706 14271
-0.148 2.648 1.707 13209
-0.149 2.659 1.703 12702
-0.150 2.677 1.704 9331
-0.151 2.689 1.700 6643
-0.151 2.700 1.697 5087
-0.153 2.732 1.705 4317
-0.153 2.736 1.697 4802
-0.154 2.748 1.693 5301
-0.147 2.618 1.618 1065
-0.154 2.745 1.681 5558
-0.154 2.757 1.677 6879
-0.147 2.626 1.603 1440
-0.155 2.775 1.677 8337
-0.148 2.644 1.603 2319
-0.156 2.793 1.677 7924
-0.164 2.924 1.751 2100
-0.157 2.805 1.673 7805
-0.164 2.936 1.746 2827
-0.157 2.802 1.661 5566
-0.164 2.933 1.734 3150
-0.161 2.869 1.687 6160
-0.153 2.737 1.615 2929
-0.161 2.873 1.679 5946
-0.154 2.742 1.607 3507
-0.162 2.885 1.675 5096
-0.154 2.753 1.603 3583
-0.163 2.917 1.681 4857
-0.156 2.778 1.606 3691
-0.163 2.915 1.669 4192
-0.171 3.047 1.740 2485
-0.169 3.024 1.716 3941
-0.162 2.891 1.646 3166
-0.169 3.014 1.700 5347
-0.161 2.881 1.630 1766
-0.169 3.019 1.692 8925
-0.162 2.886 1.622 1188
-0.169 3.023 1.683 10781
-0.162 2.890 1.614 1218
-0.170 3.035 1.678 10370
-0.177 3.168 1.747 1185
-0.171 3.046 1.673 9293
-0.178 3.180 1.741 2499
-0.175 3.128 1.704 12493
-0.168 2.995 1.635 3795
-0.175 3.133 1.695 14514
-0.168 2.999 1.627 3122
-0.175 3.130 1.682 12699
-0.168 2.996 1.615 1585
-0.174 3.107 1.659 9344
-0.182 3.241 1.726 1395
-0.176 3.146 1.668 8738
-0.184 3.281 1.734 1504
-0.177 3.158 1.662 10883
-0.184 3.293 1.728 1297
-0.177 3.155 1.649 12236
-0.184 3.290 1.715 1196
-0.178 3.174 1.647 9787
-0.185 3.309 1.713 1300
-0.179 3.200 1.648 8393
-0.189 3.371 1.731 1803
-0.179 3.204 1.639 8228
-0.188 3.361 1.714 2408
-0.184 3.280 1.664 9101
-0.191 3.416 1.728 2418
-0.184 3.277 1.651 10294
-0.191 3.413 1.715 3100
-0.184 3.289 1.645 7693
-0.192 3.425 1.708 3061
-0.185 3.300 1.639 5778
-0.192 3.437 1.702 3627
-0.185 3.305 1.629 5331
-0.194 3.456 1.698 3699
-0.185 3.302 1.616 6666
-0.193 3.439 1.679 5315
-0.185 3.306 1.607 7915
-0.193 3.450 1.672 6782
-0.185 3.310 1.597 7368
-0.194 3.462 1.665 6342
-0.194 3.466 1.655 6509
-0.186 3.315 1.588 5337
-0.195 3.478 1.649 8527
-0.186 3.326 1.582 2445
-0.197 3.511 1.651 10924
-0.187 3.337 1.575 1230
-0.198 3.530 1.647 10026
-0.199 3.556 1.647 9878
-0.200 3.575 1.643 7435
-0.201 3.594 1.639 4460
-0.194 3.456 1.580 1073
-0.205 3.664 1.656 5760
-0.197 3.526 1.598 1946
-0.204 3.647 1.636 7386
-0.196 3.508 1.578 1669
-0.204 3.636 1.619 7228
-0.211 3.775 1.677 2206
-0.209 3.736 1.648 6486
-0.201 3.597 1.591 3515
-0.209 3.733 1.634 6907
-0.201 3.594 1.578 2810
-0.210 3.745 1.626 7001
-0.202 3.605 1.570 2153
-0.210 3.749 1.616 8647
-0.202 3.609 1.560 1314
-0.211 3.768 1.611 11000
-0.213 3.794 1.609 13282
-0.205 3.654 1.554 1169
-0.213 3.806 1.600 12891
-0.213 3.810 1.589 6994
-0.215 3.844 1.590 4568
-0.216 3.848 1.579 6004
-0.216 3.860 1.570 5449
-0.224 4.000 1.623 1230
-0.220 3.923 1.581 5551
-0.228 4.064 1.634 1433
-0.221 3.942 1.576 5441
-0.229 4.083 1.628 1524
-0.222 3.969 1.572 5924
-0.223 3.973 1.561 5207
-0.230 4.114 1.612 1087
-0.224 3.992 1.555 5980
-0.231 4.133 1.606 1325
-0.223 3.988 1.541 6502
-0.233 4.167 1.604 1828
-0.227 4.052 1.550 5836
-0.235 4.201 1.603 2139
-0.228 4.071 1.544 9657
-0.236 4.213 1.593 1617
-0.229 4.083 1.535 8481
-0.237 4.225 1.584 1295
-0.234 4.184 1.556 5332
-0.242 4.326 1.605 1200
-0.235 4.203 1.549 6935
-0.243 4.345 1.597 1979
-0.236 4.215 1.539 5576
-0.252 4.507 1.638 1934
-0.242 4.316 1.560 4312
-0.252 4.496 1.620 2331
-0.242 4.320 1.547 5208
-0.250 4.463 1.594 2555
-0.242 4.324 1.535 5522
-0.250 4.467 1.582 2594
-0.243 4.336 1.525 5515
-0.255 4.546 1.593 2981
-0.245 4.378 1.524 8339
-0.256 4.566 1.585 5220
-0.245 4.382 1.512 7746
-0.256 4.577 1.574 6071
-0.245 4.378 1.497 5018
-0.257 4.597 1.565 4024
-0.258 4.608 1.554 2714
-0.244 4.359 1.477 2660
-0.241 4.310 1.448 2630
-0.251 4.484 1.502 2229
-0.243 4.337 1.443 2788
-0.269 4.806 1.585 2226
-0.244 4.363 1.437 2903
-0.252 4.507 1.480 2500
-0.252 4.496 1.463 3495
-0.244 4.352 1.420 2221
-0.252 4.500 1.450 2745
-0.270 4.826 1.546 1957
-0.275 4.913 1.556 3429
-0.253 4.511 1.439 2320
-0.275 4.917 1.542 5136
-0.242 4.317 1.369 2523
-0.276 4.937 1.532 4320
-0.285 5.081 1.573 2069
-0.284 5.078 1.557 4835
-0.276 4.933 1.516 2045
-0.286 5.112 1.550 7869
-0.242 4.328 1.331 1387
-0.287 5.124 1.538 6860
-0.295 5.269 1.578 1077
-0.286 5.097 1.515 5214
-0.294 5.242 1.554 2962
-0.292 5.208 1.529 4687
-0.284 5.063 1.490 2871
-0.292 5.220 1.516 4534
-0.300 5.365 1.554 2913
-0.293 5.232 1.502 3796
-0.301 5.377 1.541 3476
-0.307 5.488 1.553 4685
-0.299 5.343 1.515 3379
-0.309 5.515 1.543 6107
-0.301 5.370 1.506 2493
-0.309 5.519 1.527 6236
-0.317 5.665 1.564 5074
-0.317 5.654 1.544 6884
-0.308 5.508 1.507 3428
