1.205 2.925 1.606 1434
1.258 3.055 1.661 7543
1.310 3.181 1.725 1515
1.260 3.059 1.652 6230
1.312 3.185 1.715 2168
1.259 3.056 1.639 7704
1.311 3.183 1.702 3497
1.266 3.074 1.636 6958
1.318 3.200 1.698 2904
1.273 3.091 1.633 5795
1.325 3.218 1.695 2205
1.275 3.095 1.623 3826
1.327 3.222 1.685 2629
1.321 3.206 1.665 3739
1.268 3.079 1.604 2227
1.320 3.203 1.652 4911
1.267 3.076 1.591 1880
1.321 3.207 1.642 7941
1.269 3.080 1.582 1677
1.331 3.232 1.642 9444
1.276 3.097 1.578 1507
1.341 3.256 1.641 6370
1.351 3.280 1.640 4172
1.372 3.331 1.652 4108
1.317 3.197 1.590 1118
1.368 3.322 1.635 6846
1.362 3.306 1.616 10033
1.414 3.434 1.674 1777
1.363 3.310 1.606 9309
1.416 3.438 1.663 2030
1.376 3.341 1.607 6634
1.429 3.469 1.665 1795
1.392 3.378 1.612 4936
1.445 3.507 1.669 1068
1.396 3.389 1.604 5155
1.449 3.518 1.661 1251
1.403 3.407 1.600 6040
1.456 3.536 1.656 1568
1.410 3.424 1.595 6046
1.464 3.553 1.651 2029
1.423 3.455 1.596 4963
1.477 3.585 1.651 1485
1.433 3.480 1.594 6786
1.487 3.609 1.649 1110
1.438 3.490 1.586 6969
1.491 3.620 1.641 1548
1.456 3.535 1.592 6154
1.518 3.686 1.655 1055
1.461 3.546 1.584 7019
1.520 3.690 1.644 1591
1.474 3.577 1.584 6290
1.527 3.707 1.638 1801
1.478 3.588 1.576 3833
1.532 3.718 1.629 1125
1.508 3.660 1.592 5928
1.454 3.530 1.540 1051
1.509 3.664 1.581 6587
1.563 3.795 1.633 1839
1.519 3.689 1.578 7294
1.573 3.820 1.629 2257
1.521 3.693 1.566 7096
1.575 3.824 1.618 3002
1.548 3.759 1.579 6520
1.494 3.628 1.528 2140
1.555 3.776 1.572 7033
1.502 3.645 1.522 1996
1.557 3.780 1.561 5716
1.611 3.911 1.611 2336
1.590 3.860 1.578 5676
1.536 3.729 1.528 2222
1.589 3.857 1.563 8210
0.349 0.848 0.437 2285
1.590 3.861 1.551 7938
0.350 0.849 0.434 4235
1.595 3.871 1.541 5863
0.350 0.849 0.432 5664
0.350 0.850 0.429 5657
1.642 3.986 1.570 4787
0.351 0.851 0.427 5187
1.655 4.018 1.567 3612
0.351 0.852 0.424 4508
1.651 4.008 1.550 3319
1.652 4.012 1.537 4472
0.348 0.846 0.419 3547
0.343 0.832 0.412 5982
1.703 4.134 1.566 3889
0.346 0.840 0.412 16473
1.699 4.124 1.549 3063
0.346 0.841 0.409 32046
1.692 4.107 1.528 4307
0.347 0.842 0.407 38705
1.690 4.103 1.513 4820
0.347 0.842 0.404 37061
1.692 4.107 1.500 2497
0.347 0.843 0.402 26863
0.278 0.675 0.346 2535
0.348 0.844 0.399 14522
0.278 0.676 0.344 2229
0.348 0.844 0.397 14737
1.725 4.188 1.485 2876
0.348 0.845 0.394 17407
1.729 4.199 1.474 3173
0.348 0.846 0.392 14329
1.789 4.343 1.506 2460
0.349 0.846 0.389 9254
1.790 4.346 1.492 2738
0.349 0.847 0.387 8518
0.282 0.685 0.336 2541
0.349 0.848 0.384 8342
0.282 0.686 0.334 2806
0.349 0.848 0.382 5386
0.277 0.672 0.328 3776
0.277 0.673 0.326 6580
0.350 0.849 0.379 4048
0.280 0.680 0.326 9248
0.353 0.857 0.379 2588
0.280 0.681 0.324 7855
0.350 0.850 0.374 1266
0.286 0.695 0.326 3618
2.066 5.015 1.551 1062
2.067 5.019 1.535 2486
1.991 4.834 1.483 1726
2.069 5.022 1.519 2483
1.993 4.838 1.468 2020
2.073 5.033 1.506 1361
1.994 4.842 1.453 1286
2.238 5.434 1.598 1171
2.304 5.595 1.623 1825
2.249 5.460 1.586 1134
2.303 5.592 1.603 2219
0.297 0.721 0.316 1497
0.291 0.707 0.310 4531
2.299 5.581 1.582 1996
0.283 0.686 0.302 9801
2.309 5.606 1.570 1823
0.283 0.686 0.300 11982
2.323 5.639 1.560 1383
0.283 0.687 0.298 17383
2.362 5.735 1.565 1527
0.283 0.687 0.296 30898
2.364 5.739 1.547 1915
0.283 0.688 0.294 39424
2.374 5.764 1.535 1340
0.281 0.681 0.291 31095
2.397 5.818 1.529 1472
0.284 0.689 0.290 22538
2.422 5.879 1.524 1358
0.287 0.696 0.290 26190
2.426 5.890 1.507 1893
0.284 0.689 0.286 22889
2.419 5.872 1.484 2048
0.284 0.690 0.284 18979
2.408 5.847 1.459 2171
0.284 0.690 0.282 20645
2.442 5.929 1.458 1824
0.287 0.698 0.282 20555
2.438 5.919 1.437 1450
0.285 0.691 0.278 27229
2.555 6.202 1.479 1518
0.285 0.691 0.276 34414
2.663 6.464 1.515 1893
0.282 0.684 0.273 35198
2.649 6.432 1.487 1979
0.282 0.685 0.271 33582
2.648 6.428 1.466 2308
0.282 0.685 0.269 28114
2.673 6.489 1.457 2490
0.285 0.693 0.268 27546
2.671 6.486 1.435 4040
0.285 0.693 0.266 24990
2.673 6.489 1.415 4013
0.286 0.693 0.264 17001
2.763 6.709 1.437 3904
0.286 0.694 0.262 10374
2.768 6.719 1.417 4547
0.286 0.694 0.260 5876
2.769 6.723 1.396 2886
0.286 0.694 0.258 4038
2.869 6.964 1.419 1612
0.289 0.702 0.257 2985
3.022 7.336 1.464 2309
3.023 7.339 1.441 2048
0.286 0.695 0.254 1686
3.057 7.422 1.432 2533
3.179 7.719 1.484 1331
3.059 7.426 1.409 2558
3.121 7.578 1.435 1471
3.123 7.581 1.411 1781
3.179 7.718 1.435 1377
3.193 7.751 1.415 1719
3.333 8.091 1.471 1502
3.337 8.102 1.447 2259
3.582 8.695 1.544 2103
3.342 8.112 1.423 2339
3.586 8.706 1.518 1819
3.340 8.109 1.396 1503
0.287 0.697 0.240 1357
3.583 8.699 1.461 1876
3.509 8.518 1.433 1006
3.585 8.703 1.433 3551
3.510 8.521 1.406 1102
3.589 8.713 1.407 4438
3.511 8.525 1.379 1142
3.590 8.717 1.380 4626
3.592 8.720 1.352 4379
3.593 8.723 1.325 3427
3.597 8.734 1.299 2374
3.599 8.737 1.271 1290
0.834 2.007 1.657 3396
0.835 2.011 1.651 6793
0.882 2.124 1.738 1921
0.837 2.015 1.645 6793
0.884 2.128 1.732 1921
0.841 2.025 1.643 5686
0.888 2.138 1.730 1950
0.845 2.035 1.642 4974
0.893 2.149 1.728 1934
0.859 2.069 1.658 7345
0.907 2.183 1.744 1414
0.864 2.079 1.656 10135
0.911 2.193 1.742 1689
0.865 2.083 1.650 9674
0.913 2.198 1.735 1689
0.872 2.099 1.652 10466
0.920 2.214 1.737 1162
0.879 2.115 1.654 12432
0.831 2.000 1.570 1370
0.891 2.144 1.666 12238
0.843 2.029 1.582 1693
0.897 2.160 1.668 13003
0.849 2.045 1.584 1708
0.902 2.170 1.666 9478
0.853 2.055 1.582 1253
0.906 2.180 1.663 6496
0.954 2.296 1.746 1034
0.907 2.185 1.656 6424
0.956 2.301 1.739 1455
0.909 2.189 1.650 6352
0.957 2.305 1.732 1906
0.906 2.180 1.634 6314
0.954 2.297 1.716 2511
0.902 2.172 1.619 6376
0.951 2.289 1.701 4144
0.901 2.170 1.608 6350
0.950 2.287 1.689 5525
0.903 2.174 1.601 5403
0.952 2.291 1.682 5223
0.943 2.271 1.658 5088
0.894 2.153 1.578 3186
0.945 2.275 1.651 5111
0.994 2.392 1.731 3185
0.983 2.366 1.703 7057
0.934 2.248 1.623 4450
0.990 2.382 1.704 7682
0.941 2.264 1.624 3245
0.994 2.393 1.701 8782
0.919 2.212 1.580 1956
0.996 2.397 1.693 6661
0.946 2.278 1.615 2003
1.000 2.407 1.690 4642
0.951 2.289 1.612 2697
1.007 2.424 1.691 5362
0.958 2.305 1.613 3542
1.009 2.428 1.683 6187
0.959 2.309 1.606 3294
1.016 2.445 1.684 6831
0.966 2.325 1.607 2641
1.025 2.468 1.688 8272
0.965 2.323 1.595 1660
1.024 2.466 1.676 10589
1.074 2.585 1.753 1233
1.026 2.470 1.669 13068
1.076 2.590 1.745 1648
1.028 2.474 1.661 11760
1.078 2.594 1.737 1914
1.032 2.484 1.657 7339
1.082 2.605 1.733 1609
1.050 2.527 1.673 6403
0.963 2.317 1.544 1057
1.054 2.537 1.669 6220
1.056 2.541 1.662 4658
1.071 2.577 1.673 5644
1.121 2.698 1.747 1135
1.078 2.594 1.673 7633
1.128 2.715 1.746 1414
1.082 2.605 1.669 7679
1.132 2.726 1.741 1504
1.084 2.609 1.661 7850
1.134 2.730 1.733 1769
1.083 2.606 1.649 6265
1.133 2.728 1.721 2264
1.116 2.688 1.686 5042
1.066 2.565 1.614 1696
1.121 2.698 1.681 4359
1.070 2.576 1.610 1537
1.125 2.709 1.677 5099
1.176 2.831 1.747 1952
1.127 2.713 1.668 5977
1.178 2.836 1.739 2729
1.131 2.723 1.663 6981
1.182 2.846 1.734 2527
1.128 2.715 1.648 5767
1.184 2.851 1.725 2904
1.151 2.771 1.668 5246
1.202 2.894 1.738 2386
1.158 2.788 1.667 5096
1.209 2.911 1.736 2473
1.168 2.811 1.669 5225
1.219 2.935 1.738 2127
1.172 2.822 1.664 5464
1.224 2.946 1.732 1903
1.171 2.819 1.652 6267
1.223 2.943 1.720 3010
1.173 2.824 1.643 6870
1.224 2.948 1.710 3940
1.175 2.828 1.634 6565
1.226 2.952 1.701 4927
1.228 2.956 1.692 7300
1.176 2.832 1.625 4566
1.227 2.954 1.679 10530
1.175 2.829 1.613 1420
1.226 2.951 1.667 12024
1.278 3.076 1.733 1865
1.233 2.969 1.664 9685
1.285 3.094 1.730 2441
1.251 3.012 1.676 11581
1.199 2.887 1.611 1217
1.258 3.030 1.673 13646
1.206 2.904 1.609 1493
1.263 3.040 1.667 11805
1.211 2.915 1.603 1403
1.267 3.051 1.661 7847
1.320 3.177 1.725 1408
1.264 3.042 1.645 6254
1.316 3.168 1.708 2504
1.265 3.046 1.635 6969
1.318 3.172 1.698 3546
1.270 3.057 1.629 5839
1.322 3.183 1.692 3531
1.274 3.067 1.623 3907
1.327 3.194 1.685 2943
1.331 3.205 1.679 3103
1.279 3.078 1.617 2668
1.333 3.209 1.669 3785
1.280 3.082 1.607 2377
1.326 3.193 1.649 5649
1.274 3.066 1.588 1929
1.331 3.204 1.642 9853
1.278 3.076 1.582 1681
1.341 3.228 1.642 11107
1.288 3.100 1.582 1167
1.348 3.245 1.638 7360
1.355 3.263 1.634 4559
1.357 3.267 1.624 4431
1.373 3.304 1.629 7574
1.371 3.301 1.616 11310
1.425 3.430 1.674 1736
1.373 3.305 1.606 10657
1.426 3.434 1.663 2176
1.383 3.330 1.604 7558
1.439 3.465 1.665 1667
1.402 3.374 1.612 5029
1.455 3.503 1.669 1161
1.403 3.378 1.602 5178
1.457 3.507 1.658 1544
1.411 3.396 1.597 6095
1.464 3.525 1.653 1863
1.421 3.420 1.595 6836
1.474 3.549 1.651 2123
1.425 3.431 1.587 4328
1.479 3.560 1.643 3123
1.441 3.469 1.591 4617
1.495 3.598 1.646 2341
1.451 3.493 1.589 5143
1.505 3.622 1.643 1775
1.467 3.531 1.592 4412
1.521 3.661 1.646 1177
1.474 3.548 1.587 5765
1.528 3.678 1.641 1562
1.481 3.566 1.582 5731
1.535 3.696 1.635 1519
1.517 3.652 1.604 3861
1.463 3.522 1.551 1598
1.519 3.656 1.592 5858
1.465 3.526 1.540 1021
1.520 3.660 1.581 6775
1.574 3.790 1.633 1898
1.530 3.684 1.578 7780
1.585 3.815 1.629 2150
1.535 3.695 1.569 7705
1.589 3.826 1.620 2581
1.559 3.754 1.579 6182
1.505 3.623 1.528 2013
1.570 3.779 1.575 7351
1.515 3.648 1.525 2146
1.571 3.782 1.563 5468
1.626 3.913 1.613 2732
1.601 3.855 1.578 5950
0.351 0.846 0.439 4298
1.597 3.845 1.560 9645
0.355 0.854 0.439 5719
1.599 3.849 1.548 7260
0.355 0.854 0.437 6094
0.352 0.848 0.432 5837
1.649 3.971 1.580 5037
0.350 0.842 0.427 5796
1.660 3.995 1.575 4868
0.347 0.836 0.422 5999
1.667 4.013 1.567 4277
0.345 0.830 0.417 9429
1.660 3.996 1.547 3684
0.345 0.831 0.414 16205
1.659 3.993 1.532 4298
0.345 0.831 0.412 22441
1.709 4.115 1.561 3403
0.349 0.839 0.412 29214
1.711 4.119 1.549 3248
0.349 0.840 0.409 27994
1.698 4.088 1.524 4143
0.349 0.840 0.407 20744
1.702 4.098 1.513 4878
0.349 0.841 0.404 20174
1.707 4.109 1.503 2809
0.350 0.842 0.402 27537
0.283 0.681 0.348 1682
0.350 0.843 0.399 40414
1.716 4.130 1.482 2235
0.350 0.843 0.397 39740
1.735 4.176 1.483 3103
0.351 0.844 0.394 20998
1.739 4.186 1.472 3241
0.354 0.852 0.394 10396
0.284 0.683 0.340 2195
0.351 0.845 0.389 9639
0.281 0.677 0.336 2813
0.351 0.846 0.387 8926
0.281 0.677 0.334 3560
0.352 0.847 0.384 7911
0.282 0.678 0.332 3948
0.317 0.763 0.356 7844
0.372 0.897 0.397 1662
0.317 0.763 0.354 7660
0.262 0.630 0.313 1644
0.282 0.679 0.326 8232
0.355 0.856 0.379 2645
0.282 0.680 0.324 6863
0.338 0.814 0.364 1391
0.315 0.758 0.345 7363
0.315 0.759 0.343 6310
0.318 0.766 0.343 3076
2.095 5.044 1.561 1172
2.085 5.019 1.537 1828
2.009 4.835 1.485 1216
2.007 4.832 1.468 1613
2.087 5.023 1.521 1450
2.162 5.204 1.554 1205
2.218 5.339 1.591 1137
2.252 5.421 1.596 1446
0.334 0.804 0.343 1403
0.319 0.769 0.331 7152
2.315 5.574 1.619 1572
0.317 0.762 0.327 16008
2.311 5.563 1.598 2084
0.317 0.763 0.325 20747
2.304 5.546 1.574 2330
0.317 0.763 0.323 19665
2.320 5.585 1.566 1819
0.320 0.771 0.322 18112
0.264 0.636 0.288 4076
0.318 0.764 0.318 20461
0.261 0.629 0.284 2959
0.318 0.765 0.316 20511
2.381 5.732 1.547 2369
0.282 0.680 0.293 17045
0.339 0.815 0.326 3066
0.280 0.673 0.289 16747
0.336 0.809 0.322 2844
0.280 0.673 0.287 10227
0.336 0.809 0.319 1250
0.286 0.688 0.288 7405
2.441 5.875 1.506 1813
0.289 0.696 0.288 9946
2.424 5.836 1.477 2440
0.286 0.689 0.284 11605
2.426 5.840 1.459 2862
0.286 0.689 0.282 15352
2.460 5.922 1.458 2158
0.289 0.697 0.282 28983
2.459 5.918 1.438 1694
0.290 0.697 0.280 36477
2.597 6.252 1.491 2081
0.287 0.690 0.276 26002
2.595 6.248 1.470 2270
0.287 0.691 0.274 13232
2.666 6.417 1.486 2337
0.287 0.691 0.272 12082
2.667 6.420 1.466 2684
0.290 0.699 0.272 17020
2.689 6.474 1.456 2923
0.290 0.699 0.270 21605
2.691 6.478 1.435 4331
0.291 0.699 0.268 21562
2.692 6.481 1.415 4086
0.288 0.693 0.264 18985
2.780 6.693 1.435 3143
0.288 0.693 0.262 14967
2.791 6.718 1.419 3354
0.288 0.693 0.260 8596
2.795 6.729 1.399 2545
0.288 0.694 0.258 4941
2.901 6.984 1.424 1789
0.291 0.701 0.257 3610
3.041 7.320 1.463 2442
0.294 0.709 0.257 2406
3.042 7.323 1.440 2191
3.082 7.420 1.433 2854
0.294 0.709 0.255 1844
3.084 7.424 1.410 3215
0.295 0.709 0.252 1890
0.295 0.710 0.250 2322
3.091 7.442 1.389 1639
0.292 0.703 0.247 2238
3.219 7.749 1.416 1632
0.292 0.703 0.245 1916
3.358 8.085 1.446 1742
3.366 8.102 1.423 1944
0.292 0.703 0.243 1744
3.364 8.099 1.396 1579
3.466 8.345 1.435 1424
3.609 8.688 1.461 1647
3.465 8.341 1.407 1104
3.614 8.699 1.434 3096
3.615 8.703 1.407 3871
3.537 8.514 1.379 1075
3.616 8.706 1.380 4091
3.618 8.709 1.352 3963
3.619 8.713 1.325 3098
3.621 8.716 1.298 2059
3.625 8.726 1.271 1074
0.844 1.995 1.653 3440
0.892 2.108 1.740 1123
0.846 1.999 1.647 6881
0.893 2.112 1.734 2246
0.847 2.003 1.640 6881
0.895 2.117 1.727 2246
0.852 2.013 1.639 5754
0.899 2.127 1.725 2410
0.856 2.023 1.637 4878
0.904 2.137 1.723 2505
0.873 2.063 1.658 6370
0.921 2.177 1.744 1405
0.877 2.073 1.656 8912
0.925 2.187 1.742 1567
0.879 2.078 1.650 8664
0.927 2.192 1.735 1567
0.888 2.100 1.657 9754
0.840 1.985 1.572 1282
0.900 2.128 1.668 12802
0.851 2.013 1.583 2588
0.907 2.144 1.670 13126
0.858 2.029 1.586 2232
0.909 2.148 1.663 13734
0.860 2.033 1.580 1557
0.913 2.158 1.661 9917
0.864 2.043 1.578 1129
0.920 2.175 1.663 6720
0.921 2.179 1.656 6430
0.970 2.294 1.739 1329
0.921 2.177 1.645 6155
0.970 2.293 1.728 2198
0.917 2.168 1.630 6518
0.966 2.285 1.712 2857
0.914 2.160 1.615 7137
0.963 2.277 1.696 4543
0.915 2.164 1.608 7137
0.965 2.281 1.689 5750
0.917 2.168 1.601 6724
0.966 2.285 1.682 5364
0.921 2.178 1.599 6320
0.971 2.295 1.679 5096
0.923 2.182 1.592 5648
0.975 2.306 1.676 5029
0.995 2.353 1.699 6768
0.927 2.192 1.590 5083
1.002 2.370 1.700 7262
0.929 2.196 1.583 3617
1.009 2.386 1.701 8348
0.959 2.268 1.622 2451
1.011 2.390 1.693 6390
0.961 2.272 1.615 2308
0.978 2.314 1.632 5006
1.029 2.432 1.710 3659
1.025 2.424 1.695 5268
0.975 2.305 1.617 4009
1.024 2.422 1.683 6093
0.974 2.303 1.606 3342
1.031 2.438 1.684 6994
0.981 2.319 1.607 2898
1.038 2.455 1.684 8166
0.980 2.317 1.595 2133
1.040 2.459 1.676 11166
0.982 2.321 1.588 1478
1.042 2.463 1.669 14165
1.092 2.583 1.745 1642
1.044 2.467 1.661 13059
1.094 2.587 1.737 1683
1.048 2.478 1.657 8663
1.099 2.598 1.733 1268
1.060 2.507 1.666 6586
0.977 2.311 1.544 1167
1.070 2.530 1.669 6031
1.075 2.541 1.665 4721
1.087 2.570 1.673 5499
1.138 2.691 1.747 1077
1.094 2.587 1.673 7225
1.145 2.708 1.746 1433
1.096 2.591 1.665 7223
1.147 2.712 1.738 1749
1.100 2.602 1.661 7266
1.152 2.723 1.733 1786
1.099 2.599 1.649 6047
1.151 2.721 1.721 2223
1.134 2.680 1.686 4165
1.082 2.559 1.614 1771
1.171 2.768 1.726 3539
1.119 2.646 1.655 2639
1.140 2.695 1.673 4198
1.191 2.817 1.744 2259
1.144 2.706 1.668 5044
1.196 2.828 1.739 2582
1.146 2.710 1.660 6202
1.198 2.832 1.730 2613
1.164 2.753 1.673 5527
1.216 2.875 1.743 1955
1.171 2.770 1.672 5396
1.223 2.892 1.741 2346
1.176 2.780 1.667 5526
1.228 2.903 1.736 2654
1.183 2.797 1.666 5744
1.235 2.921 1.734 2744
1.185 2.801 1.657 5478
1.237 2.925 1.725 2972
1.186 2.805 1.648 6015
1.239 2.929 1.716 3571
1.191 2.816 1.643 6510
1.243 2.940 1.710 4313
1.193 2.820 1.634 6472
1.245 2.944 1.701 5395
1.247 2.948 1.692 8078
1.194 2.824 1.625 4540
1.246 2.946 1.679 10518
1.193 2.821 1.613 1635
1.245 2.943 1.667 11034
1.298 3.068 1.733 2050
1.252 2.961 1.664 8814
1.305 3.085 1.730 2625
1.271 3.004 1.676 11749
1.218 2.879 1.611 1396
1.275 3.015 1.670 13801
1.222 2.890 1.605 1409
1.282 3.032 1.667 11559
1.229 2.907 1.603 1586
1.284 3.036 1.658 7719
1.337 3.162 1.722 1484
1.280 3.027 1.642 6255
1.333 3.153 1.705 2456
1.282 3.031 1.632 6417
1.335 3.157 1.695 3120
1.286 3.042 1.626 5307
1.345 3.181 1.695 3514
1.285 3.039 1.613 3322
1.344 3.179 1.682 3098
1.343 3.176 1.669 2747
1.281 3.030 1.597 2256
1.356 3.207 1.672 2926
1.303 3.080 1.610 2228
1.347 3.184 1.649 5295
1.293 3.058 1.588 1795
1.351 3.195 1.642 9774
1.298 3.068 1.582 1451
1.359 3.212 1.639 10892
1.366 3.230 1.635 7231
1.376 3.254 1.634 4368
1.378 3.258 1.624 4145
1.394 3.295 1.629 7310
1.340 3.168 1.571 1073
1.393 3.293 1.616 10863
1.447 3.420 1.674 1712
1.394 3.297 1.606 10194
1.448 3.424 1.663 2162
1.404 3.321 1.604 7233
1.459 3.449 1.662 1666
1.412 3.338 1.600 4487
1.466 3.466 1.657 1182
1.422 3.362 1.599 4570
1.476 3.491 1.655 1474
1.438 3.400 1.603 5774
1.492 3.529 1.659 1315
1.443 3.411 1.595 7515
1.497 3.539 1.651 2062
1.447 3.421 1.587 4687
1.502 3.550 1.643 3461
1.497 3.541 1.626 4656
1.443 3.412 1.571 2186
1.479 3.497 1.595 3823
1.534 3.626 1.649 1393
1.486 3.515 1.589 3432
1.541 3.644 1.644 1277
1.500 3.546 1.590 4627
1.554 3.675 1.644 1391
1.504 3.556 1.582 5309
1.559 3.686 1.635 1269
1.506 3.560 1.570 3998
1.561 3.690 1.623 1164
1.542 3.646 1.592 5488
1.487 3.516 1.540 1108
1.544 3.650 1.581 6306
1.599 3.780 1.633 1821
1.554 3.674 1.578 7741
1.609 3.805 1.629 1953
1.561 3.692 1.572 7916
1.617 3.822 1.623 2326
1.581 3.737 1.576 5980
1.636 3.867 1.627 1690
1.594 3.768 1.575 7158
1.539 3.638 1.525 1993
1.598 3.779 1.566 5200
1.654 3.910 1.616 2890
1.620 3.831 1.572 5946
1.565 3.700 1.523 2330
1.622 3.835 1.560 10071
1.677 3.966 1.610 3292
1.624 3.839 1.548 6733
1.679 3.970 1.597 4580
1.675 3.960 1.580 5224
0.358 0.846 0.432 2547
1.685 3.984 1.575 5269
0.352 0.833 0.424 3411
0.353 0.834 0.422 9991
1.690 3.995 1.565 4763
0.353 0.835 0.419 20517
1.688 3.992 1.550 3696
0.353 0.835 0.417 28165
1.672 3.954 1.523 4063
0.354 0.836 0.414 27374
1.736 4.104 1.561 3139
0.354 0.837 0.412 26832
1.737 4.108 1.549 3179
0.351 0.831 0.407 32997
1.709 4.042 1.512 4021
0.352 0.831 0.405 32927
1.729 4.087 1.513 4754
0.352 0.832 0.402 28815
1.733 4.098 1.503 2940
0.352 0.833 0.400 29191
1.744 4.122 1.497 1916
0.355 0.840 0.399 39302
1.745 4.126 1.484 2632
0.356 0.841 0.397 44881
1.758 4.158 1.480 3122
0.359 0.849 0.397 32140
1.766 4.175 1.472 2940
0.362 0.856 0.396 19734
0.306 0.724 0.354 2834
0.362 0.857 0.394 12038
0.306 0.724 0.352 2444
0.360 0.851 0.389 6580
0.286 0.676 0.334 2154
0.357 0.844 0.384 6453
0.286 0.676 0.332 2209
0.357 0.845 0.382 5661
0.286 0.677 0.330 3151
0.319 0.754 0.352 5449
0.376 0.888 0.392 1114
0.316 0.748 0.347 6247
2.166 5.120 1.655 1084
0.317 0.749 0.345 7455
0.320 0.756 0.345 8678
0.320 0.757 0.343 8177
0.320 0.757 0.341 4264
2.128 5.030 1.561 1009
2.123 5.020 1.541 1376
2.037 4.815 1.483 1050
2.038 4.819 1.468 1181
2.187 5.172 1.567 1095
2.267 5.360 1.601 1661
2.189 5.176 1.550 1641
2.271 5.371 1.586 2283
2.194 5.187 1.536 1768
0.324 0.767 0.331 3833
2.273 5.375 1.569 1974
0.322 0.760 0.327 6877
2.341 5.534 1.594 1939
0.322 0.761 0.325 5429
2.339 5.531 1.574 2562
0.289 0.683 0.302 8870
2.356 5.570 1.566 1691
0.289 0.684 0.300 13952
0.346 0.819 0.335 1335
0.289 0.684 0.298 15678
0.346 0.819 0.332 2537
0.290 0.685 0.296 14588
0.347 0.820 0.330 2440
0.290 0.685 0.294 17381
0.347 0.820 0.328 2227
0.287 0.678 0.291 23231
0.344 0.814 0.323 3779
0.290 0.686 0.290 22037
0.347 0.821 0.323 2372
0.290 0.686 0.288 31531
0.348 0.822 0.320 2315
0.290 0.687 0.286 41222
2.456 5.806 1.474 3047
0.288 0.680 0.283 30768
2.463 5.824 1.459 3260
0.288 0.680 0.281 18780
2.498 5.906 1.458 3150
0.291 0.688 0.280 19414
2.499 5.910 1.440 2553
0.294 0.695 0.280 25286
2.631 6.221 1.488 2371
0.294 0.696 0.278 27747
2.632 6.224 1.469 2847
0.291 0.689 0.274 28567
2.707 6.399 1.486 2228
0.292 0.689 0.272 25691
2.708 6.403 1.466 2650
0.292 0.690 0.270 20761
2.731 6.457 1.456 2904
0.292 0.690 0.268 16586
2.732 6.460 1.435 4104
0.292 0.690 0.266 11244
2.731 6.457 1.414 3773
0.292 0.691 0.264 8168
2.732 6.460 1.393 2547
0.292 0.691 0.262 7577
2.770 6.549 1.390 1929
0.295 0.699 0.261 6670
2.945 6.962 1.446 1674
0.296 0.699 0.259 6107
3.077 7.275 1.482 1638
0.296 0.699 0.257 5910
3.087 7.300 1.463 2230
0.296 0.699 0.255 5579
2.952 6.980 1.382 1842
0.296 0.700 0.253 4990
3.130 7.400 1.433 2760
0.296 0.700 0.251 3822
3.128 7.397 1.409 3082
0.296 0.700 0.249 2696
3.139 7.422 1.389 1611
0.296 0.701 0.247 1807
3.159 7.468 1.373 1538
0.296 0.701 0.245 1681
3.386 8.005 1.437 1611
0.297 0.701 0.243 1840
3.418 8.081 1.423 1620
3.413 8.070 1.395 1628
0.297 0.702 0.241 1524
3.665 8.665 1.461 1374
0.297 0.702 0.239 1177
3.669 8.676 1.434 2568
3.671 8.679 1.407 3248
3.672 8.683 1.380 3404
3.674 8.686 1.352 3244
3.675 8.689 1.325 2495
3.676 8.692 1.298 1626
0.845 1.974 1.639 3670
0.895 2.092 1.731 1225
0.846 1.978 1.633 7340
0.897 2.097 1.725 2451
0.848 1.982 1.627 7340
0.899 2.101 1.718 2451
0.857 2.004 1.634 6130
0.906 2.117 1.721 2758
0.862 2.014 1.632 5140
0.910 2.127 1.719 2994
0.881 2.060 1.658 5437
0.930 2.173 1.744 1261
0.883 2.064 1.651 7541
0.932 2.178 1.737 1685
0.887 2.074 1.650 7516
0.936 2.188 1.735 1293
0.912 2.132 1.683 10187
0.863 2.018 1.599 3629
0.911 2.130 1.672 13958
0.862 2.016 1.588 3467
0.916 2.140 1.670 14202
0.867 2.026 1.586 2751
0.917 2.144 1.663 14496
0.868 2.030 1.580 1873
0.922 2.155 1.661 10321
0.872 2.039 1.578 1254
0.929 2.171 1.663 6892
0.930 2.175 1.656 6206
0.980 2.290 1.739 1149
0.924 2.161 1.637 5690
0.974 2.276 1.719 2747
0.923 2.159 1.626 6989
0.973 2.275 1.708 3002
0.923 2.156 1.615 8530
0.972 2.273 1.696 4495
0.924 2.160 1.608 8530
0.974 2.277 1.689 5823
0.926 2.164 1.601 8508
0.976 2.281 1.682 5383
0.930 2.174 1.599 8643
0.983 2.297 1.683 5197
0.932 2.178 1.592 7722
0.985 2.302 1.676 5117
0.936 2.188 1.590 6986
1.005 2.349 1.699 6586
1.012 2.365 1.700 6808
0.938 2.192 1.583 5248
1.019 2.382 1.701 7793
0.937 2.190 1.572 3575
1.021 2.386 1.693 6064
0.939 2.194 1.565 3075
0.991 2.316 1.636 6082
1.041 2.434 1.714 3477
1.035 2.419 1.695 5174
0.984 2.301 1.617 4317
1.031 2.411 1.679 5864
0.981 2.293 1.602 3382
1.041 2.434 1.684 7192
0.990 2.315 1.607 3313
1.043 2.438 1.676 8626
0.992 2.319 1.599 2852
1.047 2.448 1.672 11958
0.997 2.329 1.596 2115
1.052 2.459 1.669 15463
1.103 2.578 1.745 1611
1.054 2.463 1.661 14510
1.105 2.583 1.737 1375
1.061 2.480 1.661 10382
0.980 2.291 1.543 1057
1.065 2.490 1.658 7662
0.984 2.301 1.540 1154
1.078 2.519 1.666 5828
1.129 2.640 1.740 1053
1.088 2.543 1.669 5130
1.098 2.566 1.673 5454
1.046 2.445 1.599 1302
1.105 2.583 1.673 6919
1.157 2.703 1.746 1519
1.107 2.587 1.665 6767
1.158 2.708 1.738 1739
1.108 2.591 1.657 6615
1.160 2.712 1.729 1959
1.107 2.588 1.645 5824
1.159 2.710 1.717 2440
1.109 2.592 1.637 4239
1.175 2.746 1.727 2403
1.182 2.763 1.726 3507
1.114 2.603 1.632 3382
1.187 2.774 1.721 3942
1.134 2.652 1.650 2557
1.191 2.784 1.716 4607
1.139 2.662 1.646 3140
1.154 2.698 1.656 5162
1.207 2.821 1.726 2505
1.178 2.754 1.677 5437
1.231 2.877 1.747 1654
1.186 2.771 1.676 6016
1.238 2.894 1.745 2128
1.190 2.782 1.671 6473
1.243 2.905 1.740 2407
1.195 2.792 1.666 6645
1.247 2.915 1.734 2775
1.196 2.796 1.657 6152
1.249 2.920 1.725 3046
1.198 2.800 1.648 5895
1.251 2.924 1.716 3936
1.203 2.811 1.643 5855
1.255 2.935 1.710 4788
1.215 2.841 1.648 6374
1.268 2.965 1.715 3941
1.256 2.937 1.689 8565
1.203 2.813 1.622 4111
1.258 2.941 1.679 9781
1.205 2.816 1.613 1967
1.260 2.945 1.670 9045
1.313 3.069 1.736 1758
1.270 2.969 1.671 7303
1.217 2.844 1.606 2096
1.283 2.999 1.676 11203
1.230 2.874 1.611 1568
1.285 3.003 1.666 13368
1.338 3.128 1.731 1518
1.289 3.014 1.660 11008
1.343 3.139 1.725 1827
1.291 3.018 1.651 7475
1.345 3.143 1.715 2251
1.290 3.015 1.638 6006
1.344 3.141 1.702 2844
1.292 3.019 1.629 5605
1.345 3.145 1.692 3171
1.296 3.030 1.623 4810
1.358 3.175 1.695 3896
1.349 3.153 1.672 4271
1.295 3.027 1.610 3119
1.342 3.137 1.653 4157
1.288 3.011 1.591 1799
1.341 3.135 1.639 4045
1.395 3.261 1.701 1347
1.357 3.172 1.646 5136
1.303 3.046 1.585 1371
1.364 3.189 1.642 8961
1.310 3.063 1.582 1049
1.372 3.207 1.639 9657
1.426 3.333 1.699 1066
1.379 3.224 1.635 6466
1.387 3.241 1.631 3935
1.391 3.252 1.624 3684
1.446 3.379 1.683 1011
1.410 3.296 1.632 6762
1.356 3.169 1.574 1394
1.406 3.287 1.616 9944
1.461 3.414 1.674 1807
1.408 3.291 1.606 9293
1.462 3.418 1.663 2136
1.415 3.308 1.601 6492
1.470 3.436 1.659 2320
1.463 3.420 1.639 5097
1.408 3.292 1.582 3387
1.465 3.424 1.628 5802
1.410 3.296 1.572 2028
1.464 3.421 1.615 7220
1.409 3.293 1.558 1181
1.460 3.412 1.598 8129
1.514 3.540 1.654 1732
1.461 3.415 1.587 5221
1.516 3.544 1.643 3671
1.509 3.528 1.623 5261
1.454 3.399 1.568 1825
1.502 3.511 1.603 4871
1.447 3.382 1.549 1017
1.498 3.502 1.587 4075
1.553 3.631 1.641 1264
1.514 3.540 1.590 3829
1.570 3.669 1.644 1191
1.519 3.550 1.582 5589
1.574 3.680 1.635 1027
1.520 3.554 1.570 4887
1.557 3.640 1.592 5017
1.502 3.510 1.540 1411
1.562 3.650 1.584 6366
1.617 3.780 1.636 1586
1.569 3.668 1.578 8419
1.625 3.798 1.629 1860
1.577 3.686 1.572 8196
1.632 3.816 1.623 2372
1.599 3.737 1.579 6392
0.356 0.833 0.444 1630
1.606 3.755 1.572 6742
0.357 0.834 0.442 2207
1.614 3.772 1.566 4761
1.673 3.910 1.619 3096
1.630 3.811 1.567 6074
0.360 0.842 0.439 3821
1.635 3.821 1.558 9618
0.361 0.843 0.437 5361
0.361 0.844 0.434 7010
1.639 3.832 1.548 6153
0.358 0.838 0.429 9075
1.694 3.960 1.582 5265
0.359 0.838 0.427 11880
1.699 3.971 1.572 5242
0.356 0.832 0.422 16853
1.706 3.988 1.565 4518
0.356 0.833 0.419 21234
1.684 3.937 1.532 3738
0.357 0.834 0.417 23013
1.686 3.940 1.520 4978
0.357 0.835 0.414 21493
1.723 4.027 1.537 3768
0.357 0.835 0.412 16907
1.727 4.038 1.527 3592
0.358 0.836 0.409 14856
1.732 4.049 1.517 4404
0.361 0.844 0.409 13605
1.743 4.073 1.511 5311
0.358 0.837 0.404 13103
1.747 4.084 1.500 3093
0.359 0.838 0.402 20831
1.764 4.122 1.499 1925
0.359 0.839 0.399 27167
1.765 4.126 1.486 2799
0.359 0.840 0.397 23584
1.776 4.150 1.480 3005
0.359 0.840 0.394 16552
1.783 4.168 1.472 2586
0.360 0.841 0.392 14755
1.841 4.304 1.501 2109
0.360 0.842 0.389 13124
1.843 4.308 1.488 2166
0.360 0.842 0.387 7235
0.303 0.709 0.345 1476
0.361 0.843 0.384 5077
0.304 0.710 0.343 1581
0.316 0.739 0.350 4789
0.373 0.872 0.390 3018
0.319 0.746 0.350 9349
0.376 0.879 0.390 1521
0.319 0.747 0.347 12206
0.376 0.880 0.387 1324
0.320 0.747 0.345 12400
0.320 0.748 0.343 12536
0.320 0.748 0.341 10358
0.323 0.756 0.341 4276
2.281 5.331 1.649 1115
2.283 5.335 1.633 1349
2.147 5.018 1.543 1125
2.206 5.156 1.565 1295
2.146 5.015 1.525 1262
2.283 5.336 1.597 1863
2.204 5.153 1.547 1252
2.291 5.354 1.584 2845
2.206 5.157 1.530 1110
0.324 0.759 0.329 6788
2.292 5.358 1.567 2235
0.322 0.752 0.325 14887
2.309 5.397 1.560 1791
0.322 0.752 0.323 21748
2.317 5.415 1.547 2106
0.322 0.753 0.321 34497
2.315 5.412 1.528 1902
0.322 0.753 0.319 44854
2.353 5.501 1.532 1715
0.323 0.754 0.316 49452
0.265 0.619 0.282 1973
0.323 0.754 0.314 41994
0.265 0.620 0.281 2086
0.323 0.755 0.312 24738
0.265 0.620 0.279 2703
0.290 0.677 0.291 28107
0.347 0.812 0.323 5921
0.293 0.685 0.290 21922
0.351 0.820 0.323 4245
0.327 0.763 0.307 31565
0.269 0.628 0.275 4177
0.293 0.685 0.286 41661
0.351 0.821 0.318 3638
0.290 0.679 0.283 40759
0.348 0.814 0.314 4152
0.291 0.679 0.281 26342
2.525 5.903 1.460 3125
0.291 0.679 0.279 16974
2.530 5.914 1.443 3078
0.294 0.687 0.278 14670
2.654 6.203 1.487 2478
0.291 0.680 0.275 8853
2.658 6.213 1.469 2929
0.294 0.688 0.274 7317
2.663 6.224 1.451 2318
0.294 0.688 0.272 10659
2.735 6.392 1.466 2438
0.295 0.688 0.270 12406
2.757 6.445 1.456 2932
0.295 0.689 0.268 10768
2.756 6.442 1.434 3954
0.292 0.682 0.265 6657
2.757 6.445 1.414 3526
0.292 0.682 0.263 3086
2.762 6.456 1.395 2761
2.766 6.466 1.376 2012
0.295 0.690 0.262 1909
0.298 0.697 0.261 1914
2.915 6.814 1.421 1796
0.298 0.698 0.259 2034
3.113 7.276 1.485 1973
3.136 7.330 1.471 2256
0.299 0.698 0.257 1871
3.144 7.348 1.450 2075
2.981 6.967 1.382 1963
3.148 7.359 1.428 2875
3.283 7.675 1.484 1660
3.153 7.369 1.406 2883
3.214 7.513 1.431 1683
0.299 0.699 0.249 2190
3.216 7.517 1.408 1641
0.299 0.699 0.247 2349
3.414 7.980 1.461 1540
0.299 0.700 0.245 2060
3.419 7.991 1.437 2047
0.299 0.700 0.243 1748
3.423 8.002 1.413 1612
3.446 8.056 1.395 1633
3.557 8.315 1.436 1580
0.303 0.708 0.240 1204
3.559 8.318 1.410 1136
3.705 8.661 1.434 1807
3.707 8.664 1.407 2362
3.708 8.667 1.380 2405
3.709 8.671 1.352 2158
3.711 8.674 1.325 1570
0.850 1.972 1.639 3877
0.901 2.090 1.731 1058
0.852 1.976 1.633 7754
0.903 2.094 1.725 2116
0.853 1.980 1.627 7754
0.905 2.098 1.718 2116
0.858 1.990 1.625 6376
0.906 2.103 1.712 3064
0.865 2.006 1.628 5288
0.913 2.119 1.714 3311
0.913 2.117 1.703 5413
0.864 2.004 1.617 4583
0.917 2.127 1.701 7347
0.868 2.014 1.615 4061
0.919 2.131 1.694 7347
0.870 2.018 1.609 4025
0.918 2.130 1.683 10685
0.869 2.015 1.599 3900
0.920 2.134 1.677 14245
0.870 2.019 1.592 3900
0.921 2.138 1.670 14277
0.872 2.023 1.586 2946
0.923 2.142 1.663 14309
0.874 2.027 1.580 1992
0.928 2.152 1.661 10121
0.878 2.037 1.578 1242
0.937 2.174 1.668 6759
0.936 2.172 1.656 5817
0.930 2.158 1.637 5314
0.980 2.274 1.719 2438
0.929 2.156 1.626 7152
0.979 2.272 1.708 2703
0.928 2.154 1.615 9275
0.978 2.270 1.696 4040
0.930 2.158 1.608 9275
0.980 2.274 1.689 5195
0.934 2.168 1.606 9368
0.985 2.284 1.686 4933
0.936 2.172 1.599 9624
0.989 2.295 1.683 5045
0.940 2.182 1.596 8419
0.991 2.299 1.676 4853
0.945 2.192 1.594 7570
1.011 2.346 1.699 6357
1.018 2.363 1.700 6470
0.944 2.190 1.583 5761
1.026 2.379 1.701 7280
0.943 2.187 1.572 4134
0.995 2.309 1.644 6378
1.046 2.427 1.722 3540
1.000 2.319 1.640 6906
1.051 2.437 1.719 3178
1.001 2.323 1.633 5324
1.052 2.441 1.711 3781
1.035 2.402 1.675 5510
0.984 2.284 1.597 2975
1.045 2.425 1.680 6955
0.994 2.306 1.603 3285
1.047 2.429 1.672 8691
0.996 2.310 1.595 3024
1.054 2.446 1.672 11946
1.003 2.327 1.596 2500
1.059 2.456 1.669 15497
1.007 2.337 1.593 1542
1.060 2.460 1.661 14654
1.112 2.580 1.737 1166
1.068 2.477 1.661 10927
1.072 2.487 1.658 8087
0.990 2.298 1.540 1017
1.079 2.504 1.658 5596
1.131 2.624 1.732 1462
1.097 2.546 1.673 5515
1.046 2.426 1.599 1325
1.107 2.569 1.677 5440
1.055 2.449 1.603 1744
1.112 2.579 1.673 6791
1.164 2.700 1.746 1525
1.114 2.584 1.665 6436
1.166 2.704 1.738 1641
1.115 2.588 1.657 6082
1.168 2.709 1.729 1757
1.114 2.585 1.645 5598
1.167 2.707 1.717 2281
1.116 2.589 1.637 4502
1.179 2.736 1.724 2490
1.121 2.600 1.632 3984
1.187 2.753 1.723 3344
1.191 2.764 1.718 3587
1.122 2.604 1.624 2772
1.196 2.775 1.713 4060
1.143 2.653 1.642 2985
1.159 2.689 1.652 4323
1.212 2.811 1.723 2184
1.189 2.757 1.681 5562
1.241 2.880 1.750 1402
1.196 2.774 1.679 6722
1.249 2.897 1.749 1751
1.200 2.785 1.674 7130
1.253 2.908 1.743 1945
1.202 2.789 1.666 7159
1.255 2.912 1.734 2543
1.204 2.793 1.657 6582
1.257 2.916 1.725 2863
1.206 2.797 1.648 5712
1.259 2.921 1.716 3985
1.244 2.886 1.686 6158
1.191 2.762 1.618 2279
1.246 2.890 1.677 6699
1.192 2.766 1.610 2600
1.264 2.933 1.689 8189
1.211 2.809 1.622 3714
1.266 2.937 1.679 8639
1.213 2.813 1.613 2169
1.268 2.941 1.670 7310
1.214 2.817 1.604 2053
1.281 2.972 1.675 6273
1.227 2.847 1.609 2719
1.291 2.995 1.676 10221
1.237 2.871 1.611 1664
1.293 3.000 1.666 12489
1.347 3.124 1.731 1541
1.295 3.004 1.657 10382
1.349 3.128 1.721 2328
1.296 3.008 1.648 7127
1.350 3.133 1.711 2948
1.295 3.005 1.635 5466
1.349 3.130 1.698 3701
1.337 3.101 1.672 5103
1.283 2.976 1.609 2226
1.347 3.125 1.672 5208
1.293 3.000 1.609 3268
1.352 3.136 1.666 6328
1.298 3.010 1.603 2377
1.354 3.140 1.656 6226
1.299 3.014 1.594 1527
1.352 3.138 1.643 5776
1.407 3.264 1.704 1167
1.354 3.142 1.633 5960
1.409 3.268 1.694 1576
1.370 3.179 1.639 7528
1.378 3.196 1.635 8066
1.432 3.323 1.696 1310
1.385 3.214 1.632 5778
1.440 3.340 1.692 1425
1.390 3.224 1.625 3726
1.444 3.351 1.684 1426
1.423 3.302 1.649 3522
1.368 3.175 1.590 1808
1.422 3.299 1.635 5597
1.367 3.172 1.577 1439
1.412 3.276 1.613 8176
1.467 3.404 1.671 2292
1.417 3.287 1.606 7539
1.472 3.414 1.663 2111
1.424 3.304 1.601 5410
1.479 3.432 1.659 2762
1.469 3.409 1.636 6932
1.414 3.281 1.579 2577
1.471 3.413 1.625 8537
1.416 3.285 1.569 1565
1.473 3.417 1.615 9104
1.418 3.289 1.558 1119
1.472 3.414 1.601 8629
1.527 3.543 1.657 1374
1.473 3.418 1.590 5748
1.529 3.547 1.646 3167
1.516 3.517 1.620 5680
1.460 3.388 1.565 1562
1.512 3.507 1.603 6019
1.456 3.379 1.549 1084
1.508 3.498 1.587 5171
1.563 3.626 1.641 1076
1.521 3.529 1.587 3888
1.577 3.658 1.641 1228
1.529 3.546 1.582 5868
1.584 3.675 1.635 1033
1.533 3.557 1.573 5539
1.589 3.686 1.626 1151
1.570 3.642 1.595 4966
1.514 3.513 1.543 1785
1.575 3.653 1.586 6464
1.519 3.523 1.534 1529
1.579 3.664 1.578 8220
1.523 3.534 1.526 1730
1.581 3.668 1.566 7625
1.637 3.797 1.618 2396
1.606 3.726 1.576 6462
0.362 0.839 0.447 1525
1.617 3.751 1.572 6336
1.561 3.620 1.522 1894
1.624 3.768 1.566 4269
1.680 3.898 1.616 3093
1.641 3.806 1.567 5369
0.363 0.841 0.439 4405
1.642 3.810 1.555 8019
0.363 0.842 0.437 7029
0.363 0.843 0.434 10015
1.656 3.841 1.554 5661
0.361 0.837 0.429 12654
1.705 3.955 1.582 4803
0.361 0.837 0.427 15575
1.709 3.966 1.572 4724
0.358 0.831 0.422 20753
1.729 4.011 1.575 4136
0.359 0.832 0.419 24649
1.689 3.918 1.528 4813
0.359 0.833 0.417 24466
1.694 3.929 1.518 5423
0.359 0.834 0.414 20585
1.734 4.023 1.537 4742
0.360 0.834 0.412 15983
1.741 4.040 1.529 4102
0.360 0.835 0.409 16856
1.746 4.051 1.519 4426
0.360 0.836 0.407 19685
1.754 4.068 1.511 5113
0.364 0.843 0.407 20011
1.758 4.079 1.500 3030
0.364 0.844 0.404 16572
1.823 4.229 1.537 1948
0.364 0.845 0.402 11135
1.824 4.232 1.523 2926
0.361 0.839 0.397 7555
1.787 4.145 1.480 2572
0.362 0.839 0.394 6583
1.800 4.177 1.476 2094
0.365 0.847 0.394 10189
0.287 0.666 0.336 2628
0.365 0.848 0.392 13027
0.287 0.666 0.334 3133
0.366 0.848 0.389 11251
0.287 0.667 0.332 3023
0.366 0.849 0.387 7441
0.309 0.716 0.345 2846
0.321 0.745 0.352 7011
0.378 0.878 0.393 3090
0.321 0.745 0.350 11474
0.379 0.878 0.390 2385
0.321 0.746 0.347 15909
0.379 0.879 0.387 2117
0.322 0.746 0.345 17860
0.379 0.880 0.385 1301
0.319 0.740 0.341 17022
0.322 0.747 0.341 13579
0.325 0.755 0.341 5738
2.223 5.156 1.601 1008
2.224 5.160 1.585 1345
2.164 5.020 1.545 1341
2.159 5.009 1.525 1503
2.220 5.150 1.565 1462
2.300 5.337 1.599 1743
2.164 5.020 1.512 1303
2.302 5.341 1.582 2525
2.171 5.038 1.500 1601
0.327 0.758 0.329 4201
2.304 5.345 1.565 1773
0.327 0.758 0.327 6332
0.442 1.026 0.399 1745
0.324 0.752 0.323 8285
2.216 5.140 1.476 1689
0.327 0.759 0.323 19673
2.275 5.278 1.495 1736
0.324 0.753 0.319 36879
2.405 5.579 1.554 2111
0.325 0.753 0.316 52627
2.403 5.576 1.535 2418
0.325 0.753 0.314 53882
2.405 5.580 1.517 1922
0.325 0.754 0.312 35815
0.267 0.619 0.279 2007
0.328 0.762 0.311 29194
0.270 0.627 0.279 5833
0.328 0.762 0.309 32057
0.270 0.627 0.277 5171
0.295 0.684 0.288 32981
0.353 0.819 0.320 4074
0.295 0.685 0.286 46576
0.353 0.820 0.318 3789
0.295 0.685 0.284 55228
2.500 5.800 1.457 2898
0.292 0.678 0.281 58221
2.545 5.903 1.462 3089
0.296 0.686 0.280 53474
2.549 5.914 1.444 3368
0.296 0.686 0.278 43562
2.652 6.153 1.477 2357
0.293 0.679 0.275 28103
2.650 6.149 1.456 2449
0.296 0.687 0.274 16150
2.649 6.145 1.436 2271
0.299 0.694 0.274 14585
2.752 6.384 1.466 2277
0.299 0.695 0.272 16217
2.772 6.431 1.454 2881
0.300 0.695 0.270 17597
2.770 6.427 1.432 3641
0.300 0.695 0.268 15735
2.772 6.431 1.412 3097
0.297 0.689 0.264 13503
2.779 6.448 1.395 2153
0.297 0.689 0.262 11718
2.960 6.867 1.455 2018
0.300 0.696 0.261 7809
3.131 7.264 1.508 2105
0.300 0.697 0.259 4766
3.136 7.275 1.486 2182
0.300 0.697 0.257 3177
3.156 7.322 1.471 2558
3.145 7.296 1.443 2565
0.301 0.697 0.255 2236
3.165 7.343 1.427 2554
0.304 0.705 0.255 2127
0.304 0.705 0.252 2377
3.170 7.354 1.405 2300
0.304 0.706 0.250 2811
3.236 7.508 1.408 2148
0.304 0.706 0.248 2859
3.433 7.964 1.459 1672
0.304 0.706 0.246 2714
3.440 7.982 1.437 2246
0.304 0.706 0.244 2453
3.445 7.992 1.413 1888
3.583 8.312 1.437 1847
0.305 0.707 0.242 1832
0.305 0.707 0.240 1485
3.584 8.316 1.411 1389
0.305 0.707 0.238 1278
3.726 8.643 1.433 1190
3.730 8.654 1.407 1614
3.732 8.657 1.380 1609
3.733 8.661 1.352 1328
0.855 1.969 1.639 4032
0.857 1.973 1.633 8065
0.906 2.086 1.720 1835
0.859 1.977 1.627 8065
0.908 2.090 1.714 1835
0.863 1.987 1.625 6762
0.912 2.100 1.712 2833
0.868 1.997 1.623 5660
0.917 2.110 1.710 3584
0.918 2.114 1.703 5550
0.869 2.001 1.617 4847
0.923 2.125 1.701 7775
0.874 2.011 1.615 4105
0.925 2.129 1.694 7775
0.875 2.015 1.609 4075
0.924 2.127 1.683 11038
0.874 2.013 1.599 3964
0.926 2.131 1.677 14559
0.876 2.017 1.592 3964
0.927 2.135 1.670 14299
0.878 2.021 1.586 3021
0.929 2.139 1.663 14039
0.879 2.025 1.580 2079
0.934 2.149 1.661 9773
0.884 2.035 1.578 1313
0.943 2.172 1.668 6331
0.942 2.170 1.656 5213
0.934 2.149 1.632 4858
0.984 2.265 1.715 2624
0.933 2.147 1.621 7079
0.983 2.263 1.703 2837
0.934 2.151 1.615 9453
0.985 2.267 1.696 3503
0.936 2.155 1.608 9453
0.987 2.271 1.689 4341
0.941 2.165 1.606 9630
0.991 2.282 1.686 4631
0.942 2.169 1.599 9895
0.996 2.292 1.683 5079
0.947 2.179 1.596 8611
0.997 2.296 1.676 4634
0.951 2.189 1.594 7883
1.021 2.349 1.703 6060
0.990 2.280 1.645 6420
0.939 2.162 1.566 4020
1.030 2.370 1.696 7018
0.949 2.185 1.572 4079
1.004 2.312 1.648 7101
0.951 2.189 1.565 3516
1.009 2.323 1.645 8291
1.060 2.440 1.723 3058
1.013 2.333 1.641 6275
1.065 2.451 1.719 3075
1.029 2.368 1.655 5417
0.953 2.194 1.540 1875
1.049 2.416 1.676 6589
0.998 2.297 1.598 3104
1.054 2.426 1.672 8665
1.002 2.307 1.595 3151
1.061 2.443 1.672 11583
1.009 2.324 1.596 2828
1.063 2.447 1.665 15027
1.011 2.328 1.589 1617
1.070 2.463 1.665 14193
1.018 2.344 1.590 1334
1.075 2.474 1.661 10912
1.079 2.484 1.658 8015
1.131 2.604 1.732 1100
1.084 2.495 1.654 5542
1.136 2.614 1.728 2099
1.105 2.543 1.673 6020
1.052 2.423 1.599 1628
1.117 2.572 1.681 5697
1.065 2.452 1.607 2140
1.122 2.583 1.677 6981
1.070 2.462 1.603 1553
1.121 2.580 1.665 6158
1.173 2.701 1.738 1509
1.120 2.578 1.653 5460
1.172 2.699 1.725 1530
1.122 2.582 1.645 5197
1.174 2.703 1.717 2025
1.123 2.586 1.637 4652
1.187 2.733 1.724 2545
1.128 2.597 1.632 4507
1.192 2.744 1.719 3070
1.132 2.607 1.628 3284
1.199 2.761 1.718 3178
1.159 2.669 1.653 3512
1.212 2.791 1.724 2573
1.197 2.756 1.693 3911
1.144 2.634 1.623 1659
1.199 2.760 1.684 6042
1.252 2.883 1.754 1220
1.204 2.771 1.679 7608
1.257 2.893 1.749 1515
1.208 2.782 1.674 7836
1.262 2.904 1.743 1639
1.210 2.786 1.666 7517
1.263 2.908 1.734 2192
1.212 2.790 1.657 6933
1.265 2.913 1.725 2595
1.214 2.794 1.648 5627
1.267 2.917 1.716 4002
1.252 2.882 1.686 6902
1.198 2.759 1.618 2309
1.254 2.886 1.677 7415
1.200 2.763 1.610 2285
1.270 2.923 1.685 7520
1.216 2.799 1.618 3132
1.274 2.934 1.679 7320
1.221 2.810 1.613 2417
1.248 2.872 1.636 6649
1.310 3.016 1.712 4562
1.286 2.961 1.671 5493
1.232 2.837 1.606 2609
1.297 2.985 1.672 8922
1.243 2.861 1.607 1568
1.296 2.983 1.660 11317
1.350 3.107 1.724 2763
1.300 2.993 1.654 9563
1.354 3.118 1.718 3068
1.302 2.997 1.644 6449
1.356 3.122 1.708 4024
1.347 3.100 1.685 5916
1.292 2.975 1.622 3198
1.348 3.104 1.675 6451
1.294 2.979 1.612 2338
1.353 3.115 1.669 7311
1.299 2.990 1.606 2187
1.361 3.132 1.666 9065
1.306 3.007 1.603 1772
1.362 3.136 1.656 8902
1.308 3.011 1.594 1042
1.364 3.140 1.646 8111
1.366 3.144 1.636 7115
1.421 3.271 1.697 1241
1.371 3.155 1.629 6242
1.425 3.281 1.690 1489
1.387 3.192 1.635 6291
1.442 3.319 1.696 1348
1.394 3.210 1.632 5126
1.449 3.336 1.692 1683
1.399 3.220 1.625 3882
1.454 3.347 1.684 1738
1.441 3.318 1.658 3890
1.386 3.191 1.599 2629
1.443 3.322 1.648 5246
1.388 3.195 1.589 2522
1.419 3.266 1.610 6315
1.474 3.393 1.668 3003
1.426 3.283 1.606 5683
1.481 3.410 1.663 2190
1.436 3.307 1.604 4572
1.492 3.435 1.662 2795
1.479 3.405 1.636 8535
1.424 3.277 1.579 1817
1.481 3.409 1.625 11121
1.425 3.281 1.569 1057
1.483 3.413 1.615 10699
1.484 3.417 1.604 9173
1.483 3.414 1.590 6512
1.539 3.542 1.646 2739
1.526 3.513 1.620 6236
1.470 3.384 1.565 2112
1.522 3.503 1.603 7607
1.466 3.374 1.549 1097
1.520 3.500 1.589 6740
1.534 3.531 1.590 4692
1.590 3.660 1.644 1021
1.544 3.555 1.587 6602
1.488 3.426 1.534 1134
1.546 3.559 1.576 6340
1.602 3.688 1.629 1498
1.580 3.638 1.595 5468
1.524 3.509 1.543 1828
1.585 3.649 1.586 7230
1.529 3.519 1.534 1823
1.590 3.659 1.578 7950
1.533 3.530 1.526 1975
1.588 3.656 1.564 6682
1.650 3.800 1.620 2179
1.617 3.722 1.576 6098
0.364 0.838 0.447 2267
1.621 3.732 1.567 6013
0.364 0.839 0.444 1808
1.673 3.852 1.600 3720
1.617 3.722 1.550 3647
1.648 3.795 1.565 4619
1.705 3.925 1.614 3288
1.653 3.805 1.555 6432
1.710 3.936 1.604 3140
1.673 3.850 1.559 6619
1.729 3.981 1.607 2699
0.363 0.836 0.429 4627
1.677 3.861 1.549 4589
0.363 0.836 0.427 7800
1.721 3.961 1.572 4122
0.361 0.830 0.422 10832
1.695 3.903 1.537 4581
0.361 0.831 0.419 11874
1.700 3.914 1.528 5927
0.361 0.832 0.417 11097
1.705 3.924 1.518 5769
0.359 0.826 0.412 10446
1.745 4.018 1.537 5752
0.362 0.833 0.412 13133
1.753 4.035 1.529 4768
0.362 0.834 0.409 19281
1.760 4.053 1.521 4871
0.363 0.835 0.407 24752
1.765 4.063 1.511 5175
0.366 0.842 0.407 30145
0.291 0.669 0.348 3436
0.363 0.836 0.402 30489
0.294 0.677 0.348 3301
0.364 0.837 0.399 25775
1.836 4.227 1.523 3727
0.364 0.838 0.397 20412
1.838 4.231 1.510 2661
0.361 0.831 0.392 16283
0.304 0.699 0.349 1845
0.364 0.839 0.392 16151
1.868 4.301 1.503 2425
0.365 0.840 0.389 15935
1.870 4.304 1.490 2897
0.365 0.840 0.387 13424
0.307 0.708 0.345 2926
0.365 0.841 0.384 10540
0.308 0.708 0.343 3697
0.320 0.737 0.350 7205
0.378 0.870 0.390 5217
0.323 0.744 0.350 7013
0.381 0.877 0.390 3007
0.324 0.745 0.347 4423
0.381 0.878 0.387 2106
0.324 0.745 0.345 5251
0.324 0.746 0.343 7494
0.327 0.754 0.343 5719
0.328 0.754 0.341 1692
2.191 5.045 1.571 1355
2.175 5.006 1.543 1620
2.236 5.147 1.583 1559
2.176 5.010 1.527 1517
2.234 5.144 1.565 1256
2.319 5.338 1.601 1649
2.181 5.021 1.513 1375
2.320 5.341 1.584 2533
2.186 5.032 1.500 1998
0.335 0.771 0.333 3851
2.322 5.345 1.567 1673
0.329 0.757 0.327 7961
2.232 5.138 1.494 1658
0.323 0.744 0.321 9841
2.233 5.141 1.478 1845
0.323 0.744 0.319 13119
0.428 0.984 0.381 1406
0.326 0.752 0.319 15367
2.420 5.572 1.554 2045
0.330 0.759 0.318 19294
2.422 5.576 1.537 2990
0.330 0.760 0.316 35310
2.424 5.580 1.519 2765
0.327 0.753 0.312 42375
2.435 5.605 1.507 1719
0.327 0.753 0.310 29140
0.269 0.619 0.277 1505
0.297 0.683 0.290 31672
2.472 5.690 1.490 2393
0.297 0.683 0.288 42187
2.550 5.871 1.514 2670
0.294 0.677 0.285 40328
0.353 0.812 0.316 3816
0.294 0.677 0.283 39266
0.353 0.812 0.314 4600
0.297 0.685 0.282 48215
2.564 5.903 1.463 3351
0.298 0.685 0.280 54416
2.566 5.907 1.444 3770
0.301 0.692 0.280 58086
2.663 6.131 1.474 2277
0.298 0.686 0.276 57557
2.662 6.127 1.453 2765
0.298 0.686 0.274 57391
2.663 6.131 1.434 2814
0.298 0.686 0.272 54384
2.665 6.134 1.415 2084
0.301 0.694 0.272 49158
2.793 6.430 1.456 2565
0.302 0.694 0.270 48070
2.788 6.419 1.432 3363
0.302 0.695 0.268 42569
2.787 6.416 1.411 2685
0.299 0.688 0.264 37312
2.978 6.855 1.476 2032
0.299 0.688 0.262 32963
2.979 6.858 1.455 2261
0.302 0.696 0.261 23771
2.984 6.869 1.434 2101
0.302 0.696 0.259 16535
3.159 7.273 1.487 2023
0.302 0.696 0.257 12600
3.180 7.320 1.472 2432
0.306 0.704 0.257 10456
3.162 7.280 1.441 2788
0.306 0.704 0.255 9425
3.148 7.248 1.412 2781
0.306 0.704 0.252 8465
3.262 7.510 1.434 2564
0.306 0.705 0.250 7881
3.263 7.513 1.410 2422
0.306 0.705 0.248 6431
3.358 7.732 1.422 1757
0.306 0.705 0.246 4655
3.463 7.972 1.437 2343
0.306 0.706 0.244 3362
3.467 7.983 1.413 2117
3.609 8.309 1.438 2322
0.307 0.706 0.242 2294
0.310 0.713 0.241 1935
3.611 8.313 1.412 1879
0.307 0.706 0.238 1961
3.616 8.323 1.387 1490
0.307 0.707 0.236 2017
3.617 8.327 1.360 1274
0.307 0.707 0.234 2032
3.615 8.323 1.333 1168
0.307 0.707 0.232 1665
0.304 0.700 0.229 1126
0.861 1.967 1.639 3950
0.863 1.971 1.633 7901
0.912 2.083 1.720 1514
0.864 1.975 1.627 7901
0.914 2.088 1.714 1514
0.869 1.985 1.625 6771
0.918 2.098 1.712 2419
0.873 1.995 1.623 5749
0.922 2.108 1.710 3259
0.924 2.112 1.703 5427
0.875 1.999 1.617 4810
0.929 2.122 1.701 7818
0.879 2.009 1.615 3949
0.931 2.126 1.694 7818
0.881 2.013 1.609 3850
0.930 2.124 1.683 11110
0.880 2.011 1.599 3688
0.932 2.129 1.677 14626
0.882 2.015 1.592 3688
0.933 2.133 1.670 14091
0.883 2.018 1.586 2893
0.935 2.137 1.663 13557
0.885 2.022 1.580 2099
0.940 2.147 1.661 9204
0.889 2.032 1.578 1388
0.949 2.169 1.668 5590
0.948 2.167 1.656 4821
0.940 2.147 1.632 4646
0.990 2.262 1.715 2359
0.939 2.145 1.621 6885
0.989 2.260 1.703 2569
0.940 2.149 1.615 9228
0.991 2.265 1.696 2996
0.945 2.159 1.612 9259
0.995 2.275 1.693 3430
0.946 2.163 1.606 9157
0.997 2.279 1.686 4438
0.948 2.167 1.599 9055
0.999 2.283 1.679 5445
0.982 2.244 1.643 8038
1.033 2.361 1.723 3616
0.987 2.254 1.640 7933
1.038 2.371 1.719 4318
0.996 2.277 1.645 7127
1.048 2.394 1.725 3584
1.004 2.293 1.647 7493
1.055 2.411 1.725 3519
1.013 2.316 1.652 7890
0.959 2.192 1.569 3156
1.018 2.326 1.649 9430
0.964 2.202 1.566 2989
1.022 2.336 1.646 7190
1.074 2.454 1.723 2612
1.032 2.359 1.650 5947
1.084 2.477 1.728 1816
1.045 2.388 1.659 6285
0.993 2.270 1.582 2064
1.058 2.417 1.668 8359
1.006 2.298 1.591 2829
1.065 2.434 1.668 10791
1.013 2.315 1.592 2578
1.069 2.444 1.665 13921
1.017 2.325 1.589 1750
1.077 2.460 1.665 12998
1.025 2.341 1.590 1639
1.081 2.471 1.661 10129
1.086 2.481 1.658 7304
1.138 2.601 1.732 1156
1.107 2.529 1.677 5541
1.054 2.410 1.603 2004
1.111 2.540 1.673 6563
1.059 2.420 1.599 1768
1.124 2.569 1.681 6172
1.072 2.449 1.607 2081
1.129 2.580 1.677 7431
1.076 2.459 1.603 1528
1.131 2.584 1.669 6079
1.183 2.704 1.741 1260
1.127 2.575 1.653 4835
1.183 2.702 1.729 1268
1.129 2.579 1.645 4639
1.184 2.706 1.721 1785
1.130 2.583 1.637 4473
1.195 2.730 1.724 2411
1.135 2.594 1.632 4612
1.199 2.740 1.719 2736
1.140 2.604 1.628 3445
1.201 2.745 1.710 2862
1.166 2.666 1.653 3392
1.220 2.787 1.724 1747
1.205 2.753 1.693 4096
1.151 2.631 1.623 1665
1.209 2.764 1.688 6536
1.156 2.641 1.618 1126
1.214 2.774 1.683 8236
1.268 2.896 1.752 1176
1.216 2.778 1.674 8157
1.269 2.901 1.743 1261
1.218 2.782 1.666 7539
1.271 2.905 1.734 1746
1.219 2.786 1.657 7001
1.273 2.909 1.725 2278
1.218 2.784 1.645 5623
1.272 2.907 1.712 4266
1.257 2.872 1.682 7903
1.203 2.749 1.615 2194
1.262 2.883 1.677 8303
1.208 2.760 1.610 2040
1.261 2.881 1.664 7790
1.315 3.004 1.731 2121
1.257 2.872 1.648 7323
1.314 3.002 1.718 3139
1.256 2.869 1.636 7472
1.318 3.013 1.712 4003
1.272 2.906 1.644 5607
1.326 3.030 1.709 4149
1.305 2.982 1.672 7808
1.250 2.857 1.607 1667
1.301 2.973 1.656 10372
1.355 3.097 1.721 3411
1.303 2.977 1.647 8965
1.357 3.101 1.711 4579
1.350 3.086 1.691 6235
1.296 2.961 1.627 5443
1.355 3.097 1.685 6434
1.300 2.972 1.622 3042
1.357 3.101 1.675 7170
1.302 2.976 1.612 2037
1.362 3.111 1.669 8711
1.307 2.986 1.606 1767
1.366 3.122 1.662 11294
1.311 2.997 1.600 1072
1.371 3.133 1.656 10993
1.376 3.143 1.649 10238
1.377 3.147 1.639 8106
1.432 3.273 1.700 1088
1.376 3.145 1.626 5948
1.431 3.271 1.687 1971
1.387 3.169 1.626 5064
1.442 3.295 1.686 2001
1.403 3.206 1.632 4845
1.458 3.332 1.692 1818
1.408 3.217 1.625 4144
1.463 3.343 1.684 1961
1.409 3.220 1.615 4364
1.465 3.347 1.674 2430
1.452 3.318 1.648 5241
1.396 3.191 1.589 2375
1.422 3.248 1.604 5088
1.477 3.375 1.662 3855
1.444 3.299 1.615 4567
1.499 3.426 1.673 1570
1.454 3.323 1.613 4474
1.510 3.451 1.671 1603
1.488 3.401 1.636 9064
1.433 3.273 1.579 1402
1.487 3.398 1.622 12043
1.492 3.409 1.615 10966
1.494 3.413 1.604 8781
1.492 3.410 1.590 6443
1.548 3.538 1.646 2286
1.532 3.502 1.617 6696
1.476 3.373 1.562 2380
1.531 3.499 1.603 8238
1.475 3.370 1.549 1134
1.533 3.503 1.592 7463
1.549 3.540 1.595 5456
1.557 3.558 1.590 6922
1.501 3.429 1.537 1573
1.559 3.562 1.579 6430
1.615 3.691 1.632 1499
1.590 3.634 1.595 5823
1.534 3.504 1.543 1639
1.595 3.644 1.586 7700
1.538 3.515 1.534 1958
1.599 3.655 1.578 7658
1.543 3.526 1.526 1959
1.598 3.652 1.564 6545
1.661 3.795 1.620 1825
1.627 3.717 1.576 5444
1.570 3.587 1.525 1430
1.628 3.721 1.564 6062
1.685 3.851 1.615 2638
1.684 3.848 1.600 5004
1.624 3.711 1.548 4026
1.692 3.866 1.593 4907
1.626 3.715 1.536 2349
1.690 3.863 1.579 5664
1.633 3.732 1.529 2056
1.686 3.853 1.561 7862
1.743 3.983 1.610 1950
1.691 3.863 1.552 6014
0.362 0.828 0.427 2408
1.695 3.874 1.542 4022
0.363 0.829 0.424 3869
0.366 0.836 0.424 5444
1.706 3.898 1.537 5121
1.711 3.909 1.528 6214
0.366 0.837 0.422 4836
1.718 3.926 1.520 5458
1.776 4.057 1.567 3095
1.756 4.013 1.537 6265
0.367 0.838 0.417 4004
0.364 0.832 0.412 8773
1.776 4.058 1.539 5496
0.365 0.833 0.409 13976
1.775 4.055 1.524 5345
0.362 0.827 0.405 16808
1.776 4.059 1.511 5104
0.365 0.834 0.404 20910
1.784 4.076 1.503 3404
0.365 0.835 0.402 24423
1.834 4.191 1.527 2683
0.369 0.843 0.402 23501
1.845 4.215 1.521 4123
0.369 0.844 0.399 24618
1.849 4.226 1.510 3199
