-1.376 3.168 1.577 2221
-1.460 3.359 1.653 4058
-1.396 3.212 1.585 2572
-1.453 3.343 1.633 4511
-1.397 3.216 1.575 2659
-1.451 3.340 1.619 4635
-1.396 3.213 1.562 1863
-1.453 3.344 1.609 4576
-1.509 3.472 1.666 1595
-1.487 3.422 1.631 4729
-1.431 3.295 1.575 1227
-1.492 3.433 1.624 5155
-1.436 3.305 1.567 1740
-1.490 3.430 1.610 5199
-1.435 3.302 1.554 1151
-1.495 3.441 1.602 4297
-1.551 3.569 1.657 1278
-1.529 3.519 1.623 6446
-1.473 3.391 1.568 2514
-1.531 3.523 1.612 9453
-1.475 3.395 1.557 1984
-1.532 3.527 1.601 8380
-1.477 3.398 1.547 1980
-1.534 3.531 1.590 6669
-1.590 3.660 1.644 1566
-1.539 3.542 1.582 7190
-1.595 3.671 1.635 1095
-1.549 3.566 1.579 7162
-1.554 3.577 1.570 9185
-1.657 3.815 1.667 1060
-1.559 3.587 1.562 10611
-1.557 3.584 1.548 7903
-1.036 2.384 1.069 1540
-1.556 3.581 1.534 8056
-1.034 2.380 1.059 2487
-1.560 3.592 1.525 9514
-1.032 2.375 1.049 2900
-1.565 3.602 1.517 8948
-1.675 3.855 1.615 3123
-1.570 3.613 1.508 7143
-1.677 3.859 1.603 2479
-1.562 3.596 1.489 5349
-1.735 3.993 1.640 2316
-1.564 3.599 1.478 4427
-1.761 4.052 1.648 2859
-1.759 4.049 1.633 3740
-1.583 3.644 1.482 3070
-1.764 4.060 1.623 5863
-1.591 3.661 1.475 2469
-1.763 4.057 1.608 7490
-1.592 3.665 1.464 1753
-1.762 4.054 1.592 7554
-1.818 4.185 1.640 1900
-1.766 4.065 1.582 6683
-1.823 4.196 1.629 2794
-1.777 4.090 1.577 4887
-1.834 4.221 1.623 2650
-1.821 4.190 1.598 4746
-1.764 4.059 1.552 3417
-1.771 4.077 1.544 4797
-1.828 4.208 1.590 3478
-1.827 4.205 1.574 4004
-1.770 4.073 1.528 3645
-1.841 4.236 1.570 4487
-1.898 4.368 1.615 2245
-1.894 4.358 1.597 3101
-1.836 4.226 1.552 2864
-1.913 4.404 1.597 3672
-1.841 4.237 1.541 1769
-1.924 4.428 1.590 3425
-1.843 4.241 1.528 1777
-1.950 4.488 1.594 3493
-1.892 4.356 1.551 2723
-1.924 4.429 1.560 4191
-2.003 4.610 1.619 1425
-1.929 4.440 1.548 5146
-2.020 4.649 1.615 2075
-1.934 4.451 1.536 3824
-2.025 4.660 1.603 3356
-1.984 4.566 1.557 2965
-1.926 4.433 1.516 2841
-1.946 4.479 1.515 2365
-2.043 4.702 1.584 1672
-2.045 4.706 1.569 2524
-1.954 4.497 1.505 1996
-2.046 4.710 1.555 3727
-2.113 4.864 1.601 3574
-2.121 4.882 1.590 4950
-2.048 4.714 1.540 4683
-2.126 4.893 1.577 5436
-2.053 4.725 1.527 3559
-2.127 4.897 1.562 4070
-2.201 5.065 1.611 3998
-2.202 5.069 1.595 4511
-2.129 4.900 1.546 2659
-2.167 4.988 1.555 3353
-2.225 5.122 1.593 2825
-2.227 5.126 1.577 3268
-2.169 4.992 1.539 2546
-2.259 5.200 1.580 6143
-2.320 5.340 1.620 1881
-2.258 5.197 1.562 6441
-2.331 5.366 1.609 2553
-2.370 5.454 1.615 2915
-2.266 5.215 1.550 2324
-2.316 5.331 1.564 2877
-2.377 5.472 1.602 2773
-2.321 5.342 1.549 3168
-2.391 5.504 1.592 3068
-2.329 5.360 1.536 2775
-2.390 5.501 1.573 2279
-2.401 5.526 1.561 2675
-2.327 5.356 1.517 1840
-2.403 5.530 1.543 2675
-2.495 5.742 1.598 2416
-2.496 5.746 1.580 2441
-2.438 5.611 1.546 1577
-2.513 5.785 1.570 2668
-2.452 5.643 1.535 1723
-2.515 5.789 1.552 3243
-2.438 5.612 1.508 1442
-2.554 5.877 1.554 2456
-2.495 5.743 1.522 1554
-2.552 5.874 1.534 2997
-2.648 6.094 1.587 1173
-2.554 5.878 1.516 2278
-2.696 6.204 1.593 1510
-2.602 5.988 1.522 1930
-2.694 6.201 1.571 1665
-2.668 6.141 1.537 1906
-2.600 5.985 1.501 1083
-2.701 6.216 1.534 2152
-2.759 6.351 1.564 1614
-2.708 6.234 1.517 2536
-2.767 6.369 1.548 2518
-2.806 6.458 1.546 3301
-2.713 6.244 1.499 2618
-2.814 6.476 1.529 4473
-2.715 6.248 1.480 1918
-2.818 6.487 1.510 5108
-2.886 6.644 1.543 1666
-2.814 6.476 1.486 3843
-2.873 6.612 1.515 2149
-2.868 6.601 1.491 2570
-2.809 6.466 1.463 2193
-2.922 6.726 1.495 3307
-2.835 6.526 1.454 2248
-2.924 6.730 1.474 3955
-2.834 6.522 1.432 1788
-2.925 6.733 1.452 2498
-3.031 6.976 1.500 1912
-3.036 6.987 1.479 2459
-2.958 6.808 1.445 1509
-3.031 6.976 1.455 1862
-3.112 7.162 1.490 1651
-3.275 7.538 1.537 1341
-3.070 7.065 1.449 1320
-3.292 7.577 1.519 1756
-3.071 7.069 1.426 1373
-3.300 7.595 1.498 1820
-3.169 7.294 1.444 1158
-3.308 7.613 1.477 1691
-3.165 7.284 1.418 1270
-3.418 7.868 1.496 1726
-3.294 7.581 1.446 1329
-3.407 7.843 1.466 2006
-3.348 7.706 1.443 1038
-3.406 7.839 1.440 2100
-3.411 7.850 1.417 2689
-3.588 8.259 1.484 2129
-3.415 7.860 1.393 3599
-3.590 8.263 1.458 3523
-3.591 8.266 1.431 4211
-3.417 7.864 1.368 3645
-3.596 8.277 1.406 4228
-3.418 7.867 1.343 3388
-3.594 8.273 1.379 3943
-3.729 8.582 1.426 3217
-3.596 8.276 1.353 3276
-3.733 8.593 1.400 2943
-3.738 8.603 1.373 3433
-3.597 8.279 1.327 2054
-3.736 8.599 1.345 3779
-3.734 8.595 1.317 2652
-3.736 8.598 1.290 1892
-3.740 8.609 1.264 1414
-0.878 2.037 1.690 6514
-0.879 2.041 1.683 13028
-0.881 2.045 1.677 13028
-0.891 2.067 1.684 12595
-0.842 1.954 1.598 1254
-0.895 2.077 1.682 13069
-0.846 1.964 1.596 1113
-0.894 2.075 1.671 10353
-0.883 2.050 1.642 9303
-0.932 2.163 1.728 1364
-0.882 2.048 1.632 7240
-0.931 2.161 1.717 1393
-0.907 2.106 1.665 6245
-0.956 2.220 1.750 1380
-0.909 2.110 1.659 6163
-0.958 2.224 1.743 1593
-0.913 2.120 1.657 6893
-0.963 2.234 1.741 1697
-0.918 2.130 1.655 7902
-0.967 2.245 1.738 1701
-0.922 2.140 1.652 7188
-0.972 2.255 1.736 2240
-0.927 2.150 1.650 6679
-0.976 2.265 1.733 2996
-0.931 2.160 1.648 5474
-0.981 2.276 1.730 3494
-0.967 2.243 1.697 6811
-0.917 2.128 1.615 2604
-0.969 2.248 1.690 6797
-0.919 2.132 1.608 3119
-0.973 2.258 1.688 5871
-0.923 2.142 1.606 4155
-0.980 2.274 1.689 5579
-0.930 2.158 1.608 4832
-0.942 2.186 1.618 4483
-0.992 2.303 1.699 3835
-0.946 2.197 1.616 4396
-0.999 2.319 1.700 3355
-0.956 2.219 1.622 4208
-1.007 2.336 1.702 3952
-0.963 2.235 1.623 4772
-1.014 2.352 1.703 3780
-1.005 2.332 1.679 5602
-0.954 2.214 1.599 3411
-1.004 2.330 1.667 6650
-0.953 2.212 1.588 2408
-1.006 2.334 1.660 6804
-0.955 2.216 1.582 1691
-1.007 2.338 1.653 6958
-1.058 2.456 1.731 1573
-1.015 2.354 1.654 5226
-1.066 2.473 1.731 1401
-1.030 2.390 1.667 5678
-0.979 2.271 1.589 2007
-1.031 2.394 1.659 7311
-0.980 2.275 1.582 1437
-1.033 2.398 1.652 8945
-1.038 2.408 1.648 8917
-1.039 2.412 1.641 9128
-1.091 2.531 1.717 1319
-1.071 2.485 1.677 7242
-1.019 2.366 1.602 1715
-1.075 2.496 1.673 6919
-1.024 2.376 1.598 1370
-1.075 2.494 1.662 5177
-1.126 2.613 1.736 2105
-1.120 2.599 1.716 3799
-1.057 2.453 1.626 3264
-1.122 2.603 1.708 4277
-1.056 2.451 1.615 2786
-1.126 2.614 1.704 4734
-1.061 2.461 1.611 2937
-1.131 2.624 1.700 5481
-1.068 2.478 1.611 3354
-1.130 2.622 1.688 5054
-1.072 2.488 1.607 3002
-1.132 2.626 1.680 4729
-1.077 2.499 1.603 1808
-1.131 2.624 1.668 4226
-1.183 2.745 1.740 1365
-1.113 2.583 1.633 4524
-1.165 2.705 1.705 3102
-1.129 2.619 1.644 3986
-1.181 2.741 1.715 2308
-1.136 2.636 1.643 3078
-1.199 2.783 1.729 2302
-1.198 2.781 1.716 2856
-1.146 2.659 1.646 2344
-1.156 2.683 1.649 3341
-1.209 2.805 1.719 2141
-1.163 2.700 1.648 4822
-1.216 2.822 1.717 3554
-1.176 2.729 1.654 6467
-1.229 2.852 1.723 3511
-1.217 2.824 1.696 7407
-1.164 2.701 1.627 4436
-1.224 2.841 1.695 9176
-1.171 2.718 1.626 4062
-1.229 2.852 1.689 9419
-1.176 2.728 1.621 3690
-1.236 2.869 1.687 9980
-1.183 2.745 1.620 3353
-1.241 2.879 1.682 11051
-1.188 2.756 1.615 2493
-1.240 2.877 1.670 10710
-1.186 2.753 1.603 2093
-1.241 2.881 1.661 7843
-1.188 2.757 1.594 1638
-1.246 2.892 1.655 5986
-1.299 3.016 1.721 1129
-1.251 2.902 1.649 7356
-1.304 3.026 1.715 1389
-1.255 2.913 1.644 6591
-1.309 3.037 1.709 2169
-1.263 2.930 1.642 5570
-1.316 3.055 1.707 2843
-1.298 3.013 1.673 5443
-1.244 2.888 1.609 1892
-1.272 2.951 1.630 6963
-1.325 3.076 1.694 4640
-1.273 2.955 1.621 8563
-1.327 3.080 1.685 5956
-1.326 3.078 1.672 6484
-1.272 2.952 1.608 5719
-1.328 3.082 1.662 7123
-1.274 2.956 1.599 3770
-1.330 3.086 1.652 8706
-1.276 2.960 1.590 3368
-1.334 3.097 1.646 8679
-1.280 2.971 1.584 2798
-1.347 3.127 1.649 7211
-1.293 3.001 1.587 1671
-1.355 3.144 1.646 7750
-1.409 3.271 1.707 1140
-1.348 3.129 1.626 6199
-1.403 3.255 1.688 2200
-1.341 3.113 1.607 6199
-1.396 3.239 1.668 3657
-1.389 3.223 1.648 5143
-1.334 3.096 1.588 3195
-1.393 3.234 1.641 5214
-1.339 3.107 1.581 1560
-1.410 3.271 1.647 5094
-1.355 3.144 1.587 1533
-1.414 3.282 1.640 5166
-1.359 3.155 1.581 1864
-1.425 3.306 1.639 3902
-1.370 3.179 1.580 2408
-1.452 3.370 1.656 4733
-1.389 3.223 1.588 3206
-1.448 3.361 1.639 4891
-1.393 3.233 1.581 3201
-1.447 3.358 1.626 4127
-1.392 3.231 1.568 2298
-1.472 3.416 1.639 4370
-1.417 3.288 1.582 1337
-1.477 3.427 1.631 5619
-1.421 3.299 1.575 1080
-1.481 3.438 1.624 5797
-1.426 3.309 1.567 1460
-1.480 3.435 1.610 5315
-1.535 3.563 1.666 1109
-1.464 3.398 1.582 4223
-1.523 3.533 1.640 3504
-1.521 3.531 1.626 5840
-1.466 3.402 1.571 2749
-1.523 3.535 1.615 7783
-1.468 3.406 1.560 2041
-1.522 3.532 1.601 7063
-1.466 3.403 1.547 1721
-1.518 3.522 1.584 6342
-1.573 3.651 1.638 1891
-1.522 3.533 1.576 5497
-1.578 3.662 1.629 1351
-1.541 3.577 1.582 6289
-1.543 3.581 1.570 8519
-1.545 3.585 1.559 9449
-1.543 3.582 1.545 7165
-1.545 3.586 1.534 7998
-1.024 2.376 1.056 1546
-1.550 3.596 1.525 10383
-1.025 2.378 1.049 2531
-1.554 3.607 1.517 9992
-1.023 2.374 1.039 2447
-1.559 3.617 1.508 8522
-1.665 3.864 1.603 1900
-1.551 3.600 1.489 7337
-1.732 4.019 1.648 1620
-1.553 3.604 1.478 6199
-1.748 4.058 1.648 2909
-1.560 3.621 1.471 3898
-1.747 4.055 1.633 3634
-1.752 4.066 1.623 5466
-1.580 3.666 1.475 2798
-1.751 4.063 1.608 6938
-1.584 3.677 1.466 1914
-1.749 4.060 1.592 7273
-1.577 3.660 1.447 1455
-1.757 4.077 1.585 7235
-1.813 4.209 1.632 2024
-1.768 4.102 1.579 6299
-1.824 4.233 1.626 1774
-1.763 4.092 1.561 4940
-1.820 4.223 1.608 2704
-1.759 4.082 1.544 5594
-1.816 4.213 1.590 2677
-1.761 4.086 1.531 4367
-1.841 4.273 1.595 3574
-1.828 4.242 1.570 3412
-1.762 4.089 1.518 2211
-1.877 4.357 1.594 2584
-1.821 4.225 1.550 2498
-1.900 4.409 1.597 3365
-1.825 4.236 1.539 1984
-1.908 4.427 1.588 3815
-1.827 4.239 1.526 2202
-1.915 4.445 1.578 3667
-1.825 4.236 1.510 2005
-1.911 4.435 1.560 4222
-1.968 4.567 1.603 1525
-1.916 4.446 1.548 3939
-2.009 4.662 1.617 1969
-2.008 4.659 1.601 2983
-1.926 4.470 1.541 2906
-1.979 4.593 1.564 3487
-1.922 4.460 1.522 2122
-1.945 4.513 1.524 2476
-2.032 4.716 1.586 2121
-2.028 4.705 1.567 2733
-1.943 4.509 1.507 1902
-2.035 4.723 1.557 3658
-2.105 4.884 1.606 3065
-2.109 4.895 1.592 4613
-2.034 4.720 1.540 4565
-2.111 4.899 1.577 4917
-2.035 4.724 1.525 3393
-2.116 4.910 1.564 3749
-2.197 5.100 1.619 2913
-2.145 4.977 1.566 3387
-2.223 5.160 1.619 2270
-2.213 5.136 1.595 2996
-2.152 4.995 1.555 2545
-2.215 5.139 1.579 4370
-2.154 4.999 1.539 1423
-2.237 5.193 1.577 4427
-2.307 5.354 1.622 1814
-2.242 5.203 1.562 4393
-2.309 5.358 1.605 2714
-2.350 5.454 1.613 3894
-2.232 5.179 1.538 2125
-2.352 5.458 1.596 3169
-2.258 5.239 1.537 3016
-2.311 5.363 1.552 3126
-2.372 5.504 1.590 2380
-2.306 5.353 1.532 2712
-2.373 5.508 1.573 2412
-2.384 5.533 1.561 2477
-2.308 5.356 1.515 1978
-2.419 5.615 1.563 2161
-2.477 5.749 1.598 1811
-2.476 5.746 1.578 2176
-2.418 5.611 1.544 1379
-2.496 5.792 1.570 2561
-2.435 5.651 1.535 1572
-2.498 5.796 1.552 2943
-2.556 5.931 1.585 1786
-2.539 5.892 1.556 2827
-2.481 5.757 1.523 1691
-2.535 5.882 1.534 3053
-2.626 6.095 1.585 1671
-2.536 5.886 1.516 2517
-2.634 6.113 1.569 1877
-2.544 5.903 1.500 1794
-2.676 6.209 1.571 1771
-2.650 6.149 1.537 2153
-2.561 5.943 1.490 1062
-2.679 6.217 1.532 2228
-2.740 6.359 1.564 1438
-2.690 6.242 1.517 2823
-2.748 6.377 1.548 2206
-2.786 6.466 1.546 3122
-2.691 6.245 1.498 2754
-2.794 6.484 1.529 4538
-2.680 6.221 1.472 1958
-2.799 6.495 1.510 5207
-2.740 6.360 1.481 1457
-2.797 6.492 1.488 3717
-2.856 6.627 1.516 2265
-2.848 6.610 1.491 3013
-2.934 6.810 1.532 2259
-2.902 6.735 1.495 3567
-2.819 6.542 1.456 1841
-2.904 6.738 1.474 4106
-2.817 6.538 1.434 1532
-2.905 6.742 1.452 2590
-3.007 6.978 1.499 1652
-3.012 6.989 1.478 2115
-2.913 6.760 1.434 1489
-3.010 6.985 1.455 1760
-3.090 7.171 1.490 1581
-3.252 7.548 1.537 1563
-2.987 6.931 1.422 1156
-3.269 7.587 1.519 1845
-3.121 7.243 1.456 1082
-3.274 7.598 1.497 1694
-3.141 7.290 1.441 1125
-3.285 7.623 1.477 1559
-3.143 7.293 1.418 1397
-3.416 7.928 1.505 1851
-3.268 7.584 1.445 1505
-3.387 7.860 1.468 1527
-3.269 7.587 1.421 1099
-3.385 7.856 1.441 1390
-3.327 7.720 1.419 1018
-3.694 8.572 1.533 1782
-3.567 8.277 1.485 1634
-3.695 8.575 1.506 2640
-3.568 8.280 1.459 2634
-3.570 8.284 1.433 3059
-3.700 8.586 1.480 2423
-3.571 8.287 1.406 3071
-3.698 8.583 1.452 2688
-3.697 8.579 1.424 3234
-3.573 8.291 1.380 2949
-3.698 8.582 1.396 2816
-3.571 8.287 1.353 2506
-3.709 8.607 1.372 2986
-3.572 8.290 1.327 1629
-3.710 8.611 1.345 3469
-3.705 8.599 1.316 2657
-3.707 8.602 1.289 1779
-3.714 8.620 1.264 1230
-0.873 2.039 1.690 6398
-0.875 2.043 1.683 12796
-0.877 2.047 1.677 12796
-0.886 2.069 1.684 12305
-0.838 1.956 1.598 1237
-0.890 2.079 1.682 12964
-0.842 1.966 1.596 1158
-0.890 2.077 1.671 10386
-0.938 2.191 1.757 1072
-0.876 2.046 1.638 10398
-0.925 2.159 1.724 1771
-0.878 2.050 1.632 8273
-0.926 2.164 1.717 1771
-0.902 2.108 1.665 6809
-0.951 2.222 1.750 1524
-0.907 2.118 1.663 7622
-0.956 2.232 1.748 1486
-0.911 2.128 1.661 7916
-0.862 2.013 1.577 1622
-0.913 2.132 1.655 8478
-0.962 2.247 1.738 1649
-0.917 2.142 1.652 7197
-0.967 2.257 1.736 2088
-0.922 2.152 1.650 6144
-0.971 2.268 1.733 2778
-0.923 2.156 1.643 6121
-0.973 2.272 1.726 3519
-0.962 2.246 1.697 6247
-0.912 2.130 1.615 4452
-0.924 2.158 1.626 6788
-0.974 2.274 1.708 4425
-0.923 2.156 1.615 7549
-0.973 2.272 1.696 4836
-0.925 2.160 1.608 7549
-0.975 2.277 1.689 4909
-0.929 2.170 1.606 6373
-0.990 2.311 1.703 3203
-0.936 2.186 1.607 5609
-0.999 2.334 1.709 3097
-0.940 2.196 1.605 4199
-0.999 2.332 1.697 3780
-0.998 2.330 1.686 4549
-0.947 2.213 1.606 3395
-1.002 2.340 1.683 5538
-0.952 2.223 1.604 3085
-1.004 2.345 1.676 6538
-0.953 2.227 1.597 2593
-1.006 2.349 1.668 6824
-0.955 2.231 1.590 1901
-1.007 2.353 1.661 7109
-0.957 2.235 1.583 1209
-1.012 2.363 1.658 6407
-0.961 2.245 1.580 1112
-1.024 2.392 1.667 7370
-0.973 2.273 1.589 1525
-1.026 2.396 1.659 8986
-0.975 2.277 1.582 1032
-1.028 2.400 1.652 10602
-1.032 2.411 1.648 10137
-1.083 2.530 1.725 1008
-1.034 2.415 1.641 9925
-1.085 2.534 1.717 1386
-1.036 2.419 1.633 7356
-1.087 2.538 1.709 2273
-1.070 2.498 1.673 6605
-1.018 2.378 1.598 1379
-1.069 2.496 1.662 4869
-1.120 2.616 1.736 2427
-1.114 2.601 1.716 4107
-1.052 2.456 1.626 3207
-1.116 2.606 1.708 4340
-1.051 2.453 1.615 2732
-1.120 2.616 1.704 4750
-1.055 2.464 1.611 2749
-1.125 2.627 1.700 5346
-1.073 2.506 1.627 3087
-1.126 2.631 1.692 4898
-1.067 2.491 1.607 2717
-1.128 2.635 1.683 4450
-1.076 2.514 1.611 1900
-1.130 2.639 1.675 4225
-1.078 2.518 1.603 1649
-1.107 2.586 1.633 4133
-1.159 2.707 1.705 3099
-1.125 2.628 1.647 4255
-1.177 2.750 1.719 1966
-1.130 2.639 1.643 3082
-1.193 2.786 1.729 2249
-1.195 2.790 1.720 2726
-1.143 2.668 1.650 2205
-1.150 2.685 1.649 3030
-1.205 2.814 1.723 2366
-1.157 2.702 1.648 4643
-1.209 2.825 1.717 3637
-1.167 2.726 1.650 6348
-1.220 2.848 1.720 3641
-1.210 2.827 1.696 7019
-1.158 2.704 1.627 4387
-1.218 2.844 1.695 8540
-1.165 2.721 1.626 4217
-1.222 2.854 1.689 8500
-1.169 2.731 1.621 4012
-1.230 2.872 1.687 9447
-1.177 2.748 1.620 3739
-1.234 2.882 1.682 10978
-1.181 2.759 1.615 2546
-1.236 2.886 1.673 10614
-1.183 2.763 1.606 2395
-1.235 2.884 1.661 8122
-1.182 2.760 1.594 1639
-1.245 2.908 1.662 7626
-1.192 2.783 1.596 1210
-1.247 2.912 1.653 9889
-1.300 3.036 1.719 1527
-1.254 2.929 1.651 9028
-1.307 3.053 1.716 1992
-1.261 2.946 1.648 6916
-1.315 3.071 1.713 2312
-1.297 3.029 1.680 5901
-1.243 2.904 1.615 3044
-1.285 3.000 1.654 7621
-1.231 2.875 1.589 1227
-1.269 2.965 1.624 9216
-1.323 3.090 1.688 4892
-1.271 2.969 1.615 7630
-1.325 3.094 1.678 4913
-1.278 2.986 1.612 6744
-1.332 3.111 1.675 4547
-1.320 3.082 1.649 8117
-1.266 2.957 1.586 3018
-1.327 3.100 1.646 8711
-1.273 2.974 1.584 2085
-1.340 3.130 1.649 7520
-1.286 3.004 1.587 1580
-1.348 3.148 1.646 8014
-1.294 3.021 1.585 1350
-1.344 3.138 1.630 6079
-1.398 3.265 1.691 1728
-1.331 3.109 1.604 6409
-1.385 3.235 1.665 3524
-1.381 3.226 1.648 5152
-1.327 3.100 1.588 3776
-1.380 3.224 1.635 5221
-1.326 3.097 1.575 1365
-1.402 3.274 1.647 4472
-1.348 3.147 1.587 1974
-1.407 3.285 1.640 4580
-1.352 3.158 1.581 2327
-1.420 3.316 1.642 3933
-1.365 3.189 1.583 2636
-1.442 3.367 1.653 4896
-1.381 3.226 1.588 3238
-1.443 3.371 1.642 4947
-1.389 3.243 1.584 3197
-1.448 3.382 1.635 4136
-1.393 3.254 1.577 2715
-1.464 3.419 1.639 5163
-1.409 3.291 1.582 1491
-1.469 3.430 1.631 6266
-1.414 3.302 1.575 1008
-1.473 3.441 1.624 6151
-1.418 3.313 1.567 1509
-1.475 3.445 1.613 4940
-1.420 3.316 1.557 1351
-1.456 3.401 1.582 3649
-1.514 3.537 1.640 3536
-1.513 3.534 1.626 5538
-1.458 3.405 1.571 2095
-1.518 3.545 1.618 6832
-1.463 3.416 1.563 1176
-1.508 3.522 1.595 7263
-1.507 3.519 1.581 7852
-1.562 3.648 1.635 1694
-1.511 3.529 1.573 5691
-1.567 3.659 1.626 1413
-1.530 3.574 1.579 5825
-1.532 3.578 1.568 6990
-1.531 3.575 1.554 7063
-1.532 3.579 1.542 5434
-1.537 3.589 1.534 6971
-1.541 3.600 1.525 9975
-1.014 2.367 1.044 1843
-1.546 3.610 1.517 9522
-1.017 2.376 1.039 2264
-1.550 3.621 1.508 8493
-1.019 2.379 1.032 1837
-1.543 3.604 1.489 8771
-1.731 4.044 1.656 1674
-1.545 3.608 1.478 7977
-1.739 4.062 1.648 2988
-1.549 3.618 1.469 5471
-1.738 4.059 1.633 3401
-1.740 4.063 1.620 4686
-1.548 3.615 1.455 3746
-1.741 4.067 1.608 5845
-1.546 3.611 1.441 2174
-1.743 4.071 1.595 6749
-1.569 3.663 1.447 1485
-1.748 4.081 1.585 8028
-1.567 3.660 1.433 1593
-1.758 4.106 1.579 7779
-1.814 4.237 1.626 1442
-1.757 4.103 1.564 5679
-1.813 4.234 1.610 1611
-1.750 4.086 1.544 5713
-1.806 4.218 1.590 2535
-1.751 4.090 1.531 4496
-1.831 4.277 1.595 3331
-1.809 4.225 1.563 2499
-1.753 4.093 1.518 2295
-1.802 4.208 1.543 2588
-1.858 4.340 1.587 2092
-1.893 4.421 1.599 2630
-1.809 4.226 1.534 2418
-1.886 4.404 1.578 3843
-1.814 4.237 1.523 2476
-1.890 4.415 1.567 4257
-1.947 4.547 1.610 2494
-1.895 4.425 1.555 4148
-1.952 4.558 1.598 2089
-1.905 4.450 1.548 3344
-2.001 4.673 1.620 1862
-1.919 4.482 1.543 2474
-2.000 4.670 1.603 2390
-1.969 4.597 1.564 3443
-2.025 4.730 1.606 1533
-1.937 4.524 1.526 2675
-2.021 4.720 1.586 2505
-2.020 4.717 1.569 2763
-1.963 4.584 1.529 1991
-2.018 4.714 1.553 3631
-2.102 4.910 1.612 2786
-2.023 4.725 1.540 4352
-2.101 4.907 1.594 3886
-2.100 4.904 1.577 3839
-2.025 4.728 1.525 3136
-2.107 4.922 1.566 3041
-2.041 4.767 1.520 2115
-2.130 4.975 1.564 3337
-2.218 5.179 1.623 1841
-2.201 5.141 1.595 3038
-2.129 4.972 1.547 1942
-2.203 5.144 1.579 4212
-2.213 5.169 1.569 3996
-2.295 5.360 1.622 1705
-2.221 5.187 1.556 3192
-2.294 5.357 1.603 3093
-2.335 5.452 1.611 4474
-2.220 5.184 1.538 2600
-2.336 5.456 1.594 3498
-2.246 5.244 1.537 2952
-2.299 5.368 1.552 2826
-2.241 5.234 1.517 2119
-2.361 5.514 1.573 2590
-2.294 5.358 1.532 2449
-2.378 5.553 1.564 2333
-2.296 5.362 1.515 2008
-2.394 5.592 1.556 1823
-2.303 5.379 1.502 1496
-2.460 5.745 1.576 1824
-2.517 5.879 1.610 1589
-2.522 5.890 1.593 2375
-2.452 5.727 1.553 2300
-2.530 5.908 1.578 3063
-2.454 5.731 1.535 2063
-2.532 5.912 1.560 3172
-2.474 5.777 1.527 1731
-2.524 5.895 1.536 2913
-2.612 6.101 1.585 2137
-2.526 5.898 1.517 2608
-2.617 6.112 1.568 2129
-2.530 5.909 1.500 2156
-2.631 6.144 1.555 1988
-2.639 6.162 1.539 2315
-2.547 5.948 1.490 1451
-2.658 6.209 1.529 2298
-2.597 6.066 1.497 1278
-2.675 6.248 1.517 2921
-2.733 6.383 1.548 1608
-2.772 6.473 1.546 2988
-2.674 6.244 1.496 2773
-2.779 6.491 1.529 4483
-2.669 6.234 1.473 2083
-2.787 6.509 1.511 4822
-2.717 6.345 1.477 1663
-2.792 6.520 1.492 3367
-2.850 6.655 1.521 1930
-2.833 6.616 1.491 3394
-2.900 6.773 1.523 2364
-2.890 6.749 1.496 3593
-2.825 6.598 1.466 2138
-2.888 6.745 1.474 3959
-2.808 6.559 1.436 1434
-2.893 6.756 1.454 2409
-2.963 6.920 1.486 1234
-2.992 6.989 1.477 1682
-2.900 6.774 1.435 1665
-2.997 6.999 1.456 1685
-3.098 7.236 1.501 1360
-3.232 7.548 1.535 1574
-3.106 7.254 1.481 1317
-3.249 7.588 1.518 1657
-3.108 7.257 1.458 1416
-3.109 7.261 1.435 1590
-3.257 7.606 1.497 1433
-3.258 7.609 1.473 1432
-3.390 7.918 1.527 1407
-3.398 7.936 1.505 2146
-3.250 7.591 1.445 1651
-3.406 7.954 1.482 1793
-3.252 7.595 1.421 1308
-3.377 7.886 1.445 1450
-3.506 8.188 1.495 1391
-3.671 8.573 1.532 1755
-3.384 7.904 1.423 1305
-3.675 8.584 1.506 2431
-3.549 8.289 1.459 1798
-3.412 7.968 1.382 2228
-3.677 8.587 1.479 2179
-3.675 8.584 1.451 2491
-3.410 7.964 1.355 1868
-3.677 8.587 1.424 3047
-3.554 8.299 1.380 1732
-3.675 8.584 1.395 2672
-3.555 8.302 1.354 1550
-3.686 8.609 1.371 2535
-3.618 8.450 1.349 1160
-3.691 8.619 1.345 3045
-3.689 8.615 1.317 2448
-3.687 8.611 1.289 1520
-0.865 2.035 1.685 6058
-0.867 2.039 1.679 12116
-0.869 2.044 1.672 12116
-0.878 2.066 1.680 11690
-0.882 2.076 1.678 12629
-0.884 2.080 1.671 10229
-0.932 2.193 1.757 1134
-0.871 2.048 1.638 10921
-0.919 2.162 1.724 1956
-0.872 2.052 1.632 8805
-0.921 2.166 1.717 1956
-0.897 2.110 1.665 7114
-0.946 2.224 1.750 1568
-0.901 2.120 1.663 8440
-0.950 2.235 1.748 1503
-0.906 2.130 1.661 8393
-0.857 2.016 1.577 1635
-0.907 2.134 1.655 8541
-0.956 2.249 1.738 1484
-0.912 2.145 1.652 7141
-0.961 2.260 1.736 1856
-0.919 2.161 1.654 5970
-0.968 2.276 1.737 2356
-0.915 2.153 1.639 6849
-0.964 2.268 1.722 3284
-0.917 2.157 1.632 7948
-0.966 2.273 1.715 4057
-0.916 2.155 1.621 8647
-0.965 2.271 1.703 4298
-0.918 2.159 1.615 9406
-0.967 2.275 1.696 4000
-0.919 2.162 1.608 9406
-0.969 2.279 1.689 4005
-0.921 2.166 1.601 7999
-0.971 2.283 1.682 2840
-0.925 2.176 1.599 6798
-0.993 2.337 1.709 2822
-0.927 2.180 1.592 4906
-0.990 2.328 1.693 3590
-0.989 2.326 1.682 4543
-0.926 2.178 1.581 3115
-0.993 2.337 1.679 5487
-0.943 2.219 1.599 2377
-0.998 2.347 1.676 6584
-0.948 2.229 1.597 1945
-1.000 2.351 1.668 6965
-0.949 2.233 1.590 1420
-1.001 2.355 1.661 7346
-1.008 2.372 1.662 7069
-1.018 2.395 1.667 8185
-0.968 2.276 1.589 1153
-1.020 2.399 1.659 9557
-1.021 2.403 1.652 10930
-1.072 2.522 1.728 1021
-1.026 2.413 1.648 10031
-1.077 2.533 1.725 1118
-1.028 2.417 1.641 9396
-1.078 2.537 1.717 1526
-1.059 2.491 1.677 6976
-1.008 2.371 1.602 1786
-1.063 2.501 1.673 6165
-1.012 2.381 1.598 1581
-1.062 2.499 1.662 4386
-1.113 2.619 1.736 2593
-1.107 2.604 1.716 4213
-1.040 2.446 1.619 3578
-1.109 2.608 1.708 4185
-1.041 2.450 1.611 3210
-1.113 2.619 1.704 4508
-1.046 2.460 1.607 2810
-1.118 2.630 1.700 4897
-1.066 2.509 1.627 2660
-1.120 2.634 1.692 4618
-1.068 2.513 1.619 2268
-1.121 2.638 1.683 4340
-1.070 2.517 1.611 1813
-1.123 2.642 1.675 4489
-1.071 2.521 1.603 1749
-1.122 2.640 1.663 4659
-1.174 2.761 1.735 1312
-1.121 2.637 1.651 4728
-1.173 2.759 1.723 1664
-1.123 2.642 1.643 3339
-1.186 2.789 1.729 2143
-1.190 2.800 1.724 2663
-1.138 2.678 1.653 2475
-1.143 2.688 1.649 2809
-1.198 2.817 1.723 2590
-1.153 2.712 1.651 4184
-1.205 2.834 1.721 3433
-1.160 2.729 1.650 5998
-1.212 2.851 1.720 3300
-1.203 2.830 1.696 6632
-1.151 2.707 1.627 4015
-1.210 2.847 1.695 7952
-1.158 2.724 1.626 4180
-1.215 2.858 1.689 7641
-1.162 2.734 1.621 4086
-1.222 2.875 1.687 8621
-1.170 2.751 1.620 3919
-1.227 2.885 1.682 10434
-1.174 2.762 1.615 2529
-1.228 2.890 1.673 10396
-1.176 2.766 1.606 2276
-1.230 2.894 1.664 8237
-1.177 2.770 1.597 1816
-1.235 2.904 1.658 7595
-1.287 3.029 1.725 1399
-1.236 2.908 1.649 9325
-1.289 3.033 1.715 1858
-1.244 2.926 1.647 7867
-1.297 3.050 1.713 2338
-1.268 2.982 1.665 6947
-1.215 2.857 1.600 1029
-1.289 3.032 1.680 7988
-1.236 2.907 1.615 2255
-1.288 3.030 1.667 9643
-1.235 2.905 1.603 2128
-1.287 3.027 1.654 9518
-1.234 2.902 1.591 1181
-1.266 2.979 1.618 6796
-1.320 3.104 1.682 4082
-1.302 3.062 1.649 7279
-1.248 2.936 1.586 1259
-1.309 3.079 1.646 8927
-1.255 2.953 1.583 1970
-1.313 3.090 1.639 8773
-1.367 3.216 1.702 1298
-1.332 3.134 1.649 7329
-1.278 3.008 1.587 1457
-1.340 3.151 1.646 7865
-1.286 3.025 1.585 1415
-1.338 3.148 1.633 6003
-1.392 3.275 1.694 1400
-1.320 3.106 1.601 6376
-1.374 3.232 1.661 3031
-1.330 3.130 1.601 4802
-1.384 3.257 1.661 3590
-1.363 3.207 1.625 4913
-1.417 3.334 1.685 1651
-1.359 3.198 1.609 4572
-1.413 3.325 1.669 2203
-1.401 3.295 1.643 4124
-1.347 3.168 1.584 3196
-1.411 3.320 1.642 4039
-1.357 3.192 1.583 2928
-1.433 3.371 1.653 4759
-1.373 3.230 1.588 3252
-1.435 3.375 1.642 4560
-1.380 3.247 1.584 3418
-1.442 3.392 1.638 4171
-1.388 3.264 1.580 3322
-1.455 3.423 1.639 5202
-1.401 3.295 1.582 1941
-1.460 3.434 1.631 6262
-1.405 3.306 1.575 1245
-1.464 3.445 1.624 5978
-1.410 3.316 1.567 1567
-1.469 3.455 1.616 4838
-1.414 3.327 1.560 1599
-1.479 3.480 1.614 3593
-1.425 3.351 1.558 1561
-1.504 3.538 1.626 4817
-1.449 3.409 1.571 2001
-1.506 3.542 1.615 6184
-1.451 3.413 1.560 1006
-1.496 3.519 1.592 8565
-1.497 3.523 1.581 9387
-1.552 3.652 1.635 1278
-1.502 3.533 1.573 6854
-1.557 3.663 1.626 1083
-1.518 3.571 1.576 5681
-1.517 3.568 1.562 6128
-1.518 3.572 1.551 6245
-1.520 3.576 1.540 4901
-1.528 3.593 1.534 5880
-1.532 3.604 1.525 8465
-1.007 2.370 1.044 1360
-1.536 3.614 1.517 8032
-1.008 2.372 1.036 1821
-1.541 3.625 1.508 7585
-1.012 2.381 1.032 1645
-1.534 3.608 1.489 9130
-1.721 4.048 1.656 1860
-1.535 3.612 1.478 8558
-1.728 4.066 1.648 2843
-1.540 3.622 1.469 6308
-1.727 4.063 1.633 2951
-1.538 3.619 1.455 4767
-1.726 4.060 1.618 3979
-1.728 4.064 1.605 4947
-1.537 3.615 1.441 2621
-1.729 4.068 1.592 6271
-1.544 3.633 1.435 1571
-1.737 4.086 1.585 8369
-1.557 3.664 1.433 1501
-1.744 4.104 1.577 8366
-1.800 4.235 1.623 1291
-1.746 4.107 1.564 5812
-1.802 4.239 1.610 1430
-1.739 4.090 1.544 5203
-1.795 4.222 1.590 2650
-1.743 4.101 1.533 4132
-1.817 4.275 1.593 3106
-1.869 4.397 1.620 2563
-1.783 4.195 1.551 2463
-1.788 4.206 1.540 2766
-1.874 4.408 1.608 2520
-1.795 4.224 1.532 2786
-1.881 4.426 1.599 2659
-1.871 4.402 1.576 3783
-1.800 4.234 1.521 2655
-1.876 4.412 1.565 4715
-1.932 4.545 1.608 2697
-1.883 4.430 1.555 4235
-1.940 4.563 1.598 2287
-1.891 4.448 1.546 3185
-1.989 4.679 1.620 1769
-1.887 4.438 1.528 2311
-1.943 4.571 1.570 2283
-1.927 4.533 1.542 3391
-2.016 4.743 1.608 1792
-1.928 4.536 1.528 2896
-2.009 4.725 1.586 2555
-2.007 4.722 1.569 2929
-1.951 4.589 1.529 2103
-2.006 4.719 1.553 3874
-2.090 4.916 1.612 2480
-2.008 4.723 1.538 4160
-2.088 4.913 1.594 3142
-2.021 4.755 1.531 2962
-2.087 4.909 1.577 2711
-2.119 4.984 1.582 3089
-2.029 4.773 1.520 2360
-2.120 4.987 1.566 3602
-2.177 5.121 1.605 1506
-2.188 5.146 1.595 2910
-2.131 5.012 1.557 2257
-2.192 5.157 1.581 4128
-2.135 5.023 1.543 1343
-2.200 5.175 1.569 4438
-2.257 5.309 1.606 1610
-2.202 5.179 1.552 3456
-2.277 5.356 1.601 3188
-2.317 5.451 1.609 4398
-2.206 5.190 1.538 2775
-2.319 5.455 1.592 3430
-2.232 5.250 1.537 2664
-2.324 5.466 1.577 2367
-2.239 5.268 1.524 2152
-2.352 5.534 1.576 2603
-2.283 5.371 1.534 1999
-2.369 5.573 1.568 2681
-2.282 5.368 1.515 1899
-2.374 5.584 1.552 2014
-2.316 5.449 1.518 1520
-2.499 5.879 1.608 1781
-2.439 5.737 1.572 1722
-2.507 5.897 1.593 2839
-2.440 5.741 1.554 2638
-2.517 5.922 1.580 3552
-2.439 5.737 1.535 2139
-2.519 5.926 1.561 3319
-2.592 6.097 1.603 1535
-2.509 5.901 1.536 2497
-2.593 6.101 1.583 2363
-2.510 5.905 1.517 2337
-2.601 6.119 1.568 2066
-2.521 5.930 1.504 2285
-2.615 6.151 1.555 1946
-2.625 6.176 1.540 2244
-2.535 5.962 1.492 1709
-2.639 6.208 1.527 2348
-2.579 6.066 1.495 1321
-2.659 6.255 1.517 2837
-2.717 6.391 1.548 1069
-2.752 6.473 1.545 2754
-2.657 6.251 1.496 2701
-2.762 6.498 1.529 4419
-2.653 6.241 1.473 2100
-2.770 6.516 1.511 4508
-2.700 6.352 1.477 1810
-2.778 6.534 1.494 3034
-2.835 6.670 1.522 1771
-2.816 6.624 1.491 3369
-2.880 6.774 1.522 2733
-2.872 6.756 1.496 3533
-2.808 6.606 1.466 2325
-2.870 6.753 1.474 3625
-2.794 6.573 1.438 1490
-2.863 6.735 1.448 2116
-2.942 6.921 1.485 1322
-2.886 6.788 1.437 1712
-2.944 6.925 1.463 1552
-2.942 6.921 1.440 1575
-2.854 6.713 1.400 1482
-3.209 7.549 1.534 1558
-3.087 7.262 1.481 1413
-3.086 7.258 1.456 1648
-3.208 7.546 1.509 1428
-3.087 7.262 1.434 1790
-3.231 7.600 1.494 1100
-3.373 7.934 1.529 1356
-3.229 7.596 1.469 1291
-3.380 7.952 1.506 2144
-3.231 7.600 1.445 1593
-3.388 7.970 1.483 1847
-3.232 7.603 1.421 1392
-3.353 7.887 1.444 1888
-3.482 8.190 1.494 1728
-3.354 7.891 1.419 1765
-3.483 8.193 1.468 1756
-3.650 8.586 1.505 2114
-3.481 8.190 1.441 1888
-3.391 7.977 1.382 2104
-3.480 8.186 1.414 2044
-3.653 8.593 1.451 2376
-3.386 7.966 1.354 1855
-3.655 8.597 1.424 2916
-3.596 8.460 1.403 1484
-3.653 8.593 1.395 2450
-3.595 8.456 1.375 1415
-3.664 8.618 1.371 2186
-3.599 8.466 1.350 1175
-3.668 8.629 1.345 2649
-3.666 8.625 1.317 2258
-3.668 8.628 1.290 1342
-0.856 2.039 1.685 5804
-0.857 2.043 1.679 11609
-0.859 2.048 1.672 11609
-0.868 2.070 1.680 11343
-0.873 2.080 1.678 12590
-0.874 2.084 1.671 10354
-0.922 2.198 1.757 1201
-0.861 2.052 1.638 11532
-0.911 2.172 1.728 2115
-0.863 2.056 1.632 9417
-0.913 2.176 1.721 2115
-0.887 2.114 1.665 7625
-0.935 2.229 1.750 1651
-0.891 2.124 1.663 9395
-0.939 2.239 1.748 1584
-0.896 2.135 1.661 9016
-0.847 2.020 1.577 1662
-0.900 2.145 1.659 8869
-0.851 2.029 1.575 1688
-0.902 2.149 1.652 7912
-0.950 2.264 1.736 1613
-0.906 2.159 1.650 7095
-0.954 2.275 1.733 2162
-0.905 2.157 1.639 8709
-0.954 2.273 1.722 2787
-0.907 2.161 1.632 10462
-0.955 2.277 1.715 3401
-0.906 2.159 1.621 11107
-0.955 2.275 1.703 3593
-0.907 2.163 1.615 11787
-0.956 2.279 1.696 3264
-0.909 2.167 1.608 11787
-0.958 2.284 1.689 3175
-0.911 2.171 1.601 10213
-0.960 2.288 1.682 2670
-0.915 2.181 1.599 8687
-0.980 2.335 1.705 2577
-0.914 2.179 1.588 6318
-0.976 2.327 1.689 3519
-0.973 2.319 1.673 4782
-0.916 2.182 1.581 3996
-0.982 2.341 1.679 5476
-0.915 2.180 1.570 2591
-0.987 2.352 1.676 6675
-0.937 2.234 1.597 1295
-0.988 2.356 1.668 7219
-0.993 2.366 1.665 7880
-0.997 2.377 1.662 7801
-1.004 2.393 1.663 8868
-1.008 2.404 1.659 9668
-1.010 2.408 1.652 10585
-1.060 2.527 1.728 1329
-1.014 2.418 1.648 9108
-1.065 2.538 1.725 1348
-1.016 2.422 1.641 7870
-1.066 2.542 1.717 1709
-1.047 2.496 1.677 6864
-0.997 2.376 1.602 1707
-1.051 2.506 1.673 5665
-1.001 2.386 1.598 1690
-1.024 2.440 1.622 4921
-1.090 2.599 1.721 3488
-1.095 2.609 1.716 4349
-1.028 2.451 1.619 4134
-1.099 2.620 1.712 4124
-1.030 2.455 1.611 3405
-1.101 2.624 1.704 4112
-1.032 2.459 1.603 2528
-1.105 2.635 1.700 4125
-1.055 2.514 1.627 1876
-1.107 2.639 1.692 4264
-1.056 2.518 1.619 1709
-1.109 2.643 1.683 4403
-1.058 2.522 1.611 1719
-1.108 2.641 1.671 5068
-1.057 2.519 1.599 1531
-1.110 2.645 1.663 5793
-1.059 2.523 1.592 1124
-1.111 2.649 1.655 5803
-1.171 2.791 1.738 1424
-1.121 2.673 1.658 4159
-1.173 2.795 1.729 1989
-1.128 2.690 1.657 3347
-1.180 2.812 1.728 2602
-1.133 2.700 1.652 3013
-1.184 2.823 1.723 2735
-1.145 2.730 1.659 3977
-1.197 2.853 1.728 2804
-1.147 2.734 1.650 5754
-1.199 2.857 1.720 2901
-1.151 2.745 1.645 6398
-1.203 2.868 1.714 4657
-1.197 2.853 1.695 7190
-1.145 2.729 1.626 4154
-1.163 2.772 1.639 6533
-1.215 2.896 1.707 5109
-1.211 2.887 1.691 7647
-1.159 2.763 1.623 4578
-1.216 2.898 1.686 9853
-1.164 2.774 1.618 2909
-1.217 2.902 1.677 10175
-1.165 2.778 1.610 2438
-1.219 2.906 1.668 8005
-1.167 2.782 1.601 2006
-1.221 2.910 1.658 6914
-1.273 3.035 1.725 1841
-1.223 2.914 1.649 7994
-1.275 3.039 1.715 2486
-1.224 2.918 1.640 6956
-1.277 3.043 1.706 3802
-1.270 3.028 1.686 8825
-1.218 2.902 1.621 3899
-1.275 3.038 1.680 11183
-1.222 2.913 1.615 3428
-1.274 3.036 1.667 13030
-1.221 2.910 1.603 2495
-1.275 3.040 1.658 13511
-1.223 2.914 1.594 1283
-1.283 3.057 1.655 10893
-1.335 3.183 1.718 1216
-1.287 3.068 1.649 10833
-1.340 3.194 1.712 1179
-1.289 3.072 1.639 11615
-1.342 3.198 1.702 1179
-1.293 3.083 1.633 10065
-1.346 3.209 1.695 1340
-1.317 3.140 1.649 6852
-1.264 3.013 1.587 1262
-1.325 3.157 1.646 7335
-1.272 3.031 1.585 1459
-1.298 3.095 1.604 5870
-1.352 3.221 1.665 1819
-1.306 3.112 1.601 6452
-1.362 3.246 1.665 2327
-1.318 3.143 1.604 4980
-1.372 3.270 1.664 2481
-1.337 3.187 1.613 4773
-1.390 3.314 1.673 1839
-1.344 3.204 1.609 4591
-1.398 3.332 1.669 2151
-1.343 3.201 1.596 4174
-1.397 3.329 1.655 3722
-1.398 3.333 1.645 4503
-1.345 3.205 1.586 3381
-1.414 3.371 1.650 4501
-1.358 3.236 1.588 3563
-1.368 3.260 1.587 4212
-1.422 3.388 1.645 3933
-1.375 3.278 1.583 4544
-1.429 3.406 1.641 3684
-1.439 3.430 1.639 4535
-1.385 3.302 1.582 2917
-1.444 3.441 1.631 5695
-1.390 3.312 1.575 1708
-1.448 3.452 1.624 5786
-1.394 3.323 1.567 1591
-1.455 3.469 1.619 6050
-1.401 3.340 1.563 1898
-1.463 3.487 1.614 7064
-1.409 3.358 1.558 1520
-1.464 3.491 1.603 6487
-1.480 3.529 1.606 7678
-1.479 3.526 1.592 11257
-1.481 3.530 1.581 11288
-1.482 3.533 1.570 8286
-1.537 3.663 1.624 1050
-1.493 3.558 1.568 5959
-1.494 3.562 1.556 5770
-1.504 3.586 1.554 6681
-1.506 3.590 1.542 7121
-1.508 3.594 1.531 5925
-1.512 3.604 1.523 6224
-1.517 3.615 1.514 5846
-0.991 2.363 1.031 1357
-1.527 3.639 1.511 5768
-1.694 4.038 1.663 1286
-1.514 3.608 1.486 8761
-1.702 4.056 1.656 2231
-1.518 3.619 1.478 8793
-1.706 4.067 1.646 2834
-1.520 3.622 1.466 6788
-1.705 4.064 1.631 2723
-1.521 3.626 1.455 5541
-1.704 4.061 1.615 3886
-1.706 4.065 1.603 4485
-1.523 3.630 1.444 3035
-1.710 4.076 1.592 5889
-1.527 3.640 1.435 1889
-1.718 4.094 1.585 8537
-1.537 3.664 1.431 1629
-1.725 4.112 1.577 8327
-1.789 4.264 1.631 1040
-1.727 4.116 1.564 5358
-1.782 4.248 1.610 1177
-1.757 4.189 1.575 4165
-1.702 4.057 1.529 1587
-1.759 4.193 1.562 4461
-1.847 4.402 1.634 1878
-1.761 4.197 1.549 3290
-1.848 4.406 1.620 3203
-1.853 4.417 1.608 3568
-1.771 4.221 1.543 2830
-1.776 4.232 1.532 3243
-1.855 4.421 1.595 2792
-1.847 4.403 1.574 3311
-1.780 4.243 1.521 3086
-1.855 4.421 1.565 4753
-1.911 4.554 1.608 2378
-1.862 4.439 1.555 4233
-1.918 4.572 1.598 2343
-1.867 4.450 1.544 3059
-1.923 4.583 1.586 2379
-1.863 4.440 1.525 2921
-1.921 4.580 1.570 2643
-1.902 4.535 1.540 3216
-1.994 4.752 1.608 2084
-1.907 4.545 1.528 2785
-1.989 4.742 1.589 2605
-1.991 4.746 1.574 3421
-1.935 4.612 1.533 1883
-1.987 4.736 1.555 4370
-2.072 4.940 1.616 2091
-1.985 4.732 1.538 3867
-2.106 5.021 1.624 2725
-2.002 4.771 1.533 3190
-2.102 5.011 1.604 2776
-2.095 4.994 1.582 3539
-2.012 4.796 1.525 2889
-2.097 4.997 1.566 4108
-2.017 4.807 1.512 1875
-2.113 5.037 1.561 3262
-2.169 5.171 1.599 2146
-2.168 5.168 1.581 4083
-2.112 5.033 1.543 2151
-2.176 5.186 1.569 4972
-2.232 5.320 1.606 2165
-2.177 5.189 1.552 3603
-2.240 5.338 1.593 3411
-2.247 5.356 1.580 5075
-2.304 5.491 1.617 2638
-2.246 5.353 1.562 3726
-2.189 5.218 1.526 2169
-2.226 5.307 1.532 3272
-2.295 5.470 1.575 2487
-2.338 5.573 1.584 3012
-2.282 5.438 1.549 2068
-2.343 5.584 1.568 3652
-2.286 5.449 1.533 1890
-2.347 5.595 1.552 2768
-2.291 5.460 1.518 1621
-2.409 5.741 1.571 1989
-2.471 5.890 1.608 1824
-2.479 5.909 1.593 3104
-2.413 5.752 1.554 2858
-2.487 5.927 1.578 3785
-2.418 5.763 1.538 2051
-2.491 5.938 1.561 3217
-2.378 5.667 1.496 1784
-2.565 6.113 1.583 2283
-2.487 5.927 1.539 1849
-2.569 6.124 1.566 1877
-2.485 5.924 1.519 1832
-2.499 5.956 1.507 2271
-2.580 6.149 1.552 1801
-2.596 6.188 1.540 2092
-2.509 5.981 1.493 2010
-2.610 6.221 1.527 2409
-2.547 6.071 1.494 1285
-2.632 6.275 1.519 2912
-2.548 6.074 1.475 1087
-2.721 6.486 1.545 2630
-2.628 6.264 1.496 2569
-2.729 6.504 1.527 4179
-2.672 6.368 1.498 2022
-2.739 6.529 1.511 3998
-2.673 6.371 1.478 1751
-2.786 6.640 1.513 2655
-2.729 6.504 1.485 1960
-2.848 6.787 1.522 3120
-2.784 6.637 1.491 3053
-2.843 6.777 1.498 3318
-2.777 6.619 1.466 2447
-2.836 6.759 1.472 3138
-2.766 6.594 1.439 1606
-2.825 6.734 1.445 2052
-2.909 6.935 1.485 1443
-2.814 6.708 1.419 1751
-2.908 6.931 1.461 1702
-3.048 7.266 1.502 1834
-2.906 6.928 1.438 1589
-3.053 7.276 1.481 1719
-3.171 7.557 1.533 1390
-3.048 7.266 1.455 1946
-3.172 7.561 1.509 1297
-3.047 7.262 1.431 2110
-3.189 7.600 1.492 1073
-3.045 7.258 1.407 1374
-3.335 7.950 1.529 1226
-3.343 7.968 1.506 2095
-3.195 7.615 1.445 1458
-3.357 8.001 1.486 1956
-3.438 8.195 1.519 1679
-3.316 7.903 1.444 2295
-3.443 8.206 1.494 2093
-3.444 8.210 1.468 2339
-3.314 7.899 1.418 2209
-3.443 8.206 1.441 2657
-3.609 8.603 1.505 1704
-3.441 8.202 1.414 2585
-3.353 7.993 1.382 1823
-3.613 8.611 1.451 2239
-3.443 8.206 1.389 2127
-3.614 8.614 1.424 2766
-3.556 8.477 1.403 1435
-3.615 8.617 1.396 2305
-3.558 8.480 1.376 1319
-3.623 8.635 1.371 1939
-3.559 8.483 1.350 1006
-3.627 8.646 1.345 2091
-3.626 8.642 1.317 1631
-0.848 2.036 1.680 5378
-0.850 2.040 1.674 10756
-0.851 2.044 1.668 10756
-0.863 2.072 1.680 10698
-0.867 2.082 1.678 12199
-0.859 2.062 1.653 10379
-0.906 2.176 1.739 1341
-0.858 2.060 1.642 11656
-0.906 2.174 1.728 2031
-0.857 2.058 1.632 9597
-0.907 2.179 1.721 2031
-0.882 2.117 1.665 7877
-0.929 2.231 1.750 1590
-0.886 2.127 1.663 9801
-0.934 2.242 1.748 1545
-0.890 2.137 1.661 9166
-0.842 2.022 1.577 1582
-0.894 2.147 1.659 8814
-0.846 2.032 1.575 1538
-0.896 2.151 1.652 8899
-0.944 2.267 1.736 1348
-0.898 2.155 1.646 8985
-0.948 2.277 1.733 1831
-0.899 2.159 1.639 10765
-0.948 2.275 1.722 2378
-0.901 2.163 1.632 12546
-0.949 2.280 1.715 2918
-0.900 2.161 1.621 12909
-0.949 2.278 1.703 3061
-0.902 2.165 1.615 13328
-0.950 2.282 1.696 2691
-0.903 2.169 1.608 13328
-0.952 2.286 1.689 2495
-0.905 2.173 1.601 11730
-0.954 2.290 1.682 2357
-0.907 2.177 1.595 10133
-0.971 2.331 1.700 2365
-0.908 2.181 1.588 7470
-0.957 2.299 1.668 3685
-0.956 2.296 1.657 5211
-0.907 2.179 1.577 4886
-0.974 2.338 1.675 5423
-0.909 2.183 1.570 3190
-0.981 2.354 1.676 6614
-0.911 2.186 1.563 1495
-0.982 2.358 1.668 7295
-0.910 2.184 1.553 1220
-0.987 2.369 1.665 8130
-0.994 2.385 1.666 8364
-0.998 2.396 1.663 9632
-1.000 2.400 1.655 9984
-1.049 2.519 1.732 1323
-1.004 2.410 1.652 10520
-1.054 2.530 1.728 1535
-1.008 2.421 1.648 8564
-1.058 2.540 1.725 1455
-1.039 2.494 1.685 6849
-0.989 2.374 1.609 1517
-1.041 2.498 1.677 6420
-0.990 2.378 1.602 1561
-1.048 2.515 1.677 4933
-0.997 2.395 1.602 1896
-1.018 2.443 1.622 4816
-1.084 2.602 1.721 3611
-1.088 2.612 1.716 4496
-1.022 2.453 1.619 3966
-1.090 2.617 1.708 4130
-1.023 2.457 1.611 3210
-1.094 2.627 1.704 3686
-1.025 2.461 1.603 2338
-1.099 2.638 1.700 3308
-1.027 2.465 1.596 1466
-1.098 2.635 1.688 3895
-1.047 2.514 1.615 1161
-1.099 2.640 1.680 4545
-1.049 2.518 1.607 1412
-1.101 2.644 1.671 5605
-1.050 2.522 1.599 1650
-1.103 2.648 1.663 6471
-1.052 2.526 1.592 1198
-1.107 2.658 1.659 6373
-1.161 2.787 1.734 1271
-1.117 2.682 1.662 4531
-1.168 2.804 1.733 1792
-1.127 2.705 1.664 3829
-1.178 2.828 1.735 2207
-1.126 2.703 1.652 3311
-1.177 2.826 1.723 2643
-1.138 2.733 1.659 4059
-1.189 2.856 1.728 2466
-1.140 2.737 1.650 5589
-1.191 2.860 1.720 2527
-1.144 2.748 1.645 6105
-1.196 2.871 1.714 4395
-1.151 2.765 1.644 6497
-1.203 2.888 1.713 5374
-1.156 2.775 1.639 6663
-1.207 2.899 1.707 5156
-1.206 2.897 1.695 6762
-1.155 2.773 1.627 5015
-1.208 2.901 1.686 8578
-1.156 2.777 1.618 2957
-1.210 2.905 1.677 8960
-1.158 2.781 1.610 2405
-1.212 2.909 1.668 6945
-1.160 2.785 1.601 2026
-1.216 2.920 1.662 6168
-1.268 3.044 1.728 1929
-1.215 2.917 1.649 7399
-1.267 3.042 1.715 3005
-1.217 2.921 1.640 7245
-1.269 3.046 1.706 5028
-1.262 3.031 1.686 10976
-1.210 2.906 1.621 4745
-1.267 3.042 1.680 13689
-1.215 2.916 1.615 4403
-1.266 3.039 1.667 15698
-1.213 2.914 1.603 2893
-1.267 3.043 1.658 17081
-1.215 2.918 1.594 1267
-1.272 3.054 1.652 14692
-1.324 3.180 1.715 1441
-1.276 3.065 1.645 13707
-1.329 3.191 1.708 1432
-1.281 3.075 1.639 13509
-1.333 3.202 1.702 1062
-1.283 3.079 1.630 11143
-1.335 3.206 1.692 1310
-1.281 3.077 1.617 8120
-1.334 3.203 1.679 1899
-1.283 3.081 1.607 6968
-1.336 3.207 1.669 2096
-1.285 3.085 1.598 7032
-1.338 3.212 1.659 1917
-1.292 3.102 1.594 6346
-1.353 3.249 1.665 2002
-1.313 3.153 1.607 5130
-1.366 3.280 1.667 1817
-1.323 3.177 1.607 4992
-1.376 3.304 1.666 1949
-1.333 3.201 1.606 4555
-1.386 3.328 1.665 2412
-1.382 3.319 1.649 4144
-1.329 3.191 1.590 4041
-1.390 3.337 1.645 4854
-1.331 3.195 1.580 3239
-1.400 3.361 1.643 4274
-1.338 3.213 1.576 2826
-1.396 3.351 1.627 4156
-1.342 3.223 1.569 2536
-1.392 3.342 1.610 4853
-1.445 3.470 1.668 1406
-1.399 3.359 1.606 3911
-1.346 3.231 1.549 1573
-1.432 3.438 1.628 5159
-1.378 3.309 1.572 1957
-1.439 3.455 1.624 5292
-1.363 3.272 1.544 1948
-1.449 3.480 1.622 7180
-1.367 3.283 1.536 1539
-1.451 3.484 1.611 9902
-1.455 3.494 1.603 9716
-1.463 3.512 1.598 11199
-1.409 3.383 1.543 1021
-1.470 3.530 1.592 14143
-1.472 3.533 1.581 12550
-1.473 3.537 1.570 8844
-1.478 3.548 1.562 6326
-1.482 3.559 1.554 6044
-1.498 3.597 1.556 8082
-1.500 3.601 1.545 9118
-1.498 3.597 1.531 5971
-1.500 3.601 1.520 4295
-1.504 3.612 1.511 4117
-1.503 3.609 1.497 4528
-1.684 4.043 1.663 1326
-1.504 3.612 1.486 7612
-1.688 4.054 1.653 2528
-1.509 3.623 1.478 7797
-1.693 4.065 1.643 2915
-1.510 3.626 1.466 6315
-1.692 4.062 1.628 2851
-1.515 3.637 1.457 5482
-1.691 4.059 1.613 4232
-1.695 4.070 1.603 4539
-1.516 3.640 1.446 3152
-1.702 4.088 1.595 5724
-1.518 3.644 1.435 2274
-1.707 4.099 1.585 8154
-1.528 3.668 1.431 1652
-1.711 4.109 1.574 7340
-1.713 4.113 1.561 4246
-1.777 4.266 1.615 1018
-1.747 4.194 1.575 4920
-1.691 4.061 1.529 1167
-1.748 4.197 1.562 6012
-1.835 4.406 1.634 2008
-1.747 4.194 1.546 4338
-1.837 4.410 1.620 3221
-1.839 4.414 1.606 3756
-1.757 4.219 1.540 3085
-1.762 4.230 1.530 3761
-1.840 4.418 1.592 2776
-1.766 4.240 1.519 3710
-1.839 4.415 1.576 2579
-1.846 4.433 1.567 4187
-1.768 4.244 1.505 2129
-1.851 4.444 1.555 4192
-1.906 4.577 1.598 2363
-1.911 4.588 1.586 3301
-1.855 4.455 1.544 2899
-1.918 4.606 1.576 2876
-1.848 4.437 1.523 2853
-1.856 4.455 1.514 2821
-1.978 4.750 1.606 2327
-1.977 4.747 1.589 3050
-1.892 4.543 1.526 2520
-1.979 4.751 1.574 3680
-1.923 4.617 1.533 1492
-1.974 4.741 1.555 4075
-2.068 4.966 1.623 1648
-1.976 4.745 1.540 3269
-2.093 5.026 1.624 2898
-1.989 4.776 1.533 3191
-2.095 5.030 1.608 3073
-2.085 5.006 1.584 3302
-1.997 4.794 1.522 2775
-2.087 5.010 1.569 3864
-2.031 4.876 1.530 1718
-2.103 5.049 1.563 4288
-2.168 5.205 1.607 1352
-2.104 5.053 1.547 3427
-2.163 5.194 1.587 3170
-2.165 5.198 1.571 4133
-2.221 5.333 1.608 2322
-2.220 5.330 1.589 3844
-2.164 5.195 1.552 2832
-2.233 5.362 1.580 4837
-2.171 5.213 1.540 2209
-2.232 5.359 1.562 4344
-2.176 5.224 1.526 2031
-2.213 5.313 1.532 4382
-2.278 5.469 1.573 3206
-2.279 5.473 1.556 3855
-2.223 5.338 1.521 2725
-2.328 5.590 1.568 4420
-2.272 5.455 1.533 2258
-2.336 5.608 1.554 3428
-2.280 5.473 1.520 1658
-2.284 5.484 1.504 2133
-2.349 5.641 1.544 1978
-2.461 5.908 1.591 2872
-2.401 5.765 1.556 2720
-2.471 5.933 1.578 3500
-2.358 5.662 1.512 2117
-2.479 5.951 1.563 2994
-2.363 5.673 1.496 2111
-2.546 6.112 1.582 1948
-2.486 5.969 1.548 1897
-2.479 5.952 1.524 1794
-2.550 6.123 1.564 1608
-2.495 5.991 1.514 2141
-2.552 6.127 1.545 1595
-2.595 6.231 1.549 1870
-2.497 5.995 1.495 1852
-2.594 6.228 1.527 2386
-2.531 6.077 1.494 1227
-2.616 6.281 1.519 3072
-2.615 6.278 1.498 2718
-2.704 6.493 1.545 2586
-2.712 6.511 1.527 3737
-2.613 6.274 1.477 1813
-2.725 6.543 1.513 3363
-2.668 6.407 1.484 1664
-2.739 6.576 1.498 2368
-2.828 6.791 1.543 1743
-2.830 6.795 1.522 3312
-2.761 6.630 1.488 2510
-2.828 6.791 1.499 3105
-2.760 6.626 1.466 2305
-2.818 6.766 1.472 2594
-2.749 6.601 1.439 1544
-2.802 6.727 1.442 2122
-2.894 6.950 1.486 1669
-2.890 6.939 1.461 1892
-2.794 6.708 1.417 1745
-3.029 7.273 1.502 1975
-2.885 6.928 1.437 1654
-3.031 7.277 1.479 1849
-2.971 7.133 1.453 1200
-3.026 7.266 1.454 1941
-3.083 7.403 1.479 1156
-3.019 7.248 1.427 2170
-3.166 7.601 1.490 1262
-3.020 7.252 1.404 1731
-3.158 7.583 1.463 1183
-3.322 7.977 1.506 1798
-3.415 8.200 1.545 1367
-3.339 8.016 1.487 2007
-3.417 8.204 1.519 1922
-3.292 7.904 1.443 2466
-3.422 8.215 1.494 2284
-3.423 8.219 1.468 2659
-3.294 7.908 1.418 2330
-3.424 8.222 1.443 3064
-3.361 8.070 1.418 1671
-3.420 8.211 1.414 2847
-3.327 7.987 1.379 1526
-3.421 8.215 1.389 2381
-3.587 8.613 1.450 1932
-3.592 8.623 1.424 2408
-3.534 8.486 1.403 1488
-3.596 8.634 1.397 1956
-3.539 8.496 1.377 1322
-3.603 8.652 1.372 1725
-3.605 8.655 1.345 1726
-3.603 8.651 1.317 1076
-0.843 2.038 1.680 4902
-0.844 2.042 1.674 9804
-0.846 2.046 1.668 9804
-0.855 2.068 1.675 9914
-0.862 2.084 1.678 11620
-0.853 2.064 1.653 10230
-0.901 2.178 1.739 1207
-0.853 2.062 1.642 11520
-0.900 2.177 1.728 1791
-0.854 2.066 1.636 9581
-0.902 2.181 1.721 1791
-0.879 2.125 1.670 8151
-0.831 2.010 1.585 1260
-0.883 2.135 1.668 10010
-0.835 2.020 1.583 1884
-0.884 2.139 1.661 9104
-0.837 2.024 1.577 1460
-0.891 2.155 1.663 8544
-0.843 2.040 1.580 1669
-0.890 2.153 1.652 9950
-0.938 2.269 1.736 1080
-0.892 2.158 1.646 11408
-0.940 2.273 1.729 1477
-0.894 2.162 1.639 12931
-0.942 2.278 1.722 2054
-0.895 2.166 1.632 14454
-0.943 2.282 1.715 2616
-0.894 2.164 1.621 14323
-0.943 2.280 1.703 2725
-0.896 2.168 1.615 14263
-0.944 2.284 1.696 2411
-0.898 2.171 1.608 14263
-0.946 2.289 1.689 2221
-0.899 2.175 1.601 12762
-0.948 2.293 1.682 2028
-0.901 2.179 1.595 11260
-0.965 2.334 1.700 2181
-0.903 2.183 1.588 8447
-0.951 2.301 1.668 3477
-0.902 2.181 1.577 5822
-0.950 2.299 1.657 5191
-0.970 2.347 1.679 5519
-0.903 2.185 1.570 3934
-0.974 2.357 1.676 6855
-0.900 2.176 1.555 2139
-0.976 2.361 1.668 7411
-0.904 2.186 1.553 1727
-0.980 2.371 1.665 8061
-0.905 2.190 1.546 1330
-0.987 2.388 1.666 8161
-0.992 2.398 1.663 9364
-0.993 2.403 1.655 9320
-1.043 2.522 1.732 1427
-0.998 2.413 1.652 9401
-1.047 2.532 1.728 1655
-0.999 2.417 1.644 7112
-1.049 2.537 1.721 1936
-1.032 2.497 1.685 6340
-0.983 2.377 1.609 1521
-1.034 2.501 1.677 5735
-0.984 2.381 1.602 1614
-1.010 2.442 1.630 5450
-1.059 2.562 1.705 2606
-1.011 2.446 1.622 5277
-1.072 2.592 1.713 3795
-1.079 2.609 1.713 4794
-1.013 2.450 1.615 4235
-1.080 2.613 1.704 4342
-1.017 2.460 1.611 3253
-1.085 2.624 1.700 3246
-1.019 2.464 1.603 2379
-1.057 2.557 1.650 3477
-1.108 2.679 1.723 1541
-1.062 2.568 1.646 4169
-1.112 2.690 1.718 1509
-1.066 2.578 1.641 5007
-1.124 2.719 1.725 1831
-1.094 2.647 1.671 5999
-1.044 2.525 1.599 1741
-1.096 2.651 1.663 6862
-1.045 2.529 1.592 1253
-1.100 2.661 1.659 6611
-1.151 2.784 1.730 1438
-1.113 2.691 1.665 4778
-1.163 2.814 1.736 1483
-1.122 2.715 1.668 4632
-1.173 2.838 1.739 1671
-1.124 2.719 1.660 3685
-1.175 2.842 1.730 2073
-1.131 2.736 1.659 3959
-1.182 2.859 1.728 2146
-1.133 2.740 1.650 5093
-1.184 2.863 1.720 2300
-1.137 2.751 1.645 5567
-1.188 2.874 1.714 4069
-1.144 2.768 1.644 6173
-1.195 2.891 1.713 5212
-1.149 2.778 1.639 6742
-1.200 2.902 1.707 5227
-1.204 2.913 1.702 6133
-1.153 2.789 1.634 5458
-1.203 2.911 1.689 7023
-1.152 2.786 1.622 3393
-1.202 2.908 1.677 7269
-1.151 2.784 1.610 2407
-1.207 2.919 1.671 5595
-1.155 2.794 1.604 2282
-1.208 2.923 1.662 5687
-1.260 3.048 1.728 2168
-1.207 2.920 1.649 7305
-1.259 3.045 1.715 3404
-1.209 2.925 1.640 7563
-1.261 3.050 1.706 6148
-1.254 3.034 1.686 12919
-1.203 2.909 1.621 5208
-1.259 3.045 1.680 15739
-1.207 2.919 1.615 4817
-1.258 3.042 1.667 17817
-1.206 2.917 1.603 3179
-1.260 3.047 1.658 20188
-1.208 2.921 1.594 1505
-1.264 3.057 1.652 18237
-1.316 3.183 1.715 1394
-1.268 3.068 1.645 16175
-1.321 3.194 1.708 1365
-1.270 3.072 1.636 14778
-1.322 3.198 1.698 1003
-1.272 3.076 1.626 12206
-1.324 3.203 1.689 1237
-1.273 3.080 1.617 9789
-1.326 3.207 1.679 1818
-1.278 3.091 1.610 8553
-1.344 3.251 1.688 2028
-1.277 3.088 1.598 7851
-1.346 3.255 1.678 1736
-1.281 3.099 1.591 6182
-1.345 3.253 1.665 1830
-1.308 3.163 1.610 5097
-1.255 3.035 1.550 1641
-1.315 3.180 1.607 4790
-1.368 3.308 1.666 2163
-1.325 3.204 1.606 4363
-1.378 3.332 1.665 2600
-1.374 3.323 1.649 4369
-1.321 3.195 1.590 3612
-1.381 3.340 1.645 4973
-1.317 3.185 1.574 3472
-1.385 3.351 1.637 4581
-1.319 3.189 1.564 3252
-1.384 3.348 1.624 5289
-1.323 3.200 1.557 2234
-1.386 3.352 1.613 5933
-1.333 3.224 1.556 2272
-1.390 3.363 1.606 5025
-1.337 3.234 1.549 2583
-1.409 3.408 1.613 5583
-1.350 3.265 1.551 2464
-1.425 3.446 1.618 5096
-1.352 3.269 1.541 2475
-1.440 3.483 1.622 8051
-1.387 3.354 1.566 2262
-1.442 3.487 1.611 12134
-1.388 3.358 1.555 2186
-1.446 3.498 1.603 12175
-1.393 3.369 1.548 1954
-1.454 3.516 1.598 13753
-1.400 3.386 1.543 1695
-1.458 3.527 1.589 15762
-1.399 3.383 1.530 1421
-1.462 3.537 1.581 12595
-1.395 3.373 1.513 1025
-1.464 3.541 1.570 8163
-1.466 3.545 1.559 5888
-1.470 3.556 1.551 5689
-1.489 3.601 1.556 8846
-1.490 3.604 1.545 10058
-1.489 3.601 1.531 6729
-1.488 3.598 1.517 3657
-1.489 3.602 1.506 2692
-1.491 3.606 1.495 3465
-1.673 4.047 1.663 1385
-1.498 3.623 1.489 6101
-1.675 4.051 1.651 2638
