3.458 4.509 1.497 3485
3.563 4.647 1.520 4565
3.455 4.506 1.478 2364
3.608 4.705 1.520 4290
3.706 4.833 1.558 1739
3.648 4.757 1.517 4001
3.559 4.641 1.483 1956
3.664 4.779 1.505 5057
3.753 4.895 1.538 2024
3.685 4.806 1.494 3664
3.775 4.923 1.528 2197
3.768 4.914 1.506 2321
3.678 4.797 1.473 1842
3.803 4.960 1.500 2577
3.892 5.076 1.532 2186
3.895 5.080 1.514 2929
3.805 4.963 1.482 2451
3.883 5.064 1.490 2449
3.996 5.212 1.530 1280
3.881 5.061 1.470 1942
4.112 5.362 1.550 1887
4.114 5.366 1.531 3206
3.968 5.175 1.481 1678
4.126 5.381 1.514 3450
3.999 5.215 1.471 1453
4.138 5.397 1.498 2854
4.233 5.520 1.529 1850
4.230 5.517 1.507 2501
4.141 5.400 1.478 1855
4.152 5.415 1.461 2393
4.313 5.625 1.513 2128
4.155 5.418 1.442 3059
4.311 5.622 1.491 2930
4.308 5.619 1.469 2479
4.450 5.804 1.513 2073
4.325 5.640 1.453 1988
4.458 5.813 1.493 1570
4.536 5.915 1.495 2247
4.332 5.650 1.434 1851
4.458 5.813 1.449 2049
4.548 5.931 1.476 1766
4.460 5.816 1.428 2516
4.612 6.014 1.472 1494
4.462 5.819 1.407 2140
4.619 6.024 1.452 1795
4.631 6.039 1.433 1871
4.474 5.835 1.388 1520
4.671 6.091 1.421 2490
4.761 6.209 1.446 1542
4.668 6.088 1.397 3395
4.759 6.206 1.422 2046
4.661 6.079 1.373 3621
5.008 6.531 1.465 1593
4.659 6.075 1.349 2730
5.158 6.727 1.480 1843
4.999 6.519 1.414 2521
5.327 6.947 1.498 2313
5.334 6.956 1.474 2932
5.167 6.739 1.432 2871
5.336 6.959 1.448 3754
5.174 6.748 1.408 3177
5.339 6.962 1.423 4496
5.177 6.751 1.384 3174
5.341 6.965 1.397 4700
5.179 6.754 1.359 2474
5.343 6.968 1.372 3944
5.181 6.757 1.334 1625
5.345 6.971 1.347 2745
5.589 7.289 1.402 1527
5.343 6.968 1.320 2013
5.586 7.285 1.374 1374
5.350 6.977 1.296 1760
5.732 7.475 1.379 1397
5.352 6.979 1.270 1348
5.734 7.478 1.351 1304
1.374 1.782 1.713 3970
1.377 1.785 1.706 7940
1.452 1.882 1.794 1328
1.380 1.789 1.700 7940
1.455 1.886 1.787 1396
1.395 1.808 1.707 7008
1.413 1.832 1.719 6994
1.408 1.825 1.703 7154
1.484 1.923 1.789 1418
1.411 1.829 1.696 7856
1.487 1.927 1.782 2114
1.414 1.832 1.690 7856
1.489 1.931 1.775 2114
1.416 1.836 1.683 6362
1.492 1.934 1.768 2474
1.423 1.845 1.681 4870
1.499 1.943 1.766 2526
1.482 1.921 1.736 3825
1.406 1.822 1.652 2466
1.485 1.925 1.730 3896
1.409 1.826 1.646 1472
1.504 1.949 1.740 6408
1.427 1.850 1.657 1854
1.507 1.953 1.733 9402
1.430 1.854 1.650 1837
1.510 1.957 1.726 8866
1.433 1.857 1.643 1644
1.516 1.966 1.723 8475
1.440 1.866 1.641 1590
1.519 1.969 1.716 8461
1.442 1.869 1.634 1303
1.522 1.973 1.709 8202
1.529 1.982 1.706 8096
1.532 1.985 1.699 9089
1.535 1.989 1.692 10081
1.541 1.998 1.689 8237
1.619 2.099 1.769 1095
1.577 2.044 1.715 7022
1.592 2.064 1.720 7837
1.514 1.962 1.641 1151
1.599 2.073 1.717 9277
1.521 1.971 1.638 1299
1.594 2.066 1.701 8275
1.588 2.059 1.686 8675
1.595 2.067 1.682 6675
1.623 2.103 1.699 5642
1.625 2.107 1.692 6726
1.624 2.105 1.680 7939
1.627 2.109 1.672 9657
1.629 2.112 1.665 11375
1.632 2.116 1.657 12805
1.635 2.119 1.650 11170
1.675 2.172 1.677 8384
1.640 2.126 1.634 8486
1.720 2.230 1.709 2210
1.643 2.130 1.627 8865
1.727 2.239 1.704 2283
1.692 2.193 1.661 8184
1.772 2.297 1.735 1115
1.695 2.197 1.654 9840
1.775 2.301 1.727 1346
1.697 2.200 1.646 9564
1.778 2.304 1.718 1493
1.704 2.209 1.641 9035
1.785 2.313 1.714 1466
1.703 2.207 1.630 7577
1.783 2.312 1.702 1972
1.705 2.210 1.622 5219
1.795 2.326 1.701 3574
1.797 2.330 1.692 5354
1.708 2.214 1.614 3937
1.800 2.333 1.684 8420
1.715 2.223 1.609 2948
1.799 2.331 1.672 11632
1.713 2.221 1.598 1723
1.806 2.340 1.667 13549
1.707 2.213 1.582 1558
1.813 2.350 1.662 15657
1.714 2.222 1.578 1195
1.820 2.359 1.657 15854
1.822 2.362 1.649 17531
1.904 2.468 1.718 1107
1.821 2.360 1.637 18092
1.903 2.466 1.705 2252
1.823 2.363 1.628 17375
1.905 2.470 1.696 3038
1.826 2.367 1.620 15728
1.908 2.473 1.687 3097
1.829 2.370 1.611 14594
1.919 2.488 1.686 3590
1.831 2.374 1.603 15108
1.927 2.497 1.680 4565
1.834 2.377 1.594 14578
1.929 2.501 1.671 5064
1.836 2.380 1.585 11570
1.919 2.487 1.652 7755
1.913 2.480 1.636 10604
1.830 2.373 1.570 8191
1.916 2.483 1.627 8756
1.833 2.376 1.561 6705
1.997 2.588 1.679 5599
1.914 2.481 1.614 5440
2.000 2.592 1.670 5747
1.912 2.479 1.602 4365
1.998 2.590 1.657 5321
1.910 2.476 1.589 3092
2.001 2.593 1.648 5354
2.084 2.701 1.711 2581
2.021 2.619 1.652 7264
2.104 2.727 1.715 2292
2.028 2.629 1.645 9047
2.111 2.737 1.708 2921
2.031 2.632 1.636 7303
2.114 2.740 1.698 2802
2.038 2.641 1.630 6225
2.121 2.750 1.692 1869
2.049 2.656 1.626 7387
2.137 2.770 1.692 2777
2.056 2.665 1.620 7965
2.140 2.774 1.682 3718
2.059 2.669 1.610 6395
2.143 2.777 1.671 3041
2.070 2.683 1.607 3780
2.154 2.792 1.668 2704
2.157 2.796 1.658 3490
2.073 2.687 1.597 1805
2.164 2.805 1.651 3664
2.080 2.696 1.591 1503
2.167 2.809 1.640 3481
2.082 2.699 1.581 1438
2.170 2.812 1.630 4620
2.085 2.703 1.571 1022
2.177 2.821 1.623 5175
2.261 2.931 1.682 1086
2.210 2.865 1.634 4186
2.204 2.857 1.618 4745
2.207 2.861 1.607 4950
2.292 2.971 1.665 2045
2.268 2.939 1.636 4525
2.183 2.829 1.579 1799
2.275 2.949 1.628 4443
2.190 2.838 1.572 1294
2.295 2.975 1.629 4665
2.210 2.865 1.573 1792
2.316 3.002 1.630 7581
2.231 2.891 1.575 1761
2.319 3.005 1.619 9455
2.233 2.895 1.564 1698
2.321 3.009 1.609 5883
2.236 2.898 1.554 1382
2.342 3.036 1.609 3234
2.256 2.925 1.555 1282
2.349 3.045 1.601 3717
2.435 3.156 1.655 1089
2.361 3.060 1.595 4389
2.446 3.171 1.649 1421
2.372 3.075 1.590 5981
2.458 3.186 1.643 1669
2.420 3.137 1.607 6648
2.334 3.025 1.554 1506
2.423 3.140 1.595 7273
2.509 3.252 1.648 1039
2.421 3.138 1.581 5166
2.507 3.250 1.633 2477
2.501 3.241 1.616 4367
2.414 3.129 1.564 3503
2.508 3.251 1.607 4113
2.421 3.139 1.555 3556
2.556 3.313 1.622 4992
2.442 3.165 1.555 4502
2.558 3.316 1.610 5573
2.449 3.175 1.546 3146
2.570 3.332 1.603 7526
2.456 3.184 1.537 2156
2.577 3.341 1.593 8004
2.491 3.228 1.544 2416
2.589 3.356 1.586 5132
2.502 3.243 1.537 1944
2.619 3.395 1.589 4228
2.532 3.282 1.541 1641
2.622 3.398 1.577 3265
2.709 3.511 1.625 1313
2.629 3.407 1.567 2672
2.753 3.568 1.635 1967
2.618 3.393 1.547 3094
2.705 3.506 1.595 2432
2.726 3.533 1.592 3611
2.615 3.390 1.532 2962
2.751 3.566 1.591 4298
2.613 3.387 1.518 2285
2.749 3.564 1.576 5260
2.855 3.701 1.632 1468
2.766 3.585 1.570 5526
2.858 3.704 1.619 2445
2.782 3.606 1.564 6966
2.870 3.720 1.610 2319
2.785 3.609 1.551 6308
2.872 3.723 1.596 1700
2.792 3.619 1.540 3391
2.893 3.750 1.592 2420
2.877 3.730 1.569 3309
2.974 3.855 1.618 1574
2.852 3.697 1.542 3896
2.972 3.853 1.602 2289
2.984 3.868 1.592 2480
2.873 3.724 1.537 2361
2.908 3.769 1.540 2775
2.996 3.884 1.582 2640
2.999 3.887 1.568 3040
2.911 3.773 1.526 2910
3.006 3.896 1.556 2883
3.094 4.011 1.598 1971
3.013 3.906 1.544 2343
3.101 4.020 1.586 1610
3.090 4.005 1.565 3300
3.002 3.891 1.524 1654
3.134 4.063 1.569 4318
3.142 4.072 1.557 4795
3.053 3.957 1.516 1207
3.195 4.142 1.565 4095
3.088 4.003 1.517 2115
3.189 4.133 1.546 5629
3.277 4.248 1.585 1564
3.186 4.130 1.529 4275
3.275 4.245 1.568 2686
3.306 4.285 1.564 3826
3.194 4.139 1.516 3155
3.327 4.312 1.557 4266
3.210 4.161 1.507 2669
3.348 4.340 1.549 5672
3.222 4.176 1.495 1761
3.365 4.361 1.539 8670
3.276 4.246 1.502 2291
3.367 4.365 1.523 7551
3.461 4.486 1.562 3564
3.351 4.343 1.500 5294
3.445 4.465 1.538 3897
3.358 4.353 1.486 4178
3.447 4.468 1.522 3318
3.591 4.654 1.562 3270
3.468 4.496 1.513 3068
3.593 4.657 1.545 3688
3.471 4.499 1.497 3339
3.581 4.642 1.522 4312
3.469 4.496 1.478 2233
3.640 4.719 1.527 4210
3.551 4.603 1.493 2552
3.662 4.746 1.517 4184
3.572 4.630 1.483 1925
3.678 4.768 1.505 5211
3.768 4.884 1.538 1800
3.685 4.777 1.489 3597
3.775 4.893 1.522 2063
3.702 4.799 1.477 1980
3.792 4.915 1.510 1823
3.818 4.949 1.500 2271
3.907 5.065 1.532 1965
3.910 5.068 1.514 2849
3.820 4.952 1.482 2153
3.903 5.059 1.492 2461
4.012 5.200 1.530 1751
4.128 5.350 1.550 2579
4.009 5.197 1.509 1932
4.130 5.354 1.531 4007
4.002 5.188 1.487 1769
4.137 5.363 1.513 4181
4.019 5.209 1.473 1606
4.149 5.378 1.496 3490
4.258 5.520 1.532 1776
4.161 5.394 1.480 2456
4.251 5.511 1.509 2239
4.315 5.594 1.508 2237
4.164 5.397 1.460 2038
4.318 5.597 1.488 2853
4.465 5.788 1.534 2664
4.472 5.797 1.515 3543
4.315 5.594 1.466 1873
4.475 5.800 1.493 3239
4.370 5.665 1.461 1517
4.477 5.803 1.472 3291
4.368 5.661 1.439 1753
4.475 5.800 1.449 3241
4.565 5.917 1.476 1505
4.472 5.797 1.427 3243
4.587 5.945 1.460 1855
4.479 5.806 1.407 2496
4.627 5.998 1.449 1834
4.496 5.828 1.390 2037
4.648 6.025 1.433 1647
4.746 6.152 1.437 1770
4.655 6.034 1.412 1586
4.758 6.167 1.417 2580
5.020 6.507 1.488 1496
4.760 6.170 1.394 2023
4.669 6.053 1.370 1725
5.020 6.507 1.439 1810
4.676 6.062 1.349 1495
5.018 6.504 1.414 2750
5.175 6.708 1.454 2121
5.187 6.724 1.432 2754
5.355 6.941 1.474 2261
5.357 6.944 1.448 2847
5.194 6.733 1.408 2675
5.359 6.947 1.423 3357
5.197 6.736 1.384 2706
5.362 6.950 1.397 3593
5.199 6.739 1.359 2365
5.364 6.953 1.372 3186
5.790 7.505 1.471 1685
5.366 6.955 1.347 2228
5.510 7.142 1.379 1654
5.363 6.952 1.320 1567
5.747 7.449 1.405 1247
5.749 7.452 1.378 1327
5.365 6.955 1.294 1310
5.751 7.455 1.350 1031
5.372 6.963 1.270 1000
1.388 1.788 1.722 3803
1.391 1.791 1.715 7606
1.393 1.795 1.709 7606
1.469 1.892 1.796 1047
1.400 1.804 1.707 6809
1.419 1.828 1.719 6635
1.414 1.821 1.703 7014
1.489 1.919 1.789 1252
1.417 1.825 1.696 7901
1.492 1.922 1.782 1826
1.419 1.828 1.690 7901
1.495 1.926 1.775 1826
1.422 1.832 1.683 6622
1.498 1.930 1.768 2031
1.425 1.835 1.677 5344
1.501 1.934 1.761 2235
1.484 1.911 1.732 3707
1.407 1.813 1.648 2144
1.487 1.915 1.725 4267
1.410 1.816 1.641 1325
1.498 1.929 1.727 6539
1.421 1.830 1.644 1428
1.509 1.943 1.729 9435
1.432 1.844 1.646 1353
1.511 1.947 1.722 8820
1.434 1.848 1.639 1147
1.518 1.956 1.719 8294
1.441 1.856 1.637 1076
1.521 1.959 1.712 8107
1.524 1.963 1.705 8133
1.531 1.972 1.702 8428
1.538 1.981 1.699 9390
1.541 1.984 1.692 10416
1.547 1.993 1.689 8174
1.626 2.094 1.769 1112
1.579 2.034 1.711 6470
1.602 2.064 1.725 6905
1.524 1.963 1.645 1981
1.605 2.068 1.717 8287
1.527 1.967 1.638 1666
1.592 2.050 1.693 7882
1.586 2.043 1.677 9231
1.585 2.041 1.666 7261
1.583 2.039 1.655 5444
1.662 2.141 1.732 1168
1.632 2.102 1.692 6709
1.553 2.000 1.615 1011
1.626 2.095 1.676 8381
1.629 2.098 1.668 10074
1.627 2.096 1.657 11819
1.707 2.199 1.733 1075
1.634 2.105 1.653 12380
1.714 2.208 1.729 1236
1.650 2.125 1.657 11020
1.682 2.166 1.677 9266
1.651 2.127 1.638 9109
1.731 2.230 1.713 2251
1.654 2.130 1.630 9309
1.734 2.233 1.704 2388
1.699 2.188 1.661 8112
1.779 2.292 1.735 1183
1.701 2.191 1.654 10040
1.782 2.295 1.727 1260
1.704 2.195 1.646 9755
1.785 2.299 1.718 1188
1.711 2.204 1.641 9254
1.792 2.308 1.714 1038
1.714 2.207 1.633 7420
1.795 2.312 1.706 1512
1.712 2.205 1.622 4574
1.793 2.310 1.693 3015
1.804 2.324 1.692 3980
1.715 2.209 1.614 3155
1.803 2.322 1.680 6885
1.717 2.212 1.606 2445
1.806 2.326 1.672 9898
1.724 2.221 1.601 1474
1.808 2.329 1.663 12214
1.714 2.208 1.582 1298
1.815 2.339 1.659 14122
1.897 2.444 1.728 1104
1.823 2.348 1.654 13859
1.830 2.357 1.649 15081
1.828 2.354 1.637 15947
1.910 2.460 1.705 2134
1.831 2.358 1.628 15780
1.913 2.464 1.696 2803
1.833 2.361 1.620 13283
1.916 2.467 1.687 2912
1.840 2.370 1.615 11419
1.923 2.477 1.682 3141
1.839 2.368 1.603 11596
1.934 2.491 1.680 3739
1.845 2.377 1.597 11263
1.933 2.489 1.668 4578
1.844 2.375 1.585 8793
1.927 2.482 1.652 7601
1.921 2.474 1.636 10238
1.838 2.367 1.570 6159
1.928 2.483 1.630 8429
1.844 2.376 1.565 5384
1.926 2.481 1.618 4550
2.009 2.588 1.683 3735
1.990 2.563 1.656 4098
1.907 2.456 1.592 3423
1.997 2.572 1.650 4648
1.914 2.465 1.586 2787
2.004 2.581 1.644 4878
2.088 2.689 1.708 3167
2.029 2.613 1.652 6113
2.112 2.721 1.715 2067
2.036 2.622 1.645 7890
2.120 2.730 1.708 2440
2.043 2.632 1.639 6853
2.127 2.740 1.702 2087
2.050 2.641 1.633 6075
2.134 2.749 1.695 1675
2.057 2.650 1.626 6283
2.141 2.758 1.688 2458
2.060 2.653 1.617 6709
2.144 2.762 1.678 3094
2.067 2.662 1.610 5461
2.151 2.771 1.671 2511
2.083 2.683 1.610 3623
2.167 2.792 1.671 2722
2.166 2.789 1.658 3796
2.081 2.681 1.597 1910
2.177 2.804 1.654 3563
2.093 2.695 1.594 1969
2.180 2.808 1.644 3055
2.095 2.699 1.584 1858
2.187 2.817 1.636 4230
2.102 2.708 1.577 1470
2.194 2.826 1.629 4991
2.279 2.936 1.688 1010
2.219 2.859 1.634 4383
2.213 2.850 1.618 4592
2.298 2.960 1.676 1286
2.216 2.854 1.607 4984
2.301 2.964 1.665 2176
2.281 2.938 1.639 4947
2.196 2.828 1.582 2747
2.284 2.942 1.628 5714
2.198 2.832 1.572 1897
2.304 2.968 1.629 6062
2.219 2.858 1.573 2636
2.325 2.995 1.630 8034
2.239 2.885 1.575 1957
2.328 2.998 1.619 8827
2.242 2.888 1.564 1529
2.335 3.008 1.611 5576
2.249 2.897 1.556 1342
2.328 2.999 1.595 3831
2.414 3.110 1.649 1809
2.331 3.003 1.584 4273
2.417 3.113 1.638 1973
2.370 3.053 1.595 4730
2.456 3.164 1.649 1347
2.386 3.074 1.593 6334
2.472 3.185 1.646 1818
2.430 3.130 1.607 6557
2.343 3.018 1.554 1352
2.432 3.133 1.595 7997
2.519 3.244 1.648 1278
2.430 3.130 1.581 6301
2.517 3.242 1.633 2531
2.510 3.234 1.616 4206
2.424 3.122 1.564 3847
2.445 3.149 1.564 4140
2.531 3.261 1.615 3698
2.456 3.164 1.557 4635
2.566 3.305 1.622 4146
2.523 3.250 1.583 4419
2.436 3.138 1.533 2236
2.580 3.324 1.603 6426
2.466 3.176 1.537 2779
2.588 3.333 1.593 6969
2.468 3.179 1.525 2257
2.595 3.342 1.584 5200
2.508 3.230 1.535 1416
2.593 3.340 1.569 4014
2.591 3.337 1.554 2577
2.756 3.550 1.646 1391
2.763 3.560 1.635 2478
2.662 3.429 1.580 1815
2.761 3.557 1.620 2466
2.642 3.403 1.555 2109
2.760 3.554 1.604 3464
2.621 3.376 1.530 2292
2.762 3.558 1.591 4569
2.624 3.380 1.518 1846
2.765 3.561 1.578 4700
2.677 3.448 1.532 1411
2.790 3.594 1.577 4875
2.878 3.707 1.623 1880
2.793 3.598 1.564 6564
2.881 3.711 1.610 2179
2.800 3.607 1.554 5970
2.888 3.720 1.599 1720
2.807 3.616 1.543 3450
2.895 3.730 1.587 1951
2.861 3.685 1.555 3325
2.991 3.852 1.620 1533
2.863 3.688 1.542 3749
2.984 3.844 1.602 2280
2.991 3.853 1.590 2488
2.866 3.691 1.528 2010
3.003 3.868 1.580 2380
2.915 3.755 1.537 2071
3.066 3.950 1.595 3100
2.927 3.770 1.528 2398
3.088 3.977 1.590 3366
2.999 3.863 1.547 2056
3.095 3.986 1.577 2812
3.006 3.872 1.536 1677
3.102 3.996 1.565 3362
3.013 3.882 1.524 1470
3.137 4.041 1.565 3830
3.154 4.063 1.557 3849
3.065 3.948 1.516 1184
3.156 4.066 1.542 3600
3.245 4.180 1.582 1404
3.196 4.117 1.544 5414
3.285 4.232 1.583 1818
3.199 4.120 1.529 5350
3.288 4.235 1.568 2283
3.206 4.130 1.516 5475
3.319 4.275 1.564 3386
3.335 4.296 1.555 4678
3.213 4.139 1.502 4123
3.352 4.318 1.545 6922
3.239 4.172 1.497 2072
3.364 4.333 1.533 8572
3.467 4.466 1.577 1934
3.371 4.342 1.519 7279
3.475 4.476 1.562 2815
3.355 4.321 1.496 5174
3.449 4.442 1.534 3135
3.366 4.336 1.484 3784
3.456 4.452 1.520 3031
3.605 4.643 1.562 3720
3.458 4.455 1.504 2735
3.607 4.646 1.545 4131
3.484 4.488 1.497 2961
3.591 4.625 1.520 3975
3.482 4.485 1.478 2129
3.650 4.702 1.525 3992
3.560 4.586 1.491 2358
3.671 4.729 1.515 3581
3.582 4.613 1.481 1825
3.688 4.750 1.503 4809
3.797 4.891 1.544 2009
3.690 4.754 1.486 3301
3.780 4.870 1.519 1990
3.863 4.976 1.530 1944
3.712 4.781 1.475 1679
3.861 4.974 1.510 2121
3.743 4.821 1.468 1492
3.916 5.044 1.511 2632
4.015 5.172 1.546 1691
3.918 5.047 1.492 2144
4.023 5.182 1.528 2090
4.144 5.338 1.550 3115
4.025 5.185 1.509 2047
4.146 5.341 1.531 4587
4.018 5.176 1.487 1872
4.154 5.350 1.513 4668
4.030 5.191 1.471 1911
4.161 5.360 1.495 3797
4.289 5.525 1.537 1654
4.168 5.369 1.477 2561
4.320 5.565 1.526 2113
4.328 5.574 1.507 2593
4.485 5.777 1.557 2487
4.483 5.774 1.534 4606
4.330 5.578 1.486 2693
4.490 5.783 1.515 6441
4.270 5.501 1.447 2035
4.492 5.787 1.493 6589
4.387 5.651 1.461 2337
4.495 5.790 1.472 6546
4.394 5.660 1.442 2344
4.497 5.793 1.451 6035
4.621 5.953 1.487 1736
4.495 5.790 1.428 5167
4.609 5.937 1.461 2025
4.497 5.792 1.407 3573
4.913 6.328 1.525 1430
4.514 5.814 1.390 2702
4.915 6.332 1.502 1538
4.774 6.150 1.439 2210
4.506 5.804 1.366 2151
4.777 6.153 1.417 2927
4.638 5.974 1.379 1412
4.779 6.156 1.394 2308
4.870 6.273 1.418 1430
5.035 6.486 1.438 1570
4.872 6.276 1.395 1420
5.037 6.489 1.414 2473
5.201 6.699 1.455 1964
5.203 6.702 1.431 2489
5.040 6.492 1.390 1983
5.210 6.711 1.407 1991
5.383 6.934 1.450 1669
5.217 6.720 1.384 2050
5.380 6.930 1.423 1938
5.383 6.933 1.397 2178
5.219 6.723 1.359 2073
5.390 6.942 1.373 2187
5.813 7.487 1.471 1685
5.531 7.125 1.379 1935
5.387 6.939 1.347 1604
5.529 7.121 1.352 1450
5.764 7.425 1.404 1282
5.767 7.428 1.377 1321
1.393 1.783 1.722 4015
1.396 1.787 1.715 8030
1.471 1.884 1.803 1039
1.399 1.791 1.709 8030
1.474 1.887 1.796 1111
1.405 1.799 1.707 6944
1.481 1.896 1.794 1032
1.424 1.823 1.719 6333
1.419 1.817 1.703 6207
1.495 1.914 1.789 1064
1.422 1.820 1.696 6355
1.498 1.918 1.782 1460
1.425 1.824 1.690 6355
1.501 1.922 1.775 1460
1.427 1.828 1.683 5709
1.504 1.925 1.768 1525
1.434 1.836 1.681 5089
1.511 1.934 1.766 1426
1.481 1.897 1.723 3885
1.405 1.798 1.639 1160
1.488 1.906 1.721 4835
1.411 1.807 1.637 1504
1.499 1.920 1.723 6782
1.422 1.821 1.639 1608
1.506 1.928 1.720 9299
1.429 1.830 1.637 1186
1.517 1.942 1.722 8644
1.520 1.946 1.715 8122
1.519 1.944 1.703 7963
1.526 1.953 1.701 8107
1.537 1.967 1.702 8817
1.539 1.971 1.695 9590
1.546 1.980 1.692 10615
1.553 1.989 1.689 8153
1.632 2.089 1.769 1131
1.560 1.998 1.686 5944
1.639 2.098 1.766 1132
1.563 2.001 1.679 6328
1.642 2.102 1.758 1895
1.616 2.068 1.721 6987
1.537 1.967 1.642 2519
1.573 2.013 1.668 7719
1.652 2.115 1.747 2158
1.588 2.033 1.673 9654
1.586 2.031 1.662 7638
1.666 2.133 1.740 1255
1.589 2.035 1.655 5664
1.669 2.136 1.732 1196
1.638 2.097 1.692 6326
1.558 1.995 1.615 1022
1.632 2.090 1.676 8159
1.635 2.093 1.668 10044
1.634 2.092 1.657 11956
1.641 2.100 1.653 11924
1.721 2.203 1.729 1290
1.656 2.120 1.657 11073
1.663 2.129 1.654 10079
1.743 2.232 1.728 1074
1.657 2.122 1.638 9732
1.738 2.225 1.713 2343
1.660 2.125 1.630 9726
1.762 2.255 1.724 2360
1.709 2.188 1.665 7752
1.629 2.085 1.592 1716
1.708 2.186 1.654 9762
1.789 2.290 1.727 1879
1.715 2.195 1.649 9637
1.796 2.299 1.722 1297
1.722 2.204 1.645 9307
1.803 2.308 1.718 1035
1.720 2.202 1.633 7175
1.801 2.306 1.706 1707
1.719 2.200 1.622 4083
1.800 2.304 1.693 2964
1.760 2.253 1.647 3723
1.841 2.357 1.719 1073
1.806 2.312 1.677 6220
1.724 2.207 1.606 2140
1.808 2.315 1.668 9206
1.726 2.210 1.598 1266
1.815 2.324 1.663 11788
1.897 2.429 1.734 1133
1.818 2.328 1.655 13443
1.900 2.433 1.725 1247
1.825 2.337 1.650 12451
1.832 2.346 1.645 12614
1.914 2.451 1.714 1029
1.835 2.349 1.637 13357
1.917 2.455 1.705 2029
1.833 2.347 1.625 13886
1.916 2.453 1.693 3033
1.840 2.356 1.620 10894
1.923 2.462 1.687 2751
1.852 2.371 1.618 8758
1.934 2.476 1.686 2695
1.850 2.368 1.606 8287
1.941 2.486 1.680 3103
1.852 2.372 1.597 8239
1.957 2.506 1.682 4239
1.925 2.465 1.645 7671
1.842 2.358 1.578 5594
1.932 2.474 1.639 9692
1.849 2.367 1.573 4789
1.935 2.477 1.630 8203
1.851 2.370 1.565 3851
1.968 2.520 1.645 5033
1.858 2.379 1.559 1989
1.975 2.529 1.639 4662
2.090 2.676 1.728 1679
2.000 2.561 1.647 4427
2.093 2.679 1.718 2609
2.012 2.575 1.644 4875
2.095 2.683 1.708 3452
2.032 2.602 1.648 5469
2.116 2.709 1.712 2329
2.044 2.616 1.645 7027
2.128 2.724 1.708 2009
2.051 2.625 1.639 6518
2.135 2.733 1.702 1723
2.062 2.640 1.636 5763
2.147 2.748 1.698 1358
2.060 2.638 1.623 5177
2.145 2.746 1.685 2264
2.068 2.647 1.617 5556
2.152 2.755 1.678 2512
2.079 2.662 1.614 4692
2.164 2.770 1.675 2277
2.100 2.688 1.617 4265
2.184 2.797 1.677 2518
2.174 2.783 1.658 3703
2.089 2.674 1.597 1898
2.185 2.798 1.654 3698
2.100 2.689 1.594 1776
2.188 2.801 1.644 3532
2.103 2.693 1.584 1618
2.195 2.811 1.636 4513
2.110 2.702 1.577 1272
2.211 2.831 1.635 5195
2.223 2.846 1.631 4467
2.308 2.956 1.689 1127
2.221 2.844 1.618 4581
2.307 2.953 1.676 1701
2.224 2.847 1.607 4952
2.310 2.957 1.665 2457
2.227 2.851 1.597 5017
2.312 2.960 1.654 3984
2.297 2.941 1.631 6070
2.211 2.831 1.575 2860
2.318 2.967 1.632 6695
2.232 2.857 1.576 3355
2.329 2.982 1.627 8195
2.243 2.872 1.572 2110
2.337 2.991 1.619 8210
2.250 2.881 1.564 1428
2.344 3.001 1.611 5301
2.258 2.890 1.556 1281
2.333 2.987 1.592 4207
2.419 3.097 1.646 2246
2.335 2.990 1.581 4723
2.422 3.101 1.635 2020
2.379 3.046 1.595 4619
2.465 3.156 1.649 1334
2.395 3.067 1.593 6525
2.482 3.177 1.646 2085
2.434 3.117 1.604 6001
2.521 3.228 1.657 1140
2.441 3.126 1.595 7722
2.528 3.237 1.648 1524
2.440 3.123 1.581 6337
2.526 3.234 1.633 2477
2.451 3.138 1.575 4252
2.538 3.250 1.627 3397
2.454 3.142 1.564 4138
2.541 3.253 1.615 3594
2.466 3.157 1.557 4692
2.576 3.298 1.622 3540
2.532 3.242 1.583 4078
2.620 3.354 1.633 2265
2.595 3.322 1.605 5098
2.480 3.175 1.540 2721
2.597 3.325 1.593 5512
2.473 3.166 1.523 2131
2.600 3.329 1.581 5071
2.602 3.332 1.569 4471
2.600 3.329 1.554 2635
2.771 3.548 1.648 1394
2.779 3.557 1.638 2576
2.672 3.421 1.580 1497
2.772 3.549 1.620 2545
2.638 3.377 1.547 1707
2.770 3.546 1.604 3511
2.631 3.369 1.530 1999
2.777 3.556 1.594 4539
2.634 3.372 1.518 1564
2.780 3.559 1.581 3999
2.692 3.446 1.535 1517
2.806 3.592 1.580 4311
2.717 3.479 1.534 1472
2.808 3.595 1.567 5806
2.906 3.720 1.617 2168
2.815 3.605 1.556 5451
2.904 3.718 1.601 2115
2.823 3.614 1.545 3355
2.911 3.727 1.590 1793
2.876 3.683 1.557 3224
2.988 3.826 1.613 1580
2.874 3.680 1.542 3149
2.995 3.835 1.602 2253
2.998 3.838 1.587 2276
2.877 3.683 1.528 1594
3.066 3.925 1.605 2054
2.931 3.752 1.540 1600
3.073 3.935 1.593 3357
2.938 3.761 1.528 1886
3.104 3.974 1.592 3737
3.015 3.860 1.550 1980
3.107 3.977 1.577 3054
3.018 3.863 1.536 1420
3.114 3.987 1.565 3346
3.025 3.873 1.524 1205
3.121 3.996 1.552 3853
3.210 4.110 1.593 1233
3.119 3.993 1.536 3346
3.255 4.167 1.597 1056
3.150 4.032 1.533 3124
3.239 4.147 1.573 1983
3.209 4.108 1.544 5311
3.298 4.222 1.583 2014
3.211 4.111 1.529 5994
3.300 4.226 1.568 2121
3.218 4.120 1.516 7231
3.336 4.271 1.566 2667
3.225 4.129 1.502 5207
3.353 4.292 1.557 4548
3.365 4.308 1.545 7345
3.247 4.157 1.495 1884
3.372 4.317 1.531 8669
3.480 4.456 1.577 1586
3.374 4.320 1.515 7210
3.474 4.447 1.556 2158
3.367 4.311 1.496 4560
3.457 4.426 1.532 2748
3.455 4.423 1.514 3625
3.564 4.563 1.558 2956
3.467 4.439 1.502 3775
3.623 4.639 1.564 3644
3.626 4.642 1.547 4164
3.488 4.466 1.493 2789
3.647 4.669 1.537 3773
3.557 4.554 1.502 2112
3.659 4.685 1.523 4005
3.569 4.569 1.489 2034
3.681 4.712 1.513 3012
3.590 4.597 1.479 1988
3.697 4.734 1.501 4004
3.811 4.879 1.544 2431
3.700 4.737 1.484 2867
3.795 4.858 1.519 2139
3.773 4.831 1.492 2144
3.878 4.965 1.530 2038
3.909 5.005 1.522 2123
3.762 4.816 1.470 1718
3.931 5.032 1.511 2682
4.031 5.160 1.546 1716
3.943 5.048 1.495 2035
4.033 5.164 1.527 1741
4.160 5.326 1.550 3010
4.040 5.173 1.509 1804
4.162 5.329 1.531 4337
4.043 5.176 1.490 1943
4.169 5.338 1.513 4313
4.050 5.185 1.473 2016
4.172 5.341 1.493 3496
4.315 5.525 1.540 1701
4.179 5.350 1.475 2624
4.332 5.546 1.524 2613
4.502 5.764 1.557 3373
4.339 5.555 1.505 3063
4.500 5.761 1.534 6105
4.342 5.559 1.485 2904
4.507 5.770 1.515 8557
4.287 5.488 1.447 2210
4.509 5.773 1.493 8900
4.404 5.638 1.461 2934
4.512 5.776 1.472 8735
4.411 5.647 1.442 2884
4.514 5.779 1.451 7808
4.639 5.939 1.487 1907
4.512 5.776 1.428 6280
4.627 5.924 1.461 2049
4.514 5.779 1.407 4469
4.615 5.908 1.436 1734
4.526 5.794 1.388 3437
4.934 6.317 1.502 1934
4.523 5.791 1.366 2612
4.797 6.142 1.441 2242
4.795 6.139 1.417 2977
4.655 5.960 1.379 1446
4.797 6.142 1.394 2369
4.888 6.259 1.418 1493
4.895 6.268 1.396 1455
5.054 6.471 1.438 1313
5.057 6.474 1.414 1975
5.215 6.677 1.454 1823
5.218 6.680 1.429 2184
5.329 6.822 1.457 1756
5.225 6.689 1.406 1565
5.336 6.831 1.433 1364
5.232 6.698 1.383 1544
5.343 6.840 1.409 1233
5.234 6.701 1.358 1772
5.408 6.924 1.399 1367
5.415 6.933 1.374 1545
5.835 7.470 1.471 1496
5.547 7.102 1.378 1962
5.837 7.473 1.443 1349
5.550 7.105 1.352 1450
5.781 7.402 1.403 1240
5.784 7.405 1.376 1279
1.405 1.782 1.727 3218
1.408 1.786 1.720 6437
1.411 1.789 1.714 6437
1.418 1.798 1.712 5770
1.433 1.817 1.719 5785
1.431 1.815 1.708 5598
1.430 1.814 1.696 5692
1.507 1.911 1.782 1178
1.433 1.817 1.690 5692
1.510 1.915 1.775 1178
1.436 1.821 1.683 5064
1.513 1.919 1.768 1196
1.443 1.830 1.681 4532
1.490 1.890 1.723 4189
1.413 1.792 1.639 1091
1.497 1.899 1.721 5510
1.420 1.801 1.637 1516
1.504 1.908 1.718 7018
1.426 1.809 1.635 1396
1.515 1.922 1.720 9112
1.437 1.823 1.637 1087
1.518 1.925 1.713 8753
1.525 1.934 1.710 8501
1.524 1.932 1.699 8447
1.535 1.946 1.701 8664
1.542 1.955 1.698 9830
1.548 1.964 1.695 10353
1.555 1.973 1.692 11208
1.634 2.073 1.772 1129
1.558 1.976 1.685 8448
1.637 2.076 1.765 1421
1.565 1.985 1.682 5968
1.644 2.085 1.761 1449
1.572 1.994 1.679 7076
1.651 2.094 1.758 1931
1.575 1.997 1.671 8193
1.654 2.098 1.750 2656
1.582 2.006 1.668 8889
1.661 2.107 1.747 2356
1.593 2.020 1.669 10057
1.673 2.121 1.747 1568
1.596 2.024 1.662 7783
1.675 2.125 1.740 1480
1.598 2.027 1.655 5509
1.678 2.129 1.732 1392
1.635 2.074 1.680 5651
1.638 2.077 1.672 7449
1.645 2.086 1.668 9649
1.647 2.089 1.661 11950
1.654 2.098 1.657 11654
1.735 2.200 1.733 1114
1.666 2.113 1.657 11592
1.746 2.215 1.733 1091
1.673 2.121 1.654 11651
1.753 2.224 1.728 1332
1.675 2.125 1.646 10995
1.756 2.228 1.720 2289
1.674 2.123 1.634 10432
1.768 2.242 1.720 3249
1.702 2.159 1.650 7844
1.783 2.262 1.723 3720
1.718 2.179 1.654 9326
1.799 2.282 1.727 2941
1.725 2.188 1.649 9516
1.806 2.291 1.722 2048
1.740 2.207 1.653 9852
1.831 2.322 1.733 1233
1.760 2.233 1.660 8185
1.679 2.129 1.588 1220
1.767 2.242 1.656 7154
1.685 2.138 1.584 1097
1.766 2.240 1.644 7339
1.848 2.344 1.715 1673
1.781 2.259 1.647 7835
1.864 2.364 1.718 1628
1.810 2.296 1.661 10576
1.892 2.400 1.731 1303
1.822 2.310 1.660 12890
1.904 2.415 1.730 1376
1.824 2.314 1.651 14043
1.907 2.418 1.721 1349
1.827 2.317 1.643 12463
1.834 2.326 1.638 11002
1.917 2.431 1.707 1382
1.841 2.335 1.633 10768
1.924 2.440 1.702 2288
1.844 2.339 1.625 11795
1.927 2.444 1.693 2843
1.847 2.342 1.616 8823
1.930 2.447 1.684 2795
1.875 2.379 1.629 6825
1.959 2.484 1.696 1851
1.874 2.377 1.617 5649
1.962 2.488 1.687 2523
1.876 2.380 1.608 5279
1.973 2.503 1.685 3876
1.941 2.461 1.648 7117
1.857 2.355 1.582 3739
1.943 2.465 1.639 9072
1.860 2.359 1.573 2975
1.951 2.474 1.633 7967
1.862 2.362 1.565 2328
1.980 2.511 1.645 6169
2.095 2.657 1.734 1415
1.987 2.520 1.639 5766
2.098 2.660 1.724 1741
2.007 2.546 1.643 4580
2.105 2.670 1.718 2665
2.037 2.583 1.654 5312
2.121 2.690 1.718 2914
2.048 2.598 1.652 5226
2.133 2.705 1.715 1829
2.060 2.613 1.649 6081
2.144 2.720 1.712 1480
2.067 2.622 1.642 6284
2.152 2.729 1.705 1272
2.079 2.637 1.639 5559
2.077 2.634 1.626 4098
2.162 2.742 1.688 1791
2.138 2.711 1.659 4830
2.053 2.604 1.597 2177
2.132 2.704 1.643 5615
2.046 2.596 1.582 1082
2.125 2.696 1.626 5976
2.211 2.804 1.687 1358
2.182 2.767 1.654 3336
2.097 2.659 1.594 1452
2.189 2.777 1.647 4058
2.196 2.786 1.640 4731
2.208 2.801 1.636 5202
2.220 2.815 1.632 5332
2.236 2.836 1.631 4586
2.322 2.945 1.689 1396
2.234 2.834 1.618 4934
2.320 2.943 1.676 2171
2.237 2.837 1.607 4914
2.327 2.952 1.668 2851
2.303 2.921 1.639 4778
2.217 2.812 1.582 2798
2.315 2.936 1.634 6112
2.229 2.826 1.578 3555
2.331 2.957 1.632 6906
2.245 2.847 1.576 3442
2.338 2.966 1.624 8173
2.252 2.856 1.569 2086
2.350 2.981 1.619 7465
2.264 2.871 1.564 1126
2.353 2.984 1.609 4807
2.440 3.094 1.663 1728
2.346 2.976 1.592 4835
2.433 3.086 1.646 2769
2.349 2.979 1.581 5265
2.436 3.089 1.635 2112
2.407 3.052 1.604 4485
2.494 3.163 1.658 1104
2.414 3.061 1.596 6340
2.501 3.172 1.649 2223
2.435 3.088 1.595 5144
2.522 3.199 1.648 1826
2.456 3.115 1.595 6615
2.543 3.225 1.648 1876
2.454 3.112 1.581 5701
2.541 3.223 1.633 2517
2.470 3.133 1.578 4298
2.558 3.244 1.629 3270
2.473 3.136 1.566 3763
2.560 3.247 1.618 3309
2.498 3.169 1.568 4091
2.586 3.280 1.619 3030
2.506 3.178 1.559 3742
2.607 3.307 1.618 2687
2.624 3.328 1.613 3921
2.494 3.164 1.540 2500
2.617 3.319 1.596 4122
2.488 3.155 1.523 1715
2.620 3.323 1.584 4858
2.618 3.320 1.569 4535
2.616 3.317 1.554 2642
2.704 3.429 1.603 1348
2.795 3.545 1.638 2574
2.623 3.327 1.545 1789
2.788 3.536 1.620 2503
2.644 3.353 1.542 1692
2.786 3.534 1.604 3182
2.651 3.362 1.532 1900
2.793 3.543 1.594 4005
2.654 3.366 1.520 1413
2.847 3.611 1.608 3976
2.721 3.452 1.542 1389
2.841 3.603 1.590 4236
2.934 3.721 1.638 1364
2.825 3.582 1.567 5013
2.932 3.719 1.622 2405
2.832 3.592 1.556 4855
2.921 3.704 1.601 2571
2.839 3.601 1.545 3043
2.928 3.714 1.590 1818
2.893 3.669 1.557 2761
2.982 3.782 1.602 2024
3.008 3.815 1.599 2277
2.891 3.667 1.542 2150
3.109 3.944 1.633 2337
3.011 3.819 1.585 2220
3.103 3.935 1.614 2497
3.013 3.822 1.571 1525
3.096 3.927 1.595 3452
3.007 3.813 1.553 1299
3.127 3.966 1.594 3841
3.028 3.840 1.547 1374
3.134 3.975 1.582 3236
3.021 3.832 1.529 1259
3.137 3.978 1.567 3258
3.226 4.092 1.608 1233
3.139 3.982 1.552 3706
3.229 4.095 1.593 1571
3.137 3.979 1.536 3200
3.227 4.093 1.576 1453
3.225 4.090 1.559 3675
3.135 3.976 1.519 2380
3.227 4.093 1.544 5487
3.317 4.207 1.583 2147
3.230 4.096 1.529 6340
3.320 4.210 1.568 1934
3.242 4.112 1.518 8083
3.365 4.268 1.571 2357
3.244 4.115 1.502 5798
3.372 4.277 1.557 4572
3.379 4.286 1.543 7367
3.247 4.118 1.487 1930
3.387 4.295 1.529 8681
3.486 4.422 1.571 1640
3.389 4.299 1.513 7473
3.480 4.413 1.550 2727
3.392 4.302 1.498 4464
3.482 4.416 1.534 3151
3.475 4.407 1.514 5266
3.589 4.552 1.560 3164
3.487 4.423 1.502 6333
3.597 4.562 1.545 4004
3.494 4.432 1.487 3920
3.647 4.625 1.547 3535
3.668 4.653 1.537 3309
3.578 4.538 1.502 2663
3.676 4.662 1.522 3725
3.585 4.547 1.487 2410
3.678 4.665 1.504 2679
3.587 4.550 1.470 1813
3.719 4.717 1.501 2707
3.833 4.862 1.544 2583
3.836 4.865 1.526 2402
3.721 4.720 1.484 2307
3.795 4.814 1.492 2412
3.901 4.947 1.530 2135
3.941 4.999 1.526 2272
3.783 4.799 1.470 1765
3.954 5.014 1.511 2911
4.054 5.142 1.546 1447
3.970 5.036 1.497 2248
4.176 5.297 1.568 1413
4.184 5.306 1.550 2616
4.059 5.148 1.508 1456
4.186 5.310 1.531 3619
4.071 5.164 1.492 1872
4.194 5.319 1.513 3342
4.069 5.161 1.471 1909
4.196 5.322 1.493 2910
4.340 5.505 1.540 2361
4.348 5.514 1.521 3843
4.526 5.740 1.578 2578
4.350 5.517 1.501 4356
4.528 5.743 1.557 4038
4.526 5.740 1.534 7588
4.338 5.502 1.476 3858
4.533 5.750 1.515 10849
4.341 5.505 1.456 2401
4.531 5.747 1.492 11397
4.430 5.618 1.461 3757
4.538 5.756 1.472 10900
4.437 5.627 1.442 3452
4.540 5.759 1.451 9328
4.666 5.918 1.487 1898
4.538 5.756 1.428 7373
4.644 5.890 1.459 2121
4.540 5.759 1.407 5550
4.637 5.881 1.434 2370
4.547 5.768 1.387 3837
4.963 6.295 1.502 2204
4.550 5.770 1.366 2612
4.970 6.304 1.480 2101
4.823 6.117 1.417 2873
4.963 6.295 1.454 1630
4.825 6.120 1.394 2539
4.917 6.236 1.418 1554
4.924 6.245 1.396 1542
4.832 6.129 1.373 1433
5.246 6.653 1.454 1573
5.352 6.789 1.481 1469
5.248 6.656 1.429 1867
5.360 6.798 1.457 1501
5.246 6.653 1.404 1514
5.367 6.807 1.433 1313
5.253 6.662 1.380 1375
5.384 6.828 1.411 1224
5.260 6.671 1.357 1484
5.391 6.837 1.387 1247
5.869 7.443 1.471 1681
5.568 7.062 1.402 1379
5.575 7.071 1.377 1854
5.871 7.446 1.443 1678
5.873 7.449 1.416 1433
5.582 7.080 1.352 1314
5.813 7.372 1.374 1323
1.406 1.773 1.722 3231
1.409 1.777 1.715 6463
1.485 1.872 1.803 1141
1.412 1.780 1.709 6463
1.488 1.876 1.796 1185
1.423 1.794 1.712 5575
1.438 1.813 1.719 5182
1.437 1.811 1.708 4700
1.440 1.815 1.701 4285
1.442 1.818 1.694 4285
1.441 1.817 1.683 4410
1.518 1.914 1.768 1142
1.444 1.820 1.677 4560
1.521 1.918 1.761 1387
1.500 1.891 1.728 4311
1.422 1.793 1.644 1933
1.503 1.894 1.721 5623
1.425 1.796 1.637 1899
1.510 1.903 1.718 6799
1.432 1.805 1.635 1679
1.517 1.912 1.716 8399
1.439 1.814 1.633 1125
1.524 1.921 1.713 8529
1.530 1.929 1.710 8801
1.529 1.928 1.699 8745
1.536 1.937 1.696 9154
1.547 1.951 1.698 10562
1.554 1.959 1.695 10739
1.561 1.968 1.692 11384
1.640 2.068 1.772 1286
1.564 1.972 1.685 8511
1.643 2.072 1.765 1520
1.571 1.981 1.682 5937
1.650 2.080 1.761 1495
1.578 1.989 1.679 7493
1.657 2.089 1.758 1996
1.585 1.998 1.676 9126
1.665 2.098 1.754 2254
1.588 2.002 1.668 9429
1.667 2.102 1.747 2693
1.595 2.010 1.665 9961
1.675 2.111 1.743 2624
1.602 2.019 1.662 7418
1.682 2.120 1.740 1869
1.604 2.023 1.655 4972
1.685 2.124 1.732 1674
1.641 2.069 1.680 4927
1.644 2.072 1.672 6396
1.651 2.081 1.668 8732
1.658 2.090 1.665 11392
1.665 2.099 1.661 11450
1.676 2.113 1.661 12027
1.757 2.215 1.737 1035
1.683 2.122 1.658 12824
1.764 2.224 1.732 1305
1.686 2.125 1.650 12345
1.767 2.228 1.724 2960
1.680 2.118 1.634 11178
1.774 2.237 1.720 4166
1.704 2.148 1.646 8515
1.786 2.251 1.720 5110
1.759 2.217 1.684 10561
1.677 2.114 1.611 3362
1.757 2.215 1.672 10988
1.675 2.112 1.600 2830
1.760 2.218 1.664 11481
1.678 2.115 1.592 1964
1.767 2.227 1.660 10308
1.685 2.124 1.588 1391
1.774 2.236 1.656 9973
1.856 2.340 1.727 1498
1.772 2.234 1.644 10416
1.855 2.338 1.715 2533
1.784 2.249 1.643 10655
1.866 2.353 1.714 2061
1.813 2.285 1.657 12636
1.895 2.389 1.728 1621
1.824 2.299 1.656 14447
1.907 2.404 1.726 1642
1.831 2.308 1.651 14976
1.914 2.413 1.721 1383
1.829 2.306 1.639 13213
1.747 2.202 1.570 1074
1.837 2.315 1.634 10582
1.920 2.420 1.703 1630
1.844 2.324 1.630 9344
1.927 2.429 1.698 2611
1.846 2.328 1.621 10518
1.930 2.433 1.689 3034
1.849 2.331 1.613 8065
1.932 2.436 1.680 2820
1.896 2.390 1.639 6870
1.979 2.495 1.707 1633
1.898 2.393 1.631 5388
1.982 2.499 1.698 2353
1.897 2.391 1.618 4183
1.980 2.497 1.685 3322
1.948 2.456 1.648 6475
1.864 2.350 1.582 2358
1.951 2.459 1.639 8200
2.039 2.571 1.708 2275
1.958 2.468 1.633 7490
2.042 2.574 1.699 2181
1.987 2.505 1.645 6385
2.102 2.651 1.734 1358
1.994 2.514 1.639 5962
2.105 2.654 1.724 1716
2.046 2.579 1.667 5950
1.961 2.473 1.603 3167
2.053 2.588 1.661 6483
1.960 2.470 1.591 2142
2.060 2.597 1.655 5393
2.145 2.704 1.718 1513
2.068 2.607 1.649 5586
2.152 2.714 1.712 1419
2.079 2.621 1.646 6191
2.164 2.728 1.708 1018
2.091 2.636 1.643 5577
2.134 2.690 1.662 4156
2.049 2.583 1.600 1350
2.141 2.699 1.656 5311
2.056 2.592 1.594 1357
2.135 2.692 1.639 6745
2.133 2.689 1.626 7173
2.219 2.797 1.687 1229
2.140 2.698 1.620 3750
2.226 2.806 1.680 1758
2.193 2.764 1.644 4302
2.200 2.774 1.637 5733
2.212 2.788 1.633 5685
2.224 2.803 1.629 5199
2.240 2.824 1.628 4714
2.326 2.932 1.686 1446
2.243 2.827 1.618 5393
2.329 2.936 1.676 2406
2.245 2.830 1.607 4825
2.336 2.945 1.668 3015
2.312 2.914 1.639 4255
2.225 2.805 1.582 2550
2.328 2.935 1.637 5437
2.241 2.826 1.581 3518
2.340 2.950 1.632 6331
2.253 2.840 1.576 3073
2.347 2.959 1.624 7683
2.256 2.844 1.566 1964
2.359 2.974 1.619 6849
2.362 2.977 1.609 4594
2.449 3.087 1.663 1889
2.355 2.969 1.592 5319
2.442 3.079 1.646 3140
2.358 2.972 1.581 5545
2.445 3.082 1.635 2322
2.420 3.051 1.607 4461
2.507 3.161 1.660 1168
2.423 3.054 1.596 6250
2.510 3.164 1.649 2404
2.439 3.075 1.593 5116
2.527 3.185 1.646 2198
2.460 3.102 1.592 5637
2.548 3.212 1.645 2300
2.472 3.117 1.586 4798
2.560 3.227 1.639 2548
2.479 3.126 1.578 3770
2.567 3.236 1.629 3201
2.561 3.228 1.612 3274
2.473 3.117 1.561 2757
2.526 3.185 1.579 3707
2.614 3.296 1.630 2353
2.557 3.223 1.583 3345
2.645 3.334 1.633 2291
2.638 3.326 1.616 3489
2.504 3.156 1.540 1963
2.631 3.317 1.598 3777
2.497 3.148 1.523 1318
2.634 3.321 1.586 4960
2.632 3.318 1.571 4453
2.630 3.316 1.557 2519
2.802 3.533 1.651 1363
2.805 3.536 1.638 2426
2.637 3.325 1.547 1865
2.803 3.534 1.622 2249
2.654 3.346 1.542 1720
2.796 3.525 1.604 2777
2.666 3.361 1.535 1871
2.804 3.535 1.594 3458
2.673 3.370 1.525 1368
2.858 3.603 1.608 4663
2.947 3.715 1.654 1183
2.856 3.600 1.592 4892
2.945 3.713 1.638 1711
2.844 3.586 1.572 4764
2.952 3.722 1.627 2544
2.847 3.589 1.558 4347
2.936 3.702 1.603 2715
2.845 3.586 1.543 2597
2.934 3.699 1.587 1889
2.989 3.768 1.599 2415
2.899 3.655 1.555 2243
2.991 3.771 1.585 2549
3.090 3.895 1.634 1853
3.116 3.929 1.631 3060
3.017 3.804 1.583 2254
3.114 3.926 1.614 3184
3.006 3.789 1.562 1583
3.112 3.923 1.597 3475
3.013 3.799 1.550 1437
3.143 3.963 1.596 3652
3.025 3.814 1.541 1482
3.146 3.966 1.582 3341
3.028 3.817 1.527 1436
3.148 3.969 1.567 3447
3.238 4.082 1.608 1148
3.146 3.966 1.550 3593
3.236 4.080 1.591 1853
3.149 3.970 1.536 2903
3.239 4.083 1.576 2057
3.232 4.074 1.557 4246
3.142 3.961 1.517 2118
3.244 4.090 1.546 5435
3.334 4.203 1.585 1994
3.247 4.093 1.531 6341
3.337 4.207 1.570 1672
3.254 4.102 1.518 8001
3.377 4.258 1.571 2325
3.261 4.111 1.504 5693
3.385 4.267 1.557 3968
3.392 4.276 1.543 6490
3.278 4.132 1.495 1995
3.395 4.279 1.527 8278
3.485 4.394 1.565 2369
3.402 4.289 1.513 7194
3.493 4.403 1.550 3655
3.481 4.388 1.528 4396
3.390 4.274 1.492 3286
3.493 4.403 1.516 6496
3.603 4.542 1.560 3076
3.495 4.406 1.500 8389
3.610 4.551 1.545 3973
3.503 4.416 1.485 4891
3.617 4.560 1.530 3169
3.601 4.539 1.506 3058
3.692 4.654 1.541 2720
3.685 4.645 1.520 3315
3.594 4.530 1.485 2678
3.692 4.654 1.504 2514
3.596 4.533 1.469 1940
3.848 4.851 1.544 2518
3.718 4.688 1.496 1672
3.850 4.854 1.526 2390
3.726 4.697 1.481 1641
3.910 4.930 1.529 2390
3.805 4.797 1.491 2257
3.951 4.981 1.524 2131
3.793 4.781 1.468 1606
3.968 5.003 1.511 2613
4.069 5.130 1.546 1253
3.990 5.030 1.499 2258
3.899 4.915 1.467 1250
4.199 5.294 1.550 1979
3.997 5.039 1.482 1414
4.202 5.297 1.531 2683
4.096 5.164 1.495 1781
4.209 5.307 1.513 2234
4.301 5.422 1.543 2172
4.357 5.492 1.540 3196
4.212 5.310 1.493 2078
4.364 5.501 1.521 5172
4.542 5.726 1.578 2475
4.366 5.505 1.501 5807
4.545 5.730 1.557 3943
4.543 5.727 1.534 7813
4.359 5.495 1.477 4943
4.550 5.736 1.515 11285
4.376 5.517 1.462 3480
4.548 5.733 1.492 11978
4.446 5.605 1.461 4182
4.550 5.736 1.471 11744
4.449 5.608 1.441 3638
4.557 5.745 1.451 9721
4.669 5.886 1.483 2007
4.560 5.748 1.430 7567
4.657 5.870 1.457 2735
4.557 5.745 1.407 5848
4.654 5.867 1.434 2902
4.564 5.754 1.387 3775
4.981 6.280 1.502 2256
4.567 5.757 1.366 2270
4.989 6.289 1.480 2197
4.841 6.102 1.417 2459
4.977 6.274 1.453 1775
4.843 6.105 1.394 2299
4.969 6.265 1.427 1523
4.840 6.102 1.370 1224
4.947 6.237 1.398 1215
5.183 6.534 1.433 1500
5.275 6.650 1.457 1237
5.268 6.641 1.429 1778
5.175 6.524 1.407 1454
5.265 6.638 1.404 1669
5.504 6.938 1.461 1261
5.272 6.647 1.380 1397
5.754 7.254 1.494 1313
5.275 6.650 1.356 1274
5.416 6.828 1.388 1273
5.569 7.021 1.397 1389
5.891 7.426 1.471 1373
5.591 7.048 1.376 1663
5.854 7.380 1.434 1282
5.856 7.383 1.407 1306
5.593 7.051 1.350 1129
5.834 7.355 1.374 1327
5.832 7.352 1.346 1021
1.416 1.774 1.727 2352
1.419 1.777 1.720 4705
1.421 1.781 1.714 4705
1.428 1.790 1.712 3961
1.472 1.844 1.750 4652
1.395 1.747 1.664 2076
1.483 1.858 1.753 3786
1.406 1.761 1.667 1895
1.437 1.800 1.692 3406
1.514 1.897 1.778 1374
1.440 1.804 1.685 3406
1.517 1.901 1.771 1374
1.447 1.812 1.683 3728
1.524 1.909 1.768 1581
1.449 1.816 1.677 4050
1.527 1.913 1.761 2199
1.510 1.891 1.732 4463
1.432 1.794 1.648 1799
1.512 1.895 1.725 5316
1.435 1.797 1.641 1499
1.519 1.904 1.723 6100
1.441 1.806 1.639 1294
1.522 1.907 1.716 7085
1.529 1.916 1.713 8078
1.536 1.925 1.710 9294
1.535 1.923 1.699 9198
1.542 1.932 1.696 10009
1.549 1.941 1.693 11556
1.556 1.949 1.691 11226
1.635 2.049 1.771 1080
1.567 1.963 1.692 11450
1.647 2.063 1.772 1439
1.574 1.972 1.689 8510
1.654 2.072 1.769 1437
1.577 1.976 1.682 5906
1.657 2.075 1.761 1564
1.584 1.984 1.679 7932
1.664 2.084 1.758 2133
1.591 1.993 1.676 10163
1.671 2.093 1.754 2465
1.594 1.997 1.668 9783
1.674 2.097 1.747 3262
1.601 2.006 1.665 9512
1.681 2.106 1.743 3503
1.608 2.014 1.662 6668
1.688 2.115 1.740 2562
1.670 2.092 1.712 4613
1.589 1.991 1.634 2501
1.643 2.058 1.676 4305
1.646 2.062 1.668 5144
1.666 2.087 1.676 7381
1.673 2.096 1.673 10907
1.680 2.104 1.669 11670
1.683 2.108 1.661 12752
1.764 2.210 1.737 1339
1.690 2.117 1.658 14057
1.771 2.219 1.732 1716
1.697 2.126 1.654 14290
1.778 2.228 1.728 3716
1.695 2.124 1.642 12711
1.777 2.226 1.716 5587
1.706 2.138 1.642 9911
1.788 2.240 1.716 7093
1.765 2.212 1.684 13476
1.683 2.109 1.611 3336
1.768 2.215 1.676 13719
1.686 2.112 1.603 3307
1.771 2.219 1.668 13961
1.689 2.116 1.596 2459
1.778 2.227 1.664 13159
1.696 2.124 1.592 1883
1.781 2.231 1.656 13451
1.863 2.334 1.727 1960
1.783 2.234 1.647 14085
1.866 2.338 1.719 2665
1.791 2.243 1.643 14186
1.873 2.347 1.714 2365
1.802 2.258 1.642 15913
1.885 2.361 1.713 2694
1.831 2.294 1.656 16847
1.914 2.398 1.726 1798
1.834 2.297 1.648 16766
1.917 2.402 1.717 1721
1.832 2.295 1.636 14837
1.915 2.400 1.705 1532
1.839 2.304 1.631 10994
1.923 2.409 1.700 2234
1.846 2.313 1.626 8550
1.930 2.418 1.695 3172
1.845 2.311 1.614 9661
1.928 2.416 1.682 3759
1.852 2.320 1.609 8019
1.935 2.425 1.677 3078
1.907 2.390 1.643 6767
1.991 2.495 1.710 1578
1.910 2.393 1.634 5268
1.994 2.498 1.701 2193
1.913 2.396 1.625 3458
1.997 2.502 1.692 2439
1.955 2.450 1.648 5484
2.040 2.555 1.714 3010
1.958 2.453 1.639 6951
2.047 2.564 1.708 3100
1.965 2.462 1.633 6818
2.050 2.568 1.699 3360
2.030 2.544 1.672 6322
1.946 2.438 1.607 2672
2.047 2.564 1.673 6789
1.962 2.458 1.609 3599
2.054 2.573 1.667 7732
1.969 2.467 1.603 3559
2.066 2.588 1.664 7856
1.981 2.481 1.601 2306
2.073 2.597 1.658 5991
2.158 2.703 1.722 1341
2.080 2.606 1.652 5652
2.165 2.713 1.715 1307
2.087 2.615 1.646 6498
2.173 2.722 1.708 1047
2.099 2.630 1.643 6108
2.014 2.523 1.580 1109
2.133 2.673 1.656 4450
2.048 2.565 1.594 1203
2.140 2.682 1.649 5532
2.143 2.685 1.639 7649
2.146 2.688 1.629 8056
2.232 2.796 1.690 1089
2.149 2.692 1.620 4185
2.235 2.800 1.680 1427
2.197 2.752 1.641 4698
2.204 2.761 1.634 6654
2.211 2.770 1.627 6141
2.232 2.796 1.629 4882
2.248 2.817 1.628 5050
2.335 2.925 1.686 1484
2.251 2.820 1.618 6194
2.338 2.929 1.676 2724
2.258 2.829 1.610 5034
2.345 2.938 1.668 3110
2.325 2.913 1.642 3481
2.238 2.804 1.585 2533
2.351 2.945 1.646 4303
2.250 2.819 1.581 2619
2.358 2.954 1.638 5243
2.257 2.828 1.573 2510
2.361 2.958 1.627 6684
2.260 2.831 1.563 1908
2.363 2.961 1.617 6286
2.451 3.070 1.672 1236
2.366 2.964 1.606 4583
2.453 3.074 1.661 2251
2.364 2.962 1.592 5421
2.452 3.071 1.646 3361
2.371 2.971 1.584 5295
2.459 3.081 1.638 2425
2.434 3.049 1.610 4666
2.346 2.940 1.556 1232
2.441 3.058 1.601 6648
2.529 3.168 1.654 1799
2.449 3.068 1.593 5683
2.536 3.178 1.646 2228
2.497 3.129 1.609 4738
2.410 3.019 1.556 1125
2.500 3.132 1.597 3928
2.588 3.242 1.650 1496
2.572 3.223 1.627 3244
2.484 3.112 1.575 2467
2.575 3.226 1.615 3182
2.487 3.116 1.564 1986
2.638 3.305 1.638 3095
2.531 3.171 1.576 3071
2.571 3.221 1.586 2861
2.659 3.332 1.636 2229
2.648 3.318 1.616 2840
2.560 3.207 1.566 1482
2.646 3.315 1.601 3775
2.649 3.319 1.589 5243
2.652 3.322 1.577 4529
2.645 3.313 1.559 2593
2.813 3.524 1.651 1486
2.816 3.528 1.638 2249
2.647 3.317 1.547 1854
2.819 3.531 1.625 1979
2.725 3.414 1.575 1747
2.807 3.517 1.604 2175
2.709 3.394 1.552 1814
2.871 3.597 1.623 3680
2.707 3.391 1.537 1336
2.869 3.594 1.608 5184
2.958 3.706 1.654 1636
2.872 3.598 1.594 5862
2.961 3.710 1.640 2021
2.869 3.595 1.579 5219
2.978 3.731 1.634 2667
2.858 3.581 1.558 3767
2.947 3.693 1.603 2800
2.927 3.666 1.578 2361
3.021 3.785 1.625 2073
3.005 3.764 1.602 2766
3.094 3.877 1.646 1962
2.998 3.756 1.583 2969
3.097 3.880 1.631 2410
3.128 3.919 1.631 3589
3.010 3.771 1.574 2339
3.131 3.922 1.616 3956
3.017 3.780 1.562 1840
3.124 3.914 1.597 3658
3.025 3.789 1.550 1417
3.160 3.959 1.598 3719
3.037 3.804 1.541 1427
3.158 3.956 1.582 3546
3.039 3.808 1.527 1510
3.156 3.954 1.565 4137
3.046 3.817 1.515 1274
3.158 3.957 1.550 3834
3.249 4.070 1.591 1765
3.223 4.037 1.563 3938
3.132 3.924 1.523 1328
3.240 4.059 1.555 4486
3.330 4.172 1.594 2030
3.256 4.080 1.546 5073
3.347 4.193 1.585 1902
3.259 4.083 1.531 5730
3.350 4.196 1.570 1413
3.266 4.092 1.518 6630
3.395 4.254 1.573 1920
3.274 4.101 1.504 4975
3.398 4.257 1.557 2850
3.396 4.254 1.539 5437
3.305 4.140 1.501 2691
3.403 4.263 1.525 8101
3.494 4.377 1.563 3255
3.410 4.272 1.512 7231
3.501 4.386 1.549 5132
3.494 4.377 1.528 5063
3.403 4.263 1.492 3372
3.506 4.393 1.516 7671
3.612 4.525 1.558 2288
3.509 4.396 1.500 10483
3.624 4.540 1.545 3019
3.516 4.405 1.485 5735
3.612 4.525 1.523 2803
3.610 4.522 1.504 3015
3.701 4.637 1.539 1896
3.612 4.525 1.487 2706
3.703 4.640 1.522 2412
3.687 4.619 1.497 2198
3.918 4.908 1.583 2044
3.920 4.911 1.565 3126
3.795 4.755 1.519 1282
3.908 4.897 1.542 3285
3.807 4.770 1.505 2023
3.916 4.906 1.525 3015
3.819 4.785 1.491 2122
3.928 4.921 1.510 2293
3.807 4.770 1.468 1399
3.926 4.918 1.490 2309
4.017 5.033 1.522 2033
3.957 4.957 1.482 2447
4.092 5.127 1.528 1779
4.100 5.136 1.511 1845
3.959 4.960 1.464 1605
4.117 5.157 1.497 1973
4.218 5.285 1.531 1947
4.308 5.397 1.540 2874
4.119 5.160 1.478 1664
4.373 5.479 1.540 4632
4.485 5.618 1.576 2198
4.381 5.488 1.521 7454
4.487 5.622 1.555 3316
4.383 5.491 1.501 8436
4.490 5.625 1.534 4242
4.381 5.488 1.479 7158
4.560 5.713 1.534 7149
4.567 5.722 1.515 10485
4.388 5.497 1.460 5501
4.565 5.719 1.492 11243
4.468 5.598 1.463 4632
4.568 5.722 1.471 11249
4.466 5.595 1.441 3721
4.575 5.731 1.451 9068
4.672 5.853 1.479 2888
4.577 5.734 1.430 7017
4.670 5.850 1.456 3497
4.575 5.731 1.407 5548
4.672 5.853 1.434 3466
4.582 5.740 1.387 3470
4.674 5.856 1.412 2692
4.686 5.871 1.393 2105
5.008 6.274 1.480 1975
4.859 6.088 1.417 1919
4.991 6.253 1.452 1790
4.857 6.084 1.393 1860
4.988 6.249 1.427 1509
5.186 6.497 1.454 1473
4.854 6.081 1.369 1101
5.193 6.506 1.431 1866
5.286 6.622 1.454 1025
5.195 6.509 1.407 1951
5.288 6.625 1.429 1584
5.290 6.628 1.405 1704
5.188 6.499 1.380 1591
5.776 7.237 1.494 1740
5.293 6.631 1.380 1314
5.774 7.234 1.466 1477
5.437 6.811 1.388 1315
5.590 7.004 1.397 1407
5.776 7.237 1.440 1052
5.602 7.019 1.374 1514
5.876 7.362 1.434 1203
5.879 7.365 1.407 1250
5.786 7.249 1.387 1091
5.793 7.258 1.361 1258
5.886 7.374 1.381 1062
5.790 7.254 1.333 1027
1.465 1.825 1.777 1670
1.369 1.704 1.667 1355
1.468 1.828 1.771 3341
1.371 1.708 1.660 2710
1.471 1.832 1.764 3341
1.374 1.711 1.654 2710
1.474 1.836 1.757 4327
1.389 1.730 1.661 2230
1.477 1.839 1.750 5312
1.400 1.743 1.664 2026
1.484 1.848 1.748 4504
1.407 1.752 1.662 1635
1.491 1.857 1.746 3874
1.414 1.760 1.660 1377
1.494 1.861 1.739 3874
1.416 1.764 1.654 1142
1.505 1.874 1.741 3765
1.427 1.778 1.657 1465
1.516 1.888 1.743 4173
1.438 1.791 1.659 2314
1.519 1.892 1.736 4496
1.441 1.795 1.652 2292
1.522 1.896 1.730 4820
1.444 1.798 1.646 2270
1.525 1.899 1.723 5254
1.447 1.802 1.639 1645
1.532 1.908 1.720 5719
1.454 1.810 1.637 1109
1.539 1.917 1.717 7395
1.542 1.920 1.710 9232
1.545 1.924 1.703 9136
1.548 1.927 1.696 10250
1.555 1.936 1.693 11932
1.562 1.945 1.691 11241
1.641 2.044 1.771 1164
1.569 1.954 1.688 11095
1.648 2.053 1.768 1588
1.580 1.968 1.689 8462
1.660 2.067 1.769 1421
1.587 1.976 1.686 6189
1.667 2.076 1.766 1282
1.590 1.980 1.679 8229
1.670 2.079 1.758 2203
1.597 1.989 1.676 10619
1.677 2.088 1.754 2623
1.604 1.997 1.672 9618
1.684 2.097 1.751 3170
1.607 2.001 1.665 8637
1.687 2.101 1.743 4209
1.609 2.004 1.658 5823
1.690 2.105 1.736 3842
1.676 2.087 1.712 4940
1.595 1.987 1.634 2288
1.679 2.091 1.704 4272
1.598 1.990 1.627 1544
1.639 2.041 1.656 4512
1.720 2.142 1.733 1398
1.685 2.098 1.689 7044
1.683 2.096 1.677 10575
1.686 2.099 1.669 11687
1.767 2.201 1.745 1051
1.689 2.103 1.661 12888
1.770 2.205 1.737 1617
1.700 2.117 1.662 14465
1.782 2.219 1.736 1737
1.703 2.121 1.654 15481
1.785 2.223 1.728 4295
1.706 2.124 1.646 14178
1.788 2.226 1.720 6156
1.769 2.203 1.692 11204
1.687 2.101 1.619 6127
1.772 2.206 1.684 15474
1.689 2.104 1.611 3335
1.775 2.210 1.676 15609
1.692 2.107 1.603 3282
1.777 2.213 1.668 15745
1.695 2.111 1.596 2563
1.785 2.222 1.664 15232
1.702 2.119 1.592 2167
1.787 2.226 1.656 15797
1.870 2.329 1.727 2234
1.790 2.229 1.647 16488
1.873 2.332 1.719 3080
1.797 2.238 1.643 16507
1.880 2.341 1.714 2552
1.809 2.252 1.642 18041
1.892 2.356 1.713 2676
1.838 2.288 1.656 18029
1.921 2.392 1.726 1853
1.840 2.292 1.648 17601
1.924 2.396 1.717 1907
1.839 2.290 1.636 15560
1.922 2.394 1.705 1944
1.837 2.288 1.624 11141
1.921 2.392 1.692 3409
1.849 2.302 1.622 7983
1.933 2.407 1.691 3898
1.851 2.306 1.614 8822
1.935 2.410 1.682 3796
1.854 2.309 1.605 7623
1.938 2.414 1.673 4099
1.914 2.384 1.643 6124
1.999 2.489 1.710 1525
1.917 2.387 1.634 4540
2.001 2.492 1.701 1993
2.031 2.529 1.713 2837
1.920 2.391 1.625 2721
1.963 2.444 1.648 4431
2.047 2.549 1.714 3419
1.965 2.447 1.639 5679
2.055 2.558 1.708 3412
1.973 2.456 1.633 5982
2.057 2.562 1.699 3902
2.042 2.543 1.676 6963
1.957 2.438 1.611 3207
