4.163 5.292 1.586 2517
3.991 5.073 1.526 2165
4.166 5.296 1.567 2994
3.989 5.070 1.505 2732
4.173 5.305 1.549 2784
3.991 5.074 1.487 2424
4.185 5.320 1.532 3177
4.066 5.168 1.492 2800
4.188 5.323 1.513 3797
4.068 5.171 1.473 2391
4.190 5.327 1.493 3861
4.286 5.449 1.524 2228
4.202 5.342 1.477 3125
4.294 5.458 1.506 1937
4.359 5.540 1.505 2067
4.210 5.351 1.458 1789
4.361 5.543 1.485 1705
4.568 5.806 1.549 1265
4.301 5.467 1.445 2189
4.551 5.785 1.522 1796
4.525 5.751 1.492 2925
4.630 5.886 1.524 1505
4.527 5.754 1.471 2845
4.662 5.926 1.511 1910
4.650 5.911 1.485 2474
4.529 5.758 1.449 2170
4.792 6.091 1.503 2240
4.647 5.908 1.461 2136
4.799 6.101 1.482 2641
5.040 6.407 1.550 1834
5.038 6.404 1.525 2125
4.807 6.110 1.461 1970
4.891 6.217 1.460 2041
4.746 6.033 1.421 1684
4.893 6.220 1.437 1465
4.797 6.097 1.412 1459
5.229 6.647 1.502 1243
5.340 6.788 1.531 1101
5.057 6.429 1.433 1475
5.231 6.650 1.477 1333
5.074 6.450 1.413 1784
5.326 6.770 1.476 1396
5.328 6.773 1.451 1830
5.091 6.471 1.392 1560
5.345 6.794 1.430 1411
5.573 7.083 1.485 1243
5.856 7.444 1.526 1424
5.372 6.828 1.410 1329
5.766 7.330 1.477 1134
5.364 6.819 1.383 1021
5.769 7.333 1.450 1082
5.863 7.453 1.443 1149
5.865 7.456 1.416 1246
0.560 0.711 0.035 1077
1.401 1.769 1.717 6105
1.403 1.773 1.711 12211
1.479 1.869 1.798 1684
1.406 1.776 1.704 12211
1.482 1.873 1.791 1729
1.409 1.780 1.698 10517
1.485 1.876 1.785 2422
1.412 1.784 1.691 8824
1.488 1.880 1.778 3115
1.419 1.792 1.690 8214
1.495 1.889 1.775 4000
1.426 1.801 1.687 7736
1.502 1.898 1.773 5170
1.428 1.804 1.681 7736
1.505 1.902 1.766 5170
1.435 1.813 1.679 6836
1.512 1.911 1.764 4520
1.442 1.822 1.677 6153
1.519 1.919 1.761 4125
1.445 1.825 1.670 4701
1.522 1.923 1.754 3278
1.497 1.891 1.716 4754
1.512 1.910 1.723 6352
1.434 1.812 1.639 1516
1.519 1.919 1.720 8690
1.441 1.820 1.637 1070
1.526 1.927 1.717 9203
1.529 1.931 1.710 9790
1.531 1.935 1.703 9737
1.610 2.033 1.785 1192
1.534 1.938 1.696 8717
1.613 2.037 1.778 1784
1.541 1.947 1.693 8095
1.620 2.046 1.775 2196
1.548 1.956 1.691 8939
1.627 2.055 1.771 1808
1.555 1.964 1.688 9944
1.634 2.064 1.768 1386
1.558 1.968 1.681 9223
1.637 2.068 1.761 1397
1.561 1.972 1.673 8503
1.640 2.072 1.753 1407
1.572 1.986 1.675 8662
1.651 2.086 1.754 1290
1.583 2.000 1.676 9605
1.590 2.008 1.672 9501
1.670 2.109 1.751 1557
1.605 2.028 1.677 10553
1.685 2.129 1.756 1409
1.629 2.058 1.691 10384
1.636 2.067 1.687 10539
1.647 2.081 1.688 13070
1.650 2.085 1.680 16473
1.653 2.088 1.672 16182
1.651 2.086 1.661 16202
1.732 2.188 1.737 1105
1.654 2.090 1.653 15242
1.735 2.192 1.729 1179
1.661 2.099 1.650 10674
1.698 2.145 1.673 8464
1.709 2.159 1.673 8487
1.791 2.262 1.748 1093
1.716 2.168 1.669 10319
1.635 2.066 1.595 1400
1.719 2.172 1.661 9084
1.801 2.275 1.735 1227
1.726 2.181 1.657 7920
1.808 2.284 1.731 1334
1.729 2.184 1.649 6947
1.811 2.287 1.722 1609
1.727 2.182 1.638 6305
1.809 2.286 1.710 1962
1.730 2.186 1.630 8276
1.812 2.289 1.702 3576
1.737 2.194 1.625 8672
1.819 2.298 1.697 5968
1.748 2.209 1.625 8055
1.831 2.313 1.696 6231
1.820 2.300 1.677 7253
1.738 2.196 1.606 4889
1.815 2.292 1.661 8463
1.732 2.188 1.590 1823
1.813 2.290 1.649 10308
1.896 2.395 1.719 1963
1.816 2.294 1.640 11730
1.898 2.398 1.710 1922
1.818 2.297 1.632 11237
1.901 2.402 1.701 1528
1.830 2.312 1.631 11190
1.913 2.416 1.700 1613
1.841 2.326 1.630 14246
1.924 2.431 1.698 1912
1.844 2.329 1.621 16053
1.927 2.435 1.689 2005
1.851 2.338 1.616 13863
1.934 2.444 1.684 1598
1.863 2.353 1.615 9294
1.946 2.458 1.682 2646
1.870 2.362 1.610 6801
1.953 2.467 1.677 3901
1.877 2.371 1.604 5822
1.978 2.499 1.685 4761
1.937 2.447 1.641 6486
1.853 2.341 1.575 2182
1.944 2.456 1.636 7637
2.032 2.567 1.705 2449
1.951 2.465 1.630 6349
2.035 2.571 1.695 2822
2.011 2.541 1.665 3651
1.927 2.434 1.600 2202
2.014 2.544 1.656 3969
2.098 2.651 1.721 2960
2.039 2.576 1.664 5766
2.123 2.682 1.728 2617
2.042 2.579 1.654 7828
2.126 2.686 1.718 3006
2.040 2.577 1.642 6757
2.125 2.684 1.705 3191
2.043 2.580 1.632 6010
2.127 2.688 1.695 3717
2.059 2.601 1.633 4875
2.144 2.708 1.695 2625
2.079 2.627 1.636 4625
1.945 2.457 1.538 1739
2.073 2.619 1.620 3751
2.158 2.726 1.682 2493
2.152 2.719 1.665 3682
2.067 2.611 1.604 3086
2.159 2.728 1.659 5034
2.074 2.620 1.598 2281
2.176 2.748 1.658 5129
2.090 2.640 1.598 1301
2.187 2.763 1.654 3723
2.102 2.655 1.594 1062
2.204 2.784 1.654 4230
2.118 2.675 1.594 1622
2.202 2.781 1.640 4952
2.116 2.673 1.581 1235
2.209 2.791 1.633 4746
2.123 2.682 1.574 1093
2.216 2.800 1.626 3524
2.302 2.908 1.685 1172
2.291 2.895 1.665 2971
2.205 2.786 1.607 1601
2.317 2.927 1.670 3319
2.231 2.818 1.612 1994
2.329 2.942 1.665 3432
2.242 2.833 1.607 2422
2.331 2.945 1.654 4340
2.240 2.830 1.594 2948
2.334 2.949 1.643 6089
2.243 2.834 1.584 2858
2.337 2.952 1.632 7344
2.250 2.843 1.576 2563
2.340 2.956 1.622 8167
2.253 2.846 1.566 1948
2.351 2.970 1.617 7031
2.265 2.861 1.561 1204
2.359 2.980 1.609 4517
2.446 3.089 1.663 1834
2.348 2.966 1.589 4666
2.435 3.076 1.643 3703
2.355 2.975 1.581 5570
2.442 3.085 1.635 4182
2.417 3.053 1.607 5305
2.536 3.204 1.680 1291
2.410 3.045 1.590 6755
2.539 3.208 1.668 2754
2.413 3.048 1.579 5193
2.542 3.211 1.657 4565
2.549 3.220 1.648 4858
2.462 3.110 1.595 4085
2.460 3.107 1.581 5231
2.547 3.218 1.633 4245
2.467 3.116 1.572 5302
2.555 3.227 1.624 4557
2.553 3.225 1.609 4562
2.465 3.114 1.558 3648
2.555 3.228 1.598 3168
2.468 3.117 1.547 2475
2.590 3.272 1.604 2713
2.502 3.161 1.554 2401
2.612 3.299 1.603 4072
2.496 3.153 1.537 1992
2.614 3.302 1.591 6144
2.498 3.156 1.525 1143
2.622 3.312 1.581 6290
2.633 3.327 1.574 4467
2.631 3.324 1.559 2458
2.799 3.536 1.651 1995
2.802 3.539 1.638 4185
2.634 3.327 1.547 2419
2.795 3.531 1.620 4025
2.641 3.336 1.537 2685
2.793 3.528 1.604 4750
2.653 3.351 1.530 2609
2.800 3.538 1.594 6060
2.693 3.402 1.537 1397
2.817 3.559 1.588 4966
2.906 3.671 1.634 1944
2.848 3.597 1.590 5467
2.937 3.710 1.635 1486
2.846 3.595 1.574 4306
2.935 3.707 1.619 1849
2.834 3.580 1.554 3776
2.923 3.693 1.599 3012
2.935 3.708 1.590 4111
2.837 3.583 1.540 2750
2.938 3.711 1.576 3723
3.065 3.871 1.639 1974
2.903 3.667 1.544 1868
3.096 3.910 1.638 1777
3.108 3.926 1.629 1882
2.952 3.730 1.553 1663
3.101 3.917 1.610 2566
2.960 3.739 1.542 2113
3.099 3.915 1.593 2907
2.986 3.772 1.539 2196
3.101 3.918 1.578 2824
3.012 3.805 1.536 1522
3.118 3.939 1.571 3473
3.029 3.826 1.529 1190
3.140 3.966 1.565 3702
3.229 4.080 1.606 1151
3.161 3.993 1.559 3960
3.251 4.107 1.600 1032
3.225 4.074 1.572 3142
3.135 3.961 1.531 2505
3.237 4.090 1.561 5325
3.143 3.970 1.519 1724
3.235 4.087 1.544 5949
3.325 4.201 1.583 1420
3.238 4.090 1.529 4525
3.328 4.204 1.568 2202
3.250 4.105 1.518 5149
3.354 4.237 1.562 2512
3.257 4.114 1.504 4768
3.380 4.270 1.557 4121
3.388 4.280 1.543 6385
3.269 4.130 1.493 1706
3.390 4.283 1.527 5466
3.481 4.397 1.565 3603
3.474 4.388 1.545 4618
3.383 4.274 1.508 3252
3.405 4.301 1.500 3250
3.600 4.548 1.578 2665
3.488 4.407 1.516 3841
3.608 4.557 1.564 3225
3.491 4.410 1.500 5433
3.615 4.567 1.549 3178
3.493 4.413 1.484 3931
3.641 4.600 1.541 2919
3.673 4.639 1.535 3752
3.763 4.754 1.570 2164
3.675 4.643 1.518 4261
3.766 4.757 1.552 3017
3.735 4.718 1.522 3298
3.644 4.603 1.488 1662
3.733 4.715 1.503 3568
3.838 4.849 1.542 1829
3.730 4.712 1.484 2204
3.913 4.943 1.550 2069
3.939 4.976 1.541 2686
3.790 4.788 1.487 1925
3.956 4.997 1.527 2176
3.793 4.791 1.470 1516
4.179 5.280 1.586 2457
4.011 5.067 1.527 1934
4.182 5.283 1.567 3097
4.004 5.058 1.505 2492
4.189 5.292 1.549 2655
4.074 5.146 1.509 2490
4.202 5.308 1.532 2833
4.076 5.150 1.490 2599
4.204 5.311 1.513 3529
4.305 5.439 1.546 2103
4.206 5.314 1.493 3913
4.308 5.442 1.526 2462
4.214 5.323 1.475 3206
4.305 5.439 1.504 2094
4.375 5.527 1.505 2588
4.534 5.728 1.555 1747
4.373 5.524 1.483 2407
4.527 5.719 1.531 1804
4.535 5.728 1.512 2535
4.317 5.454 1.445 1859
4.542 5.738 1.492 3320
4.648 5.872 1.524 1651
4.544 5.741 1.471 2975
4.685 5.918 1.512 2275
4.668 5.897 1.485 2650
4.552 5.750 1.451 2311
4.806 6.071 1.501 2011
4.665 5.893 1.461 1973
4.813 6.080 1.480 2017
5.060 6.392 1.550 1762
5.057 6.389 1.525 1956
4.912 6.205 1.485 1819
4.910 6.202 1.460 2189
5.002 6.319 1.485 1439
4.980 6.291 1.455 1714
4.888 6.175 1.431 1329
5.249 6.631 1.502 1519
4.880 6.165 1.406 1171
5.252 6.634 1.477 1652
5.072 6.407 1.431 1363
5.346 6.754 1.476 1438
5.254 6.637 1.453 1424
5.349 6.757 1.451 1773
5.256 6.640 1.428 1362
5.365 6.778 1.430 1413
5.259 6.643 1.404 1413
5.878 7.426 1.526 1463
5.387 6.806 1.409 1312
5.385 6.802 1.383 1059
5.886 7.435 1.443 1110
5.888 7.438 1.416 1157
1.406 1.765 1.717 6164
1.409 1.769 1.711 12329
1.485 1.864 1.798 1730
1.412 1.772 1.704 12329
1.488 1.868 1.791 1774
1.415 1.776 1.698 10696
1.491 1.872 1.785 2516
1.417 1.779 1.691 9063
1.494 1.876 1.778 3259
1.424 1.788 1.690 8235
1.501 1.884 1.775 3997
1.427 1.791 1.683 7508
1.504 1.888 1.769 5486
1.430 1.795 1.676 7508
1.507 1.892 1.762 5486
1.437 1.804 1.674 6631
1.514 1.901 1.759 4667
1.448 1.817 1.677 6031
1.525 1.915 1.761 3879
1.451 1.821 1.670 4473
1.528 1.918 1.754 3377
1.507 1.891 1.721 4920
1.518 1.905 1.723 6499
1.440 1.807 1.639 1046
1.521 1.909 1.716 8438
1.528 1.917 1.713 8875
1.535 1.926 1.710 9505
1.533 1.925 1.699 9418
1.612 2.023 1.781 1222
1.540 1.933 1.696 8536
1.619 2.032 1.778 1629
1.547 1.942 1.693 8262
1.626 2.041 1.775 2022
1.554 1.951 1.691 8889
1.633 2.050 1.771 1568
1.561 1.960 1.688 9737
1.640 2.059 1.768 1127
1.564 1.963 1.681 8877
1.643 2.063 1.761 1269
1.571 1.972 1.678 8133
1.651 2.072 1.757 1239
1.582 1.986 1.679 8695
1.662 2.086 1.758 1092
1.589 1.995 1.676 10050
1.669 2.095 1.754 1014
1.596 2.004 1.672 9678
1.676 2.104 1.751 1587
1.607 2.018 1.673 9929
1.687 2.118 1.751 1650
1.636 2.053 1.691 8218
1.643 2.062 1.687 8495
1.654 2.076 1.688 11285
1.661 2.085 1.684 14889
1.659 2.083 1.672 14597
1.658 2.081 1.661 14862
1.661 2.085 1.653 14057
1.742 2.186 1.729 1225
1.672 2.099 1.654 10002
1.753 2.201 1.729 1048
1.705 2.140 1.673 8401
1.786 2.242 1.748 1158
1.712 2.149 1.669 8506
1.793 2.251 1.744 1678
1.719 2.158 1.665 10336
1.800 2.260 1.739 1567
1.722 2.161 1.658 8948
1.803 2.264 1.731 1254
1.733 2.175 1.657 7834
1.736 2.179 1.649 6824
1.734 2.177 1.638 6240
1.816 2.280 1.710 1290
1.737 2.180 1.630 8595
1.819 2.283 1.702 3242
1.744 2.189 1.625 9596
1.826 2.292 1.697 6788
1.755 2.203 1.625 9249
1.838 2.307 1.696 7196
1.823 2.289 1.673 9709
1.741 2.185 1.602 5184
1.822 2.287 1.661 11337
1.739 2.183 1.590 2116
1.820 2.285 1.649 11894
1.903 2.389 1.719 1951
1.823 2.288 1.640 12643
1.906 2.392 1.710 1598
1.826 2.291 1.632 12489
1.833 2.300 1.627 12099
1.934 2.427 1.711 1448
1.849 2.320 1.630 14182
1.932 2.425 1.698 1939
1.851 2.324 1.621 15605
1.935 2.429 1.689 1969
1.854 2.327 1.613 13357
1.938 2.432 1.680 1813
1.861 2.336 1.608 8635
1.945 2.441 1.675 2489
1.908 2.395 1.634 6478
1.992 2.500 1.701 2088
1.928 2.420 1.639 5079
2.012 2.526 1.706 2367
1.944 2.440 1.641 5934
2.042 2.563 1.718 2240
1.951 2.449 1.636 6748
2.045 2.566 1.708 2450
1.959 2.458 1.630 5594
2.043 2.564 1.695 2532
2.024 2.540 1.669 3877
1.939 2.434 1.604 2165
2.044 2.566 1.673 4119
1.960 2.460 1.609 2274
2.051 2.575 1.667 6668
1.962 2.463 1.600 2481
2.054 2.578 1.658 8949
2.139 2.685 1.722 2442
2.057 2.582 1.648 7017
2.142 2.689 1.712 2244
2.051 2.574 1.632 5548
2.136 2.681 1.695 3117
2.076 2.606 1.639 5352
2.161 2.713 1.702 1764
2.088 2.620 1.636 5188
2.095 2.629 1.630 3581
2.180 2.737 1.692 1823
2.161 2.712 1.665 4308
2.075 2.605 1.604 2599
2.159 2.710 1.652 5785
2.073 2.602 1.591 1628
2.152 2.702 1.636 5705
2.151 2.700 1.623 2936
2.237 2.807 1.683 1624
2.203 2.765 1.647 3821
2.117 2.657 1.588 1189
2.206 2.769 1.637 5191
2.209 2.772 1.627 5101
2.220 2.787 1.623 3442
2.307 2.895 1.682 1265
2.310 2.899 1.671 2568
2.223 2.790 1.613 1701
2.326 2.920 1.670 3831
2.239 2.811 1.612 2015
2.338 2.934 1.665 3624
2.251 2.826 1.607 2591
2.345 2.944 1.657 3759
2.258 2.835 1.600 2700
2.348 2.947 1.646 4999
2.247 2.821 1.581 2302
2.346 2.945 1.632 5908
2.259 2.836 1.576 2218
2.344 2.942 1.619 7032
2.431 3.052 1.674 1622
2.356 2.957 1.614 5970
2.443 3.067 1.669 1275
2.363 2.966 1.606 3917
2.451 3.076 1.661 2260
2.357 2.958 1.589 4631
2.444 3.068 1.643 3942
2.364 2.967 1.581 5249
2.451 3.077 1.635 4205
2.431 3.052 1.610 5747
2.344 2.942 1.556 1505
2.429 3.049 1.596 7098
2.549 3.200 1.668 2662
2.427 3.047 1.582 4833
2.552 3.203 1.657 4494
2.559 3.212 1.648 4746
2.471 3.102 1.595 2745
2.469 3.100 1.581 4449
2.557 3.210 1.633 4339
2.555 3.208 1.619 5094
2.467 3.097 1.567 4392
2.567 3.223 1.612 4773
2.479 3.112 1.561 3458
2.575 3.232 1.603 3259
2.487 3.121 1.552 2246
2.601 3.264 1.604 3091
2.512 3.153 1.554 2327
2.613 3.279 1.598 3533
2.510 3.151 1.540 1624
2.625 3.294 1.591 4892
2.713 3.405 1.640 1074
2.636 3.309 1.584 5908
2.648 3.324 1.577 5090
2.737 3.436 1.625 1107
2.656 3.333 1.567 3213
2.810 3.527 1.651 2018
2.813 3.530 1.638 4110
2.644 3.319 1.547 2511
2.811 3.528 1.622 3833
2.651 3.328 1.537 2294
2.804 3.520 1.604 4206
2.668 3.349 1.532 2194
2.811 3.529 1.594 5442
2.675 3.358 1.523 1276
2.828 3.550 1.588 4563
2.917 3.662 1.634 2271
2.859 3.588 1.590 4864
2.948 3.700 1.635 1807
2.857 3.586 1.574 3283
2.946 3.698 1.619 2217
2.925 3.672 1.594 2968
2.836 3.560 1.549 2502
2.942 3.693 1.587 3665
2.848 3.575 1.540 2121
2.949 3.702 1.576 3623
3.077 3.862 1.639 2442
3.075 3.859 1.622 2183
2.961 3.717 1.567 1958
3.125 3.922 1.631 2575
2.964 3.720 1.553 1670
3.127 3.925 1.616 2625
2.971 3.730 1.542 2046
3.144 3.947 1.609 2383
3.002 3.768 1.541 2068
3.161 3.968 1.601 3594
3.028 3.801 1.539 1490
3.135 3.935 1.573 3710
3.045 3.822 1.531 1186
3.157 3.962 1.567 3849
3.174 3.984 1.559 4208
3.264 4.097 1.600 1082
3.233 4.058 1.570 4075
3.143 3.945 1.529 1596
3.250 4.080 1.561 6014
3.160 3.966 1.521 1503
3.253 4.083 1.546 6015
3.343 4.196 1.585 1263
3.250 4.080 1.529 4426
3.341 4.194 1.568 1937
3.267 4.101 1.520 5265
3.372 4.233 1.564 2053
3.270 4.104 1.504 4656
3.394 4.260 1.557 3772
3.401 4.269 1.543 6471
3.310 4.155 1.505 2197
3.404 4.272 1.527 6097
3.494 4.386 1.565 4748
3.487 4.377 1.545 6293
3.397 4.263 1.508 3552
3.495 4.387 1.530 3515
3.404 4.273 1.494 2636
3.502 4.396 1.516 5162
3.603 4.522 1.556 2641
3.505 4.399 1.500 7507
3.624 4.549 1.547 3123
3.507 4.402 1.484 5230
3.641 4.571 1.536 3119
3.687 4.628 1.535 3074
3.509 4.405 1.467 2040
3.690 4.631 1.518 3610
3.781 4.746 1.552 2295
3.745 4.701 1.521 3220
3.836 4.815 1.555 1621
3.747 4.704 1.503 3534
3.906 4.903 1.561 2148
3.923 4.924 1.549 2324
3.750 4.707 1.486 2228
3.945 4.952 1.537 2566
3.805 4.776 1.487 1969
3.976 4.991 1.529 1845
3.808 4.779 1.470 1352
4.196 5.267 1.586 2144
4.066 5.103 1.541 1644
4.198 5.270 1.567 2859
4.073 5.112 1.524 2098
4.090 5.134 1.509 2321
4.206 5.279 1.549 2266
4.088 5.131 1.489 2457
4.218 5.295 1.532 2234
4.221 5.298 1.513 2907
4.322 5.425 1.546 2129
4.223 5.301 1.493 3520
4.329 5.434 1.527 2592
4.235 5.316 1.477 2970
4.332 5.437 1.507 2483
4.388 5.507 1.504 3316
4.552 5.714 1.555 2104
4.385 5.504 1.482 3452
4.550 5.711 1.533 2683
4.552 5.714 1.512 3302
4.383 5.501 1.460 2639
4.555 5.717 1.490 3362
4.380 5.498 1.438 2382
4.567 5.733 1.472 2839
4.664 5.854 1.501 2482
4.676 5.870 1.482 2816
4.579 5.748 1.454 2337
4.567 5.733 1.428 2288
4.669 5.861 1.457 2226
4.564 5.729 1.406 1967
4.730 5.937 1.452 1736
5.004 6.282 1.505 1718
4.713 5.915 1.424 1671
5.002 6.279 1.480 2263
4.910 6.163 1.455 1499
5.000 6.275 1.455 1940
5.262 6.605 1.525 1295
5.270 6.615 1.502 1587
5.177 6.498 1.478 1125
5.272 6.618 1.477 1700
5.374 6.746 1.504 1335
5.279 6.627 1.454 1544
5.187 6.511 1.431 1515
5.370 6.740 1.451 1697
5.184 6.507 1.405 1541
5.279 6.627 1.404 1504
5.387 6.761 1.430 1393
5.408 6.789 1.409 1326
5.282 6.629 1.379 1269
5.406 6.785 1.383 1117
5.552 6.969 1.417 1073
5.870 7.368 1.434 1016
5.862 7.358 1.405 1054
5.860 7.355 1.377 1052
1.414 1.759 1.717 5637
1.417 1.762 1.711 11275
1.493 1.858 1.798 1776
1.419 1.766 1.704 11275
1.496 1.862 1.791 1824
1.422 1.770 1.698 9655
1.499 1.865 1.785 2664
1.425 1.773 1.691 8035
1.502 1.869 1.778 3503
1.428 1.777 1.685 6779
1.505 1.873 1.771 4738
1.500 1.866 1.755 6365
1.423 1.770 1.669 5135
1.503 1.870 1.748 6365
1.425 1.773 1.663 4835
1.510 1.879 1.746 5090
1.432 1.782 1.661 3913
1.456 1.811 1.677 4513
1.534 1.908 1.761 3648
1.520 1.891 1.736 4424
1.442 1.794 1.652 2732
1.519 1.890 1.725 4858
1.441 1.792 1.641 1811
1.526 1.899 1.723 6385
1.447 1.801 1.639 1594
1.529 1.902 1.716 8039
1.450 1.804 1.633 1088
1.536 1.911 1.713 8568
1.543 1.920 1.710 9302
1.542 1.918 1.699 9278
1.621 2.016 1.781 1007
1.549 1.927 1.696 8598
1.628 2.025 1.778 1431
1.556 1.935 1.693 8719
1.635 2.034 1.775 1800
1.563 1.944 1.691 8986
1.642 2.043 1.771 1350
1.570 1.953 1.688 9606
1.577 1.962 1.685 8605
1.656 2.061 1.765 1115
1.579 1.965 1.678 7724
1.659 2.065 1.757 1392
1.591 1.979 1.679 8735
1.671 2.079 1.758 1119
1.602 1.993 1.680 10611
1.682 2.093 1.759 1064
1.609 2.002 1.677 9832
1.689 2.102 1.755 1459
1.616 2.011 1.673 9123
1.697 2.111 1.751 1668
1.623 2.019 1.670 6179
1.704 2.120 1.748 1737
1.651 2.055 1.687 6106
1.667 2.074 1.692 9227
1.674 2.083 1.688 12735
1.673 2.081 1.676 12573
1.667 2.074 1.661 13011
1.670 2.077 1.653 12402
1.751 2.179 1.729 1348
1.707 2.124 1.677 9454
1.714 2.132 1.673 8394
1.796 2.234 1.748 1368
1.717 2.136 1.666 9112
1.799 2.238 1.740 2168
1.720 2.139 1.658 10970
1.802 2.241 1.732 2243
1.731 2.154 1.658 9049
1.813 2.256 1.731 1252
1.742 2.168 1.657 7806
1.745 2.171 1.649 6736
1.828 2.274 1.722 1056
1.744 2.169 1.638 6141
1.826 2.272 1.710 1576
1.746 2.173 1.630 8832
1.829 2.276 1.702 3663
1.753 2.182 1.625 10440
1.836 2.285 1.697 8142
1.835 2.283 1.685 11104
1.752 2.179 1.614 9289
1.833 2.281 1.673 12859
1.750 2.177 1.602 5694
1.836 2.284 1.664 14687
1.753 2.181 1.594 2496
1.834 2.282 1.652 13601
1.918 2.386 1.723 1657
1.833 2.280 1.640 12750
1.916 2.384 1.710 1501
1.835 2.284 1.632 12415
1.843 2.292 1.627 12070
1.944 2.419 1.711 1504
1.854 2.307 1.626 13172
1.938 2.411 1.695 2326
1.861 2.316 1.621 13788
1.945 2.420 1.689 2051
1.864 2.319 1.613 11769
1.948 2.424 1.680 1876
1.871 2.328 1.608 7607
1.955 2.433 1.675 2429
1.923 2.392 1.638 6627
2.007 2.497 1.705 1631
1.943 2.418 1.643 4965
1.859 2.312 1.576 2448
1.955 2.432 1.641 5613
2.053 2.554 1.718 2848
1.962 2.441 1.636 5980
2.056 2.558 1.708 2854
1.969 2.450 1.630 5126
2.054 2.556 1.695 2817
2.043 2.542 1.676 4605
1.958 2.437 1.611 2806
2.055 2.557 1.673 5733
1.970 2.451 1.609 2740
2.062 2.566 1.667 8397
1.977 2.460 1.603 2696
2.065 2.570 1.658 10689
2.151 2.676 1.722 2011
2.073 2.579 1.652 7676
2.158 2.685 1.715 1934
2.084 2.593 1.649 5567
2.170 2.700 1.712 1808
2.092 2.602 1.642 6070
2.177 2.709 1.705 1406
2.103 2.617 1.639 6165
2.111 2.626 1.633 4252
2.196 2.733 1.695 1597
2.172 2.703 1.665 4878
2.086 2.596 1.604 1642
2.161 2.689 1.646 6991
2.164 2.693 1.636 7757
2.167 2.696 1.626 4114
2.253 2.803 1.686 1143
2.201 2.739 1.638 3860
2.209 2.748 1.631 5635
2.211 2.751 1.621 5700
2.298 2.859 1.680 1050
2.223 2.766 1.617 3844
2.310 2.874 1.676 1409
2.263 2.815 1.631 2631
2.349 2.923 1.689 1873
2.338 2.910 1.670 4106
2.251 2.801 1.612 2217
2.337 2.907 1.656 3659
2.250 2.799 1.598 2252
2.280 2.836 1.606 3170
2.367 2.945 1.663 2739
2.370 2.948 1.652 3383
2.282 2.840 1.596 2604
2.368 2.946 1.638 4120
2.281 2.837 1.582 2274
2.366 2.944 1.624 5758
2.279 2.835 1.569 1443
2.369 2.947 1.614 5764
2.456 3.056 1.669 1406
2.376 2.956 1.606 3955
2.464 3.065 1.661 2515
2.374 2.954 1.592 4477
2.462 3.063 1.646 4234
2.455 3.055 1.629 4795
2.368 2.946 1.575 4196
2.444 3.041 1.610 6271
2.356 2.932 1.556 1214
2.447 3.044 1.598 7966
2.558 3.183 1.666 2169
2.454 3.054 1.590 5564
2.561 3.186 1.654 3913
2.527 3.144 1.620 4411
2.438 3.034 1.568 1787
2.511 3.124 1.597 4517
2.599 3.234 1.650 1959
2.569 3.197 1.619 5354
2.481 3.086 1.567 3782
2.581 3.212 1.612 4967
2.493 3.101 1.561 2799
2.589 3.221 1.603 3586
2.500 3.110 1.552 1608
2.615 3.253 1.604 3079
2.526 3.143 1.554 2195
2.627 3.268 1.598 3073
2.533 3.152 1.545 1150
2.648 3.295 1.596 4077
2.559 3.184 1.546 1146
2.655 3.304 1.586 5816
2.744 3.415 1.635 1066
2.663 3.313 1.577 5580
2.752 3.424 1.625 1352
2.670 3.322 1.567 3660
2.825 3.515 1.651 1998
2.828 3.518 1.638 3683
2.663 3.314 1.550 2301
2.826 3.516 1.622 3396
2.666 3.317 1.537 1770
2.819 3.507 1.604 3696
2.687 3.343 1.535 1833
2.826 3.517 1.594 4786
2.930 3.646 1.648 1489
2.843 3.538 1.588 3994
2.933 3.649 1.634 2434
2.903 3.611 1.604 4709
2.813 3.500 1.558 1462
2.924 3.638 1.600 3559
2.834 3.526 1.555 1783
2.936 3.653 1.591 2574
3.026 3.765 1.636 2040
2.948 3.668 1.583 3135
3.038 3.780 1.627 2398
2.965 3.689 1.576 3433
3.093 3.849 1.639 2858
3.091 3.846 1.622 3003
2.982 3.710 1.569 2410
3.141 3.909 1.631 2926
2.985 3.714 1.556 1905
3.149 3.918 1.619 3039
2.987 3.717 1.542 1882
3.171 3.945 1.613 3395
3.042 3.785 1.553 2075
3.183 3.960 1.603 4535
3.045 3.788 1.539 1522
3.166 3.940 1.579 3606
3.057 3.803 1.529 1169
3.174 3.949 1.567 3970
3.191 3.970 1.559 4519
3.281 4.083 1.600 1212
3.251 4.044 1.570 4762
3.160 3.931 1.529 1108
3.268 4.066 1.561 6399
3.177 3.952 1.521 1434
3.275 4.075 1.548 5899
3.184 3.962 1.508 1481
3.273 4.072 1.531 4163
3.392 4.221 1.582 1555
3.285 4.087 1.520 4740
3.395 4.224 1.566 2160
3.297 4.102 1.509 4217
3.412 4.245 1.557 3188
3.415 4.248 1.541 5913
3.323 4.135 1.503 3111
3.417 4.252 1.525 6626
3.508 4.365 1.563 6213
3.506 4.362 1.545 8306
3.415 4.249 1.508 4212
3.514 4.372 1.530 5160
3.422 4.258 1.494 2319
3.521 4.381 1.516 6547
3.612 4.495 1.552 2682
3.523 4.384 1.500 9238
3.639 4.528 1.545 2724
3.526 4.387 1.484 6294
3.666 4.561 1.537 2810
3.654 4.546 1.515 2610
3.528 4.390 1.467 2411
3.709 4.615 1.518 2876
3.816 4.747 1.558 1612
3.765 4.684 1.521 2978
3.673 4.570 1.487 2049
3.768 4.688 1.503 3226
3.932 4.892 1.563 2544
3.930 4.889 1.543 2592
3.775 4.697 1.487 2243
3.956 4.923 1.534 2596
3.826 4.760 1.487 2101
3.944 4.908 1.510 1975
3.828 4.763 1.470 1288
4.209 5.236 1.583 1691
4.073 5.068 1.536 1518
4.216 5.246 1.565 2349
4.051 5.041 1.509 1867
4.117 5.122 1.511 2040
4.025 5.007 1.480 1931
4.110 5.113 1.489 2159
4.246 5.282 1.534 1625
4.243 5.279 1.513 2222
4.374 5.443 1.556 2139
4.382 5.452 1.537 3117
4.241 5.277 1.491 2905
4.384 5.455 1.517 3682
4.253 5.292 1.475 2374
4.402 5.476 1.501 4482
4.577 5.694 1.555 2258
4.404 5.479 1.480 4854
4.575 5.692 1.533 3189
4.406 5.482 1.460 4136
4.577 5.695 1.512 3592
4.409 5.485 1.440 3608
4.580 5.698 1.490 3230
4.680 5.822 1.498 3309
4.587 5.707 1.471 2552
4.687 5.831 1.478 3416
4.594 5.716 1.451 2009
4.689 5.834 1.456 2961
4.587 5.707 1.427 2536
4.589 5.710 1.406 2274
4.687 5.831 1.433 2073
5.031 6.260 1.505 1729
4.738 5.895 1.424 1567
5.034 6.263 1.481 2306
4.941 6.147 1.456 1400
5.026 6.254 1.455 1887
5.119 6.370 1.480 1331
5.293 6.586 1.501 1455
5.200 6.470 1.477 1226
5.203 6.473 1.452 1679
5.301 6.595 1.477 1463
5.205 6.476 1.428 2046
5.396 6.714 1.476 1494
5.207 6.479 1.404 1889
5.399 6.717 1.451 1717
5.313 6.610 1.405 1443
5.411 6.732 1.428 1377
5.433 6.759 1.408 1379
5.580 6.942 1.443 1342
5.435 6.762 1.383 1288
5.577 6.939 1.416 1233
5.901 7.342 1.434 1058
5.899 7.339 1.406 1011
1.419 1.754 1.717 6035
1.422 1.758 1.711 12070
1.499 1.853 1.798 1745
1.425 1.762 1.704 12070
1.502 1.857 1.791 1797
1.428 1.765 1.698 10431
1.505 1.861 1.785 2713
1.431 1.769 1.691 8792
1.508 1.864 1.778 3630
1.495 1.848 1.753 6790
1.417 1.752 1.667 5003
1.506 1.862 1.755 6612
1.428 1.766 1.669 4494
1.509 1.865 1.748 6612
1.431 1.769 1.663 4209
1.516 1.874 1.746 5187
1.438 1.778 1.661 3355
1.461 1.806 1.677 4439
1.540 1.903 1.761 3389
1.526 1.886 1.736 4285
1.448 1.790 1.652 2366
1.525 1.885 1.725 4519
1.446 1.788 1.641 1415
1.532 1.894 1.723 5888
1.453 1.796 1.639 1207
1.535 1.897 1.716 7273
1.542 1.906 1.713 7978
1.549 1.915 1.710 8916
1.548 1.913 1.699 8911
1.555 1.922 1.696 8491
1.634 2.020 1.778 1286
1.562 1.931 1.693 8861
1.641 2.029 1.775 1630
1.569 1.939 1.691 8868
1.648 2.038 1.771 1228
1.580 1.953 1.692 9392
1.583 1.957 1.685 8357
1.663 2.056 1.765 1092
1.590 1.965 1.682 7502
1.670 2.065 1.761 1154
1.610 1.990 1.691 9120
1.617 1.999 1.688 11230
1.620 2.002 1.681 9801
1.700 2.102 1.759 1325
1.622 2.006 1.673 8373
1.703 2.106 1.751 1693
1.629 2.014 1.670 5621
1.710 2.114 1.748 1622
1.683 2.081 1.712 4631
1.602 1.981 1.634 1974
1.678 2.074 1.696 7780
1.597 1.974 1.619 1029
1.681 2.078 1.688 10958
1.683 2.081 1.680 10795
1.673 2.069 1.661 11218
1.676 2.072 1.653 10762
1.758 2.173 1.729 1471
1.713 2.118 1.677 8831
1.716 2.122 1.669 8598
1.798 2.223 1.744 1657
1.719 2.125 1.662 9888
1.801 2.227 1.736 2339
1.722 2.129 1.654 11667
1.804 2.230 1.728 2189
1.733 2.143 1.654 9262
1.816 2.245 1.727 1464
1.749 2.162 1.657 7772
1.832 2.265 1.731 1143
1.752 2.166 1.649 6634
1.835 2.268 1.722 1628
1.750 2.164 1.638 5907
1.833 2.266 1.710 2159
1.753 2.167 1.630 8678
1.836 2.270 1.702 4099
1.765 2.181 1.629 10704
1.848 2.284 1.701 8003
1.837 2.272 1.681 12640
1.754 2.169 1.610 8698
1.840 2.275 1.673 14597
1.757 2.172 1.602 5882
1.843 2.278 1.664 16554
1.760 2.175 1.594 2535
1.841 2.276 1.652 14770
1.925 2.380 1.723 1591
1.840 2.274 1.640 12869
1.924 2.378 1.710 1737
1.843 2.278 1.632 12305
1.927 2.382 1.701 1575
1.850 2.287 1.627 11952
1.934 2.391 1.696 2205
1.861 2.301 1.626 12383
1.946 2.405 1.695 2953
1.868 2.310 1.621 12359
1.953 2.414 1.689 2466
1.871 2.313 1.613 10523
1.956 2.418 1.680 2235
1.923 2.377 1.643 6851
2.007 2.482 1.710 1479
1.930 2.386 1.638 6227
1.845 2.281 1.571 1620
1.955 2.417 1.646 4891
1.870 2.312 1.580 2923
1.962 2.426 1.641 5186
2.056 2.542 1.714 3322
1.970 2.435 1.636 5093
2.059 2.546 1.705 3193
1.972 2.438 1.627 4442
2.058 2.544 1.692 3273
2.056 2.542 1.679 5369
1.971 2.436 1.614 2987
2.063 2.551 1.673 7011
1.978 2.445 1.609 2748
2.070 2.560 1.667 9681
1.985 2.454 1.603 2772
2.078 2.569 1.661 11890
1.988 2.457 1.594 1678
2.081 2.572 1.652 8075
2.166 2.678 1.715 1909
2.115 2.615 1.665 5914
2.029 2.508 1.602 1504
2.104 2.601 1.646 6472
2.190 2.708 1.708 1194
2.112 2.610 1.639 6719
2.123 2.625 1.636 5002
2.210 2.732 1.698 1295
2.153 2.662 1.646 4933
2.165 2.677 1.643 7337
2.173 2.686 1.636 8628
2.175 2.689 1.626 4978
2.210 2.732 1.638 4318
2.213 2.735 1.628 5966
2.220 2.744 1.621 6020
2.232 2.759 1.617 4120
2.319 2.867 1.676 1324
2.276 2.814 1.634 3170
2.363 2.921 1.692 1539
2.343 2.896 1.666 4057
2.256 2.789 1.609 2304
2.281 2.820 1.613 3790
2.369 2.928 1.671 2956
2.289 2.829 1.606 3638
2.376 2.938 1.663 2169
2.301 2.844 1.602 3418
2.388 2.952 1.658 2559
2.386 2.950 1.644 3470
2.299 2.842 1.588 2773
2.380 2.942 1.627 5387
2.292 2.833 1.572 1421
2.378 2.940 1.614 5854
2.466 3.048 1.669 1493
2.385 2.949 1.606 4127
2.473 3.058 1.661 2667
2.462 3.044 1.641 4851
2.374 2.935 1.586 3802
2.465 3.047 1.629 5121
2.377 2.938 1.575 3243
2.458 3.039 1.612 6295
2.370 2.930 1.559 1142
2.461 3.043 1.601 8224
2.550 3.152 1.654 1598
2.464 3.046 1.590 6370
2.552 3.155 1.643 3570
2.532 3.130 1.617 4742
2.443 3.020 1.565 1342
2.525 3.122 1.600 5444
2.614 3.231 1.652 1218
2.579 3.189 1.619 5482
2.490 3.079 1.567 3033
2.591 3.203 1.612 5051
2.502 3.094 1.561 2080
2.603 3.218 1.606 3779
2.514 3.108 1.555 1354
2.620 3.239 1.602 2993
2.531 3.129 1.551 1853
2.632 3.254 1.595 2787
2.731 3.376 1.650 1231
2.668 3.298 1.601 3597
2.578 3.188 1.551 1182
2.670 3.301 1.589 5824
2.760 3.412 1.638 1165
2.678 3.310 1.579 5641
2.767 3.421 1.628 1517
2.680 3.314 1.567 3706
2.836 3.506 1.651 2033
2.839 3.509 1.638 3283
2.683 3.317 1.555 2021
2.841 3.513 1.625 2964
2.728 3.373 1.565 1503
2.830 3.499 1.604 3347
2.702 3.341 1.537 1429
2.837 3.508 1.594 4354
2.942 3.636 1.648 1607
2.850 3.523 1.586 3578
2.940 3.634 1.632 2546
2.914 3.602 1.604 5208
2.824 3.491 1.558 1659
2.931 3.623 1.598 4198
3.021 3.735 1.643 2181
2.938 3.632 1.587 2502
3.028 3.744 1.632 2335
3.036 3.753 1.620 3032
2.946 3.641 1.576 2800
2.977 3.680 1.576 3125
3.105 3.839 1.639 3044
3.103 3.836 1.622 3325
2.998 3.707 1.572 2602
3.154 3.899 1.631 3009
2.996 3.704 1.556 1920
3.161 3.908 1.619 3589
3.056 3.778 1.569 1750
3.183 3.935 1.613 4123
3.059 3.781 1.555 1974
3.195 3.950 1.603 5076
3.061 3.785 1.541 1405
3.198 3.953 1.588 3420
3.069 3.794 1.529 1036
3.186 3.939 1.567 3712
3.203 3.960 1.559 4456
3.294 4.072 1.600 1306
3.263 4.034 1.570 4834
3.276 4.049 1.559 6148
3.367 4.162 1.599 1503
3.288 4.064 1.548 5367
3.196 3.952 1.508 1515
3.285 4.062 1.531 3568
3.406 4.210 1.582 1634
3.293 4.071 1.518 3757
3.408 4.213 1.566 2303
3.319 4.104 1.513 3457
3.421 4.229 1.555 2769
3.423 4.232 1.539 5121
3.332 4.119 1.501 3117
3.431 4.241 1.525 6530
3.522 4.354 1.563 6528
3.525 4.357 1.547 9231
3.433 4.244 1.510 4573
3.532 4.367 1.532 6459
3.431 4.241 1.492 2067
3.535 4.370 1.516 7141
3.627 4.483 1.552 2452
3.537 4.373 1.500 9434
3.648 4.510 1.543 2146
3.540 4.376 1.484 6282
3.748 4.633 1.563 2152
3.542 4.379 1.467 2329
3.668 4.535 1.515 2317
3.675 4.544 1.500 2752
3.777 4.670 1.538 1827
3.780 4.673 1.521 2758
3.688 4.559 1.487 2490
3.782 4.676 1.503 2922
3.938 4.868 1.560 2845
3.940 4.871 1.542 2715
3.833 4.739 1.503 2259
3.967 4.904 1.532 2393
3.846 4.754 1.489 2061
3.965 4.901 1.512 1888
4.198 5.190 1.594 1501
4.215 5.211 1.579 1507
4.035 4.989 1.517 1353
4.233 5.233 1.565 1994
4.052 5.010 1.504 1846
4.040 4.995 1.480 1931
4.143 5.121 1.514 1657
4.199 5.191 1.513 1794
4.033 4.986 1.458 1345
4.396 5.435 1.557 2526
4.206 5.200 1.495 1842
4.404 5.444 1.538 3956
4.253 5.257 1.490 2253
4.406 5.447 1.518 4743
4.265 5.272 1.473 1864
4.414 5.457 1.499 5349
4.595 5.680 1.555 2111
4.416 5.460 1.479 5808
4.592 5.677 1.533 3236
4.419 5.463 1.459 5099
4.595 5.680 1.512 3460
4.426 5.472 1.440 4230
4.695 5.804 1.519 3479
4.698 5.808 1.498 3978
4.536 5.608 1.451 3127
4.700 5.811 1.476 3969
4.539 5.611 1.430 2665
4.708 5.820 1.456 3511
4.600 5.686 1.425 2328
4.705 5.817 1.433 2773
4.607 5.695 1.406 2021
4.712 5.826 1.412 1967
5.051 6.244 1.505 1692
5.053 6.247 1.481 2206
4.720 5.834 1.392 1401
5.041 6.232 1.454 1616
5.134 6.347 1.479 1480
5.314 6.569 1.501 1240
5.407 6.685 1.525 1217
5.223 6.457 1.452 1863
5.410 6.688 1.500 1386
5.225 6.460 1.428 2272
5.422 6.703 1.477 1564
5.228 6.463 1.404 1937
5.420 6.700 1.451 1715
5.427 6.709 1.427 1346
5.333 6.593 1.405 1241
5.449 6.736 1.407 1413
5.602 6.925 1.443 1392
5.451 6.739 1.382 1397
5.604 6.928 1.417 1340
1.424 1.750 1.717 5611
1.427 1.754 1.711 11222
1.505 1.849 1.798 1632
1.430 1.757 1.704 11222
1.508 1.852 1.791 1696
1.433 1.761 1.698 9804
1.511 1.856 1.785 2738
1.489 1.830 1.750 8847
1.411 1.734 1.664 4296
1.496 1.838 1.748 7557
1.418 1.743 1.662 4445
1.512 1.857 1.755 7192
1.433 1.761 1.669 5118
1.515 1.861 1.748 7192
1.436 1.765 1.663 4858
1.518 1.864 1.741 5731
1.439 1.768 1.657 3583
1.525 1.873 1.739 4320
1.446 1.777 1.654 2888
1.532 1.882 1.736 4058
1.453 1.785 1.652 2168
1.535 1.885 1.730 3812
1.456 1.789 1.646 1193
1.538 1.889 1.723 4913
1.540 1.893 1.716 6014
1.548 1.901 1.713 7181
1.555 1.910 1.710 8671
1.553 1.908 1.699 8643
1.560 1.917 1.696 8584
1.640 2.015 1.778 1121
1.567 1.926 1.693 9159
1.647 2.024 1.775 1419
1.575 1.934 1.691 8847
1.655 2.033 1.771 1142
1.586 1.948 1.692 9437
1.593 1.957 1.689 8509
1.613 1.981 1.699 8006
1.620 1.990 1.695 10232
1.623 1.994 1.688 12531
1.626 1.997 1.681 10047
1.707 2.097 1.759 1351
1.628 2.001 1.673 7564
1.710 2.100 1.751 1725
1.631 2.004 1.666 5402
1.713 2.104 1.744 1915
1.690 2.076 1.712 4619
1.608 1.976 1.634 2308
1.693 2.080 1.704 6717
1.611 1.979 1.627 1618
1.691 2.078 1.692 8925
1.694 2.081 1.685 8883
1.675 2.058 1.657 9248
1.682 2.067 1.653 8805
1.765 2.168 1.729 1643
1.716 2.108 1.673 7902
1.723 2.117 1.669 9075
1.805 2.218 1.744 1565
1.726 2.120 1.662 11363
1.808 2.221 1.736 2027
1.728 2.123 1.654 12912
1.815 2.230 1.732 1710
1.740 2.138 1.654 9921
1.836 2.255 1.739 1664
1.751 2.152 1.654 8020
1.843 2.264 1.734 1978
1.758 2.160 1.649 6728
1.842 2.263 1.722 2573
1.761 2.164 1.641 5777
1.844 2.266 1.714 3227
1.760 2.162 1.630 8410
1.847 2.270 1.706 4551
1.771 2.176 1.629 10752
1.855 2.279 1.701 8154
1.844 2.266 1.681 13626
1.761 2.163 1.610 8705
1.847 2.269 1.673 15776
1.763 2.167 1.602 5964
1.850 2.273 1.664 17927
1.766 2.170 1.594 2498
1.848 2.271 1.652 15526
1.932 2.374 1.723 1532
1.847 2.269 1.640 12572
1.931 2.372 1.710 2173
1.849 2.272 1.632 11691
1.934 2.376 1.701 2598
1.861 2.287 1.631 11507
1.945 2.390 1.700 3146
1.868 2.295 1.626 11629
1.953 2.399 1.695 3768
1.875 2.304 1.621 11169
1.960 2.408 1.689 3086
1.878 2.308 1.613 9389
1.963 2.412 1.680 2776
1.881 2.311 1.604 5941
1.966 2.415 1.671 3151
1.942 2.386 1.641 5034
1.857 2.281 1.574 2266
1.967 2.417 1.650 4878
2.052 2.521 1.717 2922
1.974 2.426 1.645 5471
2.059 2.530 1.711 3518
1.977 2.429 1.636 5161
2.062 2.534 1.701 3168
1.980 2.432 1.627 4464
2.065 2.537 1.692 3354
2.064 2.535 1.679 5970
1.978 2.430 1.614 2917
2.071 2.544 1.673 8229
1.985 2.439 1.609 2705
2.078 2.553 1.667 10860
1.992 2.448 1.603 2677
2.086 2.562 1.661 13050
2.000 2.457 1.597 1606
2.093 2.571 1.655 9085
2.179 2.677 1.718 1627
2.123 2.608 1.665 8011
2.037 2.502 1.602 1467
2.112 2.595 1.646 7635
2.198 2.701 1.708 1162
2.119 2.604 1.639 7776
2.206 2.710 1.702 1276
2.131 2.618 1.636 6214
2.218 2.725 1.698 1904
2.152 2.644 1.639 5540
2.173 2.670 1.643 7635
2.181 2.679 1.636 9455
2.183 2.683 1.626 5808
2.218 2.725 1.638 4752
2.221 2.729 1.628 6080
2.313 2.841 1.690 1003
2.228 2.738 1.621 5946
2.316 2.845 1.680 1107
2.240 2.752 1.617 4173
2.328 2.860 1.676 1270
2.266 2.784 1.622 3720
2.354 2.892 1.680 1923
2.324 2.855 1.648 5018
2.236 2.748 1.590 1964
2.308 2.836 1.626 4870
2.396 2.944 1.683 2224
2.297 2.822 1.606 4271
2.394 2.942 1.669 2274
2.305 2.831 1.599 3823
2.397 2.945 1.658 2194
2.395 2.943 1.644 3410
2.307 2.835 1.588 3146
2.393 2.941 1.630 5473
2.305 2.832 1.575 1812
2.392 2.938 1.617 5752
2.480 3.047 1.672 1464
2.390 2.936 1.603 4599
2.478 3.044 1.658 3107
2.471 3.036 1.641 5166
2.383 2.928 1.586 3814
2.479 3.046 1.632 5659
2.390 2.937 1.578 2670
2.468 3.032 1.612 6379
2.556 3.141 1.666 1098
2.470 3.035 1.601 8395
2.559 3.144 1.654 1531
2.478 3.044 1.593 7062
2.567 3.153 1.646 2635
2.532 3.111 1.612 5408
2.443 3.001 1.559 1193
2.535 3.114 1.600 6903
2.624 3.223 1.652 1382
2.589 3.181 1.619 5690
2.500 3.071 1.567 2126
2.596 3.190 1.609 5333
2.686 3.299 1.661 2478
2.608 3.205 1.603 3900
2.698 3.314 1.654 2027
2.611 3.208 1.591 3112
2.701 3.318 1.641 2383
2.633 3.234 1.590 2783
2.722 3.344 1.640 1658
2.687 3.301 1.606 3081
2.598 3.191 1.557 1641
2.685 3.299 1.591 4854
2.595 3.189 1.542 1526
2.688 3.302 1.579 4708
2.792 3.430 1.636 1865
2.690 3.305 1.567 3111
2.795 3.433 1.623 2319
2.797 3.437 1.610 2897
2.698 3.315 1.557 1725
2.800 3.440 1.597 2546
2.890 3.551 1.645 1220
2.841 3.490 1.604 3108
2.746 3.373 1.555 1614
2.843 3.493 1.591 4191
2.962 3.639 1.653 1798
2.846 3.497 1.578 3434
2.965 3.643 1.639 2568
2.925 3.593 1.604 5499
2.834 3.482 1.558 2070
2.932 3.603 1.593 5055
3.023 3.714 1.638 2959
2.944 3.618 1.584 2992
3.035 3.729 1.629 2509
3.047 3.744 1.620 3143
2.957 3.633 1.576 2850
3.050 3.747 1.606 3314
3.141 3.859 1.650 2240
3.115 3.827 1.622 3180
3.014 3.704 1.574 2830
3.165 3.889 1.631 3063
3.017 3.707 1.560 1941
3.173 3.898 1.619 4035
3.068 3.769 1.569 1384
3.195 3.925 1.613 4372
3.104 3.813 1.571 1541
3.207 3.940 1.603 5119
3.116 3.828 1.561 1278
3.215 3.950 1.590 3473
3.123 3.837 1.549 1165
3.208 3.941 1.571 3150
3.215 3.950 1.559 3959
3.307 4.062 1.600 1440
3.271 4.018 1.567 4550
3.179 3.906 1.527 1008
3.288 4.039 1.559 5130
3.196 3.927 1.519 1397
3.305 4.060 1.550 4060
3.213 3.948 1.510 1440
3.351 4.117 1.553 2718
3.259 4.004 1.514 1948
3.286 4.037 1.509 2887
3.416 4.197 1.564 2347
3.375 4.147 1.531 2701
3.525 4.331 1.593 1888
3.431 4.215 1.537 4625
3.538 4.346 1.581 3229
3.439 4.225 1.523 6315
3.535 4.343 1.563 6110
3.538 4.347 1.547 9413
3.441 4.228 1.508 4711
3.545 4.356 1.532 7629
3.671 4.511 1.582 2777
3.553 4.365 1.518 6775
3.679 4.520 1.567 2702
3.555 4.368 1.502 7856
3.754 4.613 1.579 2081
3.553 4.365 1.484 5140
3.767 4.628 1.565 3331
3.760 4.619 1.544 2594
3.662 4.500 1.508 2361
3.699 4.544 1.503 3139
3.791 4.658 1.538 1729
3.721 4.571 1.494 3001
3.813 4.685 1.528 2024
3.957 4.862 1.561 2771
3.738 4.592 1.482 2697
3.955 4.859 1.542 2383
3.848 4.727 1.503 2183
4.065 4.994 1.561 2083
3.889 4.778 1.499 2011
4.067 4.997 1.543 1907
3.975 4.883 1.510 1623
4.060 4.988 1.521 1919
4.212 5.174 1.573 1518
4.058 4.985 1.500 2374
4.234 5.202 1.560 1589
4.051 4.977 1.478 1914
4.227 5.193 1.537 1847
4.219 5.184 1.515 2147
4.410 5.418 1.577 1614
4.413 5.422 1.557 2850
4.227 5.193 1.497 2154
4.420 5.431 1.538 4707
4.239 5.208 1.481 1914
4.423 5.434 1.518 5768
4.609 5.663 1.577 1549
4.430 5.443 1.499 5888
4.543 5.582 1.534 2560
4.433 5.446 1.479 6399
4.546 5.585 1.513 4024
4.435 5.449 1.459 5972
4.548 5.588 1.493 4566
4.443 5.458 1.440 4649
4.551 5.591 1.472 4261
4.715 5.793 1.498 4546
4.553 5.594 1.451 4037
4.718 5.796 1.476 4545
4.556 5.597 1.430 3395
4.725 5.805 1.456 3978
4.617 5.672 1.425 2088
4.723 5.802 1.433 3333
4.816 5.917 1.459 1611
4.725 5.805 1.411 2508
5.075 6.235 1.506 1701
5.077 6.238 1.483 2036
4.727 5.808 1.389 1752
5.154 6.332 1.479 1599
5.026 6.174 1.445 1422
5.427 6.668 1.525 1588
5.018 6.165 1.420 1348
5.247 6.447 1.454 1934
5.430 6.671 1.500 1536
5.245 6.444 1.428 2371
5.442 6.686 1.477 1635
5.242 6.441 1.403 1913
5.440 6.683 1.451 1702
5.442 6.686 1.426 1363
5.630 6.917 1.471 1245
5.464 6.714 1.406 1567
5.855 7.193 1.497 1555
5.467 6.716 1.381 1603
5.625 6.911 1.417 1450
1.430 1.746 1.717 4389
1.433 1.749 1.711 8778
1.510 1.844 1.798 1473
1.436 1.753 1.704 8778
1.514 1.848 1.791 1546
1.488 1.816 1.753 7609
1.410 1.721 1.666 3645
1.495 1.825 1.750 9302
1.417 1.730 1.664 3119
1.502 1.834 1.748 7896
1.424 1.738 1.662 3105
1.517 1.852 1.755 7427
1.439 1.757 1.669 2823
1.520 1.856 1.748 7427
1.442 1.760 1.663 2630
1.523 1.860 1.741 6104
1.445 1.764 1.657 1893
1.526 1.863 1.734 4782
1.447 1.767 1.650 1349
1.529 1.867 1.728 3786
1.450 1.770 1.644 1384
1.545 1.886 1.734 2973
1.466 1.789 1.650 1770
1.543 1.884 1.723 3819
1.464 1.787 1.639 1216
1.542 1.883 1.711 4804
1.554 1.896 1.713 6290
1.561 1.905 1.710 8234
1.559 1.904 1.699 8168
1.566 1.912 1.696 8363
1.574 1.921 1.693 8998
1.654 2.019 1.775 1189
1.581 1.930 1.691 8497
1.661 2.028 1.771 1037
1.596 1.949 1.696 9201
1.603 1.957 1.693 8589
1.619 1.976 1.699 8586
1.626 1.985 1.695 10714
1.633 1.994 1.692 13001
1.636 1.997 1.685 10057
1.717 2.097 1.763 1172
1.652 2.016 1.690 7605
1.633 1.994 1.662 5398
1.715 2.093 1.740 2145
1.696 2.071 1.712 4555
1.615 1.971 1.634 2785
1.699 2.074 1.704 6018
1.617 1.974 1.627 1912
1.702 2.078 1.696 7482
1.620 1.978 1.620 1039
1.705 2.081 1.689 7613
1.682 2.053 1.657 7969
1.706 2.083 1.669 7509
1.789 2.184 1.745 1032
1.713 2.092 1.665 7096
1.796 2.193 1.741 1375
1.729 2.111 1.669 9170
1.812 2.212 1.744 1258
1.737 2.120 1.666 12284
1.819 2.221 1.740 1431
1.739 2.123 1.658 13686
1.835 2.241 1.743 1419
1.747 2.132 1.654 10461
1.847 2.255 1.743 1992
1.758 2.146 1.654 8254
1.854 2.264 1.738 2592
1.765 2.155 1.649 6764
1.849 2.257 1.722 3303
1.768 2.158 1.641 5683
1.852 2.260 1.714 4151
1.771 2.162 1.633 7906
1.854 2.264 1.706 4795
1.778 2.171 1.629 10253
1.862 2.273 1.701 7769
1.847 2.255 1.677 13303
1.763 2.152 1.606 6906
1.854 2.264 1.673 15558
1.770 2.161 1.602 5838
1.857 2.267 1.664 17843
1.773 2.164 1.594 2457
1.860 2.271 1.656 15236
1.776 2.168 1.586 1510
1.858 2.269 1.644 11511
1.943 2.372 1.714 2299
1.857 2.266 1.632 10254
1.941 2.370 1.701 3325
1.868 2.281 1.631 10186
1.953 2.384 1.700 3869
1.875 2.290 1.626 10182
1.960 2.393 1.695 4401
1.883 2.298 1.621 9666
1.968 2.402 1.689 3648
1.885 2.302 1.613 8011
1.971 2.406 1.680 3111
1.888 2.305 1.604 4974
1.973 2.409 1.671 3125
1.949 2.380 1.641 4073
1.864 2.275 1.574 2030
1.979 2.416 1.654 4865
2.064 2.520 1.720 2637
1.982 2.419 1.645 5786
2.067 2.524 1.711 3263
1.985 2.423 1.636 5516
2.070 2.527 1.701 2862
1.987 2.426 1.627 4777
2.073 2.531 1.692 3129
2.072 2.529 1.679 5850
1.986 2.424 1.614 3312
2.074 2.532 1.670 8299
1.988 2.427 1.605 2844
2.086 2.547 1.667 10810
2.000 2.442 1.603 3045
2.094 2.556 1.661 13010
2.007 2.450 1.597 1874
2.101 2.565 1.655 9352
2.187 2.670 1.718 1529
2.136 2.607 1.669 8718
2.049 2.501 1.606 1416
2.116 2.583 1.642 8084
2.202 2.689 1.705 1203
2.128 2.597 1.639 8492
2.214 2.703 1.702 1428
2.139 2.612 1.636 7073
2.226 2.718 1.698 2384
2.151 2.626 1.633 6272
2.238 2.733 1.694 2004
2.177 2.658 1.639 7504
2.189 2.672 1.636 9483
2.192 2.676 1.626 6089
2.231 2.724 1.641 4995
2.230 2.722 1.628 5950
2.317 2.829 1.687 1277
2.232 2.725 1.618 5644
2.320 2.832 1.677 1478
2.267 2.768 1.629 4163
2.180 2.661 1.571 1055
2.275 2.777 1.622 4197
2.363 2.884 1.680 1947
2.328 2.842 1.645 6548
2.240 2.735 1.587 1796
2.327 2.840 1.632 6307
2.415 2.948 1.689 1451
2.306 2.815 1.606 4459
2.394 2.923 1.663 3116
2.309 2.818 1.596 3747
2.397 2.926 1.652 2991
2.395 2.924 1.638 3975
2.307 2.816 1.582 2943
2.403 2.933 1.630 5144
2.314 2.825 1.575 2116
2.396 2.925 1.614 4897
2.485 3.033 1.669 2205
2.389 2.917 1.597 5128
2.478 3.025 1.652 3340
2.481 3.029 1.641 4947
2.392 2.920 1.586 4700
2.488 3.038 1.632 5574
2.399 2.929 1.578 2668
2.486 3.035 1.618 5910
2.397 2.927 1.564 1146
2.480 3.027 1.601 7697
2.569 3.136 1.654 1785
2.483 3.031 1.590 6723
2.572 3.139 1.643 2829
2.542 3.103 1.612 5659
2.452 2.994 1.559 1390
2.549 3.112 1.603 7490
2.638 3.221 1.655 1633
2.561 3.127 1.597 5919
2.674 3.265 1.662 2853
2.602 3.176 1.607 5464
2.691 3.285 1.658 3259
2.576 3.145 1.579 4688
2.685 3.277 1.640 4199
2.583 3.154 1.570 3641
2.692 3.286 1.631 3434
2.624 3.203 1.579 3081
2.714 3.313 1.629 2448
2.702 3.299 1.609 2679
2.612 3.189 1.559 2299
2.705 3.302 1.597 3653
2.615 3.192 1.547 2339
2.698 3.294 1.579 3454
2.803 3.421 1.636 2194
2.805 3.425 1.623 2704
2.696 3.291 1.564 2378
2.808 3.428 1.610 3273
2.708 3.306 1.557 1407
2.816 3.437 1.600 2631
2.906 3.547 1.647 1179
2.847 3.475 1.602 2985
2.756 3.365 1.555 1644
2.854 3.484 1.591 4221
2.978 3.636 1.655 1938
2.852 3.482 1.576 3729
2.981 3.639 1.642 2921
2.936 3.584 1.604 5081
2.845 3.473 1.558 2371
2.934 3.582 1.588 5361
3.025 3.693 1.634 3043
2.956 3.608 1.584 3055
3.047 3.719 1.629 2352
3.064 3.740 1.623 2759
2.968 3.623 1.576 2622
3.071 3.749 1.611 3475
2.980 3.638 1.567 1827
3.084 3.764 1.602 2771
3.175 3.876 1.645 1587
3.178 3.879 1.631 2982
3.034 3.703 1.562 1909
3.180 3.883 1.616 4018
3.046 3.718 1.553 1194
3.207 3.915 1.613 3884
3.116 3.804 1.571 1395
3.224 3.936 1.605 4512
3.133 3.824 1.563 1282
3.227 3.939 1.590 3383
3.135 3.828 1.549 1481
3.225 3.937 1.573 2623
3.317 4.049 1.615 1317
3.232 3.946 1.561 3137
3.324 4.058 1.602 1432
3.288 4.014 1.570 3910
3.196 3.902 1.529 1228
3.300 4.029 1.559 3884
3.209 3.917 1.519 1440
3.327 4.062 1.554 3159
3.235 3.950 1.515 1187
3.373 4.118 1.557 3376
3.281 4.006 1.518 2278
3.381 4.127 1.544 3373
3.289 4.015 1.505 2241
3.383 4.130 1.529 3280
3.476 4.243 1.567 1994
3.444 4.205 1.537 4426
3.551 4.335 1.581 2686
3.452 4.214 1.523 5938
3.544 4.326 1.561 4802
3.552 4.336 1.547 8116
3.454 4.217 1.508 4759
3.559 4.345 1.532 7347
3.467 4.232 1.496 2666
3.566 4.354 1.518 5631
3.693 4.508 1.567 2875
3.574 4.363 1.504 5721
3.764 4.595 1.577 2376
3.776 4.610 1.563 3990
3.567 4.354 1.484 3686
3.779 4.613 1.546 3135
3.681 4.494 1.509 2685
3.718 4.539 1.505 3250
3.811 4.652 1.540 1564
3.735 4.560 1.494 2731
3.848 4.697 1.535 1761
3.752 4.581 1.482 2687
3.855 4.706 1.519 2390
3.862 4.715 1.503 1986
3.970 4.847 1.542 1935
4.080 4.981 1.561 2457
3.914 4.778 1.503 2199
4.083 4.984 1.543 2163
3.985 4.865 1.509 1780
4.081 4.982 1.522 2209
3.988 4.868 1.490 1516
4.078 4.979 1.502 2449
4.240 5.176 1.557 1544
4.243 5.180 1.537 2115
4.066 4.964 1.478 1674
4.241 5.177 1.516 2214
4.128 5.039 1.479 1894
4.430 5.408 1.557 2560
4.243 5.180 1.497 2043
4.437 5.417 1.538 4608
4.255 5.195 1.481 1796
4.440 5.420 1.518 5686
4.558 5.564 1.555 1780
4.447 5.429 1.499 5609
4.561 5.567 1.534 2964
4.450 5.432 1.479 6284
4.563 5.571 1.513 4612
4.452 5.435 1.459 5969
4.566 5.574 1.493 4952
4.568 5.577 1.472 4397
4.460 5.444 1.440 4263
4.733 5.778 1.498 4449
4.571 5.580 1.451 4281
4.736 5.782 1.476 4546
4.573 5.583 1.430 3762
4.743 5.791 1.456 3944
4.575 5.586 1.409 2427
4.741 5.787 1.433 3281
4.647 5.673 1.407 1460
4.743 5.790 1.411 2546
5.094 6.219 1.506 1658
5.097 6.222 1.483 1875
4.746 5.793 1.389 1838
5.040 6.153 1.444 1697
5.174 6.316 1.479 1504
5.453 6.657 1.526 1750
5.037 6.149 1.420 1717
5.268 6.430 1.454 1724
5.451 6.654 1.500 1590
5.265 6.427 1.428 2100
5.463 6.669 1.477 1616
5.262 6.424 1.403 1700
5.461 6.666 1.451 1626
5.652 6.899 1.471 1515
5.463 6.669 1.426 1392
5.480 6.690 1.404 1783
5.654 6.902 1.445 1740
5.483 6.693 1.379 1822
5.647 6.893 1.417 1461
5.480 6.690 1.353 1027
5.659 6.908 1.393 1003
1.435 1.741 1.717 4439
1.438 1.745 1.711 8878
1.516 1.839 1.798 1428
1.441 1.748 1.704 8878
1.519 1.843 1.791 1493
1.493 1.812 1.753 8235
1.415 1.717 1.666 3383
1.500 1.820 1.750 10058
1.422 1.725 1.664 2747
1.508 1.829 1.748 8595
1.429 1.734 1.662 2673
1.523 1.848 1.755 8157
1.444 1.752 1.669 2829
1.526 1.851 1.748 8157
1.447 1.756 1.663 2638
1.525 1.850 1.737 6923
1.446 1.754 1.652 1324
1.528 1.854 1.730 5698
1.531 1.857 1.723 4240
1.534 1.861 1.716 2782
1.537 1.864 1.709 3263
1.544 1.873 1.707 3844
1.563 1.897 1.717 5438
1.566 1.900 1.710 7700
1.569 1.904 1.703 7701
1.576 1.913 1.701 8022
1.579 1.916 1.693 8606
1.660 2.014 1.775 1014
1.586 1.925 1.691 7944
1.606 1.949 1.700 8904
1.614 1.958 1.697 8913
1.625 1.971 1.699 9182
1.632 1.980 1.695 11101
1.639 1.989 1.692 13277
1.642 1.992 1.685 10032
1.724 2.091 1.763 1187
1.662 2.017 1.694 8095
1.661 2.015 1.682 5724
1.638 1.987 1.650 4957
1.720 2.087 1.728 2784
1.701 2.064 1.700 5399
1.619 1.964 1.623 1819
1.704 2.067 1.692 6325
1.711 2.076 1.689 6741
1.629 1.976 1.612 1138
1.723 2.090 1.689 7288
1.713 2.078 1.669 6624
1.795 2.178 1.745 1125
1.720 2.087 1.665 6268
1.803 2.187 1.741 1446
1.740 2.111 1.673 9211
1.743 2.115 1.666 13157
1.839 2.231 1.752 1091
1.746 2.118 1.658 14409
1.851 2.246 1.751 1556
1.753 2.127 1.654 11045
1.858 2.255 1.747 2463
1.765 2.141 1.654 8469
1.861 2.258 1.738 3309
1.772 2.150 1.649 6787
1.855 2.251 1.722 4185
1.779 2.158 1.645 5646
1.863 2.260 1.718 4992
1.777 2.156 1.633 7265
1.861 2.258 1.706 5282
1.785 2.165 1.629 9357
1.869 2.267 1.701 7281
1.854 2.249 1.677 12415
1.770 2.147 1.606 6362
1.861 2.258 1.673 14557
1.777 2.156 1.602 5581
1.864 2.261 1.664 16878
1.779 2.159 1.594 2408
1.867 2.265 1.656 14290
1.951 2.368 1.726 1330
1.865 2.263 1.644 10224
1.950 2.366 1.714 2674
1.863 2.261 1.632 8709
1.948 2.364 1.701 4208
1.875 2.275 1.631 8522
1.960 2.378 1.700 4733
1.882 2.284 1.626 8405
1.968 2.387 1.695 5246
1.890 2.293 1.621 8039
1.975 2.396 1.689 4444
1.897 2.301 1.616 6548
1.982 2.405 1.684 3064
1.904 2.310 1.611 3765
2.003 2.430 1.689 2834
1.974 2.396 1.655 3727
1.889 2.292 1.588 2347
1.986 2.410 1.654 4940
2.072 2.514 1.720 2162
1.994 2.419 1.648 6261
2.080 2.523 1.714 2603
1.996 2.422 1.639 6061
2.082 2.527 1.705 2640
1.999 2.426 1.630 5253
2.085 2.530 1.695 2730
2.079 2.523 1.679 5145
1.993 2.418 1.614 3849
2.082 2.526 1.670 7482
1.996 2.421 1.605 3540
2.094 2.540 1.667 9642
2.007 2.436 1.603 3483
2.101 2.549 1.661 12097
2.015 2.444 1.597 2159
2.109 2.558 1.655 9376
2.195 2.664 1.718 1435
2.144 2.601 1.669 8984
2.057 2.495 1.606 1032
2.123 2.576 1.642 8679
2.135 2.591 1.639 9318
2.223 2.696 1.702 1558
2.147 2.605 1.636 7804
2.235 2.711 1.698 2888
2.159 2.620 1.633 6901
2.247 2.726 1.694 2566
2.185 2.651 1.639 7039
2.197 2.666 1.636 8962
2.205 2.675 1.629 6043
2.240 2.717 1.641 5186
2.152 2.611 1.581 1017
2.242 2.721 1.631 5717
2.330 2.827 1.690 1498
2.241 2.718 1.618 5118
2.329 2.825 1.677 1941
2.276 2.761 1.629 3740
2.188 2.654 1.571 1329
2.334 2.832 1.656 4786
2.246 2.725 1.598 2206
2.337 2.835 1.645 8327
2.249 2.728 1.587 1864
2.340 2.839 1.635 7913
2.428 2.946 1.692 1074
2.380 2.887 1.648 4434
2.291 2.780 1.591 2605
2.401 2.913 1.649 4188
2.313 2.806 1.593 3200
2.385 2.894 1.626 5378
2.297 2.786 1.570 1535
2.379 2.886 1.610 6217
2.468 2.994 1.666 2432
2.372 2.878 1.593 5483
2.480 3.009 1.660 2998
2.394 2.904 1.594 5864
2.487 3.018 1.652 3411
2.396 2.907 1.583 5978
2.490 3.021 1.641 4874
2.498 3.030 1.632 5544
2.408 2.922 1.578 3270
2.529 3.068 1.638 5179
