2.192 2.153 1.684 5606
2.096 2.059 1.615 1270
2.195 2.156 1.675 5437
2.291 2.250 1.743 1552
2.208 2.169 1.673 5461
2.304 2.263 1.741 1506
2.217 2.177 1.668 4496
2.313 2.271 1.735 1621
2.245 2.205 1.677 4290
2.341 2.299 1.744 1367
2.253 2.213 1.671 4631
2.350 2.308 1.738 2542
2.302 2.261 1.693 5948
2.206 2.167 1.627 2002
2.310 2.269 1.688 7967
2.214 2.175 1.622 2244
2.309 2.268 1.675 8670
2.405 2.362 1.740 2261
2.312 2.271 1.665 7098
2.409 2.366 1.731 2979
2.346 2.304 1.677 4948
2.442 2.399 1.741 3122
2.344 2.302 1.664 4372
2.441 2.397 1.728 3552
2.403 2.360 1.691 4818
2.296 2.255 1.621 2123
2.427 2.384 1.695 8186
2.314 2.273 1.622 1543
2.435 2.392 1.689 10562
2.443 2.400 1.682 11592
2.341 2.299 1.616 1184
2.452 2.408 1.675 10454
2.344 2.302 1.607 1294
2.455 2.411 1.666 6200
2.553 2.507 1.727 1496
2.463 2.420 1.659 4267
2.561 2.516 1.720 1474
2.472 2.428 1.652 4080
2.570 2.524 1.713 1007
2.495 2.451 1.655 3261
2.550 2.505 1.677 3977
2.554 2.508 1.666 6507
2.552 2.506 1.653 7753
2.555 2.509 1.643 8047
2.653 2.606 1.702 1051
2.553 2.507 1.629 6795
2.651 2.604 1.688 2599
2.613 2.566 1.653 6085
2.514 2.469 1.594 2104
2.606 2.559 1.636 7520
2.705 2.657 1.694 2687
2.593 2.547 1.616 7283
2.713 2.665 1.686 3625
2.654 2.606 1.639 6070
2.554 2.509 1.582 1272
2.667 2.620 1.634 6755
2.568 2.522 1.578 1160
2.681 2.633 1.629 6374
2.780 2.731 1.686 1547
2.705 2.657 1.630 6227
2.805 2.755 1.686 1361
2.755 2.706 1.646 5110
2.645 2.598 1.584 2152
2.758 2.709 1.635 4861
2.659 2.611 1.580 1051
2.772 2.723 1.629 5894
2.872 2.821 1.684 1455
2.780 2.731 1.621 6625
2.881 2.829 1.675 1866
2.847 2.796 1.644 6468
2.747 2.698 1.590 1398
2.861 2.810 1.638 6153
2.760 2.711 1.584 1322
2.874 2.823 1.632 5561
2.774 2.724 1.579 1408
2.867 2.816 1.615 3934
2.859 2.808 1.597 3690
3.008 2.954 1.674 1036
2.878 2.827 1.594 3890
3.005 2.952 1.659 1447
2.886 2.835 1.585 3582
2.987 2.934 1.636 1833
3.017 2.963 1.638 3175
2.884 2.833 1.571 2627
3.031 2.977 1.631 4502
2.892 2.841 1.562 1965
3.002 2.948 1.603 3781
3.151 3.095 1.676 1831
2.989 2.936 1.583 3842
3.154 3.098 1.664 3068
3.163 3.106 1.654 4149
2.987 2.933 1.568 3365
3.177 3.120 1.646 4171
3.000 2.947 1.561 2012
3.190 3.134 1.638 4204
3.046 2.992 1.569 1916
3.247 3.189 1.651 5121
3.124 3.068 1.592 1985
3.250 3.192 1.637 5354
3.122 3.066 1.577 1565
3.285 3.227 1.639 4011
3.184 3.127 1.592 2656
3.321 3.262 1.641 4711
3.203 3.146 1.586 2317
3.345 3.286 1.637 4514
3.243 3.186 1.591 3040
3.359 3.299 1.628 4057
3.246 3.189 1.577 2367
3.395 3.334 1.629 4234
3.292 3.234 1.583 2810
3.403 3.343 1.618 4531
3.301 3.242 1.573 2779
3.395 3.335 1.599 4351
3.293 3.234 1.554 1152
3.404 3.343 1.588 5781
3.407 3.346 1.574 9065
3.410 3.349 1.560 9617
3.424 3.363 1.551 5388
3.427 3.366 1.537 2398
3.419 3.358 1.519 3544
3.421 3.361 1.505 5839
3.430 3.369 1.493 10018
3.533 3.470 1.534 1111
3.433 3.371 1.479 10288
3.721 3.654 1.593 1211
3.430 3.369 1.463 7628
3.724 3.657 1.578 1520
3.433 3.371 1.449 5592
3.721 3.655 1.561 2023
3.430 3.369 1.433 4379
3.724 3.658 1.546 2141
3.433 3.371 1.420 4782
3.929 3.859 1.607 2019
3.441 3.379 1.408 3189
3.921 3.851 1.587 2445
3.924 3.854 1.571 2342
3.547 3.484 1.432 1559
4.102 4.029 1.619 3122
3.927 3.857 1.555 2340
4.099 4.026 1.600 3082
4.296 4.220 1.671 1868
4.300 4.223 1.654 3736
4.097 4.024 1.582 2251
4.297 4.221 1.634 6137
4.105 4.032 1.567 1879
4.300 4.224 1.617 9015
4.169 4.094 1.571 1784
4.298 4.221 1.598 10618
4.177 4.103 1.556 1442
4.306 4.230 1.582 10808
4.180 4.106 1.539 1198
4.309 4.233 1.564 10290
4.425 4.346 1.603 1457
4.312 4.236 1.547 8002
4.428 4.349 1.585 2413
4.315 4.238 1.529 5257
4.458 4.379 1.576 3710
4.472 4.393 1.561 4543
4.329 4.252 1.516 2914
4.536 4.455 1.562 4009
4.663 4.580 1.603 2259
4.533 4.453 1.542 4746
4.660 4.577 1.582 3609
4.669 4.585 1.565 4900
4.536 4.455 1.524 4520
4.671 4.588 1.546 5245
4.539 4.458 1.506 3376
4.680 4.597 1.528 4842
4.542 4.461 1.487 2929
4.683 4.599 1.509 3594
4.882 4.795 1.568 2374
4.885 4.798 1.548 2800
4.691 4.608 1.492 1874
4.949 4.860 1.546 1684
5.095 5.005 1.567 1853
4.940 4.852 1.523 1623
5.104 5.013 1.547 2718
4.921 4.833 1.497 1629
5.112 5.021 1.528 2691
5.218 5.125 1.557 1845
5.237 5.144 1.540 2556
5.104 5.013 1.504 2257
5.246 5.152 1.520 2787
5.112 5.021 1.485 1984
5.293 5.199 1.511 2873
5.187 5.095 1.483 1756
5.296 5.201 1.489 2077
5.485 5.387 1.538 1877
5.382 5.286 1.489 2533
5.488 5.390 1.515 2063
5.502 5.404 1.496 2261
5.679 5.578 1.540 1783
5.504 5.406 1.474 2191
5.671 5.570 1.514 1953
5.502 5.404 1.450 2117
5.696 5.595 1.497 2038
5.705 5.603 1.475 2892
5.877 5.773 1.516 2283
5.707 5.606 1.452 3469
5.875 5.770 1.490 2586
6.050 5.943 1.506 2559
5.705 5.603 1.427 2466
6.053 5.945 1.481 2492
5.886 5.781 1.444 1693
6.045 5.937 1.454 2618
5.900 5.795 1.422 1315
6.036 5.929 1.427 3307
6.421 6.307 1.510 1366
6.044 5.937 1.404 2982
6.452 6.337 1.490 1774
6.042 5.934 1.378 1834
6.438 6.324 1.460 1420
6.413 6.299 1.428 1743
6.055 5.947 1.356 1654
6.410 6.296 1.401 1734
6.069 5.961 1.333 1712
6.418 6.304 1.376 1433
6.636 6.518 1.418 1404
6.639 6.521 1.391 1201
6.432 6.318 1.352 1082
1.615 1.576 1.717 3405
1.618 1.579 1.711 6811
1.706 1.665 1.798 1298
1.621 1.583 1.704 6811
1.709 1.668 1.791 1395
1.629 1.590 1.703 5160
1.717 1.676 1.789 2388
1.698 1.657 1.760 5384
1.609 1.571 1.673 2581
1.706 1.665 1.757 4836
1.617 1.579 1.671 2321
1.746 1.704 1.787 6067
1.653 1.613 1.696 2491
1.750 1.708 1.780 6067
1.656 1.617 1.690 2491
1.758 1.716 1.777 6557
1.669 1.629 1.692 2873
1.761 1.719 1.770 7182
1.672 1.632 1.686 3272
1.760 1.718 1.759 7570
1.671 1.631 1.674 2381
1.763 1.721 1.752 8182
1.674 1.634 1.668 2140
1.771 1.729 1.749 6750
1.682 1.642 1.666 1623
1.794 1.751 1.759 6571
1.704 1.663 1.676 1495
1.792 1.749 1.748 6951
1.702 1.662 1.665 1418
1.781 1.739 1.728 6932
1.691 1.651 1.645 1255
1.775 1.733 1.712 6513
1.865 1.821 1.794 1220
1.783 1.741 1.709 7074
1.874 1.829 1.791 1804
1.791 1.748 1.706 8044
1.882 1.837 1.787 2312
1.799 1.756 1.703 6329
1.890 1.845 1.784 2428
1.807 1.764 1.700 4906
1.898 1.853 1.781 2361
1.878 1.833 1.752 4474
1.787 1.744 1.672 2471
1.876 1.831 1.740 5213
1.785 1.742 1.661 1945
1.875 1.830 1.729 5132
1.783 1.741 1.650 1498
1.878 1.833 1.721 5080
1.786 1.744 1.642 1372
1.886 1.841 1.718 5902
1.722 1.681 1.577 1417
1.894 1.849 1.714 6926
1.730 1.688 1.575 1714
1.893 1.848 1.703 5984
1.985 1.938 1.781 1884
1.920 1.874 1.716 5485
1.736 1.694 1.561 1778
1.929 1.882 1.712 7451
1.739 1.697 1.554 1657
1.937 1.890 1.708 9519
1.742 1.700 1.547 1304
1.945 1.898 1.705 9334
2.038 1.989 1.781 1220
1.953 1.906 1.701 9463
2.046 1.997 1.777 1202
1.956 1.909 1.693 6504
2.049 2.000 1.768 1476
1.969 1.922 1.693 3687
2.063 2.013 1.768 1294
1.977 1.930 1.689 3647
2.071 2.021 1.764 1895
2.050 2.001 1.736 4304
1.956 1.909 1.662 2188
2.053 2.004 1.728 4398
1.959 1.912 1.654 2022
2.046 1.997 1.712 4605
1.953 1.906 1.638 1131
2.045 1.996 1.700 5034
2.053 2.004 1.695 6060
2.056 2.007 1.687 7146
2.151 2.099 1.760 1499
2.069 2.020 1.687 6406
2.164 2.112 1.759 1295
2.107 2.057 1.705 5841
2.121 2.070 1.704 7426
2.134 2.083 1.703 5946
2.039 1.990 1.632 1340
2.142 2.091 1.698 4762
2.047 1.998 1.627 1769
2.145 2.094 1.689 4408
2.050 2.001 1.619 1290
2.134 2.083 1.670 4438
2.229 2.176 1.739 1619
2.197 2.145 1.705 4896
2.102 2.051 1.636 2696
2.195 2.143 1.692 4976
2.100 2.050 1.624 2313
2.199 2.146 1.684 4990
2.103 2.053 1.615 1629
2.202 2.149 1.675 4880
2.298 2.243 1.743 1717
2.215 2.162 1.673 4816
2.311 2.256 1.741 1788
2.228 2.175 1.671 4161
2.325 2.269 1.739 1585
2.257 2.203 1.680 5097
2.353 2.297 1.747 1704
2.265 2.211 1.675 5646
2.362 2.305 1.741 2740
2.309 2.254 1.693 6719
2.213 2.160 1.627 1753
2.318 2.262 1.688 8020
2.221 2.168 1.622 1651
2.316 2.260 1.675 8473
2.413 2.355 1.740 2285
2.319 2.263 1.665 6887
2.416 2.358 1.731 3265
2.383 2.326 1.697 4768
2.286 2.232 1.632 4472
2.376 2.320 1.681 4035
2.279 2.225 1.616 3260
2.405 2.348 1.688 4983
2.308 2.253 1.624 2354
2.439 2.381 1.698 8033
2.342 2.286 1.635 1960
2.448 2.389 1.692 10400
2.350 2.294 1.629 1434
2.451 2.392 1.682 11073
2.353 2.297 1.619 1621
2.459 2.401 1.675 9730
2.361 2.305 1.613 1479
2.457 2.399 1.662 5632
2.555 2.494 1.724 1711
2.450 2.392 1.646 3669
2.548 2.488 1.707 2601
2.469 2.410 1.646 3477
2.567 2.506 1.707 1355
2.529 2.469 1.671 2574
2.548 2.487 1.670 3411
2.556 2.495 1.663 5220
2.559 2.498 1.653 6042
2.557 2.496 1.640 6570
2.656 2.593 1.699 1335
2.560 2.499 1.629 5587
2.660 2.596 1.688 2090
2.621 2.558 1.653 5447
2.522 2.461 1.594 1800
2.619 2.556 1.639 6872
2.724 2.658 1.700 2740
2.606 2.544 1.619 6429
2.722 2.656 1.686 3663
2.662 2.598 1.639 6290
2.761 2.695 1.696 1405
2.675 2.612 1.634 6956
2.775 2.709 1.691 1167
2.689 2.625 1.629 6753
2.789 2.722 1.686 1809
2.708 2.643 1.627 6699
2.808 2.741 1.683 1843
2.716 2.651 1.619 4560
2.816 2.749 1.675 2014
2.777 2.711 1.640 3414
2.677 2.613 1.585 1022
2.833 2.766 1.658 5419
2.733 2.668 1.603 1307
2.842 2.774 1.649 7019
2.856 2.787 1.644 6422
2.755 2.689 1.590 1526
2.864 2.796 1.635 5162
2.878 2.809 1.629 4522
2.865 2.796 1.609 4354
2.863 2.794 1.595 4203
3.011 2.939 1.671 1019
2.882 2.813 1.591 3666
3.015 2.943 1.659 1442
2.890 2.821 1.582 3340
3.012 2.940 1.644 1824
3.037 2.964 1.643 3254
2.893 2.824 1.571 2668
3.040 2.967 1.631 4713
2.896 2.827 1.559 2011
3.011 2.939 1.603 5198
3.123 3.049 1.658 1884
3.009 2.937 1.588 4307
3.159 3.083 1.661 3071
3.172 3.097 1.654 4235
3.006 2.935 1.573 2618
3.186 3.110 1.646 3898
3.004 2.932 1.559 1683
3.200 3.124 1.638 3619
3.055 2.982 1.569 1556
3.257 3.179 1.651 4677
3.155 3.080 1.603 2285
3.265 3.187 1.640 4950
3.163 3.088 1.592 1820
3.295 3.217 1.639 4355
3.193 3.117 1.592 2477
3.331 3.251 1.641 4548
3.207 3.130 1.584 2319
3.345 3.265 1.632 4636
3.242 3.165 1.586 2153
3.370 3.289 1.628 3559
3.251 3.173 1.575 1701
3.410 3.329 1.631 4528
3.308 3.229 1.586 1949
3.414 3.332 1.618 4378
3.311 3.232 1.573 1473
3.406 3.324 1.599 3927
3.414 3.333 1.588 5184
3.417 3.336 1.574 8414
3.426 3.344 1.562 9508
3.434 3.352 1.551 5973
3.475 3.392 1.553 2726
3.429 3.347 1.519 3392
3.532 3.448 1.561 1112
3.432 3.350 1.505 7163
3.563 3.477 1.557 1121
3.440 3.358 1.493 10829
3.549 3.464 1.537 1446
3.448 3.366 1.481 9623
3.732 3.643 1.593 1624
3.451 3.369 1.468 5991
3.735 3.646 1.578 1866
3.454 3.371 1.454 5023
3.738 3.649 1.563 2337
3.451 3.369 1.438 3358
3.741 3.652 1.548 2419
3.448 3.366 1.422 2412
3.563 3.478 1.465 2132
3.944 3.850 1.591 2489
3.561 3.476 1.448 2187
4.128 4.029 1.641 2535
3.947 3.853 1.575 2130
4.125 4.027 1.623 4759
3.961 3.866 1.563 2046
4.128 4.030 1.606 4767
4.304 4.201 1.669 2525
4.307 4.204 1.652 5086
4.131 4.033 1.589 3675
4.310 4.207 1.634 7664
4.123 4.025 1.569 2956
4.313 4.210 1.617 10906
4.148 4.049 1.560 1684
4.311 4.208 1.598 13103
3.546 3.461 1.336 1258
4.320 4.216 1.582 13668
3.549 3.464 1.322 1257
4.323 4.219 1.564 12656
4.438 4.332 1.603 1778
4.325 4.222 1.547 9637
4.436 4.330 1.583 2755
4.328 4.225 1.529 6399
4.477 4.370 1.578 3563
4.486 4.379 1.561 4437
4.337 4.233 1.514 3588
4.544 4.436 1.561 4796
4.682 4.570 1.604 2225
4.547 4.438 1.542 5728
4.680 4.568 1.584 3842
4.688 4.576 1.566 6116
4.556 4.447 1.526 5314
4.686 4.574 1.546 7078
4.558 4.449 1.507 3981
4.694 4.582 1.528 6512
4.556 4.447 1.487 3381
4.697 4.585 1.509 4540
4.963 4.845 1.588 2186
4.700 4.588 1.490 2187
4.900 4.783 1.548 2093
4.969 4.850 1.548 1880
4.708 4.596 1.473 1072
4.978 4.859 1.529 1677
5.089 4.967 1.560 1652
5.119 4.997 1.547 2284
5.003 4.883 1.515 1461
5.122 5.000 1.527 2359
5.295 5.168 1.574 1926
5.264 5.139 1.543 2670
5.114 4.992 1.503 2160
5.262 5.136 1.520 2940
5.128 5.006 1.485 1923
5.309 5.182 1.511 2705
5.203 5.079 1.483 2162
5.318 5.190 1.491 1925
5.496 5.364 1.536 1857
5.398 5.269 1.489 2430
5.504 5.373 1.515 1881
5.329 5.201 1.449 1867
5.697 5.561 1.540 1795
5.711 5.574 1.520 2421
5.901 5.760 1.566 2026
5.708 5.572 1.495 2577
5.898 5.757 1.541 2465
5.717 5.580 1.473 2948
5.901 5.760 1.517 2708
5.719 5.583 1.450 3099
5.893 5.752 1.490 2879
5.895 5.754 1.466 2891
6.074 5.929 1.507 2390
5.898 5.757 1.443 2286
6.094 5.948 1.486 2120
6.063 5.918 1.454 1908
5.918 5.776 1.422 1744
6.055 5.910 1.427 2402
5.926 5.784 1.399 1543
6.057 5.913 1.403 1886
6.472 6.317 1.490 1651
6.430 6.276 1.454 1449
6.060 5.915 1.378 1198
6.433 6.279 1.428 1920
6.079 5.934 1.357 1222
6.430 6.276 1.401 1888
6.087 5.942 1.333 1282
6.443 6.289 1.377 1582
6.657 6.498 1.418 1228
6.452 6.297 1.352 1240
6.654 6.495 1.390 1116
1.620 1.571 1.717 3176
1.623 1.575 1.711 6352
1.711 1.660 1.798 1605
1.626 1.578 1.704 6352
1.714 1.663 1.791 1724
1.634 1.585 1.703 5250
1.722 1.671 1.789 2773
1.707 1.656 1.764 5723
1.619 1.571 1.678 3382
1.720 1.669 1.766 5213
1.631 1.583 1.680 3298
1.751 1.699 1.787 7452
1.639 1.590 1.678 2698
1.755 1.703 1.780 7452
1.661 1.612 1.690 2661
1.763 1.710 1.777 8075
1.674 1.624 1.692 2797
1.766 1.714 1.770 8889
1.677 1.627 1.686 3089
1.770 1.717 1.763 9133
1.680 1.630 1.679 2679
1.768 1.716 1.752 9493
1.679 1.629 1.668 1813
1.777 1.724 1.749 7957
1.687 1.636 1.666 1454
1.799 1.745 1.759 7781
1.709 1.658 1.676 1572
1.797 1.744 1.748 8226
1.707 1.656 1.665 1251
1.787 1.733 1.728 8171
1.696 1.646 1.645 1013
1.780 1.727 1.712 7647
1.690 1.639 1.630 1012
1.788 1.735 1.709 8328
1.879 1.823 1.791 1695
1.796 1.743 1.706 9572
1.887 1.831 1.787 2303
1.809 1.755 1.708 7870
1.900 1.844 1.788 2157
1.817 1.763 1.705 6869
1.909 1.852 1.785 2079
1.821 1.767 1.697 5071
1.720 1.668 1.609 2091
1.877 1.821 1.736 5671
1.723 1.671 1.602 2127
1.875 1.820 1.725 5373
1.726 1.674 1.595 2021
1.879 1.823 1.717 5173
1.729 1.677 1.588 1914
1.892 1.835 1.718 5116
1.737 1.685 1.586 1435
1.905 1.848 1.719 5719
1.997 1.938 1.797 1252
1.903 1.847 1.707 5409
1.996 1.936 1.785 1665
1.926 1.869 1.716 5214
1.746 1.694 1.565 1360
1.934 1.877 1.712 7660
1.749 1.697 1.558 1735
1.937 1.880 1.704 10215
1.757 1.704 1.555 1932
1.946 1.888 1.701 9684
2.039 1.978 1.777 1814
1.954 1.896 1.697 9511
2.047 1.986 1.773 1848
1.962 1.904 1.693 6506
2.055 1.994 1.768 1517
1.975 1.916 1.693 3810
2.069 2.007 1.768 1051
1.978 1.919 1.685 4038
2.072 2.010 1.760 1961
1.996 1.937 1.689 4137
2.090 2.028 1.763 1731
2.014 1.954 1.693 4315
2.042 1.982 1.704 4240
2.051 1.990 1.700 4520
2.054 1.993 1.692 5601
2.148 2.084 1.764 1068
2.062 2.001 1.687 6775
2.157 2.093 1.760 1407
2.075 2.014 1.687 6101
2.170 2.106 1.759 1199
2.109 2.046 1.701 5490
2.127 2.064 1.704 6829
2.140 2.076 1.703 5173
2.148 2.085 1.698 3961
2.152 2.088 1.689 4249
2.140 2.076 1.670 5255
2.236 2.169 1.739 1729
2.143 2.079 1.661 5994
2.239 2.172 1.730 2052
2.146 2.082 1.653 5663
2.242 2.175 1.722 1811
2.205 2.139 1.684 4631
2.109 2.046 1.615 1799
2.203 2.138 1.671 4983
2.299 2.231 1.739 1914
2.217 2.151 1.670 4600
2.313 2.244 1.737 2320
2.260 2.193 1.689 4506
2.164 2.099 1.622 1573
2.264 2.196 1.680 6323
2.360 2.290 1.747 1990
2.272 2.204 1.675 7006
2.369 2.298 1.741 2825
2.311 2.242 1.690 7240
2.214 2.148 1.624 1485
2.329 2.260 1.691 7655
2.232 2.166 1.625 1565
2.322 2.253 1.675 8188
2.420 2.348 1.740 2157
2.326 2.256 1.665 7164
2.423 2.351 1.731 3350
2.396 2.324 1.700 5321
2.298 2.230 1.636 5053
2.399 2.327 1.691 5228
2.301 2.233 1.627 3902
2.407 2.336 1.685 5862
2.309 2.241 1.621 2660
2.446 2.374 1.698 8295
2.349 2.279 1.635 2521
2.455 2.382 1.692 10308
2.357 2.287 1.629 1900
2.463 2.390 1.685 10528
2.365 2.295 1.623 2091
2.461 2.388 1.672 8626
2.363 2.293 1.610 1375
2.465 2.391 1.662 4866
2.563 2.487 1.724 1714
2.457 2.384 1.646 3196
2.556 2.480 1.707 2635
2.466 2.392 1.639 3151
2.564 2.488 1.700 2144
2.474 2.400 1.633 2670
2.573 2.496 1.693 1759
2.545 2.469 1.664 3097
2.553 2.477 1.657 4113
2.562 2.485 1.650 4488
2.661 2.582 1.709 1064
2.565 2.488 1.640 5075
2.664 2.585 1.699 1739
2.563 2.486 1.626 4348
2.662 2.583 1.685 2277
2.629 2.550 1.653 4205
2.529 2.454 1.594 1555
2.627 2.548 1.639 5513
2.732 2.650 1.700 2840
2.630 2.551 1.629 5431
2.735 2.653 1.689 3601
2.670 2.590 1.639 6712
2.770 2.687 1.696 1606
2.683 2.603 1.634 7330
2.783 2.700 1.691 1379
2.692 2.612 1.626 6991
2.792 2.709 1.683 2095
2.716 2.635 1.627 6496
2.816 2.732 1.683 1890
2.724 2.643 1.619 4246
2.825 2.741 1.675 2248
2.828 2.744 1.663 3773
2.727 2.646 1.609 2623
2.842 2.757 1.658 5967
2.741 2.659 1.603 1760
2.850 2.765 1.649 7337
2.749 2.668 1.595 1481
2.859 2.774 1.641 6195
2.758 2.676 1.587 1423
2.867 2.782 1.632 4480
2.875 2.790 1.623 4316
2.977 2.888 1.676 1079
2.868 2.783 1.606 4954
2.866 2.780 1.592 4297
2.874 2.788 1.583 2817
3.023 2.933 1.659 1453
2.893 2.807 1.580 2336
3.021 2.931 1.644 2327
3.030 2.940 1.635 3300
2.901 2.815 1.571 2252
3.044 2.953 1.628 4083
3.145 3.052 1.679 1790
3.025 2.935 1.605 4399
3.138 3.044 1.661 2335
3.028 2.938 1.593 3684
3.152 3.058 1.653 3265
3.182 3.087 1.654 4178
3.053 2.962 1.591 3248
3.190 3.095 1.643 3597
3.029 2.939 1.566 2509
3.215 3.119 1.641 3353
3.113 3.020 1.592 1658
3.267 3.169 1.651 3945
3.164 3.070 1.603 2605
3.275 3.178 1.640 4535
3.173 3.078 1.592 1752
3.289 3.191 1.632 4477
3.186 3.092 1.585 1422
3.292 3.194 1.618 4720
3.189 3.095 1.572 1368
3.355 3.255 1.632 4428
3.252 3.155 1.586 1394
3.385 3.284 1.631 3315
3.271 3.174 1.580 1534
3.420 3.319 1.631 4913
3.318 3.219 1.586 1628
3.418 3.316 1.615 3747
3.315 3.216 1.570 1048
3.410 3.309 1.597 3000
3.424 3.322 1.588 4098
3.433 3.331 1.576 7204
3.441 3.339 1.565 8951
3.450 3.347 1.553 6240
3.553 3.447 1.596 1380
3.458 3.355 1.541 3106
3.562 3.456 1.584 1535
3.445 3.342 1.521 3837
3.548 3.443 1.563 1546
3.442 3.339 1.505 7278
3.578 3.472 1.560 1415
3.450 3.348 1.493 9669
3.554 3.448 1.534 1958
3.459 3.356 1.481 7973
3.645 3.536 1.554 1884
3.461 3.358 1.468 5113
3.653 3.544 1.542 2703
3.464 3.361 1.454 5089
3.749 3.637 1.563 2593
3.467 3.364 1.440 3028
3.752 3.640 1.548 2223
3.755 3.643 1.533 2454
3.579 3.473 1.467 2338
3.769 3.657 1.522 3069
3.961 3.843 1.593 3052
4.140 4.017 1.641 3546
3.964 3.846 1.577 2766
4.143 4.020 1.625 6421
3.983 3.865 1.567 2958
4.152 4.028 1.610 7568
4.317 4.188 1.669 2669
4.155 4.031 1.593 6426
4.320 4.191 1.652 5459
4.323 4.194 1.634 7800
4.152 4.029 1.575 4162
4.326 4.197 1.617 11283
4.166 4.042 1.562 2796
4.324 4.195 1.598 14033
4.169 4.045 1.545 1832
4.332 4.203 1.582 14827
3.553 3.448 1.320 1225
4.335 4.206 1.564 13339
4.451 4.319 1.603 2241
4.338 4.209 1.547 9887
4.449 4.316 1.583 3292
4.341 4.212 1.529 6682
4.446 4.314 1.563 3033
4.554 4.419 1.579 3995
4.344 4.215 1.512 3887
4.557 4.422 1.561 5021
4.696 4.556 1.604 2585
4.560 4.425 1.542 5700
4.694 4.554 1.584 4193
4.702 4.562 1.566 6620
4.569 4.433 1.526 5516
4.700 4.560 1.546 7902
4.572 4.436 1.507 4127
4.702 4.562 1.527 7478
4.564 4.428 1.485 3181
4.711 4.571 1.509 5129
4.967 4.819 1.585 2217
4.714 4.573 1.490 2353
4.975 4.827 1.566 2251
4.984 4.835 1.548 2022
4.878 4.733 1.517 1378
4.992 4.844 1.529 1701
5.104 4.952 1.560 1530
5.196 5.041 1.564 1934
5.023 4.873 1.517 1532
5.132 4.979 1.525 2119
5.310 5.152 1.574 2115
5.324 5.166 1.555 2731
5.129 4.976 1.503 2011
5.333 5.174 1.535 3210
5.227 5.071 1.507 1718
5.330 5.172 1.512 2543
5.219 5.063 1.483 2129
5.238 5.082 1.466 1804
5.411 5.250 1.511 1643
5.420 5.258 1.490 2179
5.258 5.101 1.449 1712
5.439 5.277 1.472 1964
5.719 5.549 1.542 1901
5.728 5.557 1.520 3054
5.918 5.742 1.566 2474
5.719 5.549 1.494 3261
5.921 5.745 1.542 2970
5.722 5.552 1.471 3287
5.918 5.742 1.517 2950
5.736 5.565 1.450 3002
5.916 5.739 1.492 2769
5.913 5.737 1.466 2681
5.733 5.563 1.426 2590
5.915 5.739 1.443 2386
5.736 5.565 1.403 2347
5.935 5.758 1.422 2103
5.739 5.568 1.380 1874
5.938 5.761 1.398 1883
6.140 5.957 1.441 1708
6.474 6.281 1.486 1682
6.131 5.949 1.414 1491
6.527 6.333 1.470 1450
6.364 6.175 1.437 1121
6.452 6.259 1.428 1461
6.733 6.532 1.485 1174
6.449 6.257 1.401 1628
6.462 6.270 1.377 1516
6.676 6.478 1.418 1034
6.471 6.278 1.352 1136
6.679 6.480 1.391 1016
1.629 1.561 1.717 2580
1.633 1.564 1.711 5160
1.721 1.649 1.798 2064
1.636 1.568 1.704 5160
1.725 1.652 1.791 2204
1.644 1.575 1.703 5578
1.733 1.660 1.789 3245
1.717 1.646 1.764 6394
1.628 1.560 1.678 4940
1.735 1.662 1.771 6467
1.646 1.577 1.685 5156
1.762 1.688 1.787 9210
1.640 1.571 1.669 4550
1.765 1.692 1.780 9210
1.648 1.579 1.667 4423
1.774 1.699 1.777 9825
1.646 1.577 1.657 3183
1.777 1.703 1.770 10717
1.687 1.617 1.686 2685
1.780 1.706 1.763 10067
1.690 1.620 1.679 2213
1.784 1.709 1.756 9417
1.656 1.586 1.637 1800
1.787 1.713 1.749 8167
1.659 1.589 1.630 1449
1.810 1.734 1.759 8137
1.719 1.647 1.676 1382
1.799 1.724 1.739 9123
1.793 1.718 1.723 10869
1.791 1.716 1.712 10658
1.799 1.724 1.709 11440
1.890 1.811 1.791 1436
1.807 1.732 1.706 13217
1.899 1.819 1.787 1923
1.820 1.744 1.708 11112
1.912 1.832 1.788 2222
1.833 1.757 1.709 10521
1.732 1.659 1.620 2370
1.837 1.760 1.702 7491
1.730 1.658 1.609 2572
1.874 1.795 1.724 6064
1.733 1.661 1.602 2864
1.877 1.799 1.716 6105
1.736 1.664 1.595 3043
1.880 1.802 1.709 6146
1.739 1.667 1.588 3222
1.898 1.819 1.714 4843
1.742 1.670 1.582 3218
1.916 1.836 1.719 5000
1.745 1.672 1.575 3214
1.915 1.835 1.707 4863
1.748 1.675 1.568 2596
1.938 1.857 1.716 4940
1.751 1.678 1.561 1979
1.946 1.865 1.712 7501
1.759 1.686 1.558 1608
1.949 1.868 1.704 10118
2.043 1.957 1.781 1997
1.957 1.876 1.701 9176
2.051 1.965 1.777 1980
1.966 1.883 1.697 8548
2.059 1.973 1.773 2080
1.974 1.891 1.693 5906
2.068 1.981 1.768 1536
1.987 1.904 1.693 3802
1.995 1.912 1.689 4432
2.089 2.002 1.764 1333
2.003 1.920 1.685 4854
2.098 2.010 1.759 1878
2.037 1.951 1.701 5210
2.050 1.964 1.700 5061
2.058 1.972 1.696 5142
2.066 1.980 1.692 5683
2.075 1.988 1.687 6449
2.083 1.996 1.683 5731
2.116 2.028 1.697 4381
2.135 2.045 1.700 5427
2.128 2.039 1.684 4456
2.126 2.037 1.672 3854
2.222 2.129 1.742 1331
2.139 2.050 1.671 4784
2.235 2.142 1.741 1808
2.148 2.058 1.666 7586
2.244 2.150 1.736 2845
2.151 2.061 1.657 9024
2.247 2.153 1.727 3397
2.154 2.064 1.649 8179
2.251 2.157 1.718 2768
2.173 2.082 1.651 6018
2.076 1.989 1.583 2615
2.196 2.104 1.657 7458
2.293 2.197 1.725 3109
2.204 2.112 1.652 6375
2.301 2.205 1.720 4319
2.274 2.179 1.689 6764
2.177 2.086 1.622 2649
2.277 2.182 1.680 9309
2.375 2.275 1.747 1857
2.286 2.190 1.675 9911
2.383 2.283 1.741 2360
2.289 2.193 1.665 7884
2.386 2.287 1.732 2696
2.349 2.250 1.694 6452
2.251 2.157 1.629 2275
2.326 2.229 1.668 7330
2.424 2.323 1.733 1962
2.329 2.232 1.659 7506
2.427 2.326 1.724 3326
2.338 2.240 1.653 6460
2.436 2.334 1.717 4294
2.413 2.312 1.691 5951
2.315 2.218 1.627 4201
2.422 2.321 1.685 7209
2.323 2.226 1.621 2806
2.461 2.358 1.698 9367
2.363 2.264 1.635 3737
2.470 2.366 1.692 10566
2.371 2.272 1.629 2739
2.478 2.375 1.685 9542
2.379 2.280 1.623 2702
2.481 2.378 1.675 6162
2.383 2.283 1.613 1753
2.474 2.371 1.659 3356
2.573 2.466 1.721 1858
2.566 2.459 1.704 2946
2.467 2.364 1.643 2439
2.564 2.457 1.691 3526
2.465 2.362 1.630 2449
2.567 2.460 1.681 3439
2.468 2.365 1.620 2088
2.565 2.458 1.667 3231
2.548 2.441 1.644 4089
2.647 2.537 1.704 1839
2.551 2.444 1.634 4177
2.651 2.540 1.694 2709
2.570 2.462 1.633 3859
2.670 2.558 1.692 2797
2.573 2.465 1.623 3531
2.673 2.561 1.682 2677
2.581 2.473 1.616 2244
2.681 2.569 1.674 2121
2.753 2.638 1.703 2721
2.616 2.507 1.624 2244
2.667 2.555 1.641 4051
2.767 2.651 1.698 3128
2.686 2.574 1.639 6514
2.786 2.670 1.696 1940
2.694 2.582 1.631 7646
2.795 2.678 1.688 1570
2.703 2.590 1.624 7243
2.803 2.686 1.680 1720
2.727 2.613 1.624 5319
2.833 2.715 1.683 1617
2.735 2.621 1.617 3170
2.836 2.718 1.672 2367
2.850 2.731 1.666 3478
2.744 2.629 1.609 3199
2.864 2.744 1.661 5403
2.752 2.637 1.600 3165
2.862 2.742 1.646 6401
2.761 2.645 1.592 2571
2.860 2.740 1.632 5973
2.758 2.643 1.578 1156
2.868 2.748 1.624 5125
2.970 2.846 1.677 1045
2.877 2.757 1.615 5351
2.978 2.854 1.668 1380
2.891 2.770 1.609 6014
2.888 2.768 1.595 4676
3.028 2.901 1.666 1244
2.945 2.822 1.610 2190
3.063 2.935 1.670 1608
3.029 2.902 1.639 2363
2.927 2.804 1.588 2198
3.107 2.977 1.664 3257
3.005 2.879 1.614 2733
3.121 2.991 1.657 3728
3.019 2.893 1.607 3270
3.043 2.916 1.605 3720
3.146 3.014 1.655 2745
3.160 3.028 1.648 3892
3.057 2.930 1.598 3239
3.158 3.026 1.633 4481
3.055 2.927 1.584 3503
3.161 3.029 1.620 5073
3.047 2.920 1.566 3192
3.164 3.032 1.608 4824
3.267 3.130 1.656 3125
3.194 3.061 1.608 3795
3.297 3.159 1.656 2830
3.279 3.142 1.632 4388
3.175 3.043 1.585 1831
3.287 3.150 1.622 4720
3.412 3.269 1.679 1156
3.312 3.174 1.618 3724
3.209 3.075 1.572 1326
3.369 3.229 1.630 3796
3.266 3.130 1.583 1121
3.432 3.289 1.643 3891
3.329 3.190 1.597 1921
3.436 3.292 1.629 5157
3.332 3.193 1.583 1232
3.428 3.285 1.610 3038
3.431 3.288 1.597 1976
3.450 3.306 1.590 2432
3.453 3.309 1.576 4356
3.557 3.409 1.620 1030
3.467 3.322 1.567 6550
3.571 3.422 1.610 1284
3.476 3.331 1.555 4797
3.580 3.430 1.598 2665
3.572 3.423 1.579 3281
3.468 3.323 1.537 2269
3.476 3.331 1.525 3214
3.602 3.452 1.576 2436
3.463 3.318 1.505 4872
3.616 3.465 1.566 1998
3.471 3.326 1.493 5106
3.619 3.468 1.552 2105
3.479 3.334 1.481 3641
3.655 3.503 1.550 2654
3.675 3.521 1.542 3335
3.488 3.342 1.470 2622
3.683 3.529 1.529 3175
3.485 3.339 1.454 2767
3.686 3.532 1.515 2820
3.857 3.696 1.579 1871
3.976 3.810 1.607 2632
3.772 3.614 1.531 2368
3.974 3.808 1.589 4121
3.791 3.633 1.522 2646
3.988 3.821 1.577 4456
4.170 3.996 1.643 4184
4.173 3.999 1.627 6958
4.007 3.840 1.567 4987
4.177 4.002 1.610 10350
4.010 3.843 1.551 3589
4.180 4.005 1.593 9912
4.346 4.164 1.652 3479
4.183 4.008 1.577 5542
4.343 4.162 1.632 4235
4.352 4.170 1.617 7955
4.191 4.016 1.562 4565
4.355 4.173 1.599 11453
4.200 4.024 1.547 3569
4.358 4.176 1.582 11413
4.469 4.283 1.619 1987
4.361 4.179 1.564 9695
4.473 4.286 1.601 3101
4.364 4.182 1.547 6930
4.476 4.289 1.583 4061
4.367 4.185 1.529 4938
4.479 4.291 1.565 3243
4.587 4.396 1.581 3676
4.370 4.188 1.512 2975
4.585 4.393 1.561 3593
4.724 4.527 1.604 2561
4.727 4.530 1.585 4106
4.593 4.402 1.544 3471
4.730 4.533 1.566 6267
4.602 4.410 1.527 4635
4.728 4.530 1.546 7784
4.605 4.413 1.509 3784
4.731 4.533 1.527 7321
4.837 4.635 1.558 2763
4.739 4.541 1.509 4652
4.885 4.681 1.552 2174
5.005 4.796 1.566 2092
4.742 4.544 1.490 1952
5.008 4.799 1.546 1623
4.902 4.697 1.516 1455
5.045 4.834 1.535 1670
4.938 4.732 1.506 1424
5.053 4.842 1.517 1601
5.221 5.003 1.563 1549
5.337 5.114 1.572 2084
5.224 5.006 1.542 1580
5.351 5.127 1.554 3509
5.188 4.971 1.510 1619
5.359 5.136 1.534 4322
5.242 5.022 1.503 1755
5.362 5.138 1.512 2948
5.486 5.257 1.544 1783
5.281 5.060 1.469 1868
5.483 5.254 1.521 1657
5.481 5.252 1.497 2391
5.289 5.068 1.449 1985
5.540 5.308 1.489 2091
5.759 5.519 1.543 1999
5.762 5.521 1.520 3621
5.959 5.710 1.567 2730
5.754 5.513 1.494 4585
5.957 5.708 1.542 3284
5.751 5.511 1.470 4776
5.954 5.705 1.517 2920
5.765 5.524 1.449 3799
5.945 5.697 1.490 2424
5.768 5.527 1.426 3606
5.943 5.694 1.465 1930
5.770 5.529 1.403 4082
6.239 5.978 1.506 1893
5.773 5.532 1.380 3687
5.971 5.721 1.422 2458
5.776 5.534 1.356 2233
5.979 5.729 1.399 2127
5.987 5.737 1.377 1573
6.315 6.051 1.445 1484
5.996 5.745 1.354 1543
6.572 6.298 1.471 1303
6.773 6.490 1.485 1352
5.998 5.748 1.330 1063
6.844 6.558 1.471 1338
6.487 6.216 1.401 1127
6.501 6.230 1.377 1124
1.694 1.614 1.777 2348
1.606 1.530 1.690 1213
1.698 1.617 1.771 4696
1.609 1.533 1.683 2427
1.701 1.621 1.764 4696
1.612 1.536 1.677 2427
1.709 1.628 1.762 5344
1.620 1.544 1.675 3434
1.722 1.641 1.764 6441
1.633 1.556 1.678 5277
1.740 1.657 1.771 6882
1.646 1.568 1.680 5339
1.762 1.679 1.782 9971
1.644 1.566 1.669 4691
1.766 1.682 1.775 9971
1.652 1.574 1.667 4562
1.774 1.690 1.773 10812
1.651 1.572 1.657 3380
1.782 1.698 1.770 11745
1.649 1.571 1.646 2516
1.781 1.696 1.759 11025
1.652 1.574 1.639 2284
1.784 1.700 1.752 10370
1.660 1.582 1.637 2063
1.787 1.703 1.744 8543
1.663 1.585 1.630 1607
1.819 1.733 1.764 7353
1.729 1.647 1.681 1539
1.794 1.709 1.730 8871
1.793 1.708 1.719 10922
1.796 1.711 1.712 10949
1.799 1.714 1.705 11752
1.891 1.801 1.786 1519
1.812 1.727 1.706 13717
1.904 1.814 1.787 1591
1.825 1.739 1.708 11324
1.917 1.826 1.788 1946
1.838 1.751 1.709 10854
1.737 1.654 1.620 2315
1.846 1.759 1.706 7814
1.735 1.653 1.609 2908
1.879 1.790 1.724 5988
1.738 1.656 1.602 3570
1.882 1.793 1.716 6040
1.741 1.659 1.595 4248
1.886 1.796 1.709 6092
1.749 1.666 1.593 4950
1.747 1.664 1.582 5140
1.894 1.804 1.706 4735
1.750 1.667 1.575 5354
1.922 1.831 1.719 4771
1.758 1.675 1.572 4725
1.920 1.829 1.707 4361
1.948 1.856 1.720 4435
1.761 1.678 1.565 4135
1.951 1.859 1.712 6817
1.769 1.685 1.562 2818
1.960 1.867 1.708 9219
1.787 1.702 1.567 1576
1.963 1.870 1.701 8428
2.057 1.959 1.777 1805
1.971 1.878 1.697 7905
2.065 1.967 1.773 1924
1.984 1.890 1.697 5513
2.078 1.980 1.772 1191
1.997 1.903 1.697 3755
2.001 1.906 1.689 4399
2.095 1.996 1.764 1345
2.009 1.914 1.685 4949
2.104 2.004 1.759 1668
2.047 1.950 1.704 5968
2.056 1.958 1.700 5510
2.064 1.966 1.696 5330
2.072 1.974 1.692 5744
2.075 1.977 1.683 6242
2.084 1.985 1.679 5436
2.179 2.076 1.751 1139
2.152 2.050 1.720 3668
2.057 1.959 1.648 2353
2.151 2.049 1.707 5014
2.055 1.958 1.636 1412
2.164 2.062 1.706 4154
2.068 1.970 1.636 1757
2.173 2.070 1.702 3475
2.076 1.978 1.631 1644
2.150 2.049 1.675 4951
2.247 2.140 1.745 1445
2.154 2.052 1.666 8259
2.250 2.144 1.736 2739
2.157 2.055 1.657 9733
2.254 2.147 1.727 3212
2.160 2.058 1.649 8340
2.257 2.150 1.718 2550
2.184 2.080 1.655 5531
2.286 2.177 1.727 2225
2.202 2.098 1.657 6979
2.299 2.190 1.725 3363
2.211 2.106 1.652 6149
2.308 2.198 1.720 4648
2.280 2.172 1.689 7390
2.183 2.080 1.622 2401
2.284 2.175 1.680 10278
2.381 2.268 1.747 1627
2.292 2.183 1.675 10915
2.390 2.276 1.741 2108
2.300 2.191 1.669 8658
2.398 2.285 1.735 2503
2.329 2.219 1.677 6184
2.195 2.091 1.587 2032
2.333 2.222 1.668 7350
2.193 2.089 1.575 1636
2.336 2.225 1.659 7378
2.434 2.319 1.724 2849
2.344 2.233 1.653 6266
2.443 2.327 1.717 3854
2.420 2.305 1.691 5150
2.322 2.212 1.627 3816
2.428 2.313 1.685 7128
2.330 2.219 1.621 2329
2.468 2.351 1.698 9402
2.369 2.257 1.635 3706
2.477 2.359 1.692 10393
2.378 2.265 1.629 2708
2.485 2.367 1.685 8680
2.386 2.273 1.623 2640
2.494 2.375 1.679 5300
2.394 2.281 1.616 1821
2.533 2.413 1.692 3255
2.418 2.304 1.620 1422
2.537 2.416 1.682 3240
2.422 2.307 1.610 1297
2.566 2.445 1.688 3756
2.467 2.350 1.626 2093
2.575 2.453 1.681 3748
2.475 2.358 1.620 2246
2.578 2.456 1.670 3293
2.478 2.361 1.610 1141
2.560 2.439 1.647 3899
2.660 2.534 1.707 1833
2.558 2.437 1.634 4036
2.658 2.532 1.694 2888
2.572 2.450 1.630 3745
2.672 2.545 1.689 3072
2.643 2.518 1.660 3819
2.543 2.423 1.601 1292
2.641 2.516 1.647 2802
2.742 2.612 1.705 1106
2.761 2.630 1.703 2561
2.634 2.509 1.630 2416
2.669 2.542 1.638 3451
2.770 2.638 1.695 3207
2.693 2.566 1.639 5992
2.794 2.662 1.696 2029
2.702 2.574 1.631 7385
2.803 2.670 1.688 1526
2.710 2.582 1.624 7023
2.811 2.678 1.680 1366
2.735 2.605 1.624 4782
2.846 2.712 1.686 1429
2.791 2.659 1.643 3204
2.690 2.562 1.587 2151
2.757 2.626 1.611 3417
2.864 2.728 1.669 3041
2.872 2.736 1.661 4519
2.760 2.629 1.600 3531
2.816 2.683 1.618 5556
2.918 2.780 1.672 1158
2.862 2.727 1.629 5680
2.876 2.740 1.624 5526
2.978 2.837 1.677 1007
2.890 2.753 1.618 5692
2.992 2.850 1.671 1132
2.899 2.761 1.609 5948
2.896 2.759 1.595 4677
2.953 2.813 1.610 3324
3.077 2.931 1.673 1687
2.956 2.816 1.599 3147
3.086 2.940 1.663 2433
3.110 2.963 1.662 3529
2.965 2.824 1.590 3301
3.033 2.889 1.610 4473
3.135 2.987 1.660 3582
3.041 2.897 1.600 4750
3.144 2.995 1.650 3141
3.115 2.967 1.622 4197
3.012 2.869 1.572 1636
3.166 3.016 1.633 4356
3.064 2.918 1.584 3195
3.170 3.019 1.620 5371
3.061 2.916 1.569 2748
3.173 3.022 1.608 5008
3.276 3.121 1.656 2885
3.203 3.051 1.608 3789
3.306 3.150 1.656 2335
3.282 3.127 1.630 4412
3.179 3.028 1.582 1726
3.291 3.135 1.619 4718
3.421 3.259 1.679 1329
3.305 3.148 1.611 2786
3.408 3.247 1.658 1761
3.357 3.198 1.620 3409
3.461 3.297 1.666 1393
3.442 3.279 1.643 3721
3.338 3.180 1.597 1668
3.445 3.282 1.629 4778
3.437 3.275 1.610 3010
3.440 3.278 1.597 2217
3.460 3.296 1.590 2165
3.463 3.299 1.576 3161
3.567 3.398 1.620 1155
3.477 3.312 1.567 5222
3.581 3.412 1.610 1594
3.540 3.373 1.578 4356
3.645 3.472 1.621 1198
3.582 3.412 1.579 4050
3.478 3.313 1.537 1755
3.486 3.321 1.525 2647
3.607 3.436 1.574 2642
3.478 3.313 1.507 3703
3.632 3.460 1.568 2316
3.481 3.316 1.493 3396
3.630 3.458 1.552 2866
3.660 3.487 1.548 2856
3.495 3.329 1.484 2207
3.762 3.584 1.572 3262
3.658 3.484 1.531 2374
3.694 3.519 1.529 3039
3.799 3.619 1.569 1829
3.774 3.595 1.544 2854
3.669 3.495 1.504 1735
3.782 3.603 1.531 2986
3.987 3.798 1.607 2440
3.985 3.796 1.589 4035
3.797 3.617 1.520 2481
3.999 3.810 1.577 4680
4.182 3.984 1.643 3928
4.185 3.987 1.627 6262
4.019 3.828 1.567 4966
4.194 3.995 1.612 9836
4.022 3.831 1.551 3433
4.197 3.998 1.595 9967
4.358 4.152 1.652 2327
4.200 4.001 1.578 5393
4.306 4.102 1.615 2631
4.364 4.158 1.617 5726
4.208 4.009 1.564 4517
4.362 4.155 1.598 9237
4.211 4.012 1.547 3567
4.365 4.158 1.580 8953
4.471 4.259 1.615 2696
4.374 4.166 1.564 7367
4.479 4.267 1.599 3240
4.376 4.169 1.547 4930
4.488 4.276 1.583 4085
4.491 4.278 1.565 3975
4.379 4.172 1.529 3535
4.600 4.382 1.581 3278
4.494 4.281 1.547 2964
4.603 4.385 1.562 3104
4.732 4.508 1.603 2146
4.741 4.516 1.585 3453
4.612 4.393 1.546 2736
4.744 4.519 1.566 5382
4.615 4.396 1.527 3951
4.741 4.516 1.546 6884
4.618 4.399 1.509 3461
4.744 4.519 1.527 6360
4.907 4.674 1.575 2812
4.747 4.522 1.508 3760
4.898 4.666 1.552 2336
5.008 4.771 1.563 1920
4.755 4.530 1.490 1509
5.090 4.848 1.565 1495
4.983 4.747 1.535 1383
5.076 4.835 1.540 1659
5.227 4.980 1.582 1271
5.011 4.774 1.501 1668
5.236 4.988 1.563 1359
5.352 5.098 1.572 2115
5.020 4.782 1.483 1577
5.366 5.112 1.554 3506
5.214 4.967 1.513 1561
5.374 5.120 1.534 4297
5.256 5.007 1.503 1621
5.377 5.123 1.512 3087
5.496 5.235 1.543 1877
5.307 5.056 1.472 1859
5.499 5.238 1.521 1752
5.496 5.236 1.497 2294
5.304 5.053 1.449 1849
5.561 5.297 1.490 2106
5.775 5.502 1.543 1940
5.778 5.505 1.520 3679
5.976 5.693 1.567 2670
5.770 5.497 1.494 4931
5.973 5.690 1.542 3139
5.767 5.494 1.470 5096
5.971 5.688 1.517 2649
5.775 5.502 1.448 3929
5.962 5.680 1.490 2153
5.784 5.510 1.426 3765
6.259 5.963 1.532 1957
5.787 5.512 1.403 4419
6.256 5.960 1.506 2083
5.789 5.515 1.380 4067
5.993 5.709 1.424 2225
5.792 5.517 1.356 2401
6.506 6.198 1.507 1942
6.333 6.033 1.445 1566
6.509 6.200 1.481 1470
6.012 5.728 1.354 1495
6.608 6.295 1.475 1257
6.860 6.535 1.498 1409
6.015 5.730 1.330 1065
6.863 6.538 1.471 1422
6.747 6.427 1.420 1075
1.702 1.606 1.777 2082
1.608 1.518 1.685 1336
1.705 1.609 1.771 4165
1.612 1.521 1.679 2673
1.709 1.613 1.764 4165
1.615 1.524 1.672 2673
1.656 1.563 1.703 5344
1.745 1.647 1.789 3108
1.659 1.566 1.696 6819
1.749 1.650 1.782 4815
1.747 1.649 1.771 6757
1.653 1.560 1.680 6286
1.770 1.670 1.782 9844
1.651 1.559 1.669 6159
1.773 1.674 1.775 9844
1.655 1.562 1.663 5986
1.782 1.681 1.773 10879
1.658 1.565 1.657 4757
1.790 1.689 1.770 12066
1.661 1.568 1.650 3701
1.793 1.692 1.763 11552
1.660 1.566 1.639 2771
1.792 1.691 1.752 11054
1.663 1.569 1.633 1847
1.795 1.694 1.744 8963
1.666 1.572 1.626 1509
1.828 1.725 1.764 8096
1.736 1.639 1.681 2056
1.802 1.701 1.730 9060
1.711 1.615 1.648 1108
1.806 1.704 1.723 11118
1.714 1.618 1.641 1211
1.804 1.703 1.712 11111
1.712 1.616 1.630 1272
1.807 1.706 1.705 12287
1.715 1.619 1.623 1755
1.820 1.718 1.706 14942
1.728 1.631 1.625 2659
1.833 1.730 1.708 12432
1.741 1.643 1.627 3242
1.851 1.747 1.713 12587
1.749 1.651 1.624 3666
1.864 1.760 1.714 9788
1.747 1.649 1.613 3846
1.878 1.772 1.715 7922
1.741 1.643 1.598 4298
1.886 1.780 1.712 7189
1.749 1.650 1.595 4726
1.894 1.788 1.709 6693
1.752 1.653 1.588 5178
1.902 1.795 1.706 5469
1.755 1.656 1.582 4548
1.920 1.812 1.710 5282
1.763 1.664 1.579 4064
1.924 1.815 1.703 4083
1.766 1.667 1.572 3304
1.962 1.851 1.724 3449
1.769 1.670 1.565 2544
1.965 1.854 1.716 5103
1.772 1.672 1.558 2040
1.968 1.858 1.708 6757
1.790 1.689 1.563 1743
1.977 1.865 1.705 6742
1.793 1.692 1.556 1805
1.985 1.873 1.701 6873
1.801 1.700 1.553 1573
1.993 1.881 1.697 5088
1.809 1.707 1.550 1382
2.031 1.917 1.717 4545
2.035 1.920 1.709 4497
2.058 1.942 1.716 6422
2.061 1.945 1.708 8140
2.070 1.953 1.704 7271
2.078 1.961 1.700 6631
2.081 1.964 1.692 6132
2.085 1.967 1.683 5633
2.093 1.975 1.679 4649
2.132 2.012 1.697 3012
2.160 2.039 1.707 4062
2.169 2.047 1.703 4335
2.072 1.956 1.632 1008
2.172 2.050 1.694 4708
2.075 1.959 1.624 1092
2.160 2.039 1.675 7259
2.257 2.130 1.745 1449
2.163 2.042 1.666 10567
2.260 2.133 1.736 3135
2.172 2.049 1.661 11310
2.269 2.141 1.730 3131
2.175 2.053 1.653 9450
2.272 2.144 1.722 2998
2.193 2.070 1.655 6790
2.291 2.162 1.723 3040
2.207 2.083 1.653 7955
2.304 2.175 1.722 4587
2.210 2.086 1.645 7092
2.313 2.183 1.716 6082
2.311 2.181 1.703 7883
2.203 2.079 1.629 4332
2.294 2.165 1.680 10393
2.196 2.072 1.613 2366
2.302 2.173 1.675 11429
2.199 2.075 1.604 2080
2.316 2.186 1.672 9860
2.414 2.278 1.739 2092
2.335 2.203 1.674 6999
2.117 1.998 1.528 2030
2.338 2.206 1.664 7451
2.436 2.299 1.730 2243
2.341 2.209 1.655 6968
2.440 2.302 1.720 2660
2.349 2.217 1.649 6122
2.469 2.330 1.728 3098
2.368 2.235 1.650 4909
2.472 2.333 1.718 3870
2.439 2.302 1.685 7118
2.231 2.105 1.550 1658
2.458 2.320 1.685 9515
2.359 2.226 1.622 2226
2.477 2.338 1.685 10154
2.378 2.244 1.622 1978
2.496 2.356 1.685 7173
2.397 2.262 1.623 2164
2.520 2.379 1.689 5239
2.421 2.285 1.626 1764
2.539 2.397 1.688 5597
2.434 2.298 1.623 1199
2.543 2.400 1.678 5946
2.567 2.423 1.681 5379
2.467 2.328 1.620 1368
2.586 2.441 1.681 5671
2.486 2.346 1.620 2304
2.595 2.449 1.673 5179
2.494 2.354 1.613 1321
2.635 2.487 1.685 4056
2.534 2.392 1.625 1292
2.654 2.505 1.684 3691
2.553 2.410 1.625 2215
2.657 2.508 1.674 3823
2.557 2.413 1.615 2021
2.650 2.501 1.657 4356
2.653 2.504 1.647 5154
2.754 2.599 1.705 1033
2.667 2.517 1.642 5582
2.773 2.617 1.703 2291
2.670 2.520 1.632 5171
2.782 2.625 1.695 3008
2.705 2.553 1.639 4657
2.806 2.649 1.696 2108
2.714 2.561 1.631 6382
2.815 2.657 1.688 1370
2.722 2.569 1.624 6436
2.824 2.665 1.680 1426
2.795 2.638 1.651 5477
2.693 2.542 1.595 3925
2.803 2.646 1.643 4807
2.702 2.550 1.587 2821
2.769 2.613 1.611 4468
2.898 2.735 1.681 2558
2.772 2.616 1.600 4412
2.885 2.723 1.661 3201
2.834 2.675 1.621 5645
2.936 2.771 1.675 1277
2.848 2.688 1.615 5949
2.950 2.785 1.669 1778
2.894 2.732 1.626 6268
2.903 2.740 1.618 6233
2.911 2.748 1.609 5455
2.969 2.802 1.625 5019
2.866 2.705 1.573 1346
2.966 2.800 1.610 5140
3.096 2.922 1.676 1918
2.975 2.808 1.601 4280
3.110 2.935 1.669 2998
2.989 2.821 1.595 4247
3.124 2.949 1.662 3828
3.030 2.859 1.602 4457
3.138 2.962 1.655 3968
3.125 2.950 1.634 4483
3.022 2.852 1.584 3481
3.134 2.958 1.625 4468
3.031 2.860 1.575 2368
3.164 2.986 1.625 4349
3.268 3.084 1.674 1643
3.173 2.994 1.615 5881
3.276 3.092 1.664 2380
3.187 3.008 1.608 5158
3.290 3.105 1.656 2618
3.217 3.036 1.608 3608
3.321 3.134 1.656 1902
3.286 3.101 1.625 4937
3.401 3.209 1.677 2093
3.300 3.114 1.617 4244
3.415 3.223 1.669 2101
3.407 3.215 1.650 2600
3.298 3.112 1.601 2319
3.394 3.203 1.630 2520
3.290 3.105 1.583 1274
3.452 3.258 1.640 3074
3.348 3.159 1.594 1175
3.444 3.250 1.622 4241
3.447 3.253 1.608 3348
3.456 3.261 1.597 2748
3.470 3.275 1.588 2306
3.574 3.373 1.632 1066
3.533 3.335 1.599 3086
3.542 3.343 1.587 4661
3.567 3.367 1.582 4797
3.672 3.466 1.625 1100
3.592 3.390 1.577 4647
3.601 3.398 1.565 2905
3.496 3.299 1.523 1445
3.637 3.433 1.564 3127
3.499 3.302 1.509 1858
3.646 3.441 1.552 4214
3.751 3.540 1.593 1643
3.660 3.454 1.542 2970
3.765 3.553 1.582 2351
3.768 3.556 1.567 3152
3.663 3.457 1.527 1647
3.738 3.528 1.540 2787
3.993 3.769 1.637 1389
3.707 3.499 1.512 2374
3.813 3.599 1.552 2100
3.805 3.591 1.533 2506
3.999 3.775 1.605 1864
4.003 3.777 1.589 3451
3.802 3.588 1.516 2616
4.011 3.786 1.575 4709
4.200 3.964 1.643 2861
4.025 3.799 1.563 4296
4.204 3.967 1.627 4123
4.218 3.981 1.614 7987
4.045 3.818 1.553 2659
4.221 3.984 1.597 8386
4.349 4.105 1.642 1623
4.219 3.981 1.578 3885
4.347 4.103 1.623 3131
4.378 4.132 1.615 4568
4.233 3.995 1.565 3399
4.387 4.140 1.599 6009
4.230 3.992 1.547 2620
4.390 4.143 1.582 5913
4.496 4.243 1.617 2860
4.393 4.146 1.564 4727
4.499 4.246 1.599 2928
4.480 4.228 1.574 4409
4.373 4.128 1.540 2292
4.505 4.252 1.563 4813
4.393 4.146 1.528 1636
4.520 4.266 1.549 4443
4.626 4.366 1.583 2400
4.528 4.274 1.533 2814
4.635 4.374 1.566 2556
4.644 4.382 1.549 2045
4.762 4.494 1.585 1835
4.765 4.497 1.566 3352
4.641 4.380 1.529 2774
4.768 4.500 1.547 5043
4.644 4.383 1.511 2914
4.771 4.502 1.528 4512
4.652 4.391 1.494 1961
4.774 4.505 1.509 2257
5.021 4.739 1.581 1815
5.019 4.737 1.560 1830
4.912 4.636 1.529 1444
5.016 4.734 1.538 1467
5.123 4.835 1.568 1414
5.019 4.737 1.518 1817
5.126 4.838 1.548 1475
5.033 4.750 1.501 1956
5.282 4.985 1.569 1418
5.296 4.998 1.551 1880
5.404 5.100 1.580 1767
5.384 5.081 1.552 3580
5.248 4.953 1.516 1765
5.393 5.089 1.532 4284
5.285 4.988 1.504 1815
5.407 5.103 1.514 2834
5.514 5.204 1.541 2189
5.517 5.207 1.519 1872
5.410 5.106 1.492 1671
5.520 5.210 1.497 1962
5.651 5.333 1.530 1417
5.585 5.271 1.490 1961
5.795 5.469 1.542 1517
5.798 5.472 1.518 3417
5.673 5.354 1.489 3069
5.795 5.470 1.494 5305
5.665 5.346 1.463 3281
5.793 5.467 1.470 5163
6.003 5.665 1.518 2397
5.801 5.475 1.448 3611
5.989 5.652 1.490 1757
5.810 5.483 1.426 3421
6.241 5.890 1.522 2176
5.807 5.480 1.401 4291
6.244 5.893 1.497 2364
5.809 5.483 1.378 4108
6.025 5.687 1.425 2166
5.812 5.485 1.355 2341
6.529 6.162 1.506 2153
6.532 6.164 1.480 1720
6.361 6.003 1.445 1595
6.540 6.172 1.455 1815
6.432 6.070 1.433 1743
6.891 6.503 1.498 1634
6.537 6.170 1.428 1615
6.894 6.506 1.471 1530
6.529 6.162 1.400 1082
6.777 6.395 1.420 1217
1.661 1.556 1.731 1923
1.665 1.559 1.725 3846
1.668 1.562 1.718 3846
1.667 1.561 1.707 5183
1.756 1.645 1.794 2361
1.665 1.559 1.696 6768
1.755 1.644 1.782 4331
1.659 1.554 1.680 6503
1.763 1.651 1.780 6309
1.776 1.663 1.782 9449
1.658 1.552 1.669 6712
1.780 1.667 1.775 9449
1.661 1.555 1.663 6555
1.788 1.674 1.773 10177
1.664 1.558 1.657 5393
1.796 1.682 1.770 11059
1.672 1.566 1.654 4390
1.800 1.685 1.763 10219
1.670 1.564 1.644 3066
1.803 1.689 1.756 9379
1.712 1.603 1.672 2146
1.802 1.687 1.744 8134
1.711 1.602 1.661 1528
1.839 1.722 1.768 7917
1.747 1.636 1.685 2191
1.809 1.694 1.730 8960
1.812 1.697 1.723 10842
1.811 1.696 1.712 10904
1.903 1.782 1.794 1273
1.819 1.703 1.709 11852
1.911 1.790 1.791 1426
1.827 1.711 1.706 14297
1.735 1.624 1.625 1632
1.840 1.723 1.708 11874
1.747 1.636 1.627 2113
1.863 1.745 1.717 12734
1.756 1.644 1.624 2201
1.871 1.752 1.714 10755
1.754 1.642 1.613 2173
1.884 1.765 1.715 9621
1.747 1.636 1.598 2357
1.893 1.772 1.712 8430
1.750 1.639 1.591 2484
1.901 1.780 1.709 7382
1.758 1.647 1.588 2635
1.909 1.788 1.706 6229
1.761 1.649 1.582 2568
1.922 1.800 1.706 5570
1.764 1.652 1.575 2501
1.926 1.803 1.699 4772
1.767 1.655 1.568 2155
1.924 1.802 1.687 3988
1.766 1.653 1.557 1888
1.977 1.851 1.720 3451
1.774 1.661 1.554 1322
1.980 1.855 1.712 4341
1.791 1.678 1.559 1109
1.989 1.862 1.709 5015
1.799 1.685 1.556 1488
1.997 1.870 1.705 5838
1.807 1.693 1.553 1707
2.010 1.883 1.705 4750
1.815 1.700 1.550 1547
2.039 1.909 1.717 5212
1.818 1.703 1.543 1169
2.047 1.917 1.713 5040
1.771 1.659 1.496 1053
2.071 1.939 1.720 7103
1.774 1.661 1.489 1092
2.069 1.937 1.708 8869
1.777 1.664 1.482 1132
2.077 1.945 1.704 8013
2.086 1.953 1.700 7394
2.089 1.956 1.692 6092
2.092 1.959 1.683 4790
2.101 1.967 1.679 3826
2.134 1.999 1.693 3269
2.153 2.016 1.696 3904
2.151 2.014 1.684 3437
2.195 2.056 1.705 3134
2.088 1.955 1.627 1214
2.163 2.025 1.671 4854
2.260 2.116 1.741 1672
2.171 2.033 1.666 8245
2.268 2.124 1.736 3238
2.180 2.041 1.661 9815
2.277 2.132 1.730 3098
2.178 2.039 1.649 8518
2.275 2.131 1.718 4099
2.207 2.066 1.658 6977
2.304 2.158 1.727 3202
2.220 2.079 1.657 8249
2.318 2.171 1.725 4532
2.218 2.077 1.645 6962
2.321 2.174 1.716 5889
2.320 2.172 1.703 7208
2.221 2.080 1.636 5133
2.302 2.156 1.680 9857
2.204 2.064 1.613 3491
2.305 2.159 1.671 10861
2.207 2.067 1.604 2500
2.324 2.177 1.672 9765
2.423 2.269 1.739 1955
2.338 2.189 1.670 7453
2.140 2.004 1.539 1856
2.341 2.192 1.661 7691
2.440 2.285 1.726 2812
2.344 2.195 1.652 6652
2.443 2.288 1.717 2418
2.353 2.203 1.646 5405
2.494 2.335 1.738 2957
2.393 2.241 1.660 4994
2.497 2.338 1.728 3470
2.448 2.293 1.685 7545
2.228 2.087 1.543 1655
2.462 2.305 1.682 10080
2.362 2.212 1.618 1384
2.481 2.323 1.682 10595
2.381 2.230 1.619 1423
2.484 2.326 1.672 7210
2.384 2.233 1.609 1234
2.530 2.369 1.689 5834
2.430 2.275 1.626 1693
2.549 2.387 1.688 7372
2.449 2.293 1.626 1258
2.552 2.390 1.678 7995
2.566 2.403 1.675 7282
2.595 2.431 1.681 7212
2.495 2.336 1.620 2168
2.609 2.444 1.677 6299
2.509 2.349 1.616 1364
2.644 2.476 1.685 4620
2.653 2.484 1.678 4095
2.552 2.390 1.619 1010
2.651 2.483 1.664 4192
2.660 2.491 1.657 4793
2.673 2.504 1.653 6635
2.572 2.409 1.594 1095
2.677 2.507 1.642 7934
2.783 2.606 1.703 1845
2.680 2.510 1.632 6928
2.792 2.615 1.695 2472
2.683 2.513 1.621 4459
2.795 2.618 1.684 2416
2.724 2.551 1.631 5291
2.825 2.646 1.688 1156
2.732 2.559 1.624 5568
2.834 2.654 1.680 1605
2.805 2.627 1.651 6274
2.703 2.531 1.595 3860
2.808 2.630 1.640 5608
2.706 2.534 1.584 2852
2.785 2.608 1.614 4982
2.914 2.729 1.684 2420
2.788 2.611 1.603 4649
2.890 2.706 1.658 2532
2.850 2.669 1.624 5282
2.953 2.765 1.678 1471
2.859 2.677 1.615 5611
2.961 2.773 1.669 1855
2.910 2.725 1.629 6556
2.919 2.734 1.621 6194
2.928 2.742 1.612 4762
2.979 2.790 1.625 4955
2.876 2.694 1.573 1280
2.977 2.788 1.610 5127
3.107 2.910 1.676 1856
2.986 2.796 1.601 4275
3.116 2.918 1.666 3150
3.005 2.814 1.598 4426
3.136 2.936 1.662 3745
3.035 2.843 1.599 4338
3.150 2.950 1.655 3608
3.055 2.861 1.595 4159
3.158 2.958 1.645 3545
3.151 2.951 1.627 3684
3.025 2.833 1.567 2420
3.170 2.969 1.623 3776
3.285 3.076 1.677 1594
3.184 2.982 1.615 5537
3.288 3.079 1.664 2232
3.198 2.995 1.608 4699
3.302 3.093 1.656 2294
3.234 3.029 1.610 3121
3.410 3.193 1.691 1966
3.303 3.093 1.627 4415
3.413 3.196 1.677 2683
3.317 3.107 1.619 3449
3.422 3.204 1.666 2575
3.425 3.207 1.653 3014
3.315 3.105 1.604 1670
3.417 3.200 1.634 2734
3.313 3.102 1.588 1122
3.442 3.224 1.631 3126
3.338 3.126 1.585 1140
3.435 3.216 1.612 4849
3.539 3.314 1.658 1089
3.438 3.219 1.599 4351
3.468 3.248 1.597 3091
3.573 3.346 1.641 1021
3.482 3.261 1.588 2538
3.587 3.360 1.632 1043
3.546 3.321 1.599 3339
3.555 3.329 1.587 4846
3.580 3.353 1.582 4818
3.685 3.451 1.625 1214
3.605 3.376 1.577 4326
3.620 3.390 1.567 2921
3.650 3.418 1.564 4112
3.756 3.517 1.606 1284
3.653 3.421 1.550 4893
3.759 3.520 1.591 2074
3.668 3.435 1.539 2661
3.779 3.539 1.582 2283
3.782 3.542 1.567 2772
3.676 3.443 1.527 1291
3.751 3.513 1.540 2808
4.008 3.753 1.637 1138
3.715 3.479 1.510 2383
3.827 3.584 1.552 1727
3.819 3.576 1.533 2345
4.047 3.790 1.617 1554
3.811 3.568 1.514 3078
4.023 3.767 1.591 2891
4.026 3.770 1.575 4114
3.825 3.582 1.502 2314
4.029 3.773 1.559 3757
4.197 3.930 1.619 3045
4.239 3.970 1.616 6671
4.071 3.812 1.557 2059
4.236 3.967 1.597 6774
4.365 4.088 1.642 1667
4.368 4.091 1.625 3421
4.228 3.960 1.577 2696
4.394 4.115 1.615 4234
4.243 3.973 1.564 2073
4.403 4.123 1.599 4829
4.246 3.976 1.547 1586
4.400 4.121 1.580 5109
4.507 4.221 1.615 2491
4.409 4.129 1.564 4339
4.516 4.229 1.599 2386
4.485 4.200 1.571 5737
4.378 4.100 1.536 1520
4.499 4.214 1.556 5206
4.536 4.248 1.549 5104
4.643 4.348 1.583 1757
4.539 4.251 1.531 3562
4.646 4.351 1.564 2060
4.582 4.291 1.525 2509
4.723 4.423 1.568 1929
4.579 4.288 1.505 2603
4.788 4.484 1.568 2162
4.785 4.481 1.547 3859
4.666 4.370 1.512 2208
4.788 4.484 1.528 3609
4.664 4.367 1.492 1792
4.802 4.497 1.513 1830
5.028 4.709 1.578 1608
5.037 4.717 1.560 1845
4.884 4.574 1.516 1191
5.040 4.720 1.540 1470
4.887 4.577 1.497 1169
5.043 4.723 1.520 1923
5.151 4.824 1.549 1400
5.046 4.725 1.500 1904
5.307 4.970 1.570 1708
5.310 4.972 1.549 1995
5.429 5.084 1.581 1888
5.409 5.066 1.554 3267
5.301 4.965 1.525 1837
5.412 5.068 1.532 3773
5.304 4.967 1.504 1996
5.427 5.082 1.514 2538
5.535 5.183 1.541 2348
5.532 5.180 1.518 1910
5.668 5.308 1.552 1423
5.540 5.188 1.497 1681
5.432 5.087 1.471 1352
5.686 5.324 1.510 1806
5.833 5.463 1.546 1271
5.700 5.338 1.490 3024
5.819 5.450 1.518 3009
5.817 5.447 1.494 4837
5.691 5.330 1.465 3086
5.808 5.439 1.468 4402
6.036 5.653 1.521 2461
5.817 5.447 1.446 3018
