0.415 2.963 1.632 2995
0.436 3.115 1.698 4271
0.418 2.982 1.630 3242
0.438 3.126 1.693 6106
0.419 2.993 1.625 2914
0.439 3.138 1.687 7942
0.421 3.004 1.620 2283
0.440 3.142 1.678 8969
0.421 3.008 1.611 2307
0.444 3.168 1.679 11116
0.425 3.034 1.613 3264
0.446 3.186 1.677 14485
0.427 3.052 1.611 4072
0.447 3.191 1.668 14248
0.428 3.056 1.602 2826
0.448 3.202 1.662 11738
0.430 3.068 1.597 1189
0.449 3.206 1.653 9323
0.451 3.218 1.647 8605
0.453 3.236 1.644 10804
0.455 3.248 1.638 11411
0.474 3.383 1.702 1302
0.457 3.266 1.635 10785
0.476 3.402 1.698 1115
0.458 3.271 1.626 8290
0.477 3.406 1.689 1477
0.468 3.339 1.646 9601
0.449 3.204 1.584 1771
0.469 3.351 1.640 11660
0.471 3.362 1.633 13871
0.471 3.367 1.623 11810
0.473 3.378 1.617 10568
0.474 3.382 1.607 9238
0.475 3.394 1.600 4971
0.494 3.530 1.660 1474
0.479 3.419 1.600 3490
0.498 3.556 1.659 1394
0.480 3.431 1.593 4168
0.500 3.568 1.652 1502
0.481 3.435 1.583 4924
0.500 3.572 1.642 2688
0.486 3.468 1.585 4889
0.508 3.627 1.653 3036
0.488 3.487 1.581 5048
0.509 3.632 1.642 4311
0.510 3.643 1.635 4616
0.489 3.491 1.571 2529
0.508 3.626 1.615 5112
0.527 3.764 1.672 1908
0.507 3.623 1.602 6276
0.527 3.761 1.658 2274
0.509 3.634 1.594 6381
0.528 3.772 1.650 2326
0.510 3.638 1.583 5943
0.529 3.777 1.639 4694
0.529 3.774 1.625 7577
0.509 3.635 1.570 3627
0.530 3.785 1.617 7068
0.508 3.625 1.554 2114
0.526 3.753 1.592 6400
0.545 3.892 1.646 3143
0.527 3.765 1.584 8076
0.547 3.904 1.638 3000
0.529 3.776 1.576 5645
0.548 3.915 1.629 2322
0.545 3.890 1.607 3080
0.564 4.029 1.660 1505
0.545 3.894 1.595 3425
0.567 4.048 1.654 1886
0.569 4.060 1.645 3116
0.547 3.906 1.587 2929
0.556 3.969 1.597 4409
0.575 4.109 1.650 2629
0.572 4.084 1.627 5184
0.552 3.944 1.575 2877
0.572 4.088 1.615 5423
0.553 3.948 1.564 3270
0.584 4.173 1.632 5238
0.559 3.989 1.565 3819
0.586 4.185 1.623 4424
0.561 4.008 1.559 1853
0.589 4.204 1.616 4410
0.594 4.238 1.614 6228
0.596 4.257 1.607 7916
0.598 4.269 1.597 8266
0.604 4.310 1.597 6554
0.584 4.169 1.549 1741
0.607 4.336 1.592 7202
0.588 4.195 1.545 2117
0.609 4.348 1.582 5851
0.589 4.207 1.535 1676
0.610 4.352 1.570 4555
0.590 4.211 1.523 1023
0.609 4.349 1.555 5621
0.603 4.308 1.527 4858
0.637 4.547 1.605 1897
0.604 4.312 1.515 3981
0.638 4.559 1.594 1862
0.607 4.331 1.507 4439
0.587 4.189 1.462 1888
0.607 4.335 1.494 4234
0.587 4.193 1.449 1903
0.595 4.249 1.454 3293
0.658 4.698 1.594 2317
0.660 4.710 1.583 3205
0.594 4.238 1.437 1888
0.660 4.714 1.569 3059
0.592 4.227 1.420 1216
0.663 4.733 1.560 2181
0.683 4.876 1.603 1844
0.667 4.760 1.553 2687
0.687 4.903 1.596 2199
0.671 4.794 1.548 3684
0.691 4.937 1.591 1789
0.673 4.806 1.536 4292
0.693 4.949 1.578 2682
0.677 4.832 1.529 3907
0.697 4.975 1.571 2723
0.687 4.904 1.534 4284
0.707 5.047 1.576 1335
0.689 4.923 1.524 4092
0.710 5.067 1.565 1689
0.691 4.935 1.512 3852
0.714 5.101 1.559 2197
0.691 4.931 1.496 3063
0.719 5.135 1.552 2783
0.705 5.033 1.508 3816
0.725 5.177 1.548 3182
0.711 5.075 1.504 3741
0.731 5.219 1.543 2728
0.715 5.102 1.495 4173
0.735 5.246 1.534 2871
0.737 5.265 1.523 5378
0.715 5.106 1.480 2876
0.740 5.284 1.511 7416
0.715 5.102 1.463 1655
0.742 5.296 1.498 6616
0.771 5.508 1.553 1264
0.750 5.353 1.496 6514
0.774 5.528 1.541 2161
0.742 5.296 1.465 4861
0.776 5.539 1.527 2379
0.786 5.612 1.527 3085
0.744 5.315 1.453 2590
0.786 5.616 1.511 3869
0.764 5.456 1.472 1606
0.789 5.635 1.498 3316
0.769 5.490 1.463 1862
0.794 5.669 1.489 4069
0.774 5.524 1.454 2308
0.796 5.681 1.475 3078
0.820 5.856 1.516 3051
0.807 5.761 1.476 2865
0.827 5.906 1.510 2201
0.828 5.910 1.493 3037
0.807 5.765 1.459 2683
0.824 5.883 1.468 2731
0.850 6.067 1.510 1496
0.851 6.078 1.494 2436
0.817 5.834 1.439 2211
0.834 5.952 1.447 2496
0.856 6.113 1.483 2040
0.837 5.979 1.435 2357
0.878 6.270 1.499 1700
0.893 6.374 1.502 1440
0.852 6.082 1.439 1175
0.893 6.378 1.483 2020
0.872 6.224 1.451 1703
0.894 6.381 1.465 1961
0.872 6.228 1.433 1541
0.902 6.439 1.457 2694
0.899 6.420 1.434 2973
0.920 6.566 1.463 1254
0.897 6.408 1.412 2491
0.918 6.554 1.441 2178
0.912 6.512 1.413 2293
0.963 6.873 1.484 1551
0.919 6.562 1.403 3264
0.981 7.008 1.489 2352
0.919 6.565 1.384 3852
0.982 7.012 1.469 3552
0.920 6.569 1.364 2748
0.983 7.016 1.448 2609
0.916 6.542 1.339 2098
0.986 7.043 1.432 1539
1.051 7.502 1.494 1535
1.008 7.201 1.440 1301
1.006 7.181 1.414 1535
1.051 7.506 1.472 1477
1.006 7.185 1.393 2259
1.051 7.502 1.449 1797
1.050 7.498 1.426 2384
1.007 7.189 1.372 1837
1.057 7.548 1.412 2017
1.002 7.154 1.345 1144
1.063 7.590 1.396 1710
1.129 8.062 1.475 1114
1.110 7.927 1.428 1392
1.163 8.306 1.491 1372
1.164 8.310 1.466 1745
1.184 8.457 1.490 1506
1.185 8.461 1.465 2110
1.164 8.313 1.442 1543
1.185 8.464 1.440 2858
1.211 8.650 1.469 1182
1.186 8.468 1.415 2386
1.240 8.856 1.474 1396
1.186 8.472 1.391 1733
1.241 8.860 1.448 1668
1.242 8.871 1.423 2474
1.191 8.506 1.370 1779
1.244 8.883 1.399 3513
1.217 8.688 1.371 1993
1.243 8.878 1.371 3654
1.217 8.692 1.345 1743
1.243 8.874 1.344 3201
1.218 8.695 1.320 1984
1.242 8.870 1.317 2327
1.218 8.699 1.294 1916
1.308 9.340 1.352 1871
1.243 8.873 1.291 1472
1.306 9.328 1.323 1573
0.332 2.317 1.777 4528
0.314 2.196 1.690 2745
0.332 2.321 1.771 9057
0.315 2.200 1.683 5490
0.333 2.326 1.764 9057
0.316 2.204 1.677 5490
0.333 2.324 1.753 10022
0.315 2.203 1.666 3565
0.332 2.316 1.737 12058
0.314 2.194 1.651 1135
0.333 2.327 1.735 15629
0.316 2.205 1.649 1291
0.334 2.332 1.728 19515
0.316 2.209 1.642 1040
0.334 2.336 1.721 19515
0.336 2.347 1.719 20772
0.337 2.352 1.712 22439
0.354 2.475 1.797 1083
0.338 2.363 1.710 19421
0.356 2.486 1.794 1042
0.340 2.374 1.707 17244
0.358 2.498 1.791 1037
0.340 2.379 1.701 12074
0.358 2.502 1.784 1399
0.342 2.390 1.698 7003
0.360 2.514 1.781 1727
0.342 2.387 1.687 5391
0.360 2.512 1.770 1761
0.349 2.438 1.710 3996
0.350 2.442 1.703 4037
0.352 2.460 1.705 7683
0.334 2.335 1.623 1259
0.354 2.471 1.702 11684
0.336 2.346 1.621 1486
0.355 2.482 1.699 12521
0.337 2.357 1.618 1309
0.356 2.487 1.692 13686
0.374 2.613 1.772 1052
0.359 2.505 1.693 12769
0.377 2.631 1.773 1503
0.362 2.529 1.699 14015
0.380 2.655 1.778 1538
0.364 2.540 1.695 13859
0.382 2.667 1.775 1873
0.365 2.551 1.692 14224
0.383 2.678 1.771 2161
0.366 2.556 1.685 11155
0.384 2.683 1.763 3288
0.367 2.560 1.677 8087
0.385 2.687 1.756 4415
0.367 2.565 1.670 7359
0.385 2.692 1.748 3972
0.368 2.569 1.663 6631
0.386 2.697 1.740 3529
0.369 2.580 1.659 5191
0.388 2.708 1.736 2994
0.371 2.591 1.656 3883
0.389 2.719 1.733 2577
0.387 2.704 1.713 2946
0.369 2.575 1.636 2079
0.382 2.668 1.681 3268
0.386 2.699 1.689 3893
0.387 2.704 1.681 4630
0.389 2.715 1.677 5417
0.407 2.844 1.752 1390
0.391 2.733 1.677 6763
0.410 2.863 1.752 1600
0.393 2.744 1.673 7827
0.411 2.874 1.747 1630
0.393 2.749 1.665 6739
0.412 2.879 1.739 2058
0.406 2.835 1.704 6299
0.385 2.692 1.623 4195
0.407 2.840 1.695 6675
0.388 2.710 1.623 4353
0.408 2.851 1.691 7085
0.389 2.721 1.619 4337
0.396 2.766 1.633 6415
0.415 2.897 1.706 3338
0.397 2.771 1.625 5853
0.415 2.901 1.697 4005
0.398 2.782 1.621 5684
0.417 2.913 1.692 4171
0.417 2.910 1.680 5234
0.398 2.779 1.609 4961
0.417 2.915 1.672 6020
0.398 2.783 1.601 3360
0.421 2.940 1.675 5227
0.398 2.781 1.590 2348
0.429 3.000 1.695 4568
0.410 2.861 1.622 1902
0.433 3.025 1.698 5208
0.414 2.893 1.628 1652
0.433 3.023 1.685 5307
0.414 2.891 1.616 1152
0.433 3.027 1.676 4200
0.443 3.095 1.700 3709
0.424 2.962 1.632 2306
0.440 3.071 1.677 4207
0.421 2.938 1.609 1162
0.447 3.125 1.693 5948
0.428 2.992 1.625 2500
0.449 3.136 1.687 7970
0.430 3.003 1.620 2092
0.450 3.141 1.678 8945
0.430 3.007 1.611 2166
0.453 3.166 1.679 11096
0.434 3.032 1.613 3285
0.455 3.178 1.674 14370
0.436 3.044 1.608 3859
0.457 3.189 1.668 13964
0.437 3.055 1.602 2939
0.458 3.201 1.662 11498
0.439 3.066 1.597 1264
0.459 3.205 1.653 9119
0.460 3.216 1.647 8982
0.463 3.235 1.644 11367
0.465 3.246 1.638 11035
0.484 3.381 1.702 1824
0.466 3.258 1.632 9613
0.486 3.393 1.695 2022
0.467 3.262 1.623 7439
0.486 3.398 1.685 2055
0.478 3.338 1.646 8517
0.458 3.202 1.584 2016
0.480 3.356 1.643 11387
0.461 3.221 1.581 1188
0.481 3.361 1.633 14173
0.482 3.365 1.623 12014
0.483 3.377 1.617 10026
0.484 3.381 1.607 8124
0.487 3.399 1.603 4905
0.506 3.536 1.663 1311
0.489 3.418 1.600 4102
0.509 3.555 1.659 1357
0.491 3.429 1.593 4373
0.511 3.566 1.652 1398
0.493 3.441 1.586 5307
0.512 3.578 1.645 2245
0.495 3.459 1.582 6104
0.519 3.626 1.653 3577
0.498 3.478 1.578 6156
0.520 3.630 1.642 4924
0.521 3.642 1.635 5055
0.500 3.489 1.571 3432
0.519 3.624 1.615 5312
0.539 3.762 1.672 1413
0.519 3.628 1.604 6423
0.539 3.766 1.661 1359
0.520 3.633 1.594 6941
0.540 3.771 1.650 1837
0.522 3.644 1.586 7284
0.541 3.782 1.642 3963
0.541 3.779 1.628 7451
0.521 3.641 1.573 4601
0.543 3.791 1.620 7497
0.523 3.652 1.565 2376
0.537 3.751 1.592 6439
0.557 3.890 1.646 3182
0.539 3.763 1.584 7364
0.559 3.902 1.638 3106
0.540 3.774 1.576 4577
0.560 3.913 1.629 2286
0.557 3.888 1.607 3491
0.577 4.028 1.660 1362
0.557 3.893 1.595 4325
0.577 4.032 1.648 1475
0.560 3.912 1.590 3891
0.581 4.058 1.645 2602
0.567 3.960 1.595 4732
0.587 4.100 1.647 2955
0.585 4.089 1.629 4539
0.565 3.949 1.578 3629
0.593 4.145 1.636 5436
0.567 3.961 1.569 3590
0.597 4.171 1.632 5264
0.568 3.965 1.557 3430
0.599 4.183 1.623 4209
0.568 3.969 1.546 1767
0.606 4.232 1.626 4383
0.607 4.243 1.617 6638
0.608 4.248 1.604 7912
0.611 4.267 1.597 7854
0.591 4.126 1.548 1085
0.612 4.278 1.587 6100
0.619 4.327 1.590 6047
0.599 4.186 1.542 1928
0.621 4.339 1.580 4910
0.601 4.197 1.532 1610
0.622 4.343 1.567 3739
0.601 4.201 1.520 1066
0.622 4.347 1.555 5163
0.602 4.205 1.508 1212
0.618 4.314 1.530 4782
0.651 4.545 1.605 1403
0.617 4.310 1.515 4480
0.651 4.549 1.592 1637
0.619 4.322 1.505 4923
0.598 4.180 1.459 1530
0.619 4.326 1.492 4280
0.599 4.184 1.447 1732
0.607 4.240 1.451 3798
0.672 4.696 1.594 1639
0.675 4.715 1.585 2676
0.606 4.236 1.437 2281
0.675 4.712 1.569 2657
0.607 4.240 1.424 1864
0.698 4.874 1.603 1980
0.605 4.228 1.407 1959
0.699 4.886 1.591 2300
0.679 4.743 1.549 2132
0.685 4.784 1.546 2697
0.705 4.927 1.588 1798
0.705 4.924 1.572 3815
0.684 4.781 1.530 1886
0.701 4.898 1.549 4201
0.702 4.902 1.534 4623
0.722 5.045 1.576 1311
0.712 4.974 1.539 4521
0.692 4.831 1.499 1539
0.713 4.978 1.525 4369
0.733 5.121 1.565 1649
0.719 5.020 1.521 3866
0.739 5.163 1.561 1807
0.720 5.031 1.508 5694
0.741 5.175 1.548 2586
0.723 5.050 1.498 4310
0.744 5.194 1.537 3049
0.730 5.100 1.495 4151
0.752 5.251 1.536 2669
0.754 5.270 1.525 5339
0.732 5.111 1.482 2877
0.756 5.282 1.511 8065
0.730 5.100 1.463 1468
0.757 5.286 1.496 7997
0.788 5.506 1.553 1149
0.757 5.290 1.480 6693
0.784 5.480 1.529 1941
0.758 5.294 1.465 5338
0.784 5.476 1.511 2277
0.805 5.624 1.531 3126
0.759 5.305 1.451 2628
0.805 5.621 1.513 3693
0.778 5.438 1.468 1580
0.808 5.648 1.502 3329
0.788 5.503 1.467 1959
0.811 5.667 1.489 4618
0.840 5.865 1.537 2088
0.812 5.671 1.473 3513
0.839 5.861 1.518 2836
0.825 5.766 1.478 2701
0.846 5.911 1.512 2396
0.826 5.770 1.461 3177
0.847 5.915 1.494 2935
0.847 5.919 1.477 2434
0.827 5.774 1.444 2027
0.870 6.076 1.494 2467
0.849 5.931 1.461 2049
0.852 5.950 1.447 2533
0.873 6.095 1.480 2073
0.857 5.984 1.437 2143
0.894 6.244 1.494 1438
0.866 6.049 1.433 1377
0.914 6.386 1.505 1096
0.890 6.214 1.449 1514
0.915 6.390 1.487 1248
0.889 6.210 1.429 1608
0.914 6.386 1.466 1369
0.921 6.436 1.457 2927
0.900 6.290 1.427 1230
0.920 6.425 1.435 3251
0.941 6.571 1.465 1587
0.936 6.536 1.438 2644
0.915 6.390 1.409 2081
0.933 6.517 1.414 2679
0.986 6.886 1.487 1778
0.938 6.551 1.401 3692
0.986 6.890 1.467 2414
0.939 6.562 1.384 4065
1.003 7.009 1.469 3135
0.940 6.566 1.364 2836
0.993 6.936 1.434 2683
0.935 6.531 1.338 2177
1.008 7.040 1.432 1906
1.025 7.159 1.433 1666
1.075 7.506 1.496 1446
1.029 7.186 1.416 2134
1.008 7.039 1.390 1393
1.027 7.174 1.392 2467
1.075 7.506 1.450 1624
1.074 7.502 1.427 2076
1.028 7.178 1.371 1665
1.078 7.529 1.409 1753
1.099 7.676 1.434 1079
1.150 8.035 1.471 1239
1.085 7.579 1.395 1225
1.188 8.302 1.491 1490
1.211 8.457 1.516 1264
1.190 8.314 1.467 2045
1.211 8.461 1.491 1655
1.212 8.465 1.466 2407
1.191 8.318 1.443 1930
1.211 8.461 1.440 3403
1.238 8.647 1.469 1245
1.212 8.464 1.415 3199
1.268 8.860 1.475 1306
1.214 8.484 1.393 2679
1.269 8.864 1.449 1352
1.216 8.495 1.369 2735
1.242 8.673 1.395 2046
1.242 8.677 1.370 2642
1.271 8.879 1.399 2576
1.272 8.882 1.373 2852
1.243 8.680 1.344 2180
1.270 8.870 1.344 2644
1.244 8.692 1.320 2350
1.245 8.695 1.294 2349
1.269 8.866 1.317 1839
1.335 9.328 1.351 1707
1.244 8.691 1.268 1312
1.335 9.324 1.323 1463
0.339 2.316 1.777 4635
0.321 2.195 1.690 2152
0.339 2.320 1.771 9271
0.322 2.199 1.683 4304
0.340 2.325 1.764 9271
0.322 2.204 1.677 4304
0.340 2.323 1.753 9683
0.322 2.202 1.666 2812
0.339 2.315 1.737 11221
0.340 2.326 1.735 15551
0.322 2.204 1.649 1099
0.341 2.331 1.728 20244
0.342 2.335 1.721 20244
0.343 2.346 1.719 21897
0.344 2.351 1.712 23861
0.362 2.474 1.797 1090
0.345 2.362 1.710 20439
0.364 2.485 1.794 1124
0.347 2.373 1.707 17636
0.365 2.497 1.791 1143
0.348 2.377 1.701 12550
0.366 2.501 1.784 1615
0.348 2.382 1.694 7464
0.367 2.506 1.777 2087
0.348 2.380 1.683 5325
0.367 2.511 1.770 2087
0.348 2.378 1.671 3394
0.366 2.502 1.754 2023
0.347 2.376 1.660 3373
0.366 2.500 1.742 2097
0.360 2.459 1.705 6570
0.341 2.334 1.623 1241
0.361 2.470 1.702 10124
0.343 2.345 1.621 1459
0.363 2.481 1.699 10934
0.345 2.356 1.618 1284
0.365 2.492 1.696 11979
0.383 2.618 1.777 1000
0.367 2.510 1.697 11599
0.386 2.636 1.777 1298
0.370 2.528 1.699 12872
0.388 2.654 1.778 1401
0.371 2.539 1.695 12979
0.390 2.666 1.775 1717
0.373 2.550 1.692 13424
0.392 2.677 1.771 1969
0.374 2.555 1.685 9750
0.392 2.682 1.763 2946
0.374 2.559 1.677 6076
0.393 2.686 1.756 3922
0.375 2.564 1.670 5601
0.394 2.691 1.748 3418
0.376 2.568 1.663 5126
0.394 2.696 1.740 2914
0.377 2.579 1.659 4327
0.396 2.707 1.736 2759
0.379 2.590 1.656 3802
0.398 2.718 1.733 2502
0.395 2.703 1.713 3139
0.377 2.574 1.636 1909
0.396 2.707 1.705 3180
0.395 2.698 1.689 3512
0.394 2.696 1.677 3887
0.395 2.700 1.669 4796
0.414 2.829 1.744 1350
0.399 2.725 1.673 5902
0.418 2.854 1.748 1341
0.400 2.736 1.669 6813
0.419 2.866 1.743 1285
0.401 2.741 1.661 5947
0.420 2.871 1.735 1910
0.400 2.731 1.646 5229
0.419 2.861 1.719 3398
0.399 2.729 1.634 5293
0.418 2.859 1.707 4495
0.417 2.850 1.691 5469
0.398 2.720 1.619 4591
0.405 2.772 1.637 5493
0.425 2.903 1.709 2650
0.406 2.776 1.629 6963
0.425 2.907 1.701 3827
0.406 2.774 1.617 7148
0.425 2.905 1.689 4952
0.407 2.785 1.613 6119
0.427 2.916 1.684 5401
0.426 2.914 1.672 6302
0.407 2.782 1.601 3880
0.429 2.932 1.671 5199
0.408 2.786 1.593 2700
0.438 2.992 1.692 4376
0.407 2.784 1.582 2182
0.440 3.010 1.690 5481
0.421 2.878 1.621 1909
0.441 3.015 1.682 5471
0.410 2.806 1.573 1398
0.443 3.026 1.676 4019
0.413 2.824 1.572 1049
0.450 3.079 1.693 3583
0.431 2.947 1.625 1359
0.449 3.070 1.677 4656
0.447 3.053 1.657 6125
0.466 3.186 1.725 1084
0.459 3.135 1.687 7756
0.439 3.002 1.620 1734
0.459 3.139 1.678 8657
0.440 3.006 1.611 1832
0.463 3.165 1.679 11266
0.443 3.031 1.613 3109
0.465 3.176 1.674 14472
0.445 3.042 1.608 3745
0.466 3.188 1.668 13594
0.447 3.054 1.602 2832
0.468 3.199 1.662 10780
0.448 3.065 1.597 1445
0.469 3.204 1.653 8314
0.488 3.338 1.717 1232
0.470 3.215 1.647 8962
0.490 3.350 1.711 1354
0.472 3.226 1.641 11518
0.492 3.361 1.705 1817
0.474 3.238 1.635 10201
0.493 3.373 1.698 2550
0.475 3.249 1.629 8085
0.495 3.384 1.692 2782
0.487 3.332 1.656 6636
0.468 3.197 1.593 2840
0.489 3.343 1.649 7318
0.469 3.208 1.587 2816
0.491 3.355 1.643 10717
0.471 3.219 1.581 1335
0.491 3.359 1.633 13719
0.493 3.371 1.626 11816
0.494 3.375 1.617 9004
0.493 3.372 1.604 6736
0.497 3.398 1.603 5021
0.517 3.534 1.663 1385
0.499 3.409 1.597 4998
0.519 3.546 1.656 1679
0.500 3.421 1.590 4470
0.520 3.558 1.649 1618
0.505 3.454 1.592 5265
0.527 3.605 1.657 2383
0.506 3.458 1.582 6864
0.529 3.617 1.650 3861
0.508 3.477 1.578 6606
0.532 3.636 1.645 4972
0.532 3.640 1.635 5048
0.510 3.488 1.571 3914
0.531 3.630 1.618 5418
0.511 3.492 1.561 2002
0.530 3.627 1.604 6531
0.510 3.489 1.548 1025
0.532 3.638 1.597 7498
0.552 3.776 1.653 1408
0.534 3.650 1.589 8771
0.554 3.788 1.645 3231
0.538 3.676 1.587 7413
0.558 3.814 1.643 4644
0.554 3.789 1.620 7511
0.534 3.651 1.565 2789
0.554 3.786 1.606 6314
0.574 3.925 1.661 1823
0.550 3.761 1.584 6217
0.570 3.900 1.638 3360
0.555 3.795 1.584 3588
0.588 4.022 1.672 1438
0.567 3.879 1.604 3977
0.588 4.019 1.657 1292
0.569 3.891 1.595 4970
0.589 4.030 1.648 1417
0.571 3.903 1.587 4523
0.591 4.042 1.639 2443
0.578 3.951 1.592 5073
0.598 4.090 1.644 3024
0.600 4.102 1.635 4182
0.578 3.955 1.580 3894
0.606 4.143 1.636 5411
0.579 3.959 1.569 3225
0.610 4.170 1.632 4797
0.580 3.963 1.557 2905
0.612 4.181 1.623 3799
0.579 3.960 1.543 1785
0.619 4.230 1.626 3982
0.598 4.090 1.576 1594
0.619 4.234 1.614 6134
0.599 4.094 1.565 1058
0.621 4.246 1.604 7289
0.600 4.105 1.555 1207
0.624 4.265 1.597 6396
0.603 4.124 1.548 1271
0.627 4.284 1.590 5517
0.628 4.296 1.580 5787
0.625 4.270 1.557 4805
0.625 4.274 1.545 3777
0.634 4.338 1.552 4446
0.614 4.196 1.505 1365
0.634 4.334 1.537 4420
0.613 4.193 1.491 2823
0.618 4.226 1.488 5166
0.639 4.368 1.534 1757
0.632 4.320 1.505 5241
0.594 4.058 1.421 1095
0.632 4.324 1.492 4471
0.612 4.182 1.447 1557
0.619 4.230 1.449 3967
0.640 4.373 1.493 1455
0.619 4.234 1.437 2327
0.598 4.092 1.392 2090
0.619 4.230 1.422 2141
0.689 4.710 1.569 2113
0.618 4.227 1.407 2336
0.713 4.872 1.603 2091
0.697 4.763 1.555 2216
0.602 4.118 1.361 1779
0.715 4.888 1.577 2291
0.603 4.121 1.349 2039
0.718 4.907 1.567 4036
0.603 4.125 1.337 2069
0.715 4.888 1.546 4675
0.605 4.136 1.327 1246
0.716 4.892 1.532 5309
0.737 5.035 1.573 1286
0.727 4.972 1.539 4999
0.706 4.828 1.499 1365
0.728 4.976 1.525 5167
0.749 5.119 1.565 1480
0.734 5.017 1.521 4382
0.755 5.161 1.561 1558
0.736 5.029 1.508 6727
0.757 5.173 1.548 2704
0.736 5.033 1.494 5072
0.757 5.177 1.533 2734
0.746 5.097 1.495 4046
0.770 5.264 1.540 2797
0.772 5.276 1.527 5146
0.747 5.109 1.482 3015
0.772 5.280 1.511 7683
0.746 5.098 1.463 1477
0.773 5.283 1.496 7980
0.801 5.473 1.545 1630
0.772 5.280 1.478 6300
0.802 5.485 1.531 2586
0.773 5.284 1.463 4409
0.803 5.489 1.515 2623
0.822 5.622 1.531 2971
0.774 5.295 1.449 2131
0.823 5.626 1.515 3113
0.794 5.428 1.466 1552
0.826 5.645 1.502 3104
0.805 5.501 1.467 1747
0.827 5.657 1.487 4594
0.857 5.862 1.537 1829
0.828 5.661 1.471 3645
0.858 5.866 1.520 2641
0.843 5.764 1.478 2875
0.864 5.909 1.512 2403
0.845 5.775 1.463 3388
0.866 5.920 1.496 2343
0.847 5.794 1.449 2375
0.870 5.947 1.484 2256
0.873 5.966 1.470 3033
0.894 6.111 1.503 1669
0.870 5.947 1.447 2463
0.891 6.092 1.480 1934
0.877 5.997 1.440 1613
0.908 6.211 1.487 1437
0.884 6.046 1.433 1731
0.930 6.360 1.500 1409
0.906 6.196 1.446 1536
0.928 6.341 1.477 1408
0.908 6.207 1.429 1970
0.929 6.353 1.460 1730
0.939 6.418 1.454 2996
0.917 6.272 1.424 1390
0.939 6.422 1.435 3324
0.961 6.568 1.465 1968
0.958 6.549 1.441 2946
0.936 6.403 1.412 2005
0.954 6.521 1.416 2854
1.007 6.883 1.487 1876
0.956 6.533 1.398 3889
1.007 6.887 1.467 2462
0.958 6.552 1.382 3758
1.011 6.914 1.451 3024
1.016 6.948 1.437 2877
0.959 6.555 1.363 2505
1.028 7.029 1.431 2092
0.954 6.520 1.337 1908
1.029 7.033 1.410 2022
1.050 7.179 1.437 1721
1.049 7.175 1.414 2308
1.028 7.029 1.388 1768
1.049 7.171 1.392 2482
1.148 7.850 1.512 1570
1.097 7.499 1.427 1798
1.047 7.159 1.368 1655
1.101 7.526 1.409 1436
1.122 7.673 1.434 1206
1.172 8.016 1.468 1428
1.150 7.862 1.443 1164
1.214 8.298 1.491 1578
1.114 7.618 1.379 1387
1.215 8.310 1.467 2243
1.238 8.465 1.492 1776
1.238 8.461 1.466 2796
1.216 8.314 1.443 2126
1.237 8.457 1.440 4053
1.214 8.302 1.416 1467
1.237 8.461 1.415 4134
1.295 8.856 1.475 1534
1.240 8.480 1.393 4004
1.297 8.867 1.451 1791
1.242 8.491 1.369 3939
1.267 8.662 1.394 2637
1.266 8.658 1.368 3252
1.241 8.487 1.343 2477
1.268 8.669 1.343 2493
1.299 8.878 1.373 2144
1.271 8.688 1.320 2463
1.298 8.874 1.345 2200
1.271 8.691 1.294 2541
1.298 8.878 1.319 1593
1.271 8.687 1.268 1587
1.363 9.316 1.350 1457
1.362 9.312 1.322 1224
0.352 2.314 1.777 4622
0.333 2.193 1.690 1566
0.352 2.318 1.771 9245
0.334 2.197 1.683 3133
0.353 2.323 1.764 9245
0.335 2.202 1.677 3133
0.354 2.328 1.757 9027
0.335 2.206 1.671 2817
0.351 2.307 1.732 9863
0.353 2.324 1.735 14798
0.335 2.202 1.649 1343
0.354 2.329 1.728 20200
0.335 2.206 1.642 1256
0.355 2.333 1.721 20200
0.356 2.344 1.719 22276
0.357 2.349 1.712 24535
0.376 2.472 1.797 1239
0.359 2.360 1.710 20833
0.377 2.483 1.794 1317
0.360 2.371 1.707 17421
0.379 2.495 1.791 1315
0.361 2.375 1.701 12693
0.380 2.499 1.784 1870
0.362 2.380 1.694 7965
0.381 2.504 1.777 2425
0.361 2.378 1.683 5478
0.380 2.502 1.765 2512
0.361 2.376 1.671 3125
0.380 2.500 1.754 2296
0.362 2.380 1.665 3114
0.381 2.505 1.746 1985
0.374 2.464 1.709 5467
0.355 2.339 1.628 1613
0.375 2.468 1.702 8222
0.356 2.343 1.621 1363
0.378 2.486 1.703 9010
0.359 2.360 1.623 1504
0.379 2.497 1.700 10101
0.360 2.371 1.620 1032
0.383 2.521 1.706 10534
0.364 2.395 1.626 1085
0.385 2.532 1.703 11709
0.404 2.659 1.782 1008
0.387 2.544 1.700 11999
0.406 2.670 1.779 1320
0.388 2.555 1.696 12516
0.408 2.681 1.775 1478
0.389 2.559 1.689 8574
0.408 2.686 1.767 2311
0.391 2.570 1.686 4769
0.410 2.697 1.764 2709
0.390 2.568 1.674 4208
0.410 2.695 1.752 2741
0.390 2.566 1.663 3823
0.409 2.693 1.740 2441
0.392 2.577 1.659 3616
0.411 2.705 1.736 2509
0.394 2.595 1.660 3737
0.414 2.723 1.737 1997
0.409 2.694 1.709 3095
0.390 2.565 1.632 1503
0.411 2.705 1.705 3011
0.410 2.696 1.689 3047
0.407 2.680 1.669 3744
0.408 2.684 1.662 4585
0.428 2.813 1.736 1012
0.410 2.696 1.658 4677
0.429 2.825 1.732 1464
0.416 2.734 1.669 4856
0.411 2.704 1.642 5244
0.431 2.834 1.716 2321
0.411 2.702 1.630 6169
0.431 2.839 1.707 3141
0.410 2.699 1.619 5641
0.432 2.843 1.699 3481
0.410 2.697 1.607 4664
0.434 2.854 1.695 3832
0.409 2.694 1.596 4292
0.429 2.825 1.668 3370
0.410 2.698 1.588 4070
0.439 2.891 1.693 3925
0.440 2.895 1.685 5206
0.412 2.709 1.584 3950
0.441 2.900 1.677 5752
0.412 2.713 1.576 3126
0.441 2.904 1.668 6297
0.421 2.773 1.598 2433
0.445 2.929 1.671 5231
0.424 2.791 1.597 3456
0.453 2.982 1.688 4732
0.424 2.788 1.585 3618
0.455 2.994 1.683 6249
0.424 2.792 1.577 3844
0.457 3.005 1.678 5769
0.425 2.796 1.569 3149
0.460 3.024 1.676 4122
0.427 2.808 1.565 1872
0.467 3.070 1.689 3713
0.427 2.812 1.556 1152
0.465 3.060 1.673 5336
0.465 3.058 1.661 6925
0.476 3.132 1.687 7399
0.456 2.999 1.620 1414
0.477 3.137 1.678 8216
0.456 3.003 1.611 1448
0.480 3.155 1.676 11477
0.459 3.022 1.610 2253
0.481 3.167 1.670 14832
0.461 3.033 1.604 2903
0.483 3.178 1.664 13485
0.463 3.044 1.599 2233
0.486 3.197 1.662 9933
0.465 3.062 1.597 1644
0.486 3.201 1.653 7289
0.507 3.335 1.717 1502
0.487 3.205 1.643 8687
0.508 3.340 1.708 2366
0.490 3.224 1.641 11248
0.510 3.358 1.705 2307
0.491 3.228 1.632 9179
0.511 3.363 1.695 3291
0.504 3.318 1.662 6593
0.483 3.176 1.596 2508
0.506 3.329 1.656 6161
0.485 3.194 1.593 3069
0.509 3.348 1.653 6292
0.488 3.212 1.590 3724
0.511 3.359 1.646 9675
0.490 3.224 1.584 1897
0.511 3.364 1.636 12869
0.512 3.368 1.626 11338
0.513 3.372 1.617 8038
0.512 3.369 1.604 5751
0.516 3.395 1.603 5530
0.537 3.531 1.663 1637
0.518 3.406 1.597 5974
0.538 3.543 1.656 1994
0.518 3.411 1.587 4708
0.539 3.547 1.646 2035
0.527 3.465 1.598 5056
0.547 3.602 1.657 2267
0.526 3.462 1.585 6763
0.548 3.607 1.647 3876
0.527 3.466 1.575 6367
0.552 3.633 1.645 4465
0.554 3.644 1.638 4532
0.530 3.485 1.571 4123
0.551 3.627 1.618 4952
0.530 3.489 1.561 2508
0.551 3.624 1.604 6052
0.572 3.762 1.661 1206
0.552 3.635 1.597 7445
0.573 3.773 1.653 1668
0.554 3.647 1.589 9561
0.575 3.785 1.645 2806
0.557 3.665 1.584 8294
0.578 3.804 1.640 5143
0.578 3.801 1.626 7397
0.557 3.662 1.571 3804
0.576 3.790 1.609 6124
0.597 3.929 1.664 1514
0.577 3.795 1.598 5443
0.598 3.933 1.652 1378
0.580 3.813 1.593 3888
0.610 4.011 1.669 1399
0.588 3.869 1.601 4311
0.609 4.008 1.654 1365
0.591 3.888 1.595 5310
0.612 4.027 1.648 1580
0.593 3.899 1.587 4852
0.614 4.039 1.639 2570
0.600 3.947 1.592 5363
0.626 4.116 1.655 2994
0.627 4.128 1.646 4701
0.601 3.952 1.580 3935
0.629 4.140 1.636 5169
0.602 3.963 1.572 2772
0.633 4.166 1.632 4285
0.602 3.960 1.557 2230
0.634 4.170 1.620 3390
0.600 3.949 1.541 1703
0.642 4.226 1.626 3053
0.621 4.086 1.576 2098
0.642 4.223 1.612 4937
0.621 4.083 1.562 1343
0.641 4.220 1.597 6708
0.647 4.254 1.595 5006
0.625 4.113 1.546 1055
0.651 4.280 1.590 4557
0.651 4.284 1.577 5565
0.648 4.266 1.557 5212
0.649 4.270 1.545 3584
0.655 4.312 1.545 3593
0.642 4.226 1.503 4100
0.664 4.368 1.549 1942
0.643 4.230 1.491 5431
0.616 4.051 1.433 1057
0.656 4.316 1.505 4716
0.616 4.055 1.421 1616
0.655 4.313 1.490 4195
0.620 4.081 1.416 1898
0.642 4.227 1.449 3946
0.621 4.085 1.404 2030
0.626 4.118 1.402 2842
0.648 4.261 1.446 2198
0.624 4.107 1.385 2741
0.646 4.249 1.429 2090
0.642 4.223 1.407 2592
0.722 4.748 1.567 2350
0.723 4.759 1.555 2244
0.626 4.122 1.363 1923
0.626 4.118 1.349 2433
0.741 4.876 1.575 2370
0.744 4.895 1.565 3830
0.625 4.114 1.335 2451
0.742 4.884 1.546 4903
0.626 4.117 1.323 1390
0.743 4.888 1.532 5962
0.754 4.960 1.537 4717
0.754 4.964 1.523 5298
0.776 5.107 1.563 1348
0.762 5.013 1.521 4023
0.784 5.157 1.561 1368
0.763 5.017 1.506 6646
0.787 5.176 1.550 2735
0.763 5.021 1.492 5517
0.787 5.180 1.535 2706
0.774 5.093 1.495 3557
0.798 5.252 1.538 3401
0.800 5.264 1.525 5322
0.776 5.105 1.482 2976
0.802 5.275 1.511 7019
0.773 5.086 1.461 1739
0.803 5.287 1.498 6747
0.831 5.469 1.545 2001
0.806 5.306 1.486 5289
0.832 5.473 1.529 2729
0.807 5.310 1.471 3382
0.835 5.492 1.517 2450
0.839 5.519 1.507 2741
0.804 5.291 1.449 1742
0.857 5.637 1.519 2611
0.835 5.492 1.483 1814
0.857 5.640 1.502 2594
0.835 5.496 1.467 1581
0.859 5.652 1.487 4440
0.889 5.850 1.535 1735
0.860 5.656 1.471 3885
0.891 5.862 1.520 2722
0.874 5.751 1.476 3118
0.896 5.896 1.510 2341
0.877 5.770 1.463 3071
0.900 5.923 1.498 2075
0.904 5.950 1.486 2985
0.880 5.789 1.449 2412
0.906 5.961 1.470 4088
0.878 5.778 1.429 1658
0.908 5.973 1.454 2631
0.941 6.194 1.504 1925
0.918 6.038 1.450 1594
0.942 6.198 1.485 1526
0.919 6.049 1.434 1773
0.966 6.355 1.500 1727
0.964 6.344 1.478 2122
0.941 6.191 1.446 1761
0.959 6.309 1.452 2445
0.985 6.478 1.487 1859
0.965 6.351 1.441 2930
0.987 6.497 1.471 2196
0.974 6.409 1.434 3309
0.996 6.555 1.463 2209
0.994 6.543 1.441 2848
0.972 6.397 1.412 2324
0.990 6.516 1.416 2919
1.045 6.877 1.487 1864
0.991 6.520 1.397 3968
1.046 6.881 1.467 2467
0.993 6.531 1.379 3223
1.051 6.916 1.453 2843
1.056 6.950 1.438 2931
0.992 6.527 1.359 1927
1.065 7.008 1.428 2361
0.989 6.507 1.335 1524
1.067 7.019 1.409 2348
1.089 7.165 1.435 1718
1.090 7.169 1.414 2301
1.067 7.023 1.388 2011
1.089 7.165 1.392 2257
1.192 7.844 1.512 1904
1.203 7.917 1.501 1454
1.168 7.686 1.461 1443
1.163 7.651 1.431 1340
1.225 8.060 1.501 1234
1.160 7.631 1.405 1258
1.194 7.855 1.443 1255
1.260 8.292 1.491 1655
1.159 7.627 1.381 1515
1.263 8.311 1.469 2179
1.285 8.458 1.492 1759
1.285 8.454 1.466 3116
1.263 8.307 1.443 1918
1.284 8.450 1.440 4666
1.260 8.287 1.415 1455
1.285 8.454 1.415 5054
1.346 8.856 1.477 1954
1.288 8.473 1.393 5419
1.348 8.868 1.452 2860
1.288 8.476 1.368 5418
1.314 8.647 1.393 3063
1.315 8.650 1.368 3631
1.288 8.472 1.342 3595
1.314 8.646 1.341 2722
1.287 8.468 1.316 2321
1.319 8.681 1.320 2232
1.349 8.875 1.347 2035
1.320 8.684 1.294 2387
1.349 8.878 1.320 1717
1.318 8.672 1.267 1712
1.351 8.889 1.295 1293
1.352 8.892 1.269 1241
1.414 9.304 1.322 1095
1.353 8.903 1.244 1010
0.359 2.313 1.777 4347
0.340 2.192 1.690 1342
0.359 2.317 1.771 8694
0.341 2.196 1.683 2684
0.360 2.322 1.764 8694
0.341 2.201 1.677 2684
0.361 2.327 1.757 7880
0.342 2.205 1.671 2812
0.358 2.306 1.732 8046
0.339 2.184 1.646 1048
0.360 2.323 1.735 13361
0.341 2.201 1.649 1447
0.362 2.334 1.733 19499
0.343 2.212 1.647 1218
0.363 2.339 1.726 19499
0.364 2.343 1.719 22036
0.383 2.466 1.804 1020
0.364 2.348 1.712 24572
0.383 2.471 1.797 1370
0.366 2.359 1.710 20717
0.385 2.482 1.794 1495
0.367 2.363 1.703 16975
0.386 2.487 1.787 1804
0.368 2.374 1.701 12613
0.388 2.498 1.784 2086
0.369 2.379 1.694 8487
0.388 2.503 1.777 2689
0.370 2.383 1.687 5802
0.389 2.508 1.770 2689
0.377 2.427 1.706 3331
0.376 2.425 1.695 3319
0.383 2.469 1.713 4459
0.364 2.344 1.632 1798
0.385 2.480 1.711 6360
0.365 2.355 1.629 1929
0.389 2.504 1.716 7528
0.369 2.379 1.635 2206
0.393 2.535 1.726 9444
0.374 2.410 1.645 2091
0.393 2.533 1.714 10208
0.373 2.407 1.634 1146
0.394 2.538 1.707 10972
0.395 2.549 1.704 11406
0.397 2.560 1.701 11942
0.417 2.687 1.779 1051
0.399 2.571 1.697 8229
0.419 2.698 1.776 1367
0.403 2.596 1.702 5105
0.404 2.607 1.699 4120
0.407 2.625 1.699 3310
0.402 2.589 1.667 3397
0.421 2.717 1.744 1754
0.403 2.600 1.664 3639
0.423 2.728 1.741 1398
0.418 2.692 1.709 2791
0.398 2.564 1.632 1354
0.419 2.704 1.705 2473
0.418 2.695 1.689 2519
0.414 2.672 1.665 3780
0.415 2.676 1.658 4636
0.416 2.681 1.650 4391
0.436 2.810 1.724 1134
0.413 2.665 1.630 4039
0.433 2.794 1.704 1401
0.418 2.696 1.638 5093
0.442 2.846 1.723 1690
0.419 2.701 1.630 6239
0.443 2.858 1.719 2248
0.420 2.705 1.623 6298
0.444 2.862 1.711 2474
0.419 2.702 1.611 5685
0.445 2.867 1.702 2700
0.418 2.693 1.596 5304
0.438 2.823 1.668 2841
0.418 2.697 1.588 4982
0.447 2.883 1.690 3607
0.448 2.887 1.681 4908
0.420 2.708 1.584 4673
0.450 2.898 1.677 5418
0.420 2.705 1.572 3930
0.450 2.903 1.668 5946
0.420 2.709 1.564 2432
0.455 2.935 1.675 5605
0.435 2.803 1.604 1752
0.458 2.953 1.673 5965
0.433 2.794 1.589 1791
0.463 2.985 1.679 7442
0.443 2.854 1.610 1983
0.465 2.997 1.674 6315
0.444 2.865 1.605 1714
0.469 3.022 1.676 4528
0.436 2.813 1.568 1202
0.471 3.034 1.671 4104
0.473 3.052 1.670 6106
0.474 3.056 1.661 7651
0.475 3.061 1.652 7061
0.495 3.194 1.719 2004
0.485 3.128 1.675 7781
0.462 2.981 1.601 1100
0.489 3.154 1.676 11573
0.469 3.020 1.610 1779
0.490 3.158 1.667 15063
0.469 3.024 1.601 1911
0.492 3.170 1.661 13685
0.471 3.036 1.596 1674
0.495 3.188 1.659 9278
0.515 3.322 1.724 1872
0.490 3.157 1.632 6501
0.511 3.291 1.697 4867
0.497 3.204 1.643 8291
0.518 3.338 1.708 2741
0.499 3.215 1.638 10832
0.520 3.350 1.701 3256
0.499 3.220 1.628 8349
0.520 3.354 1.692 3862
0.513 3.309 1.659 6983
0.492 3.174 1.596 2952
0.517 3.335 1.659 5645
0.496 3.200 1.596 3908
0.520 3.353 1.656 5510
0.499 3.218 1.594 4455
0.521 3.358 1.646 8589
0.500 3.222 1.584 2369
0.522 3.362 1.636 11652
0.500 3.226 1.575 1003
0.523 3.374 1.630 10490
0.523 3.371 1.617 7323
0.524 3.375 1.607 5420
0.545 3.511 1.667 1083
0.526 3.393 1.603 6337
0.548 3.530 1.663 1887
0.528 3.405 1.597 7211
0.549 3.541 1.656 2273
0.529 3.409 1.587 5811
0.550 3.546 1.646 2100
0.543 3.500 1.614 5266
0.522 3.363 1.555 2039
0.537 3.461 1.585 6044
0.558 3.598 1.643 3669
0.537 3.465 1.575 5597
0.561 3.616 1.639 3978
0.540 3.483 1.571 4015
0.566 3.650 1.641 3539
0.561 3.618 1.615 3936
0.540 3.480 1.558 2504
0.562 3.622 1.604 4994
0.583 3.760 1.661 1800
0.564 3.634 1.597 6851
0.585 3.771 1.653 2029
0.565 3.645 1.589 9668
0.587 3.783 1.645 2443
0.568 3.664 1.584 8281
0.590 3.802 1.640 4741
0.590 3.806 1.629 7322
0.569 3.668 1.574 3864
0.593 3.825 1.623 6331
0.572 3.687 1.569 2771
0.590 3.800 1.601 4932
0.611 3.939 1.655 1357
0.594 3.826 1.598 4560
0.620 3.994 1.663 1490
0.600 3.867 1.601 4795
0.621 4.006 1.654 1653
0.602 3.879 1.593 5510
0.623 4.018 1.646 1870
0.603 3.890 1.584 4893
0.625 4.029 1.637 2711
0.612 3.946 1.592 5342
0.639 4.122 1.658 3534
0.641 4.133 1.648 5134
0.613 3.950 1.580 3936
0.643 4.145 1.639 4719
0.616 3.969 1.574 2508
0.647 4.172 1.635 3816
0.615 3.965 1.560 1931
0.641 4.132 1.607 3278
0.615 3.962 1.546 1679
0.637 4.106 1.584 2897
0.659 4.247 1.634 1736
0.653 4.207 1.606 4313
0.631 4.066 1.557 1327
0.652 4.203 1.591 8064
0.654 4.215 1.582 6235
0.663 4.271 1.587 4125
0.662 4.268 1.572 5845
0.662 4.264 1.557 5797
0.663 4.276 1.547 3809
0.669 4.310 1.545 2899
0.647 4.168 1.498 1030
0.655 4.224 1.503 3948
0.677 4.366 1.549 1401
0.656 4.228 1.491 5091
0.668 4.307 1.502 3882
0.726 4.680 1.622 1726
0.668 4.303 1.487 4002
0.728 4.691 1.610 1929
0.655 4.225 1.449 3393
0.633 4.083 1.404 2431
0.640 4.124 1.404 2398
0.730 4.707 1.585 1821
0.655 4.225 1.422 2402
0.738 4.756 1.585 2023
0.737 4.753 1.569 2803
0.655 4.221 1.407 2434
0.755 4.870 1.589 2374
0.655 4.225 1.395 1697
0.756 4.874 1.575 2539
0.637 4.108 1.347 1541
0.758 4.885 1.563 3224
0.639 4.119 1.337 1426
0.757 4.882 1.546 4829
0.758 4.886 1.532 6313
0.766 4.935 1.531 4547
0.769 4.954 1.521 5570
0.770 4.966 1.508 3771
0.793 5.109 1.548 1368
0.777 5.007 1.504 5245
0.803 5.173 1.550 2497
0.777 5.011 1.490 5117
0.806 5.193 1.539 2993
0.812 5.234 1.534 3997
0.779 5.023 1.477 2972
0.816 5.261 1.525 5558
0.791 5.102 1.482 2497
0.818 5.273 1.511 6893
0.787 5.076 1.459 1944
0.822 5.299 1.502 5848
0.848 5.466 1.545 2045
0.825 5.318 1.490 5804
0.850 5.478 1.531 2526
0.827 5.330 1.476 4597
0.853 5.497 1.519 2280
0.872 5.622 1.533 2403
0.832 5.364 1.468 2312
0.879 5.664 1.526 2384
0.852 5.489 1.483 1993
0.876 5.645 1.504 2136
0.853 5.501 1.469 1762
0.875 5.642 1.486 4145
0.898 5.786 1.520 1890
0.876 5.646 1.469 3880
0.906 5.844 1.516 2732
0.893 5.756 1.478 3093
0.920 5.931 1.519 2064
0.896 5.775 1.464 2737
0.922 5.943 1.503 2407
0.924 5.954 1.487 3682
0.898 5.787 1.449 2052
0.924 5.958 1.470 4819
0.896 5.775 1.429 1688
0.927 5.977 1.456 3706
0.960 6.191 1.504 2067
0.928 5.981 1.438 2065
0.959 6.180 1.482 1484
0.984 6.345 1.499 1881
0.938 6.046 1.434 1480
0.985 6.348 1.480 2446
0.959 6.180 1.444 1910
0.975 6.283 1.447 2847
1.004 6.475 1.487 2063
1.005 6.479 1.468 2675
0.982 6.333 1.438 2527
0.994 6.406 1.434 3169
1.016 6.552 1.463 1992
0.994 6.410 1.415 3306
1.017 6.555 1.444 2202
1.010 6.513 1.416 2907
1.065 6.866 1.486 1722
1.011 6.517 1.397 3553
1.067 6.878 1.467 2284
1.011 6.520 1.378 2762
1.075 6.928 1.456 2461
1.080 6.962 1.441 2851
1.008 6.501 1.354 1708
1.087 7.004 1.428 2520
1.056 6.804 1.391 1882
1.087 7.008 1.407 2565
1.056 6.808 1.371 2040
1.112 7.166 1.414 2017
1.088 7.012 1.387 1992
1.217 7.848 1.513 1930
1.111 7.162 1.392 1825
1.192 7.682 1.461 1534
1.241 7.998 1.515 1438
1.186 7.647 1.431 1451
1.216 7.840 1.464 1268
1.217 7.844 1.441 1442
1.182 7.620 1.404 1377
1.183 7.624 1.381 1620
1.287 8.295 1.492 1541
1.289 8.307 1.469 1945
1.311 8.454 1.492 1611
1.311 8.450 1.466 3227
1.288 8.303 1.443 1622
1.310 8.446 1.440 5017
1.284 8.276 1.414 1442
1.311 8.450 1.415 5548
1.373 8.852 1.477 2241
1.314 8.469 1.393 6354
1.375 8.864 1.452 3812
1.314 8.472 1.368 6613
1.376 8.867 1.426 4467
1.314 8.468 1.342 4660
1.376 8.871 1.400 3820
1.314 8.472 1.317 3221
1.341 8.642 1.341 2766
1.315 8.475 1.292 2407
1.376 8.870 1.347 2225
1.345 8.672 1.293 2046
1.377 8.874 1.320 1946
1.343 8.660 1.266 1732
1.378 8.885 1.295 1611
1.379 8.888 1.269 1623
1.381 8.899 1.244 1409
0.366 2.311 1.777 3917
0.347 2.191 1.690 1435
0.367 2.316 1.771 7835
0.347 2.195 1.683 2870
0.367 2.321 1.764 7835
0.348 2.200 1.677 2870
0.369 2.332 1.762 6549
0.350 2.210 1.675 3372
0.364 2.298 1.728 6407
0.369 2.328 1.739 11789
0.349 2.206 1.653 1928
0.369 2.333 1.733 18640
0.350 2.211 1.647 1384
0.370 2.338 1.726 18640
0.351 2.215 1.641 1037
0.371 2.342 1.719 21243
0.390 2.465 1.804 1033
0.372 2.353 1.717 23947
0.392 2.476 1.801 1241
0.373 2.358 1.710 19875
0.393 2.481 1.794 1627
0.374 2.362 1.703 15804
0.393 2.486 1.787 2013
0.375 2.367 1.696 11999
0.394 2.490 1.780 2557
0.376 2.378 1.694 8614
0.396 2.502 1.777 2816
0.378 2.389 1.691 6079
0.398 2.513 1.774 2445
0.383 2.419 1.702 4572
0.403 2.544 1.784 1018
0.384 2.424 1.695 4512
0.383 2.422 1.683 3855
0.403 2.547 1.765 2639
0.401 2.532 1.745 5404
0.380 2.400 1.659 3494
0.401 2.536 1.737 7880
0.382 2.411 1.657 2650
0.402 2.541 1.730 10356
0.382 2.415 1.650 1834
0.403 2.545 1.723 10630
0.383 2.420 1.643 1080
0.404 2.550 1.715 10904
0.405 2.561 1.712 11331
0.406 2.566 1.705 11805
0.408 2.577 1.701 8999
0.411 2.595 1.702 6956
0.411 2.599 1.695 5437
0.414 2.617 1.695 3992
0.414 2.615 1.684 3747
0.421 2.660 1.700 3710
0.424 2.678 1.701 2721
0.426 2.689 1.697 1886
0.425 2.687 1.685 2380
0.423 2.671 1.665 3679
0.422 2.668 1.654 4593
0.423 2.673 1.646 4472
0.443 2.802 1.720 1288
0.422 2.663 1.630 4253
0.442 2.793 1.704 1896
0.427 2.695 1.638 5453
0.447 2.825 1.712 1711
0.427 2.699 1.630 6806
0.453 2.863 1.723 1912
0.428 2.704 1.623 7126
0.453 2.861 1.711 1985
0.427 2.701 1.611 6621
0.454 2.865 1.702 2063
0.426 2.691 1.596 6310
0.447 2.822 1.668 2498
0.427 2.696 1.588 5941
0.455 2.874 1.686 3336
0.427 2.700 1.580 5571
0.456 2.879 1.677 4555
0.457 2.890 1.673 5031
0.428 2.704 1.572 4795
0.459 2.901 1.668 5552
0.428 2.701 1.561 3204
0.465 2.940 1.678 6346
0.428 2.705 1.553 2326
0.468 2.959 1.677 7489
0.442 2.792 1.589 1880
0.471 2.977 1.676 8762
0.443 2.797 1.581 2090
0.473 2.988 1.671 7092
0.443 2.801 1.573 2023
0.478 3.021 1.676 5107
0.443 2.798 1.561 1754
0.480 3.032 1.671 5098
0.442 2.795 1.549 1586
0.482 3.043 1.666 6839
0.443 2.799 1.541 1061
0.483 3.055 1.661 7960
0.484 3.059 1.652 7148
0.505 3.192 1.719 1918
0.495 3.127 1.675 7394
0.474 2.993 1.608 1036
0.498 3.145 1.672 11596
0.477 3.012 1.606 1058
0.500 3.157 1.667 15226
0.478 3.023 1.601 1224
0.500 3.161 1.658 14129
0.521 3.295 1.723 1585
0.500 3.158 1.645 9652
0.521 3.292 1.710 3455
0.495 3.127 1.619 7473
0.518 3.276 1.690 5748
0.507 3.202 1.643 7806
0.528 3.337 1.708 2872
0.509 3.214 1.638 10440
0.530 3.348 1.701 3235
0.509 3.218 1.628 7682
0.531 3.353 1.692 3504
0.522 3.300 1.655 6522
0.501 3.165 1.592 3113
0.511 3.226 1.609 5074
0.532 3.362 1.672 4016
0.530 3.352 1.656 4882
0.509 3.216 1.594 4452
0.532 3.363 1.649 7628
0.511 3.228 1.587 2699
0.533 3.368 1.639 10494
0.512 3.232 1.578 1531
0.534 3.372 1.630 9672
0.533 3.369 1.617 7133
0.534 3.373 1.607 5583
0.555 3.509 1.667 1265
0.537 3.392 1.603 6757
0.558 3.528 1.663 1985
0.539 3.403 1.597 8112
0.560 3.540 1.656 2390
0.539 3.407 1.587 6966
0.561 3.544 1.646 2064
0.554 3.498 1.614 4920
0.532 3.361 1.555 2234
0.546 3.452 1.582 4795
0.569 3.596 1.643 3646
0.568 3.586 1.627 4816
0.546 3.449 1.569 4395
0.551 3.482 1.571 3979
0.574 3.626 1.632 3438
0.585 3.696 1.648 3998
0.553 3.493 1.564 2744
0.586 3.700 1.637 5259
0.564 3.562 1.581 2052
0.575 3.632 1.597 5880
0.597 3.770 1.653 2185
0.577 3.643 1.589 8831
0.598 3.781 1.645 2291
0.578 3.655 1.582 7235
0.600 3.793 1.637 4487
0.603 3.812 1.632 7129
0.581 3.673 1.577 3315
0.606 3.831 1.626 6433
0.584 3.692 1.572 2594
0.606 3.828 1.612 5163
0.584 3.689 1.558 2566
0.606 3.832 1.601 5321
0.584 3.693 1.547 1628
0.611 3.858 1.598 5735
0.633 3.997 1.652 1735
0.612 3.869 1.590 6036
0.634 4.008 1.643 1694
0.614 3.881 1.581 5001
0.636 4.020 1.634 2361
0.624 3.944 1.592 5047
0.652 4.120 1.658 3552
0.654 4.131 1.648 5039
0.631 3.985 1.594 3856
0.655 4.136 1.636 4151
0.632 3.996 1.585 3088
0.661 4.177 1.638 3529
0.639 4.037 1.587 2243
0.648 4.093 1.594 3480
0.670 4.233 1.644 2350
0.647 4.090 1.579 3516
0.669 4.230 1.629 1590
0.664 4.197 1.604 4701
0.642 4.057 1.554 1194
0.665 4.201 1.591 9974
0.667 4.213 1.582 8315
0.669 4.224 1.572 4854
0.670 4.236 1.562 6510
0.672 4.247 1.552 6206
0.672 4.244 1.537 4623
0.671 4.241 1.523 4083
0.672 4.245 1.510 4522
0.672 4.249 1.498 4811
0.740 4.673 1.635 1273
0.678 4.282 1.495 4299
0.740 4.677 1.622 2178
0.680 4.294 1.485 4467
0.743 4.697 1.613 2615
0.743 4.693 1.597 2708
0.681 4.305 1.475 2673
0.743 4.697 1.583 2595
0.648 4.092 1.395 2023
0.652 4.118 1.390 2454
0.748 4.724 1.576 2206
0.654 4.129 1.380 3077
0.753 4.758 1.572 2458
0.769 4.860 1.587 2432
0.653 4.125 1.366 1977
0.771 4.871 1.575 2553
0.652 4.121 1.351 1981
0.779 4.921 1.574 2860
0.653 4.125 1.339 1757
0.772 4.880 1.546 4425
0.773 4.884 1.532 5771
0.781 4.933 1.531 4933
0.784 4.952 1.521 5527
0.786 4.963 1.508 3766
0.821 5.189 1.571 1307
0.790 4.990 1.500 3900
0.821 5.186 1.554 2155
0.793 5.009 1.490 4180
0.823 5.198 1.541 3090
0.826 5.217 1.530 4153
0.795 5.020 1.477 2860
0.830 5.243 1.521 5459
0.800 5.054 1.470 2113
0.833 5.263 1.509 7212
0.802 5.066 1.457 1807
0.838 5.297 1.502 6043
0.816 5.153 1.464 2123
0.841 5.316 1.490 6179
0.870 5.498 1.537 1973
0.843 5.327 1.476 5003
0.874 5.524 1.527 1949
0.849 5.361 1.468 2652
0.888 5.612 1.531 1957
0.864 5.456 1.475 2628
0.897 5.669 1.528 2567
0.893 5.643 1.504 2092
0.851 5.377 1.439 1702
0.892 5.639 1.486 3619
0.915 5.784 1.520 1828
0.893 5.643 1.469 3280
0.924 5.841 1.516 2736
0.912 5.761 1.479 3197
0.940 5.936 1.521 2188
0.928 5.864 1.485 3072
0.951 6.009 1.519 1832
0.942 5.952 1.487 4100
0.914 5.776 1.447 1924
0.944 5.963 1.472 5273
0.985 6.223 1.530 2047
0.946 5.975 1.456 4477
0.981 6.196 1.505 1827
0.946 5.978 1.438 2502
0.976 6.169 1.480 1360
1.000 6.319 1.494 1783
0.952 6.013 1.428 1329
0.992 6.269 1.464 2867
1.022 6.460 1.505 1441
0.993 6.273 1.445 3457
1.024 6.472 1.487 2086
1.025 6.476 1.468 2729
0.998 6.307 1.433 2276
1.013 6.403 1.434 3003
0.990 6.257 1.404 1590
1.015 6.414 1.416 4106
1.067 6.744 1.483 1681
1.028 6.495 1.413 2682
1.068 6.748 1.463 1684
1.030 6.506 1.395 2742
1.076 6.798 1.452 1934
1.106 6.986 1.467 2711
1.076 6.801 1.432 2505
1.104 6.974 1.444 3013
1.076 6.797 1.411 2122
1.108 7.001 1.428 2747
1.076 6.801 1.391 2281
1.109 7.005 1.407 2817
1.077 6.805 1.371 2229
1.108 7.001 1.385 2183
1.134 7.162 1.414 1657
1.241 7.844 1.513 1797
1.217 7.690 1.486 1508
1.218 7.694 1.463 1673
1.264 7.986 1.514 1541
1.240 7.836 1.464 1493
1.210 7.643 1.431 1287
1.240 7.832 1.440 1420
1.334 8.426 1.539 1276
1.206 7.620 1.381 1545
1.315 8.307 1.494 1417
1.274 8.048 1.428 1713
1.315 8.311 1.470 1615
1.336 8.438 1.465 3096
1.277 8.067 1.406 1690
1.336 8.442 1.440 4929
1.309 8.272 1.414 1323
1.337 8.446 1.415 5474
1.400 8.848 1.477 2210
1.340 8.465 1.393 6554
1.402 8.859 1.452 4353
1.340 8.468 1.368 7203
1.403 8.863 1.426 5492
1.340 8.464 1.342 5307
1.403 8.867 1.400 4673
1.340 8.468 1.317 3706
1.404 8.870 1.374 3180
1.341 8.471 1.292 2769
1.403 8.866 1.347 2506
1.404 8.870 1.320 2042
1.342 8.482 1.269 1864
1.406 8.881 1.295 1606
1.370 8.656 1.266 1577
1.406 8.884 1.269 1692
1.408 8.895 1.244 1607
0.374 2.304 1.773 3563
0.354 2.183 1.685 1533
0.374 2.308 1.766 7126
0.355 2.187 1.679 3067
0.375 2.313 1.759 7126
0.356 2.192 1.672 3067
0.373 2.298 1.739 5572
0.353 2.177 1.652 2141
0.372 2.290 1.723 5471
0.378 2.333 1.744 10681
0.359 2.211 1.658 2402
0.378 2.332 1.733 17663
0.358 2.209 1.647 1374
0.379 2.336 1.726 17663
0.359 2.214 1.641 1013
0.381 2.347 1.723 20238
0.381 2.352 1.717 22893
0.401 2.475 1.801 1282
0.382 2.356 1.710 18537
0.402 2.479 1.794 1744
0.383 2.361 1.703 14182
0.403 2.484 1.787 2207
0.385 2.372 1.701 11100
0.405 2.495 1.784 2302
0.387 2.383 1.698 8796
0.407 2.507 1.781 2460
0.389 2.400 1.700 6788
0.409 2.524 1.783 1643
0.392 2.418 1.702 5761
0.412 2.542 1.784 1105
0.392 2.416 1.690 5700
0.412 2.540 1.772 1297
0.392 2.414 1.679 4303
0.412 2.539 1.761 3456
0.410 2.530 1.745 5810
0.390 2.405 1.664 3225
0.411 2.535 1.737 8363
0.391 2.409 1.657 2296
0.412 2.539 1.730 10916
0.392 2.414 1.650 1367
0.414 2.550 1.727 10987
0.414 2.555 1.719 11062
0.415 2.560 1.712 11582
0.416 2.564 1.705 12103
0.418 2.575 1.701 10373
0.420 2.586 1.698 8994
0.420 2.591 1.691 6868
0.420 2.589 1.679 4745
0.441 2.716 1.756 1199
0.425 2.620 1.688 4236
0.430 2.651 1.696 4481
0.433 2.669 1.697 3366
0.435 2.680 1.693 2561
0.436 2.685 1.685 2762
0.432 2.662 1.661 3484
0.433 2.667 1.654 4340
0.432 2.664 1.642 4468
0.453 2.793 1.716 1794
0.445 2.743 1.677 4830
0.437 2.693 1.638 5617
0.458 2.823 1.712 2199
0.439 2.704 1.634 7104
0.460 2.834 1.707 2143
0.438 2.702 1.623 7407
0.459 2.832 1.695 2222
0.438 2.699 1.611 7289
0.459 2.829 1.683 2076
0.437 2.697 1.599 7010
0.459 2.827 1.671 2550
0.437 2.694 1.588 6718
0.463 2.852 1.675 3234
0.438 2.698 1.580 6465
0.466 2.870 1.674 4233
0.438 2.702 1.572 5677
0.469 2.888 1.673 4465
0.475 2.927 1.683 5382
0.438 2.700 1.561 3964
0.477 2.939 1.678 7041
0.439 2.704 1.553 2923
0.480 2.957 1.677 8808
0.439 2.708 1.545 2050
0.483 2.975 1.676 10057
0.461 2.843 1.606 1923
0.483 2.980 1.667 7895
0.462 2.848 1.598 1587
0.490 3.019 1.676 5826
0.468 2.887 1.608 1655
0.492 3.030 1.671 6132
0.451 2.779 1.542 1230
0.493 3.042 1.666 7445
0.495 3.053 1.661 7838
0.496 3.057 1.652 6794
0.517 3.190 1.719 1762
0.507 3.125 1.675 7158
0.485 2.992 1.608 1062
0.509 3.136 1.669 11687
0.511 3.148 1.663 15234
0.532 3.281 1.729 1157
0.511 3.152 1.654 14423
0.533 3.286 1.720 1598
0.512 3.156 1.645 10437
0.534 3.290 1.710 3484
0.507 3.125 1.619 8906
0.531 3.274 1.690 6082
0.513 3.165 1.627 7786
0.535 3.299 1.691 6206
0.520 3.205 1.634 9777
0.542 3.339 1.698 4009
0.521 3.209 1.625 6927
0.542 3.344 1.688 3514
0.535 3.298 1.655 5497
0.513 3.163 1.592 3115
0.530 3.267 1.629 4742
0.552 3.402 1.692 1435
0.544 3.357 1.659 4675
0.521 3.215 1.594 3779
0.546 3.368 1.653 7344
0.524 3.233 1.591 2759
0.547 3.373 1.643 9768
0.525 3.237 1.581 1947
0.548 3.377 1.633 8994
0.526 3.241 1.572 1144
0.546 3.367 1.617 6877
0.546 3.364 1.604 5836
0.568 3.500 1.664 1563
0.551 3.397 1.607 6984
0.573 3.533 1.666 1966
0.553 3.408 1.600 8547
0.575 3.545 1.659 2427
0.552 3.405 1.587 7642
0.580 3.578 1.661 2233
0.554 3.417 1.580 4692
0.582 3.589 1.654 2008
0.583 3.594 1.643 3865
0.558 3.442 1.579 3673
0.584 3.598 1.633 5902
0.561 3.461 1.575 3909
0.586 3.610 1.626 5304
0.563 3.472 1.568 3701
0.591 3.643 1.627 5170
0.566 3.491 1.564 2602
0.597 3.683 1.631 6696
0.574 3.538 1.572 1984
0.603 3.717 1.632 5784
0.581 3.579 1.576 2719
0.591 3.641 1.589 6982
0.613 3.779 1.645 2208
0.591 3.645 1.579 5599
0.616 3.798 1.640 4034
0.619 3.817 1.635 6477
0.597 3.678 1.580 2676
0.622 3.835 1.629 6589
0.600 3.697 1.575 2971
0.625 3.854 1.624 6058
0.603 3.716 1.570 4296
0.622 3.837 1.604 6280
0.600 3.698 1.550 1912
0.625 3.856 1.598 6768
0.648 3.994 1.652 1891
0.627 3.867 1.590 6638
0.650 4.006 1.643 1389
0.628 3.871 1.579 5266
0.651 4.010 1.631 1631
0.639 3.941 1.592 4451
0.668 4.117 1.658 3212
0.670 4.129 1.648 4723
0.647 3.989 1.597 4117
0.654 4.030 1.599 4028
0.676 4.170 1.650 3696
0.681 4.196 1.646 3725
0.657 4.049 1.592 2738
0.668 4.120 1.604 3969
0.642 3.958 1.546 2340
0.663 4.087 1.579 4082
0.686 4.227 1.629 1783
0.680 4.195 1.604 5307
0.658 4.054 1.554 1573
0.681 4.199 1.591 11286
0.658 4.058 1.542 1147
0.683 4.210 1.582 10439
0.684 4.214 1.569 7418
0.685 4.226 1.560 9251
0.686 4.230 1.547 8374
0.687 4.234 1.535 6922
0.686 4.231 1.520 6540
0.688 4.242 1.510 5723
0.690 4.253 1.500 5106
0.758 4.670 1.635 1586
0.694 4.280 1.495 4827
0.759 4.682 1.624 2586
0.696 4.291 1.485 4642
0.761 4.694 1.613 3182
0.761 4.690 1.597 3319
0.700 4.317 1.479 3290
0.762 4.695 1.583 3219
0.701 4.321 1.467 1556
0.666 4.108 1.387 2345
0.760 4.684 1.565 2326
0.668 4.119 1.378 2811
0.775 4.778 1.578 1769
0.668 4.115 1.363 2767
0.788 4.857 1.587 2287
0.788 4.861 1.573 2662
0.669 4.126 1.354 2519
0.796 4.910 1.572 2655
0.674 4.152 1.348 2181
0.792 4.884 1.549 3704
0.673 4.148 1.334 1335
0.794 4.896 1.537 4330
0.800 4.930 1.531 5325
0.803 4.949 1.521 5190
0.826 5.092 1.561 1024
0.806 4.968 1.510 3495
0.829 5.111 1.550 1285
0.824 5.077 1.525 3029
0.847 5.221 1.564 1122
0.812 5.006 1.490 3253
0.841 5.187 1.539 3025
0.844 5.206 1.528 3775
0.814 5.017 1.477 2738
0.849 5.233 1.519 4875
0.817 5.036 1.466 1881
0.854 5.267 1.511 6906
0.831 5.123 1.473 1797
0.859 5.294 1.502 6903
0.835 5.150 1.464 1981
0.862 5.313 1.490 6519
0.892 5.502 1.539 1927
0.866 5.339 1.480 4763
0.898 5.536 1.530 2121
0.884 5.449 1.491 3102
0.861 5.305 1.455 2055
0.886 5.461 1.477 3065
0.919 5.666 1.528 2721
0.915 5.639 1.504 2490
0.872 5.373 1.439 1692
0.914 5.636 1.486 3244
0.938 5.780 1.520 1700
0.933 5.754 1.496 2763
0.910 5.609 1.462 2060
0.934 5.757 1.479 3385
0.957 5.902 1.513 2121
0.936 5.769 1.464 3365
0.965 5.952 1.507 2708
0.964 5.940 1.486 4339
0.936 5.773 1.447 1934
0.965 5.952 1.470 5742
1.009 6.219 1.530 2184
0.969 5.971 1.456 4667
1.008 6.215 1.510 1676
0.973 5.998 1.444 2576
1.001 6.173 1.482 1153
0.976 6.017 1.429 1703
1.023 6.307 1.492 1499
1.016 6.265 1.464 3399
1.040 6.410 1.495 1451
1.017 6.269 1.445 3810
1.049 6.468 1.487 1998
1.050 6.472 1.468 2804
1.020 6.288 1.430 1914
1.038 6.399 1.434 3060
1.062 6.544 1.463 1327
1.041 6.418 1.418 4088
1.093 6.740 1.483 1661
1.047 6.452 1.405 2653
