4.168 5.224 1.595 1758
4.098 5.137 1.551 2598
3.968 4.973 1.506 2176
4.101 5.140 1.532 3679
4.009 5.025 1.500 1623
4.103 5.143 1.513 2547
4.195 5.258 1.544 2132
4.207 5.273 1.527 2966
4.333 5.431 1.569 1862
4.224 5.295 1.513 3361
4.345 5.446 1.552 1893
4.227 5.298 1.493 3235
4.353 5.455 1.534 3079
4.360 5.465 1.515 5385
4.224 5.295 1.472 2925
4.367 5.474 1.496 5069
4.459 5.589 1.525 2288
4.389 5.501 1.482 4827
4.549 5.702 1.531 2836
4.392 5.504 1.462 5279
4.561 5.717 1.513 3225
4.569 5.726 1.493 3882
4.389 5.501 1.440 3532
4.571 5.729 1.472 4823
4.396 5.510 1.421 2186
4.574 5.732 1.451 4681
4.729 5.927 1.496 2679
4.571 5.729 1.428 3411
4.722 5.918 1.471 3328
4.715 5.909 1.446 2828
4.573 5.732 1.407 2097
4.717 5.912 1.424 2203
4.576 5.735 1.386 1679
4.744 5.945 1.409 1590
4.894 6.135 1.450 1490
4.760 5.967 1.391 1939
4.902 6.144 1.428 1450
4.758 5.963 1.368 2872
4.909 6.153 1.407 1741
4.755 5.960 1.344 2791
4.911 6.156 1.384 1545
4.752 5.957 1.321 2361
4.962 6.220 1.373 1424
4.755 5.959 1.299 3642
4.847 6.075 1.322 1413
4.752 5.956 1.275 5079
4.845 6.072 1.298 1680
4.754 5.958 1.253 4421
4.847 6.075 1.275 1284
4.766 5.973 1.234 4066
5.904 7.400 1.497 1105
4.773 5.982 1.213 4438
5.912 7.409 1.471 1095
4.774 5.984 1.190 3293
5.914 7.412 1.443 1118
4.771 5.980 1.167 2050
5.916 7.415 1.416 1094
4.778 5.989 1.146 1944
4.780 5.991 1.124 2652
4.777 5.987 1.100 2687
4.779 5.989 1.078 1363
1.416 1.757 1.717 5932
1.419 1.761 1.711 11865
1.495 1.856 1.798 1965
1.421 1.764 1.704 11865
1.498 1.860 1.791 2026
1.424 1.768 1.698 11368
1.501 1.864 1.785 3205
1.427 1.771 1.691 10872
1.504 1.867 1.778 4384
1.430 1.775 1.685 8789
1.507 1.871 1.771 5202
1.429 1.773 1.674 6711
1.506 1.870 1.760 6057
1.436 1.782 1.672 6604
1.513 1.879 1.757 6021
1.443 1.791 1.670 5450
1.520 1.887 1.755 4754
1.454 1.804 1.672 4709
1.532 1.901 1.757 3215
1.514 1.879 1.728 3892
1.436 1.782 1.644 2384
1.517 1.883 1.721 3663
1.438 1.786 1.637 1434
1.524 1.892 1.718 3662
1.445 1.794 1.635 1598
1.548 1.921 1.733 4657
1.469 1.823 1.650 1809
1.546 1.919 1.722 6976
1.463 1.816 1.635 1192
1.545 1.918 1.710 9717
1.548 1.921 1.703 9670
1.551 1.925 1.696 10388
1.558 1.934 1.693 11196
1.565 1.942 1.691 9673
1.644 2.041 1.771 1526
1.580 1.962 1.696 9794
1.660 2.061 1.777 1356
1.583 1.965 1.689 8420
1.663 2.064 1.769 2040
1.636 2.031 1.732 7989
1.556 1.932 1.652 4082
1.614 2.004 1.700 9178
1.694 2.103 1.779 1068
1.600 1.986 1.676 11378
1.680 2.086 1.754 4012
1.603 1.990 1.668 9866
1.683 2.089 1.747 4863
1.661 2.061 1.714 10697
1.580 1.961 1.636 4360
1.659 2.060 1.703 11680
1.579 1.960 1.625 2266
1.662 2.063 1.695 12921
1.581 1.963 1.618 1167
1.665 2.067 1.688 11806
1.676 2.081 1.688 10963
1.688 2.095 1.689 12514
1.695 2.104 1.685 15032
1.698 2.107 1.677 13881
1.779 2.209 1.753 1446
1.701 2.111 1.669 11450
1.782 2.212 1.744 2111
1.708 2.120 1.666 9551
1.790 2.221 1.740 3243
1.711 2.123 1.658 7098
1.793 2.225 1.732 4676
1.774 2.202 1.704 7247
1.692 2.100 1.630 3562
1.777 2.205 1.696 9137
1.694 2.103 1.623 3374
1.784 2.214 1.692 11061
1.701 2.112 1.619 3639
1.787 2.218 1.684 12492
1.704 2.115 1.611 3632
1.790 2.221 1.676 13924
1.707 2.119 1.603 3046
1.792 2.225 1.668 16103
1.710 2.122 1.596 2466
1.808 2.245 1.671 18617
1.725 2.142 1.599 3205
1.837 2.281 1.685 21730
1.754 2.177 1.614 5701
1.831 2.273 1.669 22546
1.748 2.170 1.598 3318
1.821 2.260 1.650 24892
1.904 2.364 1.720 2964
1.819 2.258 1.638 20062
1.903 2.362 1.708 3340
1.818 2.256 1.626 12815
1.901 2.360 1.695 4081
1.812 2.249 1.610 10798
1.895 2.353 1.679 4852
1.814 2.252 1.602 8400
1.916 2.378 1.685 5373
1.919 2.382 1.676 5666
1.813 2.250 1.590 4347
1.917 2.380 1.664 5262
1.815 2.253 1.582 2703
1.920 2.383 1.655 6640
1.836 2.278 1.588 2780
1.927 2.392 1.650 7316
1.843 2.287 1.583 3116
1.930 2.395 1.641 6569
1.845 2.291 1.574 2607
1.950 2.421 1.646 5006
1.866 2.316 1.580 3778
1.962 2.435 1.645 4441
2.051 2.546 1.714 2064
1.969 2.444 1.639 4276
2.059 2.555 1.708 1618
1.976 2.453 1.633 4200
2.061 2.559 1.699 1718
2.051 2.546 1.679 3908
1.966 2.440 1.614 2783
2.058 2.555 1.673 5788
1.973 2.449 1.609 2875
2.065 2.564 1.667 8059
1.980 2.458 1.603 2985
2.073 2.573 1.661 10203
1.987 2.467 1.597 2314
2.080 2.582 1.655 7497
2.166 2.688 1.718 1574
2.110 2.619 1.665 8000
2.015 2.501 1.596 1235
2.113 2.622 1.656 9866
2.027 2.516 1.593 1119
2.115 2.626 1.646 10492
2.123 2.635 1.640 8253
2.209 2.742 1.701 1269
2.139 2.655 1.639 8502
2.142 2.658 1.630 9257
2.149 2.667 1.623 7260
2.235 2.775 1.684 1791
2.211 2.744 1.654 4056
2.124 2.637 1.594 2438
2.218 2.753 1.647 3526
2.132 2.646 1.588 2252
2.216 2.751 1.634 3407
2.130 2.644 1.575 1247
2.219 2.755 1.624 3520
2.263 2.809 1.642 4594
2.176 2.701 1.583 2026
2.270 2.818 1.634 7866
2.183 2.710 1.576 1059
2.273 2.821 1.624 8726
2.360 2.930 1.682 1845
2.271 2.819 1.610 7961
2.358 2.927 1.668 2374
2.269 2.817 1.597 5605
2.357 2.925 1.654 2638
2.336 2.900 1.628 4078
2.249 2.792 1.572 2936
2.348 2.915 1.624 3823
2.261 2.806 1.567 3390
2.356 2.924 1.616 4359
2.268 2.815 1.560 3507
2.386 2.962 1.622 5024
2.280 2.830 1.555 2140
2.403 2.982 1.620 5034
2.315 2.873 1.565 1721
2.415 2.997 1.615 4731
2.502 3.106 1.669 3577
2.496 3.098 1.652 6153
2.394 2.972 1.589 2941
2.485 3.084 1.632 7349
2.397 2.975 1.578 2928
2.469 3.065 1.610 8434
2.557 3.174 1.663 1416
2.467 3.062 1.595 5184
2.560 3.178 1.651 1705
2.507 3.112 1.606 1976
2.595 3.222 1.659 1454
2.575 3.196 1.633 2835
2.486 3.086 1.581 1813
2.587 3.211 1.627 3734
2.498 3.101 1.575 2886
2.590 3.214 1.615 3454
2.501 3.104 1.564 2292
2.597 3.224 1.606 2757
2.508 3.113 1.555 1281
2.553 3.169 1.567 2669
2.656 3.297 1.626 1995
2.555 3.172 1.555 3634
2.644 3.282 1.605 1908
2.656 3.297 1.598 3650
2.567 3.187 1.549 2954
2.669 3.312 1.591 5764
2.579 3.202 1.542 2330
2.676 3.322 1.582 4609
2.587 3.211 1.533 1697
2.688 3.336 1.575 2726
2.810 3.488 1.641 1207
2.813 3.492 1.628 2257
2.691 3.340 1.562 2031
2.872 3.565 1.645 2937
2.717 3.372 1.562 1680
2.851 3.539 1.619 3811
2.729 3.387 1.555 2620
2.854 3.543 1.606 3700
2.736 3.396 1.545 2381
2.937 3.646 1.634 2495
2.847 3.534 1.588 1776
2.930 3.637 1.616 2988
2.909 3.611 1.591 3392
2.999 3.723 1.636 1993
2.907 3.609 1.575 3557
2.997 3.721 1.620 2026
2.972 3.689 1.592 2799
2.881 3.577 1.547 1704
2.984 3.704 1.583 4154
3.074 3.816 1.627 1883
2.986 3.707 1.569 4652
3.077 3.819 1.613 1995
3.146 3.905 1.631 3360
2.984 3.704 1.553 2761
3.149 3.908 1.616 3984
2.996 3.719 1.544 2750
3.170 3.935 1.611 3088
3.008 3.734 1.535 2903
3.187 3.956 1.603 3196
3.049 3.785 1.539 2300
3.190 3.960 1.588 4141
3.056 3.794 1.527 1524
3.193 3.963 1.573 6045
3.064 3.803 1.515 1142
3.205 3.978 1.563 4701
3.255 4.041 1.570 3775
3.346 4.154 1.610 1037
3.267 4.056 1.559 3396
3.358 4.169 1.599 1992
3.332 4.136 1.571 3459
3.227 4.006 1.525 2470
3.335 4.140 1.555 3595
3.244 4.027 1.516 2490
3.275 4.065 1.514 3300
3.366 4.179 1.552 2982
3.354 4.164 1.531 3897
3.263 4.051 1.492 1451
3.420 4.245 1.541 6088
3.328 4.131 1.503 2485
3.427 4.254 1.527 6196
3.518 4.367 1.565 2012
3.429 4.257 1.512 4836
3.521 4.370 1.549 3353
3.509 4.356 1.527 5691
3.610 4.481 1.567 3315
3.516 4.365 1.512 4840
3.613 4.484 1.550 4623
3.543 4.398 1.505 4539
3.678 4.566 1.558 3708
3.671 4.557 1.537 3519
3.541 4.395 1.487 3178
3.649 4.530 1.511 2630
3.751 4.656 1.550 2064
3.787 4.701 1.545 2924
3.686 4.575 1.507 2263
3.785 4.698 1.526 2768
3.683 4.572 1.488 2311
3.947 4.900 1.567 3076
3.778 4.689 1.505 1819
3.964 4.921 1.554 3078
3.867 4.801 1.519 1613
3.977 4.936 1.539 2813
4.127 5.123 1.592 1499
4.193 5.204 1.595 2635
3.984 4.945 1.522 2548
4.195 5.208 1.576 3328
3.996 4.961 1.507 2246
4.130 5.126 1.533 3745
4.222 5.241 1.565 1691
4.137 5.136 1.516 2624
4.230 5.250 1.547 1871
4.359 5.410 1.569 2500
4.213 5.229 1.521 2355
4.371 5.426 1.552 2669
4.254 5.281 1.514 2361
4.403 5.465 1.542 4143
4.247 5.272 1.491 2574
4.391 5.450 1.517 6851
4.245 5.269 1.470 2580
4.398 5.459 1.498 6675
4.491 5.574 1.527 2248
4.415 5.480 1.482 6809
4.566 5.668 1.528 2728
4.418 5.484 1.462 6897
4.549 5.647 1.501 3050
4.420 5.487 1.441 4689
4.601 5.711 1.495 3626
4.598 5.708 1.472 4596
4.422 5.489 1.421 3402
4.596 5.705 1.449 4630
4.425 5.492 1.400 2912
4.598 5.708 1.428 3423
4.755 5.902 1.472 3000
4.747 5.893 1.448 2436
4.596 5.704 1.406 2110
4.745 5.890 1.424 2085
4.603 5.713 1.386 1656
4.825 5.990 1.424 1890
4.982 6.184 1.466 1618
4.823 5.987 1.400 2290
4.970 6.169 1.439 2074
4.825 5.989 1.378 2120
5.119 6.355 1.454 1876
4.818 5.980 1.353 1862
5.127 6.364 1.431 1585
5.212 6.470 1.428 1816
4.820 5.983 1.331 1791
4.783 5.937 1.299 2322
5.426 6.735 1.456 1826
4.775 5.927 1.274 3523
5.423 6.732 1.430 1940
4.777 5.930 1.252 4068
5.426 6.735 1.404 2067
4.779 5.932 1.230 4516
5.428 6.738 1.379 1635
4.781 5.935 1.208 3872
5.814 7.217 1.441 1362
4.837 6.004 1.198 3153
5.816 7.220 1.414 1481
4.810 5.970 1.169 3465
5.818 7.222 1.387 1376
4.806 5.966 1.146 3259
5.821 7.225 1.360 1139
4.798 5.956 1.122 2784
4.800 5.958 1.099 3036
4.802 5.961 1.077 2211
4.809 5.969 1.056 1095
1.421 1.753 1.717 5205
1.498 1.848 1.805 1132
1.424 1.757 1.711 10411
1.501 1.852 1.798 2314
1.427 1.760 1.704 10411
1.504 1.855 1.791 2362
1.430 1.764 1.698 10561
1.507 1.859 1.785 3357
1.432 1.767 1.691 10712
1.510 1.863 1.778 4351
1.435 1.771 1.685 9326
1.513 1.867 1.771 4945
1.438 1.774 1.678 7941
1.516 1.870 1.764 5539
1.441 1.778 1.672 7852
1.519 1.874 1.757 5539
1.448 1.786 1.670 6531
1.526 1.883 1.755 4183
1.451 1.790 1.663 5356
1.529 1.886 1.748 3266
1.458 1.798 1.661 3819
1.536 1.895 1.745 2897
1.523 1.878 1.721 3484
1.444 1.781 1.637 1342
1.530 1.887 1.718 3367
1.451 1.790 1.635 1216
1.553 1.916 1.733 4065
1.548 1.910 1.717 6782
1.551 1.913 1.710 9985
1.467 1.810 1.624 1129
1.554 1.917 1.703 9922
1.470 1.814 1.617 1061
1.557 1.920 1.696 10873
1.559 1.924 1.689 11887
1.571 1.938 1.691 9752
1.651 2.036 1.771 1210
1.586 1.957 1.696 9548
1.666 2.056 1.777 1143
1.593 1.966 1.693 8104
1.673 2.064 1.773 1410
1.643 2.026 1.732 7297
1.562 1.927 1.652 3821
1.620 1.999 1.700 9094
1.540 1.899 1.620 1166
1.610 1.987 1.680 11112
1.691 2.086 1.759 3355
1.609 1.985 1.668 9357
1.690 2.084 1.747 4839
1.667 2.057 1.714 10341
1.586 1.957 1.636 4307
1.670 2.060 1.707 10798
1.589 1.960 1.629 2927
1.673 2.064 1.699 11255
1.591 1.963 1.622 1547
1.676 2.067 1.692 11366
1.683 2.076 1.688 11712
1.694 2.090 1.689 13287
1.701 2.099 1.685 15599
1.704 2.102 1.677 14885
1.786 2.203 1.753 1576
1.707 2.106 1.669 12631
1.789 2.207 1.744 2295
1.710 2.109 1.662 10582
1.792 2.211 1.736 3963
1.717 2.118 1.658 7834
1.799 2.220 1.732 4687
1.776 2.191 1.701 7549
1.694 2.089 1.627 3005
1.783 2.200 1.696 10043
1.701 2.098 1.623 3088
1.786 2.204 1.688 12655
1.703 2.102 1.615 2939
1.789 2.207 1.680 13825
1.706 2.105 1.607 3199
1.796 2.216 1.676 15007
1.713 2.114 1.603 3704
1.799 2.219 1.668 17564
1.716 2.117 1.596 3021
1.811 2.234 1.667 20371
1.727 2.131 1.595 3111
1.840 2.270 1.681 21500
1.756 2.167 1.610 4861
1.821 2.246 1.654 23603
1.737 2.143 1.583 2516
1.819 2.244 1.642 26363
1.903 2.347 1.713 3203
1.822 2.247 1.634 21745
1.905 2.351 1.704 3252
1.820 2.245 1.622 14550
1.908 2.354 1.695 4521
1.818 2.243 1.610 12601
1.916 2.363 1.690 5779
1.821 2.247 1.602 9877
1.918 2.367 1.682 6590
1.926 2.376 1.676 6701
1.819 2.244 1.590 5259
1.933 2.385 1.671 5805
1.849 2.281 1.603 3387
1.936 2.388 1.662 6603
1.851 2.284 1.595 3840
1.939 2.392 1.654 6472
1.854 2.287 1.586 3629
1.941 2.395 1.645 5543
1.857 2.290 1.578 2965
1.958 2.415 1.646 4537
1.873 2.310 1.580 3204
1.969 2.430 1.645 4441
2.054 2.534 1.711 2265
1.972 2.433 1.636 4371
2.057 2.538 1.701 1589
1.984 2.447 1.633 4338
2.069 2.553 1.699 1621
2.063 2.545 1.683 4083
1.977 2.440 1.618 3441
2.066 2.549 1.673 6478
1.980 2.443 1.609 2951
2.073 2.558 1.667 8895
1.987 2.452 1.603 3020
2.080 2.567 1.661 11369
1.995 2.461 1.597 2455
2.088 2.576 1.655 8541
2.002 2.470 1.591 1610
2.118 2.613 1.665 8078
2.023 2.495 1.596 1604
2.120 2.616 1.656 10086
2.034 2.510 1.593 1222
2.123 2.619 1.646 11327
2.130 2.628 1.640 9291
2.217 2.735 1.701 1360
2.142 2.643 1.636 9023
2.150 2.652 1.630 9317
2.171 2.678 1.633 7163
2.257 2.785 1.693 1154
2.219 2.738 1.654 4109
2.132 2.631 1.594 2609
2.226 2.747 1.647 3789
2.139 2.640 1.588 2259
2.229 2.750 1.637 3641
2.142 2.643 1.578 1608
2.232 2.754 1.627 3238
2.145 2.646 1.568 1020
2.276 2.808 1.645 4788
2.189 2.700 1.586 1724
2.279 2.811 1.634 7220
2.281 2.815 1.624 7390
2.369 2.923 1.682 1318
2.280 2.812 1.610 7229
2.367 2.920 1.668 2055
2.282 2.816 1.600 5395
2.370 2.924 1.657 2756
2.345 2.893 1.628 4948
2.257 2.785 1.572 2129
2.357 2.908 1.624 5177
2.269 2.799 1.567 2718
2.369 2.923 1.619 4906
2.281 2.814 1.563 3101
2.395 2.955 1.622 5154
2.307 2.846 1.567 2192
2.411 2.975 1.620 5813
2.323 2.866 1.565 1806
2.423 2.990 1.615 5308
2.512 3.099 1.669 3544
2.505 3.091 1.652 6140
2.417 2.982 1.598 3082
2.494 3.077 1.632 7879
2.406 2.968 1.578 2749
2.478 3.057 1.610 9426
2.567 3.167 1.663 1156
2.476 3.055 1.595 5712
2.574 3.176 1.654 1592
2.591 3.196 1.650 2377
2.502 3.087 1.598 1769
2.584 3.188 1.633 3159
2.495 3.079 1.581 1296
2.592 3.198 1.624 3808
2.503 3.088 1.572 1607
2.599 3.207 1.615 3581
2.688 3.317 1.666 1527
2.602 3.210 1.603 3135
2.691 3.320 1.654 1867
2.562 3.161 1.567 3692
2.675 3.300 1.631 2324
2.570 3.170 1.558 4193
2.678 3.304 1.619 1934
2.582 3.185 1.551 3383
2.671 3.295 1.601 3273
2.683 3.310 1.594 5072
2.594 3.200 1.545 3235
2.691 3.319 1.584 3972
2.601 3.209 1.536 2370
2.698 3.328 1.575 2292
2.816 3.474 1.638 1477
2.819 3.477 1.625 2532
2.696 3.326 1.560 1959
2.883 3.557 1.645 3268
2.793 3.446 1.597 1854
2.867 3.537 1.622 4038
2.734 3.373 1.552 2243
2.865 3.534 1.606 3760
2.959 3.651 1.655 1924
2.957 3.649 1.639 2328
2.867 3.537 1.593 2325
2.936 3.623 1.614 2963
2.841 3.506 1.565 1578
2.930 3.614 1.595 3389
3.020 3.726 1.641 2008
2.942 3.629 1.587 2924
2.847 3.512 1.539 1804
2.983 3.680 1.592 2948
3.073 3.791 1.637 1677
3.000 3.701 1.585 3847
3.090 3.812 1.630 1812
3.002 3.704 1.572 4103
3.093 3.816 1.615 1927
3.153 3.890 1.629 3671
3.000 3.701 1.556 2300
3.155 3.893 1.614 4373
3.007 3.710 1.544 2340
3.187 3.932 1.613 3130
3.063 3.778 1.555 3106
3.204 3.953 1.605 3522
3.070 3.787 1.543 2183
3.202 3.950 1.588 3926
3.068 3.785 1.527 1233
3.204 3.953 1.573 5496
3.212 3.963 1.561 4502
3.263 4.025 1.567 3454
3.171 3.912 1.527 1058
3.275 4.040 1.557 3046
3.366 4.153 1.597 1914
3.306 4.079 1.554 3436
3.215 3.966 1.515 1747
3.342 4.124 1.553 4092
3.251 4.011 1.514 2723
3.369 4.157 1.548 3246
3.278 4.044 1.509 2607
3.357 4.142 1.527 3506
3.449 4.255 1.565 1955
3.427 4.228 1.539 5392
3.336 4.115 1.501 2376
3.430 4.232 1.523 5309
3.522 4.345 1.561 2012
3.432 4.235 1.508 4388
3.524 4.348 1.545 2558
3.522 4.345 1.527 4370
3.430 4.232 1.490 3113
3.529 4.354 1.512 4559
3.626 4.474 1.550 4068
3.556 4.387 1.505 4913
3.648 4.501 1.541 2992
3.554 4.384 1.487 3343
3.665 4.522 1.530 3162
3.668 4.525 1.513 2683
3.760 4.639 1.548 2408
3.704 4.570 1.509 3014
3.801 4.690 1.545 2541
3.702 4.567 1.490 2620
3.799 4.687 1.526 2300
3.957 4.882 1.565 3475
3.865 4.768 1.531 2131
3.974 4.903 1.552 2841
3.877 4.783 1.517 2061
3.991 4.924 1.539 2669
4.142 5.110 1.592 1707
4.009 4.945 1.526 2801
4.208 5.192 1.595 2799
4.211 5.195 1.576 3760
4.011 4.949 1.507 2264
4.145 5.114 1.533 3571
4.238 5.228 1.565 1933
4.216 5.201 1.537 2755
4.367 5.388 1.588 1449
4.375 5.397 1.569 2611
4.219 5.205 1.518 2340
4.329 5.340 1.533 2994
4.421 5.455 1.563 2398
4.419 5.452 1.542 4788
4.326 5.337 1.512 2473
4.412 5.443 1.518 7343
4.246 5.238 1.466 2257
4.424 5.458 1.501 7398
4.517 5.573 1.530 1973
4.432 5.467 1.482 7590
4.554 5.618 1.519 2722
4.434 5.470 1.462 7527
4.556 5.621 1.498 3321
4.436 5.473 1.441 5112
4.618 5.697 1.495 2980
4.615 5.694 1.472 4020
4.439 5.476 1.421 3850
4.613 5.691 1.449 4378
4.441 5.479 1.400 3355
4.615 5.694 1.428 3271
4.772 5.888 1.472 2369
4.568 5.636 1.393 1952
4.765 5.879 1.448 1927
4.767 5.881 1.426 1734
4.920 6.069 1.467 1655
5.001 6.169 1.466 1703
4.779 5.896 1.407 1673
4.988 6.154 1.439 2262
4.787 5.905 1.386 1387
4.991 6.157 1.416 1961
5.143 6.345 1.455 1820
4.835 5.966 1.353 1780
5.146 6.348 1.431 1517
4.838 5.968 1.331 2780
5.232 6.454 1.428 2261
5.436 6.707 1.453 2834
4.850 5.983 1.311 2616
4.798 5.919 1.275 3735
5.438 6.710 1.428 3211
4.800 5.921 1.253 4580
5.446 6.719 1.404 3481
4.802 5.924 1.231 4456
5.448 6.721 1.379 2745
4.804 5.926 1.209 3202
5.445 6.718 1.353 1930
4.806 5.929 1.187 3067
5.838 7.202 1.414 1920
4.808 5.931 1.165 4381
5.840 7.205 1.387 1742
4.809 5.933 1.143 4084
5.842 7.208 1.360 1399
4.811 5.936 1.121 3199
5.845 7.210 1.333 1109
4.813 5.938 1.099 3743
4.825 5.952 1.078 4015
4.826 5.954 1.056 2510
4.823 5.950 1.033 1004
1.427 1.748 1.717 4554
1.504 1.843 1.805 1316
1.430 1.752 1.711 9109
1.507 1.846 1.798 2666
1.433 1.755 1.704 9109
1.510 1.850 1.791 2700
1.436 1.759 1.698 9535
1.513 1.854 1.785 3552
1.439 1.762 1.691 9961
1.516 1.858 1.778 4405
1.441 1.766 1.685 8671
1.520 1.861 1.771 4792
1.444 1.769 1.678 7381
1.523 1.865 1.764 5180
1.447 1.773 1.672 7335
1.526 1.869 1.757 5180
1.454 1.781 1.670 5496
1.533 1.877 1.755 3682
1.457 1.785 1.663 3672
1.536 1.881 1.748 2741
1.526 1.869 1.728 2881
1.447 1.773 1.644 2131
1.533 1.878 1.725 2866
1.454 1.781 1.641 1190
1.553 1.902 1.736 2980
1.469 1.800 1.648 1294
1.560 1.911 1.733 3702
1.481 1.814 1.650 1404
1.554 1.904 1.717 6836
1.475 1.807 1.635 1026
1.557 1.908 1.710 10372
1.560 1.911 1.703 10306
1.563 1.915 1.696 11364
1.566 1.918 1.689 12489
1.577 1.932 1.691 9677
1.658 2.031 1.771 1012
1.597 1.956 1.700 9317
1.600 1.960 1.693 7961
1.681 2.059 1.773 1280
1.624 1.990 1.707 7216
1.543 1.891 1.627 1430
1.627 1.993 1.700 9064
1.546 1.894 1.620 1184
1.630 1.997 1.692 10913
1.711 2.096 1.771 1626
1.616 1.979 1.668 8653
1.697 2.079 1.747 4748
1.674 2.051 1.714 10108
1.593 1.951 1.636 4087
1.677 2.054 1.707 10082
1.596 1.955 1.629 2838
1.680 2.058 1.699 10055
1.598 1.958 1.622 1588
1.687 2.067 1.696 11294
1.605 1.967 1.619 1204
1.694 2.075 1.692 12614
1.701 2.084 1.689 13988
1.709 2.093 1.685 15979
1.711 2.096 1.677 15704
1.794 2.197 1.753 1732
1.714 2.100 1.669 13693
1.797 2.201 1.744 2515
1.717 2.103 1.662 11483
1.800 2.205 1.736 4112
1.724 2.112 1.658 8448
1.807 2.213 1.732 4551
1.779 2.180 1.697 7995
1.696 2.078 1.623 2380
1.791 2.194 1.696 10796
1.708 2.092 1.623 2797
1.794 2.197 1.688 13999
1.711 2.096 1.615 2845
1.797 2.201 1.680 14879
1.713 2.099 1.607 3394
1.799 2.204 1.672 15759
1.716 2.102 1.600 3344
1.807 2.213 1.668 18448
1.723 2.111 1.596 3455
1.814 2.222 1.663 21371
1.730 2.120 1.592 3025
1.808 2.215 1.647 21849
1.892 2.317 1.719 2696
1.820 2.229 1.647 24129
1.903 2.332 1.718 2358
1.827 2.238 1.642 26497
1.911 2.341 1.713 2757
1.829 2.241 1.634 22261
1.914 2.344 1.704 2985
1.828 2.239 1.622 15629
1.917 2.348 1.695 4844
1.826 2.237 1.610 13771
1.924 2.357 1.690 6594
1.829 2.240 1.602 10844
1.931 2.366 1.685 7520
1.934 2.369 1.676 7567
1.827 2.238 1.590 5821
1.937 2.373 1.668 6468
1.830 2.241 1.582 3740
1.944 2.382 1.662 6714
1.859 2.277 1.595 3583
1.947 2.385 1.654 5756
1.862 2.281 1.586 3087
1.950 2.388 1.645 4441
1.865 2.284 1.578 2333
1.970 2.414 1.650 3827
2.056 2.518 1.717 2645
1.978 2.423 1.645 4390
2.063 2.527 1.711 2503
1.980 2.426 1.636 4850
2.066 2.531 1.701 1839
1.988 2.435 1.630 4712
2.073 2.540 1.695 1585
1.995 2.444 1.624 4222
2.081 2.549 1.689 3546
2.070 2.536 1.670 6442
1.984 2.431 1.605 2603
2.082 2.550 1.667 9052
1.996 2.445 1.603 3097
2.089 2.559 1.661 11997
2.003 2.454 1.597 2656
2.097 2.568 1.655 9322
2.010 2.463 1.591 1862
2.113 2.588 1.655 7927
2.027 2.483 1.592 1642
2.125 2.603 1.652 10137
2.038 2.497 1.590 1105
2.132 2.612 1.646 12048
2.219 2.718 1.708 1020
2.140 2.621 1.640 10202
2.226 2.727 1.701 1467
2.152 2.636 1.636 9263
2.159 2.645 1.630 8946
2.184 2.676 1.636 6776
2.272 2.783 1.696 1215
2.233 2.736 1.658 4444
2.146 2.629 1.597 2846
2.236 2.739 1.647 4336
2.149 2.632 1.588 2062
2.239 2.742 1.637 4087
2.151 2.635 1.578 1394
2.251 2.757 1.633 3186
2.163 2.650 1.574 1120
2.286 2.800 1.645 4298
2.198 2.693 1.586 1281
2.288 2.803 1.634 5479
2.201 2.696 1.576 1073
2.300 2.818 1.630 5576
2.289 2.804 1.610 6433
2.377 2.912 1.668 1754
2.292 2.808 1.600 5380
2.380 2.916 1.657 2770
2.360 2.891 1.631 5534
2.272 2.783 1.575 1559
2.372 2.905 1.626 6378
2.283 2.797 1.570 2314
2.374 2.909 1.616 5868
2.286 2.800 1.560 1871
2.391 2.929 1.614 5398
2.303 2.821 1.558 1606
2.412 2.955 1.614 6010
2.324 2.847 1.559 1367
2.434 2.981 1.615 5046
2.522 3.090 1.669 3214
2.516 3.082 1.652 5598
2.427 2.973 1.598 3081
2.505 3.068 1.632 7903
2.416 2.959 1.578 2755
2.493 3.054 1.612 9801
2.404 2.945 1.559 1520
2.487 3.046 1.595 5641
2.585 3.167 1.654 1720
2.607 3.193 1.653 2574
2.518 3.084 1.601 1908
2.577 3.156 1.622 3564
2.666 3.266 1.674 1087
2.589 3.171 1.616 4030
2.678 3.281 1.667 1939
2.601 3.186 1.609 3344
2.690 3.296 1.661 2438
2.575 3.155 1.582 3880
2.684 3.288 1.643 3007
2.583 3.164 1.572 5211
2.686 3.291 1.631 2509
2.585 3.167 1.561 4477
2.699 3.306 1.624 2381
2.593 3.176 1.551 3343
2.692 3.298 1.606 2773
2.699 3.307 1.597 3934
2.609 3.197 1.547 3784
2.707 3.316 1.587 3254
2.617 3.206 1.538 2742
2.828 3.464 1.638 2039
2.709 3.319 1.575 1680
2.826 3.462 1.623 3117
2.707 3.316 1.560 1474
2.895 3.547 1.645 3506
2.805 3.436 1.597 2141
2.884 3.533 1.624 4059
2.741 3.358 1.550 1777
2.882 3.530 1.609 3499
2.972 3.641 1.655 2393
2.975 3.644 1.642 2606
2.846 3.487 1.576 2481
2.935 3.595 1.606 3045
2.844 3.484 1.561 1790
2.933 3.592 1.591 3835
3.023 3.704 1.636 2379
2.959 3.625 1.589 3108
3.055 3.742 1.636 1981
2.995 3.669 1.592 3071
3.086 3.781 1.637 1668
3.070 3.760 1.613 3572
2.979 3.649 1.569 1722
3.020 3.699 1.574 3482
3.149 3.858 1.636 1873
3.166 3.879 1.629 3914
3.018 3.697 1.558 1939
3.169 3.882 1.614 4427
3.073 3.764 1.569 2407
3.148 3.856 1.588 3452
3.056 3.744 1.546 2431
3.218 3.942 1.605 3526
3.088 3.783 1.545 1932
3.220 3.945 1.590 3709
3.218 3.942 1.573 4242
3.230 3.957 1.563 3943
3.233 3.961 1.548 3635
3.325 4.073 1.589 1453
3.236 3.964 1.533 3217
3.327 4.076 1.573 1609
3.325 4.073 1.556 3763
3.233 3.961 1.517 1873
3.352 4.106 1.551 4684
3.260 3.994 1.512 2577
3.379 4.139 1.546 3982
3.287 4.026 1.507 1943
3.357 4.112 1.521 3957
3.449 4.225 1.559 3045
3.437 4.211 1.537 4826
3.529 4.323 1.575 3155
3.445 4.220 1.523 4506
3.537 4.332 1.561 2916
3.447 4.223 1.508 4154
3.539 4.336 1.545 2890
3.527 4.321 1.523 3923
3.435 4.208 1.486 2436
3.540 4.336 1.510 3926
3.647 4.467 1.552 3149
3.571 4.375 1.505 4495
3.678 4.506 1.547 2885
3.569 4.372 1.487 2942
3.686 4.515 1.532 2924
3.693 4.524 1.517 2751
3.786 4.637 1.552 2282
3.754 4.599 1.522 4025
3.847 4.712 1.556 1956
3.737 4.578 1.497 2855
3.966 4.859 1.581 2301
3.974 4.868 1.565 3415
3.881 4.754 1.531 2501
3.986 4.883 1.550 2309
3.889 4.764 1.515 2233
4.004 4.904 1.537 2347
4.155 5.090 1.591 1760
4.026 4.931 1.526 2925
4.226 5.177 1.595 2730
4.229 5.180 1.576 4112
4.033 4.941 1.509 2240
4.231 5.184 1.557 3696
4.138 5.070 1.525 1953
4.234 5.187 1.537 3007
4.117 5.043 1.498 1496
4.340 5.316 1.552 2984
4.237 5.190 1.518 2392
4.347 5.325 1.533 3569
4.440 5.439 1.563 2416
4.438 5.437 1.542 4773
4.345 5.322 1.512 2506
4.436 5.434 1.520 6932
4.568 5.596 1.561 1923
4.443 5.443 1.501 7183
4.536 5.557 1.530 1837
4.450 5.452 1.482 7340
4.573 5.602 1.519 2563
4.453 5.455 1.462 7109
4.571 5.599 1.497 3373
4.455 5.458 1.441 4832
4.652 5.699 1.499 2277
4.458 5.461 1.421 3716
4.630 5.672 1.471 2880
4.633 5.675 1.449 3374
4.460 5.464 1.400 3292
4.581 5.611 1.413 3652
4.803 5.883 1.475 2120
4.588 5.620 1.393 2084
5.017 6.146 1.512 1583
5.039 6.173 1.494 1861
5.133 6.288 1.519 1676
5.027 6.158 1.467 1732
5.121 6.273 1.492 1444
5.015 6.143 1.440 2236
4.817 5.901 1.388 1233
5.012 6.140 1.416 2230
5.165 6.327 1.455 1740
5.449 6.676 1.502 2222
5.019 6.149 1.394 1659
5.457 6.685 1.478 3204
5.254 6.436 1.428 2456
5.459 6.688 1.453 4185
5.252 6.433 1.403 2380
5.462 6.691 1.428 4753
4.818 5.902 1.275 2392
5.469 6.700 1.404 5002
4.820 5.905 1.253 4587
4.822 5.907 1.231 7337
5.466 6.696 1.378 3971
4.824 5.910 1.209 7793
5.469 6.699 1.353 2867
4.821 5.906 1.186 5558
5.471 6.702 1.328 2365
4.828 5.914 1.165 4447
5.865 7.185 1.387 1830
4.830 5.917 1.143 5581
5.867 7.187 1.360 1618
4.837 5.925 1.122 5368
5.870 7.190 1.333 1326
4.844 5.933 1.100 3640
4.845 5.936 1.078 3363
4.847 5.938 1.056 3636
4.849 5.940 1.034 2413
4.850 5.942 1.012 1180
1.433 1.744 1.717 3704
1.510 1.838 1.805 1410
1.435 1.747 1.711 7408
1.513 1.842 1.798 2851
1.438 1.751 1.704 7408
1.516 1.845 1.791 2882
1.441 1.754 1.698 8221
1.519 1.849 1.785 3581
1.448 1.763 1.696 9087
1.527 1.858 1.782 3181
1.451 1.766 1.690 8385
1.530 1.862 1.775 3610
1.454 1.770 1.683 7682
1.533 1.865 1.769 4040
1.457 1.773 1.676 7682
1.536 1.869 1.762 4040
1.464 1.782 1.674 5903
1.543 1.878 1.759 2798
1.471 1.790 1.672 4255
1.550 1.886 1.757 1986
1.474 1.794 1.666 2815
1.553 1.890 1.750 2027
1.560 1.899 1.747 2084
1.481 1.802 1.663 1379
1.563 1.902 1.740 2791
1.484 1.806 1.657 1040
1.566 1.906 1.733 3497
1.561 1.899 1.717 6780
1.563 1.903 1.710 10303
1.566 1.906 1.703 10251
1.569 1.910 1.696 11131
1.572 1.913 1.689 12063
1.653 2.011 1.770 1146
1.583 1.927 1.691 9102
1.608 1.957 1.705 8991
1.619 1.970 1.706 7892
1.626 1.979 1.703 7307
1.545 1.881 1.623 1051
1.629 1.983 1.695 8930
1.710 2.081 1.775 1433
1.636 1.991 1.692 10605
1.718 2.090 1.771 1622
1.656 2.016 1.701 8048
1.575 1.917 1.623 1488
1.681 2.045 1.714 9506
1.599 1.946 1.636 3840
1.683 2.049 1.707 9191
1.602 1.949 1.629 2727
1.686 2.052 1.699 8875
1.605 1.953 1.622 1614
1.694 2.061 1.696 10831
1.612 1.961 1.619 1265
1.696 2.065 1.688 12843
1.708 2.079 1.689 13901
1.715 2.088 1.685 15536
1.718 2.091 1.677 15634
1.801 2.192 1.753 1773
1.721 2.094 1.669 13963
1.804 2.195 1.744 2650
1.728 2.103 1.666 11781
1.811 2.204 1.740 3340
1.740 2.117 1.666 8797
1.823 2.218 1.740 2373
1.786 2.174 1.697 8098
1.703 2.073 1.623 1847
1.798 2.188 1.696 10898
1.715 2.087 1.623 2686
1.801 2.192 1.688 14304
1.717 2.090 1.615 3062
1.804 2.195 1.680 14870
1.720 2.093 1.607 3677
1.811 2.204 1.676 15444
1.727 2.102 1.603 4645
1.814 2.207 1.668 18059
1.730 2.105 1.596 3792
1.817 2.211 1.659 20886
1.733 2.109 1.588 2831
1.815 2.209 1.647 21318
1.899 2.311 1.719 2807
1.822 2.218 1.643 23291
1.906 2.320 1.714 2199
1.829 2.226 1.638 24788
1.918 2.335 1.713 2364
1.837 2.235 1.634 21301
1.921 2.338 1.704 2703
1.830 2.228 1.618 15716
1.928 2.347 1.699 5058
1.829 2.226 1.606 13871
1.931 2.351 1.690 7195
1.831 2.229 1.598 10949
1.939 2.359 1.685 8117
1.942 2.363 1.676 7973
1.834 2.232 1.590 5905
1.944 2.366 1.668 6709
1.837 2.236 1.582 3782
1.956 2.381 1.666 6481
1.871 2.277 1.598 3581
1.959 2.384 1.657 5007
1.874 2.280 1.590 3060
2.007 2.442 1.684 3623
1.890 2.300 1.592 3139
2.037 2.479 1.696 3964
1.951 2.375 1.629 2299
1.985 2.416 1.645 4736
2.071 2.521 1.711 2908
1.988 2.420 1.636 5505
2.074 2.524 1.701 2613
1.995 2.429 1.630 5132
2.081 2.533 1.695 2368
2.057 2.504 1.665 4615
2.143 2.608 1.731 1571
2.078 2.529 1.670 5496
1.992 2.424 1.605 2769
2.095 2.549 1.671 8086
2.008 2.444 1.606 3441
2.102 2.558 1.664 11469
2.015 2.453 1.601 3069
2.105 2.562 1.655 9600
2.018 2.456 1.591 1917
2.117 2.576 1.652 8403
2.030 2.471 1.589 1423
2.129 2.591 1.649 10359
2.136 2.600 1.643 12474
2.223 2.705 1.705 1007
2.148 2.614 1.640 10376
2.235 2.720 1.701 1487
2.155 2.623 1.633 8789
2.242 2.729 1.694 1336
2.163 2.632 1.626 7906
2.250 2.738 1.688 1273
2.198 2.675 1.639 5913
2.110 2.568 1.578 1708
2.246 2.734 1.661 4805
2.159 2.628 1.601 3096
2.245 2.732 1.647 4685
2.157 2.625 1.588 1827
2.243 2.730 1.634 4304
2.331 2.836 1.694 1061
2.241 2.727 1.621 3051
2.329 2.834 1.680 1849
2.290 2.787 1.642 3390
2.202 2.680 1.583 1454
2.321 2.824 1.650 4405
2.219 2.700 1.582 1325
2.337 2.845 1.648 6299
2.249 2.737 1.590 1611
2.340 2.848 1.638 6107
2.252 2.741 1.580 2295
2.361 2.874 1.639 5136
2.273 2.766 1.582 2617
2.369 2.883 1.631 5738
2.280 2.775 1.575 1360
2.376 2.892 1.624 7055
2.288 2.784 1.567 1496
2.384 2.901 1.616 6952
2.295 2.793 1.560 1382
2.396 2.916 1.611 5863
2.485 3.024 1.666 1500
2.403 2.925 1.603 6233
2.492 3.033 1.658 1512
2.387 2.905 1.580 4985
2.528 3.076 1.666 2424
2.526 3.074 1.652 4348
2.390 2.909 1.570 2791
2.514 3.060 1.632 7141
2.425 2.952 1.578 2727
2.508 3.052 1.615 9275
2.419 2.944 1.562 2019
2.511 3.056 1.604 5191
2.600 3.164 1.657 1999
2.570 3.128 1.626 2393
2.461 2.996 1.562 1820
2.577 3.137 1.617 4028
2.667 3.246 1.669 1269
2.589 3.151 1.610 4508
2.679 3.261 1.662 2386
2.587 3.149 1.596 3591
2.677 3.258 1.647 2933
2.585 3.147 1.582 4996
2.689 3.273 1.640 2620
2.593 3.156 1.572 6136
2.697 3.282 1.631 2281
2.600 3.165 1.563 4427
2.704 3.291 1.621 2443
2.603 3.168 1.551 2998
2.712 3.301 1.612 2249
2.624 3.194 1.550 3889
2.715 3.304 1.599 2666
2.632 3.203 1.541 2684
2.722 3.313 1.589 2514
2.820 3.432 1.628 2408
2.729 3.322 1.580 1324
2.832 3.447 1.620 3470
2.923 3.557 1.668 1356
2.844 3.462 1.612 3724
2.935 3.572 1.660 1909
2.842 3.459 1.597 4557
2.933 3.570 1.644 2151
2.845 3.463 1.584 4062
2.988 3.637 1.658 2666
2.857 3.478 1.576 3064
2.991 3.641 1.644 2914
2.941 3.580 1.604 3232
3.032 3.691 1.650 2035
2.944 3.583 1.591 3947
3.035 3.694 1.636 2686
2.971 3.616 1.589 3041
3.071 3.738 1.639 1954
3.007 3.660 1.592 3024
3.098 3.771 1.637 1509
3.082 3.751 1.613 3330
2.990 3.640 1.569 1634
3.094 3.766 1.604 3583
3.003 3.655 1.560 1670
3.179 3.869 1.629 3522
3.087 3.757 1.585 2113
3.177 3.866 1.612 4118
3.085 3.755 1.569 2566
3.160 3.846 1.588 3191
3.068 3.734 1.546 2173
3.230 3.931 1.605 3296
3.129 3.808 1.559 1744
3.233 3.935 1.590 3449
3.141 3.823 1.549 1562
3.207 3.903 1.563 2949
3.298 4.014 1.604 1529
3.248 3.953 1.565 3184
3.340 4.065 1.606 1162
3.241 3.944 1.546 3997
3.333 4.056 1.587 2449
3.248 3.953 1.533 3599
3.340 4.065 1.573 2126
3.338 4.063 1.556 3973
3.246 3.951 1.517 1962
3.365 4.095 1.551 4758
3.273 3.983 1.512 2493
3.368 4.099 1.536 4660
3.460 4.211 1.575 1818
3.365 4.096 1.519 4275
3.458 4.208 1.557 3215
3.451 4.200 1.537 4000
3.543 4.312 1.575 3512
3.531 4.297 1.553 4794
3.439 4.185 1.516 2596
3.534 4.301 1.537 5591
3.441 4.188 1.500 2814
3.541 4.310 1.523 5028
3.448 4.197 1.486 2263
3.549 4.319 1.508 3590
3.680 4.479 1.560 2803
3.585 4.363 1.505 3384
3.702 4.506 1.551 3303
3.734 4.545 1.545 2899
3.588 4.367 1.489 2259
3.766 4.584 1.539 3313
3.859 4.697 1.574 1677
3.769 4.587 1.522 4675
3.862 4.700 1.556 1955
3.762 4.578 1.501 3452
3.977 4.840 1.580 2037
3.980 4.843 1.561 3210
3.887 4.730 1.528 2148
3.982 4.847 1.543 2175
3.889 4.733 1.510 2019
4.014 4.886 1.535 1898
4.171 5.077 1.591 1483
4.056 4.937 1.531 3039
4.243 5.164 1.595 2425
4.245 5.167 1.576 4002
4.049 4.928 1.509 2494
4.248 5.170 1.557 3916
4.155 5.056 1.525 1851
4.251 5.173 1.537 2923
4.137 5.036 1.500 2063
4.356 5.302 1.552 3541
4.258 5.182 1.519 2167
4.364 5.311 1.533 3942
4.458 5.425 1.563 2025
4.455 5.422 1.542 3885
4.362 5.308 1.512 2538
4.453 5.419 1.520 5544
4.581 5.575 1.560 1641
4.460 5.429 1.501 6023
4.554 5.543 1.530 2051
4.468 5.438 1.482 6163
4.586 5.582 1.518 2329
4.470 5.441 1.462 5826
4.589 5.585 1.497 3369
4.473 5.444 1.441 3979
4.591 5.588 1.476 2210
4.475 5.447 1.421 3138
4.623 5.627 1.464 2231
4.477 5.449 1.400 2888
4.596 5.594 1.434 2656
4.599 5.597 1.413 3396
4.851 5.904 1.484 2024
4.606 5.606 1.393 2018
5.047 6.142 1.514 2013
5.054 6.151 1.493 2213
5.148 6.266 1.518 1861
5.056 6.154 1.470 1679
4.962 6.039 1.445 1318
5.049 6.145 1.444 1470
4.870 5.928 1.397 1194
5.032 6.124 1.416 1854
5.468 6.655 1.527 1723
5.471 6.658 1.502 2658
5.034 6.127 1.393 1704
5.478 6.667 1.478 3912
5.270 6.413 1.427 2250
5.481 6.670 1.453 5038
5.272 6.416 1.403 2318
5.483 6.673 1.428 5754
5.274 6.419 1.379 1636
5.490 6.682 1.404 6003
4.844 5.895 1.255 2566
5.488 6.679 1.378 4721
4.841 5.892 1.231 3774
4.838 5.888 1.208 4399
5.490 6.682 1.353 3433
4.840 5.891 1.186 5147
5.492 6.684 1.328 2869
4.847 5.899 1.165 5064
5.494 6.687 1.303 1902
4.854 5.907 1.144 3711
5.890 7.169 1.360 1693
4.856 5.910 1.122 3790
5.892 7.171 1.333 1346
4.857 5.912 1.099 4331
4.864 5.920 1.078 3294
4.871 5.928 1.057 2314
4.873 5.930 1.035 1594
5.943 7.233 1.205 1288
4.874 5.932 1.013 1029
5.945 7.235 1.178 1754
5.947 7.237 1.151 1680
5.943 7.234 1.123 1480
5.940 7.230 1.095 1215
1.498 1.807 1.782 3465
1.420 1.713 1.694 1799
1.501 1.810 1.775 6930
1.422 1.716 1.688 3598
1.504 1.814 1.768 6930
1.425 1.719 1.682 3598
1.449 1.748 1.698 8288
1.527 1.843 1.785 3572
1.456 1.756 1.696 9921
1.535 1.851 1.782 3078
1.459 1.760 1.690 9484
1.538 1.855 1.775 3288
1.462 1.763 1.683 9046
1.541 1.859 1.769 3498
1.465 1.767 1.676 9046
1.544 1.862 1.762 3498
1.472 1.775 1.674 6640
1.551 1.871 1.759 2481
1.487 1.794 1.681 4484
1.566 1.890 1.766 1490
1.494 1.802 1.679 3163
1.574 1.898 1.763 1616
1.518 1.831 1.694 2143
1.598 1.927 1.778 1102
1.575 1.901 1.744 2706
1.496 1.804 1.661 1636
1.574 1.899 1.733 3535
1.494 1.803 1.650 1586
1.569 1.893 1.717 6315
1.488 1.796 1.635 1241
1.572 1.896 1.710 9423
1.575 1.900 1.703 9449
1.577 1.903 1.696 10218
1.580 1.907 1.689 10960
1.661 2.004 1.770 1282
1.588 1.915 1.686 8257
1.669 2.013 1.767 1101
1.620 1.955 1.709 8449
1.623 1.958 1.702 7942
1.630 1.967 1.699 7540
1.638 1.976 1.695 8788
1.719 2.074 1.775 1438
1.645 1.984 1.692 10163
1.727 2.083 1.771 1624
1.665 2.009 1.701 7724
1.583 1.910 1.623 1338
1.685 2.033 1.710 8733
1.603 1.934 1.632 2642
1.692 2.042 1.707 8229
1.610 1.943 1.629 2542
1.695 2.045 1.699 7847
1.613 1.946 1.622 1585
1.702 2.054 1.696 10121
1.620 1.954 1.619 1286
1.705 2.057 1.688 12516
1.717 2.071 1.689 13282
1.724 2.080 1.685 14584
1.727 2.084 1.677 14962
1.810 2.184 1.753 1777
1.730 2.087 1.669 13613
1.813 2.187 1.744 2749
1.737 2.096 1.666 11573
1.820 2.196 1.740 3272
1.753 2.115 1.669 9296
1.837 2.216 1.744 1754
1.760 2.124 1.665 8635
1.853 2.235 1.747 1695
1.807 2.180 1.696 10571
1.724 2.079 1.623 2639
1.810 2.184 1.688 13912
1.726 2.083 1.615 3267
1.818 2.193 1.684 14219
1.734 2.091 1.611 4901
1.820 2.196 1.676 14572
1.736 2.095 1.603 4724
1.823 2.200 1.668 17025
1.739 2.098 1.596 3805
1.826 2.203 1.659 19770
1.742 2.101 1.588 2810
1.824 2.201 1.647 20118
1.909 2.303 1.719 3113
1.832 2.210 1.643 21475
1.916 2.312 1.714 2265
1.839 2.219 1.638 21950
1.933 2.332 1.716 2057
1.842 2.222 1.630 19116
1.927 2.324 1.700 2670
1.840 2.220 1.618 14559
1.939 2.339 1.699 5457
1.838 2.218 1.606 12631
1.941 2.342 1.690 7891
1.841 2.221 1.598 9948
1.949 2.351 1.685 8656
1.952 2.355 1.676 8041
1.844 2.224 1.590 5335
1.955 2.358 1.668 6473
1.846 2.228 1.582 3406
1.962 2.367 1.662 5859
1.876 2.263 1.595 2579
2.010 2.425 1.689 4421
1.906 2.299 1.608 3406
2.022 2.439 1.687 3979
1.904 2.297 1.595 2504
2.043 2.464 1.692 4872
1.921 2.317 1.597 1887
2.055 2.479 1.690 5590
1.969 2.375 1.624 2374
1.999 2.411 1.636 6163
2.085 2.515 1.701 3698
2.006 2.420 1.630 5729
2.092 2.524 1.695 3590
2.063 2.489 1.662 5909
2.150 2.594 1.727 1365
2.066 2.493 1.653 6019
2.153 2.597 1.717 1838
2.106 2.540 1.671 6999
2.019 2.435 1.606 3663
2.113 2.549 1.664 10637
2.026 2.444 1.601 3053
2.120 2.558 1.658 9611
2.033 2.453 1.595 1995
2.128 2.567 1.652 8873
2.041 2.462 1.589 1275
2.135 2.576 1.646 10623
2.147 2.590 1.643 12526
2.235 2.696 1.705 1054
2.155 2.599 1.636 10250
2.242 2.705 1.698 1892
2.167 2.614 1.633 8228
2.254 2.720 1.694 1495
2.174 2.623 1.626 6834
2.262 2.729 1.688 1583
2.209 2.665 1.639 5290
2.121 2.559 1.578 1998
2.263 2.730 1.664 5099
2.175 2.624 1.604 3149
2.247 2.711 1.641 4628
2.159 2.605 1.581 1405
2.245 2.709 1.628 4461
2.333 2.815 1.687 1455
2.248 2.712 1.618 3248
2.336 2.819 1.677 2339
2.339 2.822 1.666 3381
2.223 2.682 1.589 2239
2.347 2.831 1.659 5127
2.226 2.685 1.579 1714
2.350 2.834 1.648 7573
2.261 2.728 1.590 1690
2.352 2.838 1.638 7085
2.264 2.731 1.580 2050
2.369 2.858 1.636 5513
2.280 2.751 1.579 2197
2.377 2.867 1.628 5482
2.466 2.974 1.685 1248
2.389 2.882 1.624 6938
2.300 2.774 1.567 1429
2.391 2.885 1.613 7482
2.485 2.998 1.671 1222
2.404 2.900 1.608 6296
2.498 3.013 1.666 1475
2.406 2.903 1.597 6658
2.496 3.011 1.652 1684
2.400 2.895 1.580 6271
2.489 3.003 1.635 1917
2.402 2.898 1.570 3684
2.539 3.063 1.652 2997
2.532 3.055 1.635 6182
2.443 2.947 1.581 2541
2.526 3.047 1.618 8062
2.436 2.939 1.565 2295
2.533 3.056 1.609 4449
2.623 3.164 1.662 2317
2.593 3.128 1.631 3119
2.474 2.985 1.562 1840
2.591 3.125 1.617 4622
2.681 3.234 1.669 1371
2.603 3.140 1.610 4873
2.693 3.249 1.662 2465
2.606 3.144 1.599 3896
2.696 3.252 1.650 2757
2.599 3.135 1.582 5358
2.704 3.262 1.640 2181
2.611 3.150 1.575 6494
2.702 3.259 1.626 2204
2.619 3.159 1.566 4386
2.714 3.274 1.619 2602
2.659 3.208 1.575 3165
2.750 3.318 1.625 1159
2.643 3.188 1.553 3553
2.815 3.396 1.646 1702
2.646 3.192 1.541 2193
2.818 3.399 1.633 1778
2.830 3.414 1.625 2645
2.739 3.304 1.577 1325
2.842 3.429 1.618 3486
2.933 3.539 1.666 1598
2.859 3.450 1.612 3863
2.950 3.559 1.660 1911
2.857 3.447 1.597 5013
2.948 3.557 1.644 1989
2.860 3.450 1.584 4625
3.004 3.624 1.658 2808
2.872 3.465 1.576 3249
3.007 3.628 1.644 3080
2.942 3.550 1.597 3044
3.034 3.660 1.643 2617
2.964 3.576 1.593 3823
3.056 3.687 1.638 2885
2.957 3.568 1.575 3196
3.049 3.678 1.620 1714
3.023 3.647 1.592 2824
2.931 3.536 1.547 1389
3.040 3.667 1.585 3002
3.132 3.778 1.630 1608
3.110 3.752 1.604 3813
3.018 3.641 1.560 1558
3.186 3.843 1.624 3470
3.094 3.732 1.581 2156
3.188 3.846 1.610 3583
3.096 3.735 1.567 2569
3.114 3.756 1.559 2592
3.206 3.867 1.602 1851
3.242 3.912 1.603 3256
3.150 3.800 1.561 2012
3.255 3.926 1.593 3464
3.162 3.815 1.551 2126
3.282 3.959 1.589 3028
3.189 3.848 1.547 1838
3.270 3.945 1.567 3031
3.362 4.056 1.608 1318
3.258 3.930 1.546 3869
3.350 4.042 1.587 3233
3.265 3.939 1.533 3479
3.358 4.051 1.573 2661
3.351 4.042 1.554 3628
3.258 3.931 1.515 1482
3.383 4.081 1.551 3989
3.290 3.969 1.512 2232
3.385 4.084 1.536 4015
3.478 4.196 1.575 2149
3.451 4.164 1.547 4044
3.549 4.282 1.587 2490
3.552 4.285 1.571 3714
3.459 4.173 1.533 3318
3.550 4.282 1.553 4712
3.457 4.170 1.516 2077
3.552 4.285 1.537 6482
3.459 4.173 1.500 2465
3.555 4.288 1.521 6168
3.697 4.460 1.577 2122
3.557 4.292 1.505 3689
3.709 4.475 1.564 2699
3.722 4.490 1.551 3893
3.629 4.378 1.515 2068
3.744 4.517 1.541 3247
3.651 4.404 1.506 2263
3.786 4.567 1.539 3356
3.879 4.680 1.574 2126
3.789 4.571 1.522 4872
3.882 4.683 1.556 2395
3.781 4.562 1.501 3866
3.875 4.675 1.535 2069
4.001 4.826 1.561 3037
3.902 4.707 1.526 2108
3.998 4.823 1.542 2460
3.905 4.711 1.508 2101
4.025 4.856 1.532 1924
3.932 4.743 1.499 1534
4.082 4.925 1.532 2877
4.265 5.145 1.595 2184
4.268 5.148 1.576 3774
4.095 4.940 1.517 2597
4.270 5.152 1.557 3987
4.157 5.015 1.519 2112
4.273 5.155 1.537 2873
4.159 5.018 1.500 2330
4.379 5.283 1.552 3952
4.285 5.170 1.521 2071
4.387 5.292 1.533 4226
4.293 5.179 1.503 2229
4.409 5.319 1.520 3338
4.503 5.433 1.549 2506
4.481 5.406 1.521 3743
4.580 5.526 1.552 1808
4.494 5.421 1.504 4661
4.588 5.535 1.533 2058
4.491 5.418 1.482 4551
4.590 5.538 1.512 2633
4.494 5.421 1.462 4006
4.613 5.565 1.497 3418
4.615 5.568 1.476 3322
4.501 5.430 1.443 2745
4.618 5.571 1.455 2936
4.499 5.427 1.421 2148
4.620 5.574 1.434 2387
4.501 5.430 1.400 2047
4.623 5.577 1.413 2613
4.891 5.901 1.488 2157
5.073 6.120 1.514 2331
4.889 5.898 1.464 1890
5.081 6.129 1.493 2487
5.175 6.243 1.518 1817
5.088 6.138 1.471 1955
4.993 6.024 1.446 1336
5.095 6.147 1.449 1792
5.001 6.033 1.425 1542
5.497 6.631 1.527 1632
5.053 6.096 1.414 1560
5.504 6.641 1.504 2746
5.060 6.105 1.393 1624
5.507 6.644 1.478 4146
5.153 6.216 1.392 1791
5.509 6.647 1.453 5316
5.300 6.394 1.403 1940
5.512 6.649 1.428 6099
5.307 6.402 1.380 1590
5.519 6.658 1.404 6305
4.879 5.887 1.257 1893
5.517 6.655 1.378 4885
4.871 5.877 1.232 2703
5.519 6.658 1.353 3532
4.868 5.873 1.209 3405
4.870 5.876 1.187 3336
5.521 6.661 1.328 2961
4.872 5.878 1.165 4541
5.523 6.663 1.303 1953
4.879 5.886 1.144 6112
5.921 7.143 1.360 1485
4.881 5.889 1.122 4767
5.923 7.146 1.333 1183
4.878 5.885 1.099 2751
4.885 5.893 1.077 2453
4.886 5.895 1.055 2235
4.888 5.897 1.033 1295
5.979 7.213 1.206 1210
5.981 7.215 1.179 1595
5.983 7.218 1.152 2225
5.980 7.214 1.124 2574
5.982 7.216 1.097 2417
5.978 7.212 1.069 1750
1.446 1.732 1.717 3503
1.525 1.826 1.805 1403
1.449 1.736 1.711 7006
1.528 1.830 1.798 2844
1.452 1.739 1.704 7006
1.531 1.833 1.791 2882
1.455 1.743 1.698 8233
1.534 1.837 1.785 3421
1.462 1.751 1.696 9779
1.541 1.846 1.782 2936
1.469 1.759 1.694 9289
1.549 1.854 1.780 2214
1.472 1.763 1.687 8920
1.552 1.858 1.773 2366
1.475 1.766 1.681 8920
1.555 1.862 1.766 2366
1.482 1.775 1.679 7328
1.562 1.870 1.764 1742
1.494 1.788 1.681 6166
1.573 1.884 1.766 1553
1.501 1.797 1.679 4221
1.581 1.893 1.763 1857
1.520 1.821 1.690 2956
1.600 1.916 1.774 1200
1.578 1.890 1.740 3132
1.494 1.789 1.652 1480
1.585 1.898 1.737 3780
1.484 1.777 1.633 1329
1.580 1.892 1.722 6028
1.487 1.780 1.626 1177
1.583 1.895 1.715 8502
1.485 1.778 1.615 1025
1.582 1.894 1.703 8539
1.584 1.897 1.696 8961
1.587 1.901 1.689 9307
1.669 1.998 1.770 1223
1.595 1.909 1.686 7007
1.676 2.007 1.767 1060
1.627 1.949 1.709 7732
1.630 1.952 1.702 7910
1.629 1.951 1.690 8163
1.711 2.049 1.770 1154
1.641 1.964 1.691 8669
1.722 2.063 1.770 1698
1.652 1.978 1.692 9578
1.734 2.077 1.771 1672
1.672 2.002 1.701 7158
1.590 1.904 1.623 1175
1.693 2.027 1.710 7672
1.610 1.928 1.632 2404
1.695 2.030 1.703 7206
1.613 1.931 1.625 1758
1.703 2.039 1.699 6753
1.620 1.940 1.622 1501
1.710 2.048 1.696 9059
1.627 1.948 1.619 1273
1.713 2.051 1.688 11553
1.720 2.060 1.685 12171
1.727 2.069 1.681 13273
1.735 2.077 1.677 13699
1.818 2.177 1.753 1744
1.742 2.086 1.673 12863
1.826 2.186 1.748 2332
1.749 2.095 1.669 10967
1.833 2.195 1.744 2601
1.765 2.114 1.673 9533
1.849 2.214 1.748 1747
1.768 2.117 1.665 8989
1.852 2.218 1.739 2001
1.815 2.174 1.696 9781
1.731 2.073 1.623 2564
1.823 2.183 1.692 12858
1.738 2.082 1.619 4183
1.826 2.186 1.684 12959
1.741 2.085 1.611 4790
1.828 2.189 1.676 13059
1.744 2.088 1.603 4464
1.831 2.193 1.668 15117
1.747 2.092 1.596 3531
1.834 2.196 1.659 17522
1.749 2.095 1.588 2572
1.837 2.200 1.651 17867
1.922 2.301 1.723 2980
1.840 2.203 1.643 18438
1.925 2.305 1.714 2450
1.843 2.206 1.635 18138
1.928 2.308 1.705 1921
1.850 2.215 1.630 16041
1.935 2.317 1.700 2676
1.848 2.213 1.618 12328
1.947 2.332 1.699 5717
1.846 2.211 1.606 10410
1.950 2.335 1.690 8274
1.957 2.344 1.685 9021
1.849 2.214 1.598 8206
1.965 2.353 1.680 8027
1.852 2.218 1.590 4378
1.963 2.351 1.668 6119
1.855 2.221 1.582 2753
2.011 2.408 1.695 5154
1.916 2.295 1.620 3150
2.023 2.423 1.693 4701
1.924 2.303 1.615 2834
2.031 2.432 1.687 4562
1.931 2.312 1.610 2134
2.052 2.457 1.692 5466
1.965 2.353 1.625 1815
2.064 2.471 1.690 6175
1.977 2.368 1.624 2444
2.007 2.404 1.636 5937
2.094 2.508 1.701 4909
2.079 2.489 1.678 6309
1.992 2.385 1.613 3313
2.077 2.487 1.665 6606
1.990 2.383 1.600 1634
2.075 2.485 1.653 6401
2.162 2.589 1.717 1372
2.110 2.527 1.667 6499
2.023 2.423 1.603 3340
2.127 2.547 1.668 9794
2.040 2.442 1.604 3080
2.134 2.556 1.662 9852
2.047 2.451 1.598 1642
2.137 2.559 1.652 9572
2.145 2.568 1.646 11049
2.157 2.583 1.643 12279
2.244 2.688 1.705 1130
2.164 2.591 1.636 9732
2.252 2.697 1.698 2094
2.172 2.600 1.630 7477
2.260 2.706 1.691 2090
2.170 2.598 1.617 5843
2.258 2.704 1.678 2621
2.228 2.668 1.645 5094
2.140 2.562 1.585 2903
2.277 2.727 1.667 5218
2.180 2.610 1.601 2923
2.248 2.692 1.635 4699
2.336 2.797 1.695 1132
2.251 2.695 1.625 4938
2.339 2.801 1.684 1553
2.253 2.698 1.615 3978
2.342 2.804 1.674 2686
2.350 2.813 1.666 4212
2.237 2.679 1.592 2983
2.357 2.822 1.659 5988
2.240 2.682 1.582 2018
2.360 2.826 1.648 8451
2.271 2.719 1.590 2172
2.363 2.829 1.638 8009
2.274 2.722 1.580 2189
2.380 2.849 1.636 5892
2.290 2.743 1.579 2106
2.387 2.858 1.628 5301
2.298 2.751 1.572 1173
2.399 2.873 1.624 6727
2.489 2.980 1.680 1286
2.402 2.876 1.613 7919
2.492 2.984 1.669 1356
2.410 2.885 1.605 6256
2.518 3.015 1.672 1544
2.412 2.889 1.594 5978
2.516 3.013 1.658 1516
2.410 2.886 1.580 6227
2.500 2.994 1.635 1881
2.413 2.889 1.570 3750
2.508 3.003 1.627 2427
2.544 3.046 1.635 5167
2.453 2.938 1.581 2341
2.542 3.043 1.621 6543
2.451 2.935 1.567 2225
2.611 3.126 1.648 3909
2.483 2.973 1.573 3179
2.614 3.130 1.637 4353
2.490 2.982 1.565 1805
2.602 3.116 1.617 5052
2.693 3.224 1.669 1464
2.619 3.136 1.613 4999
2.710 3.245 1.665 2173
2.617 3.134 1.599 4006
2.708 3.243 1.650 2777
2.615 3.132 1.584 4925
2.706 3.240 1.635 2114
2.623 3.140 1.575 5851
2.713 3.249 1.626 2293
2.640 3.161 1.571 4381
2.731 3.270 1.621 2501
2.671 3.198 1.575 4093
2.820 3.376 1.656 1422
2.674 3.202 1.563 3450
2.822 3.380 1.643 2277
2.715 3.251 1.571 2321
2.830 3.389 1.633 2196
2.842 3.404 1.625 2620
2.751 3.294 1.577 1448
2.855 3.418 1.618 3099
2.946 3.528 1.666 1749
2.862 3.428 1.607 3372
2.954 3.537 1.655 2468
2.865 3.431 1.594 4768
2.957 3.540 1.642 2029
2.873 3.440 1.584 4766
3.022 3.619 1.660 2600
2.885 3.455 1.576 3494
3.025 3.622 1.647 2817
2.936 3.516 1.587 3471
3.042 3.643 1.640 2660
2.987 3.577 1.598 3966
3.079 3.687 1.643 2558
2.975 3.563 1.577 3468
3.072 3.679 1.625 1783
2.978 3.566 1.564 2450
3.094 3.705 1.620 1513
3.053 3.656 1.585 2793
3.146 3.767 1.630 1849
3.129 3.747 1.606 4066
3.037 3.636 1.562 1602
3.185 3.814 1.617 3653
3.093 3.703 1.574 2190
3.198 3.829 1.607 2843
3.105 3.718 1.564 2290
3.161 3.786 1.575 2550
3.254 3.896 1.617 1199
3.252 3.894 1.601 2903
3.159 3.783 1.559 2168
3.274 3.920 1.595 3312
3.181 3.809 1.553 2200
3.296 3.947 1.589 3704
3.203 3.836 1.547 1392
3.284 3.933 1.567 3605
3.377 4.044 1.608 1718
3.360 4.024 1.584 3948
3.267 3.912 1.544 3426
3.363 4.027 1.569 3773
3.270 3.916 1.529 2731
3.346 4.007 1.546 3420
3.439 4.118 1.585 1366
3.402 4.074 1.553 3376
3.309 3.963 1.514 2048
3.474 4.160 1.566 3157
3.381 4.048 1.528 2097
3.467 4.151 1.547 3796
3.560 4.263 1.585 2794
3.563 4.266 1.569 3578
3.455 4.137 1.525 2996
3.560 4.263 1.551 4207
3.442 4.122 1.504 1823
3.563 4.266 1.535 6849
3.720 4.455 1.597 2291
3.570 4.275 1.521 7211
3.723 4.458 1.580 2669
3.573 4.279 1.505 4135
3.736 4.473 1.567 3740
3.743 4.482 1.552 5831
3.571 4.276 1.487 1537
3.751 4.491 1.537 5022
3.657 4.379 1.502 2193
3.743 4.483 1.517 3808
3.837 4.595 1.552 2757
3.810 4.563 1.523 4678
3.904 4.675 1.558 2809
3.803 4.554 1.503 3664
3.897 4.666 1.537 2404
4.023 4.817 1.563 2957
3.914 4.687 1.524 2197
4.036 4.832 1.549 3008
3.942 4.720 1.515 2240
4.043 4.842 1.532 2297
3.949 4.729 1.499 1676
4.095 4.904 1.531 2388
4.284 5.130 1.595 1995
4.286 5.133 1.576 3554
4.113 4.925 1.517 2314
4.289 5.136 1.557 3823
4.165 4.987 1.515 1995
4.297 5.145 1.539 2767
4.182 5.008 1.501 2212
4.399 5.267 1.552 4048
4.304 5.154 1.521 2234
4.406 5.276 1.533 4309
4.312 5.163 1.503 2780
4.424 5.297 1.518 3304
4.553 5.452 1.559 2253
4.546 5.443 1.535 2704
4.436 5.312 1.501 2342
4.528 5.423 1.508 3568
4.623 5.536 1.537 1674
4.521 5.414 1.485 3169
4.616 5.527 1.513 2875
4.628 5.542 1.495 3706
4.514 5.405 1.462 2297
4.631 5.545 1.475 3861
4.521 5.414 1.443 1550
4.633 5.548 1.454 3480
4.813 5.763 1.505 1272
4.636 5.551 1.433 2063
4.910 5.880 1.510 1727
4.913 5.883 1.488 2336
4.718 5.650 1.434 1615
5.095 6.101 1.514 2449
4.910 5.880 1.464 1906
5.103 6.111 1.493 2483
5.198 6.224 1.518 1613
5.035 6.030 1.451 2030
5.130 6.143 1.476 1502
5.043 6.039 1.430 2316
5.138 6.152 1.454 1461
5.115 6.125 1.425 1439
5.521 6.611 1.527 1307
5.529 6.620 1.504 2399
5.268 6.308 1.439 1226
5.531 6.623 1.478 3717
5.311 6.359 1.425 1457
5.534 6.626 1.453 4828
5.318 6.368 1.402 1557
5.536 6.629 1.428 5632
5.325 6.377 1.379 1433
5.544 6.638 1.404 5741
5.729 6.861 1.447 1174
5.541 6.635 1.378 4366
6.008 7.194 1.483 1361
5.543 6.638 1.353 3139
4.890 5.855 1.209 2292
4.892 5.858 1.187 3353
5.545 6.640 1.328 2655
4.889 5.854 1.164 3778
5.548 6.643 1.303 1737
4.896 5.862 1.143 4685
5.947 7.121 1.360 1156
4.898 5.865 1.121 5920
4.899 5.867 1.099 5191
4.906 5.875 1.077 2845
4.908 5.877 1.055 1255
6.003 7.189 1.233 1280
4.910 5.879 1.033 1118
6.000 7.185 1.205 2034
4.911 5.881 1.011 1023
5.997 7.181 1.177 2270
5.994 7.178 1.149 2069
5.996 7.180 1.122 1998
6.003 7.188 1.096 1871
6.015 7.202 1.070 1526
6.011 7.198 1.042 1165
6.003 7.188 1.013 1033
1.510 1.796 1.782 2774
1.431 1.703 1.694 1312
1.513 1.800 1.775 5548
1.434 1.706 1.688 2625
1.516 1.804 1.768 5548
1.437 1.710 1.682 2625
1.519 1.807 1.762 6197
1.440 1.713 1.675 2537
