3.941 7.336 1.407 1737
4.036 7.512 1.412 2167
4.158 7.739 1.451 1678
4.037 7.515 1.387 2113
4.115 7.660 1.411 1618
4.469 8.319 1.494 1626
4.173 7.767 1.403 1573
4.475 8.329 1.467 1867
4.174 7.770 1.378 1569
4.480 8.340 1.441 2387
4.117 7.663 1.335 1321
4.482 8.343 1.413 2602
4.285 7.977 1.357 1039
4.480 8.339 1.385 2345
4.306 8.014 1.336 1426
4.478 8.335 1.356 2449
4.307 8.017 1.310 1547
4.480 8.339 1.329 2352
4.481 8.342 1.301 1598
0.978 1.802 1.570 1294
0.980 1.806 1.564 2588
1.070 1.970 1.697 1546
0.982 1.810 1.558 2837
1.072 1.974 1.691 1546
1.021 1.881 1.607 4216
1.080 1.990 1.693 2213
1.020 1.880 1.596 6128
1.085 1.999 1.691 3009
1.032 1.900 1.604 6155
1.091 2.009 1.690 2886
1.043 1.921 1.611 7351
1.118 2.059 1.719 3455
1.045 1.925 1.605 6047
1.120 2.063 1.712 3455
1.016 1.871 1.554 5574
1.119 2.061 1.701 3845
1.018 1.875 1.548 5574
1.121 2.065 1.694 4302
1.026 1.890 1.551 5117
1.126 2.075 1.692 4715
1.132 2.085 1.690 5278
1.031 1.900 1.549 4864
1.134 2.088 1.683 4958
1.036 1.909 1.547 3416
1.145 2.110 1.689 4925
1.045 1.924 1.550 2280
1.148 2.114 1.683 6502
1.040 1.916 1.535 2262
1.153 2.124 1.680 8092
1.039 1.914 1.524 2563
1.152 2.122 1.669 8085
1.063 1.958 1.548 3054
1.151 2.120 1.658 7025
1.065 1.962 1.542 4020
1.150 2.118 1.646 6138
1.070 1.971 1.540 3990
1.152 2.122 1.640 5119
1.075 1.981 1.538 4112
1.163 2.143 1.645 4293
1.077 1.984 1.531 3555
1.169 2.153 1.643 4694
1.079 1.988 1.525 2629
1.174 2.163 1.640 5228
1.081 1.991 1.518 2205
1.176 2.166 1.633 5664
1.086 2.001 1.516 1476
1.178 2.170 1.626 6101
1.184 2.180 1.623 8801
1.245 2.293 1.701 1351
1.189 2.190 1.620 11549
1.250 2.303 1.698 1822
1.191 2.194 1.613 11522
1.252 2.307 1.691 2058
1.193 2.197 1.606 11495
1.254 2.311 1.683 2294
1.195 2.201 1.598 10849
1.257 2.315 1.676 2332
1.197 2.205 1.591 10204
1.259 2.319 1.668 2370
1.202 2.215 1.588 8397
1.264 2.328 1.664 2185
1.208 2.224 1.585 5595
1.299 2.392 1.697 2976
1.213 2.234 1.582 4637
1.304 2.402 1.693 2782
1.221 2.250 1.582 4505
1.313 2.419 1.693 2784
1.233 2.272 1.587 4855
1.318 2.429 1.689 2215
1.235 2.275 1.579 4359
1.334 2.457 1.697 3160
1.342 2.473 1.697 4604
1.240 2.285 1.576 3927
1.338 2.465 1.681 4720
1.242 2.289 1.569 3297
1.334 2.456 1.665 5361
1.241 2.286 1.557 2686
1.379 2.539 1.707 7429
1.316 2.424 1.634 3108
1.381 2.543 1.699 9550
1.318 2.428 1.626 2960
1.383 2.547 1.690 9478
1.320 2.431 1.618 2534
1.388 2.558 1.686 12227
1.325 2.441 1.614 3305
1.391 2.562 1.677 15137
1.327 2.445 1.606 4035
1.393 2.565 1.669 18277
1.329 2.449 1.598 3640
1.395 2.569 1.661 21418
1.331 2.453 1.590 2004
1.400 2.579 1.656 17102
1.464 2.696 1.726 1400
1.399 2.577 1.644 10324
1.476 2.719 1.728 1286
1.384 2.550 1.617 10231
1.448 2.667 1.687 2006
1.400 2.579 1.624 12558
1.487 2.739 1.718 1656
1.405 2.589 1.619 16176
1.493 2.750 1.713 1947
1.411 2.599 1.614 15890
1.498 2.760 1.707 1949
1.413 2.602 1.605 10759
1.477 2.720 1.673 3354
1.469 2.706 1.654 6383
1.405 2.587 1.586 3078
1.468 2.703 1.641 6858
1.532 2.822 1.708 3663
1.473 2.713 1.636 5352
1.537 2.832 1.703 3828
1.482 2.730 1.634 4424
1.546 2.848 1.700 3555
1.487 2.740 1.629 5453
1.552 2.859 1.694 2689
1.547 2.850 1.678 4981
1.483 2.731 1.613 3898
1.549 2.854 1.669 6536
1.485 2.735 1.604 2579
1.541 2.839 1.649 7274
1.606 2.959 1.714 2482
1.543 2.843 1.640 7166
1.608 2.963 1.704 2941
1.546 2.847 1.631 6300
1.611 2.967 1.695 3879
1.582 2.914 1.655 6391
1.647 3.034 1.718 2343
1.625 2.993 1.685 6883
1.560 2.873 1.622 5376
1.641 3.023 1.689 6854
1.576 2.903 1.626 5444
1.647 3.033 1.682 10118
1.581 2.913 1.620 3718
1.652 3.043 1.675 10309
1.587 2.923 1.613 2207
1.658 3.054 1.669 8940
1.592 2.933 1.607 2034
1.660 3.057 1.659 10470
1.594 2.937 1.598 1511
1.665 3.068 1.652 11350
1.600 2.947 1.591 1276
1.664 3.065 1.639 7151
1.659 3.056 1.622 2815
1.725 3.178 1.682 1472
1.699 3.130 1.647 3188
1.688 3.109 1.624 3611
1.686 3.106 1.611 5593
1.752 3.228 1.669 1409
1.688 3.110 1.601 5150
1.754 3.232 1.659 2259
1.739 3.203 1.633 3797
1.673 3.081 1.575 1788
1.741 3.207 1.623 4977
1.675 3.085 1.565 1040
1.729 3.185 1.600 4521
1.796 3.308 1.657 2599
1.728 3.183 1.587 3969
1.794 3.305 1.643 2557
1.817 3.348 1.650 3258
1.744 3.212 1.588 2901
1.823 3.358 1.642 4728
1.756 3.235 1.586 2945
1.772 3.265 1.587 5005
1.839 3.388 1.643 2900
1.788 3.294 1.588 5885
1.855 3.417 1.643 1260
1.798 3.311 1.583 6843
1.864 3.434 1.638 2012
1.838 3.386 1.604 6128
1.771 3.263 1.550 1713
1.840 3.390 1.593 5640
1.907 3.513 1.646 1366
1.839 3.387 1.579 4450
1.906 3.511 1.632 2177
1.859 3.423 1.582 5224
1.926 3.547 1.634 2386
1.864 3.434 1.573 7510
1.931 3.557 1.626 2041
1.870 3.444 1.565 7486
1.937 3.568 1.617 1867
1.886 3.474 1.564 5680
1.953 3.598 1.616 1777
1.916 3.530 1.574 4328
1.984 3.654 1.626 1134
1.925 3.546 1.568 6068
1.993 3.671 1.619 1574
1.934 3.563 1.562 8147
2.002 3.688 1.612 1119
1.947 3.586 1.558 8175
2.015 3.711 1.608 1143
1.960 3.610 1.554 8835
2.027 3.735 1.604 1618
1.965 3.620 1.545 6908
2.033 3.745 1.594 2505
2.014 3.709 1.566 5269
1.946 3.584 1.518 1868
2.012 3.706 1.552 4602
2.080 3.831 1.600 2309
2.003 3.690 1.532 4495
2.071 3.815 1.580 4262
2.066 3.806 1.562 5906
1.998 3.680 1.515 3609
2.064 3.803 1.547 5520
1.996 3.677 1.500 1576
2.059 3.793 1.530 4622
2.127 3.919 1.577 2261
2.090 3.850 1.537 3867
2.158 3.975 1.583 1457
2.131 3.926 1.551 5333
2.063 3.800 1.505 3171
2.133 3.930 1.538 6136
2.065 3.804 1.493 3200
2.135 3.933 1.525 5193
2.067 3.807 1.480 2146
2.159 3.977 1.526 4035
2.227 4.103 1.571 2248
2.164 3.987 1.516 4048
2.233 4.113 1.560 2018
2.188 4.030 1.516 4241
2.119 3.904 1.473 1728
2.183 4.021 1.499 3783
2.251 4.147 1.542 3326
2.268 4.177 1.537 3358
2.185 4.024 1.485 2755
2.270 4.181 1.524 4586
2.194 4.041 1.477 1565
2.319 4.271 1.539 3783
2.250 4.144 1.497 2658
2.324 4.282 1.527 5056
2.252 4.148 1.483 1297
2.334 4.298 1.517 4413
2.343 4.315 1.507 3355
2.412 4.443 1.548 1140
2.341 4.312 1.491 3645
2.414 4.446 1.533 2651
2.416 4.450 1.519 4355
2.347 4.322 1.479 2998
2.418 4.453 1.504 4564
2.487 4.581 1.544 2146
2.420 4.457 1.490 3434
2.489 4.584 1.529 2480
2.447 4.507 1.489 3491
2.524 4.649 1.532 1694
2.489 4.585 1.496 3181
2.562 4.719 1.537 1791
2.535 4.669 1.505 6060
2.604 4.797 1.543 1706
2.537 4.673 1.490 7796
2.606 4.801 1.527 3042
2.546 4.689 1.478 6394
2.656 4.892 1.537 2574
2.548 4.693 1.463 4248
2.705 4.983 1.546 2623
2.693 4.960 1.522 2990
2.579 4.750 1.463 2200
2.698 4.970 1.507 3477
2.628 4.842 1.472 1838
2.737 5.041 1.510 3141
2.649 4.879 1.465 1642
2.742 5.051 1.495 2434
2.827 5.207 1.537 2187
2.829 5.211 1.520 2786
2.718 5.007 1.465 1289
2.831 5.214 1.503 2220
2.855 5.258 1.496 1803
2.928 5.394 1.531 1460
2.938 5.411 1.517 2211
2.860 5.269 1.481 1925
2.936 5.408 1.498 2500
3.024 5.571 1.539 2022
2.923 5.384 1.473 2573
3.019 5.561 1.517 2032
2.921 5.381 1.454 2927
3.013 5.551 1.495 2445
3.012 5.547 1.476 2844
2.916 5.370 1.433 1861
3.165 5.830 1.524 2159
3.091 5.694 1.492 1855
3.130 5.765 1.489 2250
3.037 5.595 1.449 1490
3.128 5.762 1.468 2353
3.036 5.591 1.429 1387
3.226 5.943 1.490 2172
3.137 5.779 1.452 1796
3.235 5.960 1.473 2880
3.306 6.089 1.503 2184
3.334 6.141 1.493 3536
3.237 5.963 1.454 2656
3.336 6.144 1.473 3835
3.221 5.932 1.427 2164
3.330 6.134 1.450 3075
3.415 6.291 1.484 1947
3.321 6.117 1.425 2971
3.413 6.288 1.461 2877
3.412 6.284 1.439 2698
3.486 6.421 1.468 2117
3.406 6.274 1.416 1933
3.488 6.424 1.447 1898
3.642 6.709 1.482 2532
3.490 6.428 1.425 2467
3.651 6.726 1.463 3211
3.491 6.431 1.404 2387
3.661 6.743 1.443 2689
3.564 6.564 1.408 2191
3.562 6.561 1.385 2592
3.651 6.726 1.417 2240
3.701 6.818 1.412 2062
3.564 6.564 1.364 1833
4.061 7.481 1.511 2078
3.722 6.856 1.395 1942
4.059 7.477 1.485 2716
3.906 7.195 1.434 1663
4.057 7.474 1.459 2636
3.968 7.309 1.430 2304
4.063 7.484 1.435 2253
4.186 7.711 1.475 1781
4.068 7.494 1.412 2315
4.188 7.714 1.450 1640
4.066 7.490 1.386 2363
4.507 8.303 1.522 1389
4.072 7.501 1.362 1727
4.506 8.299 1.494 1565
4.511 8.310 1.467 1762
4.208 7.752 1.378 1336
4.517 8.320 1.441 2113
4.318 7.955 1.383 1142
4.522 8.330 1.414 2320
4.384 8.075 1.375 1027
4.517 8.320 1.385 2192
4.341 7.995 1.336 1425
4.511 8.309 1.355 2553
4.342 7.998 1.310 1501
4.516 8.319 1.329 2533
4.518 8.322 1.301 1750
0.987 1.805 1.574 1307
0.989 1.809 1.568 2614
1.076 1.967 1.697 1752
0.991 1.812 1.563 2829
1.078 1.971 1.691 1752
1.027 1.878 1.607 3772
1.086 1.986 1.693 2399
1.032 1.888 1.605 5094
1.091 1.996 1.691 3085
1.044 1.909 1.613 5973
1.103 2.017 1.699 2454
1.049 1.918 1.611 7308
1.127 2.061 1.724 3190
1.051 1.922 1.605 5982
1.129 2.065 1.717 3190
1.025 1.874 1.558 4846
1.125 2.058 1.701 3566
1.027 1.878 1.552 4846
1.124 2.056 1.690 4160
1.032 1.887 1.551 4423
1.129 2.066 1.688 4232
1.135 2.075 1.685 4475
1.034 1.891 1.544 4023
1.143 2.091 1.687 4536
1.039 1.900 1.543 2803
1.155 2.112 1.694 5263
1.069 1.956 1.576 2002
1.157 2.116 1.687 6948
1.043 1.907 1.530 2157
1.159 2.120 1.680 8632
1.042 1.905 1.520 2677
1.158 2.118 1.669 8572
1.069 1.955 1.548 3138
1.157 2.116 1.658 7641
1.071 1.959 1.542 4231
1.156 2.114 1.646 6907
1.076 1.968 1.540 4302
1.158 2.118 1.640 6099
1.081 1.978 1.538 4525
1.167 2.134 1.641 5310
1.083 1.981 1.531 3928
1.175 2.149 1.643 5573
1.085 1.985 1.525 2951
1.181 2.159 1.640 6139
1.087 1.988 1.518 2507
1.180 2.157 1.629 6812
1.089 1.992 1.512 1632
1.182 2.161 1.622 7520
1.190 2.176 1.623 10168
1.192 2.180 1.616 13102
1.254 2.293 1.694 1459
1.194 2.184 1.609 12664
1.256 2.297 1.686 1628
1.196 2.188 1.602 12225
1.258 2.301 1.679 1798
1.202 2.197 1.598 11306
1.264 2.311 1.676 1816
1.204 2.201 1.591 10426
1.266 2.315 1.668 1979
1.209 2.211 1.588 8479
1.271 2.325 1.664 1769
1.214 2.221 1.585 5717
1.306 2.389 1.697 2070
1.216 2.224 1.578 4962
1.312 2.399 1.693 2012
1.228 2.246 1.582 5030
1.320 2.415 1.693 2077
1.233 2.256 1.579 5249
1.329 2.431 1.693 2249
1.242 2.271 1.579 4567
1.341 2.453 1.697 3471
1.347 2.463 1.693 4522
1.247 2.281 1.576 4018
1.349 2.467 1.685 4095
1.249 2.285 1.569 3244
1.384 2.531 1.715 3912
1.248 2.282 1.557 2540
1.383 2.529 1.703 6021
1.320 2.414 1.630 1878
1.385 2.533 1.695 8131
1.322 2.418 1.622 1860
1.391 2.543 1.690 8424
1.327 2.427 1.618 2176
1.396 2.553 1.686 10754
1.333 2.437 1.614 2968
1.402 2.563 1.681 12988
1.338 2.447 1.610 3934
1.404 2.567 1.673 15500
1.340 2.451 1.602 3852
1.406 2.571 1.664 18011
1.342 2.455 1.594 2359
1.408 2.575 1.656 14189
1.472 2.692 1.726 1561
1.407 2.573 1.644 7744
1.471 2.690 1.714 1512
1.389 2.540 1.614 8098
1.453 2.657 1.683 2523
1.408 2.574 1.624 9378
1.496 2.735 1.718 1996
1.417 2.591 1.622 12839
1.501 2.745 1.713 2634
1.419 2.594 1.614 13083
1.503 2.749 1.704 2735
1.424 2.604 1.609 9006
1.489 2.722 1.677 3233
1.477 2.701 1.654 5909
1.542 2.819 1.721 2372
1.479 2.705 1.645 6321
1.544 2.823 1.712 2607
1.481 2.709 1.636 5284
1.546 2.827 1.703 2697
1.490 2.725 1.634 5020
1.555 2.844 1.700 2423
1.496 2.735 1.629 6053
1.574 2.879 1.708 2207
1.505 2.752 1.627 5519
1.573 2.877 1.695 3980
1.551 2.837 1.662 6021
1.486 2.718 1.597 1987
1.547 2.828 1.646 7263
1.612 2.947 1.711 3327
1.552 2.838 1.640 6996
1.617 2.958 1.704 2796
1.592 2.911 1.668 6086
1.527 2.792 1.604 1840
1.587 2.903 1.652 6678
1.653 3.022 1.715 3314
1.634 2.988 1.685 7869
1.569 2.869 1.622 5584
1.647 3.011 1.685 7879
1.581 2.891 1.623 5876
1.656 3.028 1.682 10817
1.590 2.908 1.620 4141
1.661 3.038 1.675 11758
1.596 2.918 1.613 2365
1.667 3.049 1.669 10832
1.601 2.928 1.607 2250
1.673 3.059 1.662 11193
1.607 2.938 1.601 1801
1.675 3.063 1.652 10724
1.609 2.942 1.591 1181
1.677 3.067 1.642 6109
1.665 3.045 1.619 2708
1.731 3.166 1.679 1460
1.723 3.151 1.659 2286
1.657 3.029 1.600 1790
1.680 3.072 1.608 2971
1.746 3.193 1.667 1158
1.689 3.088 1.605 4146
1.755 3.210 1.663 2256
1.743 3.188 1.640 4229
1.677 3.066 1.582 1774
1.749 3.198 1.633 4449
1.682 3.076 1.575 1445
1.751 3.202 1.623 4549
1.818 3.324 1.680 1040
1.735 3.174 1.597 4247
1.802 3.296 1.654 2842
1.737 3.177 1.587 4093
1.804 3.300 1.643 2587
1.754 3.207 1.588 3686
1.828 3.342 1.650 3272
1.833 3.352 1.642 4914
1.766 3.230 1.586 3306
1.782 3.259 1.587 5134
1.849 3.382 1.643 3330
1.798 3.289 1.588 6245
1.866 3.412 1.643 1523
1.808 3.306 1.583 6775
1.875 3.429 1.638 1867
1.849 3.381 1.604 5470
1.781 3.257 1.550 1790
1.851 3.384 1.593 5068
1.918 3.508 1.646 1619
1.863 3.408 1.590 3968
1.931 3.531 1.643 1820
1.880 3.437 1.590 5334
1.947 3.561 1.643 1406
1.878 3.434 1.576 7205
1.946 3.558 1.628 1616
1.880 3.438 1.565 7449
1.948 3.562 1.617 1566
1.886 3.448 1.556 5113
1.953 3.572 1.608 2365
1.927 3.524 1.574 4431
1.932 3.534 1.565 6011
2.000 3.658 1.616 1282
1.949 3.564 1.564 7312
1.958 3.580 1.558 8142
2.026 3.705 1.608 1443
1.967 3.597 1.551 8922
2.035 3.722 1.601 2223
1.973 3.607 1.542 6974
2.041 3.732 1.591 2791
2.025 3.703 1.566 4869
1.957 3.578 1.518 1566
2.027 3.707 1.554 4188
2.095 3.832 1.603 1755
2.014 3.684 1.532 4079
2.086 3.816 1.582 3675
2.074 3.793 1.560 5069
2.006 3.668 1.512 3097
2.069 3.783 1.542 5186
2.137 3.909 1.590 1598
2.064 3.774 1.525 4568
2.132 3.899 1.572 3315
2.102 3.843 1.537 4676
2.170 3.969 1.583 1598
2.100 3.840 1.522 5571
2.169 3.966 1.568 2887
2.145 3.923 1.538 4953
2.077 3.797 1.493 3082
2.151 3.933 1.528 4447
2.082 3.807 1.482 2197
2.175 3.977 1.529 4035
2.244 4.103 1.573 1491
2.180 3.987 1.518 4544
2.249 4.113 1.562 1071
2.200 4.024 1.516 4774
2.269 4.150 1.560 1658
2.199 4.021 1.501 3819
2.268 4.147 1.544 2906
2.244 4.104 1.515 3301
2.175 3.977 1.472 1332
2.286 4.181 1.526 4271
2.217 4.054 1.483 1738
2.332 4.264 1.539 3639
2.263 4.138 1.497 2712
2.337 4.274 1.527 4764
2.268 4.148 1.485 1827
2.347 4.291 1.517 4375
2.356 4.308 1.507 3632
2.425 4.435 1.548 1344
2.354 4.305 1.491 3610
2.424 4.432 1.531 2653
2.426 4.436 1.517 3591
2.356 4.309 1.477 2585
2.475 4.526 1.529 4008
2.406 4.399 1.490 2422
2.451 4.483 1.500 3382
2.521 4.610 1.539 1766
2.457 4.493 1.487 3818
2.527 4.621 1.526 2365
2.503 4.577 1.496 3276
2.573 4.705 1.535 1324
2.549 4.661 1.505 5902
2.630 4.809 1.549 2085
2.551 4.665 1.490 9289
2.624 4.799 1.529 3241
2.553 4.668 1.475 7981
2.623 4.796 1.512 3082
2.558 4.678 1.461 4482
2.720 4.975 1.546 3347
2.711 4.958 1.524 3743
2.641 4.830 1.488 2209
2.717 4.968 1.509 3666
2.647 4.840 1.473 2292
2.759 5.046 1.513 3471
2.660 4.864 1.463 1562
2.769 5.063 1.500 2683
2.839 5.192 1.535 2095
2.845 5.202 1.520 3011
2.850 5.212 1.504 2424
2.939 5.375 1.547 1225
2.874 5.256 1.498 2110
2.948 5.392 1.533 1884
2.876 5.260 1.481 2597
2.954 5.402 1.517 2403
2.952 5.399 1.498 2587
2.882 5.270 1.465 2270
2.939 5.375 1.473 2302
3.036 5.552 1.517 1923
2.941 5.379 1.455 2532
3.026 5.535 1.494 2306
3.025 5.531 1.474 2769
3.147 5.755 1.528 1852
3.183 5.820 1.524 2666
3.030 5.542 1.457 1843
3.181 5.817 1.503 2742
3.103 5.674 1.470 1955
3.153 5.766 1.471 2262
3.052 5.582 1.429 1570
3.244 5.933 1.490 2244
3.155 5.769 1.452 1616
3.257 5.957 1.475 2990
3.354 6.134 1.515 2212
3.352 6.130 1.493 3479
3.259 5.960 1.455 3144
3.354 6.134 1.473 3336
3.246 5.936 1.430 2113
3.349 6.124 1.450 2856
3.442 6.294 1.487 2182
3.339 6.106 1.425 3146
3.433 6.277 1.461 2206
3.326 6.082 1.399 2166
3.505 6.410 1.468 2161
3.462 6.332 1.430 2017
3.574 6.537 1.472 1607
3.666 6.704 1.484 2619
3.505 6.410 1.424 2422
3.675 6.721 1.464 3478
3.507 6.413 1.403 2259
3.692 6.752 1.447 2962
3.602 6.588 1.415 1718
3.709 6.783 1.430 2630
3.593 6.571 1.389 2219
3.715 6.793 1.409 2681
3.928 7.184 1.483 1856
3.930 7.187 1.459 2131
4.084 7.468 1.511 2114
4.082 7.465 1.485 2643
3.928 7.184 1.434 1806
4.080 7.461 1.459 2386
3.986 7.290 1.428 1967
4.086 7.472 1.435 2007
4.213 7.705 1.476 1754
4.087 7.475 1.411 2259
4.211 7.702 1.450 1481
4.089 7.478 1.386 2647
4.529 8.282 1.521 1270
4.095 7.488 1.362 2040
4.392 8.031 1.452 1405
4.536 8.296 1.467 1489
4.394 8.035 1.425 1258
4.542 8.306 1.441 1700
4.399 8.045 1.400 1131
4.548 8.316 1.414 1900
4.408 8.062 1.375 1060
4.538 8.299 1.384 2002
4.410 8.065 1.349 1419
4.536 8.295 1.355 2527
4.412 8.068 1.322 1432
4.538 8.298 1.328 2482
4.539 8.301 1.300 1699
1.018 1.846 1.611 1754
1.021 1.850 1.605 3508
1.086 1.969 1.702 1904
1.023 1.854 1.599 3508
1.088 1.973 1.695 1904
1.040 1.886 1.616 3514
1.100 1.994 1.703 2157
1.045 1.895 1.614 4287
1.105 2.003 1.701 2469
1.051 1.905 1.613 5551
1.110 2.013 1.699 2286
1.053 1.909 1.606 6819
1.138 2.063 1.728 2873
1.055 1.912 1.600 5612
1.140 2.067 1.721 2873
1.038 1.882 1.567 4447
1.133 2.053 1.701 3210
1.040 1.885 1.561 4447
1.132 2.052 1.690 4018
1.039 1.883 1.551 3901
1.137 2.061 1.688 3827
1.142 2.071 1.685 3841
1.041 1.887 1.544 3369
1.157 2.098 1.696 4435
1.043 1.890 1.538 2541
1.163 2.108 1.694 5805
1.086 1.969 1.589 2277
1.165 2.112 1.687 7269
1.088 1.973 1.583 2223
1.167 2.116 1.680 8732
1.049 1.901 1.520 2701
1.169 2.120 1.673 8676
1.076 1.951 1.548 3094
1.165 2.112 1.658 7821
1.078 1.955 1.542 4217
1.161 2.104 1.642 7373
1.083 1.964 1.540 4369
1.166 2.114 1.640 6907
1.089 1.974 1.538 4663
1.168 2.118 1.633 6446
1.091 1.977 1.531 4061
1.183 2.145 1.643 6315
1.093 1.981 1.525 3092
1.189 2.155 1.640 6874
1.095 1.984 1.518 2656
1.187 2.153 1.629 7979
1.096 1.988 1.512 1709
1.186 2.151 1.617 9158
1.195 2.166 1.619 11546
1.197 2.170 1.612 14276
1.259 2.282 1.690 1030
1.202 2.180 1.609 13360
1.264 2.292 1.686 1074
1.204 2.183 1.602 12500
1.267 2.296 1.679 1205
1.210 2.193 1.598 11115
1.272 2.306 1.676 1267
1.212 2.197 1.591 10006
1.274 2.310 1.668 1447
1.214 2.200 1.584 8235
1.276 2.314 1.660 1504
1.219 2.210 1.581 5697
1.282 2.324 1.657 1371
1.224 2.220 1.578 5054
1.317 2.388 1.689 1283
1.233 2.235 1.578 5153
1.316 2.386 1.677 1606
1.238 2.245 1.575 5391
1.341 2.432 1.697 2212
1.247 2.261 1.576 4465
1.347 2.442 1.693 3677
1.352 2.452 1.689 4309
1.256 2.277 1.576 3877
1.355 2.456 1.681 3683
1.258 2.280 1.569 3010
1.360 2.466 1.677 3093
1.253 2.272 1.553 2259
1.386 2.512 1.695 4890
1.255 2.275 1.546 1646
1.388 2.516 1.687 6853
1.324 2.401 1.615 1459
1.390 2.520 1.679 7340
1.326 2.404 1.607 1741
1.406 2.548 1.686 8924
1.342 2.432 1.614 2871
1.411 2.558 1.681 10614
1.347 2.442 1.610 3769
1.413 2.562 1.673 12525
1.349 2.446 1.602 3711
1.419 2.572 1.668 14634
1.355 2.456 1.598 2834
1.421 2.576 1.660 11858
1.357 2.460 1.590 1348
1.427 2.586 1.655 6057
1.362 2.469 1.585 1637
1.398 2.535 1.614 6078
1.463 2.652 1.683 3062
1.414 2.563 1.620 6538
1.478 2.680 1.689 2411
1.430 2.591 1.626 9842
1.508 2.733 1.709 3097
1.435 2.601 1.621 10607
1.513 2.744 1.704 3337
1.437 2.605 1.613 7462
1.502 2.723 1.680 3438
1.487 2.696 1.654 5673
1.552 2.814 1.721 2036
1.493 2.706 1.648 6177
1.558 2.824 1.715 1991
1.495 2.710 1.639 5415
1.560 2.828 1.706 1703
1.500 2.720 1.634 5301
1.565 2.838 1.700 1448
1.502 2.724 1.625 5990
1.568 2.842 1.691 1766
1.518 2.752 1.630 5747
1.584 2.871 1.695 3265
1.531 2.775 1.631 6895
1.596 2.894 1.696 5267
1.547 2.804 1.636 7087
1.612 2.923 1.700 5351
1.562 2.833 1.640 6576
1.628 2.952 1.704 2818
1.603 2.905 1.668 6207
1.537 2.786 1.604 2637
1.598 2.897 1.652 6758
1.664 3.016 1.715 3806
1.649 2.989 1.689 8607
1.583 2.869 1.625 6488
1.654 2.999 1.682 8437
1.588 2.879 1.619 6124
1.667 3.022 1.682 10653
1.601 2.902 1.620 4521
1.676 3.038 1.679 12535
1.610 2.918 1.617 2607
1.678 3.042 1.669 12084
1.612 2.922 1.607 2426
1.684 3.053 1.662 11507
1.617 2.932 1.601 1813
1.690 3.063 1.655 10144
1.623 2.942 1.594 1286
1.699 3.079 1.651 6736
1.632 2.959 1.591 1147
1.708 3.096 1.647 4051
1.696 3.074 1.625 3534
1.698 3.078 1.615 4361
1.765 3.199 1.674 1154
1.704 3.088 1.608 4529
1.770 3.210 1.666 2622
1.755 3.181 1.640 5138
1.688 3.060 1.582 1445
1.746 3.166 1.621 4851
1.770 3.208 1.629 4015
1.703 3.087 1.571 1037
1.765 3.199 1.612 3895
1.832 3.321 1.669 1371
1.760 3.190 1.596 4882
1.827 3.312 1.652 2164
1.765 3.200 1.588 5052
1.840 3.335 1.650 3412
1.846 3.346 1.642 5024
1.778 3.223 1.586 3932
1.794 3.253 1.587 5075
1.862 3.375 1.643 3656
1.811 3.282 1.588 6392
1.878 3.405 1.643 2123
1.820 3.299 1.583 6180
1.887 3.422 1.638 2128
1.861 3.374 1.604 4583
1.793 3.251 1.550 1809
1.867 3.384 1.595 4446
1.799 3.261 1.542 1732
1.883 3.414 1.596 4495
1.951 3.537 1.649 1416
1.896 3.437 1.593 6254
1.898 3.440 1.581 7025
1.966 3.564 1.634 1163
1.889 3.425 1.562 6886
1.957 3.548 1.614 1832
1.891 3.428 1.551 5165
1.959 3.552 1.602 2516
1.943 3.523 1.577 4400
1.875 3.399 1.526 1266
1.945 3.527 1.565 5284
2.021 3.664 1.622 1190
1.962 3.557 1.564 5870
2.030 3.681 1.615 1244
1.971 3.573 1.558 7571
2.040 3.697 1.608 1855
1.980 3.590 1.551 9083
2.049 3.714 1.601 2543
1.986 3.600 1.542 7382
2.055 3.725 1.591 2685
2.038 3.695 1.566 4216
1.970 3.571 1.518 1113
2.040 3.699 1.554 3667
2.109 3.824 1.603 1486
2.028 3.676 1.532 3784
2.104 3.814 1.585 3046
2.088 3.785 1.560 3645
2.019 3.660 1.512 2834
2.075 3.762 1.537 4880
2.144 3.888 1.585 2527
2.074 3.759 1.523 4872
2.143 3.885 1.569 3665
2.119 3.842 1.539 5550
2.189 3.967 1.586 1617
2.118 3.839 1.524 6261
2.194 3.978 1.575 2862
2.105 3.816 1.502 3809
2.196 3.981 1.562 2875
2.162 3.919 1.525 3293
2.092 3.793 1.480 2167
2.193 3.975 1.531 3898
2.123 3.850 1.486 1251
2.198 3.985 1.520 4858
2.129 3.860 1.476 1060
2.215 4.016 1.516 5101
2.285 4.142 1.560 1877
2.217 4.019 1.503 3825
2.290 4.152 1.549 2616
2.252 4.082 1.510 4167
2.322 4.209 1.553 1784
2.305 4.179 1.528 4020
2.235 4.053 1.486 2023
2.347 4.256 1.539 3150
2.278 4.129 1.497 2605
2.353 4.266 1.527 4105
2.280 4.133 1.483 2019
2.362 4.283 1.517 4033
2.375 4.306 1.509 3750
2.445 4.433 1.550 1489
2.370 4.296 1.491 3497
2.440 4.423 1.531 2469
2.446 4.433 1.519 2637
2.372 4.300 1.477 2323
2.484 4.504 1.525 3493
2.414 4.377 1.485 2301
2.468 4.474 1.500 3624
2.398 4.347 1.461 2034
2.474 4.484 1.487 3826
2.544 4.611 1.526 2597
2.527 4.581 1.500 4192
2.597 4.709 1.539 1621
2.566 4.652 1.505 6038
2.648 4.800 1.549 2109
2.568 4.655 1.490 9055
2.649 4.803 1.533 3714
2.570 4.659 1.475 7969
2.651 4.807 1.517 3382
2.575 4.669 1.461 4505
2.735 4.958 1.544 3847
2.737 4.962 1.527 4775
2.655 4.814 1.486 2362
2.743 4.972 1.513 4243
2.668 4.837 1.475 2231
2.748 4.982 1.498 3447
2.678 4.854 1.463 1424
2.784 5.046 1.498 2557
2.858 5.181 1.535 1791
2.856 5.178 1.516 2481
2.869 5.202 1.504 2230
2.955 5.357 1.546 1642
2.920 5.293 1.510 2635
3.020 5.475 1.558 1983
2.903 5.263 1.484 2970
2.974 5.391 1.517 2326
2.972 5.388 1.498 2666
2.901 5.259 1.465 2632
2.970 5.385 1.478 2512
3.060 5.547 1.519 1780
2.965 5.374 1.457 2202
3.099 5.618 1.517 2047
3.041 5.513 1.472 2397
3.172 5.751 1.530 1781
3.200 5.802 1.523 2843
3.054 5.537 1.459 1806
3.202 5.805 1.503 3183
3.067 5.561 1.445 1848
3.204 5.809 1.484 2284
3.069 5.564 1.427 1651
3.270 5.928 1.491 2264
3.199 5.798 1.462 1581
3.283 5.951 1.477 3096
3.377 6.121 1.515 2372
3.281 5.948 1.455 3554
3.379 6.125 1.495 3262
3.380 6.128 1.474 2555
3.279 5.945 1.434 2539
3.469 6.288 1.488 2287
3.371 6.111 1.450 2266
3.365 6.101 1.427 2840
3.474 6.299 1.469 2212
3.345 6.063 1.398 2240
3.484 6.316 1.451 2237
3.486 6.319 1.430 2259
3.610 6.544 1.476 1909
3.695 6.698 1.485 2486
3.529 6.397 1.424 1958
3.708 6.721 1.467 3638
3.576 6.482 1.419 1898
3.728 6.759 1.451 3410
3.578 6.486 1.398 1704
3.730 6.762 1.429 3326
3.621 6.564 1.391 1918
3.736 6.772 1.408 3259
3.955 7.169 1.483 1810
3.738 6.776 1.385 2322
4.111 7.453 1.511 1948
4.109 7.450 1.485 2307
3.777 6.847 1.375 1575
4.111 7.453 1.460 1914
4.009 7.268 1.427 1615
4.064 7.367 1.420 1709
4.242 7.689 1.476 1674
4.115 7.460 1.411 2014
4.244 7.693 1.451 1398
4.117 7.463 1.386 2666
4.419 8.012 1.478 1160
4.122 7.473 1.362 2175
4.421 8.015 1.452 1295
4.124 7.476 1.338 1223
4.415 8.005 1.423 1179
4.569 8.283 1.440 1307
4.171 7.562 1.326 1010
4.571 8.286 1.412 1507
4.442 8.052 1.376 1032
4.565 8.275 1.383 1807
4.444 8.055 1.350 1464
4.567 8.278 1.355 2277
4.445 8.058 1.323 1549
4.568 8.282 1.328 2186
4.570 8.285 1.300 1524
1.024 1.843 1.611 2370
1.026 1.847 1.605 4741
1.092 1.965 1.702 1942
1.028 1.851 1.599 4741
1.094 1.969 1.695 1942
1.037 1.866 1.602 3940
1.096 1.973 1.689 2590
1.054 1.898 1.619 3804
1.114 2.006 1.705 1918
1.056 1.902 1.613 4955
1.116 2.010 1.699 2134
1.059 1.905 1.606 6107
1.150 2.070 1.737 2532
1.061 1.909 1.600 5175
1.153 2.075 1.730 2532
1.050 1.890 1.576 4620
1.114 2.004 1.665 2987
1.052 1.894 1.570 4620
1.135 2.043 1.686 3847
1.045 1.880 1.551 3657
1.143 2.058 1.688 3541
1.149 2.068 1.685 3509
1.043 1.878 1.540 3076
1.167 2.100 1.701 4650
1.049 1.887 1.538 2549
1.169 2.104 1.694 6248
1.089 1.960 1.585 2623
1.171 2.108 1.687 7299
1.091 1.964 1.578 2362
1.177 2.118 1.684 8356
1.054 1.898 1.520 2573
1.176 2.116 1.673 8353
1.082 1.948 1.548 2912
1.171 2.108 1.658 7571
1.084 1.951 1.542 3983
1.164 2.095 1.638 7799
1.089 1.961 1.540 4181
1.169 2.104 1.635 7583
1.095 1.970 1.538 4505
1.175 2.114 1.633 7471
1.097 1.974 1.531 3935
1.186 2.136 1.638 6978
1.099 1.977 1.525 3031
1.195 2.151 1.640 7506
1.101 1.981 1.518 2629
1.194 2.149 1.629 9080
1.106 1.990 1.516 1684
1.193 2.147 1.617 10843
1.198 2.157 1.615 12702
1.204 2.166 1.612 15023
1.206 2.170 1.605 13517
1.211 2.180 1.602 12064
1.213 2.183 1.594 10463
1.218 2.193 1.591 8993
1.220 2.197 1.584 7690
1.226 2.206 1.581 5574
1.362 2.451 1.745 1073
1.228 2.210 1.574 4900
1.361 2.449 1.733 1226
1.230 2.214 1.567 5120
1.363 2.454 1.725 1385
1.235 2.223 1.563 5346
1.352 2.434 1.701 2207
1.234 2.221 1.552 4328
1.354 2.438 1.693 3598
1.356 2.442 1.685 4004
1.266 2.279 1.580 3507
1.359 2.445 1.677 3595
1.268 2.282 1.572 2658
1.351 2.431 1.657 3297
1.253 2.256 1.546 2072
1.390 2.502 1.692 4036
1.255 2.259 1.538 1776
1.389 2.500 1.680 5873
1.264 2.275 1.539 1468
1.394 2.510 1.675 6320
1.276 2.297 1.542 1689
1.413 2.544 1.686 7026
1.349 2.428 1.614 2979
1.419 2.554 1.681 8288
1.355 2.438 1.610 3630
1.425 2.564 1.677 9977
1.360 2.448 1.606 3946
1.430 2.574 1.672 11817
1.366 2.458 1.601 3294
1.432 2.578 1.663 10241
1.368 2.462 1.593 1820
1.438 2.588 1.659 6095
1.373 2.471 1.589 1906
1.460 2.629 1.672 4713
1.396 2.512 1.603 3932
1.446 2.602 1.645 5361
1.510 2.719 1.714 2284
1.444 2.599 1.633 7945
1.516 2.729 1.709 3451
1.446 2.603 1.625 8860
1.511 2.720 1.693 4017
1.448 2.607 1.616 6307
1.514 2.724 1.684 3784
1.495 2.691 1.654 5674
1.561 2.809 1.721 1776
1.504 2.707 1.652 6406
1.570 2.825 1.719 1760
1.506 2.711 1.643 5759
1.572 2.829 1.710 1568
1.509 2.715 1.634 5286
1.609 2.895 1.735 1280
1.511 2.719 1.625 5460
1.576 2.837 1.691 1386
1.530 2.754 1.633 5584
1.596 2.872 1.699 2522
1.539 2.770 1.631 7436
1.608 2.895 1.700 4740
1.545 2.780 1.626 7681
1.611 2.899 1.690 5792
1.554 2.797 1.623 6384
1.620 2.915 1.687 5420
1.615 2.907 1.671 5973
1.549 2.788 1.607 4028
1.652 2.973 1.695 6731
1.586 2.854 1.632 4454
1.654 2.977 1.685 8710
1.588 2.858 1.622 5793
1.660 2.988 1.679 8432
1.593 2.868 1.616 5680
1.673 3.010 1.679 9742
1.606 2.891 1.616 4355
1.685 3.033 1.679 12430
1.619 2.913 1.617 2610
1.691 3.044 1.672 12265
1.624 2.924 1.610 2561
1.693 3.047 1.662 11265
1.626 2.927 1.601 1819
1.702 3.064 1.658 9699
1.635 2.944 1.598 1375
1.712 3.081 1.654 7659
1.645 2.960 1.594 1129
1.717 3.091 1.647 5672
1.719 3.095 1.637 5065
1.711 3.079 1.618 5568
1.778 3.200 1.677 1188
1.716 3.089 1.611 5754
1.784 3.211 1.669 2553
1.758 3.163 1.634 6346
1.753 3.154 1.618 5611
1.783 3.209 1.632 4192
1.778 3.200 1.615 5106
1.846 3.322 1.672 1188
1.777 3.198 1.602 6607
1.844 3.319 1.658 2039
1.779 3.201 1.591 6554
1.846 3.323 1.647 3605
1.852 3.334 1.639 5032
1.784 3.212 1.583 4464
1.808 3.254 1.590 4954
1.876 3.376 1.646 3141
1.821 3.277 1.588 6177
1.889 3.399 1.643 2619
1.830 3.293 1.583 4929
1.898 3.416 1.638 2393
1.875 3.375 1.607 3907
1.807 3.252 1.552 2192
1.877 3.378 1.595 4137
1.809 3.255 1.542 1941
1.893 3.408 1.596 5028
1.962 3.531 1.649 1125
1.906 3.431 1.593 7092
1.975 3.554 1.646 1008
1.912 3.441 1.584 7110
1.980 3.564 1.637 1163
1.899 3.419 1.562 6219
1.968 3.542 1.614 2563
1.901 3.422 1.551 5694
1.970 3.546 1.602 3011
1.954 3.517 1.577 4463
1.885 3.394 1.526 1679
1.953 3.514 1.563 4494
2.032 3.658 1.622 1325
1.976 3.557 1.567 4434
2.045 3.681 1.618 1412
1.982 3.567 1.558 6339
2.051 3.691 1.608 2321
1.988 3.577 1.549 8373
2.056 3.701 1.598 2916
1.997 3.594 1.542 7250
2.066 3.718 1.591 2619
2.050 3.689 1.566 3764
1.981 3.565 1.518 1078
2.055 3.699 1.557 3825
2.125 3.824 1.605 1211
2.057 3.703 1.545 3865
2.127 3.828 1.592 1932
2.063 3.713 1.535 4010
2.140 3.851 1.587 1808
2.083 3.750 1.535 4987
2.153 3.874 1.582 2544
2.085 3.753 1.523 4542
2.155 3.878 1.569 3031
2.131 3.836 1.539 6151
2.201 3.961 1.586 1464
2.129 3.833 1.524 6637
2.206 3.971 1.575 2785
2.117 3.810 1.502 3288
2.212 3.981 1.564 3146
2.181 3.925 1.530 3038
2.104 3.787 1.480 1937
2.209 3.975 1.533 4074
2.211 3.979 1.520 4818
2.291 4.124 1.571 1406
2.227 4.009 1.516 4965
2.297 4.135 1.560 2273
2.233 4.019 1.505 3690
2.303 4.145 1.549 2615
2.264 4.075 1.510 4244
2.334 4.201 1.553 1997
2.322 4.179 1.530 3975
2.251 4.052 1.488 2068
2.323 4.182 1.516 2870
2.401 4.322 1.563 1888
2.366 4.259 1.527 3412
2.281 4.106 1.476 2321
2.390 4.302 1.526 3638
2.320 4.176 1.484 2122
2.392 4.306 1.511 3896
2.462 4.432 1.552 1516
2.394 4.309 1.497 3705
2.464 4.436 1.538 2375
2.478 4.459 1.529 2905
2.392 4.306 1.481 2334
2.483 4.470 1.517 3283
2.413 4.343 1.477 2418
2.474 4.453 1.496 4074
2.404 4.326 1.457 1545
2.476 4.456 1.481 3871
2.547 4.584 1.520 2909
2.549 4.587 1.504 4646
2.478 4.460 1.466 2088
2.573 4.631 1.501 5160
2.502 4.503 1.463 2064
2.582 4.648 1.490 6755
2.664 4.795 1.533 3465
2.584 4.651 1.475 6031
2.666 4.799 1.517 3359
2.750 4.950 1.544 4547
2.590 4.661 1.461 3709
2.752 4.953 1.527 5843
2.670 4.806 1.486 2326
2.758 4.964 1.513 4664
2.683 4.829 1.475 1899
2.756 4.960 1.495 3598
2.883 5.189 1.558 1385
2.747 4.944 1.473 2226
2.818 5.071 1.508 1658
2.864 5.156 1.513 1437
2.775 4.994 1.469 1184
2.964 5.335 1.542 2381
2.885 5.193 1.504 1839
2.958 5.325 1.521 3517
3.037 5.466 1.558 2414
2.923 5.261 1.486 2992
3.039 5.470 1.540 2033
2.988 5.379 1.498 2524
2.917 5.251 1.465 2421
2.987 5.376 1.478 2349
3.084 5.551 1.522 2197
3.109 5.595 1.514 2130
2.981 5.365 1.457 1637
3.058 5.504 1.472 2196
3.190 5.741 1.530 1667
3.218 5.792 1.523 2785
3.079 5.541 1.462 1838
3.220 5.795 1.503 3212
3.084 5.551 1.445 2097
3.222 5.799 1.484 2296
3.082 5.548 1.425 1811
3.292 5.924 1.493 2293
3.220 5.795 1.463 1761
3.301 5.941 1.477 3169
3.395 6.111 1.515 2493
3.299 5.938 1.455 3723
3.393 6.108 1.493 2983
3.297 5.935 1.434 2886
3.399 6.118 1.474 1884
3.495 6.291 1.491 2261
3.401 6.121 1.454 1733
3.497 6.295 1.470 2464
3.399 6.118 1.432 2275
3.499 6.298 1.449 2462
3.363 6.053 1.398 2009
3.509 6.315 1.431 2275
3.618 6.513 1.472 2067
3.722 6.700 1.488 2315
3.450 6.209 1.388 2114
3.732 6.717 1.468 3681
3.603 6.485 1.422 2082
3.749 6.748 1.451 3638
3.616 6.509 1.404 2313
3.751 6.751 1.429 3751
3.641 6.553 1.391 1747
3.753 6.754 1.406 3719
3.976 7.157 1.483 1698
3.758 6.764 1.385 2424
4.130 7.434 1.510 1660
4.136 7.444 1.486 1844
3.900 7.020 1.409 1673
4.085 7.352 1.444 1684
3.967 7.140 1.406 1503
4.090 7.362 1.421 1620
4.269 7.683 1.477 1512
4.153 7.475 1.415 1718
4.267 7.680 1.451 1335
4.136 7.444 1.385 2490
4.276 7.697 1.428 1270
4.145 7.460 1.362 2152
4.278 7.700 1.402 1564
4.147 7.464 1.338 1266
4.284 7.710 1.378 1150
4.499 8.097 1.413 1191
4.590 8.262 1.439 1051
4.592 8.265 1.411 1339
4.504 8.107 1.387 1130
4.590 8.261 1.383 1634
4.468 8.042 1.350 1457
4.592 8.265 1.355 1899
4.473 8.052 1.324 1576
4.590 8.261 1.327 1737
4.595 8.271 1.300 1216
1.032 1.839 1.611 2873
1.034 1.842 1.605 5747
1.101 1.960 1.702 1802
1.036 1.846 1.599 5747
1.103 1.964 1.695 1802
1.042 1.855 1.598 4814
1.105 1.968 1.689 2459
1.047 1.865 1.596 3912
1.107 1.972 1.682 3116
1.065 1.897 1.613 4349
1.125 2.005 1.699 1999
1.067 1.901 1.606 5281
1.163 2.071 1.742 2184
1.063 1.893 1.591 4921
1.123 2.001 1.676 2718
1.058 1.885 1.576 4860
1.126 2.005 1.670 2862
1.060 1.889 1.570 4860
1.144 2.037 1.686 3686
1.063 1.893 1.564 3862
1.149 2.047 1.683 3358
1.177 2.097 1.712 3421
1.052 1.873 1.540 3023
1.176 2.095 1.701 4806
1.060 1.888 1.543 2689
1.179 2.099 1.694 6232
1.094 1.949 1.580 2861
1.184 2.109 1.691 6788
1.100 1.959 1.578 2404
1.186 2.113 1.684 7472
1.063 1.893 1.520 2312
1.185 2.111 1.673 7403
1.094 1.949 1.552 2626
1.174 2.092 1.649 6931
1.093 1.947 1.542 3549
1.173 2.090 1.638 7964
1.098 1.956 1.540 3789
1.175 2.093 1.631 7842
1.103 1.965 1.538 4140
1.181 2.103 1.628 7981
1.105 1.969 1.531 3633
1.196 2.130 1.638 7407
1.107 1.972 1.525 2829
1.205 2.146 1.640 7867
1.109 1.976 1.518 2469
1.204 2.144 1.629 9820
1.115 1.985 1.516 1591
1.202 2.142 1.617 12010
1.208 2.151 1.615 13230
1.210 2.155 1.608 14674
1.215 2.165 1.605 12835
1.217 2.168 1.597 11039
1.223 2.178 1.594 9261
1.225 2.182 1.587 7779
1.230 2.191 1.584 7116
1.232 2.195 1.577 5663
1.234 2.199 1.570 4830
1.368 2.437 1.729 1161
1.236 2.202 1.563 5252
1.367 2.435 1.717 1353
1.238 2.206 1.555 5674
1.366 2.434 1.705 2096
1.240 2.209 1.548 4593
1.365 2.431 1.693 3138
1.239 2.207 1.537 3512
1.364 2.429 1.681 3510
1.359 2.421 1.665 3876
1.248 2.223 1.538 2810
1.362 2.425 1.657 4414
1.250 2.226 1.530 2226
1.364 2.429 1.649 4337
1.262 2.248 1.534 2121
1.396 2.487 1.676 5125
1.271 2.263 1.535 1830
1.402 2.497 1.671 5248
1.286 2.291 1.542 1913
1.428 2.544 1.690 5468
1.363 2.428 1.618 3233
1.434 2.554 1.685 6471
1.369 2.438 1.614 3508
1.439 2.564 1.680 8027
1.374 2.448 1.609 4067
1.445 2.574 1.676 9848
1.380 2.458 1.605 3719
1.447 2.578 1.667 9213
1.382 2.462 1.597 2378
1.453 2.588 1.662 6610
1.388 2.471 1.593 2218
1.469 2.616 1.668 6197
1.403 2.500 1.599 2930
1.471 2.620 1.660 5797
1.405 2.503 1.591 2457
1.459 2.599 1.637 7097
1.525 2.716 1.705 3784
1.465 2.609 1.632 8132
1.530 2.726 1.700 4483
1.470 2.619 1.627 5827
1.536 2.736 1.695 3382
1.507 2.685 1.654 5707
1.573 2.802 1.721 1535
1.513 2.695 1.648 6438
1.579 2.812 1.715 1785
1.518 2.705 1.643 5923
1.584 2.822 1.710 1755
1.521 2.708 1.634 5122
1.587 2.826 1.700 1477
1.519 2.706 1.622 4847
1.585 2.824 1.688 1637
1.546 2.753 1.637 4885
1.623 2.890 1.713 2233
1.551 2.763 1.631 7272
1.621 2.888 1.700 4307
1.554 2.767 1.622 8018
1.624 2.892 1.690 5278
1.559 2.777 1.616 7002
1.626 2.896 1.681 5582
1.656 2.950 1.698 5477
1.565 2.787 1.611 5365
1.662 2.960 1.692 7496
1.595 2.841 1.628 4125
1.664 2.964 1.682 8922
1.597 2.845 1.619 4782
1.666 2.968 1.672 8755
1.599 2.848 1.609 4265
1.679 2.990 1.672 8488
1.612 2.871 1.610 3407
1.702 3.032 1.682 11363
1.635 2.913 1.620 2579
1.708 3.042 1.675 11503
1.637 2.916 1.610 2454
1.710 3.046 1.665 10869
1.643 2.926 1.604 1839
1.716 3.056 1.658 9536
1.649 2.936 1.598 1399
1.725 3.073 1.654 8000
1.658 2.953 1.594 1143
1.731 3.083 1.647 6376
1.733 3.087 1.637 5855
1.728 3.078 1.621 6069
1.796 3.199 1.680 1110
1.734 3.088 1.614 6748
1.802 3.209 1.672 2049
1.768 3.149 1.631 7244
1.767 3.147 1.618 6002
1.797 3.201 1.632 4710
1.792 3.192 1.615 6889
1.860 3.314 1.672 1279
1.794 3.196 1.604 8302
1.863 3.318 1.661 1939
1.797 3.200 1.594 7862
1.865 3.321 1.650 3766
1.867 3.325 1.639 5277
1.799 3.204 1.583 5011
1.826 3.252 1.593 4947
1.894 3.374 1.649 2374
1.832 3.262 1.585 5644
1.900 3.384 1.640 3155
1.891 3.369 1.621 4352
1.823 3.247 1.566 3151
1.890 3.366 1.607 4179
1.821 3.244 1.552 2253
1.892 3.370 1.595 3929
1.823 3.247 1.542 2088
1.909 3.399 1.596 4893
1.840 3.277 1.542 1175
1.922 3.422 1.593 7484
1.931 3.439 1.587 7027
1.862 3.316 1.534 1177
1.911 3.404 1.559 5695
1.984 3.533 1.614 2780
1.917 3.414 1.551 6181
1.986 3.537 1.602 3248
1.973 3.515 1.580 4564
1.904 3.392 1.528 2584
1.975 3.519 1.568 4015
2.045 3.642 1.619 1513
1.996 3.555 1.570 3394
1.926 3.431 1.519 1598
1.998 3.558 1.558 5127
2.067 3.682 1.608 2739
2.003 3.568 1.549 7622
2.073 3.692 1.598 2970
2.016 3.592 1.545 7248
2.086 3.716 1.594 2375
2.022 3.602 1.536 3991
2.092 3.726 1.584 2654
2.075 3.697 1.559 4302
2.006 3.573 1.511 1230
2.081 3.707 1.550 4862
2.011 3.583 1.502 1315
2.083 3.710 1.537 5198
2.164 3.855 1.592 1145
2.096 3.734 1.532 5187
2.166 3.858 1.580 1795
2.102 3.744 1.523 4110
2.172 3.868 1.569 2246
2.148 3.826 1.539 6040
2.218 3.951 1.586 1388
2.150 3.830 1.527 6649
2.224 3.961 1.575 2725
2.171 3.866 1.526 3709
2.241 3.991 1.572 3209
2.202 3.922 1.532 3802
2.272 4.047 1.577 2042
2.223 3.959 1.531 4161
2.228 3.969 1.520 4411
2.299 4.094 1.564 1553
2.245 3.999 1.516 4307
2.316 4.124 1.560 2544
2.273 4.049 1.519 3838
2.344 4.174 1.562 1879
2.279 4.059 1.508 3898
2.349 4.184 1.551 2431
2.340 4.168 1.530 4197
2.270 4.042 1.488 1765
2.342 4.172 1.516 3211
2.420 4.311 1.563 2123
2.426 4.321 1.551 3154
2.348 4.182 1.505 2505
2.413 4.298 1.528 3687
2.342 4.172 1.487 2369
2.411 4.295 1.511 3941
2.482 4.421 1.552 1567
2.413 4.298 1.497 3589
2.484 4.425 1.538 2541
2.494 4.442 1.527 3048
2.415 4.302 1.483 2581
2.496 4.445 1.512 3512
2.425 4.319 1.473 2216
2.490 4.435 1.494 4587
2.561 4.562 1.533 1774
2.492 4.439 1.479 3936
2.563 4.565 1.518 3045
2.569 4.576 1.504 5166
2.498 4.449 1.466 2099
2.582 4.599 1.495 4531
2.653 4.726 1.533 3128
2.648 4.716 1.514 5571
2.577 4.589 1.476 1808
2.646 4.713 1.496 5428
2.770 4.934 1.560 2019
2.768 4.931 1.542 4882
2.648 4.716 1.480 3550
2.774 4.941 1.527 5936
2.688 4.787 1.484 2312
2.780 4.951 1.513 4520
2.697 4.804 1.472 1409
2.782 4.955 1.497 3343
2.899 5.163 1.554 2129
2.904 5.173 1.539 2343
2.795 4.978 1.486 2054
2.910 5.183 1.523 2135
2.835 5.049 1.487 1466
2.984 5.315 1.540 3337
2.908 5.180 1.504 2051
2.986 5.318 1.523 4414
3.061 5.453 1.558 2484
2.992 5.328 1.507 2877
3.067 5.463 1.542 2325
3.080 5.487 1.529 2378
3.009 5.359 1.496 2118
3.109 5.537 1.522 2609
3.037 5.409 1.490 1914
3.122 5.561 1.509 2537
3.050 5.433 1.477 1273
3.079 5.484 1.471 1973
3.215 5.727 1.530 1516
3.244 5.777 1.523 2460
3.107 5.534 1.464 1940
3.246 5.781 1.503 2850
3.105 5.531 1.444 2225
3.248 5.784 1.484 1899
3.107 5.534 1.425 1728
3.314 5.903 1.491 2283
3.242 5.774 1.462 1392
3.327 5.927 1.477 3096
3.422 6.096 1.515 2455
3.326 5.923 1.455 3521
3.421 6.093 1.493 2703
3.324 5.920 1.434 2775
3.483 6.204 1.497 2016
3.523 6.276 1.491 2155
3.440 6.127 1.459 1569
3.525 6.279 1.470 2704
3.434 6.116 1.435 1782
3.527 6.283 1.449 2684
3.455 6.153 1.422 1663
3.533 6.293 1.430 2239
3.460 6.164 1.403 2139
3.619 6.445 1.439 2208
3.756 6.690 1.489 2090
3.766 6.707 1.470 3404
3.643 6.489 1.426 2303
3.779 6.731 1.451 3465
3.649 6.500 1.406 2681
3.781 6.734 1.429 3984
3.655 6.510 1.385 1566
3.783 6.737 1.406 4210
4.031 7.180 1.490 1562
3.784 6.741 1.384 2463
4.029 7.177 1.465 1376
3.932 7.003 1.409 1581
4.035 7.187 1.443 1477
4.113 7.327 1.443 1650
3.995 7.115 1.405 1614
4.123 7.344 1.421 1452
4.303 7.664 1.477 1311
4.140 7.374 1.401 1674
4.213 7.504 1.424 1413
4.173 7.432 1.386 2154
4.307 7.671 1.426 1381
4.178 7.442 1.362 1969
4.309 7.674 1.401 1706
4.318 7.691 1.378 1218
4.552 8.108 1.445 1205
4.546 8.098 1.416 1547
4.462 7.947 1.392 1100
4.544 8.094 1.388 1455
4.460 7.943 1.365 1197
4.504 8.022 1.350 1433
4.627 8.241 1.383 1354
4.509 8.032 1.324 1510
4.628 8.244 1.355 1440
4.626 8.240 1.327 1227
1.041 1.841 1.616 3314
1.043 1.845 1.610 6628
1.110 1.962 1.706 1582
1.046 1.848 1.604 6628
1.112 1.966 1.700 1582
1.048 1.852 1.598 5675
1.111 1.965 1.689 2204
1.050 1.856 1.592 4722
1.114 1.969 1.682 2843
1.055 1.865 1.590 4430
1.116 1.973 1.676 2840
1.067 1.886 1.597 4770
1.128 1.994 1.683 2391
1.066 1.884 1.587 4863
1.127 1.992 1.672 2513
1.068 1.887 1.581 5008
1.132 2.001 1.670 2597
1.070 1.891 1.574 5008
1.150 2.034 1.686 3605
1.072 1.895 1.568 4244
1.159 2.049 1.688 3320
1.184 2.093 1.712 4062
1.077 1.904 1.567 3505
1.183 2.091 1.701 4954
1.082 1.913 1.565 3166
1.185 2.095 1.694 5885
1.097 1.940 1.576 3021
1.191 2.105 1.691 5920
1.103 1.950 1.574 2337
1.193 2.109 1.684 6062
1.072 1.895 1.524 2004
1.195 2.113 1.677 5971
1.100 1.945 1.552 2198
1.178 2.082 1.645 6589
1.099 1.943 1.542 2855
1.177 2.080 1.634 7985
1.104 1.952 1.540 3105
1.182 2.090 1.631 7772
1.110 1.962 1.538 3459
1.188 2.099 1.628 7926
1.112 1.965 1.531 3052
1.200 2.121 1.634 7550
1.114 1.969 1.525 2406
1.208 2.136 1.636 8076
1.116 1.972 1.518 2116
1.210 2.140 1.629 10365
1.121 1.982 1.516 1378
1.209 2.138 1.617 12838
1.215 2.147 1.615 13120
1.217 2.151 1.608 13586
1.219 2.155 1.600 11494
1.221 2.158 1.593 9402
1.226 2.168 1.590 7943
1.232 2.178 1.587 7014
1.237 2.187 1.584 6963
1.239 2.191 1.577 6067
1.235 2.183 1.562 5276
1.373 2.427 1.725 1086
1.240 2.192 1.559 5597
1.375 2.431 1.717 1292
1.246 2.202 1.555 6017
1.381 2.441 1.713 1874
1.248 2.205 1.548 4788
1.370 2.421 1.689 2430
1.246 2.203 1.537 3616
1.362 2.407 1.669 3112
1.367 2.417 1.665 4194
1.252 2.213 1.534 2991
1.369 2.421 1.657 5292
1.260 2.228 1.534 2667
1.372 2.425 1.649 5401
1.269 2.244 1.534 2717
1.374 2.428 1.641 5370
1.278 2.259 1.535 2214
1.376 2.432 1.633 4289
1.441 2.547 1.706 2250
1.436 2.539 1.690 4251
1.371 2.424 1.618 3301
1.442 2.549 1.685 5153
1.377 2.434 1.614 3140
1.448 2.559 1.680 6723
1.382 2.444 1.609 3756
1.453 2.569 1.676 8649
1.388 2.453 1.605 3747
1.455 2.573 1.667 8669
1.390 2.457 1.597 2644
1.468 2.595 1.670 7622
1.402 2.479 1.600 3097
1.477 2.611 1.668 8027
1.411 2.495 1.599 2652
1.479 2.615 1.660 6767
1.414 2.499 1.591 2250
1.471 2.601 1.640 6626
1.537 2.717 1.709 4037
1.477 2.610 1.635 7813
1.543 2.727 1.704 4650
1.482 2.620 1.630 5955
1.548 2.737 1.698 3482
1.516 2.680 1.654 5615
1.450 2.563 1.586 1343
1.522 2.690 1.648 6525
1.588 2.807 1.715 1693
1.531 2.706 1.646 6023
1.597 2.823 1.713 1785
1.536 2.716 1.641 5068
1.603 2.833 1.707 1801
1.563 2.763 1.656 4611
1.630 2.881 1.722 1235
1.565 2.767 1.647 5271
1.632 2.885 1.713 2267
1.560 2.758 1.631 7056
1.634 2.889 1.703 4122
1.562 2.762 1.622 8184
1.633 2.886 1.690 5056
1.568 2.772 1.616 7299
1.635 2.890 1.681 5490
1.666 2.944 1.698 6548
1.574 2.782 1.611 6192
1.668 2.948 1.688 8182
1.572 2.779 1.598 4967
1.674 2.958 1.682 9108
1.606 2.840 1.619 4625
1.669 2.950 1.666 9297
1.601 2.831 1.603 3579
1.671 2.954 1.656 7743
1.603 2.834 1.594 2113
1.716 3.033 1.685 9642
1.648 2.913 1.623 2716
1.721 3.043 1.678 10249
1.650 2.917 1.614 2501
1.720 3.041 1.665 10400
1.652 2.921 1.604 1963
1.722 3.045 1.655 10015
1.654 2.925 1.594 1220
1.735 3.067 1.654 8058
1.667 2.947 1.594 1191
1.741 3.077 1.647 6474
1.743 3.081 1.637 6049
1.742 3.079 1.624 6084
1.747 3.089 1.617 7283
1.816 3.209 1.676 1496
1.771 3.131 1.625 8228
1.773 3.134 1.615 6342
1.779 3.145 1.607 5030
0.381 0.673 0.435 1293
1.803 3.187 1.615 7992
0.381 0.674 0.433 1667
1.808 3.197 1.607 8955
1.877 3.318 1.664 1882
1.810 3.200 1.597 8309
1.879 3.322 1.653 3845
1.874 3.313 1.636 5988
1.805 3.191 1.580 4638
1.858 3.285 1.611 6348
1.789 3.163 1.555 1541
1.849 3.269 1.591 5568
1.918 3.391 1.646 1892
1.895 3.350 1.615 5328
1.826 3.228 1.560 2684
1.901 3.360 1.607 5376
1.832 3.238 1.552 2358
1.906 3.370 1.598 4338
1.837 3.248 1.545 2414
1.920 3.393 1.596 4665
1.850 3.271 1.542 1884
1.940 3.429 1.598 7375
1.871 3.307 1.545 1558
1.942 3.433 1.587 6648
1.873 3.310 1.534 1177
1.922 3.398 1.559 5067
1.992 3.521 1.611 2457
1.928 3.408 1.551 6002
1.997 3.531 1.602 3305
1.933 3.418 1.542 4995
2.003 3.541 1.593 3958
1.990 3.519 1.571 4043
1.921 3.395 1.520 1852
1.967 3.477 1.541 3804
2.044 3.613 1.596 3397
2.050 3.623 1.587 5832
1.976 3.493 1.534 2946
2.048 3.621 1.572 7394
1.978 3.497 1.523 1929
2.028 3.585 1.545 7061
2.098 3.709 1.594 2473
2.089 3.693 1.574 3944
2.019 3.569 1.525 2997
2.091 3.697 1.562 4451
2.021 3.573 1.513 1691
2.093 3.700 1.550 5275
2.023 3.576 1.502 1497
2.095 3.704 1.537 5636
2.105 3.720 1.530 5045
2.175 3.845 1.577 1206
2.114 3.737 1.523 3664
2.199 3.888 1.579 2041
2.160 3.819 1.539 5679
2.231 3.944 1.586 1553
2.166 3.829 1.529 6751
2.237 3.954 1.575 2939
2.187 3.866 1.528 4955
2.257 3.990 1.574 3551
2.215 3.915 1.532 4475
2.285 4.040 1.577 2270
2.232 3.945 1.529 4095
2.241 3.962 1.520 3378
2.312 4.087 1.564 1594
2.314 4.090 1.551 3699
2.243 3.965 1.507 2485
2.294 4.054 1.524 3530
2.364 4.180 1.567 1289
2.348 4.150 1.542 3343
2.277 4.025 1.499 2315
2.354 4.161 1.530 4281
2.283 4.035 1.488 1523
2.356 4.164 1.516 3519
2.438 4.310 1.565 2026
2.339 4.134 1.492 3044
2.440 4.313 1.551 2646
2.427 4.290 1.528 3784
2.356 4.164 1.487 2598
2.429 4.294 1.514 3612
2.358 4.168 1.473 1517
2.427 4.291 1.497 2944
2.499 4.417 1.538 2335
2.508 4.434 1.527 3078
2.429 4.294 1.483 2821
2.506 4.430 1.510 4541
2.435 4.304 1.471 2638
2.504 4.427 1.494 5171
2.576 4.554 1.533 1935
2.559 4.524 1.507 4411
2.488 4.397 1.469 2472
2.584 4.567 1.504 4772
2.512 4.441 1.466 1970
2.661 4.704 1.529 4246
2.589 4.577 1.491 4006
2.663 4.708 1.514 7131
2.580 4.561 1.470 1341
2.661 4.704 1.496 6947
2.790 4.932 1.562 2575
2.792 4.935 1.546 4562
2.663 4.708 1.480 3894
2.794 4.939 1.529 5042
2.699 4.771 1.482 2547
2.800 4.949 1.515 4076
2.898 5.123 1.564 1701
2.809 4.966 1.502 3175
2.911 5.147 1.552 2965
2.921 5.164 1.539 3201
2.819 4.983 1.489 2165
2.931 5.181 1.525 3020
3.003 5.308 1.560 1983
3.001 5.305 1.540 3906
2.929 5.177 1.506 2423
3.003 5.308 1.523 4801
3.079 5.443 1.558 2171
3.009 5.319 1.507 3283
3.085 5.453 1.542 2647
3.094 5.470 1.527 3164
3.014 5.329 1.491 1977
3.104 5.487 1.512 2984
3.032 5.359 1.480 1559
3.133 5.538 1.506 2843
3.060 5.410 1.474 1153
3.100 5.480 1.472 1825
3.218 5.689 1.524 1569
3.125 5.524 1.464 2004
3.262 5.767 1.523 1954
3.268 5.777 1.505 2369
3.123 5.521 1.444 2307
3.289 5.814 1.494 2045
3.125 5.524 1.425 1524
3.318 5.865 1.485 2304
3.432 6.068 1.532 1059
3.327 5.882 1.469 2821
3.438 6.078 1.513 2317
3.341 5.906 1.454 2932
3.436 6.075 1.492 2524
3.343 5.909 1.434 2372
3.507 6.200 1.498 2024
3.544 6.264 1.491 1981
3.467 6.129 1.462 1427
3.546 6.268 1.470 2760
3.618 6.396 1.498 1808
3.544 6.264 1.448 2684
3.617 6.393 1.475 1726
3.484 6.159 1.405 2268
3.638 6.430 1.461 2063
3.636 6.427 1.438 2366
3.555 6.284 1.409 1952
3.787 6.695 1.470 2748
3.672 6.491 1.429 2460
3.805 6.725 1.453 2886
3.670 6.488 1.406 2672
3.806 6.729 1.430 3817
3.726 6.586 1.403 2153
3.804 6.725 1.406 4309
3.731 6.596 1.382 1527
3.806 6.728 1.384 2387
4.010 7.089 1.451 1488
4.131 7.303 1.466 1743
4.054 7.167 1.441 1645
4.133 7.306 1.442 1878
4.014 7.095 1.404 1574
4.150 7.337 1.422 1448
4.050 7.160 1.391 1219
4.160 7.354 1.400 1786
4.056 7.170 1.368 1296
4.204 7.432 1.388 1760
4.331 7.657 1.426 1249
4.202 7.428 1.362 1629
4.337 7.667 1.402 1569
4.578 8.093 1.445 1445
4.343 7.677 1.378 1159
4.576 8.090 1.417 1863
4.422 7.817 1.374 1104
4.570 8.079 1.388 1708
4.482 7.922 1.364 1131
4.549 8.041 1.355 1336
4.661 8.240 1.385 1037
4.539 8.024 1.325 1345
4.655 8.229 1.355 1004
1.047 1.838 1.616 3535
1.049 1.842 1.610 7071
1.119 1.965 1.711 1285
1.051 1.845 1.604 7071
1.121 1.969 1.704 1285
1.053 1.849 1.598 6118
1.117 1.962 1.689 1856
1.055 1.853 1.592 5165
1.119 1.966 1.682 2464
1.057 1.856 1.586 4645
1.121 1.969 1.676 2373
1.069 1.877 1.593 4512
1.130 1.985 1.678 2122
1.074 1.886 1.591 4793
1.136 1.994 1.676 2004
1.076 1.890 1.585 5123
1.160 2.038 1.701 2381
1.078 1.894 1.579 5123
1.159 2.036 1.690 3545
1.084 1.903 1.577 4664
1.181 2.074 1.710 3514
1.187 2.084 1.707 4681
1.092 1.918 1.580 4319
1.189 2.088 1.701 5064
1.094 1.922 1.573 3722
1.191 2.092 1.694 5446
1.100 1.931 1.572 3134
1.190 2.090 1.683 4985
1.102 1.935 1.565 2258
1.166 2.048 1.641 5054
1.078 1.892 1.524 1734
1.182 2.075 1.652 4932
1.103 1.936 1.548 1750
1.180 2.073 1.640 6426
1.101 1.934 1.538 2151
1.183 2.077 1.634 7787
1.110 1.949 1.540 2359
1.188 2.086 1.631 7361
1.115 1.959 1.538 2680
1.193 2.096 1.628 7276
1.117 1.962 1.531 2375
1.209 2.123 1.638 7298
1.119 1.966 1.525 1893
1.214 2.133 1.636 8156
1.121 1.969 1.518 1680
1.213 2.130 1.624 10578
1.123 1.973 1.512 1105
1.215 2.134 1.617 13069
1.221 2.144 1.615 12402
1.223 2.148 1.608 11808
1.225 2.151 1.600 9685
1.224 2.149 1.589 7642
1.233 2.165 1.590 6795
1.241 2.180 1.591 7137
1.244 2.184 1.584 7265
1.246 2.187 1.577 6531
1.241 2.179 1.562 6003
1.380 2.423 1.725 1001
1.246 2.189 1.559 6111
1.392 2.445 1.729 1248
1.252 2.198 1.555 6366
1.395 2.449 1.721 1742
1.254 2.202 1.548 5011
1.366 2.399 1.677 1932
1.252 2.199 1.537 3706
1.365 2.397 1.665 2951
1.371 2.407 1.661 4298
1.261 2.215 1.538 3245
1.373 2.411 1.654 5680
1.270 2.231 1.538 3158
1.375 2.415 1.646 5958
1.279 2.246 1.538 3263
1.381 2.425 1.641 5996
1.285 2.256 1.535 2587
1.383 2.428 1.633 4651
1.476 2.591 1.736 2122
1.450 2.547 1.697 3697
1.382 2.426 1.622 3270
1.453 2.551 1.689 4470
1.387 2.436 1.617 2918
1.458 2.561 1.684 6108
1.393 2.446 1.613 3956
1.464 2.571 1.679 7935
1.398 2.455 1.609 4540
1.466 2.575 1.671 8431
1.400 2.459 1.601 3677
1.479 2.597 1.673 8848
1.413 2.481 1.604 3713
