3.458 2.983 1.656 2237
3.347 2.887 1.592 9722
3.563 3.074 1.687 2753
3.345 2.885 1.577 12744
3.567 3.077 1.674 3219
3.354 2.893 1.567 9886
3.462 2.986 1.614 4135
3.357 2.896 1.554 5659
3.465 2.989 1.600 4195
3.577 3.085 1.633 4813
3.354 2.893 1.539 3883
3.626 3.128 1.638 3787
3.357 2.896 1.526 2331
3.641 3.140 1.629 3052
3.650 3.148 1.618 2377
3.758 3.242 1.662 1571
3.664 3.161 1.609 3734
3.555 3.067 1.564 3220
3.679 3.174 1.599 4968
3.570 3.080 1.555 3589
3.688 3.181 1.587 3321
3.573 3.082 1.542 2003
3.760 3.244 1.601 3552
3.651 3.149 1.558 1484
3.775 3.256 1.591 4688
3.907 3.370 1.642 1915
3.784 3.264 1.578 4028
3.910 3.373 1.627 3095
3.850 3.321 1.588 5378
3.960 3.416 1.630 1914
3.934 3.394 1.604 5513
3.825 3.299 1.563 3088
3.926 3.387 1.585 7608
3.816 3.292 1.544 1545
3.929 3.389 1.570 12247
4.068 3.509 1.621 1493
3.932 3.392 1.555 13406
4.129 3.561 1.626 2509
3.941 3.400 1.542 12346
4.126 3.559 1.608 4172
3.944 3.402 1.527 14137
4.135 3.567 1.594 5605
3.947 3.405 1.512 14536
4.144 3.575 1.581 7459
3.950 3.408 1.496 11001
4.350 3.753 1.635 7370
4.353 3.755 1.619 7658
3.947 3.405 1.479 6019
4.357 3.758 1.602 5916
4.148 3.578 1.531 2592
4.366 3.766 1.587 7222
4.505 3.886 1.634 1688
4.363 3.764 1.569 9292
4.497 3.879 1.613 2461
4.366 3.766 1.552 6126
4.500 3.882 1.596 3613
4.509 3.890 1.581 3161
4.678 4.035 1.635 2723
4.664 4.023 1.612 4476
4.530 3.908 1.569 2215
4.667 4.026 1.594 6828
4.539 3.915 1.553 1404
4.670 4.029 1.576 6828
4.781 4.124 1.610 1189
4.673 4.031 1.558 3522
4.784 4.127 1.592 2141
4.729 4.079 1.556 3878
4.840 4.175 1.590 1332
4.726 4.077 1.536 3943
4.837 4.173 1.569 2103
4.870 4.201 1.560 3721
4.741 4.090 1.522 3294
4.885 4.214 1.544 3249
4.756 4.103 1.507 2451
4.823 4.161 1.507 2155
5.198 4.484 1.615 1531
5.202 4.487 1.595 1937
4.891 4.219 1.507 1383
5.381 4.642 1.624 1609
5.205 4.490 1.575 1452
5.378 4.639 1.601 1914
5.008 4.320 1.500 1024
5.422 4.678 1.592 1705
5.205 4.490 1.533 1022
5.431 4.685 1.573 1629
5.255 4.533 1.526 1161
5.423 4.678 1.549 2024
5.264 4.541 1.507 1204
5.420 4.676 1.527 2603
5.626 4.853 1.580 1426
5.500 4.744 1.525 1856
5.635 4.861 1.560 1694
5.715 4.930 1.557 2059
5.503 4.747 1.504 1715
5.971 5.151 1.598 2172
5.724 4.937 1.537 1859
5.745 4.955 1.519 1962
5.986 5.164 1.578 1930
6.007 5.182 1.559 2848
5.854 5.050 1.523 1841
6.010 5.185 1.536 2308
6.217 5.363 1.584 1806
6.214 5.360 1.559 1919
6.037 5.208 1.518 1617
6.264 5.404 1.546 2795
6.530 5.633 1.606 1697
6.262 5.401 1.521 3544
6.534 5.636 1.581 2391
6.247 5.389 1.493 2950
6.537 5.639 1.556 2056
6.220 5.366 1.463 2405
6.552 5.652 1.534 1484
6.235 5.379 1.441 1670
6.561 5.659 1.510 1589
6.652 5.739 1.503 1878
6.540 5.642 1.480 1766
6.543 5.644 1.455 1856
6.661 5.746 1.479 1645
6.884 5.938 1.497 1280
6.552 5.652 1.431 1097
6.898 5.951 1.473 1155
7.070 6.099 1.506 1041
1.733 1.486 1.736 2088
1.736 1.489 1.729 4177
1.643 1.409 1.642 1044
1.740 1.492 1.723 4177
1.833 1.571 1.810 1448
1.748 1.499 1.721 3712
1.655 1.419 1.634 1476
1.688 1.447 1.655 3861
1.811 1.552 1.769 3448
1.799 1.543 1.748 6179
1.696 1.454 1.653 3390
1.803 1.546 1.742 9212
1.709 1.465 1.656 3207
1.807 1.549 1.735 9212
1.712 1.468 1.650 2498
1.810 1.552 1.728 10479
1.904 1.633 1.813 2021
1.814 1.555 1.721 11746
1.908 1.636 1.806 3136
1.822 1.562 1.719 11064
1.917 1.643 1.803 2703
1.836 1.574 1.721 10934
1.930 1.655 1.804 2258
1.839 1.577 1.714 8596
1.934 1.658 1.797 2258
1.843 1.580 1.707 6258
1.938 1.661 1.790 2258
1.891 1.622 1.739 6517
1.786 1.531 1.648 1642
1.895 1.625 1.732 6735
1.799 1.543 1.650 1676
1.908 1.636 1.733 6908
1.813 1.554 1.652 1848
1.912 1.639 1.726 9876
1.816 1.557 1.645 1303
1.920 1.647 1.723 13029
1.934 1.658 1.725 10775
1.943 1.666 1.722 9027
1.956 1.677 1.723 8455
2.053 1.760 1.803 1098
1.965 1.685 1.719 8511
2.062 1.768 1.799 1240
1.968 1.688 1.712 6743
2.066 1.771 1.791 1592
1.977 1.695 1.709 5014
2.074 1.779 1.788 1682
1.991 1.707 1.710 4799
2.088 1.790 1.788 1098
2.005 1.719 1.710 5019
2.013 1.726 1.707 4576
2.121 1.819 1.793 1376
2.032 1.742 1.712 5071
2.130 1.826 1.789 2116
2.046 1.754 1.712 4499
2.144 1.838 1.789 2858
2.137 1.833 1.773 4351
2.039 1.748 1.696 3427
2.141 1.836 1.765 4910
2.042 1.751 1.689 3303
2.150 1.843 1.761 5494
2.046 1.754 1.681 3179
2.148 1.842 1.749 5681
2.049 1.757 1.673 2865
2.152 1.845 1.741 5894
2.053 1.760 1.665 2154
2.155 1.848 1.732 5528
2.056 1.763 1.658 1464
2.169 1.860 1.732 6926
2.070 1.775 1.658 1387
2.167 1.858 1.720 8351
2.068 1.773 1.646 1025
2.176 1.866 1.716 7890
2.077 1.780 1.642 1358
2.190 1.878 1.715 8284
2.090 1.792 1.642 2354
2.183 1.872 1.699 8389
2.283 1.958 1.772 1824
2.176 1.866 1.683 9860
2.276 1.952 1.756 2780
2.179 1.869 1.675 10807
2.280 1.955 1.747 2655
2.183 1.872 1.667 9401
2.283 1.958 1.739 3872
2.266 1.943 1.715 8022
2.165 1.856 1.644 5228
2.269 1.946 1.706 8278
2.131 1.827 1.609 3843
2.273 1.949 1.698 8534
2.135 1.830 1.601 3849
2.276 1.951 1.689 7299
2.148 1.842 1.601 4011
2.285 1.959 1.684 6198
2.173 1.863 1.607 3814
2.288 1.962 1.676 6062
2.182 1.870 1.603 3539
2.302 1.974 1.674 5654
2.185 1.873 1.594 2527
2.306 1.977 1.666 4168
2.407 2.064 1.734 3039
2.384 2.044 1.707 4976
2.282 1.957 1.639 1967
2.393 2.052 1.702 5229
2.291 1.964 1.634 1729
2.391 2.050 1.689 5045
2.394 2.053 1.680 4613
2.497 2.141 1.747 1528
2.403 2.060 1.675 4313
2.506 2.148 1.741 3031
2.487 2.133 1.718 5812
2.342 2.008 1.624 5785
2.491 2.136 1.708 7425
2.340 2.006 1.611 7267
2.522 2.162 1.716 6919
2.343 2.009 1.602 6858
2.568 2.202 1.734 9584
2.346 2.012 1.594 4967
2.572 2.205 1.724 12993
2.355 2.019 1.588 3211
2.581 2.213 1.718 14791
2.478 2.124 1.654 2456
2.579 2.211 1.705 13399
2.475 2.122 1.641 1758
2.588 2.219 1.698 8214
2.484 2.130 1.635 1293
2.597 2.226 1.692 6470
2.493 2.138 1.629 1189
2.573 2.206 1.666 5621
2.677 2.295 1.728 3374
2.658 2.279 1.705 6819
2.554 2.190 1.643 5293
2.673 2.292 1.701 7056
2.569 2.202 1.640 3537
2.687 2.304 1.698 6055
2.583 2.215 1.636 1996
2.696 2.312 1.691 5319
2.592 2.222 1.630 1748
2.710 2.324 1.687 5629
2.606 2.234 1.626 1462
2.719 2.332 1.680 8406
2.615 2.242 1.620 1350
2.723 2.335 1.669 7818
2.618 2.245 1.610 1145
2.743 2.352 1.669 5932
2.638 2.262 1.609 1282
2.746 2.355 1.658 4971
2.851 2.445 1.717 1135
2.755 2.362 1.651 4794
2.860 2.452 1.709 1386
2.769 2.375 1.647 4861
2.875 2.465 1.705 1891
2.773 2.377 1.636 4217
2.878 2.468 1.694 2867
2.776 2.380 1.626 3800
2.882 2.471 1.683 3200
2.885 2.474 1.672 3293
2.779 2.383 1.615 2254
2.883 2.472 1.658 3578
2.777 2.381 1.602 1419
2.886 2.475 1.647 4532
2.992 2.565 1.703 1286
2.906 2.492 1.645 4244
2.800 2.401 1.589 1551
2.910 2.495 1.634 3507
3.016 2.586 1.689 1299
2.946 2.526 1.640 3279
3.053 2.617 1.695 1054
2.950 2.529 1.629 4039
3.056 2.620 1.684 1254
2.942 2.522 1.612 4873
3.048 2.614 1.666 2953
3.012 2.583 1.635 4799
3.119 2.674 1.689 2434
3.100 2.658 1.666 6878
2.993 2.566 1.612 4306
3.120 2.675 1.662 8208
3.013 2.584 1.609 2960
3.135 2.688 1.656 6686
3.028 2.596 1.603 1086
3.133 2.686 1.641 5593
3.130 2.684 1.627 5585
3.238 2.776 1.678 2021
3.190 2.735 1.642 7429
3.083 2.643 1.591 1627
3.193 2.738 1.630 6584
3.301 2.830 1.681 3128
3.225 2.765 1.631 4775
3.333 2.857 1.681 2832
3.274 2.807 1.640 4008
3.166 2.715 1.590 2932
3.351 2.873 1.661 4745
3.203 2.746 1.593 3137
3.365 2.886 1.654 6444
3.206 2.749 1.581 3666
3.352 2.874 1.633 8599
3.227 2.767 1.577 2009
3.349 2.872 1.618 11765
3.457 2.964 1.666 2112
3.353 2.875 1.605 10115
3.512 3.011 1.676 1957
3.350 2.872 1.590 11416
3.555 3.048 1.680 2105
3.353 2.875 1.577 15006
3.587 3.076 1.679 2567
3.362 2.883 1.567 11056
3.471 2.976 1.614 3659
3.360 2.881 1.552 6299
3.474 2.979 1.600 3941
3.363 2.883 1.539 4750
3.620 3.104 1.647 3629
3.635 3.117 1.638 3831
3.366 2.886 1.526 2770
3.656 3.134 1.632 3375
3.670 3.147 1.623 2537
3.779 3.241 1.667 1418
3.685 3.160 1.613 3923
3.576 3.066 1.569 2050
3.688 3.163 1.599 5307
3.579 3.069 1.555 1921
3.692 3.165 1.585 3582
3.801 3.259 1.629 1491
3.764 3.227 1.598 2841
3.655 3.133 1.555 1644
3.790 3.250 1.593 4357
3.906 3.349 1.638 2058
3.799 3.258 1.581 3826
3.909 3.352 1.623 3167
3.860 3.310 1.588 5710
3.970 3.404 1.630 1666
3.944 3.382 1.604 4456
3.834 3.288 1.563 3690
3.936 3.375 1.585 7080
3.826 3.281 1.544 1780
3.939 3.377 1.570 10893
4.107 3.521 1.631 1600
3.942 3.380 1.555 11318
4.139 3.549 1.626 3205
3.951 3.388 1.542 11439
4.137 3.547 1.608 5060
3.954 3.390 1.527 11446
4.146 3.555 1.594 6465
3.952 3.388 1.509 9471
4.155 3.562 1.581 8595
3.955 3.391 1.494 7718
4.152 3.560 1.563 7377
4.365 3.742 1.619 7730
4.150 3.558 1.545 5578
4.374 3.750 1.604 6031
4.158 3.566 1.531 3499
4.377 3.753 1.587 7807
4.523 3.878 1.636 1785
4.380 3.756 1.571 10260
4.526 3.881 1.619 2464
4.383 3.758 1.554 6853
4.523 3.878 1.600 3366
4.620 3.961 1.613 2920
4.387 3.761 1.537 2698
4.682 4.014 1.613 4130
4.536 3.889 1.567 1613
4.679 4.012 1.594 7300
4.568 3.917 1.559 1083
4.682 4.015 1.576 8054
4.793 4.110 1.610 1075
4.685 4.017 1.558 4380
4.797 4.113 1.592 1784
4.735 4.060 1.554 3626
4.911 4.211 1.607 1371
4.739 4.063 1.536 3814
4.897 4.199 1.583 1848
4.753 4.076 1.522 3402
4.888 4.191 1.561 3196
4.762 4.083 1.505 2826
4.897 4.199 1.544 2555
4.842 4.151 1.509 1756
5.241 4.494 1.623 1357
5.256 4.507 1.606 1623
5.021 4.305 1.540 1318
5.024 4.308 1.521 1549
5.236 4.489 1.580 1249
5.392 4.623 1.601 1489
5.021 4.305 1.500 1200
5.442 4.666 1.594 1663
5.024 4.308 1.481 1074
5.522 4.735 1.593 2062
5.263 4.512 1.524 1183
5.455 4.677 1.554 2142
5.614 4.813 1.595 1182
5.446 4.669 1.530 2254
5.641 4.836 1.580 1608
5.520 4.733 1.527 2205
5.650 4.844 1.560 1824
5.517 4.730 1.504 2142
5.729 4.913 1.557 1816
5.987 5.133 1.598 1900
5.744 4.925 1.538 1881
5.759 4.938 1.519 2224
5.996 5.141 1.576 1590
6.023 5.164 1.559 2331
5.762 4.941 1.497 1669
6.026 5.167 1.536 2026
6.227 5.339 1.583 1578
6.230 5.342 1.559 1910
6.047 5.184 1.517 1217
6.281 5.385 1.546 2659
6.553 5.619 1.608 1585
6.278 5.383 1.521 3239
6.550 5.616 1.581 2150
6.233 5.345 1.486 3211
6.554 5.619 1.556 1793
6.236 5.347 1.463 3197
6.563 5.627 1.532 1185
6.245 5.355 1.440 2375
6.785 5.818 1.553 1448
6.676 5.724 1.504 1704
6.248 5.357 1.416 1557
6.560 5.624 1.455 1566
6.257 5.365 1.394 1521
6.895 5.912 1.495 1411
6.610 5.668 1.439 1111
6.893 5.910 1.468 1333
7.089 6.078 1.506 1198
7.116 6.101 1.483 1155
1.748 1.488 1.745 2136
1.654 1.409 1.657 1020
1.751 1.491 1.738 4272
1.658 1.411 1.651 2040
1.755 1.494 1.732 4272
1.661 1.414 1.645 2040
1.758 1.497 1.725 4013
1.665 1.417 1.639 2260
1.693 1.441 1.655 3945
1.791 1.525 1.746 3337
1.800 1.532 1.744 6581
1.706 1.452 1.658 3384
1.803 1.535 1.737 9848
1.709 1.455 1.651 3046
1.807 1.538 1.730 9848
1.713 1.458 1.645 2236
1.815 1.546 1.728 10681
1.910 1.626 1.813 2056
1.819 1.549 1.721 11655
1.914 1.629 1.806 3183
1.828 1.556 1.719 10517
1.922 1.637 1.803 2664
1.841 1.567 1.721 10275
1.936 1.648 1.804 2093
1.840 1.566 1.709 8277
1.935 1.647 1.793 2280
1.898 1.616 1.751 6687
1.778 1.513 1.646 2165
1.897 1.615 1.739 7064
1.786 1.521 1.643 1654
1.900 1.618 1.732 7025
1.805 1.536 1.650 1548
1.909 1.625 1.729 6702
1.813 1.544 1.647 1624
1.918 1.633 1.726 9411
1.821 1.551 1.645 1187
1.926 1.640 1.723 12358
1.940 1.652 1.725 10275
1.948 1.659 1.722 8922
1.962 1.671 1.723 8634
2.059 1.753 1.803 1065
1.971 1.678 1.719 8842
2.068 1.761 1.799 1115
1.969 1.677 1.708 7586
2.067 1.759 1.787 1587
1.973 1.680 1.701 6460
2.070 1.763 1.779 1802
1.986 1.691 1.701 5776
2.084 1.774 1.780 1242
2.000 1.703 1.702 5801
2.019 1.719 1.707 4563
2.128 1.811 1.793 1396
2.038 1.735 1.712 5132
2.136 1.819 1.789 2154
2.052 1.747 1.712 4370
2.150 1.831 1.789 2870
2.144 1.825 1.773 4334
2.045 1.741 1.696 3377
2.152 1.833 1.769 4655
2.054 1.749 1.693 3350
2.156 1.836 1.761 5102
2.052 1.747 1.681 3148
2.154 1.834 1.749 4915
2.055 1.750 1.673 2798
2.158 1.837 1.741 4854
2.059 1.753 1.665 2150
2.172 1.849 1.740 5254
2.073 1.765 1.666 2277
2.176 1.852 1.732 7111
2.076 1.768 1.658 1556
2.174 1.851 1.720 8126
2.074 1.766 1.646 1170
2.188 1.863 1.720 7565
2.088 1.778 1.646 1583
2.202 1.875 1.719 7903
2.102 1.790 1.646 2579
2.200 1.873 1.707 7701
2.100 1.788 1.634 1839
2.183 1.858 1.683 8561
2.283 1.944 1.756 2979
2.181 1.857 1.671 9476
2.281 1.942 1.743 3448
2.189 1.864 1.667 7977
2.290 1.950 1.739 4270
2.272 1.935 1.715 9070
2.172 1.849 1.644 3893
2.271 1.933 1.703 8738
2.143 1.824 1.613 3663
2.274 1.936 1.694 8505
2.152 1.832 1.609 4187
2.283 1.944 1.689 7475
2.165 1.844 1.608 4604
2.292 1.951 1.684 6226
2.174 1.851 1.604 4110
2.295 1.954 1.676 5635
2.183 1.858 1.599 3466
2.304 1.961 1.671 5264
2.186 1.861 1.591 2450
2.393 2.037 1.720 5136
2.291 1.951 1.651 2703
2.391 2.036 1.707 6486
2.208 1.880 1.585 1658
2.395 2.039 1.698 6781
2.217 1.888 1.580 1349
2.398 2.042 1.689 6125
2.123 1.808 1.508 1120
2.401 2.045 1.680 5175
2.126 1.810 1.500 1222
2.410 2.052 1.675 4886
2.513 2.140 1.741 2450
2.343 1.995 1.620 5393
2.495 2.124 1.718 4868
2.347 1.998 1.611 6826
2.498 2.127 1.708 6224
2.350 2.001 1.602 6554
2.529 2.153 1.716 6350
2.576 2.193 1.734 10141
2.359 2.008 1.597 4851
2.585 2.201 1.728 13827
2.367 2.015 1.592 3204
2.589 2.204 1.718 15778
2.441 2.079 1.627 2372
2.592 2.207 1.708 14819
2.456 2.091 1.624 1619
2.601 2.214 1.702 9892
2.497 2.126 1.638 1068
2.604 2.217 1.692 8132
2.500 2.129 1.629 1196
2.602 2.216 1.679 6486
2.706 2.304 1.741 1347
2.672 2.275 1.708 6562
2.567 2.186 1.646 5071
2.675 2.278 1.698 7282
2.571 2.189 1.636 2790
2.690 2.290 1.694 6153
0.615 0.524 0.475 1336
2.699 2.298 1.688 5264
0.616 0.524 0.473 1423
2.713 2.310 1.684 5527
2.608 2.221 1.623 1464
2.722 2.317 1.677 8734
2.617 2.228 1.616 1273
2.731 2.325 1.669 8870
2.626 2.236 1.610 1181
2.745 2.337 1.665 7034
2.640 2.248 1.606 1101
2.754 2.345 1.658 5551
2.860 2.435 1.717 1270
2.774 2.362 1.657 4640
2.880 2.452 1.716 1008
2.789 2.374 1.653 4098
2.894 2.464 1.711 1606
2.870 2.444 1.685 3589
2.764 2.354 1.627 2565
2.879 2.451 1.677 3760
2.773 2.361 1.619 3013
2.888 2.459 1.669 3493
2.782 2.369 1.612 2255
2.891 2.462 1.658 3905
2.785 2.371 1.602 1628
2.900 2.469 1.650 5265
2.794 2.379 1.594 1175
2.915 2.482 1.645 5316
2.809 2.391 1.589 1227
2.918 2.485 1.634 4465
3.036 2.585 1.695 1243
2.927 2.492 1.626 3871
3.034 2.583 1.681 1563
2.953 2.514 1.626 4070
3.060 2.605 1.681 1299
2.951 2.512 1.612 4673
3.057 2.603 1.666 2714
3.027 2.577 1.638 4779
3.134 2.668 1.692 2230
3.104 2.642 1.663 6979
2.997 2.551 1.610 3574
3.130 2.665 1.662 7904
3.022 2.573 1.609 2770
3.139 2.672 1.653 5942
3.031 2.581 1.601 1086
3.187 2.714 1.663 4941
3.080 2.622 1.611 2225
3.202 2.726 1.657 6202
3.094 2.635 1.605 1391
3.194 2.719 1.639 7844
3.302 2.811 1.690 1425
3.186 2.712 1.622 6975
3.294 2.804 1.672 3431
3.178 2.706 1.604 4867
3.303 2.812 1.663 4349
3.300 2.810 1.648 3823
3.187 2.713 1.595 3577
3.213 2.735 1.593 4218
3.355 2.856 1.659 4017
3.375 2.874 1.654 5492
3.216 2.738 1.581 4212
3.356 2.857 1.631 8240
3.225 2.746 1.571 2026
3.359 2.860 1.618 11975
3.473 2.957 1.669 1618
3.363 2.863 1.605 10700
3.528 3.004 1.678 2092
3.360 2.861 1.590 12283
3.543 3.017 1.670 2309
3.363 2.864 1.577 15470
3.609 3.073 1.684 2362
3.367 2.866 1.564 10535
3.619 3.081 1.673 3452
3.370 2.869 1.552 5953
3.628 3.089 1.661 3847
3.373 2.872 1.539 4992
3.637 3.096 1.650 3454
3.646 3.104 1.638 3667
3.370 2.869 1.524 2851
3.672 3.127 1.634 3624
3.362 2.862 1.506 1061
3.687 3.139 1.625 2993
3.578 3.046 1.580 1052
3.702 3.152 1.616 3925
3.592 3.059 1.571 1648
3.699 3.150 1.599 4704
3.809 3.243 1.643 1857
3.708 3.157 1.587 3197
3.818 3.251 1.631 1831
3.781 3.219 1.601 2779
3.671 3.126 1.558 2137
3.802 3.237 1.593 3844
3.911 3.330 1.635 2155
3.845 3.274 1.594 3930
3.955 3.367 1.636 1946
3.866 3.291 1.586 5401
3.976 3.385 1.628 1756
3.852 3.279 1.565 4184
3.962 3.373 1.606 3566
3.953 3.366 1.587 4969
3.843 3.272 1.546 2145
3.951 3.364 1.570 7820
4.125 3.512 1.633 1680
3.954 3.366 1.555 7862
4.152 3.535 1.626 3276
3.957 3.369 1.540 6240
4.149 3.533 1.608 4760
3.966 3.377 1.527 7510
4.164 3.545 1.597 6116
4.167 3.548 1.581 8274
3.969 3.379 1.512 6778
4.165 3.546 1.563 6966
4.374 3.724 1.635 5488
4.378 3.727 1.619 5955
4.267 3.633 1.581 5449
4.387 3.735 1.604 4942
4.276 3.640 1.567 4592
4.390 3.738 1.587 7233
4.279 3.643 1.550 2606
4.393 3.740 1.571 9558
4.545 3.870 1.621 2415
4.396 3.743 1.554 6301
4.543 3.868 1.602 3082
4.646 3.955 1.616 3073
4.405 3.751 1.539 2421
4.684 3.988 1.610 3264
4.549 3.873 1.567 1239
4.693 3.996 1.594 6983
4.696 3.998 1.576 8378
4.808 4.093 1.610 1146
4.699 4.001 1.558 4839
4.811 4.096 1.592 1644
4.708 4.009 1.542 3359
4.820 4.104 1.576 1829
4.747 4.041 1.535 3442
4.911 4.182 1.583 1800
4.768 4.059 1.522 3402
4.903 4.174 1.561 2465
4.777 4.067 1.505 2947
4.912 4.182 1.544 1895
4.797 4.084 1.492 1999
4.939 4.205 1.532 1323
5.036 4.288 1.540 1764
5.278 4.493 1.608 1720
5.039 4.290 1.521 1876
5.281 4.496 1.588 1552
5.272 4.489 1.564 1344
5.036 4.288 1.500 1319
5.470 4.657 1.597 1642
5.039 4.290 1.481 1262
5.539 4.715 1.593 2488
5.338 4.544 1.540 1195
5.489 4.673 1.558 2516
5.630 4.794 1.595 1310
5.474 4.660 1.533 2066
5.651 4.812 1.578 1746
5.536 4.713 1.527 2406
5.666 4.824 1.560 1832
5.533 4.711 1.504 2407
5.729 4.877 1.553 1524
5.762 4.905 1.538 1721
6.005 5.112 1.598 1645
5.776 4.918 1.519 2122
6.103 5.196 1.598 1717
6.112 5.203 1.576 2011
5.780 4.921 1.497 1470
6.050 5.151 1.537 1698
6.240 5.312 1.582 1604
6.249 5.320 1.559 2090
6.053 5.153 1.514 1161
6.258 5.328 1.537 2460
6.573 5.596 1.608 1315
6.243 5.315 1.509 3058
6.130 5.219 1.484 1923
6.252 5.323 1.486 3669
6.127 5.217 1.459 1550
6.255 5.325 1.463 3971
6.802 5.791 1.579 1017
6.258 5.328 1.439 3109
6.806 5.794 1.553 1447
6.261 5.330 1.415 2083
6.701 5.706 1.505 1567
6.269 5.338 1.392 1817
6.704 5.708 1.480 1384
6.898 5.873 1.492 1452
6.266 5.335 1.367 1221
6.913 5.886 1.468 1434
7.116 6.058 1.507 1241
7.143 6.081 1.485 1307
7.146 6.084 1.457 1126
7.119 6.061 1.425 1148
1.762 1.491 1.754 2083
1.664 1.407 1.662 1318
1.766 1.494 1.748 4166
1.667 1.410 1.656 2636
1.769 1.497 1.741 4166
1.671 1.413 1.649 2636
1.768 1.495 1.730 3979
1.674 1.416 1.643 3004
1.697 1.436 1.655 3999
1.796 1.519 1.746 3518
1.800 1.522 1.739 6435
1.706 1.443 1.653 3325
1.808 1.530 1.737 9375
1.714 1.450 1.651 2922
1.812 1.533 1.730 9375
1.717 1.453 1.645 2093
1.815 1.536 1.723 9890
1.910 1.616 1.808 2124
1.824 1.543 1.721 10603
1.919 1.623 1.806 2946
1.832 1.550 1.719 9613
1.928 1.631 1.803 2463
1.846 1.562 1.721 9478
1.941 1.642 1.804 1903
1.845 1.560 1.709 7829
1.940 1.641 1.793 2120
1.903 1.610 1.751 7259
1.788 1.512 1.650 2574
1.902 1.609 1.739 7528
1.806 1.528 1.656 1886
1.906 1.612 1.732 7125
1.809 1.531 1.650 1386
1.914 1.619 1.729 6425
1.818 1.538 1.647 1433
1.923 1.626 1.726 8687
1.826 1.545 1.645 1121
1.931 1.634 1.723 11308
1.945 1.645 1.725 9412
1.954 1.653 1.722 8354
1.968 1.664 1.723 7799
1.981 1.676 1.724 7861
1.980 1.675 1.712 6791
2.077 1.757 1.791 1011
1.978 1.673 1.701 5923
2.076 1.756 1.779 1212
1.997 1.689 1.706 5153
2.006 1.697 1.702 5205
2.025 1.713 1.707 4566
2.128 1.800 1.789 1325
2.044 1.729 1.712 5290
2.142 1.812 1.789 2005
2.052 1.736 1.708 4393
2.151 1.820 1.785 2862
2.149 1.818 1.773 3977
2.051 1.735 1.696 3457
2.158 1.826 1.769 4063
2.059 1.742 1.693 3387
2.162 1.829 1.761 4282
2.063 1.745 1.685 3146
2.166 1.832 1.753 3927
2.066 1.748 1.677 2870
2.159 1.826 1.737 3677
2.059 1.742 1.661 1678
2.178 1.842 1.740 4956
2.078 1.758 1.666 2059
2.181 1.845 1.732 7081
2.082 1.761 1.658 1533
2.185 1.848 1.724 7750
2.085 1.764 1.650 1310
2.194 1.856 1.720 6927
2.094 1.771 1.646 1553
2.240 1.894 1.742 7371
2.123 1.796 1.657 2862
2.211 1.871 1.711 6878
2.111 1.786 1.638 1869
2.183 1.847 1.680 7571
2.284 1.932 1.752 3381
2.187 1.850 1.671 8387
2.287 1.935 1.743 3917
2.270 1.920 1.720 8053
2.169 1.835 1.648 4913
2.279 1.927 1.715 9020
2.177 1.842 1.644 3030
2.277 1.926 1.703 8446
2.149 1.818 1.613 3501
2.280 1.929 1.694 8007
2.168 1.834 1.616 4526
2.289 1.936 1.689 7275
2.177 1.841 1.612 5199
2.298 1.944 1.684 6041
2.180 1.844 1.604 4295
2.301 1.947 1.676 5178
2.183 1.847 1.595 3308
2.310 1.954 1.671 4796
2.412 2.040 1.740 2520
2.399 2.030 1.720 5968
2.297 1.943 1.651 2426
2.398 2.028 1.707 7506
2.220 1.878 1.589 1579
2.401 2.031 1.698 7767
2.218 1.876 1.577 1271
2.405 2.034 1.689 6880
2.408 2.037 1.680 5733
2.570 2.174 1.786 1191
2.417 2.044 1.675 5528
2.574 2.177 1.776 2416
2.426 2.052 1.669 5587
2.578 2.180 1.767 3186
2.353 1.990 1.611 6015
2.456 2.078 1.677 5479
2.569 2.173 1.737 5893
2.362 1.998 1.606 5841
2.588 2.190 1.737 10400
2.365 2.001 1.597 4362
2.592 2.193 1.728 14022
2.385 2.017 1.598 2982
2.596 2.196 1.718 15913
2.453 2.075 1.630 2289
2.599 2.199 1.708 15495
2.451 2.074 1.617 1720
2.608 2.206 1.702 11463
2.438 2.062 1.598 1041
2.611 2.209 1.692 9993
2.436 2.061 1.586 1059
2.615 2.212 1.682 7895
2.719 2.300 1.745 1047
2.679 2.266 1.708 5901
2.574 2.178 1.646 4270
2.660 2.250 1.685 6844
2.556 2.162 1.623 1850
2.653 2.244 1.669 6845
0.617 0.522 0.475 1636
2.656 2.247 1.659 4999
0.618 0.522 0.473 1744
2.720 2.301 1.684 5303
0.618 0.523 0.471 1665
2.729 2.309 1.677 8902
0.619 0.524 0.469 1512
2.738 2.316 1.669 9716
0.620 0.524 0.467 1292
2.747 2.324 1.662 8136
2.756 2.331 1.655 6169
2.862 2.421 1.714 1597
2.787 2.358 1.660 4455
2.841 2.403 1.677 3824
2.735 2.314 1.619 1267
2.861 2.420 1.676 4272
2.755 2.331 1.618 1166
2.870 2.428 1.668 4851
2.764 2.338 1.610 1916
2.890 2.445 1.666 4088
2.784 2.355 1.609 2106
2.899 2.452 1.658 4399
2.793 2.362 1.602 1625
2.908 2.460 1.650 6144
3.015 2.550 1.706 1105
2.923 2.472 1.645 6291
3.029 2.563 1.701 1213
2.926 2.475 1.634 5174
3.039 2.570 1.692 1608
2.935 2.483 1.626 4189
3.042 2.573 1.681 1598
2.961 2.505 1.626 4028
3.068 2.595 1.681 1323
3.032 2.565 1.649 4227
2.925 2.474 1.595 2019
3.041 2.572 1.641 4710
3.148 2.663 1.694 1827
3.118 2.637 1.666 6367
3.010 2.546 1.612 2940
3.132 2.650 1.659 7202
3.025 2.559 1.607 2275
3.141 2.657 1.650 5144
3.034 2.566 1.598 1287
3.202 2.708 1.666 4888
3.094 2.617 1.614 2412
3.211 2.716 1.657 6528
3.103 2.625 1.605 1177
3.203 2.709 1.639 8028
3.311 2.800 1.690 1448
3.183 2.693 1.616 7762
3.303 2.794 1.672 3135
3.186 2.695 1.604 5681
3.317 2.806 1.665 3950
3.201 2.708 1.598 4222
3.315 2.804 1.650 3660
3.227 2.730 1.596 5087
3.347 2.831 1.651 3564
3.219 2.723 1.579 4433
3.356 2.839 1.641 4374
3.359 2.842 1.628 7334
3.228 2.730 1.569 1945
3.368 2.849 1.618 10393
3.529 2.985 1.689 1381
3.372 2.852 1.605 9689
3.538 2.993 1.678 2212
3.358 2.840 1.585 12404
3.553 3.005 1.670 2695
3.367 2.848 1.575 14527
3.562 3.013 1.659 2382
3.370 2.851 1.562 9314
3.628 3.069 1.673 3711
3.373 2.853 1.549 5143
3.638 3.077 1.661 4662
3.376 2.856 1.536 4440
3.641 3.080 1.647 4413
3.639 3.078 1.631 4545
3.374 2.854 1.521 2923
3.636 3.076 1.615 4344
3.365 2.847 1.504 1417
3.634 3.074 1.599 4478
3.743 3.166 1.644 1497
3.637 3.076 1.585 4112
3.747 3.169 1.630 1897
3.715 3.143 1.602 3665
3.825 3.236 1.645 1766
3.800 3.214 1.619 3336
3.690 3.121 1.576 2099
3.803 3.217 1.605 3266
3.693 3.124 1.562 2171
3.818 3.229 1.595 3451
3.702 3.131 1.550 1969
3.844 3.252 1.590 4296
3.954 3.345 1.632 1566
3.859 3.264 1.579 5015
4.056 3.431 1.654 1738
3.856 3.262 1.563 4022
3.967 3.356 1.604 2714
3.947 3.339 1.580 3247
3.836 3.245 1.539 2036
3.950 3.341 1.565 3712
4.090 3.459 1.616 1522
3.971 3.359 1.557 4500
4.105 3.472 1.605 3332
3.980 3.366 1.544 4113
4.108 3.475 1.589 4103
4.175 3.532 1.597 4839
3.977 3.364 1.527 3886
4.178 3.535 1.581 6529
4.289 3.628 1.619 5292
4.281 3.621 1.599 7496
4.170 3.527 1.561 5199
4.284 3.624 1.583 8579
4.395 3.718 1.621 4097
4.288 3.627 1.567 6863
4.416 3.736 1.610 3869
4.414 3.734 1.591 5585
4.291 3.630 1.550 3840
4.405 3.726 1.571 6753
4.294 3.632 1.534 2953
4.408 3.729 1.554 4322
4.573 3.868 1.607 2933
4.664 3.945 1.618 2937
4.441 3.757 1.547 2183
4.679 3.958 1.604 2478
4.567 3.864 1.569 1164
4.700 3.976 1.592 5864
4.812 4.070 1.627 1090
4.709 3.983 1.576 7494
4.821 4.078 1.610 1461
4.712 3.986 1.558 4743
4.824 4.081 1.592 1805
4.721 3.994 1.542 3333
4.833 4.088 1.576 2038
4.754 4.021 1.533 2944
4.931 4.171 1.585 1664
4.775 4.039 1.520 3041
5.028 4.253 1.594 1760
4.784 4.046 1.504 2463
5.043 4.266 1.578 1540
4.804 4.064 1.490 1796
5.052 4.274 1.561 1413
5.050 4.272 1.540 2016
5.298 4.482 1.610 1744
5.053 4.274 1.521 2005
5.295 4.479 1.588 1738
5.298 4.482 1.568 1597
5.050 4.272 1.500 1279
5.533 4.680 1.609 1672
5.319 4.500 1.552 1477
5.554 4.698 1.593 2751
5.346 4.522 1.538 1466
5.539 4.685 1.567 2749
5.652 4.781 1.597 1276
5.548 4.693 1.548 2008
5.661 4.789 1.577 1605
5.551 4.696 1.527 2399
5.688 4.811 1.561 1668
5.548 4.693 1.504 2457
5.703 4.824 1.543 1624
5.747 4.862 1.531 1577
6.021 5.093 1.598 1518
6.119 5.176 1.598 1886
5.792 4.900 1.519 1813
6.128 5.184 1.576 2288
5.986 5.063 1.542 1463
6.256 5.292 1.582 1818
6.143 5.197 1.555 1527
6.260 5.295 1.558 2459
6.063 5.129 1.513 1009
6.263 5.298 1.534 2953
6.150 5.202 1.509 1319
6.260 5.295 1.509 3587
6.147 5.199 1.484 1899
6.263 5.298 1.485 4123
6.144 5.197 1.459 1556
6.272 5.305 1.463 4460
6.540 5.533 1.520 1257
6.269 5.303 1.438 3696
6.830 5.777 1.555 1442
6.272 5.305 1.414 2603
6.726 5.689 1.507 1366
6.280 5.313 1.391 2001
6.729 5.692 1.481 1295
6.905 5.841 1.490 1467
6.283 5.315 1.367 1455
6.926 5.859 1.467 1467
7.135 6.036 1.507 1260
7.162 6.058 1.485 1301
7.153 6.051 1.455 1243
7.138 6.038 1.425 1344
7.141 6.040 1.397 1015
1.767 1.484 1.754 1920
1.654 1.389 1.648 1850
1.771 1.487 1.748 3841
1.657 1.392 1.642 3701
1.774 1.490 1.741 3841
1.661 1.395 1.636 3701
1.778 1.493 1.734 3880
1.684 1.414 1.648 3684
1.692 1.421 1.646 4135
1.801 1.513 1.746 3894
1.805 1.516 1.739 6397
1.706 1.433 1.649 3277
1.809 1.519 1.733 8900
1.714 1.440 1.647 2616
1.812 1.522 1.726 8900
1.717 1.442 1.641 1655
1.821 1.529 1.723 9313
1.916 1.609 1.808 1880
1.829 1.537 1.721 9899
1.925 1.617 1.806 2545
1.838 1.544 1.719 8794
1.933 1.624 1.803 2165
1.851 1.555 1.721 8574
1.952 1.640 1.809 1796
1.850 1.554 1.709 7151
1.946 1.634 1.793 2032
1.909 1.604 1.751 7721
1.813 1.523 1.668 2721
1.908 1.602 1.739 7857
1.801 1.513 1.648 1651
1.911 1.605 1.732 7039
2.008 1.686 1.814 1003
1.915 1.608 1.725 6030
2.011 1.689 1.807 1014
1.928 1.620 1.726 7916
1.832 1.538 1.645 1211
1.937 1.627 1.723 10343
1.840 1.546 1.642 1071
1.951 1.639 1.725 8972
1.965 1.650 1.726 8452
1.973 1.657 1.723 7865
1.987 1.669 1.724 8092
1.986 1.668 1.712 7165
1.984 1.666 1.701 6453
1.998 1.678 1.701 5695
2.006 1.685 1.698 5631
2.105 1.768 1.776 1042
2.031 1.706 1.707 4538
2.129 1.788 1.785 1237
2.050 1.722 1.712 5280
2.148 1.805 1.789 1763
2.058 1.729 1.708 4448
2.157 1.812 1.785 2417
2.067 1.736 1.704 3852
2.166 1.820 1.781 2941
2.071 1.739 1.697 3529
2.170 1.823 1.773 3106
2.174 1.826 1.765 3270
2.074 1.742 1.689 3206
2.177 1.829 1.757 3012
2.078 1.745 1.681 2621
2.149 1.805 1.725 2960
2.184 1.835 1.740 4451
2.084 1.751 1.666 1522
2.188 1.838 1.732 6519
2.088 1.754 1.658 1307
2.191 1.841 1.724 6889
2.091 1.756 1.650 1233
2.200 1.848 1.720 5796
2.100 1.764 1.646 1375
2.246 1.887 1.742 6447
2.135 1.793 1.661 2796
2.218 1.863 1.711 5760
2.117 1.778 1.638 1721
2.179 1.830 1.672 7104
2.280 1.915 1.744 3632
2.188 1.838 1.668 7553
2.289 1.922 1.740 4624
2.276 1.912 1.720 8272
2.175 1.827 1.648 4679
2.285 1.919 1.715 8871
2.184 1.834 1.644 2807
2.283 1.918 1.703 8024
2.160 1.815 1.617 3180
2.287 1.921 1.694 7355
2.180 1.831 1.620 4422
2.290 1.924 1.686 6793
2.183 1.834 1.612 5000
2.305 1.936 1.684 5671
2.186 1.836 1.604 4018
2.308 1.939 1.676 4860
2.190 1.839 1.595 3037
2.317 1.946 1.671 4364
2.419 2.032 1.740 2658
2.407 2.021 1.720 6449
2.304 1.935 1.651 2208
2.410 2.024 1.711 8025
2.156 1.811 1.542 1575
2.408 2.023 1.698 8059
2.159 1.814 1.534 1300
2.412 2.026 1.689 7037
2.287 1.921 1.608 1417
2.421 2.033 1.684 6039
2.290 1.924 1.599 1535
2.424 2.036 1.675 6109
2.582 2.168 1.776 2479
2.433 2.043 1.669 5825
2.585 2.171 1.767 3155
2.453 2.060 1.670 5414
2.349 1.973 1.604 4576
2.582 2.168 1.740 5504
2.369 1.990 1.606 5066
2.596 2.181 1.737 10049
2.476 2.080 1.662 3899
2.600 2.184 1.728 13324
2.496 2.096 1.663 3034
2.603 2.187 1.718 14997
2.483 2.085 1.643 2594
2.607 2.189 1.708 15116
2.442 2.051 1.607 2043
2.616 2.197 1.702 12495
2.434 2.045 1.591 1723
2.619 2.200 1.692 11664
2.438 2.047 1.582 1728
2.623 2.203 1.682 9363
2.727 2.291 1.745 1274
2.632 2.210 1.675 6126
2.736 2.298 1.738 1462
2.657 2.232 1.679 7442
0.618 0.519 0.478 1450
2.655 2.230 1.665 8187
0.619 0.520 0.475 1657
2.653 2.228 1.652 6194
0.619 0.520 0.473 1758
2.728 2.292 1.684 5066
2.623 2.203 1.623 1879
2.732 2.295 1.673 9059
0.621 0.522 0.469 1497
2.746 2.307 1.669 10353
0.622 0.522 0.467 1267
2.755 2.314 1.662 9198
2.759 2.317 1.652 6636
2.865 2.406 1.711 1977
2.801 2.353 1.663 3900
2.849 2.393 1.677 3983
2.743 2.304 1.619 1630
2.864 2.406 1.673 5007
2.758 2.316 1.615 1016
2.873 2.413 1.665 6541
2.766 2.324 1.607 1288
2.876 2.416 1.654 5852
2.983 2.505 1.711 1351
2.908 2.442 1.658 4817
2.801 2.353 1.602 1415
2.917 2.450 1.650 6873
3.024 2.540 1.706 1067
2.926 2.458 1.642 6971
3.038 2.552 1.701 1679
2.935 2.465 1.634 5792
3.042 2.555 1.689 2037
2.944 2.473 1.626 4570
3.057 2.567 1.684 1570
2.975 2.499 1.629 4263
3.100 2.603 1.692 1363
3.035 2.549 1.646 4217
2.928 2.459 1.592 1634
3.050 2.562 1.641 4622
3.157 2.652 1.694 1634
3.127 2.626 1.666 5276
2.974 2.498 1.590 2416
3.142 2.639 1.659 6164
3.034 2.548 1.607 2124
3.139 2.637 1.645 4965
3.031 2.546 1.592 1170
3.211 2.697 1.666 4347
3.103 2.606 1.614 2384
3.220 2.705 1.657 6245
3.112 2.614 1.605 1054
3.206 2.693 1.636 8075
3.315 2.784 1.688 1815
3.187 2.677 1.614 8410
3.312 2.782 1.672 3048
3.196 2.684 1.604 6400
3.333 2.799 1.668 4005
3.211 2.697 1.598 4936
3.336 2.802 1.655 3864
3.242 2.723 1.598 5805
3.351 2.815 1.648 3896
3.354 2.818 1.635 4497
3.228 2.712 1.579 4289
3.364 2.825 1.625 6546
3.232 2.714 1.566 1611
3.367 2.828 1.613 7864
3.556 2.987 1.697 1301
3.353 2.816 1.592 9470
3.554 2.985 1.681 2274
3.356 2.819 1.580 13509
3.563 2.993 1.670 3075
3.365 2.827 1.570 13713
3.561 2.991 1.654 2857
3.368 2.829 1.557 10693
3.639 3.057 1.673 4296
3.371 2.832 1.544 6573
3.643 3.060 1.659 5927
3.646 3.062 1.645 6105
3.375 2.834 1.532 4082
3.638 3.055 1.627 6716
3.378 2.837 1.519 3755
3.641 3.058 1.613 6525
3.375 2.835 1.504 2154
3.644 3.061 1.599 6277
3.754 3.153 1.644 1563
3.648 3.064 1.585 5366
3.758 3.156 1.630 1919
3.645 3.062 1.569 2739
3.807 3.198 1.634 2374
3.811 3.201 1.619 3904
3.642 3.059 1.553 1362
3.820 3.208 1.607 3411
3.709 3.116 1.564 1790
3.835 3.221 1.597 3222
3.713 3.118 1.550 2148
3.855 3.238 1.590 4848
3.739 3.141 1.545 1411
3.853 3.236 1.573 4993
3.963 3.329 1.614 2227
3.850 3.234 1.556 3488
3.961 3.327 1.597 3487
3.964 3.330 1.582 3043
3.853 3.237 1.542 2085
3.985 3.347 1.574 3221
4.096 3.440 1.614 2084
4.105 3.448 1.601 2963
3.988 3.350 1.559 2380
4.120 3.461 1.589 3528
4.272 3.588 1.644 1569
4.281 3.596 1.629 3658
4.123 3.463 1.574 2866
4.290 3.604 1.615 6871
4.179 3.510 1.577 3494
4.294 3.606 1.599 9408
4.182 3.513 1.561 2792
4.297 3.609 1.583 11232
4.426 3.718 1.627 3369
4.300 3.612 1.567 8926
4.441 3.730 1.614 3913
4.303 3.615 1.550 5049
4.444 3.733 1.597 4836
4.436 3.726 1.577 4344
4.306 3.617 1.534 4011
4.598 3.862 1.611 3006
4.439 3.729 1.560 2874
4.654 3.909 1.611 2611
4.454 3.741 1.547 1897
4.687 3.937 1.602 1762
4.575 3.843 1.567 1052
4.720 3.964 1.594 4909
4.832 4.058 1.629 1223
4.723 3.967 1.576 5978
4.835 4.061 1.610 1631
4.720 3.965 1.556 3758
4.832 4.059 1.590 1946
4.729 3.972 1.540 2533
4.841 4.067 1.574 2297
4.780 4.015 1.536 2346
4.939 4.149 1.583 1579
4.783 4.017 1.518 2625
5.037 4.231 1.592 1505
5.064 4.254 1.580 1895
4.786 4.020 1.500 1702
5.079 4.266 1.564 2030
5.340 4.485 1.638 1311
5.064 4.254 1.540 2036
5.313 4.463 1.610 1722
5.174 4.346 1.550 1825
5.062 4.252 1.519 1802
5.172 4.344 1.529 1687
5.314 4.464 1.568 1558
5.341 4.486 1.554 1701
5.549 4.661 1.609 1576
5.564 4.673 1.592 2845
5.362 4.504 1.538 1812
5.567 4.676 1.570 3002
5.365 4.506 1.518 1410
5.570 4.679 1.549 1980
5.683 4.774 1.578 1326
5.568 4.676 1.527 2227
5.710 4.796 1.563 1464
5.565 4.674 1.504 2412
5.720 4.804 1.543 1676
6.044 5.077 1.599 1512
5.758 4.837 1.530 1436
6.137 5.155 1.598 1787
6.024 5.060 1.571 1598
6.146 5.163 1.576 2338
6.015 5.052 1.545 1510
6.269 5.266 1.580 2151
6.132 5.150 1.548 1680
6.278 5.273 1.558 3043
6.165 5.178 1.532 1100
6.281 5.276 1.534 3414
6.168 5.181 1.509 1374
6.278 5.273 1.509 4045
6.165 5.178 1.484 1773
6.281 5.276 1.485 4493
6.550 5.502 1.543 1524
6.284 5.279 1.461 4584
6.548 5.500 1.517 1452
6.287 5.281 1.438 3972
6.844 5.749 1.553 1503
6.290 5.283 1.414 2851
6.554 5.505 1.468 1417
6.299 5.291 1.391 1987
6.898 5.794 1.511 1332
6.919 5.812 1.488 1537
6.308 5.298 1.368 1518
6.946 5.834 1.467 1355
7.150 6.006 1.506 1125
7.165 6.018 1.481 1097
7.162 6.016 1.453 1290
7.159 6.013 1.425 1529
7.162 6.016 1.397 1175
1.663 1.388 1.653 2429
1.777 1.483 1.759 1779
1.667 1.391 1.647 4859
1.781 1.486 1.752 3558
1.670 1.394 1.640 4859
1.784 1.489 1.746 3558
1.683 1.405 1.643 4521
1.788 1.492 1.739 3998
1.786 1.491 1.728 4513
1.692 1.412 1.642 4443
1.790 1.494 1.721 6803
1.695 1.415 1.635 3425
1.798 1.501 1.719 9156
1.703 1.422 1.633 2491
1.802 1.504 1.712 9156
1.897 1.583 1.797 1904
1.826 1.524 1.723 9002
1.921 1.603 1.808 1651
1.829 1.526 1.717 9520
1.925 1.606 1.801 2424
1.843 1.538 1.719 8228
1.939 1.618 1.803 1913
1.856 1.549 1.721 7914
1.957 1.634 1.809 1960
1.905 1.590 1.753 6981
1.799 1.501 1.661 3079
1.914 1.597 1.751 7995
1.818 1.517 1.668 2817
1.913 1.596 1.739 7954
1.806 1.507 1.648 1914
1.921 1.603 1.736 6780
1.825 1.523 1.654 1103
1.920 1.602 1.725 5611
2.017 1.683 1.807 1168
1.934 1.614 1.726 7090
1.837 1.533 1.645 1141
1.942 1.621 1.723 9139
2.040 1.702 1.804 1162
1.956 1.632 1.725 8245
1.965 1.640 1.722 8082
1.984 1.655 1.727 7123
1.998 1.667 1.728 7483
1.991 1.661 1.712 6467
1.989 1.660 1.701 5839
2.003 1.672 1.701 4943
2.012 1.679 1.698 4560
2.110 1.761 1.776 1250
2.046 1.708 1.715 4217
2.145 1.790 1.793 1050
2.050 1.711 1.707 4973
2.149 1.793 1.785 1553
2.064 1.722 1.708 4367
2.163 1.805 1.785 1925
2.078 1.734 1.708 4116
2.177 1.817 1.785 2006
2.087 1.741 1.705 3887
2.186 1.824 1.781 2137
2.095 1.749 1.701 3764
2.195 1.832 1.777 2513
2.109 1.760 1.701 2714
2.209 1.844 1.776 2626
2.213 1.847 1.768 3084
2.113 1.763 1.693 1873
2.190 1.828 1.740 3945
2.194 1.831 1.732 5454
2.093 1.747 1.658 1037
2.197 1.834 1.724 5537
2.097 1.750 1.650 1126
2.217 1.850 1.727 4574
2.116 1.766 1.654 1587
2.252 1.879 1.742 5323
2.141 1.786 1.661 2407
2.256 1.882 1.734 4890
2.155 1.798 1.661 3680
2.179 1.819 1.668 6120
2.281 1.903 1.741 3773
2.268 1.893 1.721 6660
2.167 1.808 1.649 5116
2.282 1.905 1.720 8525
2.181 1.820 1.648 3850
2.291 1.912 1.715 8611
2.190 1.827 1.644 2275
2.289 1.911 1.703 7445
2.166 1.808 1.617 2595
2.288 1.909 1.690 6572
2.180 1.819 1.616 3446
2.296 1.916 1.686 6110
2.184 1.822 1.608 3898
2.311 1.928 1.684 5291
2.192 1.829 1.604 3325
2.320 1.936 1.679 4838
2.195 1.832 1.595 2717
2.399 2.002 1.722 4120
2.296 1.916 1.653 2928
2.413 2.014 1.720 6335
2.310 1.928 1.651 2144
2.416 2.017 1.711 7916
2.173 1.813 1.549 1788
2.415 2.015 1.698 7634
2.290 1.911 1.616 1441
2.418 2.018 1.689 6811
2.293 1.914 1.608 2037
2.427 2.025 1.684 6405
2.302 1.921 1.603 2286
2.430 2.028 1.675 6674
2.588 2.160 1.776 2351
2.439 2.036 1.669 5862
2.592 2.163 1.767 2902
2.465 2.057 1.674 5109
2.361 1.970 1.608 4398
2.468 2.060 1.664 5326
2.599 2.169 1.747 5013
2.608 2.177 1.741 9287
2.477 2.067 1.659 4757
2.607 2.175 1.728 11973
2.486 2.074 1.653 4130
2.616 2.183 1.721 13362
2.489 2.077 1.643 3206
2.619 2.186 1.711 13779
2.432 2.030 1.597 3023
2.623 2.189 1.702 12697
2.435 2.032 1.588 2655
2.626 2.192 1.692 12640
2.444 2.040 1.582 2457
2.630 2.194 1.682 10254
2.447 2.042 1.573 1689
2.639 2.202 1.675 7084
2.744 2.290 1.738 1454
2.653 2.214 1.672 8113
0.620 0.517 0.478 1221
2.657 2.217 1.662 9170
0.620 0.518 0.475 1387
2.660 2.220 1.652 7241
0.621 0.518 0.473 1455
2.736 2.283 1.684 5147
2.630 2.195 1.623 2035
2.739 2.286 1.673 9481
0.623 0.520 0.469 1217
2.754 2.298 1.669 10929
0.623 0.520 0.467 1015
2.763 2.306 1.662 10221
2.869 2.394 1.722 1077
2.766 2.308 1.652 7160
2.872 2.397 1.711 2362
2.853 2.381 1.688 3982
2.747 2.292 1.629 3212
2.862 2.389 1.680 3949
2.756 2.300 1.622 1869
2.866 2.392 1.670 5616
2.759 2.303 1.612 1019
2.875 2.399 1.662 8254
2.878 2.402 1.651 7701
2.985 2.491 1.708 1097
2.887 2.410 1.643 5887
2.925 2.441 1.650 7376
3.037 2.535 1.709 1096
2.928 2.443 1.639 7340
3.046 2.542 1.701 1965
2.943 2.456 1.634 5964
3.050 2.545 1.689 2216
2.969 2.477 1.635 4801
3.093 2.581 1.698 1565
2.983 2.490 1.629 4520
3.091 2.579 1.684 1184
3.038 2.535 1.644 4084
2.930 2.445 1.589 1616
3.058 2.552 1.641 4649
2.950 2.462 1.587 1338
3.141 2.621 1.668 4017
3.033 2.531 1.615 2279
3.144 2.624 1.657 5006
3.036 2.534 1.604 2087
3.148 2.627 1.645 4712
3.040 2.537 1.592 1329
3.220 2.687 1.666 3546
3.105 2.592 1.611 2323
3.217 2.685 1.651 5729
3.097 2.585 1.594 1047
3.209 2.678 1.634 8302
3.318 2.769 1.685 2279
3.195 2.667 1.614 8553
3.344 2.791 1.683 3692
3.204 2.674 1.604 6586
3.348 2.794 1.671 4831
3.259 2.720 1.616 5818
3.368 2.811 1.666 4430
3.257 2.718 1.601 6456
3.366 2.809 1.651 4623
3.363 2.807 1.635 5153
3.243 2.706 1.581 3930
3.373 2.814 1.625 6183
3.235 2.699 1.564 1461
3.364 2.808 1.608 7067
3.566 2.976 1.697 1201
3.356 2.801 1.590 10506
3.569 2.979 1.683 2272
3.365 2.808 1.580 14296
3.567 2.977 1.667 3344
3.368 2.811 1.567 13836
3.570 2.980 1.654 3289
3.377 2.818 1.557 13023
3.643 3.040 1.670 5196
3.380 2.821 1.544 8615
3.652 3.048 1.659 7044
3.650 3.046 1.643 7489
3.384 2.824 1.532 4659
3.647 3.044 1.627 8309
3.387 2.826 1.519 4877
3.651 3.047 1.613 7994
3.384 2.824 1.504 2952
3.654 3.049 1.599 7414
3.764 3.141 1.644 1523
3.663 3.057 1.588 6161
3.774 3.149 1.632 1570
3.661 3.055 1.572 3000
3.812 3.181 1.631 2187
3.821 3.189 1.619 3611
3.710 3.096 1.576 1402
3.824 3.191 1.605 3002
3.713 3.099 1.562 1943
3.851 3.214 1.600 2941
3.723 3.107 1.550 2457
3.860 3.221 1.587 5254
3.731 3.114 1.539 1589
3.857 3.219 1.571 4861
3.968 3.312 1.612 2404
3.972 3.314 1.597 4008
3.849 3.212 1.552 3073
3.975 3.317 1.582 3469
4.092 3.415 1.625 2112
4.095 3.417 1.610 2709
3.984 3.325 1.570 2672
4.104 3.425 1.597 2503
3.993 3.332 1.557 1850
4.149 3.462 1.596 2533
4.283 3.575 1.644 1925
4.293 3.582 1.629 3915
4.134 3.450 1.574 2587
4.302 3.590 1.615 7197
4.137 3.453 1.558 2219
4.299 3.588 1.597 10215
4.417 3.686 1.637 1780
4.308 3.595 1.583 12355
4.432 3.699 1.625 3419
4.306 3.593 1.565 9951
4.453 3.716 1.614 4330
4.315 3.601 1.550 5664
4.462 3.724 1.599 5114
4.318 3.603 1.534 4672
4.459 3.722 1.580 3819
4.321 3.606 1.518 3216
4.616 3.852 1.613 3137
4.637 3.870 1.601 2928
4.460 3.722 1.545 1768
4.658 3.887 1.589 1883
4.770 3.981 1.625 1498
4.738 3.954 1.596 3229
4.626 3.860 1.561 1323
4.735 3.952 1.576 3765
4.848 4.046 1.610 1785
4.733 3.950 1.556 2794
4.851 4.048 1.592 1651
4.742 3.957 1.540 2092
4.860 4.056 1.576 2004
4.864 4.059 1.557 1734
4.751 3.965 1.524 1607
4.795 4.002 1.518 1963
5.033 4.200 1.587 1163
5.084 4.242 1.582 2128
4.858 4.054 1.517 1222
5.099 4.255 1.566 2562
5.354 4.468 1.638 1405
5.108 4.263 1.548 2149
5.345 4.461 1.614 1597
5.182 4.325 1.549 2103
5.069 4.230 1.518 1388
5.185 4.327 1.529 2050
5.346 4.461 1.573 1235
5.188 4.330 1.510 1665
5.558 4.638 1.608 1447
5.573 4.651 1.590 2728
5.376 4.487 1.538 1891
5.582 4.658 1.570 3267
5.391 4.499 1.521 1774
5.591 4.666 1.551 2158
5.764 4.810 1.595 1186
5.582 4.659 1.527 2024
5.732 4.783 1.564 1413
5.574 4.651 1.503 2186
5.735 4.786 1.543 1642
6.061 5.058 1.599 1541
5.887 4.913 1.557 1323
6.064 5.060 1.576 1833
6.225 5.195 1.615 1698
6.169 5.148 1.577 2369
6.055 5.053 1.551 1685
6.286 5.246 1.580 2380
6.142 5.126 1.547 1993
6.289 5.248 1.556 3439
6.151 5.133 1.525 1120
6.292 5.251 1.533 3499
6.178 5.156 1.507 1355
6.289 5.248 1.508 4100
6.175 5.153 1.483 1497
6.292 5.251 1.484 4471
6.562 5.476 1.542 1796
6.301 5.258 1.461 4188
6.559 5.474 1.516 1673
6.310 5.266 1.439 3754
6.568 5.481 1.492 1579
6.307 5.263 1.414 2736
6.571 5.484 1.468 1638
6.310 5.266 1.390 1821
6.917 5.772 1.511 1533
6.932 5.785 1.487 1530
6.325 5.278 1.368 1421
6.959 5.807 1.466 1205
7.169 5.983 1.506 1128
7.178 5.990 1.480 1046
7.175 5.988 1.452 1307
7.172 5.985 1.424 1584
7.175 5.988 1.396 1247
1.669 1.382 1.653 3006
1.792 1.484 1.768 1624
1.672 1.385 1.647 6012
1.796 1.487 1.761 3249
1.675 1.387 1.640 6012
1.800 1.490 1.755 3249
1.689 1.398 1.643 5381
1.803 1.493 1.748 4138
1.797 1.488 1.732 5087
1.692 1.401 1.637 4819
1.796 1.487 1.721 7296
1.700 1.408 1.635 3775
1.799 1.490 1.714 9526
1.704 1.411 1.629 2783
1.803 1.493 1.708 9526
1.898 1.572 1.793 2025
1.826 1.512 1.719 8729
1.922 1.592 1.804 2022
1.840 1.524 1.721 9451
1.936 1.603 1.806 1985
1.849 1.531 1.719 7944
1.945 1.610 1.803 1891
1.867 1.546 1.725 7820
1.964 1.626 1.809 2185
1.906 1.579 1.749 6874
1.800 1.490 1.657 2790
1.920 1.590 1.751 7933
1.803 1.493 1.650 2602
1.924 1.593 1.743 7726
1.812 1.500 1.648 1965
1.927 1.596 1.736 6445
1.830 1.516 1.654 1438
1.931 1.599 1.729 5364
1.834 1.519 1.647 1375
1.940 1.606 1.726 6624
2.037 1.687 1.808 1213
1.948 1.614 1.723 8412
2.046 1.694 1.804 1445
1.962 1.625 1.725 7888
2.060 1.706 1.805 1037
1.971 1.632 1.722 7786
2.000 1.657 1.735 6713
2.009 1.664 1.732 7237
2.002 1.658 1.716 6593
2.001 1.657 1.705 6393
2.099 1.738 1.784 1389
2.009 1.664 1.701 5735
2.108 1.746 1.780 1427
2.018 1.671 1.698 5512
2.117 1.753 1.776 1579
2.048 1.696 1.711 4458
2.147 1.778 1.789 1031
2.056 1.703 1.707 4887
2.156 1.785 1.785 1286
2.081 1.723 1.716 4602
2.180 1.806 1.793 1276
2.095 1.735 1.716 4858
2.195 1.817 1.793 1318
2.104 1.742 1.713 4904
2.204 1.825 1.789 1691
2.107 1.745 1.705 5019
2.207 1.828 1.781 2229
2.121 1.757 1.705 3895
2.221 1.840 1.780 2491
2.209 1.830 1.760 3751
2.109 1.747 1.685 1967
2.213 1.833 1.752 3954
2.112 1.749 1.677 1326
2.201 1.822 1.732 4273
2.204 1.825 1.724 4190
2.234 1.850 1.735 3569
2.133 1.767 1.661 1515
2.259 1.871 1.742 4293
2.142 1.774 1.657 1894
2.268 1.878 1.738 4748
2.167 1.794 1.665 2917
2.272 1.881 1.729 5273
2.170 1.797 1.657 3887
2.275 1.884 1.721 7514
2.174 1.800 1.649 3583
2.284 1.892 1.716 8561
2.182 1.807 1.644 2617
2.299 1.904 1.715 7751
2.170 1.797 1.625 1834
2.297 1.902 1.703 6288
2.173 1.800 1.617 1838
2.289 1.896 1.687 5280
2.182 1.807 1.613 2106
2.298 1.903 1.682 4964
2.401 1.988 1.752 2806
2.318 1.920 1.684 4829
2.421 2.005 1.754 2690
2.332 1.931 1.683 4866
2.202 1.824 1.595 2289
2.406 1.993 1.722 3917
2.303 1.907 1.653 3181
2.426 2.009 1.723 5778
2.307 1.910 1.644 2320
2.430 2.012 1.714 7299
2.310 1.913 1.635 1895
2.428 2.010 1.702 6657
2.302 1.907 1.620 2056
2.431 2.013 1.693 6371
2.306 1.909 1.611 2702
2.435 2.016 1.684 6703
2.314 1.917 1.606 3076
2.438 2.019 1.675 6816
2.318 1.919 1.597 2411
2.442 2.022 1.665 5527
2.600 2.153 1.767 2389
2.401 1.988 1.629 5318
2.505 2.075 1.694 3013
2.476 2.050 1.664 5319
2.608 2.159 1.747 4443
2.617 2.167 1.741 7937
2.485 2.058 1.659 5409
2.620 2.170 1.731 9930
2.499 2.070 1.656 5115
2.624 2.173 1.721 11076
2.497 2.068 1.643 3721
2.627 2.176 1.711 11927
2.440 2.020 1.597 4046
2.625 2.174 1.698 12338
2.443 2.023 1.588 3601
2.634 2.182 1.692 12996
2.452 2.030 1.582 3109
2.638 2.185 1.682 10598
2.455 2.033 1.573 2162
2.641 2.187 1.672 7740
2.747 2.275 1.734 2163
2.661 2.204 1.672 8760
2.665 2.207 1.662 9934
2.668 2.210 1.652 8091
2.774 2.297 1.713 1503
2.750 2.277 1.687 5602
2.644 2.189 1.626 2866
2.748 2.275 1.673 10089
2.642 2.188 1.613 1156
2.757 2.283 1.666 11473
2.766 2.290 1.659 11107
2.872 2.379 1.719 1427
2.769 2.293 1.649 8028
2.876 2.382 1.708 2936
2.868 2.375 1.691 4252
2.761 2.287 1.632 3474
2.871 2.378 1.680 3878
2.765 2.290 1.622 1595
2.875 2.381 1.670 6095
2.878 2.384 1.659 9707
2.887 2.391 1.651 9412
2.896 2.399 1.643 7224
2.934 2.430 1.650 7856
3.058 2.533 1.715 1018
2.920 2.418 1.630 7875
3.056 2.531 1.701 1891
2.980 2.468 1.649 5953
2.872 2.379 1.593 2908
2.984 2.471 1.637 5136
3.091 2.560 1.692 1667
2.993 2.478 1.629 4479
3.101 2.568 1.684 1178
3.047 2.523 1.644 3829
2.939 2.434 1.589 2003
3.062 2.536 1.638 4568
3.170 2.625 1.692 1265
3.065 2.538 1.626 3660
3.174 2.628 1.680 2228
3.160 2.617 1.659 3750
3.051 2.527 1.607 2836
3.163 2.620 1.648 4243
3.055 2.530 1.595 1843
3.172 2.627 1.639 3486
3.281 2.717 1.691 1345
3.222 2.668 1.648 5226
3.330 2.758 1.700 1384
3.219 2.666 1.634 8380
3.357 2.780 1.698 2740
3.205 2.655 1.614 8111
3.355 2.778 1.683 4718
3.214 2.662 1.604 6220
3.364 2.786 1.673 5887
3.275 2.712 1.619 6395
3.384 2.803 1.669 4899
3.273 2.710 1.604 6482
3.382 2.801 1.653 5384
3.374 2.794 1.635 5934
3.253 2.694 1.581 3448
3.377 2.797 1.623 6085
3.250 2.692 1.566 1500
3.369 2.790 1.605 7920
3.583 2.967 1.699 1077
3.367 2.788 1.590 12181
3.580 2.965 1.683 2251
3.376 2.796 1.580 14115
3.578 2.963 1.667 3421
3.379 2.798 1.567 13711
3.576 2.961 1.652 3427
3.388 2.806 1.557 14762
3.655 3.026 1.670 6249
3.391 2.808 1.544 10411
3.658 3.029 1.656 7754
3.661 3.032 1.643 7632
3.394 2.811 1.532 5649
3.665 3.035 1.629 8275
3.397 2.813 1.519 5812
3.662 3.033 1.613 8078
3.395 2.811 1.504 3473
3.666 3.036 1.599 7680
3.398 2.814 1.491 1185
3.680 3.048 1.590 6694
3.791 3.140 1.634 1077
3.713 3.075 1.588 4123
3.824 3.167 1.631 1700
3.827 3.169 1.617 2762
3.716 3.077 1.574 2616
3.725 3.085 1.562 3165
3.836 3.177 1.605 2278
3.728 3.088 1.548 3471
3.869 3.204 1.602 2517
3.872 3.207 1.587 5219
3.737 3.095 1.536 2065
3.875 3.209 1.573 4737
3.987 3.301 1.614 2199
3.984 3.299 1.597 3836
3.873 3.207 1.556 2831
3.976 3.292 1.578 3679
4.105 3.399 1.625 2041
4.108 3.402 1.610 2786
3.996 3.310 1.570 2674
4.111 3.405 1.594 2674
4.223 3.497 1.634 2062
4.297 3.558 1.644 2276
4.114 3.407 1.579 2105
4.306 3.566 1.629 3936
4.141 3.430 1.572 2551
4.309 3.569 1.613 7003
4.144 3.432 1.556 2344
4.313 3.572 1.597 9841
4.431 3.669 1.637 1771
4.322 3.579 1.583 11814
4.446 3.682 1.625 3127
4.319 3.577 1.565 10304
4.461 3.694 1.612 4445
4.328 3.585 1.550 6204
4.470 3.702 1.597 5015
4.331 3.587 1.534 4850
4.473 3.705 1.580 3015
4.335 3.590 1.518 3523
4.642 3.845 1.617 2919
4.658 3.857 1.603 3013
4.474 3.705 1.545 1843
4.767 3.948 1.619 2045
4.489 3.717 1.532 1822
4.771 3.951 1.601 2564
4.658 3.858 1.566 2073
4.756 3.939 1.578 2403
4.869 4.032 1.612 1513
4.771 3.951 1.563 1727
4.884 4.045 1.597 1202
4.887 4.048 1.579 2039
5.000 4.141 1.613 1144
4.891 4.050 1.561 2045
5.004 4.144 1.594 1230
4.822 3.994 1.522 1833
5.120 4.240 1.608 1180
5.099 4.223 1.582 2326
4.879 4.041 1.519 1109
5.115 4.236 1.566 2950
5.371 4.448 1.638 1375
5.136 4.253 1.552 2619
5.368 4.446 1.616 1538
5.199 4.305 1.549 2073
5.389 4.463 1.601 1078
5.196 4.303 1.527 2192
5.434 4.501 1.592 1187
5.205 4.310 1.510 1843
5.450 4.513 1.575 1336
5.590 4.630 1.590 2374
5.405 4.476 1.542 2212
5.594 4.632 1.569 3271
5.408 4.479 1.521 2470
5.603 4.640 1.549 2220
5.423 4.491 1.504 1307
5.594 4.633 1.525 1771
5.756 4.767 1.566 1423
5.597 4.635 1.504 1767
5.891 4.878 1.576 1634
5.900 4.886 1.556 1683
6.086 5.040 1.601 1455
6.239 5.167 1.613 1863
6.083 5.038 1.576 1757
6.164 5.105 1.572 2363
6.278 5.199 1.598 1642
6.305 5.222 1.580 2356
6.155 5.097 1.546 2306
6.309 5.224 1.556 3447
6.170 5.110 1.525 1518
6.312 5.227 1.533 3200
6.546 5.421 1.585 1485
6.303 5.220 1.506 3837
6.549 5.424 1.560 1550
6.306 5.222 1.483 3982
6.577 5.446 1.541 2036
6.321 5.235 1.461 3449
6.580 5.449 1.516 1810
6.330 5.242 1.439 3181
6.589 5.457 1.492 1693
6.315 5.230 1.411 2436
6.592 5.459 1.468 1742
6.324 5.237 1.389 1577
6.944 5.751 1.512 1522
6.953 5.758 1.487 1376
7.080 5.863 1.512 1269
7.192 5.956 1.506 1271
6.975 5.776 1.464 1075
7.171 5.938 1.474 1195
7.180 5.946 1.448 1464
7.189 5.953 1.422 1638
7.197 5.961 1.396 1304
1.683 1.385 1.662 3420
1.802 1.483 1.773 1496
1.686 1.388 1.656 6841
1.805 1.486 1.766 2992
1.689 1.391 1.649 6841
1.809 1.489 1.759 2992
1.693 1.394 1.643 5906
1.813 1.492 1.753 4110
1.801 1.483 1.732 5373
1.696 1.396 1.637 4971
1.800 1.482 1.721 7468
1.700 1.399 1.631 3967
1.798 1.481 1.710 9642
1.703 1.402 1.624 2964
1.802 1.483 1.703 9642
1.908 1.571 1.797 2017
1.831 1.507 1.719 8306
1.927 1.586 1.804 2296
1.844 1.518 1.721 9384
1.940 1.598 1.806 2135
1.858 1.530 1.723 7984
1.954 1.609 1.807 1973
1.877 1.545 1.730 8147
1.780 1.466 1.646 2178
1.906 1.569 1.744 6733
1.804 1.485 1.657 2633
1.920 1.580 1.746 7526
1.813 1.492 1.654 2650
