0.960 2.969 1.641 5641
1.001 3.098 1.707 4628
1.000 3.095 1.694 6039
0.959 2.966 1.629 4471
0.969 2.998 1.633 5984
1.011 3.127 1.699 4382
0.994 3.077 1.662 8874
0.953 2.947 1.597 2096
0.998 3.088 1.656 13641
0.956 2.958 1.592 3012
1.002 3.099 1.650 15024
0.960 2.969 1.586 2934
1.005 3.110 1.644 13859
1.047 3.239 1.708 1843
1.009 3.121 1.638 10460
1.051 3.250 1.702 2424
1.012 3.132 1.632 9814
1.054 3.262 1.695 2528
1.016 3.143 1.626 10214
1.058 3.273 1.689 2303
1.022 3.160 1.623 7781
1.064 3.291 1.685 3714
1.054 3.261 1.659 9090
1.012 3.130 1.597 2639
1.055 3.265 1.649 9989
1.013 3.134 1.588 2007
1.059 3.276 1.643 8683
1.017 3.145 1.582 1588
1.065 3.294 1.639 6997
1.077 3.333 1.645 5861
1.085 3.357 1.644 5858
1.098 3.396 1.650 5549
1.077 3.331 1.608 4932
1.119 3.463 1.667 1407
1.107 3.425 1.639 4799
1.065 3.294 1.580 1489
1.106 3.423 1.625 6932
1.099 3.399 1.603 7506
1.141 3.531 1.660 2080
1.098 3.396 1.589 7431
1.140 3.528 1.647 2259
1.104 3.414 1.585 5876
1.146 3.546 1.642 1810
1.132 3.502 1.610 4941
1.089 3.369 1.554 1089
1.131 3.499 1.597 5096
1.174 3.632 1.653 1031
1.132 3.503 1.586 6614
1.175 3.636 1.642 1809
1.134 3.507 1.576 6668
1.177 3.640 1.631 3376
1.178 3.644 1.620 5149
1.135 3.511 1.565 4087
1.175 3.634 1.603 5358
1.132 3.501 1.549 1516
1.169 3.617 1.584 5068
1.212 3.751 1.638 1066
1.168 3.614 1.570 5621
1.211 3.748 1.624 2380
1.172 3.625 1.562 5989
1.215 3.759 1.615 3326
1.203 3.721 1.587 7128
1.159 3.587 1.534 1790
1.206 3.732 1.579 5828
1.250 3.866 1.631 1036
1.233 3.813 1.597 4597
1.189 3.679 1.545 1176
1.232 3.810 1.583 7689
1.275 3.945 1.635 1423
1.228 3.800 1.566 9146
1.272 3.935 1.618 2551
1.248 3.861 1.576 6756
1.204 3.726 1.525 2519
1.252 3.872 1.567 6022
1.208 3.737 1.517 1359
1.280 3.961 1.587 4638
1.237 3.826 1.537 3141
1.261 3.901 1.551 5170
1.323 4.093 1.622 1651
1.265 3.912 1.542 7385
1.334 4.126 1.620 2195
1.298 4.016 1.566 5708
1.254 3.880 1.518 2011
1.302 4.027 1.557 6866
1.345 4.162 1.605 1862
1.308 4.045 1.550 5558
1.351 4.181 1.598 2836
1.339 4.142 1.570 6535
1.295 4.006 1.522 1926
1.340 4.146 1.557 7344
1.296 4.010 1.510 1437
1.341 4.150 1.545 8266
1.385 4.286 1.591 1121
1.345 4.161 1.535 5363
1.389 4.297 1.581 1752
1.374 4.251 1.551 4053
1.418 4.387 1.597 1066
1.396 4.319 1.560 5339
1.352 4.183 1.514 1444
1.395 4.316 1.544 5245
1.351 4.179 1.499 1324
1.408 4.356 1.543 3564
1.364 4.219 1.498 1824
1.416 4.381 1.537 4048
1.461 4.518 1.581 1355
1.427 4.414 1.532 3332
1.471 4.551 1.576 1456
1.447 4.476 1.537 2696
1.402 4.339 1.494 1518
1.460 4.516 1.535 3588
1.415 4.378 1.492 1588
1.461 4.519 1.521 3920
1.417 4.382 1.479 1207
1.464 4.531 1.510 2608
1.518 4.697 1.561 2250
1.520 4.701 1.546 2837
1.468 4.542 1.498 1738
1.495 4.625 1.508 3134
1.540 4.763 1.550 1639
1.508 4.665 1.505 3690
1.552 4.803 1.546 1619
1.514 4.683 1.495 4090
1.558 4.821 1.536 1719
1.520 4.702 1.485 4875
1.564 4.840 1.525 2054
1.523 4.713 1.473 4308
1.596 4.938 1.537 3075
1.564 4.840 1.494 5081
1.520 4.702 1.455 2148
1.570 4.858 1.483 4671
1.615 4.997 1.522 1677
1.590 4.920 1.484 4923
1.635 5.059 1.523 1678
1.589 4.917 1.467 4553
1.636 5.062 1.507 3523
1.640 5.074 1.494 4247
1.590 4.920 1.452 2237
1.639 5.070 1.476 3193
1.696 5.245 1.523 2542
1.727 5.344 1.532 3062
1.640 5.074 1.461 2699
1.724 5.333 1.512 5933
1.646 5.092 1.449 2295
1.725 5.337 1.496 6882
1.770 5.476 1.532 3064
1.726 5.341 1.480 4989
1.771 5.480 1.515 2561
1.739 5.381 1.473 3457
1.784 5.520 1.508 2060
1.771 5.480 1.480 2651
1.819 5.627 1.516 1740
1.773 5.484 1.463 2418
1.818 5.623 1.497 1448
1.874 5.796 1.521 2198
1.786 5.524 1.455 1806
1.870 5.785 1.500 2465
1.915 5.925 1.533 1520
1.895 5.862 1.499 2879
1.850 5.723 1.467 2381
1.884 5.829 1.473 2461
1.929 5.969 1.505 1953
1.933 5.980 1.489 3095
1.878 5.811 1.450 2193
1.934 5.984 1.471 2956
2.010 6.220 1.524 1660
1.938 5.995 1.454 2651
1.983 6.135 1.485 1871
1.977 6.117 1.462 2412
1.932 5.976 1.431 2035
1.943 6.010 1.419 1839
2.009 6.216 1.464 1483
2.056 6.360 1.474 2344
2.006 6.205 1.441 1443
2.062 6.379 1.458 3383
2.005 6.201 1.421 1461
2.070 6.404 1.443 3062
2.132 6.597 1.483 1827
2.102 6.504 1.443 2398
2.201 6.808 1.504 1932
2.276 7.041 1.529 2498
2.137 6.611 1.444 1960
2.282 7.059 1.511 2776
2.229 6.896 1.479 1861
2.286 7.071 1.491 2817
2.226 6.885 1.455 1937
2.289 7.082 1.471 2298
2.224 6.882 1.433 1796
2.288 7.078 1.448 2560
2.204 6.818 1.399 1865
2.284 7.067 1.423 2586
2.332 7.215 1.450 1411
2.369 7.330 1.449 2300
2.444 7.560 1.490 1396
2.371 7.334 1.426 2807
2.517 7.787 1.506 2412
2.518 7.791 1.483 2469
2.377 7.352 1.406 2316
2.378 7.356 1.384 1744
2.515 7.779 1.456 1684
2.492 7.709 1.420 1800
2.614 8.088 1.484 1691
2.491 7.705 1.395 1839
2.582 7.988 1.442 1542
2.614 8.088 1.433 1390
2.460 7.611 1.356 1100
2.618 8.099 1.410 1576
2.526 7.816 1.365 1040
2.617 8.095 1.384 1278
2.914 9.016 1.498 1595
2.844 8.799 1.465 1390
2.915 9.019 1.471 1946
2.843 8.795 1.437 1616
2.844 8.799 1.411 1400
2.917 9.023 1.443 1368
2.918 9.026 1.416 1098
2.919 9.030 1.388 1088
2.920 9.033 1.360 1243
2.921 9.037 1.333 1146
0.702 2.138 1.713 6177
0.703 2.142 1.706 12354
0.665 2.026 1.619 1618
0.705 2.147 1.700 12354
0.666 2.030 1.613 1618
0.708 2.157 1.698 9237
0.670 2.040 1.611 1190
0.709 2.161 1.691 6149
0.748 2.278 1.778 1579
0.711 2.166 1.685 5799
0.749 2.283 1.771 2435
0.737 2.244 1.733 6650
0.698 2.127 1.647 2232
0.738 2.249 1.726 6650
0.699 2.131 1.641 2304
0.742 2.259 1.723 7831
0.703 2.141 1.639 2992
0.745 2.270 1.721 9328
0.706 2.152 1.637 3868
0.746 2.274 1.714 8165
0.708 2.156 1.630 3723
0.748 2.279 1.707 7002
0.709 2.160 1.624 3577
0.747 2.277 1.696 5124
0.708 2.158 1.613 2192
0.747 2.275 1.685 3564
0.788 2.400 1.772 1846
0.758 2.310 1.700 3480
0.798 2.430 1.783 1257
0.764 2.327 1.702 4532
0.765 2.332 1.695 4506
0.769 2.342 1.692 4381
0.772 2.353 1.689 4498
0.790 2.408 1.716 3431
0.792 2.412 1.709 3184
0.795 2.423 1.706 6147
0.756 2.302 1.626 1103
0.799 2.434 1.703 9229
0.759 2.313 1.623 1476
0.804 2.451 1.704 10672
0.765 2.329 1.624 1768
0.810 2.468 1.705 13135
0.770 2.346 1.626 2495
0.811 2.472 1.697 12514
0.771 2.350 1.619 1878
0.817 2.490 1.698 12392
0.777 2.367 1.620 1457
0.814 2.481 1.682 11718
0.774 2.359 1.605 1031
0.814 2.479 1.671 11718
0.815 2.483 1.663 9681
0.855 2.606 1.740 1087
0.816 2.487 1.656 7643
0.857 2.610 1.733 1509
0.824 2.511 1.660 6916
0.865 2.634 1.737 1798
0.830 2.528 1.661 7345
0.870 2.651 1.737 2091
0.831 2.532 1.653 6831
0.872 2.656 1.729 2011
0.837 2.550 1.654 5110
0.877 2.673 1.729 1384
0.851 2.593 1.669 5485
0.892 2.717 1.744 1279
0.878 2.676 1.709 5383
0.837 2.551 1.634 3098
0.880 2.680 1.701 8217
0.839 2.555 1.627 2749
0.879 2.678 1.689 9517
0.838 2.553 1.615 1938
0.878 2.675 1.677 11022
0.919 2.800 1.750 2396
0.880 2.680 1.669 8195
0.921 2.805 1.741 3006
0.874 2.664 1.649 5612
0.916 2.789 1.722 4386
0.871 2.655 1.633 4198
0.913 2.781 1.706 4128
0.908 2.765 1.686 5008
0.866 2.639 1.614 2567
0.907 2.763 1.674 6383
0.948 2.889 1.745 2390
0.908 2.767 1.665 5578
0.950 2.893 1.736 2872
0.942 2.871 1.713 5031
0.901 2.745 1.642 4443
0.944 2.875 1.704 6360
0.902 2.749 1.634 3459
0.939 2.860 1.684 5861
0.897 2.733 1.615 1572
0.960 2.924 1.709 4840
0.918 2.797 1.639 2049
0.937 2.855 1.660 3648
0.979 2.982 1.729 2069
0.941 2.866 1.655 3206
0.982 2.993 1.723 2365
0.944 2.876 1.650 3652
0.986 3.004 1.718 2078
0.950 2.894 1.648 4532
0.992 3.022 1.716 2384
0.984 2.999 1.693 6562
0.942 2.871 1.625 2749
0.988 3.010 1.687 7815
0.946 2.882 1.620 2422
0.989 3.014 1.678 6439
0.947 2.886 1.611 2041
1.002 3.052 1.686 5365
0.960 2.924 1.620 3791
1.010 3.077 1.688 6227
0.961 2.928 1.611 2990
1.007 3.068 1.671 5752
0.965 2.939 1.606 2291
1.008 3.072 1.662 9617
0.966 2.943 1.597 1782
1.012 3.083 1.656 13768
0.970 2.954 1.592 2505
1.016 3.094 1.650 15169
0.973 2.965 1.586 2502
1.019 3.105 1.644 13631
1.062 3.234 1.708 1726
1.025 3.123 1.642 10689
1.068 3.252 1.705 1362
1.029 3.134 1.635 11220
1.071 3.264 1.698 1156
1.032 3.145 1.629 11592
1.075 3.275 1.692 1442
1.036 3.156 1.623 8486
1.078 3.286 1.685 3751
1.069 3.256 1.659 8780
1.026 3.126 1.597 3111
1.070 3.260 1.649 10216
1.027 3.130 1.588 2544
1.074 3.271 1.643 9061
1.031 3.140 1.582 2080
1.080 3.289 1.639 7161
1.037 3.158 1.578 1003
1.092 3.328 1.645 5128
1.103 3.359 1.647 4881
1.109 3.377 1.644 4861
1.110 3.382 1.633 4362
1.120 3.413 1.635 4299
1.077 3.282 1.577 1113
1.122 3.418 1.625 6515
1.116 3.401 1.606 7127
1.160 3.533 1.663 2188
1.113 3.391 1.589 6153
1.156 3.523 1.647 2512
1.121 3.416 1.588 4725
1.165 3.548 1.645 1960
1.150 3.503 1.613 3687
1.106 3.371 1.557 1011
1.149 3.501 1.600 5625
1.150 3.505 1.589 8651
1.194 3.637 1.645 1735
1.152 3.509 1.579 7862
1.195 3.642 1.634 3149
1.194 3.639 1.620 5715
1.151 3.506 1.565 5217
1.193 3.636 1.606 5937
1.150 3.503 1.552 2971
1.185 3.612 1.584 5694
1.184 3.609 1.570 5720
1.228 3.742 1.624 2110
1.213 3.697 1.593 5807
1.170 3.563 1.539 2429
1.219 3.715 1.587 7198
1.175 3.581 1.534 1859
1.223 3.726 1.579 5534
1.267 3.860 1.631 1142
1.250 3.808 1.597 4165
1.253 3.819 1.589 5325
1.209 3.685 1.537 1246
1.259 3.837 1.582 6307
1.215 3.703 1.531 2021
1.265 3.855 1.576 7587
1.221 3.721 1.525 2338
1.269 3.866 1.567 6615
1.225 3.732 1.517 1363
1.263 3.849 1.548 4870
1.308 3.984 1.598 3377
1.276 3.888 1.549 5138
1.339 4.080 1.619 2447
1.282 3.906 1.542 6927
1.352 4.120 1.620 3324
1.290 3.932 1.538 4510
1.351 4.117 1.605 2996
1.317 4.014 1.554 4543
1.362 4.149 1.603 2825
1.356 4.132 1.582 5839
1.312 3.996 1.534 2427
1.355 4.129 1.567 7078
1.311 3.993 1.520 1667
1.359 4.140 1.557 6792
1.314 4.004 1.510 1447
1.362 4.151 1.547 7089
1.407 4.287 1.594 1031
1.364 4.155 1.535 4277
1.408 4.291 1.581 1864
1.421 4.331 1.580 3171
1.377 4.194 1.534 1577
1.418 4.320 1.562 3901
1.373 4.184 1.517 1843
1.417 4.317 1.546 4152
1.372 4.181 1.501 1820
1.425 4.342 1.540 3115
1.475 4.493 1.590 1986
1.434 4.368 1.534 3506
1.478 4.504 1.578 2039
1.468 4.472 1.553 4001
1.423 4.336 1.509 1747
1.472 4.484 1.542 3488
1.427 4.347 1.499 1510
1.480 4.509 1.535 3342
1.435 4.372 1.492 1629
1.484 4.520 1.524 3157
1.439 4.383 1.481 1587
1.537 4.683 1.559 3079
1.492 4.546 1.516 2013
1.538 4.687 1.544 4304
1.491 4.542 1.500 1130
1.540 4.691 1.530 3681
1.494 4.553 1.489 1584
1.512 4.608 1.490 4220
1.562 4.760 1.535 1828
1.535 4.676 1.495 3784
1.580 4.814 1.536 1923
1.539 4.687 1.483 5165
1.584 4.825 1.523 2649
1.545 4.706 1.473 5027
1.618 4.931 1.537 2311
1.584 4.826 1.492 4488
1.539 4.688 1.452 2168
1.592 4.851 1.483 4081
1.652 5.033 1.534 1412
1.613 4.913 1.484 4138
1.658 5.051 1.523 2953
1.611 4.909 1.467 4873
1.662 5.062 1.509 4334
1.663 5.066 1.494 4756
1.613 4.913 1.452 2948
1.664 5.070 1.478 3681
1.738 5.296 1.539 2533
1.675 5.103 1.471 2776
1.720 5.241 1.507 2303
1.746 5.318 1.510 3953
1.791 5.457 1.546 2081
1.749 5.329 1.496 5024
1.795 5.468 1.532 3659
1.772 5.399 1.497 5176
1.726 5.260 1.461 2424
1.776 5.410 1.482 3933
1.821 5.549 1.517 1690
1.789 5.450 1.475 4104
1.743 5.311 1.440 1613
1.792 5.461 1.460 2817
1.869 5.696 1.517 1384
1.876 5.714 1.503 2324
1.813 5.523 1.457 1638
1.877 5.718 1.486 2777
1.939 5.909 1.531 1661
1.878 5.722 1.468 2596
1.924 5.861 1.501 2280
1.882 5.733 1.453 2446
1.954 5.953 1.504 1805
1.900 5.788 1.447 2134
1.958 5.964 1.487 2059
1.944 5.924 1.459 2441
2.022 6.159 1.512 1352
1.945 5.927 1.441 2203
2.006 6.111 1.482 1937
2.002 6.100 1.460 2301
1.956 5.960 1.429 1674
1.996 6.082 1.437 1747
2.078 6.332 1.490 1378
2.084 6.351 1.474 2136
2.034 6.196 1.441 1555
2.093 6.377 1.460 3520
2.035 6.200 1.423 1515
2.097 6.388 1.442 3578
2.169 6.609 1.487 1820
2.132 6.495 1.443 2097
2.229 6.790 1.503 1683
2.308 7.030 1.529 2153
2.167 6.602 1.444 1748
2.314 7.049 1.511 2385
2.260 6.886 1.479 1793
2.317 7.060 1.491 2405
2.259 6.883 1.456 1923
2.255 6.871 1.433 2031
2.319 7.064 1.469 1950
2.320 7.068 1.448 2334
2.254 6.868 1.410 1836
2.318 7.064 1.425 2502
2.408 7.338 1.475 1541
2.407 7.334 1.451 2343
2.361 7.193 1.426 1666
2.406 7.330 1.428 2476
2.550 7.768 1.505 2419
2.551 7.772 1.481 2647
2.371 7.223 1.386 2441
2.547 7.761 1.455 2026
2.411 7.345 1.384 1803
2.524 7.690 1.419 2007
2.614 7.965 1.465 1431
2.523 7.686 1.394 2195
2.615 7.968 1.441 1297
2.526 7.697 1.372 1362
2.646 8.061 1.431 1140
2.628 8.005 1.397 1254
2.679 8.162 1.421 1127
2.780 8.470 1.444 1009
2.626 8.001 1.371 1002
2.884 8.786 1.465 1344
2.955 9.002 1.498 1198
2.956 9.006 1.471 1524
2.888 8.797 1.440 1452
2.894 8.816 1.415 1424
2.957 9.010 1.443 1276
2.895 8.819 1.388 1350
2.958 9.013 1.416 1163
2.893 8.815 1.360 1176
2.960 9.017 1.388 1103
2.890 8.804 1.331 1226
2.961 9.020 1.360 1104
2.888 8.800 1.303 1303
0.708 2.136 1.713 5539
0.709 2.140 1.706 11078
0.671 2.024 1.619 1703
0.711 2.144 1.700 11078
0.672 2.028 1.613 1703
0.714 2.155 1.698 8270
0.753 2.272 1.785 1635
0.716 2.159 1.691 5502
0.755 2.276 1.778 2157
0.717 2.164 1.685 5249
0.756 2.281 1.771 2436
0.743 2.242 1.733 5649
0.704 2.125 1.647 2182
0.745 2.246 1.726 5649
0.706 2.129 1.641 2303
0.748 2.257 1.723 6625
0.709 2.139 1.639 3097
0.752 2.268 1.721 8064
0.713 2.149 1.637 4004
0.753 2.272 1.714 7490
0.714 2.154 1.630 3704
0.755 2.276 1.707 6916
0.715 2.158 1.624 3404
0.754 2.274 1.696 5387
0.715 2.156 1.613 2044
0.753 2.272 1.685 4068
0.795 2.398 1.772 1675
0.761 2.296 1.691 3089
0.801 2.415 1.774 1539
0.775 2.338 1.710 3578
0.783 2.361 1.716 3622
0.784 2.365 1.709 3798
0.786 2.370 1.702 3960
0.800 2.412 1.720 3720
0.760 2.292 1.640 1128
0.801 2.416 1.713 3567
0.761 2.296 1.633 1009
0.805 2.427 1.710 6374
0.765 2.306 1.630 1135
0.806 2.431 1.703 9253
0.766 2.310 1.623 1117
0.812 2.448 1.704 10966
0.771 2.327 1.624 1177
0.817 2.466 1.705 13738
0.777 2.344 1.626 1511
0.821 2.476 1.701 12547
0.781 2.355 1.623 1401
0.825 2.487 1.698 11968
0.784 2.365 1.620 1112
0.824 2.485 1.686 10891
0.783 2.363 1.609 1006
0.821 2.476 1.671 10542
0.822 2.481 1.663 8758
0.863 2.603 1.740 1205
0.824 2.485 1.656 6973
0.864 2.608 1.733 1633
0.832 2.508 1.660 6174
0.872 2.632 1.737 2047
0.835 2.519 1.657 6183
0.876 2.642 1.733 2701
0.839 2.530 1.653 5779
0.880 2.653 1.729 2482
0.866 2.612 1.693 5440
0.859 2.590 1.669 5445
0.900 2.714 1.744 1102
0.886 2.673 1.709 5618
0.845 2.549 1.634 2890
0.888 2.677 1.701 8253
0.846 2.553 1.627 2659
0.889 2.682 1.692 9134
0.848 2.557 1.619 2318
0.888 2.679 1.681 10230
0.930 2.804 1.754 1822
0.887 2.677 1.669 7486
0.929 2.802 1.741 2794
0.887 2.675 1.657 4777
0.928 2.800 1.729 3720
0.895 2.699 1.660 3540
0.936 2.824 1.732 3172
0.914 2.756 1.682 4773
0.955 2.881 1.754 1825
0.915 2.760 1.674 6510
0.957 2.886 1.745 2231
0.916 2.764 1.665 5802
0.958 2.890 1.736 2506
0.920 2.775 1.661 5148
0.962 2.901 1.731 2197
0.952 2.872 1.704 5241
0.910 2.746 1.634 3363
0.962 2.903 1.710 5217
0.916 2.764 1.633 1986
0.968 2.921 1.709 4958
0.926 2.794 1.639 2117
0.948 2.859 1.663 4026
0.990 2.985 1.732 1768
0.951 2.869 1.658 3461
0.993 2.997 1.727 2184
0.979 2.954 1.693 4021
0.937 2.827 1.625 1826
0.990 2.985 1.698 4486
0.947 2.858 1.630 2535
0.993 2.996 1.693 7071
0.951 2.869 1.625 2210
0.995 3.000 1.684 8409
0.952 2.873 1.617 1822
0.998 3.011 1.678 6695
0.956 2.883 1.611 2307
1.009 3.043 1.683 5966
0.966 2.915 1.617 4071
1.017 3.067 1.684 6629
0.972 2.932 1.615 3715
1.016 3.065 1.671 6739
0.973 2.936 1.606 2690
1.020 3.076 1.665 9827
0.977 2.947 1.600 1940
1.023 3.087 1.660 13040
0.981 2.958 1.595 2526
1.025 3.091 1.650 14366
0.982 2.962 1.586 2007
1.028 3.102 1.644 12704
1.071 3.231 1.708 1944
1.034 3.120 1.642 10432
1.040 3.138 1.639 12003
1.044 3.149 1.633 12237
1.091 3.292 1.702 1329
1.045 3.153 1.623 8775
1.088 3.283 1.685 3644
1.078 3.253 1.659 7907
1.035 3.123 1.597 3114
1.080 3.257 1.649 9548
1.036 3.127 1.588 2588
1.083 3.268 1.643 8523
1.040 3.137 1.582 2210
1.089 3.286 1.639 6663
1.046 3.155 1.578 1097
1.102 3.324 1.645 4684
1.113 3.356 1.647 4419
1.069 3.225 1.588 1191
1.116 3.367 1.640 4539
1.073 3.236 1.581 1166
1.120 3.378 1.633 4040
1.076 3.247 1.574 1142
1.130 3.410 1.635 3915
1.087 3.279 1.577 1486
1.132 3.414 1.625 5692
1.126 3.397 1.606 6025
1.170 3.529 1.663 2199
1.123 3.388 1.589 4751
1.167 3.520 1.647 2603
1.131 3.413 1.588 3474
1.175 3.545 1.645 2390
1.160 3.500 1.613 3569
1.159 3.497 1.600 6342
1.203 3.630 1.656 1192
1.161 3.501 1.589 9651
1.205 3.634 1.645 2304
1.162 3.505 1.579 8307
1.206 3.638 1.634 3849
1.203 3.628 1.617 6774
1.159 3.495 1.562 5710
1.204 3.632 1.606 6507
1.160 3.499 1.552 3737
1.198 3.615 1.587 5958
1.154 3.482 1.532 1122
1.200 3.619 1.576 5851
1.244 3.753 1.629 1381
1.222 3.686 1.590 5851
1.178 3.553 1.537 1821
1.228 3.704 1.584 6688
1.184 3.571 1.531 1722
1.232 3.716 1.576 5200
1.276 3.849 1.628 1454
1.259 3.797 1.595 4100
1.269 3.829 1.594 4256
1.225 3.695 1.542 1167
1.275 3.847 1.588 6006
1.231 3.713 1.537 2046
1.279 3.858 1.579 7811
1.235 3.724 1.528 2279
1.278 3.855 1.564 6769
1.323 3.990 1.615 1093
1.272 3.838 1.545 5447
1.319 3.980 1.598 2395
1.285 3.877 1.546 4792
1.351 4.076 1.619 3018
1.296 3.910 1.545 6599
1.364 4.116 1.620 3787
1.302 3.928 1.538 4741
1.368 4.127 1.610 3261
1.365 4.117 1.592 3892
1.320 3.981 1.544 2792
1.368 4.128 1.582 6669
1.324 3.992 1.534 2518
1.367 4.125 1.567 7977
1.322 3.989 1.520 1819
1.369 4.129 1.555 6441
1.324 3.993 1.508 1331
1.379 4.161 1.552 5806
1.334 4.025 1.505 1003
1.383 4.172 1.542 3323
1.428 4.308 1.588 1521
1.437 4.333 1.582 2871
1.392 4.197 1.536 1734
1.398 4.216 1.528 3090
1.443 4.352 1.574 2461
1.430 4.313 1.546 3605
1.385 4.176 1.501 2047
1.433 4.324 1.536 2972
1.486 4.482 1.587 2095
1.480 4.464 1.567 3628
1.435 4.328 1.523 2244
1.481 4.468 1.553 5216
1.436 4.331 1.509 1788
1.485 4.479 1.542 4194
1.440 4.342 1.499 1474
1.496 4.512 1.537 2837
1.450 4.375 1.494 1660
1.523 4.595 1.548 2948
1.466 4.422 1.494 2625
1.548 4.671 1.556 3222
1.472 4.440 1.485 1514
1.550 4.675 1.542 4840
1.497 4.516 1.494 1284
1.551 4.679 1.528 4109
1.506 4.541 1.487 1480
1.526 4.603 1.490 4786
1.588 4.791 1.546 2124
1.537 4.636 1.485 3415
1.582 4.773 1.525 2922
1.552 4.683 1.483 4674
1.598 4.821 1.523 2720
1.558 4.701 1.473 5020
1.604 4.839 1.512 2166
1.598 4.821 1.492 4329
1.552 4.683 1.452 2052
1.604 4.839 1.481 3678
1.672 5.042 1.538 2084
1.670 5.039 1.521 4295
1.625 4.901 1.482 3306
1.672 5.043 1.505 4543
1.624 4.897 1.465 4461
1.678 5.061 1.494 3676
1.627 4.908 1.452 2833
1.684 5.079 1.482 3385
1.752 5.283 1.537 2928
1.685 5.083 1.467 3298
1.750 5.280 1.519 3044
1.759 5.306 1.508 3029
1.682 5.072 1.448 2849
1.789 5.397 1.515 3876
1.743 5.258 1.479 2140
1.788 5.394 1.497 5274
1.742 5.255 1.461 2020
1.794 5.412 1.484 4642
1.748 5.273 1.449 1722
1.803 5.438 1.473 4977
1.757 5.299 1.438 1590
1.804 5.441 1.456 2978
1.881 5.675 1.513 1765
1.890 5.701 1.501 2539
1.834 5.533 1.461 1584
1.889 5.698 1.482 2854
1.843 5.558 1.449 1646
1.892 5.709 1.467 2720
1.939 5.848 1.499 1815
1.896 5.720 1.451 2667
1.972 5.947 1.504 1426
1.910 5.760 1.442 2064
1.963 5.922 1.479 1671
1.962 5.918 1.459 2155
2.045 6.168 1.515 1498
1.997 6.024 1.464 2083
2.043 6.164 1.495 1796
2.011 6.065 1.453 2332
2.062 6.219 1.487 1532
2.014 6.076 1.437 2089
2.095 6.319 1.489 1469
2.103 6.345 1.474 2036
2.037 6.146 1.432 1516
2.114 6.378 1.461 3568
2.190 6.606 1.509 1592
2.116 6.381 1.442 3751
2.191 6.610 1.489 2258
2.188 6.599 1.466 2033
2.117 6.385 1.422 2021
2.331 7.031 1.531 1673
2.228 6.721 1.469 1612
2.335 7.042 1.511 1771
2.281 6.880 1.479 1674
2.282 6.883 1.458 1841
2.196 6.625 1.408 1699
2.276 6.865 1.433 1970
2.337 7.050 1.468 1524
2.338 7.053 1.446 2112
2.274 6.861 1.410 1752
2.339 7.057 1.425 2331
2.430 7.331 1.475 1715
2.431 7.334 1.453 2396
2.382 7.186 1.426 1551
2.386 7.197 1.405 2239
2.452 7.397 1.441 2136
2.574 7.764 1.481 2318
2.392 7.216 1.386 2270
2.570 7.753 1.455 1994
2.457 7.412 1.397 1662
2.544 7.675 1.418 2143
2.675 8.068 1.484 1170
2.543 7.671 1.393 2422
2.671 8.057 1.457 1036
2.549 7.689 1.372 1592
2.667 8.046 1.429 1182
2.651 7.997 1.397 1253
2.708 8.168 1.424 1060
2.805 8.462 1.444 1110
2.909 8.774 1.492 1102
2.910 8.778 1.465 1305
2.804 8.458 1.417 1130
2.919 8.804 1.442 1490
2.983 8.997 1.471 1110
2.922 8.815 1.416 1754
2.984 9.001 1.443 1092
2.921 8.811 1.388 1902
2.985 9.004 1.416 1091
2.920 8.807 1.360 1834
2.986 9.008 1.388 1013
2.913 8.788 1.330 1899
2.912 8.784 1.302 1800
2.915 8.794 1.276 1080
0.715 2.134 1.713 5160
0.716 2.138 1.706 10320
0.677 2.022 1.619 1648
0.717 2.142 1.700 10320
0.679 2.026 1.613 1648
0.719 2.147 1.693 7747
0.758 2.263 1.780 2236
0.722 2.157 1.691 5229
0.762 2.274 1.778 2652
0.722 2.155 1.680 4949
0.761 2.272 1.766 2955
0.748 2.234 1.728 4745
0.709 2.116 1.642 1989
0.725 2.164 1.667 4753
0.764 2.281 1.753 2999
0.726 2.168 1.661 5587
0.766 2.286 1.746 4108
0.759 2.265 1.721 7029
0.719 2.147 1.637 4218
0.760 2.270 1.714 6925
0.721 2.151 1.630 3939
0.762 2.274 1.707 6821
0.722 2.156 1.624 3660
0.761 2.272 1.696 5533
0.721 2.153 1.613 2261
0.760 2.270 1.685 4345
0.800 2.389 1.768 1428
0.764 2.281 1.683 2858
0.804 2.400 1.765 1426
0.791 2.360 1.728 2997
0.738 2.203 1.619 1259
0.792 2.365 1.721 3554
0.737 2.201 1.608 1092
0.796 2.375 1.718 3713
0.808 2.411 1.732 4353
0.809 2.416 1.725 4395
0.815 2.433 1.726 4535
0.774 2.312 1.645 1041
0.812 2.425 1.710 6799
0.813 2.429 1.703 9161
0.821 2.452 1.708 11024
0.825 2.463 1.705 13949
0.784 2.342 1.626 1403
0.829 2.474 1.701 12254
0.788 2.352 1.623 1476
0.832 2.485 1.698 11224
0.789 2.356 1.616 1342
0.831 2.482 1.686 9604
0.791 2.360 1.609 1082
0.831 2.480 1.675 8676
0.832 2.485 1.667 7236
0.873 2.607 1.744 1076
0.834 2.489 1.660 5796
0.875 2.611 1.737 1503
0.839 2.506 1.660 5037
0.880 2.629 1.737 2374
0.845 2.523 1.661 4764
0.886 2.646 1.737 2776
0.875 2.612 1.705 5408
0.833 2.488 1.629 2034
0.876 2.616 1.697 6240
0.867 2.588 1.669 5202
0.908 2.711 1.744 1213
0.894 2.670 1.709 5847
0.853 2.546 1.634 2645
0.898 2.681 1.704 8275
0.856 2.557 1.630 3161
0.897 2.679 1.692 8772
0.856 2.554 1.619 2069
0.896 2.677 1.681 9420
0.938 2.801 1.754 1408
0.898 2.681 1.672 6811
0.940 2.806 1.745 2372
0.897 2.679 1.661 4231
0.939 2.804 1.733 3436
0.943 2.815 1.728 3851
0.901 2.689 1.656 3377
0.920 2.746 1.678 4598
0.962 2.872 1.750 2340
0.926 2.764 1.677 6461
0.968 2.889 1.749 1783
0.929 2.775 1.673 5933
0.887 2.649 1.602 1764
0.931 2.779 1.664 5444
0.973 2.905 1.735 1494
0.963 2.876 1.708 4122
0.921 2.750 1.638 3372
0.974 2.907 1.714 5103
0.927 2.767 1.637 2127
0.977 2.918 1.709 5053
0.935 2.791 1.639 2424
0.956 2.856 1.663 5168
0.999 2.982 1.732 1865
0.960 2.867 1.658 4998
1.003 2.993 1.727 2502
0.984 2.938 1.686 5296
0.941 2.811 1.617 1719
0.990 2.955 1.684 5043
0.947 2.828 1.616 1706
1.002 2.993 1.693 6950
0.960 2.866 1.625 1996
1.004 2.997 1.684 8175
0.961 2.870 1.617 2151
1.003 2.995 1.671 6303
0.960 2.867 1.604 1588
1.018 3.040 1.683 6237
0.975 2.912 1.617 4669
1.024 3.057 1.681 7199
0.981 2.929 1.615 4654
1.025 3.062 1.671 7644
0.982 2.933 1.606 3084
1.029 3.073 1.665 9743
1.072 3.201 1.731 1593
1.033 3.084 1.660 11685
1.076 3.212 1.724 1987
1.036 3.095 1.654 12924
1.080 3.224 1.718 2465
1.038 3.099 1.644 11296
1.081 3.228 1.708 2481
1.046 3.123 1.645 10039
1.089 3.253 1.708 1165
1.052 3.141 1.642 12766
1.009 3.012 1.579 1089
1.053 3.145 1.633 12858
1.097 3.275 1.695 1510
1.057 3.156 1.626 9149
1.101 3.286 1.689 3273
1.091 3.256 1.662 6631
1.047 3.126 1.600 3166
1.090 3.254 1.649 8218
1.046 3.123 1.588 2191
1.093 3.265 1.643 7314
1.050 3.134 1.582 1949
1.099 3.282 1.639 5540
1.056 3.152 1.578 1073
1.112 3.321 1.645 4561
1.068 3.190 1.585 1099
1.118 3.339 1.641 4465
1.074 3.208 1.581 1152
1.122 3.350 1.634 5025
1.078 3.219 1.575 1008
1.126 3.361 1.627 4078
1.139 3.400 1.632 3933
1.095 3.268 1.574 1617
1.142 3.411 1.625 4831
1.139 3.401 1.609 4791
1.183 3.533 1.666 1870
1.136 3.391 1.592 3611
1.180 3.523 1.650 2491
1.170 3.492 1.624 3736
1.180 3.524 1.625 4067
1.136 3.392 1.569 1510
1.170 3.494 1.600 7050
1.214 3.626 1.656 1341
1.171 3.498 1.589 10251
1.216 3.630 1.645 2977
1.173 3.502 1.579 8671
1.217 3.634 1.634 5216
1.214 3.624 1.617 8975
1.169 3.492 1.562 5898
1.218 3.635 1.609 7978
1.173 3.503 1.555 4065
1.214 3.626 1.592 6716
1.170 3.492 1.538 1527
1.216 3.630 1.581 6831
1.260 3.763 1.635 1264
1.226 3.662 1.582 5955
1.271 3.795 1.635 1410
1.237 3.694 1.582 5731
1.192 3.560 1.529 1588
1.243 3.712 1.576 4612
1.288 3.845 1.628 1596
1.263 3.772 1.586 4097
1.286 3.839 1.600 3905
1.241 3.706 1.548 1370
1.292 3.858 1.593 6137
1.247 3.724 1.542 2044
1.291 3.855 1.579 7470
1.246 3.720 1.528 1597
1.288 3.844 1.562 6479
1.282 3.827 1.542 5813
1.353 4.039 1.621 2324
1.297 3.873 1.546 4224
1.366 4.079 1.622 3640
1.313 3.920 1.550 6546
1.375 4.104 1.617 4630
1.314 3.924 1.538 4723
1.381 4.123 1.610 3760
1.382 4.127 1.597 3572
1.337 3.992 1.549 3018
1.381 4.124 1.582 5704
1.336 3.988 1.534 2464
1.380 4.120 1.567 6305
1.335 3.985 1.520 1813
1.386 4.139 1.560 5902
1.341 4.003 1.513 1501
1.390 4.150 1.550 5212
1.435 4.285 1.596 1014
1.410 4.211 1.557 3079
1.456 4.346 1.603 1221
1.416 4.229 1.549 2946
1.462 4.365 1.594 1628
1.413 4.219 1.531 3600
1.458 4.354 1.576 2104
1.409 4.208 1.513 3377
1.455 4.344 1.558 2487
1.444 4.312 1.533 3435
1.499 4.477 1.587 2199
1.494 4.460 1.567 4417
1.448 4.323 1.523 2957
1.495 4.463 1.553 6395
1.449 4.327 1.509 2247
1.499 4.475 1.542 4627
1.453 4.338 1.499 1498
1.512 4.514 1.540 2574
1.466 4.378 1.497 1312
1.537 4.590 1.548 2922
1.479 4.417 1.494 2051
1.560 4.659 1.554 3384
1.515 4.522 1.512 1626
1.562 4.663 1.540 4985
1.511 4.511 1.494 1609
1.563 4.667 1.526 4038
1.517 4.530 1.484 1467
1.540 4.598 1.490 4731
1.603 4.786 1.546 2337
1.549 4.624 1.482 3640
1.595 4.761 1.523 3383
1.596 4.765 1.508 3917
1.550 4.627 1.468 2672
1.573 4.696 1.473 4310
1.619 4.834 1.512 1674
1.610 4.809 1.490 3589
1.657 4.946 1.529 2185
1.619 4.834 1.481 3267
1.685 5.030 1.536 2614
1.686 5.034 1.521 4690
1.635 4.881 1.478 3433
1.685 5.030 1.503 4659
1.636 4.885 1.463 4144
1.681 5.020 1.484 3430
1.635 4.882 1.447 2188
1.768 5.278 1.537 3279
1.690 5.045 1.475 2889
1.767 5.275 1.519 4241
1.693 5.056 1.461 3953
1.697 5.067 1.448 3948
1.768 5.278 1.503 3329
1.801 5.377 1.511 3657
1.703 5.085 1.436 2348
1.802 5.381 1.495 4837
1.849 5.519 1.530 2170
1.811 5.406 1.484 4859
1.764 5.268 1.449 1770
1.817 5.425 1.471 5300
1.866 5.571 1.507 1653
1.818 5.428 1.454 2869
1.904 5.684 1.517 1957
1.907 5.695 1.501 2496
1.856 5.542 1.464 1752
1.904 5.684 1.481 2771
1.857 5.545 1.447 1945
1.908 5.696 1.465 2685
1.954 5.835 1.498 1340
1.916 5.721 1.453 2655
2.007 5.992 1.515 1096
1.922 5.739 1.438 1843
2.013 6.011 1.501 1832
2.014 6.015 1.482 2710
2.064 6.161 1.515 1801
2.016 6.018 1.464 2590
2.062 6.158 1.495 2463
2.027 6.051 1.452 2459
2.073 6.191 1.482 1711
2.035 6.077 1.438 2551
2.112 6.305 1.487 1643
2.118 6.323 1.471 2116
2.046 6.110 1.426 1905
2.134 6.371 1.461 3281
2.213 6.607 1.510 2096
2.135 6.375 1.442 3628
2.212 6.603 1.489 2984
2.210 6.600 1.467 2520
2.136 6.379 1.422 2068
2.209 6.596 1.445 1624
2.256 6.736 1.473 1289
2.208 6.592 1.424 1411
2.297 6.858 1.476 1358
2.214 6.610 1.406 1835
2.305 6.884 1.459 1622
2.304 6.880 1.437 1757
2.215 6.614 1.386 1531
2.347 7.009 1.439 2349
2.295 6.854 1.410 1454
2.361 7.050 1.425 2181
2.453 7.323 1.475 1700
2.456 7.334 1.454 2471
2.357 7.038 1.400 1612
2.472 7.382 1.439 2120
2.406 7.183 1.404 1826
2.417 7.216 1.387 1889
2.479 7.401 1.419 1882
2.572 7.678 1.444 2114
2.482 7.412 1.398 1519
2.565 7.660 1.416 2349
2.488 7.430 1.378 1191
2.567 7.663 1.393 2560
2.616 7.812 1.417 1152
2.570 7.674 1.371 1725
2.692 8.038 1.429 1298
2.688 8.026 1.403 1293
2.934 8.761 1.519 1046
2.936 8.765 1.492 1294
2.831 8.453 1.444 1131
2.939 8.776 1.466 1560
2.830 8.449 1.417 1160
2.943 8.787 1.441 2137
2.944 8.791 1.414 2707
2.945 8.794 1.387 2929
3.013 8.995 1.416 1002
2.944 8.790 1.359 2818
2.940 8.779 1.330 2732
2.939 8.775 1.302 2265
2.942 8.785 1.276 1270
0.721 2.131 1.713 4754
0.722 2.136 1.706 9509
0.679 2.008 1.610 1732
0.724 2.140 1.700 9509
0.680 2.012 1.604 1732
0.725 2.144 1.693 7168
0.765 2.261 1.780 2393
0.729 2.155 1.691 4871
0.768 2.272 1.778 2818
0.728 2.153 1.680 4680
0.768 2.270 1.766 3164
0.728 2.151 1.669 4646
0.767 2.268 1.755 3399
0.729 2.155 1.663 4628
0.769 2.273 1.748 3399
0.732 2.166 1.661 5096
0.772 2.283 1.746 4198
0.767 2.269 1.726 6306
0.728 2.151 1.641 4590
0.767 2.267 1.714 6356
0.727 2.149 1.630 3767
0.768 2.272 1.707 6470
0.728 2.153 1.624 3534
0.768 2.270 1.696 5550
0.728 2.151 1.613 2212
0.767 2.268 1.685 4649
0.811 2.399 1.777 1182
0.771 2.278 1.683 3039
0.730 2.159 1.600 1195
0.798 2.358 1.728 2872
0.747 2.207 1.624 1471
0.799 2.362 1.721 3394
0.748 2.211 1.617 1343
0.803 2.373 1.718 3454
0.745 2.203 1.602 1246
0.815 2.409 1.732 4758
0.749 2.213 1.600 1246
0.818 2.420 1.729 5025
0.778 2.300 1.648 1266
0.822 2.430 1.726 5462
0.781 2.310 1.645 1651
0.821 2.429 1.714 6955
0.781 2.308 1.634 1487
0.819 2.420 1.699 8752
0.778 2.299 1.619 1130
0.829 2.450 1.708 10558
0.788 2.329 1.629 1467
0.832 2.461 1.705 13343
0.791 2.339 1.626 1248
0.836 2.471 1.701 11340
0.839 2.482 1.698 9977
0.839 2.480 1.686 7947
0.836 2.471 1.671 6685
0.839 2.482 1.667 5863
0.881 2.604 1.744 1006
0.841 2.486 1.660 5059
0.882 2.609 1.737 1457
0.844 2.497 1.656 4357
0.886 2.620 1.733 2901
0.881 2.605 1.713 5264
0.839 2.482 1.637 2445
0.882 2.609 1.705 5997
0.841 2.486 1.629 1731
0.886 2.620 1.701 6802
0.885 2.618 1.689 4906
0.904 2.674 1.713 5782
0.863 2.550 1.638 3276
0.906 2.678 1.704 7853
0.864 2.554 1.630 3041
0.905 2.676 1.692 8122
0.863 2.552 1.619 1816
0.904 2.674 1.681 8493
0.946 2.798 1.754 1007
0.906 2.678 1.672 6164
0.948 2.803 1.745 2155
0.907 2.682 1.664 3836
0.949 2.807 1.737 3303
0.951 2.812 1.728 4326
0.909 2.687 1.656 3207
0.944 2.790 1.705 5258
0.897 2.651 1.625 1351
0.941 2.781 1.689 6445
0.898 2.655 1.617 1524
0.940 2.778 1.677 5861
0.897 2.653 1.606 1535
0.941 2.783 1.668 5346
0.984 2.909 1.739 1359
0.947 2.800 1.667 3806
0.990 2.926 1.737 2170
0.982 2.904 1.714 4935
0.935 2.765 1.637 2295
0.959 2.835 1.665 4927
1.002 2.962 1.734 1882
0.965 2.853 1.663 6148
1.008 2.979 1.732 1854
0.969 2.864 1.658 6349
1.011 2.990 1.727 2656
0.990 2.928 1.682 6179
0.947 2.801 1.614 1539
0.996 2.946 1.680 5484
0.953 2.818 1.613 1674
1.009 2.983 1.689 6287
0.966 2.856 1.622 1583
1.010 2.988 1.680 7209
0.967 2.860 1.613 1729
1.007 2.979 1.664 5979
1.051 3.106 1.731 2046
0.997 2.949 1.638 6522
1.041 3.077 1.704 4749
1.033 3.054 1.681 7092
0.990 2.926 1.615 5018
1.034 3.059 1.671 7718
0.991 2.930 1.606 3173
1.038 3.070 1.665 9154
1.082 3.198 1.731 1701
1.042 3.081 1.660 10187
1.085 3.209 1.724 2157
1.046 3.092 1.654 11441
1.089 3.220 1.718 2700
1.047 3.096 1.644 10112
1.091 3.225 1.708 2789
1.060 3.134 1.652 10148
1.016 3.005 1.588 1434
1.061 3.138 1.642 13067
1.018 3.009 1.579 1106
1.063 3.142 1.633 12892
1.107 3.272 1.695 1744
1.066 3.153 1.626 9167
1.110 3.283 1.689 3030
1.079 3.191 1.633 5396
1.123 3.321 1.695 1122
1.097 3.243 1.646 6534
1.053 3.113 1.585 1414
1.101 3.254 1.639 5721
1.057 3.124 1.578 1329
1.111 3.286 1.642 4129
1.067 3.156 1.582 1035
1.122 3.318 1.645 4204
1.078 3.187 1.585 1159
1.123 3.322 1.635 4896
1.079 3.191 1.575 1015
1.125 3.326 1.625 5819
1.131 3.344 1.621 4611
1.146 3.389 1.629 4329
1.102 3.258 1.571 1530
1.152 3.407 1.625 4329
1.108 3.276 1.567 1091
1.151 3.404 1.612 3859
1.196 3.536 1.670 1399
1.150 3.402 1.598 3247
1.195 3.533 1.656 1805
1.178 3.482 1.621 4270
1.179 3.486 1.610 4373
1.180 3.490 1.600 6898
1.225 3.622 1.656 1318
1.182 3.494 1.589 9638
1.227 3.626 1.645 3096
1.183 3.498 1.579 8295
1.228 3.631 1.634 5886
1.225 3.621 1.617 10324
1.180 3.488 1.562 5465
1.231 3.639 1.612 9341
1.186 3.506 1.557 3641
1.227 3.629 1.595 7429
1.182 3.496 1.541 1641
1.226 3.626 1.581 7258
1.271 3.759 1.635 1377
1.235 3.651 1.579 5732
1.280 3.784 1.632 1651
1.248 3.690 1.582 4713
1.203 3.557 1.529 1617
1.254 3.708 1.576 3915
1.299 3.842 1.628 1521
1.270 3.754 1.581 3771
1.302 3.850 1.605 4100
1.257 3.716 1.553 2342
1.303 3.854 1.593 6005
1.258 3.720 1.542 2077
1.302 3.851 1.579 6544
1.257 3.717 1.528 1565
1.297 3.833 1.559 5892
1.356 4.010 1.626 1052
1.293 3.823 1.542 5569
1.365 4.035 1.621 2361
1.326 3.919 1.565 4677
1.381 4.082 1.625 3443
1.324 3.916 1.550 6447
1.387 4.100 1.617 4762
1.326 3.920 1.538 4417
1.391 4.111 1.607 3773
1.358 4.016 1.559 3400
1.404 4.151 1.608 2441
1.396 4.127 1.585 4696
1.350 3.992 1.537 2233
1.387 4.102 1.562 4738
1.342 3.967 1.515 1403
1.401 4.142 1.562 3903
1.355 4.006 1.515 1430
1.409 4.167 1.557 4375
1.364 4.031 1.510 1092
1.423 4.207 1.557 3396
1.377 4.071 1.510 1199
1.429 4.225 1.549 3375
1.475 4.360 1.594 1480
1.425 4.214 1.531 4427
1.471 4.350 1.576 2079
1.424 4.211 1.516 4060
1.470 4.347 1.561 2630
1.457 4.308 1.533 3581
1.503 4.444 1.578 2051
1.504 4.448 1.564 4603
1.458 4.312 1.520 3398
1.508 4.459 1.553 6809
1.460 4.316 1.507 2683
1.512 4.470 1.542 4650
1.466 4.334 1.499 1590
1.528 4.517 1.542 2443
1.479 4.373 1.497 1312
1.549 4.578 1.546 2961
1.488 4.399 1.490 1914
1.574 4.654 1.554 3744
1.521 4.496 1.505 1809
1.575 4.658 1.540 4936
1.524 4.507 1.494 1619
1.577 4.662 1.526 3659
1.523 4.503 1.478 1376
1.554 4.594 1.490 3968
1.617 4.781 1.546 2089
1.562 4.619 1.482 3595
1.609 4.756 1.523 3439
1.608 4.753 1.506 4034
1.561 4.616 1.466 2514
1.619 4.786 1.500 3727
1.572 4.648 1.460 1794
1.622 4.797 1.487 3042
1.669 4.934 1.527 2050
1.670 4.938 1.512 2759
1.624 4.800 1.473 1875
1.701 5.029 1.521 3858
1.649 4.877 1.478 3511
1.705 5.040 1.507 4176
1.651 4.880 1.463 3341
1.716 5.073 1.500 3560
1.657 4.898 1.452 1547
1.717 5.076 1.484 3659
1.781 5.265 1.535 3339
1.780 5.262 1.517 4684
1.711 5.058 1.463 4391
1.712 5.062 1.448 3787
1.779 5.259 1.499 3532
1.817 5.372 1.511 3306
1.718 5.080 1.436 2439
1.818 5.375 1.495 3784
1.865 5.514 1.530 2147
1.827 5.401 1.484 4024
1.780 5.262 1.449 1938
1.833 5.419 1.471 4512
1.885 5.573 1.509 1970
1.814 5.364 1.440 2499
1.888 5.584 1.494 2340
1.917 5.668 1.496 2341
1.870 5.529 1.463 2137
1.921 5.679 1.481 2603
1.866 5.518 1.442 2072
1.897 5.609 1.446 2725
1.944 5.748 1.479 1872
1.933 5.715 1.453 2543
2.025 5.986 1.515 1396
2.026 5.990 1.497 2272
1.939 5.734 1.438 1617
2.032 6.009 1.482 2917
2.082 6.155 1.515 1935
2.081 6.152 1.495 2711
2.033 6.012 1.464 2645
2.077 6.141 1.473 2504
2.030 6.001 1.442 1750
2.058 6.086 1.441 2988
2.130 6.299 1.487 1743
2.137 6.317 1.471 2277
2.064 6.104 1.426 2196
2.153 6.365 1.461 2896
2.232 6.600 1.510 2431
2.234 6.604 1.490 3494
2.154 6.369 1.442 3373
2.232 6.600 1.469 3166
2.158 6.380 1.424 2066
2.236 6.611 1.450 2250
2.298 6.796 1.487 1434
2.235 6.608 1.428 1705
2.305 6.814 1.469 1554
2.234 6.604 1.406 1780
2.296 6.788 1.442 1761
2.365 6.991 1.459 1728
2.295 6.784 1.420 1638
2.366 6.995 1.438 2515
2.413 7.135 1.464 1307
2.367 6.998 1.417 2114
2.474 7.316 1.475 1752
2.481 7.334 1.455 2517
2.378 7.031 1.400 1806
2.489 7.360 1.437 2354
2.374 7.020 1.376 1688
2.573 7.608 1.457 1892
2.501 7.393 1.419 1778
2.592 7.663 1.442 2159
2.507 7.412 1.399 1407
2.583 7.637 1.414 2393
2.631 7.778 1.438 1248
2.587 7.648 1.392 2473
2.639 7.804 1.417 1170
2.590 7.659 1.370 1714
2.718 8.037 1.431 1381
2.714 8.026 1.404 1374
2.958 8.745 1.518 1150
2.964 8.764 1.493 1525
2.701 7.985 1.372 1148
2.968 8.775 1.468 2087
2.855 8.441 1.417 1109
2.969 8.779 1.441 2933
2.968 8.775 1.413 3629
2.969 8.778 1.386 3783
2.970 8.782 1.359 3599
2.966 8.770 1.330 3236
2.965 8.766 1.302 2430
2.966 8.769 1.275 1259
0.731 2.128 1.713 4476
0.732 2.133 1.706 8952
0.686 1.998 1.605 1720
0.734 2.137 1.700 8952
0.688 2.002 1.599 1720
0.735 2.141 1.693 7275
0.775 2.257 1.780 2322
0.737 2.145 1.687 5597
0.777 2.262 1.773 2950
0.736 2.144 1.676 5334
0.776 2.260 1.762 3306
0.735 2.142 1.665 5245
0.780 2.271 1.760 3579
0.737 2.146 1.659 5070
0.781 2.275 1.753 3579
0.740 2.156 1.657 4790
0.781 2.274 1.741 4253
0.778 2.266 1.726 5151
0.737 2.148 1.641 4137
0.777 2.264 1.714 5252
0.737 2.146 1.630 3210
0.777 2.262 1.703 5607
0.736 2.144 1.619 2257
0.776 2.260 1.692 5213
0.735 2.142 1.609 1398
0.777 2.264 1.685 4848
0.737 2.146 1.602 1069
0.779 2.269 1.678 3337
0.806 2.348 1.723 3176
0.755 2.198 1.619 1732
0.808 2.352 1.716 3516
0.756 2.202 1.613 1547
0.826 2.407 1.743 3749
0.785 2.288 1.662 2028
0.828 2.412 1.736 5644
0.787 2.292 1.655 2199
0.832 2.422 1.733 5966
0.790 2.302 1.652 2323
0.835 2.433 1.730 6448
0.794 2.313 1.650 2696
0.835 2.431 1.718 7041
0.793 2.311 1.638 2123
0.830 2.416 1.699 8166
0.788 2.296 1.619 1106
0.840 2.446 1.708 9508
0.798 2.325 1.629 1515
0.844 2.457 1.705 11854
0.802 2.336 1.626 1121
0.847 2.467 1.701 9772
0.806 2.346 1.623 1031
0.851 2.478 1.698 8216
0.852 2.482 1.691 6285
0.811 2.361 1.613 1019
0.847 2.468 1.671 4988
0.851 2.478 1.667 4841
0.852 2.482 1.660 4821
0.894 2.605 1.737 1392
0.889 2.590 1.717 4356
0.847 2.467 1.640 2569
0.893 2.601 1.713 6189
0.851 2.478 1.637 2094
0.897 2.611 1.709 6843
0.854 2.488 1.633 1794
0.900 2.622 1.705 7736
0.858 2.499 1.630 1237
0.909 2.646 1.709 5583
0.866 2.523 1.634 2306
0.914 2.663 1.709 5675
0.872 2.540 1.634 2912
0.918 2.674 1.704 6830
0.876 2.550 1.630 3088
0.920 2.679 1.696 6986
0.877 2.554 1.623 2129
0.919 2.676 1.684 7142
0.925 2.694 1.684 5446
0.968 2.818 1.757 1617
0.929 2.704 1.680 3897
0.971 2.829 1.752 2233
0.962 2.801 1.724 4779
0.919 2.676 1.652 2623
0.959 2.792 1.708 6290
0.916 2.667 1.637 1248
0.958 2.790 1.696 7063
0.906 2.638 1.610 1082
0.957 2.787 1.684 5791
1.000 2.913 1.755 1247
0.954 2.778 1.668 4842
0.997 2.904 1.739 1861
0.960 2.796 1.667 3686
1.003 2.922 1.737 2446
0.996 2.900 1.714 4719
0.948 2.760 1.637 2409
0.972 2.831 1.665 5503
1.015 2.957 1.734 1588
0.978 2.848 1.663 7190
1.021 2.975 1.732 1753
0.982 2.859 1.658 7791
1.025 2.986 1.727 2695
1.004 2.923 1.682 6824
0.960 2.797 1.614 1637
1.010 2.941 1.680 5839
0.966 2.814 1.613 1913
1.020 2.972 1.686 5283
0.977 2.845 1.618 1329
1.022 2.976 1.677 5521
0.978 2.849 1.610 1226
1.016 2.960 1.657 6176
1.060 3.088 1.724 2480
1.016 2.958 1.645 8005
1.059 3.086 1.711 3672
1.022 2.976 1.642 8763
1.066 3.103 1.708 2695
1.049 3.054 1.671 7377
1.005 2.926 1.606 3091
1.052 3.065 1.665 8294
1.096 3.193 1.731 1642
1.056 3.076 1.660 8430
1.100 3.204 1.724 2116
1.060 3.087 1.654 9869
1.104 3.215 1.718 2733
1.064 3.098 1.648 9411
1.108 3.226 1.711 2836
1.077 3.136 1.655 10812
1.032 3.007 1.591 1405
1.076 3.133 1.642 13450
1.120 3.262 1.705 1199
1.079 3.144 1.636 13180
1.124 3.273 1.698 1569
1.083 3.155 1.630 9553
1.128 3.285 1.692 2218
1.092 3.180 1.630 5787
1.136 3.309 1.692 1649
1.098 3.197 1.627 5771
1.142 3.327 1.688 1318
1.099 3.201 1.617 4985
1.144 3.331 1.678 2005
1.105 3.219 1.614 3570
1.150 3.349 1.674 2729
1.135 3.306 1.642 3897
1.090 3.175 1.582 1181
1.134 3.303 1.629 6344
1.135 3.307 1.619 7871
1.139 3.318 1.612 6165
1.162 3.384 1.629 5227
1.117 3.253 1.571 1425
1.163 3.388 1.619 4353
1.208 3.519 1.677 1083
1.172 3.413 1.618 3547
1.185 3.452 1.623 3872
1.194 3.477 1.621 4488
1.195 3.481 1.610 4278
1.196 3.485 1.600 6066
1.242 3.617 1.656 1248
1.198 3.489 1.589 8107
1.243 3.621 1.645 2744
1.235 3.597 1.622 8053
1.190 3.465 1.567 5343
1.241 3.615 1.617 11086
1.196 3.483 1.562 4412
1.247 3.633 1.612 10506
1.202 3.501 1.557 2426
1.246 3.630 1.598 8251
1.201 3.497 1.544 1455
1.245 3.627 1.584 7447
1.291 3.760 1.638 1240
1.252 3.645 1.579 5613
1.297 3.778 1.632 1579
1.258 3.663 1.573 3954
1.303 3.796 1.626 2003
1.271 3.702 1.576 3503
1.317 3.836 1.628 1515
1.282 3.734 1.576 3383
1.328 3.868 1.628 1858
1.320 3.844 1.605 4498
1.274 3.710 1.553 2634
1.321 3.848 1.593 5535
1.275 3.714 1.542 2447
1.320 3.845 1.579 5121
1.274 3.711 1.528 2231
1.312 3.820 1.557 4952
1.358 3.954 1.607 1659
1.311 3.817 1.542 4740
1.357 3.951 1.592 2819
1.346 3.920 1.567 5224
1.399 4.076 1.625 3023
1.342 3.910 1.550 5722
1.403 4.087 1.615 4356
1.344 3.914 1.538 3787
1.409 4.105 1.607 3300
1.384 4.031 1.567 3563
1.430 4.166 1.615 1689
1.390 4.049 1.560 5492
1.437 4.184 1.608 2090
1.394 4.060 1.550 5291
1.440 4.195 1.597 2138
1.430 4.164 1.572 3243
1.383 4.028 1.525 2080
1.433 4.175 1.562 4803
1.442 4.200 1.557 4166
1.488 4.335 1.603 1045
1.448 4.218 1.549 3798
1.495 4.354 1.594 1084
1.447 4.215 1.533 5398
1.494 4.350 1.579 1664
1.444 4.204 1.516 4883
1.493 4.347 1.563 2899
1.477 4.301 1.533 3463
1.523 4.437 1.578 1827
1.525 4.441 1.564 4227
1.476 4.298 1.518 3930
1.529 4.452 1.553 6447
1.477 4.302 1.505 3266
1.530 4.456 1.540 4378
1.483 4.320 1.496 1843
1.551 4.517 1.544 2309
1.502 4.374 1.499 2254
1.587 4.622 1.562 2941
1.505 4.385 1.488 1878
1.596 4.647 1.554 4383
1.539 4.482 1.503 2133
1.597 4.651 1.540 5188
1.543 4.493 1.492 1629
1.598 4.655 1.526 3600
1.546 4.504 1.480 1188
1.575 4.587 1.490 2734
1.622 4.723 1.531 1910
1.623 4.727 1.516 3776
1.576 4.590 1.476 2654
1.622 4.724 1.500 4265
1.575 4.587 1.460 1518
1.646 4.793 1.504 4385
1.598 4.655 1.465 1984
1.649 4.804 1.492 3230
1.696 4.941 1.531 1460
1.661 4.836 1.485 2876
1.715 4.995 1.530 2217
1.669 4.862 1.476 3043
1.716 4.999 1.515 2925
1.730 5.039 1.509 3457
1.670 4.865 1.461 2059
1.746 5.087 1.506 4711
1.699 4.949 1.468 1869
1.745 5.083 1.488 5068
1.805 5.257 1.535 3538
1.804 5.254 1.517 4837
1.737 5.058 1.465 4527
1.800 5.243 1.497 3532
1.738 5.061 1.449 3158
1.836 5.349 1.507 3078
1.742 5.072 1.436 2179
1.878 5.469 1.521 3579
1.830 5.331 1.485 2086
1.879 5.473 1.504 2884
1.804 5.254 1.449 2304
1.850 5.389 1.465 2734
1.915 5.578 1.513 2147
1.917 5.582 1.495 2806
1.839 5.356 1.440 2015
1.923 5.601 1.482 2862
1.988 5.790 1.528 1074
1.922 5.597 1.463 2776
1.969 5.736 1.496 1433
1.923 5.601 1.446 2699
1.971 5.739 1.479 1658
1.927 5.611 1.431 2165
2.017 5.875 1.492 1679
2.048 5.966 1.494 2366
2.001 5.827 1.462 1441
2.050 5.970 1.476 2606
2.108 6.138 1.514 1617
2.106 6.135 1.493 2413
2.059 5.996 1.462 2312
2.077 6.051 1.455 2550
2.138 6.226 1.494 1972
2.086 6.076 1.441 3643
2.137 6.223 1.473 1911
2.092 6.094 1.426 2468
2.163 6.300 1.470 2426
2.179 6.348 1.460 2549
2.265 6.597 1.512 2460
2.264 6.594 1.490 3619
2.183 6.359 1.442 2953
2.263 6.590 1.469 3573
2.189 6.377 1.425 1935
2.266 6.601 1.450 2755
2.330 6.785 1.487 1778
2.288 6.664 1.441 2005
2.336 6.803 1.469 1595
2.322 6.763 1.439 2237
2.264 6.594 1.406 1529
2.321 6.759 1.417 2010
2.397 6.980 1.459 1770
2.395 6.976 1.437 2469
2.319 6.755 1.395 1857
2.505 7.297 1.474 1965
2.397 6.980 1.415 1963
2.514 7.323 1.455 2434
2.413 7.028 1.402 2030
2.521 7.341 1.435 2588
2.412 7.024 1.379 2056
2.600 7.574 1.453 2147
2.534 7.382 1.419 1679
2.612 7.607 1.435 2249
2.546 7.415 1.402 1391
2.618 7.625 1.414 2401
2.552 7.433 1.382 1209
2.622 7.636 1.392 2176
2.553 7.437 1.359 1273
2.623 7.640 1.368 1630
2.755 8.025 1.431 1305
2.749 8.006 1.403 1301
2.998 8.732 1.518 1166
3.004 8.750 1.493 1761
2.742 7.987 1.375 1278
3.008 8.761 1.468 2709
2.746 7.998 1.351 1182
3.007 8.757 1.440 3757
3.008 8.761 1.413 4531
3.009 8.764 1.386 4570
3.010 8.768 1.359 4303
3.009 8.764 1.331 3731
3.008 8.760 1.303 2505
3.006 8.755 1.275 1102
0.655 1.907 0.266 1020
0.655 1.907 0.260 1055
0.655 1.907 0.254 1062
0.737 2.126 1.713 3664
0.739 2.130 1.706 7328
0.692 1.996 1.605 1784
0.740 2.135 1.700 7328
0.693 2.000 1.599 1784
0.739 2.133 1.689 6343
0.780 2.249 1.775 2214
0.741 2.137 1.682 5363
0.781 2.254 1.769 2737
0.742 2.141 1.676 5282
0.783 2.258 1.762 3228
0.742 2.139 1.665 5220
0.786 2.269 1.760 3750
0.743 2.144 1.659 5164
0.788 2.273 1.753 3750
0.747 2.154 1.657 4612
0.787 2.271 1.741 3904
0.748 2.158 1.650 4140
0.789 2.276 1.734 4088
0.786 2.268 1.719 4126
0.745 2.150 1.635 3568
0.781 2.253 1.699 4617
0.740 2.135 1.615 1850
0.783 2.258 1.692 4611
0.742 2.139 1.609 1323
0.784 2.262 1.685 4604
0.807 2.329 1.722 3553
0.764 2.204 1.635 3095
0.811 2.339 1.719 3644
0.763 2.202 1.624 1782
0.812 2.344 1.712 3805
0.765 2.206 1.617 1363
0.836 2.411 1.748 4100
0.794 2.292 1.666 2610
0.835 2.409 1.736 6131
0.794 2.289 1.655 2677
0.839 2.420 1.733 6469
0.797 2.300 1.652 2549
0.843 2.431 1.730 6956
0.801 2.310 1.650 2626
0.842 2.429 1.718 6860
0.800 2.308 1.638 2218
0.837 2.414 1.699 7454
0.795 2.293 1.619 1262
0.847 2.444 1.708 8163
0.805 2.323 1.629 1742
0.851 2.454 1.705 9951
0.809 2.333 1.626 1365
0.855 2.465 1.701 8048
0.812 2.344 1.623 1126
0.860 2.482 1.702 6660
0.818 2.361 1.624 1150
0.860 2.480 1.691 5209
0.859 2.478 1.679 3904
0.860 2.482 1.671 4426
0.862 2.486 1.664 4949
0.904 2.609 1.741 1144
0.897 2.587 1.717 4749
0.854 2.465 1.640 2295
0.901 2.598 1.713 6744
0.858 2.475 1.637 1962
0.904 2.609 1.709 7364
0.862 2.486 1.633 1751
0.910 2.626 1.709 8477
0.868 2.503 1.634 1808
0.916 2.643 1.709 6442
0.874 2.520 1.634 2601
0.922 2.661 1.709 5605
0.880 2.537 1.634 2964
0.924 2.665 1.701 5982
0.881 2.541 1.627 2403
0.928 2.676 1.696 6050
0.885 2.552 1.623 1956
0.931 2.687 1.692 6246
0.888 2.562 1.619 1315
0.935 2.697 1.688 4942
0.892 2.573 1.615 1473
0.950 2.741 1.702 4106
0.905 2.610 1.626 1346
0.970 2.798 1.724 4939
0.927 2.673 1.652 2107
0.967 2.789 1.708 6732
0.924 2.664 1.637 1287
0.966 2.787 1.696 7330
0.923 2.662 1.625 1157
0.965 2.785 1.684 5515
1.009 2.910 1.755 1547
0.962 2.776 1.668 4163
1.006 2.901 1.739 2381
1.003 2.892 1.723 3766
0.959 2.767 1.652 2928
0.981 2.830 1.677 4691
0.980 2.828 1.665 5781
1.024 2.954 1.734 1430
0.986 2.845 1.663 7564
1.030 2.972 1.732 1637
0.990 2.856 1.658 8374
1.034 2.983 1.727 2567
0.992 2.860 1.650 7202
1.036 2.987 1.718 2922
1.019 2.938 1.680 5906
0.975 2.811 1.613 1885
1.025 2.956 1.678 4891
1.031 2.973 1.677 4602
0.987 2.846 1.610 1090
1.025 2.957 1.657 6351
1.069 3.085 1.724 2545
1.029 2.968 1.652 8862
1.073 3.096 1.718 2921
1.030 2.972 1.642 9577
1.075 3.100 1.708 2606
1.037 2.990 1.640 7012
1.081 3.118 1.706 2133
1.061 3.062 1.665 7591
1.106 3.190 1.731 1409
1.063 3.066 1.656 7228
1.107 3.194 1.721 1984
1.069 3.084 1.654 8829
1.114 3.212 1.718 2496
1.073 3.094 1.648 9141
1.117 3.223 1.711 2854
1.086 3.133 1.655 11013
1.039 2.997 1.588 1179
1.087 3.137 1.645 13421
1.132 3.266 1.708 1102
1.089 3.141 1.636 12962
1.134 3.270 1.698 1488
1.093 3.152 1.630 9597
1.137 3.281 1.692 2008
1.101 3.176 1.630 5532
1.146 3.306 1.692 1841
1.107 3.194 1.627 4825
1.152 3.324 1.688 1726
1.109 3.198 1.617 4350
1.154 3.328 1.678 2525
1.153 3.325 1.665 3448
1.108 3.195 1.604 3056
1.135 3.275 1.629 3879
1.180 3.405 1.689 1111
1.141 3.293 1.625 7424
1.145 3.304 1.619 9196
1.147 3.308 1.608 7459
1.170 3.374 1.626 5934
1.124 3.243 1.568 1093
1.171 3.378 1.616 5055
1.216 3.509 1.674 1050
1.189 3.430 1.627 3945
1.144 3.299 1.569 1326
1.195 3.448 1.623 4591
1.202 3.466 1.618 4267
1.205 3.477 1.610 3763
1.209 3.488 1.603 5049
1.208 3.485 1.589 6704
1.254 3.617 1.645 2207
1.246 3.593 1.622 7221
1.200 3.461 1.567 4762
1.252 3.611 1.617 10588
1.206 3.479 1.562 3426
1.258 3.629 1.612 10370
1.212 3.497 1.557 1494
1.257 3.626 1.598 8500
1.256 3.624 1.584 7316
1.302 3.756 1.638 1189
1.262 3.641 1.579 5192
1.308 3.774 1.632 1510
1.295 3.736 1.604 4997
1.249 3.603 1.551 2588
1.297 3.740 1.592 4671
1.251 3.607 1.540 1556
1.296 3.737 1.578 3615
1.342 3.871 1.630 2114
1.334 3.847 1.608 4499
1.287 3.713 1.556 3002
1.332 3.844 1.593 4605
1.286 3.710 1.542 2812
1.305 3.763 1.549 4164
1.351 3.897 1.600 2495
1.318 3.802 1.551 4252
1.365 3.936 1.602 2690
1.361 3.926 1.584 4306
1.315 3.792 1.534 3396
1.358 3.916 1.567 4983
1.409 4.064 1.622 2842
1.356 3.913 1.553 4798
1.413 4.076 1.612 4519
1.412 4.072 1.597 3760
1.355 3.910 1.538 3064
1.398 4.034 1.569 3926
1.445 4.169 1.618 1629
1.400 4.038 1.557 4791
1.446 4.173 1.605 2471
1.401 4.042 1.545 3980
1.448 4.177 1.592 2948
1.442 4.159 1.572 3580
1.395 4.024 1.525 2345
1.448 4.177 1.564 5523
1.401 4.042 1.518 1233
1.454 4.196 1.557 4658
1.501 4.331 1.603 1054
1.461 4.214 1.549 3834
1.414 4.078 1.503 1035
1.460 4.211 1.533 5411
1.507 4.346 1.579 1497
1.458 4.207 1.518 4786
1.505 4.343 1.563 3341
1.514 4.368 1.557 3781
1.457 4.204 1.503 2044
1.488 4.293 1.518 3754
1.535 4.429 1.562 3559
1.542 4.447 1.553 5379
1.490 4.297 1.505 3168
1.538 4.437 1.535 3924
1.491 4.301 1.492 1752
1.517 4.376 1.501 3076
1.564 4.513 1.544 2065
1.605 4.631 1.566 3070
1.558 4.495 1.524 2168
1.609 4.642 1.554 4553
1.552 4.477 1.503 2213
1.611 4.646 1.540 5295
1.563 4.510 1.498 1914
1.614 4.657 1.528 3940
1.567 4.521 1.487 1398
1.623 4.683 1.520 3117
1.576 4.546 1.479 1168
1.635 4.715 1.514 4221
1.587 4.578 1.474 1692
1.633 4.712 1.498 4269
1.681 4.849 1.538 1363
1.660 4.788 1.504 3879
1.612 4.651 1.465 1725
1.669 4.813 1.496 3696
1.729 4.986 1.545 1474
1.672 4.824 1.483 3816
1.730 4.990 1.530 2773
1.731 4.994 1.515 3320
1.674 4.828 1.468 2877
