0.919 2.586 1.626 1615
0.969 2.727 1.699 4167
0.925 2.603 1.626 1166
0.975 2.744 1.698 4776
0.984 2.768 1.701 6869
0.940 2.644 1.629 1215
0.988 2.779 1.696 7637
0.943 2.654 1.625 1386
0.989 2.783 1.688 5625
1.034 2.908 1.759 1740
0.981 2.761 1.664 4020
1.026 2.887 1.735 3757
1.025 2.884 1.723 4800
0.981 2.759 1.652 2566
1.008 2.836 1.684 4950
0.963 2.710 1.615 1331
1.007 2.833 1.672 4256
1.052 2.959 1.741 1190
1.009 2.838 1.663 5846
1.053 2.964 1.732 1728
1.010 2.842 1.655 7192
1.055 2.968 1.723 2185
1.012 2.846 1.646 6949
1.056 2.972 1.714 2105
1.039 2.923 1.677 5722
0.994 2.797 1.609 1147
1.045 2.941 1.675 6060
1.049 2.952 1.670 6065
1.055 2.969 1.668 7144
1.101 3.096 1.734 1748
1.059 2.980 1.662 8179
1.105 3.108 1.728 1944
1.058 2.978 1.649 7500
1.104 3.105 1.715 1930
1.077 3.029 1.664 6469
1.031 2.901 1.599 1053
1.076 3.026 1.652 6313
1.121 3.154 1.717 1257
1.072 3.017 1.636 7058
1.118 3.145 1.700 2627
1.095 3.082 1.657 8460
1.050 2.954 1.593 2145
1.097 3.086 1.648 8860
1.143 3.214 1.711 1703
1.110 3.124 1.655 7800
1.065 2.995 1.591 1604
1.112 3.128 1.645 9049
1.158 3.257 1.708 1796
1.113 3.132 1.636 9226
1.159 3.261 1.698 1666
1.115 3.136 1.626 8610
1.161 3.265 1.689 1427
1.116 3.140 1.617 5897
1.162 3.270 1.679 1974
1.120 3.151 1.610 4158
1.166 3.281 1.672 2174
1.160 3.264 1.652 3719
1.114 3.135 1.591 2089
1.162 3.269 1.642 4717
1.171 3.293 1.642 6341
1.124 3.163 1.582 1286
1.174 3.304 1.635 8655
1.176 3.308 1.625 9362
1.177 3.312 1.615 7745
1.184 3.330 1.611 6773
1.230 3.461 1.669 1627
1.192 3.355 1.610 7221
1.239 3.485 1.668 1253
1.199 3.373 1.606 6429
1.212 3.411 1.610 6493
1.219 3.429 1.606 6098
1.265 3.560 1.663 1333
1.225 3.447 1.602 5196
1.272 3.578 1.658 1292
1.229 3.458 1.594 5416
1.276 3.589 1.650 1530
1.238 3.482 1.592 8033
1.285 3.614 1.648 1280
1.242 3.493 1.584 8897
1.289 3.625 1.640 1919
1.243 3.497 1.574 5421
1.290 3.629 1.629 4660
1.289 3.626 1.615 8744
1.242 3.494 1.560 2073
1.288 3.624 1.601 11763
1.241 3.491 1.547 1598
1.289 3.628 1.590 10462
1.242 3.495 1.536 1637
1.291 3.632 1.579 6127
1.338 3.764 1.632 1281
1.322 3.719 1.601 8934
1.275 3.587 1.548 2486
1.323 3.723 1.590 9602
1.276 3.590 1.537 2086
1.322 3.720 1.576 7333
1.370 3.853 1.628 1116
1.326 3.731 1.567 6287
1.374 3.864 1.619 1558
1.333 3.749 1.561 6169
1.380 3.882 1.612 1894
1.336 3.760 1.552 7298
1.384 3.893 1.603 2241
1.338 3.764 1.541 6627
1.385 3.897 1.591 3464
1.384 3.894 1.576 4221
1.337 3.761 1.526 3681
1.396 3.926 1.575 3467
1.343 3.779 1.520 2867
1.372 3.860 1.537 2974
1.420 3.994 1.586 1442
1.378 3.878 1.530 2671
1.426 4.012 1.579 1739
1.450 4.079 1.590 3267
1.382 3.889 1.521 1565
1.454 4.090 1.580 3477
1.406 3.956 1.532 1413
1.445 4.066 1.557 2742
1.493 4.201 1.605 1514
1.489 4.190 1.587 4061
1.442 4.056 1.540 2353
1.488 4.187 1.572 7016
1.433 4.031 1.518 2139
1.490 4.191 1.559 5773
1.429 4.021 1.500 1473
1.489 4.188 1.544 3190
1.537 4.323 1.590 1818
1.535 4.320 1.574 3594
1.485 4.178 1.526 2933
1.539 4.331 1.563 4365
1.491 4.196 1.518 3512
1.541 4.335 1.550 3950
1.493 4.199 1.505 2606
1.540 4.332 1.534 3637
1.588 4.467 1.578 1166
1.541 4.335 1.521 4806
1.589 4.471 1.565 2219
1.542 4.339 1.508 4438
1.591 4.475 1.551 3106
1.582 4.450 1.528 3720
1.533 4.314 1.485 2478
1.593 4.483 1.524 3500
1.545 4.347 1.481 2341
1.600 4.501 1.514 3017
1.648 4.637 1.556 2383
1.642 4.619 1.536 3228
1.591 4.476 1.492 2061
1.661 4.673 1.537 3947
1.613 4.537 1.495 2288
1.660 4.670 1.520 4731
1.611 4.533 1.479 2482
1.659 4.666 1.504 4534
1.610 4.530 1.463 1571
1.663 4.677 1.491 3442
1.711 4.814 1.531 1456
1.661 4.674 1.475 2497
1.710 4.811 1.515 1731
1.714 4.822 1.502 4258
1.665 4.685 1.463 2008
1.720 4.840 1.491 6407
1.672 4.703 1.452 1664
1.724 4.851 1.478 5317
1.778 5.002 1.521 1256
1.746 4.912 1.479 3967
1.795 5.049 1.517 2772
1.799 5.060 1.504 6301
1.747 4.916 1.464 2505
1.802 5.071 1.490 7358
1.874 5.274 1.545 3251
1.804 5.075 1.475 4262
1.881 5.292 1.532 3754
1.929 5.426 1.550 4055
1.875 5.274 1.510 3023
1.930 5.430 1.534 4338
1.871 5.263 1.490 3125
1.934 5.441 1.519 4698
1.862 5.238 1.467 2271
1.935 5.445 1.502 4234
1.987 5.590 1.539 2134
1.937 5.449 1.485 3571
1.993 5.608 1.525 2697
1.969 5.539 1.490 3449
2.023 5.692 1.528 2175
1.991 5.601 1.487 3813
2.045 5.754 1.524 2017
2.008 5.649 1.481 3121
2.057 5.787 1.514 2263
2.094 5.893 1.520 3006
2.022 5.689 1.472 2484
2.026 5.700 1.456 2634
2.096 5.896 1.502 2269
2.030 5.711 1.440 2432
2.095 5.893 1.482 2359
2.098 5.904 1.466 4222
2.036 5.729 1.426 1873
2.100 5.907 1.447 3526
2.149 6.046 1.478 1292
2.148 6.042 1.458 2261
2.098 5.904 1.428 1462
2.149 6.046 1.440 2570
2.222 6.251 1.484 1818
2.153 6.057 1.423 1761
2.340 6.583 1.535 1665
2.334 6.565 1.510 2356
2.406 6.770 1.554 2027
2.335 6.569 1.490 3653
2.410 6.781 1.534 2465
2.336 6.573 1.470 3485
2.386 6.712 1.498 2670
2.397 6.745 1.484 3950
2.343 6.591 1.453 2118
2.412 6.785 1.470 5533
2.362 6.646 1.443 2458
2.416 6.796 1.451 5501
2.473 6.958 1.482 1853
2.420 6.807 1.431 3591
2.477 6.969 1.462 2596
2.473 6.958 1.438 2905
2.423 6.818 1.412 2014
2.469 6.946 1.414 2795
2.519 7.086 1.440 1636
2.468 6.943 1.391 2345
2.517 7.082 1.416 2094
2.516 7.078 1.393 2110
2.576 7.248 1.424 1815
2.577 7.251 1.401 1905
2.682 7.545 1.453 1860
2.681 7.542 1.428 2229
2.550 7.173 1.365 2101
2.677 7.530 1.403 1744
2.852 8.024 1.486 1420
2.866 8.065 1.468 1425
2.670 7.512 1.376 1212
2.886 8.120 1.451 1506
2.671 7.515 1.353 1129
3.121 8.780 1.531 2249
3.045 8.566 1.497 1336
3.112 8.754 1.499 3365
2.886 8.119 1.400 1143
3.110 8.750 1.471 4202
2.890 8.130 1.376 1081
3.114 8.761 1.445 4113
3.121 8.780 1.420 3907
3.114 8.761 1.390 3612
3.107 8.742 1.360 3821
3.106 8.738 1.332 3302
3.107 8.741 1.305 2168
3.108 8.745 1.278 1400
0.754 2.093 1.694 3783
0.712 1.978 1.607 1225
0.755 2.097 1.688 7566
0.714 1.982 1.601 2450
0.757 2.101 1.682 7566
0.715 1.986 1.595 2450
0.758 2.106 1.675 5944
0.717 1.990 1.589 1982
0.760 2.110 1.669 4322
0.718 1.994 1.583 1515
0.783 2.175 1.708 5129
0.741 2.059 1.622 1497
0.785 2.179 1.701 6235
0.743 2.063 1.615 1332
0.786 2.184 1.694 6235
0.828 2.300 1.780 1217
0.788 2.188 1.688 6289
0.830 2.305 1.773 1262
0.789 2.192 1.681 6342
0.832 2.309 1.766 1307
0.791 2.196 1.674 5006
0.833 2.314 1.759 1584
0.822 2.281 1.725 3956
0.779 2.163 1.641 2874
0.794 2.205 1.661 4332
0.836 2.323 1.744 1616
0.793 2.203 1.650 5015
0.836 2.321 1.733 1539
0.795 2.207 1.643 4032
0.837 2.325 1.726 2130
0.832 2.311 1.706 3313
0.790 2.192 1.624 2584
0.856 2.378 1.742 3759
0.814 2.259 1.660 2290
0.862 2.395 1.743 4448
0.820 2.276 1.662 2191
0.868 2.411 1.745 5731
0.823 2.286 1.659 2013
0.870 2.416 1.737 5996
0.818 2.271 1.640 1825
0.869 2.414 1.726 6318
0.817 2.269 1.628 1807
0.873 2.425 1.723 6013
0.821 2.280 1.626 1442
0.877 2.435 1.719 5816
0.825 2.290 1.623 1108
0.883 2.452 1.720 7341
0.840 2.332 1.641 1628
0.887 2.463 1.717 9534
0.844 2.342 1.638 2143
0.891 2.474 1.714 9585
0.847 2.353 1.635 1956
0.895 2.484 1.710 10233
0.851 2.363 1.632 1705
0.896 2.489 1.703 10413
0.940 2.610 1.781 1435
0.895 2.486 1.691 10744
0.939 2.608 1.769 1747
0.895 2.484 1.680 11148
0.938 2.606 1.757 2159
0.896 2.489 1.672 11588
0.940 2.610 1.749 2465
0.900 2.499 1.668 9999
0.944 2.621 1.745 4296
0.936 2.600 1.721 9535
0.892 2.478 1.645 5097
0.938 2.604 1.713 10641
0.894 2.482 1.637 4050
0.942 2.615 1.709 11983
0.898 2.492 1.634 3263
0.946 2.626 1.705 10161
0.901 2.503 1.630 3233
0.947 2.630 1.697 7535
0.903 2.507 1.623 2538
0.946 2.628 1.685 6752
0.902 2.505 1.611 1625
0.948 2.632 1.677 4716
0.903 2.509 1.603 1185
0.963 2.675 1.692 4265
0.919 2.552 1.619 1155
0.972 2.699 1.695 3989
0.927 2.575 1.623 1422
0.978 2.716 1.695 4171
0.934 2.592 1.622 1022
0.985 2.734 1.694 4354
0.995 2.764 1.701 5703
0.951 2.640 1.629 1400
0.997 2.768 1.692 6325
1.042 2.893 1.764 1306
1.003 2.786 1.692 4978
1.048 2.911 1.762 1529
1.036 2.876 1.731 4434
0.991 2.751 1.661 3886
1.037 2.880 1.723 5364
0.992 2.755 1.652 2744
1.044 2.898 1.721 4997
0.998 2.772 1.651 2332
1.012 2.809 1.661 4338
1.057 2.935 1.730 3121
1.023 2.840 1.667 5300
1.068 2.966 1.736 1668
1.022 2.838 1.655 6021
1.067 2.964 1.723 2212
1.023 2.842 1.646 5731
1.069 2.968 1.714 1807
1.049 2.912 1.673 5720
1.058 2.937 1.675 6669
1.061 2.947 1.670 7433
1.070 2.972 1.671 7988
1.116 3.099 1.738 1178
1.081 3.003 1.676 8953
1.036 2.876 1.610 1420
1.085 3.013 1.670 7869
1.039 2.886 1.604 1053
1.089 3.024 1.664 7151
1.088 3.022 1.652 6907
1.134 3.149 1.717 1474
1.087 3.019 1.639 7681
1.133 3.147 1.704 2457
1.118 3.104 1.671 7793
1.072 2.976 1.606 4730
1.110 3.081 1.648 8172
1.156 3.210 1.711 1500
1.123 3.119 1.655 5637
1.077 2.991 1.591 1497
1.127 3.130 1.649 6167
1.174 3.259 1.712 1796
1.126 3.128 1.636 6992
1.173 3.256 1.698 2293
1.128 3.132 1.626 7766
1.174 3.261 1.689 1738
1.132 3.143 1.620 6412
1.178 3.272 1.682 1932
1.136 3.153 1.614 5706
1.182 3.283 1.675 2206
1.140 3.164 1.607 4417
1.186 3.294 1.668 2882
1.178 3.271 1.645 5863
1.131 3.141 1.585 1413
1.184 3.288 1.642 8528
1.138 3.159 1.582 1373
1.188 3.299 1.635 10407
1.192 3.310 1.628 10486
1.194 3.314 1.618 8265
1.240 3.444 1.677 1107
1.198 3.325 1.611 6605
1.244 3.455 1.669 2554
1.204 3.343 1.607 7323
1.251 3.473 1.665 2285
1.215 3.374 1.609 6902
1.224 3.399 1.607 6314
1.236 3.431 1.609 5834
1.283 3.562 1.666 1146
1.242 3.449 1.604 5188
1.248 3.466 1.600 5362
1.252 3.477 1.592 7926
1.302 3.616 1.651 1350
1.254 3.481 1.582 9122
1.301 3.613 1.637 2269
1.258 3.492 1.574 6431
1.305 3.624 1.629 4021
1.302 3.614 1.612 8118
1.254 3.482 1.557 3028
1.303 3.618 1.601 12036
1.255 3.486 1.547 1917
1.304 3.622 1.590 10416
1.257 3.490 1.536 1479
1.308 3.633 1.582 6180
1.261 3.501 1.528 1030
1.337 3.714 1.601 8552
1.290 3.581 1.548 2560
1.339 3.718 1.590 9390
1.291 3.585 1.537 2196
1.340 3.722 1.578 7808
1.293 3.589 1.526 1226
1.344 3.733 1.570 7701
1.392 3.866 1.621 1476
1.351 3.751 1.564 7285
1.399 3.884 1.615 2064
1.360 3.775 1.560 8025
1.408 3.909 1.611 1557
1.356 3.765 1.543 6449
1.404 3.899 1.594 2836
1.395 3.875 1.571 4446
1.347 3.741 1.521 2520
1.412 3.921 1.575 3383
1.364 3.787 1.525 2543
1.388 3.854 1.537 3353
1.436 3.988 1.586 1576
1.397 3.879 1.533 2694
1.458 4.048 1.595 1607
1.467 4.073 1.590 3184
1.419 3.939 1.541 1655
1.466 4.070 1.575 4267
1.418 3.936 1.527 1460
1.465 4.067 1.560 3485
1.513 4.201 1.607 1409
1.509 4.191 1.590 3550
1.461 4.057 1.542 2211
1.508 4.188 1.574 6248
1.460 4.054 1.528 2096
1.507 4.185 1.559 5383
1.459 4.050 1.513 2477
1.475 4.097 1.515 3480
1.552 4.309 1.587 2366
1.553 4.313 1.574 4627
1.500 4.164 1.524 2903
1.557 4.324 1.563 5490
1.509 4.189 1.518 2926
1.556 4.321 1.547 5532
1.508 4.186 1.503 2157
1.558 4.325 1.534 5538
1.606 4.460 1.578 1011
1.559 4.329 1.521 6490
1.608 4.464 1.565 1933
1.558 4.326 1.505 5158
1.607 4.461 1.549 3274
1.600 4.444 1.528 3644
1.551 4.308 1.485 2523
1.615 4.483 1.526 3605
1.566 4.347 1.483 3432
1.616 4.487 1.512 3435
1.673 4.644 1.561 2195
1.664 4.619 1.538 2899
1.607 4.462 1.489 2552
1.686 4.681 1.541 3769
1.637 4.544 1.500 2395
1.679 4.663 1.520 4491
1.630 4.527 1.479 2678
1.678 4.659 1.504 4139
1.629 4.523 1.463 1759
1.682 4.670 1.491 3026
1.731 4.807 1.531 1911
1.732 4.811 1.517 2611
1.678 4.660 1.473 2348
1.734 4.814 1.502 5471
1.685 4.678 1.463 1723
1.740 4.833 1.491 8011
1.691 4.696 1.452 1514
1.744 4.843 1.478 7242
1.809 5.023 1.529 1323
1.746 4.847 1.463 4492
1.795 4.984 1.501 2566
1.822 5.060 1.506 4921
1.773 4.923 1.468 2270
1.824 5.064 1.490 5911
1.894 5.259 1.543 2486
1.828 5.075 1.476 3615
1.911 5.306 1.538 3596
1.951 5.418 1.550 3620
1.902 5.281 1.514 3299
1.893 5.255 1.490 4471
1.958 5.436 1.537 3604
1.959 5.440 1.521 3697
1.891 5.252 1.472 3034
1.961 5.444 1.504 4110
2.015 5.596 1.542 2267
1.962 5.448 1.487 4280
2.014 5.593 1.523 2628
1.989 5.524 1.488 3754
2.049 5.691 1.529 2225
2.014 5.593 1.487 4125
2.072 5.753 1.526 2333
2.029 5.633 1.479 3303
2.078 5.771 1.512 2925
2.119 5.884 1.520 3255
2.069 5.746 1.487 2898
2.120 5.888 1.502 2604
2.047 5.684 1.454 2578
2.122 5.891 1.484 2555
2.054 5.702 1.440 2381
2.126 5.902 1.467 4265
2.060 5.720 1.426 2008
2.124 5.899 1.447 3706
2.174 6.037 1.478 1430
2.173 6.033 1.458 2077
2.123 5.895 1.428 1607
2.174 6.037 1.440 2221
2.248 6.241 1.484 1615
2.252 6.252 1.466 1516
2.310 6.413 1.501 1484
2.435 6.760 1.554 2511
2.314 6.424 1.483 2204
2.436 6.764 1.533 3059
2.360 6.552 1.489 2391
2.408 6.687 1.495 2729
2.316 6.431 1.443 2296
2.428 6.742 1.485 3616
2.378 6.603 1.457 1899
2.440 6.775 1.470 5328
2.390 6.636 1.443 2337
2.444 6.786 1.451 5675
2.499 6.940 1.481 2142
2.448 6.797 1.431 4018
2.501 6.944 1.459 2149
2.452 6.808 1.412 2389
2.544 7.065 1.460 2027
2.501 6.943 1.415 2540
2.612 7.252 1.472 1666
2.502 6.947 1.394 2961
2.552 7.086 1.419 1700
2.543 7.060 1.392 2354
2.609 7.244 1.425 1687
2.607 7.240 1.401 1845
2.544 7.064 1.370 1826
2.582 7.170 1.366 1983
2.712 7.530 1.428 1849
2.708 7.519 1.403 1466
2.888 8.019 1.487 1415
2.903 8.060 1.469 1699
2.701 7.501 1.376 1095
2.915 8.093 1.449 1671
3.156 8.763 1.558 1592
3.157 8.767 1.531 3188
2.919 8.104 1.425 1515
3.156 8.763 1.503 4492
2.920 8.107 1.400 1335
3.155 8.760 1.474 5314
3.208 8.907 1.497 1342
3.156 8.763 1.447 5331
3.206 8.903 1.468 1515
3.160 8.774 1.421 5163
3.210 8.914 1.442 1028
3.161 8.778 1.394 4756
3.162 8.781 1.367 3941
3.161 8.777 1.339 2562
3.151 8.751 1.308 1341
0.762 2.097 1.699 4103
0.720 1.982 1.611 1039
0.763 2.101 1.692 8206
0.721 1.986 1.605 2078
0.765 2.105 1.686 8206
0.723 1.990 1.599 2078
0.766 2.110 1.680 6532
0.724 1.994 1.593 1774
0.768 2.114 1.673 4858
0.726 1.998 1.587 1470
0.787 2.167 1.703 4960
0.734 2.020 1.595 1739
0.791 2.177 1.701 6045
0.735 2.024 1.588 1817
0.792 2.182 1.694 6045
0.734 2.022 1.578 1500
0.794 2.186 1.688 6166
0.836 2.303 1.773 1263
0.798 2.196 1.686 6308
0.735 2.024 1.561 1195
0.797 2.194 1.674 5121
0.840 2.311 1.759 1579
0.799 2.198 1.668 3954
0.841 2.316 1.752 1879
0.800 2.203 1.661 4505
0.843 2.320 1.744 1710
0.799 2.201 1.650 5114
0.842 2.319 1.733 1549
0.801 2.205 1.643 3978
0.844 2.323 1.726 1919
0.834 2.296 1.697 3230
0.791 2.178 1.615 1980
0.865 2.381 1.746 3783
0.822 2.263 1.665 2186
0.871 2.398 1.748 4287
0.828 2.280 1.666 2267
0.875 2.409 1.745 5486
0.830 2.284 1.659 1760
0.877 2.413 1.737 5641
0.829 2.282 1.648 1186
0.874 2.405 1.722 5853
0.819 2.254 1.620 1020
0.882 2.428 1.727 5824
0.886 2.439 1.724 6081
0.890 2.450 1.720 8300
0.846 2.330 1.641 1495
0.891 2.454 1.713 10774
0.848 2.334 1.634 1856
0.898 2.471 1.714 10890
0.854 2.351 1.635 2096
0.902 2.482 1.710 11706
0.858 2.361 1.632 1917
0.901 2.480 1.699 11880
0.945 2.601 1.776 1705
0.902 2.484 1.691 12165
0.946 2.605 1.769 1860
0.902 2.482 1.680 12459
0.946 2.603 1.757 2269
0.903 2.486 1.672 12755
0.947 2.608 1.749 2556
0.907 2.497 1.668 11001
0.951 2.619 1.745 4434
0.913 2.514 1.669 10307
0.957 2.636 1.745 4272
0.945 2.602 1.713 10653
0.901 2.479 1.637 4293
0.949 2.612 1.709 12100
0.904 2.490 1.634 3509
0.953 2.623 1.705 10141
0.908 2.500 1.630 3409
0.954 2.627 1.697 7579
0.910 2.505 1.623 2756
0.951 2.619 1.681 6951
0.907 2.496 1.607 1605
0.953 2.623 1.673 4816
0.908 2.500 1.599 1171
0.971 2.673 1.692 3924
0.919 2.530 1.607 1268
0.977 2.690 1.692 3786
0.932 2.566 1.619 1427
0.983 2.707 1.691 4096
0.938 2.583 1.619 1039
0.985 2.711 1.683 4010
1.030 2.836 1.755 1298
1.001 2.755 1.697 4611
0.956 2.631 1.625 1274
1.000 2.753 1.685 5255
1.045 2.877 1.756 1427
0.999 2.750 1.673 4627
1.044 2.875 1.744 3115
1.044 2.873 1.731 4849
0.998 2.748 1.661 4069
1.045 2.877 1.723 5608
1.000 2.752 1.652 3061
1.051 2.895 1.721 5226
1.006 2.769 1.651 2674
1.022 2.813 1.665 4628
1.067 2.939 1.734 2994
1.031 2.837 1.667 4947
1.076 2.963 1.736 2023
1.035 2.848 1.662 5078
1.080 2.974 1.731 2103
1.041 2.865 1.661 4629
1.087 2.991 1.729 1290
1.050 2.890 1.662 5646
1.095 3.016 1.730 1296
1.066 2.934 1.675 6897
1.070 2.944 1.670 8264
1.076 2.962 1.668 8488
1.122 3.089 1.734 1064
1.092 3.006 1.679 9675
1.046 2.879 1.613 1679
1.094 3.010 1.670 8450
1.098 3.021 1.664 7807
1.097 3.019 1.652 7602
1.143 3.146 1.717 1577
1.096 3.016 1.639 8342
1.142 3.144 1.704 2615
1.129 3.108 1.674 7148
1.082 2.980 1.610 5148
1.118 3.078 1.648 6807
1.165 3.206 1.711 1377
1.120 3.082 1.638 4305
1.166 3.211 1.702 2848
1.133 3.120 1.645 4098
1.180 3.249 1.708 2347
1.133 3.118 1.633 5113
1.179 3.246 1.695 2791
1.134 3.122 1.623 6892
1.181 3.251 1.685 2003
1.143 3.146 1.623 6883
1.190 3.275 1.685 1732
1.147 3.157 1.617 6851
1.194 3.286 1.678 1972
1.151 3.168 1.610 5492
1.198 3.297 1.671 2251
1.184 3.260 1.642 6473
1.137 3.131 1.582 1236
1.191 3.278 1.639 10161
1.144 3.149 1.578 1282
1.197 3.296 1.635 11639
1.201 3.307 1.628 11378
1.203 3.311 1.618 8595
1.250 3.441 1.677 1482
1.207 3.322 1.611 6167
1.254 3.452 1.669 3284
1.223 3.367 1.619 6693
1.227 3.378 1.612 7454
1.233 3.396 1.607 6646
1.245 3.427 1.609 5592
1.292 3.558 1.666 1051
1.256 3.459 1.610 5071
1.260 3.470 1.603 5263
1.262 3.474 1.592 7320
1.312 3.612 1.651 1408
1.263 3.478 1.582 8832
1.311 3.609 1.637 2223
1.267 3.489 1.574 6769
1.315 3.620 1.629 3585
1.312 3.610 1.612 7549
1.264 3.479 1.557 3231
1.313 3.615 1.601 11056
1.265 3.483 1.547 1648
1.314 3.619 1.590 9285
1.266 3.486 1.536 1135
1.316 3.622 1.579 5983
1.364 3.755 1.632 1117
1.348 3.710 1.601 7834
1.300 3.578 1.548 2982
1.349 3.714 1.590 8880
1.301 3.582 1.537 2671
1.351 3.718 1.578 7872
1.302 3.585 1.526 1478
1.355 3.729 1.570 8084
1.403 3.862 1.621 1781
1.358 3.740 1.561 7304
1.407 3.873 1.612 2529
1.370 3.772 1.560 8554
1.418 3.905 1.611 1636
1.371 3.776 1.549 6793
1.420 3.909 1.599 1855
1.401 3.857 1.566 4377
1.352 3.723 1.516 1947
1.425 3.924 1.578 3374
1.377 3.790 1.528 2606
1.422 3.914 1.560 2947
1.373 3.780 1.511 1991
1.433 3.946 1.559 2450
1.484 4.086 1.610 1312
1.440 3.964 1.552 2801
1.488 4.098 1.600 2208
1.480 4.073 1.577 3917
1.431 3.939 1.529 1626
1.478 4.070 1.562 3753
1.527 4.204 1.610 1447
1.480 4.074 1.550 3439
1.529 4.208 1.597 2512
1.520 4.184 1.574 5434
1.471 4.050 1.528 2849
1.519 4.181 1.559 4867
1.470 4.046 1.513 1897
1.515 4.171 1.541 3339
1.564 4.305 1.587 2144
1.568 4.316 1.576 4293
1.514 4.167 1.526 3292
1.569 4.320 1.563 5335
1.520 4.185 1.518 2995
1.568 4.317 1.547 5716
1.519 4.182 1.503 2243
1.567 4.314 1.532 5321
1.616 4.449 1.576 1066
1.568 4.318 1.519 6058
1.617 4.453 1.562 1683
1.570 4.321 1.505 5191
1.619 4.457 1.549 2962
1.612 4.439 1.528 3215
1.563 4.304 1.485 2685
1.629 4.486 1.528 3239
1.580 4.350 1.486 3197
1.631 4.490 1.514 3507
1.688 4.647 1.563 2379
1.687 4.643 1.546 3113
1.619 4.458 1.489 2701
1.699 4.676 1.541 3879
1.649 4.540 1.500 2445
1.700 4.680 1.527 3977
1.650 4.544 1.486 2724
1.691 4.655 1.504 3087
1.641 4.519 1.463 1737
1.713 4.716 1.506 2914
1.658 4.565 1.462 1379
1.748 4.813 1.519 3456
1.691 4.655 1.473 2184
1.750 4.817 1.504 5867
1.700 4.680 1.465 1418
1.754 4.828 1.491 8326
1.704 4.691 1.452 1298
1.758 4.839 1.478 8029
1.831 5.040 1.535 1497
1.759 4.842 1.463 4943
1.809 4.979 1.501 2685
1.810 4.983 1.486 3445
1.894 5.213 1.549 1557
1.840 5.066 1.492 4217
1.893 5.210 1.531 2677
1.965 5.409 1.567 3680
1.841 5.070 1.476 3133
1.922 5.290 1.518 3415
1.971 5.427 1.554 3170
1.907 5.250 1.490 4757
1.983 5.460 1.545 3208
1.906 5.247 1.472 3513
1.993 5.485 1.534 3219
1.978 5.446 1.506 4088
2.031 5.591 1.542 2306
1.980 5.450 1.489 5174
2.032 5.594 1.525 2765
2.002 5.511 1.487 3685
2.065 5.685 1.529 2048
2.030 5.587 1.487 3742
2.088 5.747 1.526 2226
2.086 5.743 1.507 3241
2.036 5.606 1.474 2708
2.082 5.733 1.486 3321
2.135 5.878 1.520 2733
2.060 5.671 1.453 2565
2.137 5.882 1.502 2554
2.138 5.885 1.484 2759
2.069 5.696 1.440 2196
2.142 5.896 1.467 4199
2.076 5.714 1.426 2019
2.141 5.893 1.447 3700
2.193 6.038 1.480 1358
2.192 6.035 1.460 1670
2.139 5.889 1.428 1644
2.188 6.024 1.438 1799
2.313 6.366 1.513 1527
2.335 6.428 1.506 1726
2.274 6.261 1.470 1504
2.453 6.753 1.554 2632
2.331 6.418 1.483 2289
2.455 6.757 1.533 3307
2.330 6.414 1.461 2332
2.334 6.425 1.443 2610
2.453 6.754 1.510 2394
2.447 6.735 1.485 3125
2.346 6.458 1.429 2122
2.459 6.768 1.470 4578
2.408 6.629 1.443 2127
2.465 6.787 1.452 5065
2.516 6.926 1.479 2501
2.467 6.790 1.431 3563
2.517 6.929 1.458 2035
2.476 6.816 1.414 2136
2.564 7.058 1.460 2133
2.522 6.944 1.417 2661
2.600 7.156 1.456 1636
2.524 6.947 1.395 3426
2.593 7.138 1.430 1787
2.559 7.046 1.391 2417
2.626 7.230 1.424 1532
2.561 7.050 1.369 1866
2.627 7.233 1.401 1580
2.565 7.060 1.349 1590
2.733 7.523 1.428 1510
2.921 8.041 1.492 1544
2.726 7.504 1.401 1237
2.925 8.052 1.469 1910
2.759 7.596 1.393 1017
3.177 8.747 1.557 1982
2.934 8.078 1.447 1785
3.179 8.751 1.530 3835
2.941 8.096 1.425 1597
3.180 8.754 1.503 5324
2.945 8.107 1.401 1381
3.179 8.751 1.474 6233
3.230 8.891 1.496 1767
3.183 8.762 1.448 6150
3.234 8.902 1.469 1846
3.184 8.765 1.421 5897
3.235 8.905 1.442 1246
3.185 8.769 1.394 5479
3.236 8.909 1.414 1073
3.186 8.772 1.367 4398
3.188 8.776 1.340 2761
3.189 8.779 1.313 1420
0.770 2.101 1.703 4437
0.726 1.980 1.611 1274
0.771 2.105 1.697 8874
0.727 1.984 1.605 2549
0.773 2.109 1.691 8874
0.728 1.988 1.599 2549
0.774 2.113 1.684 7202
0.732 1.998 1.598 2040
0.776 2.118 1.678 5530
0.734 2.002 1.592 1595
0.791 2.158 1.699 5160
0.737 2.012 1.590 1665
0.795 2.169 1.696 6143
0.739 2.016 1.584 1644
0.796 2.173 1.690 6143
0.839 2.290 1.775 1412
0.800 2.184 1.688 6264
0.843 2.300 1.773 1193
0.802 2.188 1.681 6417
0.845 2.305 1.766 1120
0.803 2.192 1.674 5270
0.846 2.309 1.759 1359
0.805 2.196 1.668 4123
0.848 2.314 1.752 1599
0.804 2.194 1.657 4842
0.847 2.312 1.740 1833
0.806 2.198 1.650 5613
0.853 2.329 1.742 1976
0.807 2.202 1.643 4393
0.850 2.320 1.726 2072
0.838 2.287 1.693 3980
0.882 2.406 1.775 1747
0.838 2.285 1.682 3936
0.881 2.404 1.764 2830
0.878 2.396 1.748 4367
0.835 2.277 1.666 3270
0.882 2.407 1.745 5512
0.834 2.275 1.655 2916
0.884 2.411 1.737 5493
0.833 2.273 1.644 2374
0.885 2.415 1.730 5475
0.825 2.252 1.620 2272
0.891 2.432 1.731 5916
0.827 2.256 1.613 2289
0.893 2.437 1.724 6585
0.831 2.266 1.610 2351
0.897 2.447 1.720 9329
0.834 2.277 1.608 2193
0.898 2.452 1.713 12145
0.838 2.287 1.605 2142
0.902 2.462 1.710 12213
0.840 2.291 1.598 1653
0.909 2.479 1.710 13152
0.864 2.359 1.632 1275
0.908 2.477 1.699 13554
0.952 2.598 1.776 1612
0.907 2.475 1.687 14185
0.951 2.596 1.764 1921
0.909 2.479 1.680 14426
0.953 2.601 1.757 2181
0.910 2.484 1.672 14667
0.955 2.605 1.749 2442
0.914 2.494 1.668 12458
0.959 2.616 1.745 4453
0.920 2.511 1.669 11880
0.965 2.633 1.745 4509
0.955 2.605 1.717 10423
0.910 2.483 1.641 5789
0.954 2.603 1.705 12067
0.909 2.481 1.630 3097
0.958 2.614 1.701 10001
0.913 2.491 1.626 3155
0.959 2.618 1.693 7431
0.914 2.495 1.619 2674
0.959 2.616 1.681 7087
0.914 2.493 1.607 1904
0.958 2.614 1.669 5034
1.003 2.737 1.743 1357
0.976 2.663 1.688 3722
0.926 2.527 1.607 1514
0.978 2.668 1.680 3883
1.023 2.791 1.753 1343
0.989 2.698 1.687 4389
0.943 2.574 1.615 1348
0.981 2.676 1.664 4779
1.026 2.800 1.736 2914
0.982 2.680 1.656 4345
1.028 2.804 1.727 3938
1.003 2.737 1.677 4419
1.048 2.861 1.749 1899
1.004 2.741 1.669 4428
1.050 2.865 1.740 3510
1.052 2.870 1.731 5122
1.006 2.745 1.661 4436
1.053 2.874 1.723 5593
1.007 2.749 1.652 3505
1.062 2.898 1.725 5320
1.016 2.773 1.655 3531
1.030 2.810 1.665 5419
1.076 2.936 1.734 3413
1.039 2.834 1.667 4999
1.085 2.960 1.736 2412
1.047 2.858 1.669 4812
1.094 2.984 1.738 1906
1.051 2.869 1.664 4328
1.098 2.995 1.732 1694
1.058 2.887 1.662 5489
1.104 3.013 1.730 2103
1.074 2.931 1.675 6995
1.078 2.941 1.670 9076
1.084 2.959 1.668 9132
1.038 2.832 1.601 1069
1.101 3.003 1.679 9759
1.054 2.876 1.613 1965
1.102 3.007 1.670 8122
1.056 2.880 1.604 1075
1.104 3.012 1.661 7713
1.105 3.016 1.652 8100
1.152 3.143 1.717 1521
1.104 3.013 1.639 8936
1.151 3.141 1.704 2413
1.108 3.024 1.633 6496
1.155 3.152 1.698 2265
1.142 3.116 1.668 5702
1.095 2.988 1.604 2604
1.133 3.093 1.645 3827
1.180 3.221 1.708 2154
1.135 3.097 1.635 3441
1.182 3.225 1.698 3085
1.136 3.101 1.626 4231
1.183 3.229 1.689 2902
1.143 3.119 1.623 6291
1.190 3.247 1.685 1955
1.152 3.143 1.623 7822
1.199 3.272 1.685 1370
1.158 3.161 1.620 8229
1.205 3.290 1.682 1405
1.162 3.171 1.614 6852
1.210 3.301 1.675 1184
1.194 3.257 1.642 6757
1.146 3.128 1.582 1727
1.200 3.275 1.639 11595
1.153 3.145 1.578 1609
1.209 3.299 1.638 12594
1.213 3.310 1.631 12266
1.215 3.314 1.621 8948
1.262 3.444 1.680 1426
1.246 3.401 1.648 7214
1.199 3.271 1.589 3478
1.245 3.398 1.634 8075
1.197 3.268 1.576 1570
1.237 3.374 1.612 8035
1.243 3.392 1.607 6453
1.267 3.458 1.624 5422
1.271 3.469 1.616 5044
1.273 3.473 1.606 5314
1.269 3.463 1.589 7038
1.322 3.608 1.651 1433
1.271 3.467 1.579 8226
1.319 3.599 1.634 2184
1.275 3.478 1.571 6445
1.323 3.610 1.626 3095
1.319 3.600 1.609 6426
1.271 3.468 1.555 3031
1.323 3.611 1.601 8687
1.275 3.479 1.547 1436
1.325 3.615 1.590 7098
1.326 3.619 1.579 5600
1.358 3.706 1.601 6119
1.310 3.574 1.548 2759
1.362 3.717 1.592 7304
1.314 3.585 1.540 2871
1.361 3.714 1.578 7699
1.410 3.847 1.630 1669
1.365 3.725 1.570 8445
1.414 3.858 1.621 2203
1.369 3.736 1.561 6921
1.418 3.869 1.612 2707
1.383 3.775 1.563 8612
1.432 3.908 1.614 1370
1.390 3.793 1.557 7148
1.439 3.926 1.607 1584
1.404 3.832 1.558 4590
1.453 3.965 1.608 2631
1.439 3.927 1.580 3806
1.390 3.793 1.531 2353
1.435 3.917 1.563 3331
1.386 3.783 1.514 1905
1.447 3.949 1.561 3214
1.499 4.089 1.613 1586
1.451 3.960 1.552 3644
1.500 4.093 1.600 2284
1.491 4.069 1.577 3208
1.442 3.935 1.529 1362
1.518 4.144 1.590 3385
1.469 4.010 1.542 2034
1.512 4.126 1.570 4343
1.442 3.936 1.503 1818
1.529 4.173 1.572 5289
1.480 4.038 1.525 2106
1.531 4.177 1.559 5079
1.479 4.035 1.510 1531
1.527 4.166 1.541 4105
1.579 4.308 1.590 1932
1.528 4.170 1.528 4181
1.580 4.312 1.576 3644
1.579 4.309 1.561 4541
1.530 4.174 1.516 3129
1.580 4.313 1.547 5671
1.531 4.178 1.503 2336
1.579 4.309 1.532 5287
1.530 4.174 1.488 1238
1.578 4.306 1.516 5589
1.627 4.441 1.560 1514
1.579 4.310 1.503 5369
1.629 4.445 1.546 2839
1.583 4.321 1.492 3412
1.633 4.456 1.535 2673
1.587 4.331 1.481 3076
1.642 4.481 1.528 2856
1.644 4.485 1.514 3850
1.706 4.656 1.567 2500
1.648 4.496 1.503 3755
1.705 4.653 1.551 3561
1.712 4.671 1.541 3435
1.659 4.528 1.497 2730
1.721 4.696 1.533 3242
1.663 4.539 1.486 2530
1.728 4.714 1.523 3445
1.670 4.557 1.476 2617
1.726 4.711 1.506 3636
1.671 4.561 1.462 1387
1.762 4.808 1.519 4264
1.712 4.672 1.479 2314
1.763 4.812 1.504 6398
1.713 4.675 1.465 1213
1.765 4.816 1.489 8513
1.815 4.952 1.528 1520
1.771 4.834 1.478 8155
1.848 5.042 1.537 1817
1.775 4.844 1.465 5515
1.825 4.981 1.503 2456
1.821 4.970 1.484 3468
1.909 5.208 1.549 1937
1.823 4.974 1.469 3027
1.907 5.205 1.531 2981
1.980 5.403 1.567 3461
1.861 5.079 1.480 3353
1.921 5.241 1.507 3255
1.989 5.429 1.556 3065
1.919 5.238 1.489 4342
2.001 5.461 1.547 3470
2.008 5.480 1.534 3845
1.918 5.234 1.471 3824
1.999 5.455 1.509 4218
1.919 5.238 1.454 2420
1.998 5.451 1.491 5277
2.051 5.596 1.527 2523
2.010 5.484 1.481 3610
2.060 5.621 1.515 2583
2.027 5.531 1.475 3378
2.109 5.755 1.530 1837
2.103 5.738 1.507 3202
2.031 5.542 1.460 2938
2.093 5.712 1.482 3864
2.154 5.879 1.522 1764
2.103 5.738 1.470 2636
2.156 5.883 1.504 2248
2.149 5.865 1.480 2777
2.096 5.720 1.447 2052
2.159 5.890 1.467 3646
2.092 5.709 1.426 2212
2.157 5.887 1.447 3243
2.093 5.712 1.408 1277
2.167 5.912 1.434 1469
2.241 6.116 1.479 1329
2.333 6.367 1.514 1617
2.203 6.010 1.437 1438
2.364 6.451 1.512 1974
2.252 6.145 1.446 1433
2.349 6.411 1.483 2405
2.472 6.746 1.554 2218
2.474 6.750 1.533 2924
2.345 6.400 1.460 2570
2.349 6.411 1.442 2857
2.472 6.747 1.510 2254
2.466 6.728 1.485 2321
2.367 6.458 1.431 2282
2.480 6.769 1.472 3399
2.373 6.476 1.414 2045
2.484 6.780 1.452 4024
2.535 6.919 1.479 2915
2.486 6.783 1.431 2650
2.537 6.922 1.458 2565
2.584 7.050 1.460 2301
2.498 6.816 1.416 1857
2.542 6.937 1.417 2885
2.628 7.171 1.460 2001
2.543 6.940 1.395 3852
2.627 7.167 1.437 1999
2.545 6.944 1.374 2630
2.644 7.215 1.422 1489
2.583 7.050 1.370 1782
2.683 7.321 1.418 1528
2.585 7.053 1.349 1569
2.751 7.508 1.427 1354
2.944 8.033 1.492 1566
2.742 7.482 1.399 1271
2.950 8.051 1.470 1875
2.716 7.412 1.364 1214
3.202 8.738 1.557 2164
2.954 8.062 1.446 1809
3.203 8.742 1.530 4045
2.961 8.080 1.424 1560
3.205 8.745 1.503 5626
2.968 8.098 1.401 1337
3.204 8.742 1.474 6705
3.255 8.882 1.496 2080
3.208 8.753 1.448 6651
3.259 8.893 1.469 2061
3.209 8.756 1.421 6344
3.260 8.896 1.442 1337
3.210 8.760 1.394 5882
3.261 8.900 1.414 1113
3.211 8.763 1.367 4552
3.213 8.767 1.340 2726
3.214 8.770 1.313 1344
0.776 2.098 1.703 4735
0.727 1.966 1.602 1610
0.777 2.103 1.697 9470
0.728 1.970 1.596 3221
0.779 2.107 1.691 9470
0.730 1.974 1.590 3221
0.780 2.111 1.684 8049
0.733 1.984 1.589 2499
0.784 2.122 1.682 6709
0.739 2.000 1.592 2014
0.793 2.144 1.690 5513
0.741 2.004 1.586 1618
0.801 2.167 1.696 6260
0.744 2.014 1.584 1243
0.803 2.171 1.690 6260
0.846 2.287 1.775 1240
0.806 2.181 1.688 6104
0.750 2.028 1.576 1035
0.808 2.185 1.681 6136
0.751 2.032 1.570 1035
0.809 2.190 1.674 5216
0.853 2.307 1.759 1104
0.795 2.151 1.637 4501
0.838 2.268 1.721 2094
0.810 2.192 1.657 4979
0.854 2.309 1.740 1833
0.810 2.190 1.646 5748
0.862 2.332 1.746 2453
0.813 2.200 1.643 4376
0.857 2.318 1.726 2332
0.845 2.285 1.693 4942
0.888 2.403 1.775 1811
0.844 2.283 1.682 4898
0.888 2.401 1.764 3001
0.885 2.393 1.748 4476
0.841 2.275 1.666 4194
0.889 2.404 1.745 5580
0.845 2.285 1.664 4000
0.893 2.415 1.742 5338
0.849 2.296 1.661 3297
0.894 2.419 1.734 5184
0.850 2.300 1.654 2662
0.898 2.430 1.731 5976
0.854 2.310 1.651 1991
0.902 2.440 1.728 6896
0.858 2.321 1.648 1407
0.904 2.445 1.720 9745
0.848 2.293 1.620 1643
0.905 2.449 1.713 12593
0.849 2.297 1.613 2345
0.909 2.460 1.710 12547
0.853 2.308 1.610 2398
0.916 2.477 1.710 13456
0.871 2.356 1.632 2674
0.915 2.475 1.699 14167
0.870 2.354 1.621 2053
0.914 2.473 1.687 15281
0.959 2.593 1.764 1688
0.916 2.477 1.680 15590
0.960 2.598 1.757 1922
0.917 2.481 1.672 15899
0.962 2.602 1.749 2156
0.923 2.498 1.672 13327
0.968 2.620 1.749 3711
0.930 2.515 1.673 13028
0.975 2.637 1.749 3734
0.962 2.603 1.717 9719
0.917 2.481 1.641 5863
0.961 2.600 1.705 11543
0.916 2.478 1.630 3149
0.965 2.611 1.701 9432
0.920 2.489 1.626 3145
0.965 2.609 1.689 6992
0.919 2.486 1.615 2390
0.964 2.607 1.677 6821
0.918 2.484 1.603 1772
0.963 2.605 1.665 5039
1.008 2.728 1.739 2141
0.981 2.654 1.684 3707
0.933 2.524 1.607 1711
0.997 2.697 1.699 4377
0.952 2.574 1.626 2610
0.999 2.702 1.691 5357
0.953 2.578 1.619 1756
0.991 2.680 1.668 5378
1.036 2.804 1.740 2724
0.992 2.684 1.659 4532
1.038 2.808 1.731 3847
1.011 2.734 1.677 4218
1.057 2.858 1.749 2186
1.010 2.731 1.665 4279
1.056 2.856 1.736 3805
1.060 2.867 1.731 5126
1.011 2.736 1.657 4378
1.064 2.878 1.726 5319
1.013 2.740 1.649 3515
1.039 2.810 1.677 5631
1.085 2.935 1.747 2191
1.040 2.814 1.668 6167
1.087 2.939 1.738 2960
1.049 2.838 1.671 5337
1.095 2.963 1.740 2287
1.058 2.862 1.673 4832
1.104 2.987 1.741 1900
1.072 2.899 1.682 4041
1.066 2.884 1.662 5004
1.113 3.009 1.730 2731
1.085 2.934 1.678 7150
1.086 2.938 1.670 9739
1.093 2.956 1.668 9712
1.046 2.829 1.601 1243
1.109 3.000 1.679 9545
1.062 2.873 1.613 1997
1.111 3.004 1.670 7630
1.064 2.877 1.604 1096
1.112 3.008 1.661 7321
1.114 3.013 1.652 7845
1.161 3.140 1.717 1360
1.115 3.017 1.643 8679
1.162 3.144 1.707 1487
1.147 3.101 1.674 6319
1.099 2.974 1.610 4051
1.151 3.112 1.668 5796
1.103 2.985 1.604 1948
1.145 3.096 1.648 4386
1.192 3.224 1.712 1688
1.144 3.094 1.635 4650
1.191 3.222 1.698 2732
1.145 3.098 1.626 4613
1.193 3.226 1.689 2703
1.154 3.122 1.626 6505
1.202 3.251 1.689 1624
1.163 3.146 1.626 8725
1.211 3.275 1.688 1020
1.167 3.157 1.620 9268
1.215 3.286 1.682 1106
1.171 3.168 1.614 7988
1.200 3.247 1.639 6500
1.153 3.118 1.578 1606
1.209 3.271 1.639 11058
1.162 3.142 1.578 1843
1.218 3.296 1.638 11718
1.225 3.314 1.634 11222
1.227 3.318 1.624 8026
1.274 3.448 1.683 1132
1.256 3.397 1.648 7768
1.208 3.267 1.589 2823
1.252 3.387 1.631 9115
1.204 3.257 1.573 1010
1.249 3.378 1.615 7498
1.255 3.396 1.610 5592
1.303 3.526 1.668 1102
1.280 3.461 1.627 6078
1.281 3.465 1.616 5669
1.283 3.470 1.606 5986
1.279 3.460 1.589 7386
1.333 3.605 1.651 1427
1.280 3.464 1.579 7652
1.329 3.595 1.634 2314
1.284 3.475 1.571 5357
1.333 3.606 1.626 2599
1.327 3.589 1.606 5026
1.278 3.458 1.552 2238
1.333 3.607 1.601 5914
1.285 3.475 1.547 1180
1.340 3.625 1.595 5179
1.339 3.622 1.582 5447
1.335 3.612 1.565 5025
1.384 3.744 1.618 2809
1.373 3.713 1.592 6013
1.324 3.581 1.540 2850
1.372 3.710 1.578 7024
1.421 3.843 1.630 1956
1.373 3.714 1.567 7958
1.422 3.847 1.619 2467
1.377 3.725 1.558 5979
1.426 3.858 1.609 2725
1.397 3.778 1.565 8158
1.348 3.645 1.515 1416
1.401 3.789 1.557 7210
1.455 3.936 1.612 1772
1.415 3.828 1.558 4951
1.464 3.961 1.608 3253
1.453 3.930 1.583 4537
1.403 3.796 1.533 2701
1.446 3.913 1.563 3999
1.397 3.779 1.514 1819
1.456 3.937 1.559 3620
1.513 4.092 1.615 1734
1.462 3.955 1.552 3788
1.512 4.089 1.600 2381
1.500 4.058 1.575 3326
1.451 3.924 1.527 1503
1.530 4.139 1.590 3657
1.481 4.005 1.542 2637
1.526 4.129 1.572 4667
1.477 3.995 1.525 2961
1.541 4.168 1.572 5119
1.491 4.034 1.525 3216
1.542 4.172 1.559 4741
1.493 4.038 1.513 1740
1.539 4.162 1.541 4033
1.588 4.296 1.587 1842
1.543 4.173 1.531 4313
1.592 4.307 1.576 3135
1.591 4.304 1.561 3958
1.541 4.170 1.516 2927
1.595 4.315 1.550 5872
1.545 4.180 1.505 2562
1.597 4.319 1.537 5824
1.547 4.184 1.492 2001
1.590 4.301 1.516 5421
1.643 4.444 1.562 1212
1.592 4.305 1.503 4919
1.641 4.440 1.546 2294
1.596 4.316 1.492 2666
1.651 4.465 1.540 2441
1.657 4.484 1.530 2613
1.597 4.320 1.479 1942
1.659 4.487 1.516 3986
1.720 4.651 1.567 2197
1.660 4.491 1.503 4434
1.718 4.648 1.551 3307
1.722 4.659 1.539 3375
1.667 4.509 1.493 2828
1.737 4.699 1.535 3855
1.676 4.534 1.486 2522
1.741 4.710 1.523 4638
1.678 4.538 1.472 2479
1.740 4.706 1.506 4510
1.682 4.549 1.460 1388
1.773 4.796 1.517 4828
1.723 4.660 1.477 2086
1.774 4.800 1.502 6381
1.825 4.936 1.541 1225
1.778 4.811 1.489 7786
1.829 4.947 1.528 1711
1.785 4.829 1.478 7284
1.862 5.037 1.537 1885
1.789 4.839 1.465 5576
1.866 5.048 1.523 2356
1.833 4.958 1.482 2807
1.889 5.109 1.523 2403
1.927 5.214 1.535 3138
1.877 5.077 1.498 2936
1.876 5.073 1.480 4093
1.995 5.398 1.567 3710
1.933 5.228 1.505 3262
1.999 5.409 1.552 3132
1.937 5.239 1.490 3379
2.017 5.456 1.547 3168
2.021 5.467 1.532 3744
1.933 5.229 1.471 3326
2.014 5.449 1.509 4255
1.934 5.232 1.454 2357
2.013 5.445 1.491 4998
2.069 5.597 1.529 2292
2.022 5.471 1.479 3341
2.076 5.615 1.515 2852
2.077 5.619 1.498 3232
2.026 5.482 1.464 2091
2.113 5.717 1.503 3153
2.044 5.529 1.458 2847
2.110 5.706 1.482 4172
2.048 5.540 1.442 1874
2.116 5.724 1.468 2555
2.175 5.884 1.505 1870
2.166 5.859 1.480 2751
2.115 5.721 1.449 1763
2.175 5.884 1.467 2944
2.111 5.710 1.428 2023
2.174 5.880 1.447 2520
2.265 6.128 1.503 1288
2.261 6.117 1.481 1720
2.183 5.906 1.434 1227
2.263 6.120 1.462 1729
2.351 6.360 1.514 1545
2.385 6.451 1.513 2041
2.267 6.131 1.445 1443
2.394 6.477 1.498 2478
2.491 6.739 1.554 1636
2.358 6.379 1.457 2710
2.490 6.736 1.531 2362
2.365 6.397 1.440 2620
2.489 6.732 1.509 1970
2.517 6.809 1.503 2228
2.388 6.459 1.432 2032
2.505 6.776 1.475 2463
2.392 6.470 1.414 1869
2.555 6.911 1.479 3120
2.504 6.773 1.452 2773
2.556 6.915 1.458 2828
2.505 6.776 1.431 1577
2.604 7.043 1.460 2584
2.523 6.823 1.419 1644
2.564 6.937 1.418 3072
2.651 7.171 1.461 2327
2.566 6.940 1.396 3660
2.652 7.174 1.439 2246
2.564 6.936 1.374 2292
2.700 7.302 1.439 1661
2.701 7.306 1.417 1665
2.601 7.035 1.369 1412
2.773 7.500 1.427 1362
2.970 8.035 1.520 1259
2.972 8.039 1.495 1474
2.731 7.386 1.384 1342
2.979 8.057 1.472 1677
2.737 7.404 1.364 1278
3.227 8.729 1.557 2030
2.977 8.053 1.446 1598
3.228 8.733 1.530 3746
2.984 8.072 1.424 1323
3.230 8.736 1.503 5280
2.991 8.090 1.401 1139
3.228 8.733 1.474 6373
3.280 8.872 1.496 2042
3.232 8.744 1.448 6290
3.284 8.883 1.469 1960
3.234 8.747 1.421 5969
3.285 8.887 1.442 1269
3.235 8.751 1.394 5479
3.287 8.890 1.414 1059
3.236 8.754 1.367 4060
3.237 8.757 1.340 2286
3.239 8.761 1.313 1088
0.779 2.090 1.699 4496
0.734 1.970 1.607 1762
0.781 2.095 1.692 8993
0.736 1.974 1.601 3524
0.782 2.099 1.686 8993
0.737 1.978 1.595 3524
0.786 2.109 1.684 8028
0.741 1.988 1.593 2731
0.790 2.119 1.682 7266
0.745 1.998 1.592 2113
0.799 2.142 1.690 5533
0.746 2.002 1.586 1638
0.807 2.164 1.696 6184
0.755 2.024 1.593 1182
0.808 2.169 1.690 6184
0.752 2.016 1.578 1134
0.812 2.179 1.688 6058
0.753 2.020 1.572 1089
0.814 2.183 1.681 6144
0.754 2.024 1.566 1089
0.815 2.187 1.674 5232
0.801 2.148 1.637 5310
0.845 2.266 1.721 1299
0.814 2.183 1.652 5192
0.858 2.301 1.736 1870
0.816 2.188 1.646 6151
0.859 2.305 1.729 2881
0.847 2.272 1.696 5113
0.803 2.155 1.613 2954
0.849 2.277 1.689 6157
0.893 2.395 1.771 2310
0.848 2.275 1.677 6112
0.892 2.393 1.759 3721
0.850 2.279 1.670 5891
0.894 2.397 1.752 4702
0.895 2.402 1.745 5859
0.851 2.283 1.664 5624
0.899 2.412 1.742 5467
0.855 2.293 1.661 4986
0.903 2.423 1.738 5214
0.859 2.304 1.658 4812
0.907 2.434 1.735 6065
0.863 2.314 1.655 3978
0.909 2.438 1.728 7042
0.864 2.318 1.648 3083
0.910 2.442 1.720 9704
0.859 2.304 1.629 3295
0.912 2.447 1.713 12367
0.856 2.295 1.613 3912
0.916 2.457 1.710 12116
0.859 2.305 1.610 3706
0.922 2.474 1.710 12968
0.863 2.316 1.608 3647
0.922 2.472 1.699 14038
0.867 2.326 1.605 2749
0.918 2.464 1.683 15984
0.871 2.336 1.602 1947
0.920 2.468 1.676 16291
0.965 2.589 1.753 1658
0.924 2.478 1.672 16677
0.969 2.600 1.749 1790
0.930 2.495 1.672 13876
0.976 2.617 1.749 3549
0.937 2.512 1.673 14040
0.982 2.634 1.749 3912
0.941 2.523 1.669 10283
0.986 2.645 1.745 3237
0.966 2.591 1.701 10864
0.921 2.469 1.626 2296
0.968 2.596 1.693 8795
0.922 2.473 1.618 1833
0.967 2.593 1.681 6482
0.921 2.471 1.607 1389
0.966 2.591 1.669 6368
1.012 2.714 1.743 2146
0.965 2.589 1.658 5000
1.011 2.712 1.731 3451
1.010 2.710 1.719 4349
0.962 2.580 1.642 3937
1.007 2.701 1.703 5620
0.961 2.578 1.630 3174
1.009 2.705 1.695 6911
0.963 2.582 1.622 2155
1.003 2.690 1.675 6248
1.049 2.814 1.747 2294
1.004 2.694 1.667 5000
1.051 2.818 1.739 3622
1.016 2.725 1.674 4682
1.062 2.849 1.745 2750
1.017 2.729 1.665 4304
1.064 2.853 1.736 3829
1.065 2.857 1.728 4907
1.016 2.726 1.653 3988
1.072 2.875 1.726 4878
1.020 2.737 1.649 3095
1.046 2.807 1.677 5674
1.093 2.932 1.747 2148
1.048 2.811 1.668 6433
1.095 2.936 1.738 3064
1.057 2.835 1.671 5265
1.104 2.960 1.740 2548
1.068 2.866 1.676 4632
1.115 2.991 1.745 1745
1.080 2.896 1.682 3918
1.071 2.874 1.659 4424
1.118 3.000 1.727 3527
1.093 2.931 1.678 7387
1.097 2.942 1.673 10348
1.050 2.816 1.606 1143
1.101 2.953 1.668 10201
1.054 2.826 1.601 1246
1.115 2.990 1.676 8517
1.068 2.864 1.610 1653
1.119 3.001 1.670 6429
1.072 2.874 1.604 1087
1.120 3.005 1.661 6384
1.134 3.043 1.669 7685
1.138 3.054 1.663 8572
1.155 3.098 1.674 6817
1.108 2.971 1.610 3080
1.162 3.116 1.671 6505
1.114 2.988 1.607 1449
1.158 3.107 1.655 5432
1.206 3.234 1.718 1004
1.155 3.097 1.639 5886
1.202 3.225 1.702 2024
1.159 3.108 1.633 5390
1.206 3.236 1.695 1955
1.165 3.126 1.630 7269
1.213 3.254 1.692 1256
1.172 3.143 1.626 9544
1.176 3.154 1.620 10100
1.180 3.165 1.614 8899
1.209 3.244 1.639 6168
1.161 3.115 1.578 1784
1.218 3.268 1.639 10784
1.170 3.139 1.578 2018
1.228 3.293 1.638 11583
1.276 3.422 1.698 1144
1.234 3.310 1.634 10871
1.236 3.314 1.624 7648
1.284 3.444 1.683 1075
1.265 3.394 1.648 7843
1.217 3.264 1.589 2428
1.262 3.384 1.631 9564
1.261 3.381 1.618 7215
1.283 3.440 1.632 5940
1.289 3.458 1.627 7049
1.291 3.462 1.616 6677
1.292 3.466 1.606 6750
1.291 3.463 1.592 7725
1.340 3.594 1.648 1581
1.290 3.460 1.579 7136
1.339 3.591 1.634 2773
1.291 3.464 1.568 4311
1.340 3.595 1.623 2849
1.337 3.586 1.606 4104
1.288 3.454 1.552 1848
1.351 3.624 1.609 4194
1.302 3.493 1.555 1265
1.363 3.656 1.610 5429
1.314 3.524 1.556 1288
1.354 3.632 1.587 5560
1.350 3.622 1.570 4408
1.400 3.754 1.623 1610
1.373 3.682 1.581 5646
1.422 3.814 1.634 1656
1.374 3.686 1.570 7568
1.423 3.818 1.622 2964
1.383 3.710 1.567 7311
1.433 3.843 1.619 2525
1.387 3.721 1.558 4777
1.437 3.854 1.609 2827
1.410 3.781 1.568 6968
1.360 3.648 1.517 1696
1.414 3.792 1.559 6467
1.468 3.939 1.615 1998
1.423 3.817 1.555 5175
1.472 3.950 1.605 4157
1.464 3.926 1.583 5043
1.414 3.793 1.533 3341
1.457 3.909 1.563 4058
1.407 3.775 1.514 1839
1.466 3.933 1.559 3854
1.417 3.800 1.510 1806
1.473 3.951 1.552 3925
1.523 4.085 1.600 2306
1.477 3.962 1.542 2603
1.537 4.124 1.600 1894
1.492 4.001 1.542 3107
1.544 4.142 1.592 2965
1.493 4.005 1.530 4040
1.546 4.146 1.580 3717
1.552 4.164 1.572 5174
1.497 4.016 1.520 3512
1.551 4.161 1.557 4702
1.501 4.027 1.510 1683
1.550 4.158 1.541 3464
1.600 4.292 1.587 2103
1.559 4.183 1.536 3582
1.609 4.317 1.581 2460
1.600 4.293 1.558 3074
1.550 4.158 1.513 1698
1.607 4.311 1.550 5317
1.557 4.176 1.505 2046
1.611 4.322 1.539 5757
1.561 4.187 1.495 2055
1.602 4.297 1.516 4581
1.652 4.432 1.560 1180
1.601 4.294 1.501 4207
1.651 4.429 1.544 2280
1.642 4.404 1.521 2893
1.592 4.269 1.479 1270
1.643 4.408 1.508 2872
1.694 4.543 1.550 1177
1.674 4.490 1.519 3659
1.735 4.654 1.570 1531
1.675 4.494 1.505 4618
1.731 4.643 1.551 2559
1.738 4.661 1.541 3243
1.682 4.512 1.495 3111
1.747 4.687 1.533 4597
1.689 4.530 1.486 2849
1.754 4.705 1.523 4754
1.690 4.533 1.472 2491
1.750 4.694 1.504 4616
1.801 4.830 1.544 1630
1.786 4.791 1.517 5737
1.735 4.655 1.477 2354
1.785 4.788 1.500 6653
1.838 4.931 1.541 1508
1.789 4.798 1.487 6641
1.840 4.935 1.526 2125
1.798 4.824 1.478 5287
1.849 4.960 1.517 1945
1.802 4.834 1.465 4483
1.880 5.043 1.523 2353
1.892 5.075 1.516 2604
1.806 4.845 1.452 2474
1.893 5.079 1.500 3356
1.944 5.216 1.537 3200
1.943 5.212 1.519 4340
1.889 5.068 1.480 4031
1.947 5.223 1.505 3582
1.885 5.057 1.461 3002
1.954 5.241 1.492 2906
2.032 5.450 1.547 2579
2.036 5.461 1.532 3206
1.950 5.230 1.472 2586
2.029 5.443 1.509 3439
2.080 5.580 1.544 2059
2.028 5.440 1.491 4223
2.087 5.599 1.531 2215
2.094 5.617 1.517 3175
2.037 5.465 1.479 2853
2.095 5.621 1.500 3781
2.044 5.483 1.466 1931
2.129 5.711 1.503 3065
2.062 5.530 1.460 2457
2.128 5.708 1.484 4084
2.066 5.541 1.444 1898
2.132 5.719 1.468 2506
2.183 5.856 1.500 1848
2.179 5.845 1.479 2582
2.128 5.708 1.447 1552
2.183 5.856 1.462 2125
2.127 5.704 1.428 1647
2.198 5.896 1.452 1775
2.277 6.107 1.500 1348
2.278 6.110 1.481 1942
2.164 5.805 1.413 1307
2.277 6.107 1.460 1865
2.366 6.347 1.513 1307
2.405 6.452 1.515 1764
2.278 6.110 1.441 1488
2.412 6.470 1.498 2125
2.274 6.099 1.420 1467
2.373 6.365 1.455 2555
2.506 6.722 1.530 1786
2.380 6.383 1.439 2271
2.494 6.689 1.501 1712
2.539 6.809 1.504 2041
2.408 6.460 1.434 1687
2.535 6.798 1.480 1918
2.412 6.470 1.415 1640
2.574 6.904 1.479 3325
2.522 6.766 1.452 1803
2.578 6.915 1.459 3021
2.526 6.777 1.433 1666
2.623 7.036 1.460 2637
2.539 6.809 1.417 1685
2.583 6.930 1.418 3230
2.671 7.163 1.461 2404
2.587 6.940 1.398 3295
2.675 7.174 1.441 2335
2.722 7.302 1.441 1953
2.586 6.937 1.375 1785
2.724 7.306 1.418 2004
2.653 7.116 1.385 1513
2.790 7.485 1.426 1512
2.905 7.793 1.479 1347
3.002 8.053 1.499 1463
2.784 7.467 1.399 1395
3.003 8.056 1.474 1631
2.725 7.309 1.349 1105
3.251 8.720 1.557 1660
3.002 8.053 1.447 1309
3.252 8.724 1.530 3020
3.012 8.078 1.426 1021
3.254 8.727 1.503 4406
3.016 8.089 1.402 1052
3.252 8.724 1.474 5418
3.304 8.863 1.496 1714
3.256 8.735 1.448 5247
3.308 8.874 1.469 1629
3.258 8.738 1.421 4926
3.310 8.878 1.442 1088
3.259 8.742 1.394 4480
3.260 8.745 1.367 3188
3.259 8.741 1.339 1744
0.795 2.084 1.699 4472
0.738 1.934 1.583 1197
0.797 2.089 1.692 8945
0.739 1.938 1.578 2395
0.798 2.093 1.686 8945
0.743 1.948 1.576 2147
0.802 2.103 1.684 8319
0.745 1.952 1.570 1542
0.806 2.113 1.682 8090
0.746 1.956 1.564 1128
0.813 2.130 1.685 6197
0.762 1.996 1.586 1413
0.821 2.152 1.692 6449
0.761 1.994 1.575 1794
0.823 2.156 1.685 6449
0.765 2.004 1.573 1487
0.827 2.167 1.683 6034
0.766 2.008 1.567 1198
0.833 2.183 1.686 5962
0.789 2.067 1.601 1260
0.835 2.187 1.679 5254
0.815 2.136 1.633 6187
0.860 2.253 1.716 1324
0.819 2.146 1.630 5919
0.864 2.263 1.714 2907
0.830 2.175 1.641 6420
0.875 2.292 1.724 3207
0.864 2.266 1.696 6250
0.820 2.148 1.613 3578
0.868 2.276 1.693 7618
0.824 2.159 1.611 2047
0.868 2.274 1.682 7597
0.913 2.392 1.764 3432
0.867 2.272 1.670 7455
0.912 2.390 1.752 4760
0.868 2.276 1.664 7334
0.914 2.395 1.745 5863
0.872 2.287 1.661 5920
0.918 2.405 1.742 5305
0.922 2.416 1.738 4937
0.876 2.297 1.658 4583
0.926 2.427 1.735 5837
0.876 2.295 1.647 4038
0.927 2.431 1.728 6847
0.877 2.299 1.640 3513
0.929 2.435 1.720 9100
0.876 2.297 1.629 4454
0.931 2.440 1.713 11353
0.878 2.301 1.622 5438
0.935 2.450 1.710 10984
0.879 2.305 1.615 5303
0.941 2.467 1.710 11836
0.881 2.309 1.608 5169
0.938 2.459 1.695 13124
0.882 2.313 1.600 3742
0.937 2.457 1.683 15580
0.886 2.323 1.597 2350
0.939 2.461 1.676 15981
0.888 2.327 1.590 1544
0.943 2.471 1.672 16437
0.989 2.592 1.749 1409
0.952 2.495 1.676 13703
0.998 2.616 1.753 2892
0.958 2.512 1.677 14447
1.005 2.633 1.753 3153
0.962 2.522 1.673 10871
1.009 2.644 1.749 2482
0.979 2.565 1.689 10425
0.985 2.582 1.689 8343
0.938 2.460 1.614 1140
0.984 2.580 1.677 6260
1.031 2.702 1.752 1938
0.983 2.577 1.665 6325
1.030 2.700 1.739 2964
0.982 2.575 1.654 5343
1.029 2.698 1.727 4418
1.031 2.702 1.719 5447
0.982 2.573 1.642 4510
1.028 2.693 1.703 6893
0.981 2.570 1.630 3538
1.029 2.698 1.695 8413
0.982 2.574 1.622 2314
1.028 2.695 1.683 7433
0.981 2.572 1.611 1679
1.030 2.699 1.675 5974
1.077 2.823 1.746 2896
1.036 2.717 1.674 5683
1.084 2.840 1.745 2737
1.036 2.714 1.662 4639
1.083 2.838 1.733 3631
1.087 2.849 1.728 4316
1.037 2.718 1.653 3625
1.094 2.867 1.726 4077
1.039 2.723 1.645 2634
1.068 2.799 1.677 5343
1.115 2.923 1.747 1987
1.069 2.803 1.668 6096
1.117 2.928 1.738 3010
1.079 2.827 1.671 4787
1.126 2.952 1.740 2776
1.093 2.864 1.680 4455
1.140 2.989 1.749 1551
1.124 2.947 1.714 3995
1.077 2.822 1.646 2315
1.126 2.952 1.705 4507
1.078 2.826 1.638 2559
1.118 2.929 1.682 7773
1.070 2.804 1.615 1141
1.119 2.934 1.673 10959
1.071 2.808 1.606 1181
1.123 2.944 1.668 10744
1.075 2.818 1.601 1304
1.127 2.955 1.662 8058
1.176 3.081 1.728 1582
1.142 2.993 1.670 5106
1.094 2.866 1.604 1015
1.131 2.963 1.644 5704
1.179 3.090 1.709 2108
1.160 3.041 1.672 8256
1.112 2.914 1.607 1564
1.164 3.052 1.666 9533
1.116 2.925 1.602 1304
1.176 3.083 1.671 7274
1.128 2.956 1.606 2098
1.185 3.107 1.671 6926
1.137 2.980 1.607 1050
1.184 3.104 1.658 6100
1.181 3.095 1.642 6418
1.230 3.223 1.705 1249
1.185 3.106 1.636 5976
1.234 3.234 1.698 1224
1.189 3.117 1.630 8137
1.238 3.245 1.692 1380
1.196 3.134 1.626 10390
1.245 3.262 1.688 1134
1.200 3.145 1.620 10823
1.249 3.273 1.682 1033
1.204 3.156 1.614 9384
1.208 3.167 1.607 5843
1.257 3.295 1.668 2234
1.246 3.265 1.642 10055
1.197 3.137 1.582 2287
1.253 3.283 1.638 11080
1.302 3.412 1.698 1297
1.259 3.301 1.634 10077
1.261 3.305 1.624 6993
1.288 3.377 1.645 7395
1.239 3.248 1.586 1929
1.287 3.374 1.631 9537
1.238 3.245 1.573 1139
1.286 3.372 1.618 7103
1.311 3.437 1.635 6126
1.315 3.448 1.627 7807
1.317 3.452 1.616 7708
1.319 3.456 1.606 7298
1.317 3.453 1.592 7787
1.367 3.584 1.648 1725
1.316 3.450 1.579 6687
1.366 3.581 1.634 3067
1.318 3.454 1.568 3544
1.368 3.585 1.623 3134
1.364 3.575 1.606 3560
1.314 3.444 1.552 1380
1.360 3.565 1.589 3973
1.410 3.697 1.644 1119
1.391 3.645 1.610 6505
1.341 3.514 1.556 1841
1.387 3.635 1.593 6465
1.337 3.504 1.539 1313
1.394 3.653 1.587 4882
1.344 3.522 1.534 1298
1.398 3.664 1.579 5647
1.448 3.796 1.631 2056
1.402 3.675 1.570 7258
1.452 3.807 1.622 3000
1.412 3.700 1.567 6730
1.462 3.832 1.619 2592
1.416 3.711 1.558 3977
1.466 3.843 1.609 3341
1.441 3.777 1.571 5121
1.391 3.645 1.520 1466
1.443 3.781 1.559 5169
1.498 3.927 1.615 1967
1.452 3.806 1.555 4929
1.503 3.938 1.605 4117
1.456 3.817 1.546 5687
1.507 3.949 1.596 3809
1.460 3.827 1.537 4761
1.511 3.960 1.586 1768
1.496 3.922 1.559 3461
1.446 3.789 1.510 1915
1.501 3.933 1.549 3342
1.554 4.073 1.600 2293
1.550 4.063 1.582 2386
1.486 3.895 1.522 2341
1.522 3.990 1.542 3295
1.573 4.123 1.590 2798
1.524 3.994 1.530 4180
1.585 4.155 1.587 3695
1.589 4.166 1.577 5104
1.522 3.990 1.515 3599
1.580 4.142 1.554 4353
1.516 3.973 1.496 1892
1.614 4.230 1.570 3838
1.563 4.096 1.524 3003
1.613 4.227 1.555 3716
1.551 4.065 1.500 1934
1.606 4.210 1.535 3389
1.550 4.062 1.485 1182
