1.060 2.780 1.732 4471
1.067 2.797 1.731 5493
1.012 2.654 1.648 3901
1.069 2.801 1.723 5770
1.022 2.678 1.651 3297
1.073 2.812 1.718 5176
1.026 2.688 1.647 3468
1.089 2.856 1.731 5460
1.032 2.705 1.646 3760
1.091 2.860 1.723 5210
1.036 2.716 1.641 2690
1.070 2.805 1.681 5733
1.118 2.930 1.750 1696
1.069 2.803 1.668 6223
1.117 2.928 1.738 2959
1.078 2.827 1.671 5677
1.126 2.952 1.740 2748
1.118 2.930 1.716 5473
1.070 2.805 1.648 3329
1.119 2.934 1.707 5893
1.072 2.809 1.639 3133
1.123 2.945 1.702 5177
1.076 2.820 1.634 3020
1.115 2.923 1.678 5970
1.067 2.797 1.611 1255
1.117 2.927 1.670 7953
1.118 2.931 1.661 9905
1.166 3.057 1.727 1688
1.125 2.949 1.658 9756
1.173 3.075 1.725 1815
1.129 2.959 1.653 7865
1.177 3.086 1.719 1738
1.138 2.983 1.654 6737
1.186 3.110 1.720 1859
1.142 2.994 1.648 6954
1.191 3.121 1.713 2904
1.169 3.065 1.673 8374
1.121 2.938 1.609 3416
1.151 3.016 1.637 10068
1.199 3.143 1.701 2901
1.155 3.027 1.631 10467
1.203 3.154 1.695 3315
1.164 3.051 1.632 7116
1.218 3.192 1.702 3225
1.168 3.062 1.625 5045
1.222 3.203 1.695 4079
1.226 3.213 1.689 4410
1.172 3.072 1.619 4040
1.192 3.123 1.633 8004
1.240 3.251 1.695 1962
1.196 3.134 1.626 10022
1.245 3.262 1.688 1005
1.197 3.138 1.617 9473
1.256 3.294 1.691 1094
1.204 3.156 1.614 7397
1.253 3.284 1.675 1866
1.236 3.241 1.642 6642
1.187 3.112 1.582 1164
1.243 3.259 1.639 9208
1.194 3.130 1.578 1150
1.253 3.283 1.638 10855
1.203 3.154 1.578 1239
1.257 3.294 1.631 10446
1.258 3.298 1.621 7723
1.308 3.427 1.680 1211
1.286 3.370 1.642 7230
1.236 3.241 1.583 2637
1.295 3.395 1.640 7058
1.246 3.265 1.582 2009
1.304 3.419 1.639 8181
1.255 3.290 1.581 2451
1.306 3.423 1.629 12360
1.256 3.294 1.571 1984
1.302 3.414 1.612 10491
1.253 3.284 1.555 1209
1.301 3.411 1.599 7541
1.316 3.449 1.603 6936
1.317 3.453 1.592 9124
1.367 3.584 1.648 1224
1.319 3.457 1.582 11328
1.369 3.588 1.637 2051
1.323 3.468 1.574 8264
1.373 3.599 1.629 2227
1.364 3.575 1.606 4498
1.314 3.444 1.552 2325
1.365 3.579 1.595 5223
1.388 3.638 1.607 5043
1.338 3.507 1.553 1889
1.390 3.642 1.596 6430
1.339 3.511 1.542 1262
1.394 3.653 1.587 6737
1.344 3.522 1.534 1172
1.401 3.671 1.581 6348
1.451 3.803 1.634 1706
1.413 3.703 1.581 5706
1.463 3.835 1.633 2064
1.414 3.707 1.570 5705
1.464 3.839 1.621 2536
1.418 3.718 1.561 5025
1.469 3.850 1.612 2472
1.430 3.749 1.560 6556
1.380 3.617 1.509 1160
1.453 3.809 1.570 5509
1.403 3.676 1.519 1517
1.460 3.827 1.563 5083
1.510 3.959 1.613 2148
1.461 3.831 1.551 3740
1.512 3.963 1.601 2479
1.489 3.904 1.566 3259
1.553 4.072 1.628 1360
1.494 3.915 1.556 2826
1.558 4.083 1.618 1485
1.500 3.933 1.549 2268
1.562 4.094 1.608 1730
1.537 4.028 1.570 3004
1.587 4.161 1.618 1652
1.541 4.039 1.560 3926
1.490 3.906 1.512 1767
1.566 4.106 1.570 4836
1.516 3.973 1.523 2363
1.576 4.131 1.564 5386
1.525 3.997 1.518 2301
1.583 4.149 1.557 5635
1.529 4.008 1.508 1742
1.584 4.153 1.544 6467
1.533 4.019 1.498 1187
1.586 4.157 1.531 5203
1.637 4.291 1.576 1519
1.617 4.238 1.544 4593
1.566 4.104 1.499 1221
1.640 4.298 1.550 3791
1.644 4.309 1.539 5165
1.637 4.292 1.519 6235
1.689 4.426 1.562 1270
1.639 4.296 1.505 4747
1.690 4.430 1.549 2216
1.640 4.299 1.492 2847
1.692 4.434 1.535 2331
1.642 4.303 1.479 3054
1.698 4.452 1.526 1840
1.703 4.463 1.514 2033
1.643 4.307 1.466 1751
1.699 4.452 1.496 2470
1.750 4.587 1.538 2213
1.703 4.463 1.484 2564
1.781 4.669 1.547 2330
1.788 4.687 1.537 3514
1.709 4.481 1.475 2799
1.787 4.684 1.521 5028
1.714 4.492 1.463 2140
1.786 4.681 1.504 4564
1.837 4.816 1.544 1146
1.790 4.692 1.492 3022
1.842 4.827 1.531 1771
1.829 4.795 1.506 4659
1.778 4.660 1.467 1599
1.836 4.813 1.495 5852
1.784 4.677 1.457 1517
1.840 4.824 1.482 5970
1.892 4.960 1.521 3140
1.894 4.964 1.505 4330
1.842 4.828 1.467 3989
1.901 4.982 1.494 4583
1.849 4.846 1.456 1715
1.902 4.985 1.478 4618
1.973 5.172 1.529 2556
1.901 4.982 1.461 3756
1.966 5.154 1.507 3182
1.940 5.086 1.472 2765
2.058 5.395 1.554 2613
2.068 5.420 1.543 2739
2.005 5.255 1.500 2471
2.069 5.424 1.526 2782
1.998 5.237 1.478 2646
2.065 5.413 1.506 3307
1.999 5.241 1.462 2344
2.064 5.410 1.487 2623
2.116 5.547 1.522 1928
2.095 5.493 1.490 3340
2.019 5.291 1.440 1857
2.097 5.496 1.473 4017
2.163 5.669 1.516 1498
2.104 5.515 1.460 3012
2.164 5.673 1.498 1640
2.229 5.843 1.520 2051
2.111 5.533 1.446 1924
2.230 5.847 1.502 2515
2.175 5.702 1.468 1527
2.257 5.915 1.499 2868
2.191 5.742 1.459 2344
2.255 5.912 1.479 3783
2.192 5.746 1.441 2085
2.257 5.916 1.461 2405
2.309 6.053 1.492 1606
2.308 6.049 1.471 2408
2.360 6.187 1.502 1271
2.309 6.053 1.452 2665
2.362 6.191 1.483 1710
2.313 6.064 1.435 2456
2.383 6.245 1.474 2076
2.436 6.387 1.484 2324
2.376 6.227 1.450 2113
2.438 6.390 1.464 1915
2.371 6.216 1.428 1740
2.400 6.292 1.424 2067
2.558 6.706 1.509 1945
2.560 6.710 1.488 2224
2.405 6.303 1.406 1823
2.572 6.743 1.473 2203
2.409 6.314 1.388 1243
2.579 6.761 1.455 2362
2.490 6.528 1.409 1591
2.639 6.917 1.464 1827
2.494 6.539 1.391 1715
2.640 6.921 1.442 2623
2.560 6.710 1.402 1635
2.636 6.910 1.418 3643
2.728 7.150 1.463 1706
2.637 6.913 1.396 3935
2.799 7.336 1.474 1619
2.639 6.917 1.375 2768
2.822 7.398 1.462 1554
2.779 7.285 1.418 1936
2.832 7.424 1.443 1464
2.842 7.449 1.423 2491
2.780 7.288 1.395 1939
2.843 7.452 1.400 3084
2.790 7.314 1.377 1927
2.881 7.551 1.393 2680
2.783 7.295 1.350 1766
2.885 7.562 1.371 2064
2.949 7.730 1.398 1807
2.864 7.506 1.338 1732
3.318 8.699 1.530 1689
3.320 8.702 1.503 2090
3.063 8.029 1.396 1348
3.321 8.706 1.475 2315
3.064 8.033 1.371 1678
3.323 8.710 1.448 2140
3.066 8.036 1.347 1746
3.321 8.706 1.420 2016
3.374 8.845 1.441 1400
3.323 8.709 1.393 2156
3.376 8.849 1.413 1174
3.327 8.720 1.367 2099
3.331 8.731 1.341 1459
0.807 2.093 1.708 3440
0.809 2.098 1.702 6881
0.751 1.947 1.587 1939
0.811 2.102 1.695 6881
0.752 1.951 1.581 1914
0.812 2.106 1.689 6977
0.752 1.949 1.570 1445
0.814 2.110 1.682 7073
0.746 1.935 1.551 1106
0.815 2.115 1.676 5960
0.860 2.230 1.762 1085
0.817 2.119 1.669 4848
0.862 2.234 1.755 1506
0.821 2.129 1.667 4621
0.866 2.245 1.753 1093
0.823 2.133 1.661 4430
0.867 2.249 1.746 1368
0.824 2.137 1.654 4431
0.869 2.253 1.739 1644
0.826 2.141 1.648 4651
0.871 2.258 1.732 1773
0.830 2.152 1.646 4880
0.875 2.268 1.730 1769
0.850 2.205 1.674 5246
0.895 2.322 1.758 1471
0.852 2.209 1.668 5963
0.907 2.351 1.768 1989
0.858 2.226 1.670 6440
0.908 2.355 1.761 1989
0.865 2.242 1.671 7470
0.915 2.372 1.762 2694
0.864 2.240 1.660 7453
0.916 2.376 1.755 3527
0.868 2.250 1.658 6427
0.918 2.381 1.748 4855
0.920 2.385 1.740 6182
0.869 2.255 1.651 5455
0.921 2.390 1.733 5629
0.873 2.265 1.648 5288
0.877 2.275 1.645 5177
0.926 2.400 1.730 5111
0.930 2.411 1.727 5533
0.881 2.286 1.643 5450
0.890 2.309 1.648 6334
0.936 2.428 1.728 5890
0.935 2.426 1.716 6935
0.889 2.306 1.637 4611
0.939 2.436 1.713 7969
0.893 2.317 1.634 2932
0.944 2.447 1.710 7789
0.888 2.302 1.615 2439
0.950 2.464 1.710 8251
0.887 2.300 1.603 2009
0.947 2.455 1.695 10603
0.888 2.304 1.596 1360
0.946 2.453 1.683 13639
0.992 2.574 1.760 1173
0.950 2.464 1.680 15379
0.997 2.584 1.757 2383
0.952 2.468 1.672 17334
0.998 2.589 1.749 3598
0.958 2.485 1.672 14656
1.005 2.606 1.749 5060
0.965 2.502 1.673 14177
1.011 2.623 1.749 5233
0.969 2.512 1.669 10283
1.016 2.634 1.745 3779
0.988 2.561 1.689 9455
0.992 2.572 1.685 7720
1.039 2.694 1.760 1748
0.993 2.576 1.677 5879
1.040 2.698 1.752 2791
0.993 2.574 1.665 5738
1.040 2.696 1.739 3457
0.992 2.572 1.654 4384
1.039 2.694 1.727 3644
1.041 2.698 1.719 3414
0.993 2.576 1.646 3165
1.015 2.631 1.669 3507
1.065 2.761 1.745 3042
1.016 2.636 1.661 4350
1.066 2.765 1.737 4307
1.073 2.782 1.736 4730
1.020 2.646 1.656 4326
1.077 2.793 1.731 5852
1.030 2.670 1.659 3916
1.081 2.804 1.726 6142
1.034 2.680 1.655 3417
1.083 2.808 1.718 5425
1.035 2.685 1.647 3440
1.100 2.852 1.731 5577
1.042 2.702 1.646 3677
1.101 2.856 1.723 5116
1.046 2.712 1.641 2638
1.083 2.808 1.684 5586
1.131 2.932 1.754 1286
1.082 2.806 1.672 6007
1.130 2.930 1.741 2506
1.089 2.823 1.671 5414
1.137 2.948 1.740 2806
1.131 2.932 1.720 5248
1.083 2.807 1.651 3374
1.132 2.937 1.711 5618
1.084 2.812 1.643 3067
1.134 2.941 1.702 5340
1.086 2.816 1.634 2723
1.126 2.919 1.678 7013
1.077 2.793 1.611 1023
1.127 2.923 1.670 9749
1.131 2.934 1.664 11639
1.180 3.060 1.731 1399
1.135 2.944 1.658 10969
1.184 3.070 1.725 1966
1.137 2.949 1.649 8413
1.186 3.075 1.715 2336
1.144 2.966 1.647 7156
1.192 3.092 1.713 2762
1.181 3.063 1.686 8385
1.133 2.937 1.621 4056
1.180 3.061 1.673 10185
1.131 2.934 1.609 2768
1.164 3.018 1.640 9307
1.213 3.145 1.704 2275
1.168 3.029 1.634 9448
1.217 3.156 1.698 2349
1.175 3.047 1.632 7118
1.226 3.180 1.698 3166
1.182 3.064 1.629 5737
1.231 3.191 1.692 4357
1.191 3.088 1.629 4745
1.240 3.216 1.692 4182
1.203 3.119 1.633 8398
1.252 3.247 1.695 1947
1.207 3.130 1.626 10210
1.256 3.258 1.688 1018
1.211 3.141 1.620 9885
1.268 3.289 1.691 1326
1.220 3.165 1.620 8758
1.270 3.293 1.681 1711
1.243 3.223 1.636 6481
1.193 3.095 1.575 1055
1.258 3.261 1.642 8630
1.208 3.132 1.582 1620
1.267 3.285 1.641 11090
1.217 3.157 1.581 1146
1.269 3.289 1.631 10771
1.270 3.294 1.621 7873
1.320 3.423 1.680 1049
1.298 3.366 1.642 7355
1.248 3.236 1.583 2393
1.302 3.376 1.634 7403
1.252 3.247 1.576 1229
1.317 3.415 1.639 8468
1.267 3.285 1.581 1812
1.318 3.419 1.629 12503
1.268 3.289 1.571 1622
1.320 3.423 1.618 9836
1.270 3.293 1.561 1283
1.329 3.447 1.616 6576
1.331 3.451 1.606 6891
1.330 3.448 1.592 8423
1.380 3.579 1.648 1336
1.331 3.452 1.582 10254
1.382 3.583 1.637 2112
1.338 3.470 1.577 7735
1.389 3.601 1.632 1798
1.364 3.536 1.592 4808
1.414 3.667 1.646 1192
1.378 3.574 1.595 5496
1.404 3.640 1.610 6467
1.353 3.509 1.556 2430
1.403 3.637 1.596 7684
1.352 3.506 1.542 1382
1.404 3.641 1.584 7444
1.455 3.773 1.637 1102
1.408 3.652 1.576 7013
1.459 3.784 1.628 2509
1.415 3.670 1.570 6367
1.466 3.802 1.622 3514
1.427 3.702 1.570 5685
1.478 3.833 1.621 2568
1.432 3.712 1.561 4665
1.482 3.844 1.612 2552
1.446 3.751 1.563 6116
1.396 3.619 1.512 1241
1.451 3.762 1.554 4832
1.502 3.894 1.604 1900
1.476 3.828 1.566 5295
1.527 3.961 1.616 2055
1.475 3.825 1.551 4549
1.526 3.958 1.601 2684
1.474 3.822 1.537 3087
1.525 3.955 1.586 1980
1.505 3.903 1.554 2509
1.567 4.064 1.613 1361
1.550 4.019 1.582 2458
1.498 3.886 1.534 1776
1.554 4.029 1.572 3716
1.503 3.896 1.524 1759
1.563 4.054 1.567 4850
1.512 3.921 1.520 2885
1.581 4.100 1.570 5249
1.530 3.967 1.523 2664
1.591 4.125 1.564 6358
1.539 3.992 1.518 2460
1.600 4.150 1.559 5562
1.549 4.017 1.513 2017
1.605 4.161 1.549 5282
1.553 4.027 1.503 1251
1.598 4.144 1.528 4886
1.650 4.278 1.574 2338
1.637 4.246 1.549 3876
1.586 4.112 1.504 2174
1.658 4.299 1.552 3983
1.606 4.165 1.508 1536
1.659 4.303 1.539 5297
1.608 4.169 1.495 1317
1.655 4.293 1.521 5556
1.707 4.427 1.565 1608
1.654 4.290 1.505 4251
1.706 4.424 1.549 2610
1.694 4.392 1.524 3094
1.642 4.258 1.481 1498
1.660 4.304 1.481 2974
1.712 4.439 1.524 1965
1.716 4.450 1.512 2002
1.661 4.308 1.468 1598
1.712 4.439 1.494 2424
1.797 4.659 1.562 1767
1.719 4.457 1.484 2047
1.804 4.677 1.552 1903
1.805 4.681 1.537 3804
1.726 4.475 1.475 2538
1.807 4.685 1.523 4930
1.727 4.478 1.461 2032
1.805 4.681 1.506 4049
1.857 4.817 1.546 1083
1.804 4.678 1.490 3377
1.856 4.813 1.529 1951
1.847 4.789 1.506 4106
1.794 4.653 1.467 1542
1.851 4.800 1.493 5026
1.903 4.935 1.532 1082
1.855 4.810 1.480 5507
1.907 4.946 1.519 3557
1.912 4.957 1.505 4748
1.859 4.821 1.467 3953
1.916 4.968 1.492 4204
1.863 4.832 1.454 1427
1.917 4.971 1.476 4181
2.005 5.201 1.539 2365
1.916 4.968 1.459 3883
1.977 5.126 1.501 2648
1.959 5.079 1.472 2907
2.033 5.273 1.524 2511
2.087 5.413 1.543 2417
2.026 5.255 1.502 2237
2.083 5.402 1.523 2912
2.008 5.208 1.472 2417
2.082 5.399 1.504 3487
2.013 5.219 1.458 1722
2.056 5.331 1.469 2227
2.122 5.503 1.513 1467
2.115 5.485 1.490 2738
2.171 5.629 1.526 1516
2.111 5.474 1.470 4265
2.169 5.626 1.507 1344
2.112 5.478 1.453 3094
2.187 5.673 1.500 1767
2.250 5.835 1.520 2061
2.131 5.525 1.446 1697
2.252 5.839 1.502 2332
2.149 5.572 1.439 1112
2.275 5.900 1.497 3370
2.214 5.741 1.460 2210
2.277 5.904 1.479 4167
2.213 5.738 1.441 2109
2.278 5.907 1.461 2659
2.331 6.045 1.492 1979
2.330 6.041 1.471 2807
2.268 5.882 1.436 1434
2.331 6.045 1.452 2754
2.412 6.255 1.498 1344
2.332 6.048 1.434 2223
2.411 6.251 1.477 1774
2.459 6.378 1.484 2358
2.398 6.218 1.450 1814
2.461 6.381 1.464 1754
2.394 6.207 1.428 1708
2.580 6.690 1.507 1766
2.420 6.276 1.422 1747
2.584 6.701 1.488 2217
2.528 6.556 1.459 1691
2.591 6.719 1.470 1993
2.529 6.559 1.438 1626
2.609 6.766 1.458 2410
2.514 6.519 1.409 1776
2.518 6.530 1.391 2003
2.605 6.755 1.434 1552
2.665 6.911 1.442 2339
2.522 6.540 1.372 1815
2.661 6.900 1.418 3177
2.756 7.148 1.464 2030
2.662 6.904 1.396 3416
2.758 7.151 1.442 1472
2.664 6.907 1.375 2533
2.717 7.046 1.400 1456
2.803 7.268 1.417 1927
2.713 7.034 1.375 1554
2.869 7.439 1.423 2279
2.809 7.286 1.397 1982
2.870 7.442 1.400 2653
2.814 7.296 1.375 1935
2.911 7.548 1.394 2138
2.809 7.285 1.350 1760
2.912 7.551 1.371 1653
2.977 7.719 1.398 1628
3.350 8.687 1.530 1568
2.891 7.496 1.338 1466
3.351 8.690 1.503 1847
3.095 8.025 1.398 1225
3.350 8.687 1.474 2121
3.093 8.021 1.371 1577
3.354 8.698 1.448 2064
3.095 8.025 1.347 1602
3.355 8.701 1.421 1946
3.409 8.840 1.442 1160
3.357 8.705 1.394 2190
3.358 8.708 1.367 2194
3.362 8.719 1.341 1482
0.810 2.086 1.703 4113
0.812 2.090 1.697 8227
0.749 1.928 1.573 1576
0.813 2.094 1.691 8227
0.750 1.931 1.567 1677
0.817 2.104 1.689 8613
0.752 1.935 1.561 1811
0.819 2.108 1.682 9005
0.755 1.945 1.560 1868
0.820 2.113 1.676 7466
0.757 1.949 1.554 1480
0.824 2.123 1.674 5979
0.761 1.959 1.552 1111
0.826 2.127 1.667 5734
0.830 2.137 1.665 5615
0.875 2.253 1.750 1004
0.832 2.141 1.659 5615
0.877 2.257 1.743 1325
0.833 2.146 1.652 6016
0.878 2.262 1.736 1840
0.832 2.144 1.641 6420
0.878 2.260 1.725 2516
0.836 2.154 1.639 5284
0.882 2.271 1.723 3991
0.881 2.269 1.711 5862
0.833 2.146 1.624 4113
0.873 2.248 1.687 7007
0.828 2.131 1.604 3092
0.875 2.252 1.680 8959
0.829 2.135 1.598 3151
0.874 2.250 1.669 8947
0.922 2.374 1.755 3889
0.876 2.255 1.662 7962
0.924 2.379 1.748 5138
0.880 2.265 1.659 6964
0.925 2.383 1.740 6388
0.881 2.269 1.652 6804
0.927 2.387 1.733 5722
0.885 2.279 1.650 6712
0.931 2.398 1.730 5134
0.887 2.284 1.643 7035
0.935 2.409 1.727 5276
0.891 2.294 1.640 7535
0.939 2.419 1.724 5498
0.941 2.423 1.716 6273
0.892 2.298 1.633 5613
0.945 2.434 1.713 7168
0.894 2.302 1.626 3691
0.949 2.445 1.710 7261
0.896 2.306 1.619 3248
0.958 2.468 1.714 8382
0.897 2.310 1.612 2805
0.953 2.453 1.695 10522
0.899 2.314 1.605 2000
0.952 2.451 1.683 13665
0.898 2.312 1.593 1221
0.956 2.461 1.680 15415
1.003 2.582 1.757 2063
0.958 2.466 1.672 17372
1.004 2.586 1.749 3207
0.964 2.483 1.672 14751
1.011 2.603 1.749 4585
0.973 2.506 1.677 14893
1.020 2.627 1.753 4076
0.977 2.516 1.673 11194
1.024 2.638 1.749 2925
0.994 2.559 1.689 9793
1.041 2.680 1.764 1039
0.995 2.563 1.681 8104
1.043 2.685 1.756 2117
0.997 2.567 1.673 6439
1.044 2.689 1.748 3391
0.999 2.571 1.665 6464
1.046 2.694 1.739 3587
0.998 2.569 1.654 4782
1.045 2.691 1.727 3577
1.022 2.631 1.681 3572
1.072 2.760 1.758 1914
1.023 2.635 1.672 3827
1.071 2.758 1.745 3231
1.070 2.756 1.733 4583
1.023 2.633 1.661 3996
1.080 2.780 1.736 4836
1.032 2.657 1.664 4402
1.084 2.791 1.731 6103
1.036 2.667 1.659 3996
1.088 2.801 1.726 6437
1.040 2.678 1.655 3344
1.090 2.806 1.718 5374
1.042 2.682 1.647 3128
1.106 2.849 1.731 5355
1.051 2.706 1.650 3477
1.108 2.853 1.723 4680
1.055 2.716 1.645 2609
1.090 2.805 1.684 5301
1.138 2.930 1.754 1222
1.091 2.810 1.676 5819
1.139 2.934 1.745 1882
1.098 2.827 1.674 5390
1.146 2.952 1.743 2327
1.140 2.936 1.723 4895
1.092 2.811 1.655 3553
1.139 2.934 1.711 5321
1.091 2.809 1.643 3069
1.144 2.945 1.705 5217
1.095 2.820 1.638 2738
1.132 2.916 1.678 7400
1.134 2.920 1.670 10735
1.138 2.931 1.664 12560
1.187 3.057 1.731 1438
1.142 2.942 1.658 11603
1.191 3.068 1.725 1895
1.144 2.946 1.649 8732
1.193 3.072 1.715 2249
1.148 2.957 1.644 7533
1.197 3.083 1.709 3281
1.189 3.061 1.686 9142
1.139 2.934 1.621 4242
1.188 3.058 1.673 10976
1.138 2.931 1.609 2499
1.181 3.042 1.654 8806
1.175 3.026 1.634 8383
1.225 3.153 1.698 1967
1.185 3.050 1.635 7271
1.234 3.178 1.698 3076
1.191 3.068 1.632 6665
1.241 3.195 1.695 4010
1.198 3.085 1.629 5552
1.248 3.213 1.692 3680
1.210 3.116 1.633 8290
1.260 3.244 1.695 1701
1.214 3.127 1.626 9854
1.221 3.145 1.623 9907
1.279 3.293 1.694 1299
1.228 3.162 1.620 9616
1.278 3.290 1.681 1450
1.237 3.186 1.620 7170
1.287 3.315 1.681 1996
1.270 3.272 1.648 7815
1.221 3.143 1.588 2143
1.275 3.282 1.641 10775
1.276 3.286 1.631 10663
1.280 3.297 1.624 8064
1.306 3.362 1.642 7375
1.256 3.233 1.583 2208
1.310 3.373 1.634 7499
1.260 3.244 1.576 1112
1.325 3.411 1.639 8150
1.272 3.275 1.578 1288
1.326 3.416 1.629 11773
1.276 3.286 1.571 1348
1.333 3.433 1.624 9055
1.283 3.303 1.567 1164
1.338 3.444 1.616 6249
1.350 3.476 1.618 6575
1.299 3.345 1.561 1245
1.338 3.445 1.592 7725
1.389 3.575 1.648 1494
1.339 3.449 1.582 9178
1.390 3.580 1.637 2358
1.349 3.474 1.580 7240
1.400 3.604 1.635 1530
1.369 3.526 1.589 5351
1.420 3.656 1.643 1243
1.387 3.571 1.595 6228
1.410 3.630 1.607 7731
1.359 3.499 1.553 2440
1.411 3.634 1.596 8744
1.360 3.503 1.542 1503
1.410 3.631 1.582 8141
1.461 3.762 1.634 1611
1.417 3.649 1.576 7603
1.468 3.780 1.628 2965
1.421 3.660 1.567 6977
1.472 3.791 1.619 3787
1.436 3.698 1.570 4962
1.487 3.830 1.621 2388
1.440 3.709 1.561 4182
1.492 3.841 1.612 2640
1.455 3.748 1.563 5231
1.507 3.880 1.614 1344
1.454 3.745 1.549 4373
1.505 3.877 1.599 2163
1.488 3.832 1.569 5040
1.437 3.700 1.519 1934
1.481 3.815 1.549 4996
1.533 3.947 1.598 2855
1.483 3.819 1.537 3457
1.534 3.951 1.586 2146
1.509 3.885 1.548 2866
1.574 4.053 1.610 1261
1.556 4.008 1.580 2798
1.505 3.875 1.531 2358
1.566 4.033 1.575 4125
1.515 3.900 1.527 2707
1.576 4.058 1.570 6141
1.524 3.925 1.522 3172
1.583 4.076 1.562 6301
1.531 3.942 1.515 2652
1.598 4.114 1.562 6814
1.546 3.981 1.515 2485
1.605 4.132 1.554 5053
1.553 3.999 1.508 1705
1.617 4.164 1.551 4329
1.565 4.031 1.505 1736
1.605 4.133 1.526 4502
1.657 4.267 1.572 2871
1.650 4.249 1.551 3671
1.598 4.116 1.506 2615
1.668 4.296 1.552 3672
1.613 4.155 1.505 2132
1.672 4.306 1.541 4775
1.620 4.172 1.497 1633
1.660 4.275 1.516 4566
1.712 4.409 1.560 2581
1.700 4.378 1.535 3901
1.648 4.243 1.492 2004
1.674 4.311 1.499 2891
1.726 4.445 1.542 1966
1.675 4.314 1.486 2626
1.728 4.449 1.528 1794
1.732 4.460 1.516 2205
1.680 4.325 1.474 1661
1.725 4.442 1.496 2344
1.810 4.662 1.564 1504
1.815 4.673 1.552 2136
1.740 4.481 1.493 1884
1.813 4.670 1.535 4208
1.739 4.478 1.477 2358
1.815 4.673 1.521 4620
1.738 4.474 1.461 1764
1.819 4.684 1.508 3688
1.872 4.819 1.548 1037
1.848 4.759 1.515 3778
1.796 4.624 1.475 1625
1.855 4.777 1.504 4290
1.803 4.642 1.465 1533
1.862 4.795 1.493 5364
1.915 4.931 1.532 1106
1.864 4.799 1.478 5604
1.919 4.942 1.519 3739
1.920 4.945 1.503 5410
1.868 4.810 1.465 3912
1.925 4.956 1.490 4617
1.872 4.820 1.452 1296
1.926 4.960 1.475 4466
2.015 5.189 1.537 2144
1.928 4.963 1.459 4217
2.058 5.300 1.550 2389
1.932 4.974 1.446 2782
2.046 5.268 1.524 2500
2.028 5.221 1.494 2523
2.103 5.415 1.545 1931
2.090 5.383 1.519 3323
2.021 5.204 1.472 2521
2.095 5.394 1.504 3398
2.022 5.207 1.456 1465
2.068 5.326 1.469 2326
2.146 5.527 1.520 1225
2.131 5.487 1.492 2295
2.184 5.624 1.526 1650
2.124 5.469 1.470 4212
2.177 5.606 1.503 1792
2.125 5.473 1.453 3059
2.195 5.653 1.496 1914
2.200 5.664 1.480 1831
2.264 5.830 1.520 1674
2.288 5.891 1.515 1819
2.235 5.754 1.483 1535
2.289 5.895 1.497 3855
2.230 5.743 1.462 1761
2.288 5.891 1.477 4371
2.223 5.725 1.439 1902
2.286 5.888 1.457 2882
2.348 6.046 1.493 2295
2.344 6.036 1.471 3096
2.285 5.884 1.437 1809
2.343 6.032 1.451 2734
2.289 5.895 1.421 1195
2.344 6.036 1.432 2125
2.425 6.245 1.477 1491
2.475 6.372 1.484 2281
2.387 6.148 1.436 2207
2.479 6.383 1.466 1889
2.397 6.173 1.422 1806
2.418 6.227 1.413 1784
2.472 6.365 1.442 1457
2.600 6.695 1.488 2005
2.543 6.550 1.459 1886
2.545 6.553 1.438 1975
2.629 6.771 1.482 1857
2.625 6.760 1.458 2495
2.529 6.513 1.409 1826
2.533 6.524 1.391 2058
2.624 6.756 1.435 1695
2.724 7.014 1.463 2374
2.538 6.534 1.372 1913
2.776 7.148 1.465 2634
2.720 7.003 1.438 2540
2.679 6.897 1.396 2522
2.777 7.152 1.443 1920
2.683 6.908 1.376 2006
2.736 7.046 1.401 1580
2.820 7.261 1.417 1931
2.735 7.042 1.378 1787
2.889 7.439 1.425 2194
2.821 7.264 1.394 2021
2.890 7.443 1.401 2354
2.828 7.282 1.374 1769
2.829 7.286 1.351 1603
2.934 7.555 1.397 1505
2.998 7.719 1.399 1404
2.856 7.355 1.340 1211
3.370 8.679 1.530 1354
2.911 7.496 1.339 1297
3.369 8.675 1.501 1438
3.148 8.106 1.411 1209
3.370 8.679 1.474 1600
3.109 8.007 1.370 1383
3.372 8.682 1.447 1589
3.114 8.017 1.347 1405
3.373 8.686 1.420 1550
3.427 8.825 1.441 1044
3.375 8.689 1.393 1841
3.379 8.700 1.367 1982
3.383 8.711 1.341 1434
0.816 2.083 1.703 4897
0.818 2.087 1.697 9795
0.759 1.937 1.582 1909
0.820 2.092 1.691 9795
0.761 1.941 1.576 1859
0.821 2.096 1.684 10252
0.760 1.939 1.566 1562
0.825 2.106 1.682 10799
0.761 1.943 1.560 1315
0.827 2.110 1.676 8738
0.831 2.120 1.674 6831
0.835 2.131 1.672 6602
0.836 2.135 1.665 6834
0.882 2.250 1.750 1021
0.841 2.145 1.663 7219
0.886 2.261 1.748 1139
0.840 2.143 1.652 7805
0.885 2.259 1.736 2090
0.841 2.147 1.646 8403
0.887 2.264 1.730 2779
0.841 2.145 1.635 6861
0.886 2.262 1.718 4667
0.888 2.266 1.711 6311
0.840 2.143 1.624 5369
0.882 2.252 1.691 7845
0.836 2.135 1.609 4271
0.882 2.250 1.680 10185
0.836 2.133 1.598 3470
0.883 2.254 1.673 10179
0.929 2.371 1.755 3924
0.885 2.258 1.666 9183
0.931 2.376 1.748 5121
0.889 2.268 1.664 8225
0.935 2.386 1.745 6278
0.891 2.273 1.657 8790
0.937 2.391 1.737 5713
0.892 2.277 1.650 9356
0.939 2.395 1.730 5148
0.896 2.287 1.647 9702
0.943 2.406 1.727 4941
0.898 2.291 1.640 10091
0.944 2.410 1.719 4773
0.899 2.295 1.633 8222
0.948 2.421 1.716 5223
0.901 2.299 1.626 6352
0.950 2.425 1.709 5727
0.957 2.442 1.710 6075
0.903 2.303 1.619 5317
0.966 2.465 1.714 7788
0.904 2.307 1.612 4283
0.960 2.450 1.695 9675
0.908 2.318 1.609 3250
0.959 2.448 1.683 12903
0.910 2.322 1.602 2248
0.963 2.459 1.680 14719
1.010 2.579 1.757 1729
0.965 2.463 1.672 16823
1.012 2.583 1.749 2878
0.974 2.486 1.676 14548
1.021 2.607 1.753 3723
0.983 2.509 1.681 15352
1.031 2.630 1.757 2955
0.987 2.520 1.677 12200
1.035 2.641 1.753 2217
0.996 2.543 1.681 9926
1.044 2.664 1.756 1581
1.003 2.560 1.681 8189
1.051 2.682 1.756 2139
1.007 2.571 1.677 6923
1.055 2.692 1.752 2939
1.009 2.575 1.669 7178
1.057 2.697 1.743 3073
1.006 2.566 1.654 5349
1.053 2.688 1.727 3594
1.030 2.628 1.681 5115
0.982 2.506 1.607 1905
1.031 2.632 1.672 5052
1.079 2.755 1.745 3182
1.058 2.701 1.702 5394
1.010 2.578 1.630 2207
1.050 2.679 1.679 6373
1.098 2.802 1.751 3177
1.054 2.690 1.675 7209
1.102 2.813 1.746 4516
1.061 2.707 1.674 7641
1.109 2.831 1.745 4270
1.062 2.711 1.665 5679
1.111 2.835 1.736 4478
1.113 2.839 1.728 4686
1.064 2.716 1.657 3718
1.119 2.857 1.726 3810
1.066 2.720 1.649 2807
1.098 2.802 1.684 4701
1.147 2.926 1.754 1039
1.100 2.806 1.676 5304
1.148 2.931 1.745 1574
1.109 2.830 1.678 5084
1.158 2.955 1.747 1906
1.118 2.854 1.680 4711
1.167 2.979 1.749 1797
1.151 2.937 1.714 5245
1.102 2.812 1.646 3416
1.153 2.941 1.705 5071
1.104 2.816 1.638 2798
1.141 2.913 1.678 7510
1.143 2.917 1.670 11475
1.192 3.042 1.737 1163
1.147 2.928 1.664 13336
1.196 3.053 1.731 1495
1.149 2.932 1.655 12218
1.198 3.057 1.721 2305
1.153 2.942 1.649 9046
1.202 3.068 1.715 1997
1.155 2.947 1.640 7863
1.204 3.073 1.706 3611
1.195 3.050 1.683 9196
1.146 2.924 1.618 3953
1.197 3.054 1.673 10670
1.147 2.928 1.609 2720
1.196 3.052 1.660 8319
1.146 2.925 1.596 1401
1.192 3.043 1.644 7254
1.242 3.170 1.708 1315
1.196 3.053 1.638 7221
1.246 3.180 1.702 2674
1.203 3.071 1.635 7289
1.253 3.198 1.698 2908
1.208 3.082 1.629 5979
1.257 3.209 1.692 2562
1.220 3.113 1.633 7485
1.270 3.240 1.695 1157
1.224 3.123 1.626 9074
1.233 3.148 1.627 10114
1.294 3.302 1.701 1027
1.240 3.165 1.623 10160
1.244 3.176 1.617 7607
1.295 3.304 1.677 2053
1.283 3.274 1.651 6878
1.233 3.146 1.591 2156
1.285 3.279 1.641 9585
1.286 3.283 1.631 9752
1.290 3.293 1.624 7780
1.313 3.352 1.639 6919
1.263 3.223 1.580 1997
1.318 3.363 1.631 7256
1.267 3.233 1.573 1160
1.335 3.407 1.639 7256
1.337 3.412 1.629 10279
1.286 3.282 1.571 1199
1.344 3.429 1.624 8464
1.290 3.293 1.564 1047
1.348 3.440 1.616 6250
1.350 3.444 1.606 5913
1.348 3.441 1.592 6480
1.399 3.571 1.648 1579
1.350 3.445 1.582 7599
1.401 3.575 1.637 2469
1.362 3.476 1.582 6235
1.413 3.607 1.637 1390
1.380 3.522 1.589 5344
1.431 3.652 1.643 1220
1.400 3.574 1.598 7364
1.418 3.619 1.604 8974
1.367 3.488 1.550 2543
1.422 3.630 1.596 9738
1.371 3.499 1.542 1905
1.421 3.627 1.582 8600
1.473 3.758 1.634 2087
1.425 3.638 1.573 8026
1.477 3.769 1.626 3311
1.430 3.648 1.565 7887
1.481 3.780 1.617 3617
1.431 3.652 1.553 4754
1.485 3.791 1.608 3083
1.457 3.719 1.566 3805
1.509 3.850 1.618 2800
1.453 3.708 1.549 4513
1.505 3.840 1.600 2826
1.455 3.712 1.538 3985
1.506 3.844 1.588 3160
1.505 3.841 1.574 4631
1.453 3.709 1.524 2301
1.490 3.803 1.546 5557
1.542 3.936 1.596 2779
1.497 3.821 1.540 4354
1.549 3.953 1.589 2269
1.523 3.888 1.551 3813
1.575 4.020 1.600 1492
1.525 3.891 1.539 3763
1.577 4.024 1.587 2825
1.589 4.056 1.585 4226
1.537 3.923 1.537 4046
1.588 4.053 1.570 6468
1.536 3.920 1.522 3099
1.595 4.071 1.562 6902
1.543 3.938 1.515 2920
1.608 4.103 1.559 5953
1.547 3.948 1.505 2847
1.615 4.120 1.552 4497
1.562 3.987 1.505 1642
1.613 4.117 1.536 3882
1.666 4.251 1.582 1859
1.615 4.121 1.524 4021
1.667 4.255 1.569 2961
1.660 4.237 1.549 2773
1.608 4.104 1.504 2266
1.654 4.220 1.529 3042
1.706 4.354 1.573 1115
1.655 4.224 1.516 4261
1.708 4.358 1.560 2044
1.668 4.256 1.512 4579
1.720 4.390 1.555 3031
1.713 4.372 1.535 3793
1.661 4.238 1.492 2826
1.687 4.306 1.499 3533
1.740 4.440 1.542 1731
1.705 4.352 1.499 3379
1.758 4.486 1.541 2102
1.718 4.384 1.494 3320
1.770 4.518 1.536 1702
1.755 4.479 1.509 2741
1.702 4.345 1.468 2464
1.765 4.504 1.502 2579
1.832 4.674 1.554 1915
1.825 4.657 1.533 3724
1.761 4.494 1.484 2266
1.824 4.654 1.516 3935
1.760 4.490 1.468 1551
1.828 4.665 1.504 3357
1.881 4.800 1.544 1560
1.860 4.746 1.512 5138
1.807 4.611 1.473 1373
1.867 4.764 1.502 5276
1.814 4.629 1.463 1377
1.877 4.789 1.493 6688
1.930 4.925 1.532 1041
1.878 4.793 1.478 6131
1.931 4.929 1.517 3818
1.930 4.925 1.499 6374
1.877 4.790 1.461 3595
1.929 4.922 1.482 6074
2.001 5.107 1.533 1571
1.933 4.932 1.469 5691
2.006 5.118 1.519 1995
1.940 4.950 1.457 4850
2.077 5.301 1.552 2832
1.958 4.997 1.453 2936
2.053 5.240 1.518 2794
2.041 5.208 1.492 3753
2.102 5.366 1.534 1829
2.107 5.376 1.519 3535
2.037 5.197 1.472 2917
2.083 5.316 1.486 3426
2.030 5.179 1.451 1350
2.084 5.319 1.469 3332
2.157 5.506 1.516 1336
2.190 5.589 1.519 2108
2.136 5.452 1.485 1880
2.141 5.463 1.470 3721
2.194 5.600 1.503 2047
2.139 5.459 1.451 2841
2.210 5.639 1.494 2252
2.214 5.650 1.479 2760
2.267 5.787 1.511 2027
2.260 5.769 1.488 2283
2.314 5.906 1.521 2013
2.307 5.888 1.497 4230
2.225 5.679 1.449 1951
2.303 5.877 1.476 4432
2.227 5.682 1.431 1631
2.304 5.881 1.457 3124
2.366 6.039 1.493 2417
2.362 6.028 1.471 3242
2.303 5.877 1.437 2066
2.361 6.025 1.451 2659
2.451 6.256 1.502 1236
2.399 6.122 1.452 2108
2.456 6.267 1.484 1323
2.406 6.140 1.436 2786
2.497 6.372 1.486 2195
2.495 6.368 1.464 2315
2.413 6.158 1.420 2233
2.417 6.169 1.403 2015
2.491 6.357 1.442 1658
2.563 6.542 1.459 1818
2.617 6.679 1.487 1725
2.565 6.545 1.438 2013
2.656 6.777 1.485 1826
2.648 6.759 1.459 2214
2.549 6.505 1.409 1837
2.553 6.516 1.391 2150
2.641 6.741 1.434 1700
2.742 6.998 1.461 2469
2.555 6.519 1.370 2097
2.798 7.140 1.465 2791
2.741 6.995 1.438 2766
2.799 7.144 1.443 2154
2.731 6.969 1.411 1896
2.758 7.038 1.401 1929
2.829 7.220 1.434 1355
2.759 7.041 1.379 2198
2.839 7.245 1.415 1809
2.840 7.248 1.393 2087
2.912 7.430 1.425 1954
2.916 7.441 1.403 1870
2.850 7.274 1.374 1441
2.886 7.364 1.366 1456
2.974 7.590 1.404 1057
2.876 7.339 1.338 1164
3.150 8.038 1.453 1136
2.934 7.488 1.339 1314
3.165 8.078 1.434 1267
3.172 8.096 1.411 1484
3.174 8.099 1.386 1261
3.450 8.804 1.467 1201
3.395 8.665 1.446 1096
3.397 8.668 1.419 1170
3.401 8.679 1.393 1454
3.405 8.690 1.367 1669
3.409 8.700 1.341 1273
0.823 2.080 1.703 5247
0.825 2.085 1.697 10494
0.765 1.935 1.582 1565
0.826 2.089 1.691 10494
0.767 1.939 1.576 1512
0.828 2.093 1.684 11065
0.766 1.937 1.566 1302
0.830 2.097 1.678 11635
0.765 1.934 1.555 1185
0.834 2.107 1.676 9229
0.784 1.981 1.581 1279
0.838 2.118 1.674 7085
0.787 1.990 1.579 1543
0.842 2.128 1.672 6897
0.789 1.994 1.573 1409
0.846 2.138 1.670 7473
0.788 1.992 1.563 1288
0.847 2.142 1.663 8156
0.790 1.996 1.557 1288
0.847 2.140 1.652 8716
0.893 2.256 1.736 2355
0.848 2.144 1.646 9453
0.894 2.261 1.730 3122
0.850 2.148 1.639 7602
0.896 2.265 1.723 4772
0.895 2.263 1.711 6754
0.849 2.146 1.628 5757
0.892 2.255 1.696 8697
0.846 2.138 1.613 4708
0.891 2.253 1.684 11341
0.845 2.136 1.602 3742
0.893 2.257 1.677 11251
0.847 2.140 1.596 4218
0.895 2.261 1.670 10394
0.941 2.379 1.752 4729
0.896 2.266 1.664 9628
0.943 2.383 1.745 5930
0.898 2.270 1.657 10252
0.945 2.388 1.737 5521
0.900 2.274 1.650 10875
0.946 2.392 1.730 5113
0.904 2.284 1.647 11086
0.950 2.403 1.727 4754
0.905 2.288 1.640 11328
0.952 2.407 1.719 4521
0.907 2.292 1.633 9912
0.954 2.411 1.712 4513
0.906 2.290 1.622 8499
0.958 2.422 1.709 4581
0.910 2.300 1.619 7358
0.972 2.457 1.722 5031
0.976 2.468 1.719 7110
0.912 2.304 1.612 6221
0.966 2.441 1.691 8451
0.913 2.308 1.605 4768
0.967 2.445 1.683 11492
0.917 2.319 1.602 3365
0.971 2.455 1.680 13252
0.919 2.323 1.594 2294
0.976 2.466 1.676 15378
1.023 2.586 1.753 2399
0.985 2.489 1.680 13903
1.032 2.610 1.757 2850
0.991 2.506 1.681 15227
1.039 2.627 1.757 2588
0.998 2.523 1.681 12620
1.046 2.644 1.757 1625
1.002 2.533 1.677 9777
1.050 2.655 1.752 1647
1.011 2.557 1.681 7872
1.059 2.678 1.756 2024
1.013 2.561 1.673 6930
1.061 2.683 1.748 3193
1.015 2.565 1.665 7195
1.063 2.687 1.739 3390
1.011 2.556 1.650 5676
1.060 2.678 1.723 3923
1.041 2.631 1.684 5283
0.993 2.509 1.611 1832
1.063 2.687 1.707 5175
1.012 2.558 1.630 3632
1.065 2.691 1.699 6410
1.014 2.562 1.622 2285
1.059 2.676 1.679 6989
1.107 2.799 1.751 3004
1.063 2.687 1.675 7858
1.112 2.810 1.746 4259
1.072 2.710 1.677 8447
1.121 2.833 1.749 3336
1.074 2.714 1.669 6239
1.123 2.838 1.740 3595
1.083 2.738 1.672 4225
1.132 2.862 1.742 2998
1.087 2.749 1.667 3086
1.136 2.873 1.737 2583
1.107 2.799 1.684 3724
1.111 2.809 1.679 4285
1.160 2.933 1.749 1152
1.131 2.859 1.696 4795
1.082 2.735 1.627 1577
1.135 2.870 1.691 5121
1.185 2.995 1.759 1021
1.158 2.927 1.711 5283
1.109 2.802 1.643 3229
1.160 2.931 1.702 4860
1.110 2.806 1.634 2599
1.153 2.915 1.682 7361
1.152 2.913 1.670 11450
1.202 3.038 1.737 1297
1.157 2.924 1.664 13341
1.206 3.049 1.731 1539
1.158 2.928 1.655 12168
1.208 3.054 1.721 2336
1.160 2.932 1.646 8904
1.210 3.058 1.712 2961
1.162 2.936 1.637 7633
1.211 3.062 1.702 4378
1.205 3.046 1.683 8898
1.155 2.920 1.618 3810
1.207 3.051 1.673 9847
1.157 2.924 1.609 2669
1.206 3.048 1.660 7745
1.156 2.922 1.596 1424
1.202 3.039 1.644 6217
1.252 3.165 1.708 1300
1.206 3.050 1.638 6474
1.257 3.176 1.702 2357
1.213 3.067 1.635 6897
1.264 3.194 1.698 2386
1.215 3.071 1.626 5870
1.265 3.198 1.689 2218
1.227 3.102 1.630 6323
1.277 3.229 1.692 1311
1.237 3.126 1.630 7966
1.287 3.254 1.692 1216
1.244 3.144 1.627 9953
1.248 3.154 1.620 9994
1.255 3.172 1.617 7520
1.305 3.300 1.677 2109
1.294 3.270 1.651 5867
1.243 3.142 1.591 2058
1.295 3.274 1.641 8089
1.245 3.146 1.581 1088
1.297 3.278 1.631 8613
1.299 3.282 1.621 7281
1.349 3.411 1.680 1406
1.322 3.341 1.635 6504
1.271 3.212 1.577 1931
1.326 3.351 1.628 7430
1.275 3.223 1.570 1259
1.330 3.362 1.621 6851
1.381 3.491 1.679 1370
1.351 3.414 1.632 8766
1.299 3.285 1.574 1199
1.358 3.432 1.627 8129
1.359 3.436 1.616 6437
1.361 3.440 1.606 5561
1.360 3.437 1.592 5484
1.411 3.567 1.648 1541
1.361 3.441 1.582 6228
1.413 3.571 1.637 2279
1.376 3.479 1.585 5219
1.428 3.609 1.640 1482
1.391 3.517 1.589 5212
1.443 3.647 1.643 1359
1.415 3.576 1.601 7519
1.363 3.445 1.547 1105
1.427 3.607 1.601 9395
1.375 3.477 1.547 2474
1.434 3.625 1.596 9809
1.382 3.494 1.542 2339
1.436 3.629 1.584 8086
1.487 3.760 1.637 2205
1.437 3.633 1.573 7752
1.489 3.764 1.626 3273
1.441 3.644 1.565 8493
1.493 3.775 1.617 3186
1.443 3.648 1.553 5763
1.498 3.786 1.608 2819
1.469 3.714 1.566 4297
1.521 3.845 1.618 3186
1.468 3.711 1.552 4514
1.520 3.842 1.603 2932
1.467 3.708 1.538 3871
1.522 3.846 1.591 3117
1.526 3.857 1.582 4796
1.474 3.725 1.532 2416
1.503 3.798 1.546 5934
1.555 3.931 1.596 2571
1.512 3.823 1.542 5548
1.565 3.955 1.591 1962
1.539 3.890 1.554 4530
1.591 4.022 1.602 1589
1.540 3.893 1.541 4632
1.593 4.026 1.590 2771
1.556 3.932 1.542 4801
1.608 4.065 1.590 3822
1.601 4.048 1.570 6695
1.549 3.915 1.522 3259
1.606 4.059 1.560 7462
1.553 3.926 1.513 3082
1.613 4.076 1.552 5291
1.560 3.943 1.505 2890
1.614 4.080 1.539 4041
1.667 4.213 1.586 2417
1.621 4.098 1.532 3765
1.674 4.231 1.577 2563
1.628 4.116 1.524 3821
1.681 4.249 1.569 2992
1.669 4.218 1.544 3582
1.616 4.084 1.499 1729
1.670 4.222 1.531 4074
1.723 4.355 1.576 1068
1.669 4.218 1.516 4841
1.722 4.352 1.560 1978
1.676 4.236 1.507 4357
1.729 4.370 1.551 2751
1.728 4.367 1.535 3300
1.675 4.233 1.492 2763
1.704 4.307 1.501 3667
1.757 4.441 1.544 1340
1.717 4.339 1.497 3544
1.772 4.480 1.541 2311
1.729 4.371 1.492 3849
1.782 4.505 1.534 2404
1.722 4.353 1.472 3617
1.775 4.488 1.514 3116
1.780 4.499 1.502 2743
1.724 4.357 1.458 1941
1.840 4.651 1.533 2860
1.781 4.502 1.488 2030
1.839 4.648 1.516 2955
1.777 4.492 1.470 1326
1.871 4.730 1.525 3654
1.818 4.595 1.485 1521
1.872 4.733 1.510 6078
1.819 4.598 1.471 1433
1.882 4.758 1.502 5897
1.829 4.623 1.463 1606
1.887 4.769 1.489 7398
1.940 4.904 1.528 1788
1.885 4.766 1.472 6327
1.944 4.915 1.515 3778
1.946 4.919 1.499 6794
1.892 4.783 1.461 3220
1.945 4.915 1.482 7036
2.018 5.101 1.533 1950
1.946 4.919 1.467 6807
2.025 5.119 1.521 2337
1.950 4.930 1.453 5134
2.091 5.287 1.550 2849
2.059 5.205 1.510 3534
1.977 4.998 1.455 3039
2.058 5.201 1.492 4120
2.123 5.366 1.535 2835
2.127 5.377 1.521 3742
2.053 5.191 1.472 3083
2.100 5.309 1.486 4253
2.046 5.173 1.451 1567
2.102 5.313 1.469 4401
2.173 5.492 1.514 1573
2.103 5.316 1.453 2285
2.211 5.589 1.521 2180
2.158 5.456 1.470 3108
2.215 5.600 1.505 1928
2.234 5.646 1.498 2784
2.157 5.452 1.451 2522
2.275 5.751 1.504 3799
2.221 5.614 1.472 2374
2.282 5.769 1.490 3114
2.228 5.632 1.458 2202
2.326 5.880 1.497 4271
2.244 5.672 1.449 2225
2.322 5.869 1.476 4649
2.242 5.668 1.429 1614
2.321 5.866 1.456 3411
2.386 6.032 1.493 2238
2.379 6.014 1.470 3157
2.322 5.869 1.437 2139
2.380 6.017 1.451 2489
2.469 6.241 1.500 1555
2.419 6.114 1.452 2171
2.479 6.266 1.485 1331
2.423 6.125 1.435 2836
2.517 6.364 1.486 2194
2.516 6.360 1.464 2658
2.430 6.143 1.419 2325
2.434 6.154 1.401 2174
2.515 6.356 1.443 1827
2.636 6.664 1.485 1643
2.556 6.461 1.444 1623
2.517 6.363 1.403 1939
2.681 6.776 1.486 1767
2.705 6.837 1.476 2061
2.570 6.497 1.409 1521
2.709 6.848 1.457 2035
2.572 6.500 1.389 1846
2.765 6.989 1.461 2283
2.647 6.692 1.405 1925
2.761 6.978 1.437 2686
2.824 7.138 1.467 2620
2.825 7.142 1.445 2278
2.753 6.960 1.411 2168
2.784 7.036 1.403 2394
2.838 7.174 1.428 1398
2.785 7.040 1.381 2614
2.857 7.221 1.413 1776
2.861 7.232 1.392 2170
2.962 7.486 1.436 1637
2.957 7.475 1.410 1828
2.877 7.272 1.375 1259
2.959 7.479 1.387 1326
2.904 7.340 1.364 1275
2.992 7.562 1.377 1421
3.176 8.028 1.453 1158
2.993 7.565 1.353 1430
3.189 8.060 1.433 1220
3.199 8.086 1.411 1468
3.072 7.765 1.361 1152
3.197 8.082 1.385 1332
3.122 7.892 1.356 1073
3.481 8.800 1.468 1187
3.346 8.457 1.416 1020
3.426 8.661 1.392 1077
3.436 8.686 1.368 1277
3.443 8.704 1.343 1166
0.834 2.069 1.699 5091
0.836 2.073 1.692 10182
0.773 1.918 1.573 1587
0.837 2.077 1.686 10182
0.787 1.952 1.590 1547
0.842 2.088 1.684 10771
0.796 1.974 1.598 1491
0.843 2.092 1.678 11376
0.797 1.978 1.592 1650
0.847 2.102 1.676 8934
0.801 1.987 1.590 1266
0.866 2.148 1.701 8918
0.820 2.034 1.615 1442
0.868 2.153 1.694 8918
0.821 2.038 1.609 1197
0.867 2.151 1.683 10041
0.864 2.143 1.668 11695
0.910 2.258 1.752 1448
0.863 2.141 1.657 11304
0.910 2.257 1.741 2577
0.862 2.139 1.646 11516
0.909 2.255 1.730 4054
0.864 2.143 1.639 9035
0.911 2.259 1.723 5841
0.910 2.257 1.711 8009
0.863 2.141 1.628 6561
0.909 2.255 1.700 9619
0.862 2.139 1.617 4571
0.908 2.253 1.689 11506
0.859 2.130 1.602 2898
0.910 2.258 1.682 11434
0.863 2.141 1.600 3462
0.912 2.262 1.675 11066
0.864 2.145 1.593 4066
0.916 2.272 1.672 11157
0.963 2.390 1.753 4465
0.915 2.270 1.661 13065
0.963 2.388 1.742 5085
0.917 2.274 1.654 15359
0.964 2.392 1.734 5251
0.916 2.272 1.643 14848
0.963 2.390 1.723 5655
0.917 2.276 1.636 14350
0.968 2.401 1.719 6031
0.922 2.286 1.633 12224
0.969 2.405 1.712 5014
0.923 2.290 1.626 10124
0.971 2.409 1.705 3997
0.925 2.294 1.619 8429
0.993 2.464 1.730 4369
0.929 2.305 1.616 6778
0.995 2.468 1.723 5925
0.994 2.466 1.711 6203
0.931 2.309 1.609 5369
0.980 2.432 1.679 7945
0.932 2.313 1.602 3960
0.995 2.468 1.692 9533
0.934 2.317 1.594 2636
0.999 2.479 1.688 12313
1.047 2.599 1.765 1519
1.006 2.495 1.689 12851
1.054 2.616 1.765 1588
1.010 2.506 1.685 14570
1.059 2.626 1.761 1590
1.014 2.516 1.681 12421
1.063 2.637 1.757 1185
1.016 2.521 1.673 9026
1.065 2.641 1.748 1213
1.028 2.550 1.681 6547
1.077 2.671 1.756 1588
1.032 2.561 1.677 5794
1.081 2.682 1.752 2393
1.034 2.565 1.669 5995
1.083 2.686 1.743 2723
1.054 2.614 1.689 5301
1.005 2.492 1.615 2168
1.058 2.624 1.684 5847
1.009 2.503 1.611 1496
1.078 2.674 1.703 5609
1.029 2.552 1.630 3719
1.082 2.684 1.699 6938
1.033 2.562 1.626 2159
1.076 2.669 1.679 6956
1.125 2.792 1.751 2362
1.080 2.680 1.675 7076
1.130 2.802 1.746 3481
1.095 2.716 1.685 8267
1.144 2.839 1.756 1634
1.099 2.727 1.680 6842
1.149 2.850 1.751 1542
1.104 2.738 1.676 5493
1.153 2.861 1.746 1682
1.103 2.735 1.663 3731
1.152 2.859 1.734 2281
1.151 2.856 1.721 3647
1.102 2.733 1.651 2201
1.153 2.861 1.712 4534
1.103 2.737 1.643 2366
1.155 2.865 1.703 5006
1.105 2.741 1.634 1948
1.157 2.869 1.695 6074
1.158 2.873 1.686 6671
1.157 2.871 1.673 5703
1.207 2.996 1.741 1368
1.175 2.915 1.686 7370
1.225 3.039 1.753 1152
1.171 2.906 1.670 10582
1.222 3.030 1.737 1902
1.176 2.916 1.664 12516
1.226 3.041 1.731 2026
1.177 2.920 1.655 11448
1.228 3.046 1.721 3295
1.176 2.918 1.642 8482
1.227 3.043 1.708 5413
1.223 3.034 1.692 7410
1.172 2.909 1.627 5734
1.222 3.032 1.679 8214
1.171 2.906 1.614 2511
1.224 3.036 1.670 7953
1.173 2.910 1.605 1790
1.226 3.040 1.660 6451
1.175 2.914 1.596 1282
1.235 3.064 1.661 4937
1.237 3.068 1.652 5459
1.288 3.195 1.715 1008
1.238 3.072 1.642 6429
1.290 3.199 1.705 1269
1.237 3.070 1.629 6590
1.289 3.197 1.692 1907
1.239 3.074 1.620 5945
1.290 3.201 1.682 3257
1.262 3.131 1.636 5756
1.314 3.259 1.698 1595
1.264 3.135 1.627 8281
1.315 3.263 1.688 2043
1.268 3.146 1.620 8078
1.320 3.274 1.681 2090
1.275 3.164 1.617 6250
1.327 3.291 1.677 2617
1.288 3.194 1.620 4375
1.339 3.322 1.680 3075
1.319 3.273 1.644 5339
1.268 3.145 1.584 1463
1.318 3.270 1.631 6816
1.370 3.398 1.690 1259
1.320 3.274 1.621 6644
1.371 3.402 1.680 1979
1.330 3.298 1.620 6628
1.381 3.427 1.679 2551
1.342 3.329 1.622 8448
1.394 3.458 1.680 1486
1.346 3.340 1.615 7145
1.398 3.469 1.673 2062
1.378 3.419 1.638 6420
1.326 3.290 1.580 1154
1.382 3.430 1.630 7463
1.384 3.434 1.619 6923
1.380 3.424 1.603 5202
1.432 3.553 1.659 1190
1.407 3.489 1.619 5142
1.354 3.360 1.563 1477
1.405 3.486 1.605 5819
1.412 3.504 1.600 6126
1.420 3.522 1.595 5364
1.443 3.580 1.607 6532
1.391 3.450 1.552 2380
1.450 3.598 1.601 8732
1.398 3.468 1.547 2890
1.458 3.616 1.596 8634
1.405 3.485 1.542 2549
1.462 3.627 1.587 6396
1.515 3.757 1.640 1719
1.461 3.624 1.573 6625
1.513 3.754 1.626 2544
1.462 3.627 1.562 8967
1.515 3.758 1.614 2702
1.494 3.707 1.580 7205
1.442 3.576 1.529 2289
1.496 3.711 1.569 6460
1.549 3.842 1.620 3525
1.495 3.708 1.555 5315
1.548 3.839 1.606 3073
1.496 3.712 1.543 4419
1.549 3.843 1.594 3204
1.554 3.854 1.584 6433
1.501 3.723 1.534 3396
1.555 3.858 1.572 8823
1.502 3.726 1.523 2235
1.562 3.876 1.566 7619
1.509 3.744 1.516 1747
1.567 3.887 1.556 7361
1.620 4.019 1.605 1842
1.568 3.890 1.544 8269
1.621 4.022 1.592 2683
1.575 3.908 1.537 6844
1.629 4.040 1.585 3620
1.622 4.023 1.565 8220
1.568 3.891 1.517 2993
1.626 4.034 1.555 8114
1.688 4.188 1.609 2026
1.633 4.052 1.547 4748
1.687 4.185 1.594 2773
1.624 4.028 1.525 4664
1.677 4.160 1.571 3730
1.628 4.038 1.515 3651
1.681 4.171 1.561 3226
1.700 4.217 1.562 4756
1.646 4.084 1.517 2458
1.693 4.200 1.542 4884
1.639 4.067 1.497 1589
1.695 4.204 1.529 5363
1.748 4.337 1.573 1391
1.696 4.208 1.516 6449
1.750 4.341 1.560 1702
1.700 4.218 1.505 5538
1.763 4.373 1.555 2334
1.702 4.222 1.492 3987
1.761 4.370 1.540 2515
1.740 4.317 1.508 3054
1.814 4.500 1.567 1225
1.742 4.321 1.494 3521
1.798 4.462 1.539 1957
1.755 4.353 1.490 3382
1.809 4.487 1.532 2171
1.753 4.349 1.474 3740
1.807 4.483 1.516 2489
1.780 4.416 1.480 2807
1.860 4.614 1.541 1400
1.782 4.420 1.466 1770
1.907 4.731 1.561 1573
1.857 4.607 1.508 2212
1.911 4.742 1.548 1935
1.907 4.731 1.529 3760
1.853 4.597 1.489 1658
1.909 4.735 1.515 5576
1.855 4.601 1.475 1268
1.913 4.746 1.502 5664
1.859 4.611 1.463 1299
1.917 4.757 1.489 7371
1.972 4.892 1.528 1976
1.916 4.753 1.472 5360
1.982 4.917 1.519 3031
1.978 4.906 1.499 4775
1.923 4.771 1.461 2241
1.976 4.903 1.482 6818
2.051 5.088 1.533 1955
1.978 4.906 1.467 6751
2.095 5.198 1.547 3075
1.979 4.910 1.451 4092
2.083 5.166 1.521 3786
2.087 5.177 1.507 4362
2.147 5.327 1.546 3033
2.155 5.345 1.534 4460
2.088 5.181 1.490 3822
2.150 5.334 1.513 4181
2.087 5.177 1.472 3011
2.132 5.288 1.484 4823
2.201 5.459 1.528 2064
2.133 5.292 1.467 4643
2.205 5.470 1.513 2056
2.135 5.295 1.451 2263
2.209 5.481 1.497 2026
2.220 5.506 1.485 2364
2.274 5.642 1.519 2247
2.273 5.639 1.500 3340
2.218 5.503 1.467 1931
2.309 5.729 1.503 4705
2.254 5.592 1.470 2396
2.319 5.754 1.490 3904
2.264 5.617 1.458 2895
2.332 5.786 1.479 4709
2.277 5.650 1.447 1747
2.351 5.833 1.471 4511
2.282 5.660 1.431 1180
2.358 5.851 1.456 3477
2.413 5.987 1.487 1760
2.418 5.998 1.470 2713
2.354 5.840 1.434 2352
2.506 6.217 1.498 2075
2.419 6.002 1.451 1890
2.458 6.099 1.452 2299
2.386 5.919 1.413 1957
2.460 6.102 1.433 2558
2.556 6.340 1.484 2304
2.554 6.336 1.463 2926
2.464 6.113 1.416 2030
2.596 6.441 1.464 2269
2.468 6.124 1.398 1450
2.601 6.452 1.445 2028
2.679 6.646 1.485 1953
2.681 6.650 1.464 2485
2.736 6.787 1.492 1849
2.749 6.820 1.476 2287
2.685 6.661 1.445 1919
2.756 6.838 1.458 2720
2.692 6.679 1.427 1709
2.746 6.812 1.431 2260
2.807 6.964 1.460 2094
2.803 6.953 1.436 2799
2.736 6.787 1.404 1771
2.796 6.935 1.410 2568
2.851 7.073 1.435 1767
2.835 7.033 1.405 2389
2.992 7.424 1.476 1481
2.830 7.021 1.381 2419
2.991 7.420 1.452 1452
2.922 7.249 1.398 1661
3.007 7.460 1.435 1481
3.008 7.463 1.411 1536
2.921 7.246 1.374 1324
3.016 7.481 1.391 1254
3.217 7.982 1.475 1045
3.035 7.528 1.374 2406
3.225 8.000 1.452 1213
3.039 7.539 1.352 2386
3.334 8.272 1.471 1409
3.052 7.571 1.333 1383
3.245 8.050 1.409 1260
3.246 8.054 1.384 1197
3.170 7.865 1.355 1138
3.397 8.428 1.415 1211
3.538 8.777 1.468 1176
3.516 8.722 1.432 1187
3.396 8.424 1.388 1050
3.517 8.726 1.405 1370
3.516 8.722 1.377 1345
3.514 8.718 1.348 1090
0.836 2.068 1.699 4765
0.837 2.073 1.692 9531
0.777 1.923 1.578 1694
0.839 2.077 1.686 9531
0.793 1.963 1.599 1615
0.843 2.087 1.684 10028
0.797 1.973 1.598 1361
0.845 2.091 1.678 10600
0.799 1.977 1.592 1120
0.849 2.101 1.676 8301
0.803 1.987 1.590 1171
0.868 2.148 1.701 9095
0.821 2.033 1.615 1691
0.869 2.152 1.694 9095
0.823 2.037 1.609 1425
0.869 2.150 1.683 10211
0.868 2.148 1.672 11812
0.915 2.264 1.757 1149
0.865 2.140 1.657 11096
0.911 2.256 1.741 2597
0.864 2.138 1.646 11155
0.911 2.254 1.730 4020
0.866 2.142 1.639 8891
0.912 2.258 1.723 5613
0.912 2.257 1.711 7524
0.865 2.140 1.628 6615
0.911 2.255 1.700 9162
0.864 2.138 1.617 4417
0.910 2.253 1.689 11211
0.860 2.130 1.602 2645
0.912 2.257 1.682 11094
0.865 2.140 1.600 3153
0.911 2.255 1.670 10422
0.958 2.372 1.752 3671
0.918 2.271 1.672 10063
0.965 2.389 1.753 4112
0.917 2.269 1.661 12174
0.964 2.387 1.742 4888
0.916 2.267 1.650 14552
0.964 2.385 1.730 5317
0.918 2.271 1.643 14372
0.968 2.396 1.727 5835
0.922 2.282 1.640 14198
0.970 2.400 1.719 6425
0.921 2.279 1.629 12772
0.971 2.404 1.712 5261
0.923 2.283 1.622 11353
0.973 2.408 1.705 4096
0.927 2.294 1.619 9407
0.995 2.463 1.730 4223
0.928 2.298 1.612 7560
0.997 2.467 1.723 5325
0.930 2.302 1.605 6011
0.998 2.471 1.715 5717
0.980 2.425 1.675 6960
0.932 2.306 1.597 4462
0.999 2.474 1.696 8930
0.936 2.316 1.594 3074
1.001 2.478 1.688 11720
0.940 2.326 1.591 1690
1.008 2.495 1.689 12405
1.056 2.615 1.765 1500
1.012 2.505 1.685 13953
1.061 2.625 1.761 1518
1.016 2.516 1.681 11864
1.065 2.636 1.757 1130
1.018 2.520 1.673 8485
1.067 2.641 1.748 1165
1.030 2.549 1.681 5940
1.079 2.670 1.756 1417
1.037 2.566 1.681 5154
1.086 2.688 1.756 1825
1.039 2.570 1.673 5293
1.088 2.692 1.747 2117
1.056 2.613 1.689 5119
1.007 2.491 1.615 1909
1.060 2.624 1.684 5798
1.011 2.502 1.611 1357
1.062 2.628 1.676 5386
1.111 2.750 1.749 1288
1.084 2.683 1.699 6471
1.035 2.561 1.626 2125
1.078 2.668 1.679 6181
1.128 2.791 1.751 2074
1.090 2.698 1.686 6244
1.140 2.821 1.757 1947
1.100 2.722 1.689 7742
1.050 2.599 1.617 1537
1.101 2.726 1.680 6577
1.151 2.849 1.751 1422
1.106 2.737 1.676 5471
1.155 2.860 1.746 1526
1.105 2.734 1.663 3734
1.155 2.858 1.734 2256
1.154 2.855 1.721 3754
1.104 2.732 1.651 2297
1.155 2.860 1.712 4535
1.105 2.736 1.643 2563
1.157 2.864 1.703 4937
1.107 2.740 1.634 2119
1.159 2.868 1.695 6072
1.109 2.744 1.626 1090
1.158 2.866 1.682 6841
1.208 2.990 1.750 1015
1.157 2.864 1.670 5869
1.207 2.988 1.737 1361
1.177 2.914 1.686 7088
1.228 3.038 1.753 1141
1.176 2.911 1.673 9902
1.227 3.036 1.740 1756
1.178 2.915 1.664 11759
1.228 3.040 1.731 2040
1.180 2.919 1.655 10778
1.230 3.045 1.721 3425
1.179 2.917 1.642 8014
1.229 3.042 1.708 5625
1.226 3.033 1.692 7291
1.175 2.908 1.627 5330
1.225 3.031 1.679 7761
1.174 2.905 1.614 2283
1.224 3.028 1.666 7475
1.173 2.903 1.602 1331
1.228 3.039 1.660 6113
1.177 2.913 1.596 1209
1.240 3.070 1.664 5058
1.242 3.074 1.655 5806
1.241 3.071 1.642 6894
1.292 3.198 1.705 1144
1.243 3.076 1.633 7147
1.294 3.202 1.695 1871
1.242 3.073 1.620 6209
1.293 3.200 1.682 3462
1.265 3.130 1.636 5193
1.316 3.258 1.698 1704
1.266 3.134 1.627 7511
1.318 3.262 1.688 2186
1.271 3.145 1.620 7367
1.322 3.273 1.681 2207
1.280 3.169 1.620 5884
1.332 3.297 1.681 2313
1.290 3.193 1.620 4406
1.342 3.321 1.680 3151
1.322 3.272 1.644 4646
1.270 3.144 1.584 1420
1.321 3.269 1.631 6270
1.372 3.397 1.690 1191
1.322 3.273 1.621 6318
1.374 3.401 1.680 1951
1.329 3.290 1.617 6516
1.381 3.419 1.676 2990
1.345 3.328 1.622 8154
1.397 3.457 1.680 1512
1.349 3.339 1.615 6413
1.401 3.468 1.673 2019
1.381 3.418 1.638 5647
1.385 3.428 1.630 6859
1.387 3.432 1.619 6605
1.408 3.484 1.629 5516
1.355 3.355 1.573 2150
1.409 3.488 1.619 6068
1.357 3.359 1.563 1170
1.411 3.492 1.608 6469
1.415 3.503 1.600 6330
1.422 3.521 1.595 5404
1.446 3.579 1.607 5955
1.394 3.449 1.552 2428
1.453 3.597 1.601 8052
1.401 3.467 1.547 2894
1.460 3.615 1.596 7904
1.408 3.484 1.542 2501
1.465 3.625 1.587 5908
1.518 3.756 1.640 1480
1.464 3.622 1.573 6164
1.516 3.753 1.626 2191
1.465 3.626 1.562 8619
1.518 3.757 1.614 2600
1.497 3.706 1.580 7568
1.550 3.837 1.632 2272
1.499 3.710 1.569 6457
1.552 3.841 1.620 3376
1.498 3.707 1.555 4999
1.551 3.838 1.606 2836
1.499 3.711 1.543 4470
1.552 3.842 1.594 3167
1.554 3.846 1.582 6489
1.501 3.714 1.532 3640
1.558 3.857 1.572 8859
1.505 3.725 1.523 2356
1.565 3.875 1.566 7670
1.512 3.743 1.516 1792
1.570 3.885 1.556 7657
1.623 4.017 1.605 1860
1.571 3.889 1.544 8714
1.625 4.021 1.592 2503
1.578 3.907 1.537 6992
1.632 4.039 1.585 3445
1.625 4.022 1.565 8010
1.572 3.890 1.517 2849
1.629 4.033 1.555 7805
1.691 4.186 1.609 1911
1.634 4.044 1.545 4759
1.687 4.176 1.591 2739
1.630 4.033 1.527 4564
1.683 4.166 1.574 3622
1.631 4.037 1.515 3539
1.685 4.170 1.561 3137
