3.034 5.782 1.267 7566
3.212 6.120 1.334 3079
3.036 5.785 1.248 6149
3.214 6.123 1.314 2118
3.038 5.788 1.229 3204
3.535 6.735 1.409 2095
3.544 6.752 1.390 1993
3.627 6.911 1.419 1761
3.672 6.997 1.412 2165
3.839 7.315 1.470 1242
3.667 6.987 1.387 2727
3.830 7.298 1.443 1341
3.661 6.976 1.361 1903
3.777 7.198 1.400 1567
3.783 7.208 1.378 1713
3.881 7.395 1.410 1337
3.886 7.405 1.387 1993
3.784 7.211 1.354 1404
3.892 7.415 1.364 2127
4.030 7.679 1.408 1729
4.032 7.682 1.383 1974
3.893 7.418 1.340 1718
4.033 7.685 1.358 1589
3.891 7.414 1.314 1511
4.035 7.688 1.332 1514
4.159 7.924 1.369 1253
4.405 8.393 1.414 1330
4.037 7.691 1.307 1252
4.406 8.396 1.387 1285
2.922 5.567 0.761 1354
2.915 5.555 0.741 1288
2.913 5.550 0.723 1186
2.917 5.558 0.705 1078
2.920 5.563 0.523 1155
2.917 5.557 0.504 1330
2.917 5.558 0.486 1280
2.918 5.559 0.468 1057
0.995 1.881 1.625 2378
0.997 1.885 1.619 4756
1.066 2.016 1.725 1237
0.999 1.889 1.613 4756
1.068 2.020 1.718 1237
1.001 1.893 1.607 4955
1.070 2.024 1.712 1706
0.984 1.862 1.573 5413
1.072 2.028 1.705 2176
1.008 1.906 1.599 5798
1.081 2.044 1.708 2707
1.010 1.910 1.593 6483
1.089 2.059 1.710 3628
1.012 1.913 1.587 4824
1.091 2.063 1.703 3628
1.093 2.067 1.697 3841
1.004 1.900 1.567 3736
1.098 2.077 1.694 4158
1.006 1.903 1.561 3736
1.100 2.081 1.688 5809
1.011 1.913 1.559 4147
1.102 2.085 1.681 7459
1.016 1.922 1.558 4814
1.101 2.083 1.670 8837
1.018 1.926 1.552 6006
1.104 2.087 1.663 10316
1.020 1.930 1.545 7198
1.106 2.091 1.656 8595
1.019 1.927 1.535 5875
1.108 2.095 1.650 6875
1.018 1.925 1.524 4748
1.110 2.099 1.643 6379
1.023 1.935 1.522 3436
1.112 2.103 1.636 5690
1.034 1.956 1.529 2840
1.114 2.107 1.629 5496
1.039 1.965 1.527 1955
1.153 2.181 1.674 6199
1.094 2.069 1.593 2059
1.159 2.191 1.671 9185
1.099 2.079 1.590 1898
1.161 2.195 1.664 10939
1.101 2.083 1.584 1343
1.160 2.193 1.652 12813
1.165 2.203 1.650 11011
1.167 2.207 1.642 9329
1.227 2.320 1.721 1171
1.172 2.217 1.639 6992
1.232 2.330 1.718 1795
1.174 2.221 1.632 4704
1.234 2.334 1.710 2593
1.176 2.225 1.625 4942
1.236 2.338 1.703 2995
1.172 2.216 1.610 5337
1.232 2.330 1.687 3584
1.244 2.352 1.692 4154
1.171 2.214 1.598 4043
1.249 2.362 1.688 5208
1.169 2.212 1.587 2808
1.258 2.378 1.689 6298
1.197 2.264 1.612 2331
1.263 2.389 1.685 7616
1.202 2.274 1.609 2569
1.259 2.380 1.669 6999
1.198 2.265 1.594 3072
1.254 2.372 1.654 7116
1.193 2.257 1.578 2235
1.256 2.376 1.646 7160
1.189 2.249 1.563 2023
1.255 2.374 1.634 5619
1.316 2.489 1.709 2028
1.296 2.451 1.673 5698
1.235 2.335 1.599 4186
1.301 2.461 1.669 6492
1.240 2.345 1.596 4161
1.306 2.471 1.665 7489
1.245 2.355 1.592 4082
1.312 2.481 1.661 7842
1.250 2.365 1.588 2626
1.320 2.497 1.661 8889
1.382 2.614 1.733 1323
1.348 2.550 1.683 8109
1.287 2.434 1.611 2372
1.357 2.567 1.682 8356
1.295 2.450 1.610 3862
1.359 2.571 1.674 8326
1.297 2.453 1.602 4204
1.355 2.562 1.658 9708
1.293 2.445 1.587 2051
1.353 2.560 1.646 11710
1.416 2.677 1.716 1518
1.365 2.582 1.649 14604
1.428 2.700 1.719 1504
1.371 2.592 1.644 17747
1.433 2.710 1.714 1932
1.373 2.596 1.636 17250
1.435 2.714 1.705 1901
1.378 2.606 1.631 14006
1.440 2.725 1.700 2063
1.380 2.610 1.622 10728
1.443 2.729 1.691 2773
1.379 2.608 1.610 10581
1.445 2.733 1.682 2945
1.381 2.612 1.602 10055
1.444 2.730 1.670 3624
1.396 2.640 1.608 6743
1.492 2.822 1.710 4828
1.415 2.675 1.617 5657
1.494 2.826 1.701 5551
1.503 2.842 1.699 6649
1.420 2.686 1.611 5094
1.498 2.834 1.683 7407
1.422 2.689 1.603 3105
1.487 2.813 1.660 9355
1.424 2.693 1.594 1666
1.483 2.804 1.644 7289
1.546 2.924 1.709 3927
1.525 2.884 1.676 6841
1.461 2.764 1.611 2630
1.523 2.881 1.663 6494
1.457 2.755 1.595 1400
1.522 2.879 1.650 4779
1.586 2.999 1.714 2091
1.564 2.959 1.681 4909
1.501 2.838 1.617 3873
1.590 3.007 1.695 4934
1.506 2.848 1.612 2177
1.595 3.017 1.689 4981
1.525 2.884 1.619 1314
1.598 3.021 1.679 7478
1.534 2.901 1.616 1881
1.603 3.032 1.672 10266
1.539 2.911 1.610 2718
1.605 3.036 1.662 10366
1.541 2.915 1.600 1786
1.604 3.033 1.649 10194
1.609 3.044 1.643 7625
1.628 3.079 1.649 5054
1.637 3.096 1.645 4495
1.642 3.106 1.638 7208
1.707 3.228 1.698 1247
1.644 3.110 1.628 9373
1.709 3.232 1.687 1852
1.647 3.114 1.618 10531
1.711 3.236 1.677 2285
1.652 3.124 1.611 10527
1.717 3.247 1.669 1850
1.654 3.128 1.601 7595
1.719 3.251 1.659 2001
1.704 3.222 1.633 6770
1.639 3.100 1.575 3587
1.716 3.246 1.632 8317
1.651 3.123 1.574 2986
1.721 3.256 1.624 8374
1.656 3.133 1.567 1147
1.724 3.260 1.613 7567
1.732 3.277 1.609 6844
1.667 3.153 1.553 1629
1.741 3.293 1.604 7468
1.676 3.170 1.548 1858
1.740 3.291 1.590 6018
1.674 3.167 1.535 1249
1.776 3.360 1.609 4022
1.711 3.236 1.554 1690
1.799 3.402 1.615 5134
1.733 3.278 1.560 2827
1.801 3.406 1.604 7204
1.735 3.282 1.550 2374
1.810 3.423 1.598 6443
1.744 3.299 1.545 2000
1.822 3.446 1.596 6095
1.756 3.322 1.542 1281
1.821 3.444 1.582 4388
1.887 3.568 1.634 1685
1.868 3.533 1.606 3380
1.802 3.408 1.554 1654
1.842 3.484 1.573 4201
1.908 3.609 1.625 1893
1.851 3.501 1.567 5359
1.917 3.626 1.619 2301
1.860 3.518 1.561 4211
1.926 3.643 1.612 2051
1.907 3.607 1.584 4205
1.841 3.482 1.533 1281
1.909 3.611 1.572 5357
1.843 3.485 1.522 1094
1.911 3.614 1.561 4447
1.977 3.740 1.611 1874
1.941 3.671 1.570 4352
1.874 3.545 1.520 1512
1.943 3.674 1.558 5027
2.009 3.800 1.607 1337
1.952 3.691 1.551 4272
2.018 3.817 1.600 1269
1.957 3.702 1.541 3150
2.024 3.827 1.590 1690
1.976 3.738 1.542 4497
2.047 3.871 1.592 2254
1.975 3.735 1.527 5075
2.042 3.861 1.575 2582
1.977 3.739 1.515 3589
2.044 3.865 1.562 2767
2.038 3.855 1.545 2764
1.972 3.729 1.498 1342
2.030 3.839 1.525 3599
2.121 4.012 1.588 1362
2.035 3.849 1.515 4439
2.123 4.016 1.575 2236
2.051 3.880 1.512 3789
2.136 4.040 1.569 2722
2.057 3.890 1.501 4074
2.145 4.057 1.561 2894
2.076 3.927 1.500 3733
2.150 4.067 1.550 3067
2.113 3.997 1.511 4209
2.181 4.124 1.555 1760
2.115 4.001 1.498 3916
2.182 4.128 1.542 1939
2.177 4.118 1.524 2585
2.110 3.991 1.480 2061
2.190 4.142 1.517 2348
2.122 4.014 1.474 1404
2.146 4.058 1.474 1510
2.213 4.186 1.517 1146
2.240 4.236 1.519 1901
2.172 4.108 1.477 1649
2.234 4.226 1.500 2528
2.309 4.367 1.546 2121
2.293 4.337 1.521 2989
2.226 4.210 1.480 2077
2.313 4.375 1.518 3505
2.245 4.247 1.477 1380
2.318 4.385 1.506 3833
2.386 4.513 1.546 1162
2.356 4.456 1.512 3252
2.372 4.486 1.506 3043
2.440 4.615 1.546 1343
2.410 4.558 1.512 3130
2.342 4.429 1.473 1950
2.415 4.568 1.499 5104
2.347 4.439 1.461 2443
2.417 4.571 1.484 6080
2.499 4.727 1.531 3278
2.501 4.731 1.515 6689
2.412 4.561 1.465 4667
2.503 4.734 1.500 10612
2.417 4.571 1.452 2504
2.505 4.738 1.484 10487
2.612 4.941 1.543 2405
2.510 4.748 1.471 7233
2.604 4.924 1.521 2329
2.512 4.751 1.455 4137
2.613 4.941 1.508 2835
2.625 4.965 1.498 3751
2.514 4.755 1.440 2240
2.677 5.064 1.508 3564
2.609 4.935 1.472 2303
2.730 5.163 1.517 4252
2.611 4.938 1.456 2518
2.735 5.173 1.502 5813
2.620 4.955 1.444 2244
2.744 5.190 1.488 3758
2.625 4.965 1.429 1769
2.768 5.235 1.482 1932
2.791 5.279 1.475 2162
2.797 5.289 1.460 1946
2.791 5.279 1.439 1051
2.797 5.289 1.423 1531
2.802 5.299 1.408 1720
2.807 5.310 1.392 1077
2.807 5.309 1.356 1658
2.809 5.312 1.338 3027
2.807 5.308 1.319 3558
2.808 5.311 1.302 3268
3.037 5.744 1.398 1511
2.810 5.314 1.285 3079
3.039 5.747 1.379 2419
3.044 5.757 1.361 3525
3.226 6.101 1.435 2957
3.046 5.761 1.343 5987
3.224 6.098 1.414 5387
3.047 5.764 1.324 8548
3.222 6.094 1.392 6023
3.049 5.767 1.305 9191
3.224 6.097 1.372 5885
3.051 5.770 1.286 9243
3.225 6.100 1.352 5845
3.056 5.780 1.268 10136
3.231 6.110 1.334 4978
3.054 5.776 1.248 8659
3.232 6.114 1.314 3609
3.055 5.778 1.229 5426
3.234 6.117 1.294 2522
3.057 5.781 1.210 3153
3.571 6.755 1.392 2520
3.690 6.979 1.411 2277
3.566 6.744 1.368 1473
3.688 6.975 1.387 2963
3.765 7.121 1.413 1483
3.682 6.965 1.361 2051
3.799 7.186 1.400 1594
3.805 7.196 1.378 1660
3.907 7.390 1.411 1483
3.909 7.393 1.387 2289
3.806 7.199 1.354 1347
3.914 7.403 1.364 2378
4.050 7.659 1.407 1821
4.055 7.670 1.383 1884
3.916 7.406 1.340 1769
3.914 7.403 1.314 1530
4.060 7.680 1.359 1459
4.058 7.676 1.332 1473
4.425 8.369 1.441 1238
4.427 8.372 1.413 1692
4.060 7.679 1.307 1247
4.428 8.376 1.386 1662
4.430 8.379 1.358 1354
4.428 8.375 1.330 1036
2.950 5.579 0.911 1019
2.939 5.559 0.761 1266
2.936 5.553 0.742 1384
2.933 5.548 0.723 1389
2.934 5.549 0.705 1427
2.938 5.558 0.688 1148
2.946 5.573 0.671 1101
2.940 5.560 0.651 1069
2.935 5.551 0.577 1018
2.936 5.552 0.559 1091
2.937 5.555 0.505 1372
2.938 5.556 0.486 1517
2.938 5.557 0.468 1428
2.939 5.558 0.450 1007
0.966 1.816 1.574 2619
0.968 1.820 1.568 5239
1.025 1.928 1.656 1606
0.970 1.824 1.563 4890
1.027 1.932 1.649 1606
0.981 1.845 1.570 5258
1.072 2.016 1.707 1627
0.986 1.854 1.569 6466
1.074 2.020 1.701 2128
1.009 1.898 1.595 6101
1.088 2.047 1.712 2687
1.014 1.907 1.593 6960
1.094 2.057 1.710 3753
1.013 1.905 1.582 4991
1.096 2.061 1.703 3753
1.101 2.071 1.701 4251
1.009 1.897 1.567 3550
1.106 2.080 1.699 4846
1.011 1.901 1.561 3550
1.108 2.084 1.692 6353
1.013 1.905 1.555 4395
1.110 2.088 1.685 7861
1.018 1.914 1.553 5284
1.109 2.087 1.674 8746
1.020 1.918 1.547 6615
1.108 2.085 1.663 9780
1.022 1.922 1.541 7947
1.110 2.089 1.656 8037
1.020 1.919 1.530 6530
1.113 2.093 1.650 6293
1.022 1.923 1.524 5161
1.115 2.096 1.643 6063
1.034 1.944 1.531 3642
1.117 2.100 1.636 5717
1.042 1.959 1.533 3402
1.122 2.110 1.634 5689
1.047 1.969 1.531 2430
1.158 2.179 1.674 6676
1.099 2.067 1.593 1928
1.164 2.189 1.671 9839
1.104 2.076 1.590 1742
1.166 2.193 1.664 12032
1.106 2.080 1.584 1149
1.165 2.191 1.652 14403
1.170 2.200 1.650 12205
1.172 2.204 1.642 10185
1.232 2.317 1.721 1161
1.174 2.208 1.635 7803
1.234 2.321 1.714 1741
1.179 2.218 1.632 5507
1.240 2.331 1.710 2299
1.181 2.222 1.625 5834
1.242 2.336 1.703 2647
1.180 2.220 1.614 6213
1.241 2.334 1.691 3177
1.176 2.211 1.598 4405
1.249 2.350 1.692 3586
1.254 2.360 1.688 4448
1.171 2.203 1.583 2982
1.266 2.382 1.693 5388
1.205 2.267 1.616 2505
1.268 2.386 1.685 6642
1.207 2.271 1.609 2182
1.264 2.377 1.669 5825
1.203 2.263 1.594 2621
1.260 2.369 1.654 5893
1.198 2.254 1.578 2313
1.262 2.373 1.646 5901
1.200 2.258 1.571 2197
1.261 2.371 1.634 4694
1.322 2.486 1.709 1950
1.301 2.448 1.673 4770
1.240 2.332 1.599 4179
1.310 2.464 1.673 6285
1.245 2.342 1.596 4197
1.312 2.468 1.665 8079
1.250 2.352 1.592 4143
1.317 2.478 1.661 8312
1.256 2.362 1.588 2766
1.323 2.488 1.657 8915
1.385 2.604 1.729 1835
1.361 2.559 1.690 8396
1.299 2.443 1.618 3381
1.363 2.563 1.682 9256
1.301 2.447 1.610 3861
1.368 2.574 1.677 9083
1.306 2.457 1.606 5205
1.367 2.571 1.665 10412
1.305 2.454 1.594 3717
1.359 2.557 1.646 12448
1.422 2.674 1.716 1591
1.371 2.579 1.649 16218
1.434 2.697 1.719 1600
1.377 2.589 1.644 19488
1.439 2.707 1.714 2075
1.379 2.593 1.636 18472
1.441 2.711 1.705 2001
1.381 2.597 1.627 14888
1.443 2.715 1.696 1681
1.386 2.607 1.622 11502
1.449 2.725 1.691 1561
1.385 2.605 1.610 11507
1.448 2.723 1.678 1931
1.390 2.615 1.605 10978
1.496 2.814 1.720 3165
1.399 2.631 1.604 7173
1.498 2.818 1.710 4953
1.501 2.822 1.701 5864
1.424 2.678 1.620 5597
1.509 2.839 1.699 6458
1.426 2.682 1.611 4959
1.478 2.780 1.655 7453
1.542 2.899 1.721 2587
1.484 2.790 1.649 8958
1.547 2.910 1.715 2660
1.489 2.801 1.644 6849
1.553 2.920 1.709 4222
1.531 2.880 1.676 7350
1.468 2.760 1.611 2691
1.527 2.871 1.660 7425
1.463 2.751 1.595 1543
1.519 2.856 1.640 6069
1.582 2.976 1.704 3180
1.571 2.955 1.681 5187
1.507 2.835 1.617 4618
1.597 3.003 1.695 4784
1.519 2.858 1.618 3206
1.599 3.007 1.685 4414
1.528 2.874 1.616 2424
1.604 3.018 1.679 6903
1.533 2.884 1.609 2638
1.610 3.028 1.672 9932
1.546 2.907 1.610 2912
1.612 3.032 1.662 10419
1.548 2.911 1.600 1748
1.611 3.030 1.649 10320
1.616 3.040 1.643 8033
1.635 3.076 1.649 5661
1.644 3.092 1.645 4443
1.650 3.103 1.638 6680
1.655 3.113 1.631 8712
1.720 3.235 1.690 1130
1.657 3.117 1.621 10113
1.722 3.239 1.680 1434
1.659 3.121 1.611 10878
1.724 3.243 1.669 1565
1.661 3.124 1.601 7874
1.726 3.247 1.659 1856
1.711 3.219 1.633 6409
1.646 3.096 1.575 3653
1.723 3.242 1.632 7273
1.658 3.119 1.574 2732
1.729 3.252 1.624 6830
1.664 3.129 1.567 1149
1.734 3.262 1.616 6099
1.669 3.139 1.560 1024
1.740 3.273 1.609 5688
1.674 3.149 1.553 1492
1.745 3.283 1.601 6468
1.680 3.160 1.545 1591
1.744 3.280 1.587 5810
1.810 3.404 1.643 1545
1.739 3.271 1.571 4037
1.805 3.394 1.626 2348
1.807 3.398 1.615 4556
1.741 3.275 1.560 2872
1.809 3.402 1.604 7271
1.743 3.278 1.550 2615
1.818 3.419 1.598 6828
1.752 3.295 1.545 2119
1.827 3.436 1.593 6667
1.761 3.312 1.539 1083
1.825 3.433 1.579 5917
1.891 3.557 1.632 1840
1.838 3.456 1.576 3722
1.904 3.581 1.628 1992
1.846 3.473 1.570 4915
1.913 3.598 1.622 2577
1.859 3.496 1.567 5718
1.925 3.621 1.619 2583
1.868 3.513 1.561 3933
1.934 3.638 1.612 2123
1.919 3.609 1.587 3794
1.852 3.484 1.536 1275
1.917 3.606 1.572 4885
1.851 3.481 1.522 1015
1.923 3.616 1.563 3922
1.989 3.742 1.613 1533
1.949 3.666 1.570 4831
1.882 3.541 1.520 1753
1.951 3.670 1.558 5570
1.884 3.544 1.509 1268
1.957 3.680 1.548 4407
2.023 3.806 1.597 1676
1.962 3.690 1.539 3400
2.029 3.816 1.587 2019
1.989 3.740 1.545 4648
2.056 3.866 1.592 2443
1.994 3.751 1.535 4182
2.061 3.877 1.582 2844
2.038 3.834 1.552 3319
1.971 3.708 1.505 1806
2.037 3.831 1.537 2630
2.035 3.828 1.522 3745
2.131 4.007 1.588 1105
2.040 3.838 1.512 4420
2.136 4.018 1.577 2009
2.060 3.875 1.512 3588
2.145 4.035 1.569 2878
2.069 3.892 1.504 4052
2.154 4.052 1.561 2982
2.082 3.915 1.498 3843
2.163 4.069 1.552 2863
2.122 3.992 1.511 4404
2.190 4.119 1.555 2289
2.124 3.996 1.498 4403
2.192 4.123 1.542 2540
2.137 4.019 1.492 2880
2.204 4.147 1.535 2280
2.149 4.043 1.485 2361
2.217 4.170 1.528 1705
2.208 4.154 1.508 1789
2.141 4.026 1.465 1304
2.253 4.238 1.521 2226
2.185 4.110 1.479 1645
2.251 4.235 1.505 2694
2.319 4.362 1.546 1959
2.307 4.339 1.524 3230
2.239 4.211 1.482 2092
2.319 4.363 1.516 3533
2.251 4.235 1.475 1451
2.328 4.380 1.506 3451
2.396 4.508 1.546 1011
2.370 4.457 1.515 4330
2.379 4.474 1.504 4658
2.447 4.602 1.544 1374
2.402 4.518 1.502 3360
2.470 4.646 1.541 1793
2.426 4.562 1.499 4859
2.357 4.434 1.461 2437
2.427 4.566 1.484 5107
2.506 4.714 1.529 2889
2.508 4.718 1.513 5856
2.426 4.562 1.467 3525
2.510 4.722 1.498 9612
2.442 4.593 1.460 2188
2.516 4.732 1.484 9282
2.624 4.935 1.543 1899
2.521 4.742 1.471 5974
2.611 4.912 1.519 2164
2.519 4.739 1.453 3453
2.628 4.942 1.510 2573
2.669 5.020 1.515 3671
2.586 4.864 1.472 2352
2.685 5.051 1.506 3460
2.599 4.888 1.461 2189
2.734 5.143 1.513 4072
2.619 4.925 1.454 2080
2.743 5.160 1.500 5469
2.635 4.956 1.446 1989
2.749 5.170 1.485 3491
2.640 4.966 1.431 1728
2.809 5.283 1.496 1696
2.736 5.147 1.461 1004
2.811 5.286 1.479 2365
2.816 5.297 1.463 1869
2.816 5.297 1.427 1422
2.814 5.293 1.408 1786
2.816 5.296 1.390 1399
2.817 5.300 1.373 1292
2.819 5.303 1.356 2127
2.817 5.299 1.337 3828
2.819 5.302 1.319 4415
3.048 5.734 1.416 1413
2.820 5.305 1.302 4022
3.050 5.737 1.398 2618
2.822 5.308 1.285 3787
3.052 5.740 1.379 3547
3.057 5.750 1.361 5147
3.236 6.087 1.434 4520
3.059 5.754 1.343 8936
3.238 6.090 1.414 8036
3.061 5.757 1.324 12696
3.236 6.087 1.392 8824
3.062 5.760 1.305 13573
3.238 6.090 1.372 8523
3.064 5.763 1.286 12902
3.239 6.093 1.352 8474
3.069 5.773 1.268 13108
3.245 6.103 1.334 7468
3.067 5.769 1.248 11469
3.246 6.106 1.314 5666
3.068 5.771 1.229 8041
3.248 6.109 1.294 3976
3.070 5.774 1.210 5001
3.587 6.747 1.392 3229
3.662 6.888 1.395 2466
3.071 5.777 1.191 2461
3.700 6.960 1.385 2858
3.781 7.112 1.413 1798
3.654 6.873 1.347 2239
3.783 7.115 1.389 1762
3.920 7.374 1.410 1611
3.818 7.181 1.377 1610
3.926 7.384 1.387 2493
4.062 7.640 1.431 1297
3.931 7.394 1.364 2574
4.071 7.657 1.408 1699
4.017 7.557 1.366 1948
3.933 7.397 1.340 1720
4.015 7.553 1.340 1547
3.931 7.394 1.314 1392
4.444 8.359 1.441 1572
4.080 7.673 1.334 1496
4.446 8.362 1.413 2153
4.265 8.023 1.361 1345
4.448 8.366 1.386 2155
4.267 8.026 1.335 1096
4.446 8.362 1.357 1878
4.447 8.365 1.330 1524
4.453 8.375 1.303 1021
2.945 5.539 0.741 1167
2.946 5.541 0.723 1368
2.947 5.542 0.705 1601
2.947 5.544 0.687 1480
2.956 5.559 0.670 1254
2.953 5.554 0.651 1213
2.953 5.555 0.633 1297
2.950 5.549 0.614 1097
2.951 5.550 0.596 1000
2.951 5.552 0.578 1597
2.948 5.546 0.559 2101
2.949 5.547 0.541 2123
2.949 5.548 0.523 1674
2.943 5.535 0.504 1187
0.974 1.819 1.579 3032
0.976 1.823 1.573 6065
1.034 1.931 1.660 1018
0.978 1.827 1.567 5615
1.036 1.935 1.654 1018
0.986 1.842 1.570 5778
1.078 2.013 1.707 1494
0.991 1.851 1.569 6970
1.080 2.017 1.701 2028
1.012 1.889 1.590 6065
1.097 2.050 1.717 2630
1.017 1.899 1.588 7005
1.103 2.059 1.714 3795
1.012 1.891 1.573 5010
1.105 2.063 1.708 3795
1.107 2.067 1.701 4503
1.011 1.889 1.563 3571
1.112 2.077 1.699 5294
1.013 1.892 1.557 3571
1.114 2.081 1.692 6547
1.015 1.896 1.551 4774
1.120 2.091 1.690 7814
1.020 1.905 1.549 5999
1.116 2.083 1.674 8106
1.022 1.909 1.543 7229
1.118 2.087 1.668 8657
1.024 1.913 1.537 8458
1.120 2.091 1.661 7088
1.026 1.916 1.530 6840
1.122 2.095 1.654 5519
1.025 1.914 1.520 5268
1.124 2.099 1.647 5474
1.042 1.947 1.535 3824
1.126 2.103 1.640 5595
1.051 1.962 1.538 3897
1.131 2.113 1.638 5847
1.053 1.966 1.531 2875
1.165 2.175 1.674 6796
1.064 1.987 1.538 1990
1.170 2.185 1.671 9846
1.066 1.991 1.531 1730
1.172 2.189 1.664 12342
1.065 1.988 1.521 1382
1.171 2.187 1.652 15096
1.067 1.992 1.514 1168
1.173 2.191 1.645 12733
1.178 2.201 1.642 10447
1.239 2.314 1.721 1050
1.181 2.205 1.635 8701
1.241 2.318 1.714 1565
1.186 2.214 1.632 7000
1.246 2.328 1.710 2018
1.188 2.218 1.625 7282
1.249 2.332 1.703 2301
1.190 2.222 1.618 7565
1.251 2.336 1.695 2585
1.195 2.232 1.615 5373
1.256 2.346 1.692 3054
1.213 2.266 1.628 4010
1.274 2.380 1.704 3332
1.273 2.378 1.693 4457
1.212 2.264 1.616 3266
1.279 2.388 1.689 5581
1.214 2.267 1.609 2742
1.274 2.380 1.673 4583
1.200 2.241 1.582 3305
1.267 2.366 1.654 4692
1.205 2.251 1.578 3266
1.269 2.369 1.646 4660
1.207 2.254 1.571 3219
1.268 2.367 1.634 3595
1.206 2.252 1.560 2208
1.312 2.450 1.677 3928
1.250 2.335 1.603 3396
1.317 2.460 1.673 6084
1.249 2.332 1.592 3406
1.323 2.470 1.669 8313
1.244 2.324 1.576 3551
1.325 2.474 1.661 8350
1.246 2.328 1.569 2369
1.330 2.484 1.657 8550
1.392 2.600 1.729 1897
1.368 2.555 1.690 8363
1.306 2.439 1.618 3264
1.374 2.566 1.686 9543
1.311 2.449 1.614 4127
1.376 2.569 1.677 9193
1.313 2.453 1.606 5034
1.378 2.573 1.669 10714
1.315 2.456 1.598 4539
1.370 2.559 1.650 12468
1.307 2.442 1.579 1354
1.379 2.575 1.649 16924
1.442 2.692 1.719 1604
1.384 2.585 1.644 20058
1.447 2.703 1.714 2082
1.386 2.589 1.636 18536
1.449 2.707 1.705 2018
1.388 2.593 1.627 14842
1.452 2.711 1.696 1511
1.394 2.603 1.622 11507
1.494 2.789 1.731 1326
1.392 2.600 1.610 11618
1.456 2.719 1.678 1528
1.398 2.610 1.605 11139
1.505 2.810 1.720 3046
1.403 2.620 1.600 7231
1.507 2.814 1.710 4978
1.509 2.818 1.701 6039
1.432 2.674 1.620 5231
1.514 2.828 1.696 6240
1.434 2.678 1.611 4510
1.483 2.770 1.652 7514
1.547 2.889 1.718 3067
1.488 2.780 1.646 8698
1.552 2.899 1.712 3308
1.494 2.790 1.640 6520
1.558 2.909 1.706 4840
1.540 2.876 1.676 7167
1.476 2.756 1.611 2581
1.532 2.861 1.656 7762
1.468 2.741 1.592 1348
1.527 2.852 1.640 7156
1.591 2.972 1.704 2877
1.526 2.849 1.627 5799
1.590 2.969 1.691 5085
1.585 2.961 1.675 4857
1.521 2.841 1.612 3578
1.608 3.003 1.685 3893
1.537 2.870 1.616 3070
1.610 3.007 1.675 6196
1.542 2.880 1.609 3016
1.619 3.023 1.672 9627
1.554 2.903 1.610 2844
1.621 3.027 1.662 10381
1.556 2.906 1.600 1740
1.620 3.025 1.649 10154
1.625 3.035 1.643 8150
1.641 3.064 1.645 6110
1.650 3.081 1.642 4564
1.659 3.098 1.638 6101
1.664 3.108 1.631 7748
1.666 3.112 1.621 9310
1.732 3.234 1.680 1036
1.668 3.116 1.611 10876
1.734 3.238 1.669 1355
1.670 3.119 1.601 8098
1.736 3.242 1.659 1840
1.721 3.213 1.633 5728
1.655 3.091 1.575 3320
1.730 3.230 1.629 6272
1.664 3.108 1.571 1945
1.739 3.247 1.624 5091
1.673 3.124 1.567 1224
1.748 3.264 1.619 4334
1.682 3.141 1.563 1446
1.750 3.267 1.609 4110
1.684 3.144 1.553 1612
1.752 3.271 1.598 4953
1.818 3.394 1.654 1985
1.750 3.268 1.584 5188
1.816 3.392 1.640 1781
1.749 3.266 1.571 3845
1.815 3.389 1.626 1908
1.820 3.399 1.618 4397
1.754 3.276 1.563 2731
1.822 3.403 1.607 7602
1.756 3.279 1.552 2592
1.828 3.413 1.598 7439
1.762 3.290 1.545 2076
1.830 3.417 1.587 7518
1.896 3.541 1.640 1109
1.832 3.421 1.576 7736
1.898 3.545 1.629 2373
1.837 3.431 1.568 5447
1.904 3.555 1.620 3504
1.853 3.461 1.567 5431
1.920 3.585 1.619 3348
1.869 3.491 1.567 5636
1.936 3.615 1.619 2763
1.878 3.508 1.561 3855
1.945 3.632 1.612 2510
1.929 3.603 1.587 3661
1.863 3.478 1.536 1273
1.928 3.600 1.572 4976
1.861 3.475 1.522 1220
1.933 3.611 1.563 4272
2.000 3.736 1.613 1422
1.957 3.654 1.567 5309
1.890 3.529 1.518 1562
1.962 3.664 1.558 5951
1.895 3.539 1.509 1268
1.975 3.688 1.554 4450
2.042 3.813 1.602 1633
1.980 3.698 1.544 3848
2.047 3.823 1.592 2294
2.000 3.734 1.545 4890
2.067 3.860 1.592 2497
2.012 3.758 1.540 3707
2.080 3.884 1.587 2597
2.050 3.828 1.552 3000
1.982 3.702 1.505 1085
2.073 3.871 1.555 2435
2.046 3.822 1.522 3295
2.114 3.948 1.569 1296
2.052 3.832 1.512 4272
2.152 4.018 1.580 1982
2.068 3.862 1.509 3293
2.157 4.028 1.569 2948
2.084 3.892 1.506 3632
2.166 4.045 1.561 3021
2.097 3.916 1.500 3668
2.175 4.062 1.552 2840
2.131 3.979 1.509 4354
2.199 4.106 1.553 3190
2.136 3.989 1.498 4481
2.204 4.116 1.542 3183
2.149 4.013 1.492 3068
2.217 4.140 1.535 2207
2.158 4.030 1.483 2465
2.226 4.157 1.526 1488
2.221 4.147 1.508 2272
2.289 4.274 1.550 1257
2.266 4.231 1.521 2224
2.197 4.104 1.479 1507
2.267 4.234 1.507 2812
2.336 4.362 1.549 1624
2.320 4.332 1.524 3252
2.251 4.204 1.482 2089
2.329 4.349 1.514 3396
2.260 4.221 1.473 1344
2.338 4.366 1.504 3083
2.406 4.494 1.544 1394
2.383 4.450 1.515 5067
2.315 4.322 1.475 1130
2.388 4.460 1.502 5776
2.457 4.588 1.542 1233
2.387 4.457 1.485 3962
2.455 4.585 1.525 2062
2.439 4.555 1.499 4319
2.370 4.427 1.461 2382
2.445 4.565 1.486 4261
2.513 4.693 1.525 2972
2.479 4.629 1.489 4772
2.548 4.758 1.527 2175
2.521 4.707 1.496 7558
2.452 4.579 1.458 1729
2.526 4.718 1.482 7413
2.635 4.920 1.541 1643
2.532 4.728 1.469 4572
2.611 4.877 1.511 2366
2.530 4.724 1.451 2805
2.602 4.860 1.489 2598
2.684 5.012 1.515 3183
2.586 4.829 1.464 2733
2.700 5.043 1.506 3054
2.613 4.880 1.461 2326
2.742 5.121 1.509 3861
2.811 5.250 1.544 2042
2.755 5.145 1.498 4901
2.653 4.955 1.447 1753
2.750 5.135 1.478 3227
2.819 5.264 1.512 1772
2.832 5.288 1.500 2501
2.752 5.138 1.461 1023
2.834 5.292 1.482 2649
2.835 5.295 1.465 2031
2.841 5.305 1.449 1747
2.839 5.302 1.430 1796
2.830 5.285 1.408 1811
2.828 5.281 1.389 1698
2.830 5.284 1.371 1629
2.835 5.294 1.356 2457
2.833 5.291 1.337 4367
2.835 5.294 1.319 4842
3.066 5.725 1.416 2013
2.836 5.297 1.302 4273
3.067 5.728 1.398 3479
3.069 5.731 1.379 4399
2.838 5.300 1.285 4078
3.074 5.741 1.361 6299
3.254 6.077 1.434 5868
3.076 5.744 1.343 11036
3.256 6.081 1.414 10205
3.078 5.748 1.324 15761
3.254 6.077 1.392 10959
3.079 5.751 1.305 16838
3.256 6.080 1.372 10468
3.081 5.754 1.286 15469
3.258 6.083 1.352 10434
3.086 5.763 1.268 14810
3.263 6.093 1.334 9403
3.084 5.759 1.248 13187
3.265 6.096 1.314 7253
3.086 5.762 1.229 10050
3.266 6.099 1.294 5004
3.087 5.765 1.210 6550
3.607 6.736 1.392 3773
3.088 5.768 1.191 3390
3.682 6.877 1.395 2594
3.677 6.866 1.370 2556
3.799 7.094 1.411 2001
3.675 6.862 1.347 2245
3.804 7.104 1.389 1924
3.942 7.362 1.410 1703
3.699 6.907 1.331 1524
3.948 7.372 1.387 2589
4.081 7.621 1.430 1243
3.953 7.382 1.364 2628
4.038 7.541 1.391 1706
4.040 7.544 1.366 2236
3.951 7.379 1.339 1598
4.034 7.534 1.339 1806
4.167 7.783 1.379 1271
4.465 8.339 1.440 1937
4.106 7.668 1.335 1506
4.467 8.342 1.412 2667
4.289 8.010 1.361 1668
4.469 8.345 1.385 2732
4.287 8.006 1.334 1357
4.467 8.342 1.356 2489
4.468 8.345 1.329 2034
4.474 8.355 1.302 1314
2.959 5.525 0.723 1028
2.959 5.527 0.704 1306
2.960 5.528 0.686 1525
2.968 5.543 0.669 1384
2.973 5.552 0.652 1069
2.968 5.543 0.578 1139
2.969 5.544 0.560 1645
2.969 5.545 0.541 2217
2.966 5.539 0.523 2697
2.966 5.540 0.505 2440
2.963 5.534 0.486 1969
2.964 5.535 0.468 1271
2.969 5.545 0.377 1041
2.966 5.539 0.359 1092
2.966 5.539 0.341 1059
2.964 5.535 0.068 1071
2.964 5.535 0.050 1185
2.960 5.528 0.031 1196
2.960 5.527 0.013 1224
2.960 5.527 -0.005 1156
2.963 5.533 -0.023 1099
0.980 1.816 1.579 3236
0.982 1.820 1.573 6473
0.984 1.823 1.567 5886
0.992 1.838 1.570 5941
1.084 2.009 1.707 1377
0.997 1.848 1.569 6981
1.086 2.013 1.701 1967
1.011 1.874 1.581 6016
1.104 2.046 1.717 2561
1.023 1.895 1.588 6774
1.109 2.056 1.714 3724
1.018 1.888 1.573 5093
1.111 2.060 1.708 3724
1.114 2.064 1.701 4586
1.014 1.880 1.558 3845
1.119 2.074 1.699 5489
1.016 1.883 1.552 3845
1.121 2.078 1.692 6419
1.021 1.893 1.551 5351
1.126 2.087 1.690 7475
1.023 1.896 1.544 6859
1.028 1.906 1.543 7685
1.125 2.086 1.679 7185
1.030 1.909 1.537 8620
1.124 2.084 1.668 7182
1.032 1.913 1.530 6818
1.126 2.088 1.661 5919
1.031 1.911 1.520 5088
1.135 2.103 1.663 4710
1.131 2.095 1.647 4845
1.052 1.949 1.540 3973
1.136 2.105 1.645 5494
1.057 1.959 1.538 4269
1.141 2.115 1.642 6160
1.062 1.968 1.535 3237
1.169 2.166 1.669 6751
1.070 1.984 1.538 2388
1.177 2.181 1.671 9329
1.072 1.987 1.531 2078
1.176 2.179 1.659 12002
1.071 1.985 1.521 1674
1.178 2.183 1.652 14961
1.076 1.994 1.518 1449
1.180 2.187 1.645 12749
1.182 2.191 1.638 10537
1.243 2.304 1.717 1125
1.188 2.201 1.635 9545
1.248 2.314 1.714 1397
1.193 2.211 1.632 8662
1.254 2.324 1.710 1789
1.195 2.215 1.625 8753
1.256 2.328 1.703 1975
1.197 2.218 1.618 8845
1.258 2.332 1.695 2161
1.202 2.228 1.615 6536
1.264 2.342 1.692 2576
1.214 2.250 1.620 4644
1.275 2.364 1.696 2880
1.219 2.260 1.616 3944
1.284 2.380 1.697 3658
1.289 2.390 1.693 4599
1.202 2.227 1.585 3694
1.207 2.237 1.582 4464
1.288 2.388 1.681 3677
1.212 2.247 1.578 4520
1.274 2.362 1.654 3790
1.214 2.251 1.571 4666
1.276 2.365 1.646 3796
1.229 2.278 1.579 3499
1.324 2.454 1.693 2882
1.326 2.458 1.685 3730
1.238 2.294 1.580 3449
1.328 2.462 1.677 6062
1.246 2.310 1.580 3530
1.331 2.466 1.669 8394
1.252 2.320 1.576 3801
1.333 2.470 1.661 8115
1.254 2.324 1.569 2619
1.338 2.480 1.657 7938
1.401 2.596 1.729 1924
1.376 2.551 1.690 7780
1.314 2.435 1.618 3019
1.382 2.561 1.686 9117
1.319 2.445 1.614 3726
1.387 2.571 1.681 8742
1.324 2.455 1.610 5080
1.386 2.569 1.669 10574
1.323 2.452 1.598 4445
1.388 2.573 1.661 12465
1.325 2.456 1.590 2699
1.390 2.577 1.652 17030
1.454 2.694 1.723 1408
1.392 2.581 1.644 19700
1.456 2.698 1.714 1915
1.395 2.585 1.636 17803
1.458 2.702 1.705 1916
1.397 2.588 1.627 14120
1.460 2.706 1.696 1938
1.402 2.598 1.622 11023
1.466 2.716 1.691 1759
1.401 2.596 1.610 11297
1.464 2.714 1.678 1791
1.406 2.606 1.605 10879
1.514 2.805 1.720 2869
1.412 2.616 1.600 7089
1.516 2.809 1.710 4811
1.518 2.813 1.701 5910
1.440 2.670 1.620 4835
1.523 2.823 1.696 5915
1.459 2.705 1.629 4179
1.488 2.759 1.648 7190
1.553 2.877 1.714 3415
1.491 2.762 1.639 8080
1.558 2.888 1.708 3733
1.499 2.779 1.637 5940
1.564 2.898 1.702 5319
1.546 2.864 1.672 6798
1.481 2.745 1.607 2326
1.534 2.843 1.649 8289
1.599 2.963 1.714 1653
1.536 2.847 1.640 7825
1.601 2.967 1.704 2654
1.535 2.844 1.627 6188
1.599 2.964 1.691 4950
1.595 2.956 1.675 4844
1.530 2.836 1.612 3690
1.576 2.922 1.645 4330
1.641 3.042 1.708 1932
1.623 3.008 1.679 5574
1.548 2.869 1.606 3350
1.629 3.018 1.672 9544
1.563 2.898 1.610 2816
1.631 3.022 1.662 10388
1.566 2.901 1.600 1840
1.629 3.020 1.649 9920
1.635 3.030 1.643 8255
1.651 3.059 1.645 6762
1.660 3.076 1.642 4745
1.672 3.099 1.641 5423
1.674 3.103 1.631 6639
1.676 3.107 1.621 8426
1.678 3.110 1.611 10740
1.744 3.232 1.669 1200
1.680 3.114 1.601 8575
1.746 3.236 1.659 1822
1.731 3.208 1.633 4937
1.665 3.086 1.575 2997
1.740 3.225 1.629 5476
1.674 3.102 1.571 1696
1.714 3.177 1.594 3703
1.780 3.299 1.651 3199
1.716 3.181 1.584 3723
1.782 3.303 1.640 3584
1.722 3.191 1.576 3921
1.795 3.326 1.638 2921
1.738 3.220 1.578 3795
1.804 3.343 1.633 3221
1.757 3.256 1.582 4235
1.823 3.379 1.637 1999
1.777 3.292 1.585 3621
1.843 3.416 1.640 1668
1.835 3.400 1.621 4708
1.768 3.277 1.566 2640
1.837 3.404 1.609 7740
1.770 3.280 1.555 2414
1.839 3.408 1.598 7810
1.772 3.284 1.545 1869
1.841 3.411 1.587 8448
1.907 3.535 1.640 1239
1.843 3.415 1.576 9100
1.910 3.539 1.629 2515
1.848 3.425 1.568 6967
1.915 3.549 1.620 3609
1.864 3.455 1.567 5866
1.931 3.579 1.619 3274
1.877 3.478 1.564 5260
1.944 3.603 1.616 3099
1.886 3.495 1.558 3603
1.953 3.620 1.609 2719
1.920 3.558 1.571 3853
1.987 3.682 1.622 1439
1.929 3.575 1.564 5260
1.996 3.699 1.615 1441
1.945 3.604 1.563 4752
2.012 3.729 1.613 1295
1.968 3.648 1.567 6009
1.901 3.523 1.518 1613
1.974 3.658 1.558 6183
1.906 3.533 1.509 1133
1.993 3.694 1.559 5013
2.061 3.820 1.607 1624
1.995 3.698 1.547 5024
2.063 3.823 1.595 2251
2.004 3.715 1.539 6061
2.072 3.840 1.587 2422
2.021 3.745 1.537 3702
2.088 3.870 1.585 2812
2.087 3.868 1.570 2631
2.019 3.742 1.523 1773
2.096 3.884 1.562 2773
2.028 3.759 1.515 1446
2.102 3.895 1.552 3130
2.034 3.769 1.505 1499
2.060 3.819 1.510 4299
2.164 4.011 1.580 2358
2.070 3.836 1.502 3099
2.170 4.021 1.569 3035
2.100 3.892 1.509 3520
2.175 4.032 1.558 2845
2.109 3.909 1.500 3357
2.188 4.055 1.552 2556
2.201 4.079 1.546 3988
2.133 3.952 1.502 3263
2.203 4.083 1.532 4037
2.135 3.956 1.489 3030
2.165 4.013 1.494 3110
2.234 4.140 1.537 2039
2.171 4.023 1.483 2807
2.282 4.230 1.553 1341
2.230 4.133 1.506 2731
2.302 4.267 1.550 1306
2.243 4.157 1.499 2549
2.311 4.284 1.541 1881
2.288 4.241 1.511 2816
2.220 4.113 1.470 1173
2.333 4.325 1.524 3081
2.265 4.197 1.482 2017
2.339 4.335 1.511 3286
2.270 4.207 1.471 1226
2.352 4.358 1.504 2657
2.421 4.486 1.544 1597
2.397 4.443 1.515 5147
2.328 4.315 1.475 1594
2.399 4.446 1.500 5894
2.468 4.574 1.540 1343
2.394 4.436 1.481 4120
2.492 4.618 1.537 2104
2.450 4.541 1.497 3646
2.519 4.668 1.536 2213
2.485 4.605 1.500 3856
2.379 4.409 1.442 1748
2.494 4.622 1.489 4565
2.563 4.750 1.527 1864
2.536 4.699 1.496 6101
2.466 4.571 1.458 1537
2.534 4.696 1.478 6173
2.603 4.824 1.515 2279
2.525 4.679 1.457 3978
2.620 4.855 1.507 2732
2.618 4.852 1.489 3050
2.698 5.000 1.531 2302
2.601 4.821 1.464 2864
2.696 4.997 1.513 2588
2.720 5.041 1.508 2998
2.632 4.879 1.463 2277
2.751 5.099 1.506 3759
2.821 5.228 1.541 2828
2.753 5.103 1.489 4690
2.823 5.231 1.523 2715
2.751 5.099 1.470 3414
2.836 5.255 1.512 2093
2.845 5.272 1.498 3355
2.761 5.116 1.457 1315
2.847 5.276 1.481 2934
2.852 5.286 1.465 2035
2.858 5.296 1.449 2150
2.856 5.293 1.430 2036
2.843 5.269 1.406 1800
2.841 5.265 1.387 1836
2.846 5.275 1.371 1712
2.848 5.278 1.354 2525
2.850 5.281 1.337 4472
2.851 5.285 1.319 4825
3.084 5.715 1.416 2258
2.853 5.288 1.302 4148
3.085 5.718 1.398 3879
3.087 5.722 1.379 4737
2.855 5.291 1.285 4010
3.093 5.732 1.361 6750
3.274 6.067 1.434 6567
3.094 5.735 1.343 11953
3.275 6.070 1.414 11256
3.096 5.738 1.324 17116
3.273 6.067 1.392 11949
3.098 5.741 1.305 18362
3.275 6.070 1.372 11399
3.099 5.744 1.286 16660
3.277 6.073 1.352 11355
3.104 5.754 1.268 15234
3.282 6.083 1.334 10383
3.102 5.750 1.248 13590
3.284 6.086 1.314 8128
3.104 5.752 1.229 10896
3.285 6.089 1.294 5546
3.105 5.755 1.210 7249
3.628 6.724 1.392 3988
3.107 5.758 1.191 3851
3.704 6.865 1.395 2539
3.699 6.855 1.370 2398
3.821 7.082 1.411 2072
3.697 6.851 1.347 2107
3.827 7.092 1.389 1979
3.966 7.350 1.410 1696
3.720 6.895 1.331 1630
3.971 7.360 1.387 2518
4.053 7.511 1.413 1281
3.973 7.363 1.363 2515
4.058 7.522 1.389 1825
4.064 7.532 1.366 2493
4.135 7.663 1.387 1408
4.058 7.521 1.339 1996
4.192 7.769 1.379 1255
4.492 8.325 1.440 2212
4.309 7.986 1.387 1542
4.493 8.328 1.412 3043
4.315 7.996 1.361 1789
4.495 8.331 1.385 3191
4.313 7.993 1.334 1465
4.493 8.327 1.356 3066
4.307 7.982 1.306 1072
4.495 8.330 1.329 2475
4.497 8.333 1.301 1554
2.983 5.528 0.742 1022
2.980 5.523 0.723 1074
2.977 5.517 0.704 1085
2.978 5.519 0.686 1131
2.982 5.527 0.669 1382
2.987 5.535 0.651 1229
2.987 5.536 0.523 1279
2.984 5.530 0.505 1549
2.985 5.531 0.486 1471
2.981 5.525 0.468 1199
2.985 5.531 0.286 1198
2.985 5.532 0.268 1328
2.985 5.532 0.250 1285
2.981 5.525 0.231 1255
2.981 5.526 0.213 1011
2.981 5.525 0.050 1103
2.981 5.525 0.031 1220
2.977 5.518 0.013 1350
2.981 5.524 -0.005 1347
2.981 5.524 -0.023 1358
2.980 5.524 -0.041 1273
2.976 5.516 -0.059 1208
2.976 5.516 -0.077 1104
2.976 5.515 -0.096 1000
0.986 1.820 1.583 3289
0.988 1.824 1.578 6579
0.990 1.827 1.572 5947
0.995 1.837 1.570 5829
1.085 2.002 1.703 1259
1.000 1.846 1.569 6654
1.090 2.011 1.701 1899
1.012 1.867 1.577 5773
1.108 2.044 1.717 2484
1.023 1.888 1.584 6260
1.113 2.054 1.714 3591
1.019 1.880 1.569 5108
1.115 2.058 1.708 3591
1.117 2.062 1.701 4525
1.015 1.872 1.554 4462
1.120 2.066 1.694 5459
1.017 1.876 1.548 4462
1.125 2.076 1.692 6062
1.022 1.885 1.546 5848
1.027 1.894 1.544 7406
1.130 2.085 1.690 6881
1.032 1.904 1.543 7795
1.132 2.089 1.683 6132
1.034 1.907 1.537 8342
1.128 2.082 1.668 5622
1.036 1.911 1.530 6473
1.133 2.091 1.665 4761
1.034 1.909 1.520 4666
1.142 2.107 1.667 4234
1.138 2.099 1.652 4279
1.055 1.947 1.540 4043
1.143 2.109 1.649 5447
1.060 1.957 1.538 4498
1.148 2.119 1.646 6563
1.066 1.966 1.535 3492
1.169 2.158 1.665 6697
1.074 1.982 1.538 2693
1.181 2.179 1.671 8516
1.076 1.985 1.531 2344
1.180 2.177 1.659 11219
1.075 1.983 1.521 1902
1.182 2.181 1.652 14208
1.080 1.992 1.518 1681
1.184 2.185 1.645 12355
1.085 2.002 1.516 1128
1.186 2.189 1.638 10502
1.192 2.199 1.635 10028
1.253 2.312 1.714 1147
1.194 2.203 1.628 9764
1.255 2.316 1.706 1572
1.199 2.212 1.625 9664
1.260 2.326 1.703 1603
1.201 2.216 1.618 9572
1.262 2.330 1.695 1724
1.206 2.226 1.615 7009
1.268 2.339 1.692 2120
1.218 2.248 1.620 4682
1.280 2.361 1.696 2382
1.220 2.251 1.612 4046
1.288 2.377 1.697 3035
1.206 2.225 1.585 4540
1.294 2.387 1.693 3857
1.208 2.229 1.578 5575
1.296 2.391 1.685 3065
1.216 2.245 1.578 5789
1.321 2.438 1.705 3115
1.218 2.248 1.571 6213
1.281 2.363 1.646 3190
1.224 2.258 1.568 4612
1.332 2.458 1.697 2860
1.334 2.462 1.689 3962
1.242 2.292 1.580 3647
1.336 2.466 1.681 6100
1.247 2.302 1.576 3530
1.338 2.470 1.673 8237
1.256 2.318 1.576 3648
1.340 2.474 1.665 7734
1.255 2.315 1.565 2495
1.343 2.477 1.657 7231
1.405 2.593 1.729 1863
1.381 2.549 1.690 7006
1.318 2.432 1.618 2758
1.387 2.559 1.686 8377
1.324 2.442 1.614 3419
1.392 2.569 1.681 8059
1.329 2.452 1.610 4735
1.394 2.573 1.673 10159
1.331 2.456 1.602 4818
1.396 2.577 1.664 12260
1.333 2.460 1.594 3239
1.395 2.574 1.652 16524
1.459 2.691 1.723 1384
1.397 2.578 1.644 18740
1.461 2.695 1.714 1712
1.396 2.576 1.632 16705
1.466 2.706 1.709 1804
1.401 2.586 1.627 13096
1.465 2.703 1.696 2388
1.407 2.596 1.622 10230
1.471 2.714 1.691 2537
1.409 2.600 1.614 10595
1.473 2.718 1.682 2209
1.411 2.603 1.605 10201
1.519 2.802 1.720 2642
1.416 2.613 1.600 6704
1.521 2.806 1.710 4496
1.523 2.810 1.701 5564
1.445 2.667 1.620 4311
1.529 2.821 1.696 5593
1.464 2.702 1.629 4060
1.487 2.743 1.641 7084
1.551 2.862 1.707 4203
1.492 2.753 1.636 7686
1.557 2.872 1.701 3694
1.491 2.751 1.623 6104
1.555 2.870 1.689 5292
1.534 2.830 1.655 6806
1.598 2.949 1.720 2072
1.536 2.834 1.646 8611
1.601 2.953 1.711 1990
1.541 2.844 1.640 7948
1.606 2.964 1.704 2407
1.543 2.848 1.631 6231
1.608 2.968 1.695 3976
1.549 2.858 1.625 4564
1.614 2.978 1.688 3391
1.582 2.919 1.645 4986
1.647 3.039 1.708 2061
1.632 3.011 1.682 5156
1.567 2.891 1.619 3764
1.637 3.022 1.675 9504
1.572 2.901 1.613 3043
1.636 3.019 1.662 10128
1.571 2.899 1.600 1876
1.635 3.017 1.649 9223
1.651 3.046 1.652 8230
1.585 2.925 1.591 1221
1.656 3.056 1.645 7406
1.665 3.073 1.642 4946
1.678 3.096 1.641 4875
1.680 3.100 1.631 5619
1.682 3.103 1.621 7492
1.684 3.107 1.611 10142
1.750 3.229 1.669 1129
1.686 3.111 1.601 8574
1.752 3.233 1.659 1874
1.740 3.211 1.636 4429
1.674 3.089 1.578 3223
1.742 3.215 1.626 5056
1.676 3.093 1.568 1364
1.727 3.187 1.600 3717
1.793 3.309 1.657 3306
1.788 3.300 1.640 4032
1.722 3.177 1.584 3827
1.731 3.194 1.579 4164
1.797 3.317 1.635 3238
1.740 3.211 1.575 4005
1.821 3.359 1.642 3320
1.759 3.247 1.579 3419
1.826 3.370 1.634 2305
1.790 3.302 1.591 3759
1.856 3.425 1.646 1474
1.844 3.403 1.623 5087
1.778 3.280 1.569 2768
1.846 3.407 1.612 7654
1.780 3.284 1.558 2278
1.845 3.404 1.598 7738
1.778 3.281 1.545 1486
1.843 3.401 1.584 8641
1.910 3.525 1.638 1526
1.849 3.412 1.576 9470
1.916 3.536 1.629 2582
1.854 3.422 1.568 7799
1.922 3.546 1.620 3590
1.871 3.452 1.567 6097
1.938 3.576 1.619 3019
1.883 3.475 1.564 4943
1.951 3.599 1.616 2784
1.892 3.492 1.558 3392
1.960 3.616 1.609 2814
1.926 3.554 1.571 4044
1.994 3.679 1.622 1267
1.935 3.571 1.564 5907
2.003 3.696 1.615 1311
1.937 3.575 1.553 5480
2.005 3.699 1.603 2447
1.971 3.637 1.565 6096
1.904 3.513 1.515 1574
1.980 3.654 1.558 5896
1.913 3.529 1.509 1120
2.011 3.711 1.566 5342
1.943 3.585 1.518 1872
2.002 3.694 1.547 5620
2.070 3.820 1.595 2324
2.008 3.705 1.537 6705
2.076 3.830 1.585 2402
2.017 3.721 1.530 4006
2.092 3.860 1.582 2739
2.097 3.870 1.572 2775
2.029 3.745 1.525 2347
2.103 3.881 1.562 3175
2.035 3.755 1.515 2257
2.109 3.891 1.552 3360
2.040 3.765 1.505 2086
2.064 3.808 1.507 3696
2.132 3.934 1.553 3442
2.138 3.945 1.543 3106
2.069 3.818 1.497 2547
2.111 3.895 1.511 3031
2.183 4.028 1.558 2719
2.116 3.905 1.500 2843
2.196 4.051 1.552 2296
2.208 4.075 1.546 3864
2.140 3.949 1.502 2798
2.214 4.085 1.535 3972
2.145 3.959 1.491 3049
2.227 4.109 1.528 2991
2.158 3.982 1.485 2591
2.178 4.019 1.483 2659
2.247 4.146 1.526 1501
2.234 4.123 1.503 3029
2.317 4.276 1.555 1130
2.251 4.153 1.499 2921
2.319 4.280 1.541 1953
2.303 4.250 1.516 2896
2.234 4.123 1.474 1360
2.341 4.320 1.524 2988
2.272 4.193 1.482 1910
2.347 4.331 1.511 3101
2.278 4.203 1.471 1240
2.403 4.435 1.529 2731
2.334 4.307 1.489 1772
2.405 4.438 1.515 5076
2.336 4.311 1.475 1874
2.403 4.435 1.498 5706
2.473 4.563 1.537 1529
2.398 4.425 1.479 3924
2.504 4.620 1.539 2039
2.502 4.617 1.522 2908
2.433 4.489 1.483 2553
2.497 4.607 1.502 3744
2.427 4.479 1.464 2506
2.502 4.617 1.489 4422
2.582 4.765 1.533 2014
2.541 4.688 1.494 4482
2.610 4.816 1.531 2227
2.586 4.772 1.502 5014
2.517 4.644 1.465 3544
2.530 4.668 1.455 3879
2.628 4.850 1.507 2847
2.627 4.847 1.489 3090
2.700 4.982 1.527 2209
2.614 4.823 1.466 2873
2.705 4.992 1.513 2219
2.733 5.043 1.510 2835
2.821 5.205 1.554 2149
2.753 5.080 1.502 3786
2.823 5.209 1.537 3687
2.759 5.091 1.487 5008
2.829 5.219 1.522 3861
2.761 5.094 1.470 3736
2.845 5.250 1.512 2844
2.854 5.267 1.498 4036
2.770 5.111 1.457 1660
2.856 5.271 1.481 3040
2.768 5.108 1.439 1054
2.862 5.281 1.465 1789
2.867 5.291 1.449 2313
2.866 5.288 1.430 2166
2.853 5.264 1.406 1744
2.851 5.260 1.387 1788
2.852 5.263 1.370 1590
2.858 5.273 1.354 2383
2.859 5.276 1.337 4244
2.861 5.279 1.319 4471
3.094 5.709 1.416 2221
3.096 5.713 1.398 3770
2.863 5.282 1.302 3712
3.098 5.716 1.379 4489
2.864 5.285 1.285 3622
3.285 6.061 1.434 6591
3.103 5.726 1.361 6407
3.105 5.729 1.343 11539
3.286 6.064 1.414 11156
3.106 5.732 1.324 16652
3.285 6.061 1.392 11769
3.108 5.735 1.305 17870
3.286 6.064 1.372 11214
3.110 5.738 1.286 16100
3.288 6.067 1.352 11173
3.115 5.748 1.268 14447
3.293 6.077 1.334 10268
3.117 5.751 1.249 12930
3.295 6.080 1.314 8042
3.114 5.747 1.229 10686
3.297 6.083 1.294 5460
3.116 5.749 1.210 7257
3.644 6.725 1.394 3954
3.117 5.752 1.191 3947
3.717 6.858 1.395 2381
3.715 6.855 1.372 2226
3.834 7.075 1.411 1959
3.705 6.837 1.345 1944
3.839 7.085 1.389 1869
4.028 7.432 1.426 1690
3.733 6.888 1.331 1676
3.981 7.346 1.386 2364
4.052 7.476 1.408 1509
3.986 7.356 1.363 2290
4.072 7.514 1.389 1992
4.074 7.517 1.365 2674
4.313 7.958 1.437 1315
4.072 7.514 1.339 2088
4.311 7.955 1.410 1296
4.507 8.316 1.440 2368
4.324 7.979 1.387 1559
4.509 8.320 1.412 3290
4.329 7.989 1.361 1763
4.510 8.323 1.385 3555
4.327 7.985 1.334 1475
4.508 8.319 1.356 3511
4.329 7.988 1.308 1151
4.510 8.322 1.329 2763
4.345 8.018 1.285 1082
4.512 8.325 1.301 1717
2.997 5.530 0.743 1047
2.994 5.524 0.724 1206
2.995 5.526 0.706 1275
2.993 5.523 0.651 1267
2.994 5.524 0.632 1271
2.996 5.528 0.578 1138
2.996 5.529 0.560 1554
2.997 5.530 0.541 1561
2.997 5.531 0.523 1175
2.988 5.513 0.086 1058
2.988 5.513 0.068 1162
2.988 5.513 0.050 1267
2.988 5.513 0.031 1301
2.987 5.512 0.013 1334
2.987 5.512 -0.005 1297
2.991 5.519 -0.023 1261
2.987 5.511 -0.041 1204
2.986 5.511 -0.059 1149
2.986 5.510 -0.077 1080
2.986 5.510 -0.096 1011
0.995 1.815 1.583 3588
0.997 1.819 1.578 7176
1.002 1.828 1.576 6432
1.007 1.838 1.575 6009
1.094 1.997 1.703 1201
1.009 1.841 1.569 6329
1.103 2.012 1.705 1969
1.017 1.856 1.572 5454
1.114 2.033 1.712 2458
1.026 1.871 1.575 5506
1.126 2.054 1.719 3437
1.025 1.869 1.564 5708
1.128 2.058 1.712 3437
1.027 1.873 1.558 6078
1.127 2.057 1.701 4499
1.029 1.877 1.552 6078
1.129 2.061 1.694 5587
1.034 1.886 1.551 7071
1.135 2.070 1.692 5702
1.036 1.890 1.544 8234
1.140 2.080 1.690 6141
1.041 1.899 1.543 8032
1.142 2.084 1.683 4716
1.043 1.903 1.537 7985
1.173 2.140 1.716 4083
1.045 1.906 1.530 6037
1.175 2.144 1.709 4054
1.187 2.165 1.715 4286
1.043 1.904 1.520 4102
1.186 2.164 1.703 4275
1.065 1.942 1.540 4225
1.153 2.103 1.649 5782
1.070 1.952 1.538 4847
1.161 2.119 1.651 7679
1.075 1.961 1.535 3830
1.173 2.140 1.657 7042
1.083 1.976 1.538 3074
1.195 2.180 1.675 7221
1.082 1.974 1.527 2693
1.187 2.166 1.655 9876
1.084 1.978 1.521 2225
1.189 2.170 1.648 12743
1.089 1.987 1.518 2006
1.191 2.174 1.641 11659
1.094 1.997 1.516 1373
1.193 2.177 1.634 10576
1.199 2.187 1.631 10682
1.204 2.197 1.628 11006
1.266 2.310 1.706 1169
1.206 2.201 1.621 10351
1.268 2.314 1.699 1262
1.211 2.210 1.618 9872
1.273 2.324 1.695 1214
1.214 2.214 1.611 7114
1.276 2.328 1.688 1671
1.196 2.182 1.579 4577
1.261 2.302 1.660 2681
1.198 2.186 1.572 4533
1.303 2.377 1.701 2292
1.213 2.213 1.581 5593
1.305 2.381 1.693 2936
1.218 2.223 1.578 6868
1.311 2.391 1.689 2454
1.227 2.239 1.578 7307
1.329 2.425 1.701 2508
1.232 2.249 1.575 8257
1.338 2.441 1.701 2516
1.234 2.252 1.568 6020
1.343 2.451 1.697 3792
1.346 2.455 1.689 4979
1.243 2.268 1.568 4019
1.348 2.459 1.681 6529
1.255 2.290 1.572 3621
1.350 2.463 1.673 8078
1.260 2.299 1.569 3470
1.352 2.467 1.665 7060
1.256 2.291 1.554 2648
1.354 2.471 1.657 6042
1.418 2.587 1.729 1745
1.393 2.542 1.690 5647
1.330 2.426 1.618 2358
1.399 2.552 1.686 6929
1.335 2.436 1.614 2994
1.404 2.562 1.681 6741
1.341 2.446 1.610 4207
1.406 2.566 1.673 9304
1.343 2.450 1.602 4515
1.412 2.576 1.668 11907
1.348 2.460 1.598 3707
1.411 2.574 1.656 15251
1.347 2.457 1.586 1568
1.409 2.572 1.644 16652
1.477 2.695 1.717 1429
1.408 2.569 1.632 14690
1.472 2.686 1.701 1690
1.414 2.579 1.627 11276
1.478 2.696 1.696 3057
1.419 2.589 1.622 8779
1.483 2.707 1.691 3723
1.421 2.593 1.614 9339
1.486 2.711 1.682 3269
1.427 2.603 1.609 8842
1.532 2.795 1.720 2320
1.432 2.613 1.604 5824
1.534 2.799 1.710 3888
1.536 2.803 1.701 4827
1.458 2.660 1.620 3495
1.542 2.813 1.696 5014
1.477 2.695 1.629 3685
1.496 2.730 1.638 7689
1.561 2.848 1.704 4745
1.498 2.734 1.629 8714
1.563 2.852 1.694 4692
1.500 2.738 1.620 7694
1.565 2.856 1.685 5294
1.526 2.785 1.635 6688
1.592 2.904 1.700 5355
1.546 2.820 1.643 8634
1.611 2.940 1.707 2423
1.551 2.831 1.637 7707
1.617 2.950 1.701 2554
1.557 2.841 1.631 5941
1.622 2.960 1.695 3140
1.590 2.901 1.652 5134
1.656 3.021 1.715 1662
1.592 2.905 1.642 6550
1.658 3.025 1.705 2928
1.598 2.915 1.636 5488
1.663 3.035 1.698 4706
1.652 3.014 1.675 9401
1.586 2.894 1.613 3503
1.654 3.018 1.666 9407
1.588 2.897 1.604 2306
1.649 3.009 1.649 7855
1.669 3.044 1.655 8079
1.602 2.924 1.594 1553
1.671 3.048 1.645 7515
1.676 3.059 1.639 5171
1.689 3.082 1.638 4503
1.691 3.085 1.628 4448
1.693 3.089 1.618 6629
1.695 3.093 1.608 9378
1.765 3.221 1.669 1411
1.701 3.103 1.601 8044
1.767 3.225 1.659 2446
1.710 3.120 1.596 4509
1.776 3.241 1.654 2859
1.754 3.200 1.623 4890
1.821 3.322 1.680 1335
1.802 3.288 1.651 4310
1.735 3.166 1.594 3859
1.804 3.291 1.640 4904
1.737 3.169 1.584 4051
1.799 3.282 1.624 4673
1.732 3.160 1.567 3836
1.759 3.209 1.578 4489
1.840 3.357 1.645 3997
1.842 3.361 1.634 3501
1.775 3.238 1.579 3029
1.812 3.307 1.597 4452
1.880 3.429 1.652 1197
1.860 3.394 1.623 6315
1.793 3.272 1.569 2928
1.862 3.398 1.612 7850
1.795 3.275 1.558 2029
1.861 3.396 1.598 7562
1.793 3.272 1.545 1189
1.859 3.393 1.584 8190
1.927 3.516 1.638 1762
1.861 3.396 1.573 8402
1.929 3.520 1.626 2906
1.874 3.420 1.570 7285
1.942 3.543 1.623 3077
1.883 3.436 1.565 5263
1.951 3.560 1.617 2996
1.935 3.531 1.591 4016
1.867 3.407 1.540 1114
1.930 3.522 1.574 3127
1.998 3.646 1.626 1102
1.939 3.539 1.568 4592
2.007 3.663 1.619 1196
1.949 3.555 1.562 6914
2.017 3.680 1.612 1321
1.958 3.572 1.555 6969
2.026 3.696 1.605 2138
1.970 3.595 1.551 6879
2.039 3.720 1.601 2687
2.023 3.691 1.576 5642
1.954 3.566 1.527 3876
2.028 3.701 1.566 5470
1.960 3.576 1.518 1844
2.020 3.685 1.547 5572
2.088 3.810 1.595 2238
2.025 3.695 1.537 6818
2.094 3.820 1.585 2317
2.034 3.712 1.530 4380
2.114 3.857 1.585 2402
2.062 3.762 1.535 3635
2.130 3.887 1.582 2712
2.121 3.871 1.562 4044
2.053 3.745 1.515 3225
2.120 3.868 1.547 4041
2.051 3.742 1.500 2108
2.151 3.924 1.553 4795
2.078 3.792 1.505 2665
2.153 3.928 1.540 4653
2.084 3.802 1.495 1783
2.136 3.898 1.516 2855
2.205 4.024 1.561 2563
2.135 3.895 1.500 2388
2.211 4.034 1.550 2110
2.228 4.065 1.546 3462
2.158 3.938 1.502 1986
2.240 4.088 1.539 3953
2.164 3.949 1.491 2190
2.246 4.098 1.528 4299
2.177 3.972 1.485 2197
2.244 4.095 1.512 3950
2.175 3.969 1.470 1738
2.250 4.105 1.501 3494
2.345 4.278 1.559 1264
2.274 4.149 1.501 3037
2.343 4.275 1.543 1925
2.323 4.239 1.516 2854
2.254 4.112 1.474 1663
2.362 4.309 1.524 2698
2.281 4.162 1.476 1689
2.364 4.313 1.509 3095
2.433 4.440 1.550 1068
2.420 4.417 1.527 3104
2.351 4.289 1.487 2113
2.426 4.427 1.515 4612
2.356 4.300 1.475 2071
2.424 4.424 1.498 4799
2.494 4.551 1.537 1557
2.423 4.420 1.481 3200
2.525 4.608 1.539 1795
2.458 4.484 1.485 3073
2.527 4.612 1.524 2497
2.463 4.494 1.472 3783
2.533 4.622 1.511 2975
2.531 4.619 1.493 3899
2.461 4.491 1.455 2011
2.607 4.757 1.517 4577
2.537 4.629 1.480 3393
2.612 4.767 1.504 5446
2.542 4.639 1.467 3982
2.552 4.656 1.455 4165
2.659 4.851 1.511 3640
2.646 4.828 1.488 3175
2.553 4.659 1.440 2126
2.637 4.811 1.466 3083
2.718 4.959 1.507 2484
2.764 5.044 1.513 2684
2.842 5.185 1.552 1778
2.844 5.189 1.535 3781
2.773 5.061 1.500 3691
2.779 5.071 1.485 5089
2.849 5.199 1.520 4658
2.870 5.237 1.512 4082
2.781 5.074 1.469 3691
2.876 5.247 1.496 5254
2.794 5.098 1.457 1895
2.877 5.250 1.479 2992
2.796 5.101 1.440 1176
2.894 5.281 1.468 1422
2.896 5.284 1.451 2488
2.890 5.274 1.430 2283
2.885 5.264 1.409 1617
2.879 5.253 1.389 1566
2.877 5.250 1.370 1307
2.883 5.260 1.354 1963
2.884 5.263 1.337 3527
2.886 5.266 1.319 3643
3.117 5.688 1.415 1859
3.123 5.698 1.398 3190
2.888 5.269 1.302 2702
3.125 5.701 1.379 3588
2.889 5.272 1.285 2571
3.313 6.045 1.434 5885
3.130 5.711 1.361 5139
3.315 6.049 1.414 9742
3.132 5.714 1.343 9607
3.133 5.717 1.324 14094
3.317 6.052 1.394 10197
3.135 5.720 1.305 15136
3.319 6.055 1.374 9748
3.137 5.723 1.286 13477
3.317 6.051 1.352 9669
3.142 5.733 1.268 11671
3.322 6.061 1.334 8795
3.144 5.736 1.249 10504
3.324 6.064 1.314 6851
3.141 5.732 1.229 9110
3.325 6.067 1.294 4589
3.143 5.735 1.210 6322
3.676 6.707 1.394 3470
3.144 5.737 1.191 3425
3.712 6.772 1.383 2288
3.747 6.837 1.372 2037
3.864 7.050 1.410 1642
3.730 6.806 1.343 1829
3.997 7.293 1.430 1587
3.769 6.878 1.332 1769
4.066 7.420 1.427 1732
4.015 7.327 1.386 1983
4.091 7.464 1.410 1812
4.104 7.488 1.388 2342
4.021 7.337 1.363 1805
4.109 7.498 1.365 2853
4.350 7.938 1.437 1415
4.107 7.494 1.339 2051
4.345 7.927 1.409 1346
4.542 8.288 1.439 2396
4.361 7.958 1.387 1447
4.544 8.291 1.411 3402
4.363 7.961 1.360 1518
4.546 8.295 1.384 3884
4.365 7.964 1.334 1312
4.548 8.298 1.356 4005
4.389 8.009 1.314 1404
4.546 8.294 1.328 3096
4.383 7.998 1.285 1416
4.551 8.304 1.301 1919
4.553 8.307 1.274 1026
3.021 5.512 0.706 1030
3.021 5.513 0.688 1184
3.023 5.516 0.541 1048
3.023 5.517 0.523 1578
3.020 5.511 0.505 1605
3.021 5.512 0.486 1331
3.014 5.499 0.104 1158
3.014 5.499 0.086 1291
3.014 5.499 0.068 1387
3.017 5.506 0.050 1486
3.013 5.499 0.031 1525
3.013 5.498 0.013 1568
3.013 5.498 -0.005 1518
3.017 5.504 -0.023 1469
3.013 5.497 -0.041 1408
3.012 5.497 -0.059 1348
