4.530 8.315 1.301 1388
0.999 1.828 1.593 4425
1.001 1.831 1.587 8851
1.006 1.841 1.585 8278
1.011 1.850 1.584 7828
1.105 2.020 1.721 1097
1.010 1.848 1.573 7552
1.107 2.024 1.714 1627
1.015 1.857 1.572 6534
1.112 2.034 1.712 2609
1.046 1.913 1.606 7606
1.121 2.050 1.714 3733
1.051 1.922 1.605 6620
1.123 2.054 1.708 3733
1.056 1.931 1.603 5832
1.119 2.046 1.692 5166
1.121 2.050 1.686 6727
1.058 1.935 1.597 5832
1.126 2.060 1.683 5733
1.057 1.933 1.586 5016
1.131 2.070 1.681 5162
1.056 1.931 1.575 4331
1.067 1.952 1.582 4657
1.130 2.068 1.670 3910
1.069 1.956 1.576 5395
1.167 2.135 1.711 3165
1.074 1.965 1.574 4834
1.144 2.093 1.670 3434
1.146 2.097 1.663 4457
1.080 1.975 1.572 4413
1.145 2.095 1.652 4635
1.078 1.973 1.561 3966
1.151 2.105 1.649 7746
1.074 1.965 1.546 3825
1.159 2.120 1.651 11119
1.076 1.968 1.540 3549
1.158 2.118 1.640 10338
1.078 1.972 1.533 3273
1.160 2.122 1.633 9562
1.080 1.975 1.527 2737
1.175 2.149 1.643 10165
1.079 1.973 1.516 1926
1.180 2.159 1.640 11192
1.074 1.965 1.502 1509
1.182 2.163 1.633 12169
1.082 1.980 1.503 1120
1.185 2.167 1.626 13147
1.187 2.171 1.619 12995
1.189 2.174 1.612 12842
1.191 2.178 1.605 10929
1.193 2.182 1.597 9016
1.198 2.192 1.594 7357
1.210 2.213 1.599 7117
1.212 2.217 1.592 6781
1.214 2.221 1.585 5519
1.335 2.443 1.733 1276
1.229 2.248 1.594 5204
1.341 2.453 1.729 1566
1.234 2.258 1.590 5750
1.346 2.463 1.725 1900
1.243 2.274 1.591 5602
1.339 2.449 1.705 2684
1.242 2.272 1.579 5390
1.338 2.447 1.693 4649
1.340 2.451 1.685 5693
1.244 2.275 1.572 5210
1.349 2.467 1.685 6684
1.249 2.285 1.569 5426
1.354 2.477 1.681 8026
1.251 2.289 1.561 5712
1.359 2.487 1.676 6639
1.247 2.280 1.546 5488
1.365 2.497 1.672 5423
1.248 2.284 1.539 4546
1.364 2.495 1.660 5048
1.250 2.287 1.531 3539
1.366 2.499 1.652 4817
1.256 2.297 1.527 2337
1.368 2.502 1.644 4927
1.432 2.619 1.715 1621
1.373 2.512 1.639 5736
1.437 2.629 1.710 1948
1.409 2.578 1.668 6758
1.345 2.461 1.598 2694
1.408 2.575 1.656 8697
1.472 2.692 1.726 1441
1.407 2.573 1.644 9474
1.471 2.690 1.714 2502
1.409 2.577 1.636 8218
1.473 2.694 1.705 3057
1.411 2.581 1.627 6019
1.475 2.698 1.696 4068
1.437 2.628 1.644 4895
1.501 2.745 1.713 2880
1.442 2.638 1.639 5312
1.506 2.755 1.707 2502
1.454 2.660 1.641 4808
1.519 2.778 1.709 2254
1.460 2.670 1.636 5029
1.524 2.788 1.703 3416
1.462 2.674 1.627 5564
1.526 2.792 1.694 4564
1.467 2.684 1.622 5046
1.532 2.803 1.689 4217
1.490 2.725 1.634 6672
1.555 2.844 1.700 4031
1.495 2.735 1.629 8807
1.560 2.854 1.694 4299
1.501 2.746 1.623 8838
1.566 2.864 1.689 4631
1.520 2.781 1.631 8006
1.585 2.900 1.696 4935
1.529 2.797 1.629 6869
1.594 2.916 1.694 4310
1.535 2.807 1.623 5028
1.600 2.926 1.687 3827
1.602 2.930 1.678 4950
1.537 2.811 1.614 2262
1.583 2.897 1.648 6681
1.649 3.016 1.712 3778
1.586 2.900 1.639 7604
1.651 3.020 1.702 5617
1.653 3.024 1.692 7430
1.588 2.904 1.629 6007
1.652 3.022 1.679 9932
1.586 2.902 1.616 3684
1.661 3.038 1.675 9233
1.595 2.918 1.613 2828
1.681 3.074 1.682 8909
1.604 2.935 1.610 2574
1.672 3.059 1.662 9520
1.606 2.938 1.601 1723
1.674 3.063 1.652 8632
1.683 3.079 1.648 6635
1.696 3.102 1.647 7255
1.698 3.106 1.637 7730
1.693 3.097 1.621 8292
1.692 3.095 1.608 8467
1.758 3.216 1.666 1518
1.725 3.156 1.625 6429
1.727 3.160 1.615 8018
1.744 3.189 1.616 7528
1.810 3.311 1.674 1760
1.753 3.206 1.612 7241
1.819 3.328 1.669 2031
1.765 3.229 1.610 6679
1.832 3.351 1.667 1238
1.771 3.239 1.603 8251
1.838 3.362 1.659 2089
1.776 3.249 1.595 8918
1.843 3.372 1.651 3832
1.782 3.260 1.587 6584
1.849 3.382 1.643 4483
1.812 3.315 1.600 6014
1.745 3.192 1.545 1284
1.853 3.390 1.621 4677
1.768 3.235 1.552 3338
1.855 3.394 1.609 5729
1.770 3.238 1.541 2222
1.857 3.398 1.598 5255
1.786 3.268 1.542 1762
1.863 3.408 1.590 5467
1.792 3.278 1.534 1477
1.890 3.457 1.598 4914
1.822 3.333 1.545 1250
1.881 3.441 1.579 5267
1.876 3.432 1.562 5398
1.944 3.556 1.614 1305
1.878 3.435 1.551 3899
1.946 3.559 1.602 2106
1.934 3.537 1.580 2801
1.866 3.413 1.528 1321
1.925 3.521 1.560 4411
1.993 3.645 1.611 1554
1.948 3.564 1.564 5788
1.957 3.581 1.558 7159
2.026 3.705 1.608 1380
1.963 3.591 1.549 7310
2.031 3.715 1.598 3252
2.030 3.713 1.584 5863
1.961 3.588 1.535 5104
2.032 3.716 1.571 4670
1.963 3.591 1.523 1877
2.008 3.674 1.541 5219
2.077 3.799 1.590 1661
2.021 3.697 1.537 6640
2.090 3.822 1.585 2192
2.034 3.721 1.532 5572
2.102 3.846 1.580 2590
2.050 3.751 1.530 5627
2.119 3.876 1.577 3229
2.056 3.761 1.520 5652
2.124 3.886 1.567 3106
2.065 3.777 1.513 4306
2.134 3.903 1.559 2724
2.146 3.926 1.553 4042
2.071 3.788 1.503 3098
2.152 3.937 1.543 4216
2.072 3.791 1.490 2018
2.176 3.980 1.544 4026
2.107 3.854 1.499 2405
2.185 3.997 1.536 3017
2.116 3.871 1.491 1423
2.194 4.014 1.527 1991
2.263 4.140 1.571 1055
2.200 4.024 1.516 3187
2.269 4.150 1.560 1618
2.198 4.021 1.501 3398
2.267 4.147 1.544 2661
2.233 4.084 1.508 3307
2.302 4.211 1.551 2022
2.293 4.194 1.530 3539
2.224 4.068 1.488 2775
2.244 4.104 1.485 3175
2.339 4.278 1.543 2686
2.344 4.288 1.531 5086
2.246 4.108 1.472 2767
2.353 4.305 1.521 4967
2.262 4.138 1.467 1408
2.363 4.322 1.511 3565
2.432 4.449 1.552 1086
2.412 4.412 1.525 2159
2.343 4.285 1.485 1633
2.385 4.362 1.494 2255
2.454 4.490 1.533 1897
2.379 4.352 1.475 3455
2.460 4.500 1.521 2425
2.458 4.497 1.504 3433
2.385 4.363 1.463 2915
2.456 4.493 1.487 4859
2.526 4.621 1.526 2184
2.462 4.504 1.474 3852
2.532 4.631 1.513 1940
2.512 4.594 1.485 2968
2.626 4.803 1.547 2406
2.628 4.806 1.531 4637
2.558 4.679 1.494 3976
2.629 4.810 1.515 5265
2.560 4.682 1.478 4144
2.723 4.982 1.548 4197
2.561 4.685 1.463 3085
2.733 4.999 1.535 4144
2.663 4.871 1.499 1734
2.761 5.050 1.532 3295
2.665 4.874 1.483 2968
2.770 5.067 1.519 2615
2.685 4.912 1.476 2375
2.764 5.057 1.498 5165
2.857 5.226 1.544 2578
2.763 5.054 1.480 6375
2.855 5.223 1.525 2680
2.890 5.287 1.524 4986
2.761 5.050 1.461 3446
2.888 5.284 1.505 7808
2.766 5.060 1.447 1523
2.868 5.247 1.477 6530
2.939 5.375 1.510 2611
2.922 5.345 1.484 4786
3.022 5.528 1.530 2126
2.935 5.369 1.471 4712
3.024 5.532 1.512 2152
2.948 5.392 1.459 3576
3.078 5.630 1.517 2309
3.080 5.634 1.499 3431
3.009 5.504 1.467 1983
3.085 5.644 1.482 4382
3.015 5.515 1.451 1509
3.091 5.654 1.465 3828
3.089 5.651 1.444 4173
3.087 5.647 1.424 5385
3.089 5.650 1.406 5424
3.091 5.654 1.387 3459
3.096 5.664 1.370 2043
3.102 5.674 1.353 1520
3.856 7.054 1.506 1069
3.858 7.057 1.483 1495
3.864 7.068 1.461 1340
3.965 7.253 1.495 1168
3.787 6.927 1.411 1268
3.948 7.222 1.465 1103
3.890 7.115 1.421 1449
3.792 6.937 1.389 1300
3.895 7.126 1.399 1858
4.049 7.407 1.449 1203
4.051 7.410 1.425 1456
3.897 7.129 1.376 1310
4.207 7.695 1.448 1474
3.193 5.840 1.131 1357
4.103 7.506 1.391 1866
4.434 8.111 1.492 1323
4.105 7.509 1.366 1565
4.436 8.114 1.465 1256
4.434 8.111 1.437 1133
4.424 8.093 1.407 1345
4.415 8.076 1.377 1232
4.417 8.079 1.351 1007
4.540 8.306 1.329 1281
4.542 8.309 1.301 1311
3.137 5.738 -0.582 1035
3.136 5.736 -0.601 1035
1.004 1.825 1.593 4060
1.006 1.829 1.587 8120
1.011 1.838 1.585 7644
1.016 1.847 1.584 6911
1.110 2.017 1.721 1255
1.015 1.845 1.573 6386
1.112 2.021 1.714 1751
1.052 1.912 1.617 5932
1.115 2.025 1.708 2612
1.054 1.915 1.611 7903
1.126 2.047 1.714 3500
1.056 1.919 1.605 7298
1.128 2.051 1.708 3500
1.061 1.929 1.603 6715
1.121 2.037 1.688 5106
1.123 2.041 1.681 6740
1.063 1.932 1.597 6715
1.129 2.051 1.679 5690
1.062 1.930 1.586 5641
1.137 2.067 1.681 5037
1.061 1.928 1.575 4660
1.069 1.943 1.578 4876
1.136 2.065 1.670 4391
1.075 1.953 1.576 5441
1.135 2.063 1.659 3994
1.080 1.962 1.574 4665
1.147 2.084 1.665 4103
1.152 2.094 1.663 4769
1.085 1.972 1.572 4140
1.151 2.092 1.652 4926
1.084 1.970 1.561 3696
1.156 2.102 1.649 8166
1.079 1.962 1.546 3560
1.162 2.111 1.646 11663
1.081 1.965 1.540 3334
1.164 2.115 1.640 11061
1.083 1.969 1.533 3108
1.166 2.119 1.633 10459
1.085 1.972 1.527 2593
1.181 2.146 1.643 10336
1.081 1.964 1.512 1872
1.183 2.150 1.636 11212
1.079 1.962 1.502 1486
1.188 2.160 1.633 12591
1.088 1.977 1.503 1126
1.191 2.164 1.626 14119
1.193 2.167 1.619 14157
1.195 2.171 1.612 14196
1.197 2.175 1.605 12115
1.196 2.173 1.593 10115
1.201 2.182 1.590 7918
1.213 2.204 1.595 6716
1.218 2.214 1.592 6430
1.220 2.217 1.585 5506
1.342 2.439 1.733 1182
1.235 2.245 1.594 5068
1.348 2.449 1.729 1441
1.241 2.255 1.590 6051
1.317 2.393 1.681 1801
1.246 2.265 1.587 6111
1.345 2.445 1.705 2762
1.248 2.268 1.579 5282
1.344 2.443 1.693 4862
1.346 2.447 1.685 5892
1.253 2.278 1.576 4480
1.352 2.457 1.681 6504
1.255 2.282 1.569 4792
1.357 2.467 1.677 7347
1.257 2.285 1.561 5103
1.366 2.483 1.676 5976
1.253 2.277 1.546 4898
1.379 2.505 1.680 5172
1.251 2.274 1.535 4193
1.374 2.497 1.664 4839
1.257 2.284 1.531 3450
1.366 2.483 1.644 5053
1.262 2.294 1.527 2275
1.375 2.499 1.644 5146
1.439 2.615 1.715 1783
1.377 2.502 1.636 5732
1.441 2.619 1.706 2322
1.386 2.519 1.635 5681
1.450 2.635 1.705 2128
1.415 2.571 1.656 7083
1.351 2.455 1.586 1393
1.417 2.575 1.648 7577
1.481 2.692 1.717 2404
1.419 2.579 1.639 6562
1.484 2.696 1.709 3154
1.462 2.657 1.674 5325
1.398 2.540 1.605 2350
1.457 2.649 1.658 5384
1.522 2.766 1.727 1602
1.453 2.640 1.643 5214
1.517 2.758 1.711 2328
1.458 2.650 1.638 4604
1.523 2.768 1.705 2318
1.467 2.666 1.636 5004
1.532 2.784 1.703 2992
1.469 2.670 1.627 5866
1.534 2.788 1.694 4035
1.478 2.686 1.625 5380
1.543 2.805 1.692 3586
1.497 2.721 1.634 6601
1.563 2.840 1.700 4147
1.503 2.731 1.629 8876
1.568 2.850 1.694 4363
1.508 2.741 1.623 9164
1.574 2.860 1.689 4674
1.528 2.776 1.631 8349
1.593 2.895 1.696 4721
1.537 2.793 1.629 6658
1.602 2.912 1.694 4360
1.601 2.909 1.681 4944
1.535 2.790 1.616 4692
1.610 2.926 1.678 6809
1.544 2.807 1.614 2009
1.591 2.892 1.648 7293
1.657 3.012 1.712 3936
1.594 2.896 1.639 7948
1.659 3.016 1.702 5532
1.658 3.013 1.689 6985
1.592 2.894 1.626 6139
1.660 3.017 1.679 9187
1.594 2.897 1.616 3574
1.669 3.034 1.675 8863
1.603 2.914 1.613 2649
1.689 3.069 1.682 8900
1.612 2.930 1.610 2381
1.681 3.054 1.662 9289
1.614 2.934 1.601 1555
1.683 3.058 1.652 8514
1.695 3.081 1.651 7063
1.705 3.098 1.647 7945
1.707 3.102 1.637 8509
1.702 3.093 1.621 8866
1.700 3.090 1.608 8356
1.767 3.211 1.666 1851
1.738 3.158 1.628 7052
1.736 3.155 1.615 7958
1.745 3.172 1.610 7025
1.812 3.294 1.668 1564
1.754 3.188 1.606 6337
1.821 3.310 1.663 2212
1.760 3.198 1.599 5422
1.827 3.321 1.655 1990
1.783 3.241 1.606 6896
1.851 3.363 1.662 1848
1.785 3.245 1.595 9266
1.853 3.367 1.651 3656
1.787 3.248 1.584 7881
1.855 3.371 1.640 5202
1.821 3.310 1.600 5945
1.754 3.187 1.545 1479
1.823 3.314 1.589 4513
1.891 3.437 1.643 1034
1.861 3.382 1.607 4957
1.793 3.259 1.552 2336
1.867 3.392 1.598 4708
1.799 3.269 1.545 2202
1.872 3.403 1.590 5192
1.797 3.266 1.531 1463
1.899 3.452 1.598 5795
1.831 3.328 1.545 1125
1.898 3.449 1.584 5755
1.886 3.427 1.562 5218
1.954 3.550 1.614 1566
1.887 3.430 1.551 4534
1.956 3.554 1.602 2257
1.940 3.525 1.577 3346
1.872 3.401 1.526 1388
1.931 3.509 1.557 4838
1.999 3.633 1.608 1848
1.958 3.559 1.564 5132
1.890 3.434 1.514 1158
1.967 3.575 1.558 6997
1.899 3.451 1.508 1511
1.969 3.579 1.546 7377
2.038 3.703 1.596 3696
2.040 3.707 1.584 5621
1.971 3.582 1.535 5228
2.045 3.717 1.574 3904
1.977 3.593 1.525 2059
2.015 3.662 1.539 5840
2.084 3.787 1.587 1265
2.028 3.685 1.534 6694
2.096 3.810 1.582 1898
2.048 3.722 1.535 5854
2.117 3.847 1.582 1913
2.061 3.745 1.530 5974
2.129 3.870 1.577 2791
2.070 3.762 1.523 5858
2.139 3.887 1.569 2677
2.115 3.844 1.539 4497
2.184 3.970 1.586 1441
2.121 3.854 1.529 3866
2.190 3.980 1.575 2744
2.185 3.970 1.557 3700
2.116 3.845 1.512 2514
2.187 3.974 1.544 4434
2.118 3.848 1.499 2271
2.196 3.991 1.536 3122
2.127 3.865 1.491 1473
2.205 4.008 1.527 2074
2.275 4.134 1.571 1011
2.207 4.011 1.514 3448
2.277 4.137 1.558 1984
2.205 4.008 1.499 3438
2.275 4.134 1.542 2838
2.244 4.078 1.508 3524
2.313 4.204 1.551 1889
2.246 4.082 1.494 3417
2.315 4.208 1.537 2693
2.251 4.092 1.483 3245
2.358 4.285 1.547 2736
2.356 4.282 1.531 5066
2.257 4.102 1.472 2818
2.365 4.299 1.521 4624
2.296 4.172 1.480 1408
2.371 4.309 1.509 3409
2.358 4.285 1.487 2264
2.457 4.466 1.544 1482
2.371 4.309 1.479 2303
2.467 4.483 1.533 1440
2.399 4.359 1.479 2729
2.520 4.580 1.548 1414
2.467 4.483 1.502 3073
2.537 4.610 1.541 1997
2.469 4.487 1.487 4913
2.539 4.614 1.526 1999
2.474 4.497 1.474 3877
2.545 4.624 1.513 2020
2.528 4.594 1.487 2950
2.598 4.722 1.525 1824
2.574 4.678 1.496 3920
2.644 4.806 1.533 3684
2.646 4.809 1.517 4283
2.576 4.682 1.480 4188
2.737 4.974 1.548 4685
2.578 4.685 1.465 3023
2.743 4.985 1.533 4661
2.672 4.857 1.497 1750
2.678 4.867 1.483 2953
2.774 5.042 1.532 2674
2.699 4.904 1.476 2260
2.780 5.052 1.517 2219
2.778 5.049 1.498 4584
2.871 5.218 1.544 2389
2.780 5.053 1.482 5661
2.869 5.215 1.525 2871
2.905 5.279 1.524 4867
2.775 5.043 1.461 3099
2.903 5.276 1.505 7682
2.780 5.053 1.447 1580
2.883 5.239 1.477 6273
2.953 5.367 1.510 2248
2.937 5.337 1.484 4527
3.037 5.520 1.530 1715
2.950 5.361 1.471 4140
3.084 5.604 1.532 2213
2.963 5.384 1.459 3273
3.093 5.622 1.517 2494
3.095 5.625 1.499 3970
3.024 5.496 1.467 2234
3.097 5.629 1.480 4771
3.026 5.500 1.449 1472
3.103 5.639 1.463 4263
3.196 5.809 1.503 1134
3.101 5.635 1.443 5167
3.179 5.778 1.476 1050
3.099 5.632 1.423 6416
3.170 5.761 1.452 1102
3.104 5.642 1.406 6400
3.106 5.645 1.387 4150
3.112 5.655 1.370 2536
3.117 5.665 1.353 1732
3.879 7.050 1.507 1149
3.874 7.040 1.481 1561
3.772 6.855 1.446 1199
3.778 6.865 1.425 1330
3.879 7.050 1.459 1321
3.802 6.910 1.409 1375
3.730 6.780 1.385 1027
3.906 7.098 1.420 1479
3.811 6.927 1.389 1393
3.911 7.108 1.398 1882
4.054 7.368 1.444 1341
3.917 7.118 1.376 1392
4.068 7.392 1.423 1367
4.379 7.958 1.495 1200
4.228 7.684 1.448 1167
4.128 7.502 1.392 1675
4.456 8.099 1.492 1552
4.458 8.102 1.465 1395
4.130 7.505 1.367 1391
4.460 8.105 1.438 1127
4.447 8.081 1.407 1253
4.437 8.064 1.377 1181
4.563 8.293 1.329 1163
4.565 8.296 1.301 1204
3.153 5.730 -0.505 1009
3.152 5.728 -0.524 1038
3.151 5.726 -0.543 1067
3.150 5.725 -0.562 1095
3.153 5.730 -0.582 1126
3.152 5.728 -0.601 1126
1.007 1.823 1.593 3792
1.009 1.827 1.587 7584
1.017 1.842 1.590 7306
1.019 1.846 1.584 6282
1.113 2.016 1.721 1391
1.018 1.844 1.573 5338
1.112 2.014 1.710 1892
1.055 1.910 1.617 6408
1.114 2.018 1.703 2691
1.057 1.914 1.611 8381
1.116 2.022 1.696 3489
1.059 1.918 1.605 7984
1.119 2.026 1.690 3489
1.061 1.921 1.599 7587
1.124 2.036 1.688 5143
1.063 1.925 1.592 7587
1.126 2.040 1.681 6808
1.065 1.929 1.586 6271
1.128 2.044 1.674 5811
1.137 2.059 1.677 5048
1.064 1.927 1.575 4993
1.072 1.942 1.578 5092
1.139 2.063 1.670 4894
1.074 1.946 1.572 5426
1.138 2.061 1.659 4785
1.150 2.082 1.665 4753
1.079 1.955 1.570 4527
1.155 2.092 1.663 5059
1.091 1.976 1.576 3817
1.154 2.090 1.652 5182
1.083 1.962 1.557 3442
1.159 2.100 1.649 8451
1.082 1.960 1.546 3312
1.165 2.110 1.646 11993
1.084 1.964 1.540 3109
1.167 2.113 1.640 11533
1.086 1.967 1.533 2907
1.169 2.117 1.633 11074
1.085 1.965 1.523 2439
1.181 2.139 1.638 10679
1.084 1.963 1.512 1812
1.186 2.148 1.636 11385
1.082 1.960 1.502 1457
1.188 2.152 1.629 13079
1.091 1.975 1.503 1110
1.190 2.156 1.622 14774
1.196 2.166 1.619 14986
1.198 2.169 1.612 15208
1.200 2.173 1.605 13093
1.199 2.171 1.593 11153
1.204 2.181 1.590 8578
1.213 2.196 1.591 6478
1.218 2.206 1.588 6085
1.223 2.216 1.585 5633
1.342 2.431 1.729 1140
1.225 2.219 1.578 5487
1.344 2.435 1.721 1375
1.244 2.253 1.590 6345
1.323 2.397 1.685 1748
1.246 2.257 1.583 6374
1.349 2.443 1.705 2830
1.251 2.266 1.579 5175
1.348 2.441 1.693 5044
1.350 2.445 1.685 6107
1.253 2.270 1.572 4036
1.355 2.455 1.681 6351
1.259 2.280 1.569 4203
1.361 2.465 1.677 6725
1.261 2.283 1.561 4391
1.373 2.487 1.680 5336
1.256 2.275 1.546 4423
1.385 2.509 1.683 5085
1.255 2.272 1.535 4221
1.381 2.501 1.668 4667
1.260 2.282 1.531 3696
1.366 2.475 1.641 5348
1.265 2.292 1.527 2464
1.375 2.491 1.640 5512
1.449 2.625 1.723 2001
1.377 2.494 1.632 5927
1.441 2.611 1.703 2440
1.383 2.504 1.627 5577
1.447 2.621 1.698 2620
1.419 2.569 1.656 5679
1.354 2.453 1.586 1357
1.421 2.573 1.648 6186
1.485 2.690 1.717 2451
1.426 2.583 1.643 5606
1.491 2.700 1.712 2993
1.462 2.649 1.671 6017
1.398 2.532 1.602 1468
1.458 2.640 1.655 5874
1.522 2.758 1.723 1767
1.456 2.638 1.643 5111
1.521 2.755 1.711 2221
1.462 2.648 1.638 4411
1.527 2.766 1.705 2358
1.478 2.677 1.643 5112
1.543 2.794 1.710 1825
1.476 2.674 1.631 6266
1.542 2.792 1.698 3049
1.482 2.684 1.625 5750
1.547 2.802 1.692 3238
1.501 2.719 1.634 6442
1.567 2.837 1.700 4311
1.503 2.723 1.625 8598
1.569 2.841 1.691 4862
1.512 2.739 1.623 8933
1.578 2.858 1.689 4796
1.532 2.774 1.631 8159
1.597 2.893 1.696 4268
1.537 2.784 1.626 6304
1.603 2.903 1.690 4513
1.605 2.907 1.681 5616
1.539 2.788 1.616 4649
1.614 2.924 1.678 8440
1.545 2.798 1.611 2066
1.613 2.921 1.665 7769
1.598 2.894 1.639 8216
1.664 3.013 1.702 5273
1.659 3.005 1.685 6410
1.593 2.885 1.623 6066
1.665 3.015 1.679 8205
1.598 2.895 1.616 3607
1.677 3.038 1.679 8198
1.611 2.918 1.617 2720
1.693 3.067 1.682 8501
1.616 2.928 1.610 2301
1.685 3.052 1.662 8830
1.619 2.932 1.601 1518
1.687 3.056 1.652 8353
1.700 3.079 1.651 7504
1.709 3.095 1.647 8536
1.711 3.099 1.637 9167
1.710 3.097 1.624 9238
1.708 3.094 1.611 8211
1.775 3.215 1.669 1539
1.742 3.155 1.628 7401
1.744 3.159 1.618 7633
1.746 3.163 1.607 6405
1.813 3.285 1.665 1307
1.748 3.167 1.597 5917
1.816 3.288 1.654 2164
1.765 3.196 1.599 4842
1.832 3.318 1.655 1609
1.788 3.238 1.606 6509
1.855 3.360 1.662 1668
1.786 3.236 1.592 9758
1.854 3.358 1.648 3609
1.788 3.239 1.582 8469
1.856 3.362 1.637 5361
1.783 3.230 1.565 5631
1.851 3.353 1.620 4862
1.828 3.311 1.589 4283
1.866 3.380 1.607 4504
1.798 3.257 1.552 2517
1.868 3.383 1.595 4434
1.800 3.260 1.542 1949
1.881 3.406 1.593 4961
1.813 3.283 1.539 1435
1.904 3.449 1.598 6667
1.836 3.326 1.545 1106
1.903 3.446 1.584 6282
1.971 3.570 1.637 1034
1.890 3.424 1.562 5265
1.959 3.547 1.614 2193
1.892 3.428 1.551 5407
1.961 3.551 1.602 2794
1.909 3.457 1.550 4011
1.977 3.581 1.601 2084
1.932 3.500 1.555 5346
2.001 3.624 1.606 2063
1.927 3.490 1.538 5649
1.996 3.615 1.588 3412
1.972 3.572 1.558 6639
2.041 3.697 1.608 1645
1.974 3.576 1.546 7613
2.043 3.700 1.596 3997
1.980 3.586 1.537 5569
2.049 3.711 1.586 5141
2.007 3.636 1.543 4246
2.076 3.760 1.592 1193
2.020 3.659 1.539 6362
2.089 3.784 1.587 1149
2.033 3.682 1.534 6668
2.102 3.807 1.582 1560
2.057 3.725 1.537 5962
2.129 3.857 1.587 1260
2.066 3.742 1.530 6247
2.135 3.867 1.577 2238
2.075 3.759 1.523 5894
2.144 3.884 1.569 2714
2.117 3.835 1.537 4797
2.194 3.973 1.588 1177
2.123 3.845 1.527 4337
2.196 3.977 1.575 2614
2.194 3.974 1.560 3704
2.125 3.848 1.514 2550
2.192 3.971 1.544 4520
2.123 3.845 1.499 1944
2.191 3.968 1.529 3227
2.121 3.842 1.484 1300
2.251 4.077 1.553 2207
2.182 3.952 1.509 1110
2.213 4.008 1.514 3505
2.282 4.134 1.558 2230
2.211 4.005 1.499 3342
2.281 4.131 1.542 2879
2.250 4.075 1.508 3443
2.319 4.201 1.551 1829
2.252 4.078 1.494 3350
2.321 4.205 1.537 2481
2.257 4.088 1.483 3164
2.364 4.281 1.547 3087
2.366 4.285 1.533 5319
2.263 4.098 1.472 2769
2.371 4.295 1.521 4403
2.301 4.169 1.480 1298
2.384 4.319 1.514 2934
2.383 4.316 1.497 2933
2.467 4.469 1.546 1192
2.403 4.352 1.494 3521
2.477 4.486 1.536 1291
2.412 4.369 1.483 3132
2.523 4.570 1.546 1651
2.470 4.473 1.500 2868
2.540 4.600 1.539 2100
2.475 4.483 1.487 4804
2.545 4.610 1.526 1833
2.481 4.493 1.474 3909
2.588 4.688 1.533 2253
2.586 4.684 1.515 2953
2.494 4.517 1.465 2452
2.585 4.681 1.498 3622
2.655 4.809 1.535 2857
2.586 4.685 1.482 3732
2.657 4.812 1.519 3375
2.744 4.970 1.548 5033
2.588 4.688 1.467 2847
2.746 4.974 1.531 5570
2.676 4.846 1.495 1594
2.767 5.011 1.524 2968
2.678 4.850 1.479 2621
2.784 5.042 1.515 2322
2.713 4.914 1.480 2141
2.786 5.045 1.498 3838
2.890 5.234 1.550 2153
2.787 5.049 1.482 4574
2.877 5.211 1.525 2900
2.875 5.207 1.506 4718
2.782 5.039 1.461 2781
2.884 5.224 1.493 7180
2.787 5.049 1.447 1845
2.890 5.235 1.477 5786
2.961 5.363 1.510 2018
2.940 5.326 1.482 4474
3.011 5.454 1.515 1877
2.957 5.356 1.471 3623
3.092 5.600 1.532 2396
2.970 5.380 1.459 2883
3.098 5.610 1.516 2700
3.099 5.614 1.497 4492
3.028 5.485 1.466 2148
3.105 5.624 1.480 5100
3.034 5.495 1.449 1613
3.111 5.634 1.463 4589
3.204 5.804 1.503 1366
3.109 5.631 1.443 5899
3.188 5.773 1.476 1412
3.107 5.627 1.423 7109
3.186 5.770 1.456 1350
3.109 5.631 1.404 7010
3.218 5.828 1.449 1286
3.114 5.641 1.387 4557
3.227 5.845 1.433 1147
3.116 5.644 1.368 2740
3.125 5.661 1.353 1743
3.816 6.911 1.505 1152
3.889 7.045 1.507 1239
3.884 7.034 1.481 1619
3.782 6.850 1.446 1427
3.787 6.860 1.425 1693
3.886 7.038 1.458 1312
3.804 6.891 1.407 1492
3.733 6.761 1.383 1142
3.821 6.921 1.389 1455
3.916 7.092 1.420 1344
3.925 7.109 1.399 1723
4.061 7.356 1.443 1455
3.927 7.112 1.376 1346
4.067 7.366 1.420 1180
4.466 8.089 1.519 1207
4.394 7.959 1.497 1080
4.468 8.092 1.492 1687
4.142 7.503 1.393 1545
4.163 7.540 1.374 1520
4.473 8.103 1.466 1416
4.168 7.550 1.350 1183
4.487 8.126 1.443 1133
4.458 8.075 1.407 1123
4.407 7.982 1.366 1080
4.424 8.012 1.343 1013
4.581 8.297 1.302 1045
3.164 5.732 -0.430 1009
3.164 5.730 -0.449 1061
3.163 5.729 -0.468 1061
3.162 5.727 -0.487 1063
3.161 5.725 -0.505 1064
3.160 5.724 -0.524 1096
3.159 5.722 -0.543 1127
3.158 5.720 -0.562 1157
3.157 5.718 -0.581 1188
3.156 5.716 -0.600 1188
1.015 1.826 1.597 3713
1.017 1.830 1.591 7426
1.114 2.005 1.734 1056
1.022 1.839 1.590 7384
1.116 2.009 1.727 1056
1.024 1.843 1.584 6061
1.116 2.007 1.716 1481
1.055 1.898 1.619 5061
1.115 2.005 1.705 1978
1.060 1.907 1.617 6883
1.120 2.015 1.703 2766
1.065 1.917 1.615 8850
1.125 2.025 1.701 3487
1.064 1.915 1.605 8576
1.124 2.023 1.690 3583
1.066 1.918 1.599 8342
1.127 2.027 1.683 5235
1.068 1.922 1.592 8342
1.129 2.031 1.677 6886
1.070 1.926 1.586 6852
1.134 2.040 1.674 5937
1.072 1.929 1.580 5363
1.143 2.056 1.677 5158
1.074 1.933 1.573 5325
1.145 2.060 1.670 5316
1.147 2.064 1.663 5473
1.080 1.943 1.572 5387
1.156 2.079 1.665 5294
1.082 1.946 1.565 4344
1.161 2.089 1.663 5296
1.087 1.956 1.563 3387
1.160 2.087 1.652 5373
1.089 1.959 1.557 3204
1.165 2.097 1.649 8491
1.085 1.951 1.542 3096
1.171 2.106 1.646 11883
1.087 1.955 1.535 2913
1.173 2.110 1.640 11566
1.088 1.958 1.529 2731
1.178 2.120 1.637 11282
1.090 1.962 1.523 2293
1.187 2.135 1.638 10860
1.089 1.960 1.512 1731
1.192 2.145 1.636 11532
1.088 1.957 1.502 1411
1.194 2.149 1.629 13324
1.093 1.967 1.499 1086
1.196 2.153 1.622 15115
1.199 2.156 1.615 15206
1.204 2.166 1.612 15466
1.203 2.164 1.600 13604
1.205 2.168 1.593 11912
1.210 2.177 1.590 9214
1.216 2.187 1.587 6923
1.224 2.203 1.588 5996
1.230 2.212 1.585 5488
1.342 2.415 1.721 1228
1.232 2.216 1.578 5450
1.341 2.413 1.709 1473
1.250 2.249 1.590 6037
1.334 2.399 1.689 1784
1.252 2.253 1.583 6158
1.356 2.439 1.705 2834
1.355 2.437 1.693 5061
1.254 2.257 1.576 4843
1.357 2.441 1.685 6172
1.263 2.273 1.576 3579
1.359 2.445 1.677 6136
1.265 2.276 1.569 3447
1.365 2.455 1.673 6119
1.267 2.280 1.561 3314
1.380 2.483 1.680 4749
1.259 2.265 1.542 3910
1.393 2.505 1.683 4914
1.261 2.269 1.535 4432
1.358 2.443 1.633 4906
1.266 2.279 1.531 4225
1.373 2.471 1.641 5790
1.272 2.288 1.527 2978
1.379 2.481 1.636 6092
1.457 2.621 1.723 2281
1.384 2.490 1.632 6321
1.449 2.606 1.703 2320
1.390 2.500 1.627 5705
1.454 2.617 1.698 2361
1.429 2.572 1.660 4514
1.365 2.455 1.590 1707
1.435 2.582 1.655 5306
1.500 2.698 1.725 1785
1.471 2.647 1.683 5977
1.406 2.530 1.614 1302
1.470 2.645 1.671 6937
1.405 2.528 1.602 1113
1.465 2.636 1.655 6524
1.530 2.753 1.723 1643
1.464 2.634 1.643 5099
1.529 2.751 1.711 2056
1.511 2.718 1.680 4435
1.445 2.601 1.613 2843
1.485 2.672 1.643 5381
1.551 2.790 1.710 1371
1.488 2.676 1.634 6797
1.553 2.794 1.701 2037
1.490 2.680 1.625 6231
1.555 2.798 1.692 2940
1.506 2.709 1.631 6387
1.571 2.827 1.697 4564
1.511 2.719 1.625 8060
1.577 2.837 1.691 5011
1.517 2.729 1.620 8228
1.582 2.847 1.685 5492
1.540 2.770 1.631 7799
1.605 2.888 1.696 3845
1.545 2.780 1.626 6133
1.611 2.899 1.690 4250
1.613 2.903 1.681 5960
1.547 2.784 1.616 4768
1.622 2.919 1.678 9364
1.549 2.787 1.607 2534
1.621 2.917 1.665 8291
1.551 2.791 1.598 1467
1.602 2.883 1.635 8271
1.669 3.002 1.698 5285
1.604 2.887 1.626 6367
1.671 3.006 1.689 5754
1.670 3.004 1.675 7066
1.603 2.884 1.613 3387
1.686 3.033 1.679 7391
1.619 2.913 1.617 2562
1.702 3.062 1.682 7957
1.625 2.923 1.610 2214
1.694 3.047 1.662 8363
1.627 2.927 1.601 1495
1.696 3.051 1.652 8345
1.712 3.080 1.654 8001
1.718 3.090 1.647 8928
1.720 3.094 1.637 9546
1.718 3.092 1.624 9315
1.721 3.095 1.614 7961
1.788 3.217 1.672 1381
1.751 3.150 1.628 7501
1.753 3.154 1.618 6994
1.752 3.151 1.604 5591
1.819 3.273 1.662 1261
1.757 3.162 1.597 5414
1.825 3.283 1.654 1598
1.759 3.165 1.587 4554
1.827 3.287 1.643 1958
1.790 3.220 1.600 5943
1.858 3.342 1.656 1670
1.796 3.230 1.592 9733
1.863 3.353 1.648 3218
1.798 3.234 1.582 8677
1.866 3.356 1.637 4777
1.835 3.302 1.600 5229
1.767 3.180 1.545 2240
1.838 3.306 1.589 4237
1.769 3.183 1.534 1031
1.879 3.381 1.609 4350
1.811 3.258 1.555 2756
1.878 3.378 1.595 4152
1.809 3.255 1.542 2336
1.890 3.401 1.593 4562
1.822 3.278 1.539 1914
1.914 3.444 1.598 7418
1.846 3.321 1.545 1234
1.912 3.441 1.584 6778
1.981 3.564 1.637 1232
1.904 3.425 1.565 5408
1.972 3.548 1.617 2478
1.906 3.429 1.553 6200
1.974 3.552 1.605 2919
1.919 3.452 1.550 5153
1.987 3.575 1.601 2545
1.935 3.481 1.549 6330
2.007 3.612 1.603 2452
1.937 3.485 1.538 6970
2.006 3.609 1.588 3227
1.983 3.567 1.558 5984
2.051 3.691 1.608 1930
1.985 3.570 1.546 7813
2.054 3.695 1.596 4074
1.990 3.581 1.537 6029
2.059 3.705 1.586 4489
2.018 3.630 1.543 4657
2.087 3.754 1.592 1258
2.031 3.653 1.539 6644
2.100 3.778 1.587 1182
2.043 3.676 1.534 6766
2.113 3.801 1.582 1303
2.067 3.719 1.537 6178
2.077 3.736 1.530 6255
2.157 3.881 1.585 1918
2.086 3.753 1.523 5368
2.159 3.884 1.572 2720
2.128 3.829 1.537 4898
2.059 3.704 1.491 1257
2.134 3.839 1.527 4810
2.207 3.971 1.575 2429
2.205 3.968 1.560 3805
2.136 3.842 1.514 2596
2.189 3.938 1.535 5112
2.119 3.813 1.490 1619
2.198 3.955 1.526 3641
2.268 4.081 1.571 1411
2.263 4.071 1.553 2565
2.193 3.945 1.509 1358
2.221 3.995 1.512 3456
2.291 4.121 1.555 2667
2.223 3.999 1.499 3140
2.293 4.125 1.542 2945
2.261 4.068 1.508 3130
2.331 4.194 1.551 1807
2.263 4.072 1.494 3198
2.333 4.198 1.537 2408
2.380 4.281 1.550 3213
2.269 4.082 1.483 3042
2.378 4.278 1.533 5580
2.274 4.092 1.472 2545
2.384 4.288 1.521 4914
2.313 4.162 1.480 1219
2.400 4.319 1.516 3414
2.413 4.342 1.508 2487
2.343 4.215 1.468 1137
2.430 4.372 1.502 3378
2.360 4.245 1.462 1189
2.428 4.369 1.485 2672
2.536 4.563 1.546 1714
2.486 4.473 1.502 3165
2.557 4.600 1.541 1639
2.488 4.476 1.487 4232
2.596 4.670 1.546 1932
2.494 4.486 1.474 3858
2.598 4.674 1.531 2616
2.600 4.677 1.515 3446
2.503 4.503 1.463 2656
2.605 4.687 1.502 3872
2.676 4.815 1.539 2196
2.607 4.691 1.486 3493
2.678 4.818 1.523 2707
2.755 4.956 1.546 4834
2.609 4.694 1.471 3004
2.760 4.966 1.531 6127
2.678 4.818 1.489 1834
2.770 4.983 1.519 4183
2.691 4.842 1.479 2444
2.790 5.020 1.511 2870
2.701 4.859 1.467 1783
2.800 5.037 1.498 3292
2.905 5.226 1.550 2099
2.798 5.034 1.480 3620
2.892 5.202 1.525 2808
2.886 5.192 1.504 4798
2.957 5.321 1.538 2646
2.895 5.209 1.491 6648
2.806 5.048 1.448 1833
2.901 5.220 1.475 5193
2.972 5.348 1.508 2019
2.956 5.318 1.482 4301
3.027 5.446 1.515 2599
2.973 5.348 1.471 3093
3.108 5.591 1.532 2551
3.110 5.595 1.514 3011
2.986 5.372 1.459 2499
3.115 5.605 1.497 4942
3.044 5.476 1.466 2301
3.117 5.608 1.478 5531
3.046 5.480 1.447 1613
3.123 5.619 1.462 5094
3.225 5.802 1.505 1464
3.125 5.622 1.443 6389
3.200 5.758 1.475 1927
3.119 5.612 1.421 7352
3.206 5.768 1.457 1833
3.125 5.622 1.404 7192
3.234 5.819 1.449 1775
3.130 5.632 1.387 4676
3.244 5.836 1.433 1632
3.132 5.635 1.368 2693
3.283 5.907 1.428 1138
3.138 5.645 1.351 1665
3.368 6.060 1.441 1204
3.370 6.063 1.421 1408
3.268 5.879 1.382 1038
3.835 6.900 1.505 1232
3.909 7.033 1.507 1174
3.686 6.631 1.429 1123
3.904 7.023 1.481 1538
3.801 6.839 1.446 1452
3.811 6.856 1.426 1849
3.685 6.631 1.383 1412
3.824 6.880 1.407 1696
3.752 6.750 1.383 1270
3.773 6.787 1.367 1495
3.845 6.917 1.390 1393
3.941 7.091 1.398 1482
4.082 7.344 1.443 1444
3.947 7.101 1.376 1315
4.084 7.347 1.419 1111
4.489 8.076 1.519 1265
3.949 7.104 1.352 1058
4.491 8.080 1.492 1702
4.167 7.498 1.394 1570
4.184 7.528 1.374 1687
4.496 8.090 1.466 1412
4.190 7.538 1.350 1307
4.434 7.977 1.421 1265
4.432 7.973 1.393 1277
4.430 7.969 1.366 1261
4.447 8.000 1.343 1081
3.180 5.721 -0.449 1014
3.179 5.720 -0.468 1014
3.178 5.718 -0.487 1043
3.177 5.716 -0.505 1072
3.176 5.715 -0.524 1079
3.175 5.713 -0.543 1087
3.174 5.711 -0.562 1148
3.177 5.716 -0.582 1214
3.176 5.714 -0.601 1214
1.021 1.830 1.602 3810
1.023 1.834 1.596 7620
1.117 2.003 1.734 1118
1.025 1.838 1.590 7620
1.119 2.007 1.727 1118
1.030 1.847 1.589 6250
1.118 2.006 1.716 1499
1.057 1.896 1.619 5688
1.117 2.004 1.705 1981
1.063 1.906 1.617 7343
1.123 2.014 1.703 2758
1.068 1.915 1.615 9374
1.128 2.023 1.701 3422
1.070 1.919 1.609 9133
1.130 2.027 1.694 3422
1.069 1.917 1.599 8968
1.129 2.025 1.683 5252
1.071 1.921 1.592 8968
1.131 2.029 1.677 6906
1.073 1.924 1.586 7394
1.134 2.033 1.670 6011
1.075 1.928 1.580 5821
1.145 2.054 1.677 5247
1.148 2.058 1.670 5638
1.077 1.932 1.573 5528
1.153 2.068 1.668 6050
1.079 1.935 1.567 5235
1.158 2.078 1.665 5827
1.084 1.945 1.565 4151
1.161 2.082 1.658 5693
1.086 1.948 1.559 3102
1.163 2.085 1.652 5710
1.088 1.952 1.552 3016
1.168 2.095 1.649 8485
1.087 1.950 1.542 2951
1.174 2.105 1.646 11531
1.089 1.953 1.535 2773
1.176 2.109 1.640 11321
1.091 1.957 1.529 2596
1.181 2.118 1.637 11185
1.093 1.960 1.523 2195
1.190 2.134 1.638 10902
1.092 1.958 1.512 1699
1.195 2.143 1.636 11718
1.090 1.956 1.502 1409
1.197 2.147 1.629 13470
1.096 1.965 1.499 1104
1.199 2.151 1.622 15223
1.201 2.155 1.615 15212
1.204 2.159 1.608 15200
1.206 2.162 1.600 13747
1.208 2.166 1.593 12293
1.210 2.170 1.586 9795
1.218 2.185 1.587 7637
1.227 2.201 1.588 6129
1.233 2.211 1.585 5560
1.339 2.402 1.713 1252
1.235 2.214 1.578 5675
1.341 2.406 1.705 1479
1.250 2.242 1.586 5999
1.340 2.404 1.693 1727
1.252 2.246 1.579 6319
1.359 2.438 1.705 2714
1.358 2.435 1.693 4885
1.261 2.261 1.579 4623
1.360 2.439 1.685 5993
1.270 2.277 1.580 3263
1.362 2.443 1.677 5843
1.272 2.281 1.572 2747
1.361 2.441 1.665 5698
1.257 2.254 1.546 2367
1.353 2.427 1.646 5188
1.255 2.252 1.534 3089
1.355 2.431 1.638 4765
1.261 2.261 1.531 3541
1.361 2.441 1.633 5304
1.266 2.271 1.527 3389
1.377 2.469 1.641 5992
1.271 2.280 1.524 2410
1.382 2.479 1.636 6305
1.457 2.613 1.719 2544
1.388 2.489 1.632 6432
1.452 2.604 1.703 2395
1.390 2.492 1.624 5789
1.454 2.608 1.694 2376
1.395 2.502 1.619 4539
1.460 2.619 1.689 1829
1.442 2.586 1.659 5122
1.377 2.469 1.589 1800
1.475 2.645 1.683 6603
1.399 2.510 1.603 1130
1.470 2.636 1.667 7872
1.405 2.520 1.598 1000
1.469 2.634 1.655 7126
1.534 2.751 1.723 1629
1.467 2.632 1.643 5068
1.533 2.749 1.711 2009
1.514 2.716 1.680 4950
1.449 2.599 1.613 2555
1.492 2.677 1.647 5532
1.558 2.794 1.714 1216
1.491 2.674 1.634 7091
1.557 2.792 1.701 1931
1.497 2.684 1.629 6508
1.576 2.827 1.710 2845
1.506 2.700 1.627 6499
1.571 2.818 1.693 4844
1.511 2.710 1.622 7592
1.577 2.829 1.688 5675
1.520 2.727 1.620 7488
1.586 2.845 1.685 5749
1.543 2.768 1.631 7574
1.609 2.886 1.696 3674
1.549 2.778 1.626 6362
1.615 2.897 1.690 4375
1.617 2.900 1.681 6567
1.551 2.782 1.616 5136
1.626 2.917 1.678 10430
1.550 2.779 1.604 3208
1.629 2.921 1.668 8948
1.552 2.783 1.595 2058
1.606 2.881 1.635 8132
1.673 3.000 1.698 4962
1.657 2.973 1.672 6408
1.591 2.853 1.609 3579
1.667 2.989 1.669 6213
1.600 2.869 1.607 2672
1.693 3.037 1.682 6539
1.627 2.917 1.620 2301
1.706 3.060 1.682 7261
1.639 2.940 1.620 2125
1.698 3.045 1.662 7983
1.631 2.925 1.601 1407
1.700 3.049 1.652 8482
1.716 3.078 1.654 8324
1.649 2.958 1.594 1066
1.722 3.088 1.647 9080
1.724 3.092 1.637 9659
1.723 3.089 1.624 9123
1.725 3.093 1.614 7573
1.792 3.214 1.672 1748
1.755 3.148 1.628 7530
1.754 3.145 1.615 6284
1.821 3.267 1.673 1020
1.752 3.143 1.601 4692
1.820 3.264 1.659 1439
1.758 3.153 1.594 4739
1.826 3.274 1.651 1182
1.767 3.169 1.590 4368
1.835 3.291 1.646 1167
1.791 3.212 1.597 5307
1.859 3.333 1.653 1570
1.800 3.228 1.592 9310
1.868 3.350 1.648 2850
1.798 3.225 1.579 8948
1.866 3.347 1.634 4347
1.797 3.223 1.565 5239
1.865 3.345 1.620 3885
1.842 3.304 1.589 4404
1.887 3.385 1.612 4618
1.819 3.262 1.558 3211
1.835 3.291 1.559 4595
1.904 3.414 1.612 3229
1.927 3.457 1.618 4673
1.837 3.295 1.548 2900
1.922 3.448 1.601 7934
1.850 3.318 1.545 1528
1.917 3.438 1.584 7093
1.986 3.561 1.637 1281
1.915 3.435 1.570 5563
1.984 3.559 1.622 2000
1.914 3.433 1.556 6496
1.983 3.556 1.608 2632
1.923 3.449 1.550 5937
1.992 3.573 1.601 2838
1.936 3.472 1.547 7393
2.005 3.596 1.598 2838
1.942 3.482 1.538 8165
2.011 3.606 1.588 3367
1.987 3.564 1.558 5483
2.056 3.688 1.608 2182
1.989 3.568 1.546 7939
2.058 3.692 1.596 3957
1.995 3.578 1.537 6385
2.064 3.702 1.586 3780
2.022 3.627 1.543 4966
2.092 3.752 1.592 1507
2.035 3.650 1.539 6639
2.105 3.775 1.587 1295
2.048 3.674 1.534 6691
2.118 3.798 1.582 1234
2.072 3.717 1.537 6555
2.078 3.727 1.528 6283
2.169 3.891 1.590 1895
2.091 3.750 1.523 4963
2.168 3.888 1.574 2977
2.129 3.819 1.535 4710
2.199 3.944 1.581 1185
2.142 3.843 1.529 5083
2.212 3.968 1.575 2181
2.211 3.965 1.560 3802
2.141 3.839 1.514 2966
2.194 3.935 1.535 5376
2.124 3.810 1.490 1690
2.196 3.939 1.522 3630
2.266 4.064 1.566 1979
2.268 4.068 1.553 3105
2.198 3.942 1.509 1629
2.281 4.091 1.546 3601
2.211 3.966 1.502 2436
2.298 4.121 1.542 3154
2.228 3.996 1.499 2873
2.263 4.059 1.506 2609
2.333 4.185 1.549 2053
2.328 4.175 1.530 2932
2.258 4.049 1.488 2181
2.322 4.165 1.512 3282
2.393 4.291 1.554 3147
2.387 4.282 1.536 5470
2.317 4.155 1.494 2746
2.389 4.285 1.521 4611
2.319 4.159 1.480 1314
2.417 4.335 1.522 3465
2.339 4.196 1.477 1296
2.423 4.345 1.510 3039
2.352 4.219 1.470 1312
2.436 4.369 1.502 3672
2.365 4.242 1.462 1305
2.438 4.372 1.488 3706
2.509 4.499 1.527 1678
2.496 4.476 1.504 3002
2.425 4.349 1.465 1976
2.498 4.479 1.489 3387
2.427 4.353 1.450 2089
2.500 4.483 1.474 3507
2.604 4.670 1.531 2678
2.610 4.680 1.517 3731
2.505 4.493 1.461 2628
2.612 4.684 1.502 4006
2.682 4.811 1.539 1694
2.647 4.748 1.504 3627
2.748 4.929 1.556 2068
2.761 4.952 1.546 4385
2.623 4.704 1.475 3249
2.771 4.969 1.533 6195
2.681 4.808 1.488 2279
2.780 4.986 1.520 5072
2.698 4.838 1.479 2130
2.797 5.017 1.511 3637
2.726 4.889 1.476 1530
2.803 5.027 1.497 3092
2.912 5.222 1.550 1960
2.797 5.017 1.476 2861
2.902 5.205 1.527 2712
2.893 5.189 1.504 4222
2.964 5.317 1.538 2596
2.895 5.192 1.487 5977
2.966 5.320 1.521 2425
2.908 5.216 1.475 4503
3.017 5.411 1.526 1883
2.959 5.307 1.480 4004
3.030 5.435 1.513 3253
3.032 5.439 1.495 3143
2.961 5.310 1.463 2585
3.117 5.591 1.514 3145
3.038 5.449 1.479 2225
3.119 5.594 1.495 5148
3.047 5.466 1.464 2061
3.121 5.598 1.477 5895
3.049 5.469 1.446 1546
3.127 5.608 1.460 5246
3.236 5.804 1.507 1402
3.129 5.611 1.441 6362
3.208 5.753 1.475 2216
3.127 5.608 1.421 7361
3.217 5.770 1.459 2211
3.132 5.618 1.404 7250
3.242 5.814 1.449 2278
3.134 5.621 1.385 4692
3.251 5.831 1.433 2025
3.140 5.631 1.368 2483
3.295 5.909 1.430 1457
3.380 6.062 1.442 1637
3.145 5.641 1.351 1453
3.378 6.058 1.421 1912
3.272 5.868 1.380 1284
3.376 6.055 1.399 1199
3.522 6.317 1.433 1185
3.581 6.422 1.432 1238
3.845 6.895 1.505 1302
3.689 6.616 1.449 1209
3.691 6.619 1.427 1543
3.919 7.028 1.507 1133
3.689 6.616 1.404 1825
3.913 7.018 1.481 1577
3.820 6.851 1.426 1946
3.694 6.626 1.383 1826
3.829 6.868 1.406 1784
3.704 6.643 1.364 1513
3.778 6.775 1.365 1528
3.850 6.905 1.389 1305
4.092 7.339 1.443 1465
3.776 6.772 1.342 1419
3.964 7.110 1.378 1210
4.090 7.335 1.417 1179
4.500 8.070 1.519 1249
4.088 7.332 1.392 1184
4.502 8.074 1.492 1643
4.181 7.499 1.395 1640
4.191 7.516 1.373 1864
4.515 8.097 1.469 1381
4.444 7.971 1.421 1476
4.200 7.533 1.350 1343
4.442 7.967 1.393 1436
4.370 7.837 1.373 1106
4.444 7.970 1.367 1365
4.457 7.994 1.343 1149
3.184 5.710 -0.524 1029
3.183 5.709 -0.543 1077
3.182 5.707 -0.562 1149
3.185 5.712 -0.582 1231
3.184 5.710 -0.601 1231
1.029 1.833 1.607 3963
1.031 1.837 1.601 7927
1.123 2.000 1.734 1137
1.033 1.841 1.595 7927
1.125 2.004 1.727 1137
1.038 1.850 1.593 6800
1.121 1.997 1.712 1496
1.059 1.888 1.614 6320
1.120 1.995 1.701 2018
1.068 1.903 1.617 7711
1.128 2.010 1.703 2723
1.073 1.912 1.615 9780
1.134 2.020 1.701 3345
1.075 1.916 1.609 9526
1.136 2.024 1.694 3345
1.074 1.914 1.599 9362
1.135 2.022 1.683 5233
1.076 1.918 1.592 9362
1.137 2.026 1.677 6872
1.078 1.921 1.586 7747
1.139 2.030 1.670 6002
1.080 1.925 1.580 6133
1.151 2.051 1.677 5262
1.153 2.055 1.670 5841
1.083 1.929 1.573 5540
1.159 2.065 1.668 6526
1.085 1.932 1.567 4946
1.164 2.074 1.665 6351
1.087 1.936 1.561 3882
1.170 2.084 1.663 6207
1.092 1.945 1.559 2848
1.169 2.082 1.652 6174
1.091 1.943 1.548 2800
1.174 2.092 1.649 8474
1.093 1.947 1.542 2781
1.179 2.101 1.646 11022
1.095 1.950 1.535 2615
1.182 2.105 1.640 10834
1.097 1.954 1.529 2449
1.187 2.115 1.637 10741
1.099 1.957 1.523 2079
1.196 2.130 1.638 10868
1.097 1.955 1.512 1627
1.201 2.140 1.636 12017
1.099 1.958 1.506 1364
1.203 2.144 1.629 13533
1.101 1.962 1.499 1081
1.205 2.148 1.622 15049
1.208 2.151 1.615 14739
1.210 2.155 1.608 14429
1.212 2.159 1.600 13363
1.214 2.163 1.593 12297
1.216 2.166 1.586 10249
1.221 2.176 1.583 8521
1.227 2.185 1.580 6479
1.239 2.207 1.585 5678
1.346 2.398 1.713 1254
1.241 2.211 1.578 5892
1.345 2.396 1.701 1442
1.243 2.214 1.570 6291
1.347 2.400 1.693 1648
1.252 2.230 1.571 6769
1.366 2.434 1.705 2544
1.264 2.252 1.576 4642
1.365 2.432 1.693 4560
1.367 2.436 1.685 5593
1.276 2.273 1.580 3076
1.366 2.433 1.673 5436
1.278 2.277 1.572 2823
1.365 2.431 1.661 5360
1.267 2.256 1.550 2799
1.360 2.423 1.646 5319
1.265 2.254 1.538 3328
1.362 2.427 1.638 4937
1.267 2.258 1.531 3265
1.371 2.443 1.637 5333
1.276 2.273 1.531 2728
1.384 2.465 1.641 6046
1.281 2.283 1.527 1841
1.389 2.475 1.636 6440
1.461 2.602 1.715 2473
1.395 2.485 1.632 6524
1.460 2.600 1.703 2324
1.397 2.488 1.624 5807
1.462 2.604 1.694 2185
1.399 2.492 1.615 4525
1.464 2.608 1.686 2406
1.452 2.588 1.662 5587
1.387 2.472 1.593 2239
1.462 2.604 1.661 7118
1.396 2.487 1.592 1417
1.474 2.626 1.663 8480
1.409 2.510 1.594 1185
1.476 2.630 1.655 7719
1.542 2.747 1.723 1727
1.475 2.628 1.643 5340
1.541 2.745 1.711 2093
1.522 2.712 1.680 5346
1.456 2.595 1.613 2390
1.500 2.672 1.647 5698
1.566 2.790 1.714 1573
1.502 2.676 1.638 7252
1.568 2.794 1.705 1807
1.504 2.680 1.629 6780
1.584 2.822 1.710 2880
1.517 2.702 1.631 6678
1.583 2.820 1.697 4515
1.519 2.706 1.622 7318
1.585 2.824 1.688 5734
1.577 2.809 1.668 7558
1.511 2.691 1.602 5145
1.586 2.826 1.665 7469
1.520 2.707 1.600 3465
1.588 2.830 1.656 6679
1.658 2.954 1.724 2055
1.629 2.902 1.684 6977
1.559 2.777 1.616 5547
1.635 2.912 1.678 10892
1.554 2.768 1.601 3825
1.637 2.916 1.668 9211
1.560 2.778 1.595 2545
1.614 2.876 1.635 7985
1.681 2.995 1.698 4567
1.662 2.962 1.669 6646
1.595 2.842 1.606 3158
1.668 2.972 1.662 5611
1.601 2.852 1.600 2055
1.706 3.039 1.685 5835
1.638 2.919 1.623 2013
1.715 3.055 1.682 6753
1.648 2.935 1.620 2217
1.706 3.040 1.662 7935
1.639 2.920 1.601 1351
1.709 3.044 1.652 8836
1.725 3.073 1.654 8545
1.657 2.953 1.594 1191
1.731 3.083 1.647 9127
1.733 3.087 1.637 9630
1.735 3.091 1.627 8684
1.733 3.088 1.614 6883
1.801 3.209 1.672 1533
1.768 3.149 1.631 7776
1.763 3.140 1.615 5667
1.831 3.261 1.673 1352
1.758 3.131 1.598 3971
1.826 3.253 1.656 1812
1.763 3.141 1.591 3951
1.831 3.263 1.648 1009
1.776 3.164 1.590 3653
1.800 3.206 1.597 4123
1.868 3.328 1.653 1611
1.809 3.223 1.592 7120
1.877 3.345 1.648 2692
1.811 3.227 1.582 7283
1.880 3.349 1.637 3673
1.842 3.282 1.594 5152
1.773 3.160 1.539 1012
1.851 3.298 1.589 4628
1.897 3.379 1.612 5221
1.828 3.257 1.558 3866
1.845 3.286 1.559 5265
1.913 3.409 1.612 3669
1.934 3.445 1.615 4761
1.847 3.290 1.548 3482
1.932 3.442 1.601 8093
1.856 3.306 1.543 1897
1.927 3.433 1.584 7122
1.996 3.556 1.637 1182
1.925 3.430 1.570 5551
1.994 3.553 1.622 1866
1.927 3.434 1.559 6405
1.996 3.557 1.610 2300
1.937 3.450 1.553 6262
2.006 3.574 1.604 2771
1.946 3.467 1.547 7944
2.015 3.590 1.598 3258
1.952 3.477 1.538 8870
2.021 3.600 1.588 3952
1.961 3.493 1.532 5689
2.034 3.624 1.584 4030
1.999 3.562 1.546 7917
2.069 3.686 1.596 3922
2.005 3.572 1.537 6604
2.075 3.696 1.586 3420
2.033 3.621 1.543 4971
2.102 3.746 1.592 1669
2.046 3.645 1.539 6262
2.115 3.769 1.587 1593
2.062 3.674 1.537 6405
2.132 3.799 1.585 1342
2.083 3.711 1.537 6867
2.013 3.586 1.490 1006
2.088 3.721 1.528 6296
2.184 3.891 1.592 1880
2.105 3.751 1.525 4793
2.179 3.882 1.574 3132
2.137 3.807 1.532 4358
2.207 3.931 1.578 1522
2.157 3.843 1.532 5236
2.227 3.968 1.577 2120
2.178 3.879 1.531 4467
2.248 4.005 1.576 2412
2.202 3.923 1.532 5323
2.276 4.054 1.580 1757
2.204 3.926 1.519 3675
2.274 4.051 1.564 2073
2.280 4.062 1.553 3267
2.209 3.936 1.509 2119
2.293 4.085 1.546 4076
2.222 3.959 1.502 2477
2.310 4.115 1.542 3414
2.239 3.989 1.499 2588
2.330 4.152 1.540 2539
2.237 3.986 1.483 2270
2.340 4.168 1.530 2778
2.269 4.043 1.488 1756
2.401 4.278 1.552 3275
2.331 4.152 1.510 3218
2.407 4.288 1.540 5024
2.332 4.155 1.496 2999
2.416 4.305 1.530 3740
2.346 4.179 1.489 1670
2.437 4.342 1.527 3098
2.351 4.189 1.477 1592
2.398 4.272 1.489 3118
2.469 4.398 1.529 1588
2.448 4.362 1.502 4361
2.377 4.236 1.462 1392
2.454 4.372 1.490 3976
2.525 4.499 1.529 1787
2.452 4.369 1.473 2959
2.523 4.496 1.512 2363
2.454 4.372 1.459 2940
2.552 4.546 1.512 2595
2.512 4.476 1.474 3187
2.625 4.676 1.535 2673
2.634 4.693 1.523 4424
2.563 4.566 1.485 2789
2.632 4.690 1.506 4532
2.561 4.563 1.468 1817
2.661 4.740 1.504 4419
2.770 4.934 1.560 2185
2.779 4.951 1.548 4249
2.647 4.717 1.480 3878
2.785 4.961 1.533 6136
2.695 4.801 1.488 2775
2.794 4.978 1.520 5559
2.708 4.824 1.477 1945
2.811 5.009 1.511 4514
2.921 5.203 1.565 1262
2.813 5.012 1.495 3246
2.923 5.207 1.548 1895
2.808 5.002 1.475 2833
2.913 5.190 1.525 2483
2.953 5.261 1.526 3826
2.813 5.012 1.460 2177
2.910 5.184 1.487 4818
2.827 5.036 1.448 2307
2.957 5.268 1.491 3845
3.033 5.403 1.526 2321
2.970 5.292 1.479 3746
3.046 5.426 1.513 3660
3.048 5.430 1.495 3242
2.976 5.302 1.463 2354
3.091 5.508 1.495 3251
3.008 5.359 1.459 1788
3.135 5.585 1.495 4843
3.063 5.457 1.464 2167
3.133 5.582 1.475 5975
3.061 5.454 1.444 1543
3.131 5.579 1.455 5459
3.055 5.443 1.423 1352
3.144 5.602 1.441 6047
3.220 5.737 1.473 2338
3.143 5.599 1.421 6867
3.237 5.768 1.460 2461
3.148 5.609 1.404 6718
3.255 5.798 1.447 2692
3.150 5.612 1.385 4433
3.264 5.815 1.431 2347
3.152 5.615 1.367 2217
3.312 5.900 1.430 1782
3.397 6.052 1.442 2068
3.325 5.923 1.414 1371
3.395 6.049 1.421 2388
3.323 5.920 1.393 1532
3.454 6.154 1.422 1532
3.344 5.957 1.381 1438
3.540 6.307 1.433 1493
3.456 6.157 1.402 1246
3.599 6.412 1.432 1541
3.526 6.283 1.406 1314
3.708 6.606 1.449 1654
3.860 6.878 1.503 1322
3.710 6.609 1.427 1993
3.939 7.017 1.507 1004
3.708 6.605 1.404 2317
3.933 7.007 1.481 1409
3.717 6.622 1.385 2211
3.843 6.847 1.427 1920
3.849 6.857 1.406 1822
3.723 6.632 1.364 1761
3.789 6.751 1.363 1352
4.019 7.160 1.438 1249
4.197 7.477 1.470 1497
4.109 7.320 1.442 1485
4.107 7.317 1.416 1358
4.199 7.480 1.445 1221
4.105 7.313 1.391 1446
4.522 8.057 1.519 1154
4.206 7.494 1.396 1569
4.524 8.061 1.492 1454
4.212 7.504 1.373 1842
4.538 8.085 1.469 1338
4.467 7.958 1.421 1553
4.329 7.712 1.381 1431
4.465 7.954 1.393 1490
4.330 7.715 1.355 1241
4.467 7.958 1.367 1396
4.480 7.981 1.343 1190
4.543 8.094 1.333 1046
3.197 5.696 -0.581 1024
3.196 5.694 -0.600 1024
1.034 1.830 1.607 4094
1.036 1.834 1.601 8188
1.128 1.997 1.734 1141
1.038 1.838 1.595 8188
1.130 2.001 1.727 1141
1.047 1.853 1.598 7450
1.123 1.988 1.707 1516
1.052 1.862 1.596 7136
1.116 1.975 1.687 2178
1.073 1.900 1.617 8037
1.134 2.007 1.703 2679
1.079 1.909 1.615 10178
1.140 2.017 1.701 3234
1.081 1.913 1.609 9880
1.142 2.021 1.694 3234
1.080 1.911 1.599 9665
1.141 2.019 1.683 5169
1.082 1.914 1.592 9665
1.143 2.023 1.677 6781
1.084 1.918 1.586 8050
1.145 2.027 1.670 5921
1.086 1.922 1.580 6435
1.157 2.048 1.677 5241
1.163 2.057 1.674 6068
1.088 1.926 1.573 5489
1.168 2.067 1.672 7111
1.090 1.929 1.567 4542
1.170 2.071 1.665 6991
1.092 1.933 1.561 3605
1.176 2.081 1.663 6946
1.094 1.936 1.554 2668
1.178 2.085 1.656 6848
1.096 1.940 1.548 2579
1.180 2.088 1.649 8493
1.095 1.938 1.538 2511
1.185 2.098 1.646 10372
1.097 1.941 1.531 2363
1.188 2.102 1.640 10177
1.099 1.945 1.525 2216
1.193 2.111 1.637 10090
1.101 1.948 1.518 1902
1.202 2.127 1.638 10801
1.103 1.952 1.512 1535
1.207 2.137 1.636 12474
1.105 1.955 1.506 1316
1.209 2.140 1.629 13600
1.107 1.959 1.499 1066
1.212 2.144 1.622 14726
1.214 2.148 1.615 13901
1.216 2.152 1.608 13076
1.218 2.155 1.600 12521
1.217 2.153 1.589 12063
1.222 2.163 1.586 10516
1.227 2.172 1.583 9430
1.233 2.182 1.580 7022
1.245 2.203 1.585 5949
1.353 2.394 1.713 1197
1.237 2.189 1.566 6245
1.352 2.392 1.701 1323
1.249 2.211 1.570 6793
1.354 2.396 1.693 1461
1.251 2.214 1.563 7438
1.373 2.430 1.705 2227
1.250 2.212 1.552 5196
1.372 2.428 1.693 4028
1.374 2.432 1.685 5033
1.249 2.210 1.541 3061
1.373 2.430 1.673 4927
1.254 2.219 1.538 2364
1.368 2.421 1.657 4918
1.266 2.241 1.542 1999
1.367 2.419 1.646 5030
1.268 2.244 1.534 2466
1.369 2.423 1.638 4671
1.274 2.254 1.531 2593
1.378 2.439 1.637 5143
1.282 2.270 1.531 2592
1.391 2.461 1.641 6199
1.459 2.582 1.716 2020
1.396 2.471 1.636 6831
1.465 2.592 1.711 2803
1.402 2.481 1.632 6802
1.467 2.596 1.703 2665
1.404 2.484 1.624 5872
1.490 2.637 1.716 2654
1.406 2.488 1.615 4467
1.471 2.604 1.686 3209
1.463 2.590 1.666 6504
1.398 2.474 1.596 2539
1.469 2.600 1.661 7993
1.403 2.483 1.592 1732
1.478 2.616 1.660 9378
1.544 2.732 1.729 1463
1.484 2.626 1.655 8454
1.550 2.742 1.723 1919
1.486 2.630 1.646 5744
1.552 2.746 1.714 2009
1.530 2.707 1.680 5667
1.464 2.590 1.613 2348
1.511 2.674 1.650 5778
1.577 2.791 1.718 1699
1.510 2.672 1.638 7281
1.576 2.789 1.705 2175
1.515 2.682 1.632 6879
1.592 2.818 1.710 2905
1.525 2.698 1.631 6700
1.591 2.816 1.697 4400
1.579 2.795 1.674 7297
1.513 2.677 1.608 4208
1.585 2.805 1.668 7575
1.518 2.687 1.602 4272
1.594 2.821 1.665 7911
1.527 2.703 1.600 2828
1.596 2.825 1.656 7402
1.667 2.950 1.724 2216
1.637 2.897 1.684 6971
1.567 2.773 1.616 5873
1.643 2.908 1.678 10729
1.565 2.770 1.604 4208
1.649 2.918 1.672 9179
1.571 2.780 1.598 3030
1.623 2.872 1.635 7547
1.690 2.990 1.698 4051
1.667 2.951 1.666 7003
1.600 2.832 1.603 2839
1.669 2.954 1.656 5302
1.602 2.835 1.594 1687
1.718 3.040 1.688 5344
1.650 2.921 1.626 1935
1.720 3.044 1.678 6793
1.652 2.924 1.617 2091
1.711 3.029 1.659 8350
1.644 2.909 1.598 1110
1.717 3.039 1.652 9493
1.734 3.068 1.654 8960
1.666 2.948 1.594 1281
1.739 3.078 1.647 9447
1.745 3.088 1.640 9853
1.744 3.086 1.627 8632
1.812 3.206 1.686 1085
1.746 3.090 1.617 6428
1.814 3.210 1.676 1699
1.777 3.144 1.631 7890
1.775 3.142 1.618 5746
1.844 3.263 1.676 1478
1.763 3.120 1.595 3739
1.831 3.241 1.653 2540
1.772 3.136 1.591 3285
1.841 3.258 1.648 1250
1.781 3.153 1.587 2652
1.812 3.208 1.600 2620
1.881 3.329 1.656 1723
1.833 3.243 1.604 5079
1.901 3.365 1.660 1324
1.849 3.273 1.605 7228
1.780 3.151 1.549 1897
1.855 3.283 1.597 5625
1.786 3.161 1.542 1689
1.868 3.306 1.595 4893
1.799 3.184 1.540 1606
1.906 3.374 1.612 6059
1.837 3.252 1.558 4163
1.854 3.281 1.559 5807
1.923 3.403 1.612 4106
1.940 3.433 1.612 4767
1.860 3.291 1.551 4040
1.942 3.437 1.601 8001
1.865 3.301 1.543 2381
1.937 3.427 1.584 7054
2.006 3.550 1.637 1066
1.939 3.431 1.573 5269
2.008 3.554 1.625 1440
1.966 3.480 1.580 5949
1.897 3.357 1.529 1049
1.946 3.445 1.553 6067
2.016 3.568 1.604 2838
1.959 3.468 1.549 8123
2.029 3.591 1.600 3239
1.965 3.478 1.541 9338
2.035 3.601 1.591 4476
1.971 3.488 1.532 6139
2.041 3.611 1.582 5177
2.010 3.556 1.546 7655
2.079 3.680 1.596 3758
2.015 3.567 1.537 6673
2.085 3.690 1.586 3174
2.039 3.609 1.541 4849
2.109 3.733 1.589 2146
2.052 3.632 1.536 5425
2.122 3.756 1.585 2372
2.110 3.734 1.562 5564
2.040 3.610 1.514 3446
2.097 3.711 1.540 6985
2.027 3.587 1.492 1187
2.095 3.708 1.525 6037
2.195 3.885 1.592 1760
2.127 3.764 1.532 5102
2.197 3.889 1.579 2961
