0.288 2.187 1.652 3209
0.304 2.307 1.728 9296
0.288 2.185 1.642 1675
0.306 2.324 1.730 12458
0.290 2.202 1.644 2078
0.307 2.329 1.724 16153
0.291 2.206 1.638 1421
0.307 2.333 1.717 16153
0.291 2.211 1.632 1132
0.308 2.338 1.710 16103
0.324 2.461 1.795 1006
0.310 2.349 1.708 16240
0.311 2.360 1.705 12410
0.313 2.378 1.707 10332
0.314 2.382 1.701 7610
0.311 2.360 1.676 5984
0.327 2.485 1.759 1814
0.312 2.365 1.670 5710
0.328 2.490 1.752 1951
0.313 2.376 1.667 5500
0.330 2.501 1.749 2087
0.314 2.380 1.660 5417
0.330 2.505 1.742 2404
0.326 2.470 1.709 8298
0.309 2.345 1.628 2070
0.326 2.475 1.702 11364
0.310 2.349 1.621 1582
0.327 2.480 1.695 11735
0.310 2.354 1.614 1143
0.327 2.484 1.688 12105
0.344 2.610 1.768 1630
0.329 2.495 1.685 9844
0.345 2.621 1.765 1402
0.331 2.513 1.686 7937
0.333 2.531 1.687 8603
0.335 2.542 1.684 9952
0.336 2.546 1.677 8205
0.337 2.558 1.673 6506
0.338 2.569 1.670 6421
0.340 2.580 1.667 6664
0.341 2.591 1.663 5921
0.358 2.719 1.740 2222
0.343 2.602 1.660 5448
0.360 2.730 1.737 3293
0.358 2.715 1.717 5709
0.341 2.586 1.640 3233
0.357 2.713 1.705 8139
0.340 2.584 1.629 2326
0.358 2.717 1.697 8182
0.341 2.588 1.621 2253
0.359 2.722 1.689 8225
0.376 2.851 1.764 2704
0.360 2.733 1.685 6317
0.377 2.862 1.760 3734
0.374 2.840 1.736 7690
0.357 2.710 1.662 3917
0.375 2.844 1.728 8127
0.358 2.714 1.654 4361
0.374 2.842 1.716 6089
0.357 2.712 1.642 3989
0.362 2.744 1.650 5181
0.379 2.874 1.723 4069
0.381 2.892 1.722 4427
0.364 2.762 1.649 4066
0.383 2.904 1.718 5446
0.365 2.773 1.645 3306
0.380 2.881 1.694 7391
0.362 2.750 1.622 1666
0.381 2.892 1.690 11280
0.364 2.761 1.618 1713
0.382 2.897 1.681 12200
0.364 2.765 1.610 1532
0.382 2.901 1.673 10302
0.400 3.033 1.744 1670
0.384 2.912 1.668 8648
0.401 3.044 1.739 1911
0.384 2.917 1.660 7490
0.402 3.049 1.730 2301
0.386 2.928 1.655 7185
0.403 3.060 1.725 1914
0.387 2.940 1.650 8332
0.405 3.072 1.720 1515
0.391 2.965 1.653 7500
0.408 3.097 1.722 1396
0.393 2.983 1.651 5568
0.411 3.116 1.720 1631
0.399 3.029 1.664 4258
0.401 3.041 1.659 4164
0.403 3.059 1.657 5359
0.421 3.193 1.725 1090
0.414 3.141 1.687 6852
0.396 3.007 1.620 3416
0.415 3.153 1.682 9917
0.398 3.019 1.615 3152
0.418 3.171 1.679 12829
0.400 3.037 1.613 2343
0.421 3.197 1.681 13691
0.403 3.056 1.611 1952
0.423 3.208 1.675 13611
0.404 3.067 1.606 2185
0.424 3.220 1.669 11480
0.407 3.085 1.604 3226
0.425 3.224 1.660 8808
0.407 3.089 1.595 3714
0.425 3.229 1.650 10752
0.408 3.094 1.586 2803
0.424 3.219 1.634 13081
0.442 3.354 1.698 3563
0.428 3.244 1.635 9352
0.445 3.380 1.698 1882
0.434 3.291 1.645 10957
0.416 3.156 1.582 2899
0.434 3.296 1.636 9187
0.416 3.160 1.573 2038
0.439 3.329 1.639 7662
0.421 3.193 1.577 1482
0.442 3.354 1.640 8718
0.424 3.218 1.578 1160
0.444 3.366 1.633 7963
0.443 3.363 1.620 7091
0.447 3.389 1.620 7520
0.451 3.422 1.623 8304
0.456 3.462 1.629 8769
0.458 3.474 1.622 8052
0.476 3.611 1.681 1030
0.459 3.485 1.615 7234
0.477 3.622 1.674 1469
0.459 3.482 1.601 7008
0.477 3.620 1.660 3087
0.458 3.479 1.588 8708
0.477 3.617 1.647 3943
0.461 3.498 1.584 7974
0.479 3.636 1.642 3407
0.462 3.509 1.577 5429
0.481 3.647 1.635 3435
0.477 3.622 1.612 5450
0.496 3.760 1.669 3623
0.478 3.627 1.602 5734
0.496 3.765 1.658 4472
0.496 3.762 1.644 6089
0.477 3.624 1.588 5027
0.496 3.766 1.633 6396
0.478 3.628 1.578 4031
0.497 3.771 1.622 5847
0.479 3.632 1.567 3687
0.500 3.797 1.620 7226
0.479 3.636 1.556 2906
0.501 3.801 1.609 6878
0.479 3.633 1.543 1269
0.507 3.849 1.615 5934
0.536 4.069 1.701 1461
0.508 3.854 1.604 6172
0.537 4.073 1.689 2209
0.509 3.865 1.596 4840
0.536 4.071 1.674 2403
0.516 3.913 1.601 4939
0.537 4.075 1.662 3046
0.519 3.940 1.598 4952
0.538 4.079 1.650 3263
0.517 3.922 1.578 4116
0.539 4.091 1.641 2857
0.552 4.191 1.665 3265
0.523 3.970 1.583 3107
0.553 4.196 1.653 3581
0.527 3.996 1.580 3100
0.546 4.141 1.619 4830
0.527 4.001 1.568 2757
0.545 4.138 1.604 5743
0.564 4.278 1.655 2618
0.547 4.149 1.595 4613
0.566 4.297 1.648 3937
0.568 4.309 1.638 6011
0.548 4.161 1.585 4134
0.568 4.314 1.625 5368
0.550 4.173 1.576 4092
0.573 4.348 1.623 4278
0.552 4.192 1.569 2619
0.571 4.337 1.605 3519
0.590 4.478 1.653 1041
0.572 4.341 1.592 3390
0.591 4.483 1.640 1581
0.573 4.345 1.580 3619
0.591 4.487 1.627 2548
0.575 4.364 1.572 3795
0.594 4.506 1.619 2675
0.577 4.376 1.562 3797
0.598 4.540 1.616 3459
0.599 4.544 1.603 4677
0.580 4.403 1.557 2563
0.594 4.511 1.577 5795
0.566 4.295 1.507 2119
0.596 4.523 1.567 4107
0.615 4.665 1.612 2840
0.605 4.594 1.575 3655
0.564 4.280 1.475 2163
0.620 4.704 1.594 3520
0.601 4.561 1.550 2320
0.622 4.723 1.585 4805
0.563 4.273 1.446 2494
0.624 4.734 1.574 4705
0.564 4.284 1.436 2365
0.627 4.761 1.567 5270
0.564 4.280 1.421 1668
0.629 4.773 1.555 4600
0.562 4.269 1.404 1151
0.638 4.845 1.562 4997
0.620 4.701 1.519 1388
0.650 4.932 1.572 3818
0.626 4.751 1.519 1368
0.650 4.936 1.557 4875
0.564 4.280 1.367 1255
0.648 4.917 1.537 4116
0.667 5.061 1.578 1529
0.649 4.929 1.524 2949
0.557 4.226 1.325 1349
0.657 4.986 1.525 3603
0.557 4.230 1.312 1080
0.656 4.982 1.508 4347
0.675 5.126 1.548 1805
0.658 4.994 1.496 2967
0.677 5.137 1.535 2276
0.676 5.134 1.518 2648
0.562 4.262 1.282 2275
0.561 4.258 1.267 3585
0.672 5.100 1.493 3160
0.681 5.165 1.494 4104
0.704 5.339 1.541 2914
0.702 5.328 1.521 5115
0.683 5.184 1.483 4409
0.704 5.340 1.508 5821
0.723 5.484 1.545 2230
0.706 5.359 1.496 6464
0.725 5.503 1.533 2544
0.710 5.385 1.486 6133
0.729 5.530 1.523 1222
0.714 5.420 1.478 7084
0.737 5.595 1.522 1644
0.716 5.431 1.464 5070
0.739 5.607 1.507 2241
0.711 5.397 1.439 2050
0.744 5.649 1.500 2018
0.751 5.698 1.495 2632
0.770 5.844 1.530 1767
0.752 5.710 1.480 3358
0.772 5.855 1.514 3135
0.753 5.714 1.463 3378
0.772 5.859 1.497 2972
0.777 5.894 1.487 2802
0.753 5.718 1.447 2654
0.774 5.875 1.465 3298
0.797 6.051 1.505 2116
0.773 5.863 1.444 3767
0.800 6.070 1.491 2758
0.802 6.089 1.476 3368
0.779 5.913 1.437 3062
0.803 6.093 1.459 3249
0.784 5.947 1.427 3190
0.805 6.112 1.444 3142
0.785 5.959 1.411 2218
0.806 6.116 1.426 3051
0.839 6.369 1.480 1482
0.806 6.120 1.408 2087
0.845 6.412 1.470 1945
0.847 6.431 1.454 2017
0.823 6.246 1.416 1745
0.851 6.458 1.440 2041
0.810 6.150 1.377 1634
0.853 6.477 1.424 2487
0.873 6.623 1.453 1760
0.853 6.473 1.404 2490
0.879 6.673 1.443 1965
0.881 6.685 1.425 2676
0.855 6.492 1.388 2301
0.881 6.688 1.406 2147
0.857 6.503 1.370 2147
0.911 6.916 1.428 2103
0.890 6.754 1.398 1758
0.889 6.749 1.377 2059
0.912 6.919 1.408 1826
0.889 6.745 1.355 2302
0.934 7.085 1.417 1852
0.922 6.996 1.380 2523
0.888 6.741 1.334 1751
0.922 7.000 1.359 2524
0.944 7.162 1.388 1904
0.938 7.119 1.359 2049
0.962 7.297 1.390 2022
1.013 7.688 1.434 2035
0.961 7.293 1.367 2014
0.991 7.521 1.383 2356
1.014 7.691 1.412 2089
1.014 7.695 1.389 2069
0.993 7.532 1.362 1977
1.015 7.706 1.368 2555
1.101 8.358 1.472 1636
1.016 7.710 1.345 2465
1.100 8.346 1.446 2400
1.100 8.350 1.421 2824
1.017 7.721 1.324 1451
1.103 8.369 1.399 2306
1.077 8.175 1.370 1392
1.103 8.372 1.375 1962
1.078 8.178 1.346 1273
1.105 8.384 1.351 1512
1.179 8.951 1.434 1125
1.216 9.227 1.446 1403
1.141 8.659 1.365 1339
1.216 9.230 1.419 1566
1.141 8.663 1.340 1257
1.216 9.226 1.391 1432
1.239 9.405 1.416 1313
1.240 9.409 1.388 1134
1.215 9.222 1.363 1075
1.218 9.241 1.338 1015
1.218 9.244 1.311 1280
1.218 9.240 1.283 1087
0.296 2.198 1.690 2995
0.312 2.319 1.777 1024
0.297 2.203 1.683 5991
0.313 2.324 1.771 2049
0.297 2.207 1.677 5991
0.314 2.329 1.764 2049
0.311 2.308 1.739 6331
0.294 2.186 1.652 2674
0.311 2.306 1.728 9016
0.294 2.184 1.642 1140
0.312 2.317 1.726 12035
0.296 2.195 1.640 1460
0.314 2.328 1.724 15573
0.297 2.205 1.638 1548
0.314 2.333 1.717 15573
0.298 2.210 1.632 1162
0.315 2.337 1.710 15406
0.331 2.460 1.795 1169
0.316 2.348 1.708 15263
0.318 2.359 1.705 11499
0.320 2.377 1.707 9615
0.321 2.381 1.701 7401
0.318 2.360 1.676 6296
0.335 2.484 1.759 2174
0.319 2.371 1.674 6015
0.336 2.495 1.756 2055
0.320 2.375 1.667 5927
0.337 2.500 1.749 2445
0.321 2.379 1.660 5923
0.337 2.504 1.742 2689
0.333 2.470 1.709 7749
0.316 2.344 1.628 2075
0.333 2.474 1.702 11348
0.316 2.349 1.621 1535
0.334 2.479 1.695 12034
0.317 2.353 1.614 1111
0.335 2.483 1.688 12721
0.352 2.609 1.768 1655
0.336 2.494 1.685 10475
0.353 2.620 1.765 1472
0.338 2.512 1.686 8615
0.340 2.523 1.683 9279
0.342 2.541 1.684 10751
0.343 2.545 1.677 8858
0.345 2.563 1.677 7202
0.347 2.574 1.674 7302
0.366 2.715 1.760 1059
0.347 2.579 1.667 7464
0.366 2.720 1.752 1504
0.349 2.590 1.663 6619
0.367 2.725 1.744 2373
0.350 2.601 1.660 5867
0.368 2.729 1.737 3242
0.366 2.714 1.717 4965
0.348 2.585 1.640 3754
0.364 2.705 1.701 7436
0.347 2.576 1.625 2511
0.366 2.716 1.697 7892
0.349 2.587 1.621 2445
0.367 2.720 1.689 8351
0.384 2.850 1.764 2525
0.368 2.732 1.685 6201
0.385 2.861 1.760 3466
0.382 2.832 1.732 7703
0.364 2.702 1.658 3250
0.381 2.829 1.720 8299
0.364 2.700 1.646 3151
0.382 2.834 1.712 6547
0.364 2.704 1.638 3155
0.371 2.756 1.657 6248
0.389 2.887 1.731 3576
0.377 2.802 1.672 5862
0.395 2.932 1.745 2482
0.380 2.820 1.672 6418
0.398 2.951 1.744 1680
0.388 2.880 1.694 7021
0.370 2.749 1.622 1606
0.389 2.884 1.686 9919
0.371 2.753 1.614 1287
0.390 2.895 1.681 10495
0.372 2.764 1.610 1359
0.391 2.900 1.673 9159
0.408 3.031 1.744 1515
0.392 2.911 1.668 8056
0.410 3.043 1.739 1683
0.400 2.971 1.689 7745
0.383 2.839 1.619 2120
0.394 2.927 1.655 7274
0.412 3.059 1.725 1413
0.395 2.931 1.647 7774
0.413 3.064 1.716 1003
0.399 2.964 1.653 6511
0.381 2.831 1.584 1321
0.403 2.989 1.655 5641
0.421 3.122 1.723 1594
0.407 3.021 1.661 5712
0.385 2.860 1.578 1181
0.408 3.026 1.652 5377
0.426 3.159 1.720 1465
0.411 3.051 1.654 5553
0.429 3.184 1.721 1401
0.423 3.140 1.687 6678
0.405 3.006 1.620 3040
0.425 3.151 1.682 9866
0.407 3.018 1.615 2732
0.427 3.170 1.679 13022
0.409 3.036 1.613 2096
0.431 3.195 1.681 13718
0.412 3.054 1.611 2131
0.432 3.207 1.675 12788
0.413 3.066 1.606 2244
0.434 3.218 1.669 9606
0.416 3.084 1.604 2544
0.434 3.223 1.660 6840
0.416 3.088 1.595 2697
0.434 3.220 1.647 8693
0.416 3.085 1.583 1710
0.433 3.210 1.631 11157
0.451 3.345 1.695 4778
0.447 3.314 1.668 7884
0.428 3.179 1.605 6282
0.443 3.290 1.645 9770
0.425 3.155 1.582 2403
0.445 3.302 1.639 7952
0.427 3.166 1.577 1940
0.451 3.349 1.649 7057
0.433 3.213 1.587 1511
0.452 3.353 1.640 8350
0.433 3.217 1.578 1022
0.452 3.357 1.630 7600
0.452 3.355 1.617 5494
0.456 3.388 1.620 4493
0.463 3.435 1.629 6123
0.467 3.468 1.632 7323
0.469 3.480 1.625 7208
0.469 3.484 1.615 7016
0.488 3.621 1.674 1219
0.469 3.481 1.601 7128
0.487 3.618 1.660 3069
0.469 3.478 1.588 8895
0.487 3.615 1.647 4010
0.471 3.497 1.584 8068
0.490 3.634 1.642 3366
0.473 3.508 1.577 5006
0.491 3.646 1.635 3477
0.488 3.621 1.612 5331
0.506 3.759 1.669 3295
0.488 3.625 1.602 5186
0.507 3.763 1.658 4173
0.508 3.768 1.647 5551
0.489 3.630 1.591 4455
0.508 3.772 1.636 5643
0.490 3.634 1.580 3926
0.507 3.762 1.619 4682
0.488 3.623 1.564 3783
0.511 3.795 1.620 5612
0.491 3.642 1.559 2935
0.513 3.807 1.612 6472
0.494 3.668 1.557 1173
0.519 3.855 1.618 6259
0.501 3.716 1.564 1337
0.519 3.852 1.604 5906
0.549 4.072 1.689 1868
0.520 3.856 1.593 4560
0.548 4.069 1.674 2028
0.529 3.927 1.607 5123
0.549 4.073 1.662 2538
0.531 3.938 1.598 5883
0.549 4.078 1.650 2740
0.527 3.913 1.576 5369
0.563 4.178 1.674 2491
0.528 3.917 1.564 3801
0.564 4.190 1.665 3258
0.561 4.165 1.642 3724
0.538 3.995 1.580 3023
0.557 4.132 1.616 5559
0.538 3.992 1.565 2588
0.557 4.136 1.604 6082
0.576 4.277 1.655 2943
0.559 4.148 1.595 4527
0.580 4.303 1.650 4326
0.580 4.308 1.638 6207
0.560 4.159 1.585 3830
0.580 4.304 1.623 4831
0.561 4.164 1.573 3577
0.588 4.361 1.628 3491
0.569 4.220 1.579 2436
0.584 4.335 1.605 3482
0.585 4.340 1.592 4467
0.604 4.481 1.640 1055
0.586 4.351 1.582 5536
0.605 4.493 1.630 1910
0.587 4.355 1.570 5988
0.606 4.497 1.617 2615
0.587 4.359 1.557 5157
0.609 4.524 1.611 2678
0.609 4.520 1.595 3811
0.590 4.378 1.549 2797
0.608 4.510 1.577 5076
0.577 4.285 1.505 3487
0.577 4.282 1.490 4776
0.609 4.521 1.567 3602
0.576 4.278 1.475 4255
0.619 4.593 1.575 2603
0.577 4.282 1.463 2805
0.634 4.709 1.597 2805
0.637 4.728 1.588 3812
0.575 4.271 1.446 2950
0.640 4.748 1.578 3838
0.576 4.275 1.433 2874
0.641 4.759 1.567 4711
0.576 4.278 1.421 2283
0.643 4.771 1.555 4351
0.575 4.267 1.404 1616
0.651 4.835 1.559 4483
0.576 4.278 1.394 1612
0.665 4.937 1.574 3653
0.577 4.282 1.381 2489
0.665 4.934 1.557 4539
0.577 4.285 1.369 2263
0.664 4.930 1.541 3629
0.578 4.289 1.356 1171
0.664 4.927 1.524 2878
0.683 5.070 1.565 1696
0.671 4.984 1.525 4001
0.691 5.127 1.565 1122
0.671 4.980 1.508 4142
0.690 5.124 1.548 2033
0.671 4.984 1.494 2367
0.691 5.128 1.533 2243
0.688 5.109 1.512 2546
0.574 4.261 1.282 2270
0.574 4.264 1.269 3551
0.708 5.257 1.536 3059
0.703 5.216 1.509 3661
0.574 4.260 1.255 2781
0.718 5.326 1.521 5954
0.698 5.182 1.483 3469
0.718 5.330 1.506 6491
0.738 5.474 1.543 1997
0.721 5.349 1.494 7095
0.740 5.494 1.531 2359
0.724 5.376 1.484 6632
0.744 5.520 1.521 1396
0.730 5.418 1.478 6078
0.749 5.562 1.514 2107
0.734 5.444 1.468 4106
0.753 5.589 1.504 1797
0.762 5.654 1.502 1926
0.742 5.509 1.467 1537
0.767 5.696 1.495 3036
0.787 5.841 1.530 2206
0.788 5.845 1.513 4177
0.752 5.578 1.449 3212
0.752 5.582 1.433 4041
0.789 5.857 1.497 3918
0.792 5.876 1.484 3281
0.758 5.624 1.425 2301
0.791 5.872 1.465 4064
0.763 5.666 1.418 2343
0.791 5.868 1.446 4454
0.817 6.068 1.491 2825
0.819 6.079 1.475 4180
0.794 5.895 1.434 3394
0.821 6.091 1.459 4253
0.801 5.945 1.427 3175
0.825 6.125 1.447 3792
0.802 5.956 1.411 2337
0.824 6.113 1.426 3374
0.857 6.359 1.478 1408
0.824 6.117 1.408 2026
0.857 6.363 1.460 1947
0.855 6.344 1.437 2962
0.826 6.129 1.392 1455
0.855 6.347 1.418 2424
0.875 6.494 1.448 1564
0.872 6.474 1.424 2856
0.892 6.620 1.453 1614
0.873 6.478 1.405 2781
0.899 6.670 1.443 1783
0.900 6.682 1.425 2444
0.873 6.482 1.386 2316
0.900 6.678 1.404 2020
0.876 6.501 1.370 1835
0.911 6.759 1.399 1874
0.930 6.905 1.427 1723
0.930 6.901 1.405 2248
0.909 6.747 1.377 2128
0.908 6.743 1.355 2348
0.948 7.036 1.409 2027
0.947 7.032 1.387 2229
0.908 6.738 1.334 1717
0.965 7.159 1.388 2124
0.942 6.989 1.358 2092
0.983 7.294 1.390 2262
0.959 7.116 1.359 2142
0.982 7.290 1.367 2357
1.011 7.507 1.404 2146
1.013 7.518 1.383 2829
0.983 7.294 1.346 1902
1.013 7.522 1.361 2182
1.132 8.405 1.506 1673
1.038 7.703 1.368 2089
1.132 8.401 1.480 1832
1.038 7.707 1.345 2177
1.124 8.343 1.446 2066
1.124 8.346 1.421 2566
1.039 7.710 1.323 1278
1.127 8.366 1.399 2131
1.102 8.179 1.371 1436
1.129 8.377 1.376 1724
1.104 8.191 1.348 1382
1.133 8.412 1.356 1626
1.205 8.947 1.434 1331
1.134 8.415 1.331 1521
1.259 9.347 1.464 1422
1.244 9.234 1.420 1547
1.197 8.885 1.371 1346
1.197 8.888 1.345 1538
1.243 9.223 1.391 1407
1.198 8.892 1.319 1429
1.266 9.397 1.387 1203
1.248 9.261 1.341 1031
1.268 9.409 1.360 1015
1.245 9.241 1.311 1119
1.242 9.221 1.281 1085
0.301 2.197 1.690 2726
0.302 2.202 1.683 5453
0.319 2.323 1.771 1951
0.303 2.206 1.677 5453
0.319 2.328 1.764 1951
0.316 2.301 1.734 5811
0.299 2.179 1.648 1903
0.316 2.305 1.728 8064
0.300 2.183 1.642 1153
0.318 2.316 1.726 10767
0.301 2.194 1.640 1143
0.319 2.327 1.724 13941
0.336 2.450 1.809 1196
0.320 2.332 1.717 13941
0.337 2.455 1.802 1196
0.321 2.336 1.710 13657
0.337 2.459 1.795 1234
0.321 2.341 1.703 13372
0.338 2.464 1.788 1272
0.323 2.352 1.701 9823
0.340 2.475 1.785 1114
0.326 2.376 1.707 8257
0.326 2.374 1.696 6676
0.343 2.498 1.780 1335
0.324 2.359 1.676 6249
0.341 2.483 1.759 2237
0.325 2.370 1.674 6005
0.342 2.494 1.756 2200
0.327 2.381 1.671 6024
0.344 2.506 1.754 2379
0.326 2.379 1.660 5980
0.344 2.504 1.742 2813
0.339 2.469 1.709 7308
0.322 2.343 1.628 1999
0.338 2.467 1.698 11128
0.321 2.341 1.617 1035
0.340 2.478 1.695 11923
0.323 2.352 1.614 1053
0.341 2.482 1.688 12737
0.358 2.608 1.768 1585
0.342 2.493 1.685 10519
0.359 2.620 1.765 1466
0.345 2.511 1.686 8641
0.362 2.638 1.766 1006
0.346 2.522 1.683 9195
0.349 2.540 1.684 10587
0.350 2.551 1.681 8847
0.353 2.576 1.686 7700
0.354 2.580 1.678 7785
0.372 2.715 1.760 1273
0.355 2.585 1.671 7871
0.373 2.719 1.752 1809
0.355 2.589 1.663 6800
0.374 2.724 1.744 2554
0.356 2.593 1.656 5728
0.374 2.728 1.737 3299
0.367 2.672 1.693 4618
0.349 2.544 1.616 1228
0.371 2.704 1.701 6828
0.353 2.575 1.625 2547
0.372 2.708 1.693 7554
0.354 2.579 1.617 2317
0.373 2.720 1.689 8272
0.391 2.849 1.764 2182
0.375 2.731 1.685 6055
0.392 2.860 1.760 3043
0.387 2.824 1.728 7575
0.370 2.694 1.654 2733
0.387 2.822 1.716 8450
0.369 2.692 1.642 1990
0.387 2.819 1.704 7102
0.369 2.689 1.630 1992
0.383 2.790 1.677 7454
0.401 2.920 1.750 2207
0.384 2.801 1.672 7012
0.402 2.931 1.745 2406
0.387 2.819 1.672 7208
0.405 2.950 1.744 1625
0.394 2.872 1.690 6607
0.376 2.741 1.618 1532
0.396 2.883 1.686 8503
0.376 2.738 1.607 1248
0.397 2.895 1.681 8833
0.377 2.749 1.602 1358
0.398 2.899 1.673 7926
0.416 3.030 1.744 1391
0.406 2.959 1.694 8079
0.388 2.827 1.624 2162
0.408 2.970 1.689 8600
0.389 2.838 1.619 2062
0.407 2.968 1.677 6852
0.389 2.836 1.607 1820
0.401 2.923 1.643 6919
0.419 3.056 1.712 1598
0.407 2.970 1.656 5692
0.389 2.837 1.587 1869
0.414 3.016 1.669 6332
0.392 2.855 1.586 1604
0.414 3.020 1.661 6833
0.392 2.860 1.578 1365
0.415 3.025 1.652 6286
0.433 3.158 1.720 1609
0.418 3.050 1.654 5511
0.437 3.183 1.721 1433
0.431 3.139 1.687 6212
0.412 3.005 1.620 2503
0.432 3.150 1.682 9422
0.414 3.017 1.615 2211
0.436 3.176 1.683 12817
0.417 3.042 1.617 2207
0.438 3.194 1.681 13573
0.419 3.053 1.611 2398
0.439 3.199 1.671 12256
0.420 3.065 1.606 2444
0.440 3.210 1.665 8267
0.422 3.076 1.600 2312
0.435 3.172 1.636 6002
0.454 3.307 1.700 3080
0.437 3.184 1.630 7317
0.455 3.318 1.694 3789
0.439 3.202 1.627 9422
0.458 3.337 1.691 5652
0.456 3.320 1.672 7717
0.437 3.185 1.608 6152
0.451 3.289 1.645 8616
0.433 3.154 1.582 1910
0.452 3.293 1.636 6822
0.433 3.158 1.573 1294
0.460 3.355 1.653 6810
0.442 3.219 1.590 1402
0.460 3.352 1.640 7752
0.460 3.349 1.627 7102
0.459 3.346 1.614 4824
0.467 3.401 1.626 2802
0.471 3.434 1.629 4676
0.476 3.467 1.632 5935
0.477 3.478 1.625 6117
0.479 3.490 1.618 6372
0.477 3.480 1.601 6849
0.496 3.617 1.660 3203
0.477 3.477 1.588 8391
0.496 3.614 1.647 4333
0.479 3.488 1.581 7291
0.497 3.626 1.639 3599
0.495 3.608 1.619 4970
0.476 3.471 1.562 2709
0.496 3.613 1.609 5208
0.516 3.758 1.669 2641
0.496 3.617 1.599 4824
0.515 3.755 1.655 3647
0.517 3.767 1.647 5054
0.498 3.628 1.591 3812
0.517 3.771 1.636 5232
0.498 3.632 1.580 3606
0.501 3.651 1.576 4328
0.520 3.790 1.631 3780
0.522 3.801 1.623 5013
0.502 3.655 1.565 2739
0.523 3.813 1.615 6613
0.504 3.674 1.560 1240
0.529 3.854 1.618 6287
0.510 3.715 1.564 1328
0.529 3.858 1.607 5443
0.560 4.078 1.692 1543
0.528 3.848 1.590 4282
0.557 4.060 1.671 1759
0.540 3.933 1.609 4918
0.559 4.072 1.662 2084
0.541 3.944 1.601 6172
0.560 4.084 1.653 2064
0.537 3.912 1.576 5580
0.573 4.176 1.674 2347
0.537 3.916 1.564 4148
0.575 4.188 1.665 3129
0.573 4.178 1.647 3740
0.548 3.994 1.580 2829
0.568 4.138 1.619 5762
0.549 3.998 1.568 2495
0.568 4.142 1.607 5944
0.588 4.283 1.657 2944
0.590 4.302 1.650 4295
0.569 4.146 1.595 3927
0.591 4.306 1.638 5558
0.570 4.151 1.583 3301
0.587 4.281 1.615 4071
0.568 4.140 1.566 2569
0.601 4.382 1.636 2804
0.582 4.241 1.587 2543
0.595 4.334 1.605 3494
0.595 4.338 1.592 5890
0.597 4.350 1.582 7807
0.616 4.491 1.630 1495
0.597 4.354 1.570 8121
0.617 4.495 1.617 2300
0.598 4.358 1.557 6451
0.618 4.507 1.606 2284
0.600 4.370 1.547 3316
0.619 4.511 1.593 3277
0.619 4.508 1.577 4527
0.588 4.284 1.505 4365
0.587 4.280 1.490 6115
0.620 4.520 1.567 3353
0.587 4.277 1.475 5753
0.629 4.584 1.573 1830
0.588 4.288 1.465 3286
0.646 4.708 1.597 2669
0.648 4.719 1.585 3144
0.586 4.269 1.446 2853
0.657 4.791 1.592 3428
0.587 4.281 1.436 3147
0.654 4.765 1.569 4255
0.587 4.277 1.421 2449
0.656 4.784 1.560 4722
0.585 4.266 1.404 1900
0.660 4.811 1.553 4693
0.587 4.277 1.394 1989
0.662 4.823 1.541 3451
0.587 4.280 1.381 2878
0.677 4.932 1.557 3675
0.588 4.284 1.369 2647
0.687 5.004 1.563 2832
0.588 4.288 1.356 1447
0.689 5.023 1.552 3000
0.670 4.880 1.511 2048
0.684 4.982 1.525 3996
0.584 4.257 1.321 1598
0.684 4.986 1.510 3750
0.704 5.130 1.550 1864
0.710 5.172 1.546 2619
0.688 5.013 1.502 2210
0.713 5.198 1.537 2913
0.583 4.252 1.280 1828
0.721 5.255 1.536 3908
0.584 4.255 1.267 2931
0.726 5.290 1.529 3989
0.703 5.123 1.484 2619
0.732 5.332 1.523 6235
0.712 5.188 1.485 2781
0.730 5.321 1.504 5792
0.750 5.465 1.541 1625
0.735 5.355 1.496 6882
0.755 5.499 1.533 2027
0.737 5.374 1.484 7148
0.757 5.519 1.521 1786
0.743 5.416 1.478 4938
0.763 5.561 1.514 2430
0.750 5.465 1.473 3687
0.776 5.656 1.520 1551
0.780 5.683 1.510 2222
0.756 5.507 1.467 1927
0.780 5.687 1.493 2985
0.801 5.839 1.530 2439
0.802 5.843 1.513 4618
0.766 5.584 1.451 2883
0.803 5.855 1.497 4235
0.767 5.588 1.435 3947
0.805 5.866 1.482 3277
0.770 5.614 1.424 2369
0.805 5.870 1.465 4076
0.777 5.664 1.418 2942
0.805 5.866 1.446 4668
0.832 6.066 1.491 2651
0.834 6.077 1.475 4782
0.806 5.878 1.431 3856
0.834 6.081 1.457 4749
0.814 5.935 1.425 2835
0.840 6.123 1.447 3645
0.817 5.954 1.411 2112
0.840 6.119 1.428 3224
0.860 6.265 1.459 1367
0.872 6.353 1.458 2119
0.838 6.107 1.407 1775
0.870 6.342 1.437 3462
0.871 6.345 1.418 2894
0.891 6.491 1.448 1355
0.888 6.472 1.424 2750
0.908 6.618 1.453 1543
0.889 6.476 1.405 2539
0.914 6.661 1.442 1645
0.889 6.479 1.386 2077
0.943 6.872 1.463 1949
0.916 6.676 1.404 1597
0.892 6.498 1.370 1595
0.928 6.764 1.401 1890
0.948 6.911 1.428 1612
0.947 6.899 1.405 2528
0.925 6.745 1.377 2171
0.948 6.910 1.386 2357
0.925 6.740 1.355 2219
0.950 6.922 1.367 2683
0.970 7.068 1.394 1857
0.950 6.925 1.347 2259
0.982 7.157 1.388 2123
1.001 7.292 1.390 2363
0.976 7.114 1.359 2124
1.000 7.288 1.367 2601
0.976 7.110 1.337 2136
1.030 7.508 1.382 2778
1.000 7.291 1.346 1818
1.031 7.512 1.360 2232
1.153 8.402 1.506 1849
1.154 8.414 1.482 2004
1.058 7.709 1.369 1805
1.058 7.712 1.347 1901
1.145 8.348 1.447 1730
1.146 8.351 1.422 2218
1.105 8.057 1.377 1227
1.149 8.371 1.400 1870
1.123 8.184 1.372 1339
1.153 8.405 1.380 1535
1.123 8.188 1.348 1370
1.155 8.417 1.357 1850
1.227 8.944 1.434 1426
1.154 8.412 1.331 1694
1.228 8.948 1.407 1400
1.267 9.231 1.420 1433
1.228 8.952 1.381 1362
1.219 8.885 1.345 1683
1.288 9.391 1.414 1512
1.220 8.889 1.319 1746
1.288 9.386 1.386 1398
1.220 8.892 1.293 1133
1.288 9.390 1.358 1091
0.307 2.190 1.685 2951
0.324 2.311 1.773 1377
0.307 2.195 1.679 5902
0.324 2.316 1.766 2755
0.308 2.199 1.672 5902
0.325 2.321 1.759 2755
0.321 2.293 1.730 5434
0.304 2.171 1.643 2289
0.322 2.298 1.723 7028
0.305 2.176 1.637 1615
0.324 2.315 1.726 9027
0.307 2.193 1.640 1599
0.326 2.326 1.724 11581
0.343 2.449 1.809 1264
0.326 2.331 1.717 11581
0.344 2.454 1.802 1264
0.327 2.335 1.710 11148
0.344 2.458 1.795 1276
0.328 2.340 1.703 10715
0.345 2.463 1.788 1287
0.328 2.344 1.697 7839
0.346 2.468 1.781 1409
0.333 2.382 1.712 6336
0.332 2.373 1.696 5555
0.350 2.497 1.780 1427
0.330 2.358 1.676 5985
0.348 2.489 1.764 2228
0.332 2.369 1.674 5772
0.349 2.493 1.756 2228
0.333 2.380 1.671 5866
0.351 2.505 1.754 2495
0.334 2.384 1.665 5860
0.351 2.509 1.746 2594
0.346 2.468 1.709 7165
0.328 2.343 1.628 1894
0.345 2.466 1.698 11128
0.328 2.340 1.617 1008
0.347 2.477 1.695 11869
0.329 2.351 1.614 1021
0.347 2.481 1.688 12704
0.365 2.607 1.768 1445
0.349 2.492 1.685 10447
0.367 2.619 1.765 1420
0.351 2.504 1.682 8544
0.368 2.630 1.761 1339
0.353 2.521 1.683 8847
0.355 2.539 1.684 10084
0.357 2.550 1.681 8676
0.360 2.575 1.686 8181
0.361 2.579 1.678 8114
0.380 2.713 1.760 1365
0.363 2.590 1.675 8049
0.381 2.718 1.752 1934
0.362 2.588 1.663 6721
0.381 2.723 1.744 2727
0.363 2.593 1.656 5396
0.382 2.727 1.737 3520
0.375 2.678 1.697 4789
0.357 2.550 1.620 1577
0.378 2.703 1.701 6201
0.360 2.574 1.625 2571
0.379 2.707 1.693 7178
0.361 2.578 1.617 2282
0.381 2.719 1.689 8062
0.399 2.848 1.764 1777
0.381 2.723 1.681 5864
0.399 2.852 1.756 3167
0.394 2.816 1.724 7535
0.376 2.687 1.650 2785
0.394 2.814 1.712 8641
0.375 2.677 1.634 1904
0.394 2.812 1.700 7607
0.375 2.682 1.627 2357
0.390 2.789 1.677 8053
0.409 2.919 1.750 2171
0.392 2.800 1.672 7485
0.410 2.930 1.745 2307
0.395 2.818 1.672 7366
0.376 2.688 1.600 1583
0.401 2.864 1.687 6103
0.383 2.733 1.615 1844
0.404 2.889 1.690 6815
0.382 2.730 1.603 1450
0.405 2.893 1.681 6920
0.384 2.742 1.599 1294
0.407 2.905 1.677 6479
0.415 2.965 1.698 8162
0.397 2.833 1.627 1939
0.417 2.976 1.693 9004
0.398 2.844 1.623 2579
0.418 2.987 1.688 7129
0.400 2.855 1.618 3003
0.409 2.922 1.643 5644
0.428 3.055 1.712 2451
0.420 3.003 1.674 5812
0.402 2.871 1.605 2419
0.422 3.015 1.669 7236
0.400 2.854 1.586 1738
0.424 3.026 1.664 7690
0.400 2.858 1.578 1373
0.423 3.024 1.652 7019
0.442 3.157 1.720 1831
0.426 3.042 1.650 5680
0.445 3.175 1.718 2019
0.439 3.138 1.687 5551
0.421 3.004 1.620 2302
0.441 3.149 1.682 8765
0.422 3.015 1.615 2083
0.445 3.182 1.686 12364
0.427 3.048 1.620 2566
0.447 3.193 1.681 13194
0.427 3.052 1.611 2648
0.448 3.198 1.671 11796
0.429 3.063 1.606 2649
0.444 3.174 1.648 8316
0.463 3.308 1.713 2067
0.444 3.171 1.636 6551
0.463 3.306 1.700 2872
0.446 3.182 1.630 7220
0.464 3.317 1.694 3742
0.447 3.194 1.624 7894
0.466 3.329 1.688 6215
0.466 3.326 1.675 7380
0.447 3.191 1.612 5509
0.460 3.288 1.645 8214
0.441 3.153 1.582 1409
0.469 3.349 1.662 6607
0.450 3.214 1.600 2501
0.471 3.361 1.656 7588
0.452 3.225 1.594 1781
0.469 3.351 1.640 7076
0.468 3.341 1.623 6479
0.469 3.352 1.617 5197
0.475 3.392 1.623 4085
0.479 3.418 1.623 4176
0.485 3.466 1.632 4474
0.504 3.602 1.692 1002
0.488 3.484 1.628 4793
0.489 3.496 1.621 5300
0.499 3.565 1.639 7230
0.480 3.428 1.580 2162
0.488 3.483 1.591 7469
0.507 3.620 1.650 4297
0.488 3.487 1.581 5968
0.507 3.624 1.639 4008
0.505 3.607 1.619 5856
0.486 3.469 1.562 2081
0.506 3.611 1.609 5102
0.527 3.764 1.672 1920
0.506 3.615 1.599 4318
0.526 3.753 1.655 3100
0.526 3.758 1.644 4447
0.507 3.620 1.588 3221
0.528 3.769 1.636 4419
0.508 3.631 1.580 3243
0.519 3.708 1.599 4093
0.539 3.847 1.654 2627
0.532 3.800 1.623 4599
0.513 3.661 1.568 2369
0.534 3.812 1.615 6752
0.514 3.673 1.560 1200
0.537 3.838 1.612 5899
0.518 3.699 1.558 1259
0.541 3.864 1.610 4701
0.561 4.010 1.666 1334
0.539 3.846 1.590 3870
0.567 4.051 1.668 1606
0.549 3.924 1.607 4628
0.569 4.063 1.659 1685
0.552 3.943 1.601 6258
0.572 4.082 1.653 1710
0.551 3.932 1.584 5723
0.585 4.175 1.674 2243
0.548 3.914 1.564 4328
0.586 4.187 1.665 2970
0.585 4.176 1.647 3749
0.549 3.918 1.553 3031
0.580 4.144 1.622 5653
0.561 4.004 1.571 2104
0.581 4.148 1.610 5722
0.600 4.288 1.660 2623
0.602 4.300 1.650 4171
0.582 4.160 1.600 3383
0.601 4.290 1.632 5229
0.581 4.149 1.583 2877
0.599 4.279 1.615 4501
0.579 4.138 1.566 2174
0.600 4.283 1.602 2804
0.619 4.424 1.651 1347
0.607 4.332 1.605 4429
0.607 4.336 1.592 8145
0.609 4.348 1.582 10115
0.629 4.489 1.630 1125
0.609 4.352 1.570 10314
0.629 4.494 1.617 1952
0.610 4.356 1.557 9013
0.630 4.498 1.604 2079
0.609 4.353 1.542 5042
0.629 4.495 1.588 2879
0.601 4.290 1.507 4913
0.631 4.506 1.577 3711
0.599 4.279 1.490 6337
0.633 4.518 1.567 2759
0.599 4.275 1.475 5988
0.658 4.702 1.610 1591
0.600 4.287 1.465 3323
0.660 4.713 1.599 2889
0.660 4.718 1.585 2803
0.601 4.290 1.453 2556
0.601 4.294 1.440 3134
0.671 4.789 1.592 2976
0.669 4.778 1.574 3878
0.600 4.283 1.423 2123
0.670 4.782 1.560 5433
0.597 4.264 1.404 1686
0.671 4.794 1.548 5847
0.598 4.268 1.392 2066
0.674 4.813 1.539 4490
0.599 4.279 1.381 2723
0.676 4.825 1.527 2819
0.600 4.282 1.369 2329
0.699 4.995 1.560 2455
0.679 4.851 1.519 1858
0.703 5.021 1.552 3502
0.683 4.878 1.511 2295
0.699 4.995 1.529 3749
0.596 4.255 1.321 1889
0.699 4.992 1.512 3176
0.724 5.173 1.563 2076
0.724 5.170 1.546 2770
0.703 5.018 1.504 2279
0.728 5.196 1.537 3282
0.595 4.250 1.280 1473
0.736 5.253 1.536 4629
0.596 4.253 1.267 2295
0.739 5.280 1.527 5115
0.596 4.257 1.255 1863
0.748 5.345 1.527 6397
0.728 5.201 1.489 2837
0.753 5.379 1.519 6207
0.728 5.197 1.472 1114
0.753 5.376 1.502 8009
0.773 5.520 1.539 1560
0.753 5.380 1.486 7938
0.773 5.524 1.523 2027
0.757 5.406 1.476 4192
0.777 5.551 1.512 2844
0.767 5.479 1.477 3834
0.793 5.661 1.522 1840
0.794 5.673 1.508 2659
0.771 5.505 1.467 2403
0.795 5.677 1.491 3248
0.817 5.837 1.530 2410
0.819 5.849 1.514 4516
0.786 5.612 1.458 2436
0.819 5.853 1.497 3949
0.782 5.585 1.435 3140
0.822 5.872 1.484 2664
0.800 5.711 1.447 2418
0.822 5.868 1.465 3426
0.793 5.662 1.418 2850
0.821 5.864 1.446 4445
0.848 6.056 1.489 2293
0.849 6.067 1.473 5133
0.823 5.876 1.431 4127
0.851 6.079 1.457 4990
0.823 5.879 1.413 2816
0.858 6.128 1.449 3478
0.833 5.952 1.411 1603
0.856 6.117 1.428 3358
0.877 6.263 1.459 1601
0.888 6.343 1.457 2038
0.855 6.105 1.407 1953
0.888 6.339 1.437 3525
0.889 6.351 1.420 3218
0.924 6.597 1.470 1379
0.905 6.462 1.423 2447
0.925 6.608 1.452 1703
0.906 6.473 1.405 1963
0.931 6.650 1.440 1494
0.907 6.477 1.386 1713
0.961 6.862 1.461 1607
0.907 6.481 1.367 1439
0.960 6.858 1.439 1405
0.947 6.762 1.401 1830
0.967 6.908 1.428 1611
0.968 6.912 1.408 2560
0.945 6.750 1.378 2282
0.968 6.915 1.388 2762
0.989 7.062 1.414 2278
0.969 6.919 1.367 3169
0.989 7.066 1.394 1963
0.970 6.930 1.349 2515
1.047 7.479 1.445 2309
1.008 7.196 1.374 2577
1.049 7.490 1.424 2198
1.020 7.285 1.367 2924
0.995 7.107 1.337 2227
1.051 7.505 1.382 2173
1.020 7.289 1.346 1901
1.177 8.406 1.507 1971
1.051 7.509 1.360 1920
1.179 8.418 1.484 2181
1.080 7.713 1.370 1858
1.079 7.709 1.347 1680
1.176 8.399 1.455 1593
1.171 8.364 1.425 1797
1.125 8.038 1.374 1165
1.174 8.383 1.403 1554
1.145 8.181 1.372 1231
1.179 8.418 1.383 1534
1.146 8.185 1.348 1254
1.179 8.421 1.358 2012
1.252 8.941 1.434 1466
1.178 8.417 1.332 1765
1.252 8.945 1.407 1426
1.312 9.368 1.440 1543
1.254 8.956 1.382 1414
1.244 8.882 1.345 1777
1.313 9.379 1.413 1764
1.244 8.885 1.319 2057
1.313 9.375 1.385 1725
1.245 8.889 1.293 1438
1.312 9.371 1.356 1323
0.312 2.189 1.685 2548
0.329 2.310 1.773 1715
0.313 2.194 1.679 5097
0.330 2.315 1.766 3430
0.313 2.198 1.672 5097
0.331 2.320 1.759 3430
0.327 2.292 1.730 5283
0.309 2.171 1.643 1883
0.327 2.297 1.723 6481
0.310 2.175 1.637 1215
0.329 2.308 1.721 7534
0.346 2.430 1.807 1402
0.331 2.319 1.719 9110
0.348 2.442 1.805 1703
0.331 2.324 1.712 9110
0.349 2.446 1.797 1703
0.332 2.328 1.706 8528
0.349 2.451 1.790 1663
0.333 2.333 1.699 7946
0.350 2.456 1.783 1622
0.333 2.337 1.692 5903
0.351 2.461 1.776 1614
0.340 2.387 1.716 4277
0.334 2.346 1.679 4552
0.352 2.470 1.762 1878
0.336 2.357 1.676 5370
0.354 2.481 1.759 2140
0.338 2.368 1.674 5212
0.355 2.492 1.756 2137
0.340 2.386 1.676 5412
0.358 2.510 1.758 2228
0.341 2.390 1.669 5379
0.359 2.515 1.751 2164
0.351 2.460 1.705 7059
0.333 2.335 1.623 1238
0.351 2.465 1.698 10935
0.353 2.476 1.695 11606
0.354 2.480 1.688 12414
0.372 2.606 1.768 1243
0.355 2.492 1.685 10150
0.373 2.618 1.765 1303
0.357 2.503 1.682 8265
0.375 2.629 1.761 1304
0.359 2.520 1.683 8356
0.362 2.538 1.684 9365
0.363 2.549 1.681 8324
0.367 2.574 1.686 8261
0.368 2.578 1.678 8018
0.386 2.706 1.756 1386
0.369 2.589 1.675 7858
0.387 2.717 1.752 1914
0.369 2.587 1.663 6277
0.388 2.722 1.744 2688
0.379 2.659 1.696 4948
0.382 2.677 1.697 5030
0.363 2.549 1.620 1403
0.385 2.702 1.701 5878
0.367 2.573 1.625 2424
0.386 2.706 1.693 7099
0.367 2.578 1.617 2111
0.386 2.711 1.685 8122
0.405 2.840 1.760 1667
0.388 2.722 1.681 6099
0.407 2.851 1.756 2725
0.400 2.808 1.720 7415
0.382 2.679 1.646 3067
0.401 2.813 1.712 8604
0.382 2.676 1.634 2365
0.401 2.811 1.700 7500
0.382 2.681 1.627 3154
0.396 2.781 1.673 8261
0.415 2.911 1.746 2048
0.398 2.792 1.669 7439
0.417 2.922 1.741 2536
0.401 2.810 1.668 6875
0.419 2.941 1.741 1948
0.402 2.822 1.664 5727
0.421 2.952 1.736 1832
0.413 2.895 1.693 5255
0.394 2.764 1.622 1630
0.414 2.906 1.689 5183
0.396 2.775 1.617 1564
0.419 2.938 1.695 5368
0.400 2.807 1.624 1693
0.423 2.964 1.698 7700
0.404 2.832 1.627 1946
0.424 2.975 1.693 8819
0.405 2.843 1.623 2857
0.426 2.986 1.688 7423
0.407 2.854 1.618 3029
0.427 2.998 1.683 5220
0.405 2.838 1.599 2613
0.429 3.009 1.678 6311
0.406 2.849 1.594 2310
0.430 3.014 1.669 7637
0.407 2.853 1.586 1688
0.431 3.025 1.664 7917
0.406 2.850 1.574 1334
0.431 3.022 1.652 7188
0.450 3.155 1.720 1887
0.433 3.034 1.647 5729
0.452 3.167 1.714 2425
0.434 3.045 1.641 5266
0.453 3.179 1.708 2355
0.449 3.148 1.682 7937
0.430 3.014 1.615 2268
0.453 3.181 1.686 11660
0.434 3.047 1.620 2815
0.455 3.192 1.681 12628
0.435 3.051 1.611 2796
0.455 3.189 1.668 11602
0.436 3.055 1.602 2715
0.453 3.180 1.652 9047
0.434 3.045 1.587 1423
0.459 3.219 1.660 7178
0.440 3.085 1.595 2102
0.454 3.181 1.630 7140
0.473 3.316 1.694 3505
0.454 3.186 1.621 6882
0.473 3.320 1.685 6299
0.474 3.325 1.675 7045
0.455 3.190 1.612 4989
0.469 3.287 1.645 8447
0.449 3.151 1.582 1116
0.476 3.341 1.659 7687
0.457 3.205 1.596 2663
0.479 3.359 1.656 8660
0.460 3.224 1.594 2348
0.479 3.357 1.643 6541
0.459 3.221 1.581 1009
0.476 3.340 1.623 6011
0.496 3.476 1.685 1007
0.479 3.358 1.620 5744
0.482 3.384 1.620 5965
0.486 3.410 1.620 4774
0.494 3.464 1.632 3558
0.513 3.601 1.692 1236
0.498 3.490 1.631 3907
0.499 3.502 1.624 4430
0.519 3.639 1.683 1139
0.508 3.564 1.639 7422
0.489 3.427 1.580 2149
0.511 3.583 1.634 7080
0.491 3.445 1.576 3709
0.511 3.587 1.624 6654
0.492 3.449 1.566 3056
0.513 3.598 1.616 7096
0.533 3.736 1.674 1591
0.515 3.610 1.609 5453
0.534 3.748 1.666 1698
0.515 3.614 1.599 4287
0.535 3.752 1.655 2932
0.536 3.756 1.644 3883
0.514 3.604 1.582 3310
0.536 3.761 1.633 3557
0.515 3.615 1.575 3083
0.530 3.714 1.602 4178
0.549 3.853 1.657 2319
0.542 3.799 1.623 4341
0.522 3.660 1.568 1977
0.542 3.803 1.612 6671
0.544 3.814 1.604 5762
0.564 3.953 1.658 1133
0.545 3.826 1.595 4157
0.572 4.009 1.666 1439
0.560 3.925 1.621 3323
0.540 3.786 1.567 1435
0.559 3.922 1.607 4346
0.579 4.062 1.659 1395
0.563 3.949 1.603 6078
0.583 4.088 1.656 1396
0.566 3.968 1.597 6089
0.595 4.173 1.674 1964
0.567 3.979 1.589 4316
0.597 4.185 1.665 2644
0.595 4.175 1.647 3549
0.558 3.917 1.553 3023
0.593 4.157 1.627 5555
0.559 3.921 1.541 1710
0.592 4.154 1.612 5795
0.612 4.294 1.663 2087
0.601 4.217 1.621 4351
0.581 4.077 1.571 1637
0.609 4.273 1.627 5426
0.589 4.133 1.578 2305
0.610 4.278 1.615 5413
0.590 4.137 1.566 1633
0.617 4.326 1.618 4718
0.597 4.186 1.569 1832
0.617 4.331 1.605 6042
0.597 4.190 1.557 1113
0.618 4.335 1.592 10047
0.598 4.194 1.545 1186
0.619 4.339 1.580 12328
0.639 4.480 1.627 1104
0.620 4.351 1.570 12192
0.640 4.492 1.617 1535
0.620 4.347 1.555 10804
0.640 4.489 1.601 1978
0.620 4.351 1.542 6187
0.641 4.493 1.588 2722
0.611 4.288 1.507 4946
0.642 4.505 1.577 3291
0.610 4.277 1.490 5337
0.644 4.516 1.567 2329
0.608 4.266 1.473 5105
0.671 4.707 1.613 1576
0.608 4.263 1.458 3171
0.672 4.712 1.599 3016
0.672 4.716 1.585 2751
0.611 4.289 1.453 2175
0.681 4.780 1.590 2495
0.612 4.293 1.440 2354
0.680 4.769 1.572 3788
0.610 4.281 1.423 1647
0.681 4.773 1.558 5838
0.608 4.262 1.404 1417
0.683 4.792 1.548 6367
0.608 4.266 1.392 2038
0.686 4.811 1.539 5214
0.609 4.270 1.379 2242
0.688 4.823 1.527 3347
0.609 4.273 1.367 1684
0.711 4.985 1.558 2567
0.690 4.842 1.517 2170
0.716 5.020 1.552 3792
0.695 4.876 1.511 2470
0.715 5.016 1.536 3615
0.695 4.873 1.495 2052
0.713 4.997 1.515 2640
0.735 5.156 1.559 2045
0.737 5.168 1.546 2493
0.716 5.024 1.506 2157
0.741 5.195 1.537 3295
0.720 5.051 1.498 1494
0.749 5.252 1.536 4704
0.728 5.108 1.497 1880
0.753 5.278 1.527 5606
0.728 5.104 1.480 1424
0.762 5.343 1.527 6692
0.741 5.199 1.489 2808
0.766 5.370 1.517 7680
0.786 5.514 1.555 1309
0.766 5.374 1.502 9782
0.787 5.518 1.539 1904
0.767 5.378 1.486 8324
0.787 5.522 1.523 2138
0.772 5.412 1.478 3869
0.792 5.556 1.514 2532
0.786 5.515 1.487 3951
0.807 5.659 1.522 1623
0.807 5.663 1.506 2699
0.784 5.496 1.465 2686
0.809 5.675 1.491 3351
0.832 5.835 1.530 2174
0.834 5.847 1.514 3951
0.809 5.671 1.473 2343
0.834 5.851 1.497 3243
0.796 5.583 1.435 2625
0.821 5.755 1.457 2595
0.843 5.916 1.494 2150
0.823 5.774 1.444 2622
0.844 5.920 1.477 2422
0.836 5.862 1.446 3865
0.863 6.053 1.489 1975
0.865 6.065 1.473 4973
0.836 5.866 1.429 4032
0.865 6.069 1.455 4759
0.838 5.877 1.413 2889
0.875 6.134 1.451 2808
0.853 5.981 1.418 1539
0.872 6.115 1.428 2812
0.893 6.260 1.459 1615
0.902 6.326 1.453 1816
0.870 6.103 1.407 1814
0.903 6.337 1.437 3193
0.904 6.341 1.418 3156
0.941 6.602 1.471 1424
0.907 6.360 1.403 2449
0.942 6.606 1.452 1728
0.925 6.486 1.408 1712
0.904 6.340 1.379 1526
0.923 6.475 1.386 1551
0.948 6.652 1.421 1257
1.000 7.017 1.470 1551
0.924 6.478 1.367 1380
0.987 6.921 1.431 1778
0.964 6.759 1.401 1705
0.987 6.925 1.411 2717
0.962 6.747 1.378 2155
0.988 6.928 1.391 3072
1.009 7.075 1.417 2076
0.986 6.916 1.367 3143
1.008 7.071 1.395 1880
1.022 7.167 1.391 2404
0.988 6.928 1.349 2386
1.026 7.194 1.374 2953
1.067 7.487 1.424 2036
1.038 7.282 1.367 2879
1.013 7.105 1.337 2255
1.040 7.294 1.347 1748
1.102 7.727 1.419 1668
1.100 7.715 1.394 2079
1.050 7.367 1.337 1957
1.200 8.415 1.484 2155
1.099 7.711 1.370 1924
1.099 7.707 1.347 1560
1.200 8.419 1.459 1411
1.193 8.368 1.426 1409
1.138 7.981 1.366 1163
1.261 8.845 1.473 1287
1.195 8.380 1.403 1201
1.202 8.430 1.385 1501
1.265 8.872 1.451 1499
1.200 8.418 1.358 1980
1.274 8.938 1.434 1388
1.200 8.414 1.332 1641
1.276 8.949 1.409 1335
1.335 9.364 1.440 1592
1.278 8.961 1.383 1319
1.336 9.368 1.412 1887
1.266 8.879 1.345 1687
1.266 8.882 1.319 2144
1.336 9.372 1.385 1924
1.267 8.886 1.293 1608
1.334 9.360 1.355 1544
1.333 9.348 1.326 1084
0.319 2.201 1.694 2554
0.336 2.322 1.782 1779
0.319 2.206 1.688 5109
0.337 2.327 1.775 3559
0.320 2.210 1.682 5109
0.337 2.332 1.768 3559
0.332 2.292 1.730 5647
0.314 2.170 1.643 1333
0.332 2.296 1.723 6700
0.334 2.307 1.721 6741
0.352 2.430 1.807 1389
0.335 2.318 1.719 6935
0.353 2.441 1.805 1700
0.336 2.323 1.712 6935
0.354 2.446 1.797 1700
0.336 2.321 1.701 6099
0.354 2.444 1.786 2035
0.336 2.319 1.690 5411
0.353 2.442 1.774 2468
0.335 2.317 1.679 4361
0.353 2.440 1.763 2656
0.334 2.308 1.663 3491
0.352 2.432 1.747 2951
0.338 2.339 1.674 3523
0.356 2.463 1.758 1943
0.342 2.363 1.681 4476
0.360 2.487 1.764 2010
0.344 2.374 1.678 4436
0.362 2.498 1.761 2003
0.346 2.391 1.680 4762
0.364 2.516 1.762 1893
0.347 2.396 1.673 4754
0.365 2.521 1.755 1708
0.356 2.460 1.705 7105
0.338 2.334 1.623 1095
0.357 2.464 1.698 10888
0.358 2.475 1.695 11464
0.359 2.480 1.688 12207
0.377 2.605 1.768 1014
0.360 2.491 1.685 9910
0.379 2.617 1.765 1147
0.362 2.502 1.682 8050
0.380 2.628 1.761 1222
0.365 2.520 1.683 8065
0.367 2.537 1.684 8752
0.369 2.549 1.681 8021
0.371 2.566 1.682 8161
0.390 2.694 1.760 1201
0.373 2.578 1.678 7616
0.391 2.705 1.756 1398
0.375 2.589 1.675 7311
0.393 2.716 1.752 1717
0.374 2.586 1.663 5701
0.393 2.714 1.740 2548
0.386 2.665 1.700 5266
0.387 2.676 1.697 5102
0.369 2.548 1.620 1227
0.390 2.694 1.697 5387
0.371 2.566 1.621 2000
0.391 2.699 1.689 6583
0.372 2.570 1.614 1769
0.391 2.703 1.681 7517
0.410 2.832 1.756 1519
0.391 2.701 1.669 6031
0.410 2.830 1.744 3448
0.406 2.807 1.720 7074
0.388 2.678 1.646 3948
0.407 2.812 1.712 8415
0.388 2.682 1.638 3801
0.394 2.721 1.650 7429
0.413 2.851 1.723 4440
0.395 2.732 1.646 9954
0.416 2.876 1.727 3219
0.397 2.743 1.642 8275
0.416 2.873 1.715 4020
0.403 2.782 1.653 6937
0.421 2.912 1.725 3804
0.404 2.793 1.649 6424
0.423 2.924 1.721 3723
0.408 2.818 1.652 4994
0.427 2.949 1.724 2549
0.421 2.912 1.692 4126
0.402 2.781 1.621 1530
0.426 2.944 1.699 4764
0.407 2.813 1.628 2452
0.429 2.963 1.698 6712
0.410 2.831 1.627 2212
0.430 2.974 1.693 8175
0.411 2.842 1.623 2988
0.432 2.986 1.688 7463
0.413 2.854 1.618 2817
0.434 2.997 1.683 5576
0.410 2.830 1.595 2236
0.435 3.008 1.678 6792
0.412 2.848 1.594 2169
0.437 3.020 1.673 7865
0.413 2.852 1.586 1769
0.438 3.024 1.664 7688
0.412 2.850 1.574 1454
0.438 3.029 1.655 7010
0.457 3.161 1.723 1647
0.439 3.033 1.647 5729
0.458 3.166 1.714 2258
0.441 3.044 1.641 5206
0.464 3.206 1.722 2198
0.455 3.147 1.682 6938
0.436 3.014 1.615 2775
0.460 3.180 1.686 10897
0.441 3.046 1.620 3116
0.461 3.184 1.677 12219
0.441 3.050 1.611 2902
0.461 3.188 1.668 11838
0.442 3.054 1.602 2828
0.460 3.179 1.652 9895
0.441 3.044 1.587 1505
0.466 3.218 1.660 8846
0.446 3.084 1.595 2123
0.468 3.237 1.657 8205
0.449 3.102 1.593 2690
0.472 3.263 1.658 7660
0.453 3.128 1.594 2327
0.475 3.281 1.655 7632
0.455 3.146 1.591 1705
0.475 3.286 1.645 8985
0.456 3.150 1.582 1002
0.483 3.340 1.659 9985
0.464 3.204 1.596 3051
0.485 3.351 1.653 10108
0.465 3.216 1.590 2537
0.486 3.356 1.643 6508
0.466 3.220 1.581 1281
0.483 3.339 1.623 6034
0.503 3.474 1.685 1107
0.485 3.350 1.617 6385
0.489 3.376 1.617 7386
0.491 3.394 1.613 5571
0.516 3.567 1.689 1030
0.495 3.420 1.613 2796
0.518 3.578 1.682 1833
0.505 3.489 1.631 2857
0.525 3.626 1.690 1102
0.515 3.558 1.649 3840
0.495 3.421 1.590 2093
0.516 3.563 1.639 7289
0.496 3.426 1.580 1971
0.518 3.582 1.634 7802
0.498 3.444 1.576 2838
0.519 3.586 1.624 7993
0.499 3.448 1.566 2262
0.521 3.597 1.616 8071
0.540 3.735 1.674 1880
0.521 3.602 1.606 5783
0.541 3.739 1.663 2134
0.521 3.599 1.593 4397
0.541 3.736 1.649 3206
0.521 3.603 1.582 3736
0.542 3.748 1.641 3383
0.524 3.621 1.578 3299
0.546 3.774 1.639 3144
0.538 3.720 1.605 4267
0.558 3.859 1.660 1922
0.547 3.783 1.617 4426
0.523 3.615 1.551 1646
0.550 3.802 1.612 6440
0.551 3.806 1.601 6062
0.571 3.945 1.655 1158
0.551 3.810 1.590 4458
0.571 3.949 1.644 1542
0.569 3.932 1.624 3115
0.549 3.792 1.570 2198
0.572 3.951 1.618 4277
0.552 3.811 1.565 1408
0.568 3.925 1.595 6131
0.588 4.065 1.648 1881
0.574 3.966 1.597 6709
0.594 4.106 1.650 2101
0.576 3.978 1.589 4873
0.596 4.118 1.640 2242
0.592 4.093 1.618 3355
0.568 3.923 1.555 3305
0.602 4.163 1.630 5730
0.568 3.927 1.544 1841
0.602 4.160 1.615 6406
0.582 4.020 1.564 1933
0.606 4.187 1.611 5067
0.626 4.327 1.661 1873
0.617 4.265 1.625 5994
0.597 4.124 1.575 1988
0.620 4.284 1.617 6766
0.600 4.143 1.568 1406
0.626 4.325 1.618 6885
0.606 4.184 1.569 2307
0.627 4.329 1.605 8077
0.606 4.188 1.557 1357
0.627 4.334 1.592 11825
0.607 4.192 1.545 1480
0.628 4.338 1.580 12918
0.607 4.197 1.532 1055
0.629 4.349 1.570 12011
0.650 4.491 1.617 1289
0.629 4.346 1.555 11670
0.649 4.488 1.601 1753
0.628 4.343 1.539 7694
0.649 4.484 1.586 2514
0.625 4.317 1.517 4792
0.651 4.496 1.575 2810
0.618 4.269 1.488 4566
0.653 4.515 1.567 1827
0.616 4.257 1.471 5005
0.665 4.594 1.577 1597
0.614 4.246 1.454 4147
0.682 4.710 1.599 3005
0.682 4.714 1.585 2780
0.614 4.243 1.439 2444
0.683 4.719 1.572 2143
0.621 4.291 1.440 1398
0.689 4.760 1.569 3544
0.617 4.265 1.419 1168
0.689 4.764 1.555 5883
0.617 4.261 1.404 1112
0.692 4.783 1.546 6396
0.713 4.926 1.588 1468
0.696 4.810 1.539 5459
0.717 4.953 1.581 1694
0.697 4.814 1.525 3782
0.717 4.957 1.566 2218
0.719 4.969 1.554 3158
0.698 4.826 1.513 2421
0.721 4.980 1.542 4075
0.700 4.837 1.501 2051
0.721 4.984 1.527 3412
0.742 5.128 1.567 1880
0.727 5.026 1.523 2086
0.748 5.170 1.563 1690
0.747 5.159 1.544 1891
0.726 5.015 1.504 1588
0.749 5.178 1.533 3134
0.728 5.034 1.494 1263
0.751 5.189 1.520 4836
0.772 5.333 1.558 1523
0.766 5.292 1.531 5674
0.745 5.148 1.492 2150
0.773 5.341 1.527 7029
0.752 5.197 1.489 2676
0.777 5.368 1.517 8154
0.800 5.527 1.559 1363
0.777 5.372 1.502 10282
0.800 5.532 1.543 2014
0.778 5.376 1.486 8103
0.799 5.520 1.523 2368
0.796 5.502 1.501 3859
0.775 5.357 1.465 2868
0.798 5.513 1.487 3810
0.774 5.346 1.445 1317
0.817 5.646 1.502 2690
0.795 5.494 1.465 2606
0.821 5.673 1.491 3267
0.795 5.490 1.447 1937
0.846 5.845 1.514 3057
0.822 5.677 1.475 2447
0.833 5.757 1.476 3315
0.811 5.605 1.440 2114
0.835 5.769 1.461 3193
0.858 5.929 1.498 2352
0.836 5.780 1.446 3049
0.857 5.925 1.479 2345
0.847 5.853 1.444 3276
0.876 6.052 1.489 1954
0.876 6.055 1.471 4412
0.849 5.864 1.429 3611
0.877 6.059 1.454 4244
0.850 5.876 1.413 2597
0.888 6.140 1.452 2425
0.864 5.971 1.416 1841
0.886 6.120 1.430 2251
0.907 6.266 1.461 1438
0.905 6.255 1.439 2356
0.883 6.101 1.407 1704
0.915 6.320 1.433 2665
0.893 6.174 1.403 1061
0.917 6.339 1.418 2868
0.894 6.177 1.385 1697
0.920 6.358 1.403 2709
0.958 6.619 1.455 1868
0.938 6.484 1.408 2035
0.917 6.338 1.379 1773
0.941 6.504 1.392 1983
1.015 7.011 1.491 1358
1.015 7.015 1.470 2057
0.948 6.553 1.382 1575
1.016 7.019 1.450 2297
0.977 6.749 1.399 1586
1.002 6.923 1.411 2858
0.976 6.745 1.378 2037
1.002 6.926 1.391 3294
1.024 7.073 1.417 1957
1.003 6.930 1.370 2987
1.024 7.076 1.396 1861
1.038 7.173 1.392 2157
1.003 6.933 1.350 2102
1.041 7.192 1.374 2780
1.084 7.493 1.426 1935
1.054 7.280 1.367 2605
1.028 7.102 1.337 2100
1.064 7.353 1.357 1650
1.119 7.732 1.421 1610
1.065 7.357 1.336 2029
1.116 7.713 1.394 2024
1.217 8.413 1.484 1851
1.061 7.329 1.309 1847
1.116 7.712 1.348 1407
1.147 7.929 1.382 1334
1.169 8.079 1.382 1152
1.148 7.932 1.359 1038
1.281 8.850 1.474 1248
1.170 8.083 1.358 1173
1.283 8.869 1.451 1674
1.220 8.427 1.385 1449
1.219 8.423 1.359 1776
1.283 8.865 1.423 1713
1.218 8.419 1.333 1411
1.296 8.954 1.410 1159
1.354 9.354 1.439 1522
1.296 8.958 1.383 1155
1.355 9.365 1.412 1926
1.284 8.876 1.345 1495
1.285 8.880 1.319 2110
1.356 9.369 1.385 2046
1.354 9.357 1.355 1703
1.285 8.883 1.293 1691
1.351 9.337 1.325 1285
1.285 8.878 1.266 1010
0.339 2.302 1.768 3058
0.322 2.181 1.680 2326
0.340 2.307 1.761 6116
0.322 2.186 1.674 4652
0.341 2.312 1.755 6116
0.323 2.190 1.668 4652
0.342 2.316 1.748 6652
0.324 2.195 1.661 3574
0.339 2.302 1.728 7575
0.321 2.180 1.642 1748
0.341 2.313 1.726 6893
0.323 2.191 1.640 1520
0.342 2.317 1.719 6257
0.360 2.440 1.805 1613
0.342 2.322 1.712 6257
0.360 2.445 1.797 1613
0.342 2.320 1.701 4708
0.360 2.443 1.786 1841
0.339 2.299 1.677 4061
0.357 2.422 1.761 3418
0.341 2.310 1.674 3698
0.359 2.433 1.759 2783
0.341 2.314 1.668 3428
0.359 2.438 1.752 2505
0.346 2.344 1.679 3019
0.364 2.468 1.762 1766
0.349 2.368 1.685 3484
0.367 2.493 1.768 1885
0.351 2.379 1.683 3587
0.369 2.504 1.765 1875
0.355 2.410 1.693 4241
0.374 2.535 1.775 1086
0.355 2.408 1.682 4222
0.373 2.533 1.764 1100
0.362 2.459 1.705 7054
0.363 2.463 1.698 10731
0.365 2.474 1.695 11190
0.365 2.479 1.688 11837
0.367 2.490 1.685 9569
0.370 2.508 1.686 7912
0.371 2.519 1.683 7969
0.373 2.530 1.680 8416
0.376 2.548 1.681 7691
0.394 2.675 1.759 1046
0.377 2.559 1.677 7748
0.396 2.686 1.756 1391
0.379 2.570 1.674 6893
0.398 2.697 1.752 1525
0.382 2.588 1.675 6411
0.400 2.715 1.752 1583
0.381 2.585 1.663 5048
0.400 2.713 1.740 2293
0.393 2.664 1.700 5217
0.393 2.668 1.693 5034
0.396 2.686 1.693 5013
0.377 2.558 1.617 1489
0.397 2.691 1.685 6254
0.378 2.562 1.610 1342
0.397 2.695 1.677 7201
0.416 2.824 1.752 1289
0.398 2.700 1.669 6209
0.417 2.829 1.744 3005
0.414 2.806 1.720 6876
0.395 2.677 1.646 4151
0.414 2.811 1.712 8427
0.395 2.681 1.638 4119
0.400 2.713 1.646 7526
0.419 2.843 1.720 4835
0.402 2.724 1.642 9752
0.421 2.854 1.715 2881
0.403 2.735 1.638 8093
0.423 2.872 1.715 3471
0.408 2.767 1.645 7042
0.427 2.898 1.718 3857
0.412 2.792 1.649 6576
0.431 2.923 1.721 2987
0.415 2.817 1.652 5847
0.435 2.948 1.724 2225
0.418 2.835 1.651 5167
0.437 2.966 1.723 2019
0.434 2.943 1.699 4264
0.415 2.812 1.628 3122
0.436 2.955 1.694 5583
0.414 2.809 1.616 2474
0.438 2.973 1.693 7164
0.419 2.841 1.623 3101
0.440 2.984 1.688 6999
0.420 2.846 1.615 2667
0.443 3.003 1.687 5551
0.416 2.822 1.592 2187
0.443 3.007 1.678 6885
0.420 2.847 1.594 2165
0.445 3.019 1.673 7608
0.419 2.844 1.583 1745
0.447 3.030 1.668 6992
0.419 2.841 1.571 1264
0.446 3.027 1.655 6452
0.466 3.160 1.723 1441
0.446 3.025 1.643 5601
0.466 3.158 1.710 2101
0.448 3.036 1.638 5129
0.472 3.204 1.722 2194
0.463 3.139 1.678 6070
0.443 3.005 1.611 2862
0.469 3.178 1.686 10133
0.449 3.045 1.620 3337
0.469 3.183 1.677 12027
0.450 3.049 1.611 2980
0.470 3.187 1.668 12163
0.450 3.053 1.602 2849
0.470 3.185 1.655 10609
0.450 3.050 1.590 1756
0.475 3.224 1.663 10139
0.456 3.090 1.598 2501
0.478 3.243 1.660 9830
0.458 3.108 1.596 3175
0.481 3.261 1.658 9283
0.461 3.127 1.594 2290
0.489 3.315 1.672 8191
0.469 3.181 1.608 4367
0.491 3.327 1.665 9852
0.471 3.192 1.602 3764
0.492 3.339 1.659 12336
0.472 3.203 1.596 3387
0.493 3.343 1.649 11606
0.473 3.207 1.587 2233
0.493 3.347 1.640 7256
0.493 3.344 1.627 6296
0.495 3.356 1.620 7018
0.496 3.367 1.614 8060
0.499 3.386 1.610 6191
0.526 3.565 1.689 1274
0.503 3.412 1.610 2683
0.527 3.577 1.682 1924
