2.599 2.155 1.767 2125
2.449 2.030 1.660 4916
2.592 2.149 1.750 3302
2.607 2.161 1.747 5941
2.491 2.065 1.675 5135
2.616 2.168 1.741 9026
2.506 2.077 1.672 7377
2.625 2.176 1.734 10333
2.515 2.084 1.666 7559
2.628 2.179 1.725 8863
2.507 2.078 1.650 5836
2.632 2.182 1.715 7941
2.428 2.012 1.591 3622
2.635 2.185 1.705 8301
2.431 2.015 1.581 1867
2.644 2.192 1.698 7978
2.406 1.995 1.556 1414
2.659 2.204 1.695 9900
2.554 2.117 1.633 1266
2.668 2.212 1.689 11308
2.563 2.124 1.626 1112
2.672 2.215 1.679 7766
2.664 2.208 1.662 5880
2.770 2.296 1.724 1347
2.662 2.206 1.649 4561
2.768 2.294 1.710 3435
2.749 2.279 1.687 8913
2.643 2.191 1.626 2449
2.752 2.281 1.677 11410
2.646 2.193 1.616 1495
2.761 2.289 1.669 9839
2.868 2.377 1.729 1134
2.776 2.301 1.665 9636
2.882 2.389 1.725 1443
2.774 2.299 1.652 7501
2.880 2.387 1.711 2739
2.850 2.362 1.682 4312
2.743 2.274 1.623 2358
2.876 2.384 1.683 5879
2.769 2.295 1.625 1986
2.874 2.382 1.670 11631
2.767 2.294 1.612 1603
2.883 2.390 1.662 13705
2.776 2.301 1.604 1282
2.892 2.397 1.654 11468
2.901 2.405 1.646 9707
2.910 2.412 1.638 10146
3.017 2.501 1.694 1115
2.919 2.420 1.630 8890
3.066 2.542 1.707 1036
2.945 2.441 1.631 6204
3.075 2.549 1.698 1375
2.999 2.486 1.646 4301
2.892 2.397 1.591 1642
3.020 2.503 1.643 4051
2.912 2.414 1.589 1129
3.023 2.506 1.632 3650
3.044 2.523 1.629 4434
3.158 2.617 1.686 1142
3.064 2.540 1.626 5332
2.956 2.450 1.573 1802
3.085 2.557 1.623 5054
2.976 2.467 1.570 2189
3.099 2.569 1.617 3948
3.236 2.683 1.684 2174
3.240 2.686 1.671 3400
3.131 2.596 1.619 2551
3.220 2.669 1.648 5758
3.112 2.579 1.597 1660
3.212 2.663 1.631 8451
3.367 2.791 1.704 2220
3.210 2.661 1.616 8239
3.365 2.789 1.689 3412
3.219 2.668 1.607 7283
3.362 2.787 1.673 4192
3.234 2.681 1.600 6404
3.366 2.790 1.661 5387
3.277 2.717 1.606 7030
3.387 2.807 1.656 4619
3.355 2.781 1.628 4800
3.240 2.686 1.576 3395
3.341 2.770 1.607 3706
3.232 2.679 1.559 1197
3.379 2.801 1.610 10154
3.270 2.710 1.562 1675
3.383 2.804 1.598 23773
3.273 2.713 1.550 1704
3.392 2.811 1.587 27312
3.583 2.970 1.670 2229
3.395 2.814 1.575 19445
3.586 2.973 1.656 2254
3.398 2.817 1.562 12904
3.578 2.966 1.638 2360
3.396 2.815 1.547 12107
3.575 2.964 1.622 3044
3.399 2.817 1.534 9457
3.672 3.043 1.647 4087
3.402 2.820 1.521 8486
3.675 3.046 1.634 5159
3.405 2.822 1.509 7397
3.672 3.044 1.618 6099
3.682 3.052 1.606 6386
3.402 2.820 1.493 3542
3.679 3.050 1.590 5302
3.399 2.818 1.478 1081
3.746 3.106 1.602 4210
3.636 3.014 1.558 1725
3.738 3.099 1.583 4474
3.849 3.190 1.626 1237
3.735 3.096 1.567 4354
3.846 3.188 1.610 2210
3.739 3.099 1.553 4062
3.850 3.191 1.595 1985
3.859 3.199 1.583 2656
3.742 3.102 1.539 2595
3.862 3.201 1.568 3921
3.973 3.294 1.610 1372
3.883 3.219 1.560 3869
3.994 3.311 1.602 2233
3.962 3.284 1.574 4025
4.109 3.406 1.627 1431
3.960 3.282 1.557 3251
4.106 3.404 1.610 1864
3.945 3.270 1.536 3158
4.110 3.407 1.594 2153
3.937 3.263 1.517 3119
4.131 3.424 1.585 2750
4.140 3.431 1.572 2899
4.252 3.524 1.611 1564
4.231 3.507 1.587 3145
4.119 3.415 1.548 1886
4.311 3.574 1.597 6302
4.199 3.481 1.559 2029
4.326 3.586 1.585 9293
4.214 3.493 1.547 2704
4.329 3.589 1.569 11280
4.442 3.682 1.606 3507
4.333 3.591 1.552 10790
4.457 3.694 1.593 2916
4.336 3.594 1.536 8259
4.614 3.824 1.627 1941
4.339 3.597 1.520 5472
4.463 3.700 1.560 2471
4.466 3.702 1.543 3288
4.656 3.859 1.603 2782
4.665 3.867 1.587 3478
4.469 3.705 1.526 2668
4.668 3.870 1.570 3273
4.793 3.973 1.608 2302
4.796 3.976 1.590 4524
4.665 3.867 1.551 3274
4.805 3.983 1.574 4787
4.675 3.875 1.535 2614
4.820 3.996 1.560 5196
4.678 3.877 1.517 1435
4.823 3.998 1.542 3911
4.936 4.092 1.575 1691
4.928 4.085 1.553 2524
5.118 4.242 1.608 2158
5.121 4.245 1.589 3273
4.925 4.082 1.532 2129
5.125 4.248 1.569 3562
4.898 4.060 1.506 1664
5.140 4.260 1.553 3436
4.973 4.122 1.507 1242
5.137 4.258 1.532 3543
5.393 4.471 1.602 2185
5.134 4.256 1.511 3994
5.403 4.478 1.584 2373
5.137 4.258 1.492 4524
5.257 4.357 1.524 2354
5.421 4.494 1.546 3184
5.140 4.261 1.473 2922
5.436 4.506 1.529 5208
5.603 4.645 1.572 1953
5.433 4.504 1.507 6012
5.607 4.647 1.551 2056
5.436 4.506 1.486 5314
5.598 4.640 1.527 2078
5.439 4.509 1.466 3778
5.589 4.633 1.503 2503
5.580 4.625 1.479 2357
5.448 4.516 1.447 2130
5.985 4.961 1.553 2181
5.463 4.528 1.429 1745
5.976 4.953 1.528 2204
6.138 5.088 1.566 1723
6.255 5.185 1.569 2027
6.129 5.080 1.540 1949
6.258 5.188 1.546 2403
6.102 5.058 1.510 1708
6.249 5.180 1.519 3085
6.135 5.086 1.494 1292
6.252 5.183 1.496 4334
6.547 5.427 1.560 1635
6.267 5.195 1.475 5156
6.556 5.434 1.537 2227
6.276 5.203 1.452 4080
6.571 5.447 1.515 2239
6.352 5.265 1.444 3790
6.586 5.460 1.492 1999
6.348 5.262 1.419 3993
6.595 5.467 1.469 2288
6.357 5.270 1.396 3903
6.598 5.469 1.444 1798
6.360 5.272 1.372 3950
6.619 5.487 1.423 1147
6.363 5.274 1.348 2431
6.857 5.684 1.443 2116
6.854 5.682 1.416 2679
7.174 5.947 1.475 1548
7.183 5.954 1.450 2193
6.954 5.764 1.407 1793
7.192 5.962 1.424 2381
6.987 5.791 1.387 1652
6.989 5.794 1.360 2001
7.195 5.964 1.396 1904
7.198 5.966 1.369 1548
6.986 5.791 1.333 1378
7.206 5.973 1.343 1635
7.221 5.986 1.318 1282
1.767 1.454 1.740 2635
1.673 1.377 1.653 2403
1.771 1.457 1.734 5271
1.676 1.380 1.647 4807
1.774 1.460 1.727 5271
1.680 1.382 1.640 4807
1.803 1.484 1.744 6375
1.698 1.397 1.648 5455
1.812 1.491 1.741 8438
1.706 1.404 1.646 5941
1.805 1.486 1.726 7894
1.710 1.407 1.640 4337
1.804 1.484 1.714 8064
1.899 1.563 1.800 3394
1.807 1.487 1.708 8064
1.903 1.566 1.793 3394
1.841 1.515 1.728 7078
1.937 1.594 1.813 2566
1.855 1.526 1.730 8505
1.951 1.606 1.814 2098
1.868 1.538 1.732 7603
1.965 1.617 1.816 1877
1.877 1.545 1.730 7353
1.974 1.624 1.813 2021
1.881 1.548 1.723 5756
1.977 1.627 1.806 2857
1.889 1.555 1.720 4176
1.986 1.635 1.803 3341
1.893 1.558 1.713 4343
1.990 1.638 1.796 3341
1.994 1.641 1.788 4898
1.896 1.561 1.706 4509
1.997 1.644 1.781 6517
1.900 1.564 1.699 4497
2.001 1.647 1.773 7773
1.888 1.554 1.679 4409
2.010 1.654 1.770 9124
1.886 1.553 1.668 4642
2.019 1.661 1.767 9102
1.895 1.560 1.665 4087
2.033 1.673 1.768 9376
1.909 1.571 1.667 3901
2.005 1.650 1.735 8868
1.907 1.569 1.655 2772
2.009 1.653 1.728 9119
2.107 1.734 1.808 1880
2.007 1.652 1.716 8580
2.106 1.733 1.796 2431
2.011 1.655 1.709 8056
2.110 1.736 1.788 2806
2.020 1.662 1.706 7724
2.119 1.744 1.784 3176
2.081 1.712 1.743 8284
1.981 1.631 1.665 1283
2.089 1.720 1.740 8725
1.990 1.638 1.662 1369
2.093 1.723 1.732 9259
2.102 1.730 1.728 7148
2.126 1.750 1.737 5301
2.109 1.736 1.713 4792
2.209 1.818 1.789 1602
2.113 1.739 1.705 4532
2.213 1.821 1.781 2317
2.190 1.802 1.753 5146
2.090 1.720 1.677 2870
2.199 1.810 1.748 6436
2.098 1.727 1.673 2241
2.203 1.813 1.740 6049
2.102 1.730 1.666 1731
2.206 1.816 1.732 5918
2.105 1.733 1.658 1126
2.188 1.801 1.708 6430
2.213 1.822 1.716 7373
2.222 1.829 1.711 8715
2.242 1.845 1.715 6658
2.140 1.761 1.642 1356
2.256 1.857 1.714 5698
2.154 1.773 1.641 1853
2.276 1.873 1.717 4104
2.163 1.780 1.637 2192
2.312 1.902 1.731 4082
2.193 1.805 1.648 2561
2.326 1.914 1.730 4170
2.207 1.817 1.647 3125
2.329 1.917 1.721 4239
2.200 1.811 1.632 2988
2.333 1.920 1.713 4307
2.187 1.800 1.613 4098
2.196 1.807 1.608 5295
2.337 1.923 1.704 3694
2.199 1.810 1.600 5702
2.324 1.913 1.684 3629
2.203 1.813 1.592 5895
2.333 1.920 1.679 4322
2.206 1.815 1.584 5256
2.358 1.941 1.685 4282
2.438 2.006 1.727 7156
2.334 1.921 1.658 3531
2.436 2.005 1.714 8868
2.332 1.919 1.646 3408
2.434 2.003 1.702 6674
2.166 1.783 1.527 2522
2.481 2.042 1.721 4953
2.377 1.956 1.654 2527
2.474 2.036 1.705 4097
2.370 1.950 1.638 2738
2.384 1.962 1.636 3300
2.488 2.048 1.703 2649
2.398 1.974 1.634 3000
2.503 2.060 1.700 2619
2.600 2.139 1.750 3414
2.473 2.035 1.670 3399
2.609 2.147 1.744 5912
2.504 2.061 1.678 5472
2.623 2.159 1.741 8527
2.513 2.068 1.672 7752
2.632 2.166 1.734 9570
2.522 2.076 1.666 7656
2.636 2.169 1.725 7991
2.514 2.069 1.650 5514
2.645 2.177 1.718 7272
2.446 2.013 1.597 3899
2.643 2.175 1.705 8135
2.438 2.007 1.581 1705
2.647 2.178 1.695 8014
2.672 2.199 1.698 9601
2.567 2.112 1.636 1362
2.676 2.202 1.689 10933
2.570 2.115 1.626 1056
2.674 2.201 1.675 7515
2.780 2.288 1.737 1062
2.672 2.199 1.662 5733
2.778 2.286 1.724 1422
2.664 2.192 1.646 4373
2.770 2.280 1.707 3871
2.757 2.269 1.687 8721
2.650 2.181 1.626 2392
2.760 2.272 1.677 11219
2.867 2.359 1.737 1475
2.769 2.279 1.669 9948
2.876 2.367 1.729 1666
2.778 2.287 1.662 10008
2.885 2.374 1.722 1961
2.782 2.289 1.652 8211
2.889 2.377 1.711 3019
2.791 2.297 1.645 4549
2.898 2.385 1.703 3237
2.884 2.374 1.683 5602
2.777 2.286 1.625 1927
2.882 2.372 1.670 11232
2.775 2.284 1.612 1396
2.891 2.380 1.662 13923
2.784 2.291 1.604 1132
2.900 2.387 1.654 12150
2.909 2.394 1.646 10421
2.918 2.402 1.638 10808
3.026 2.491 1.694 1232
2.928 2.409 1.630 9159
3.035 2.498 1.686 1206
2.948 2.426 1.628 6087
3.084 2.538 1.698 1400
3.020 2.485 1.652 4484
2.911 2.396 1.597 2363
3.034 2.497 1.646 3693
2.926 2.408 1.592 1253
3.038 2.500 1.635 2992
3.070 2.526 1.638 4519
2.961 2.437 1.584 1832
3.084 2.539 1.632 6398
2.976 2.449 1.579 2422
3.094 2.546 1.623 5615
2.985 2.457 1.570 1989
3.103 2.553 1.615 3247
3.246 2.671 1.684 2019
3.249 2.674 1.671 3225
3.140 2.585 1.619 2226
3.230 2.658 1.648 5346
3.121 2.568 1.597 1775
3.222 2.651 1.631 7726
3.371 2.774 1.701 2428
3.219 2.649 1.616 6777
3.369 2.773 1.686 3833
3.223 2.652 1.604 5680
3.372 2.775 1.673 4699
3.295 2.712 1.624 5943
3.405 2.802 1.674 2828
3.293 2.710 1.609 6047
3.402 2.800 1.659 3214
3.365 2.770 1.628 5723
3.244 2.670 1.573 2420
3.374 2.777 1.618 4536
3.264 2.687 1.569 1122
3.389 2.789 1.610 9393
3.279 2.699 1.562 1457
3.393 2.792 1.598 21332
3.503 2.883 1.645 2053
3.402 2.800 1.587 25328
3.512 2.890 1.635 2070
3.405 2.802 1.575 17146
3.521 2.898 1.624 1740
3.408 2.805 1.562 12827
3.536 2.910 1.616 2134
3.405 2.803 1.547 14329
3.574 2.942 1.617 3489
3.409 2.805 1.534 10965
3.694 3.040 1.652 3823
3.412 2.808 1.521 9483
3.703 3.048 1.641 4780
3.415 2.810 1.509 8342
3.695 3.041 1.622 5197
3.698 3.044 1.608 6145
3.418 2.813 1.496 4175
3.696 3.042 1.592 5149
3.415 2.811 1.481 1476
3.751 3.088 1.599 3805
3.640 2.996 1.555 1062
3.749 3.085 1.583 4721
3.746 3.083 1.567 5203
3.858 3.175 1.610 2189
3.744 3.081 1.550 4925
3.873 3.187 1.600 2923
3.864 3.180 1.581 2983
3.747 3.084 1.536 2803
3.867 3.183 1.566 3288
3.979 3.275 1.608 1306
3.900 3.210 1.563 3704
4.012 3.302 1.604 1335
3.903 3.212 1.548 3973
4.015 3.304 1.589 1477
3.924 3.230 1.540 3758
4.124 3.394 1.612 1186
3.933 3.237 1.527 6011
4.133 3.402 1.599 2033
3.936 3.240 1.512 6978
4.148 3.414 1.587 2714
3.939 3.242 1.498 4509
4.152 3.417 1.572 2187
4.249 3.497 1.589 2891
3.936 3.240 1.481 2235
4.324 3.558 1.597 6767
4.211 3.466 1.559 1688
4.339 3.571 1.585 10778
4.451 3.663 1.623 2278
4.342 3.574 1.569 13055
4.460 3.671 1.608 3637
4.339 3.571 1.550 12223
4.470 3.679 1.593 3909
4.342 3.574 1.534 9076
4.485 3.691 1.580 4134
4.351 3.581 1.520 5696
4.476 3.684 1.560 4418
4.479 3.687 1.543 4592
4.675 3.848 1.605 2314
4.488 3.694 1.528 3939
4.679 3.850 1.587 2806
4.497 3.701 1.513 3017
4.682 3.853 1.570 2633
4.810 3.959 1.590 4685
4.679 3.851 1.551 2658
4.819 3.966 1.574 4490
4.682 3.853 1.533 2006
4.834 3.979 1.560 4612
4.965 4.087 1.599 1395
4.837 3.981 1.542 3896
4.957 4.079 1.576 1959
4.954 4.077 1.556 2572
4.841 3.984 1.523 2213
5.136 4.227 1.589 3174
4.945 4.070 1.534 2448
5.139 4.230 1.569 3377
4.942 4.068 1.514 1573
5.155 4.242 1.553 3024
5.268 4.336 1.585 1188
5.152 4.240 1.532 3145
5.415 4.457 1.604 2219
5.149 4.238 1.511 3890
5.418 4.459 1.584 2469
5.152 4.240 1.492 4535
5.272 4.339 1.524 2537
5.437 4.474 1.546 3636
5.161 4.248 1.474 3150
5.452 4.487 1.529 5963
5.278 4.344 1.484 2352
5.449 4.485 1.507 6687
5.293 4.356 1.467 1776
5.452 4.487 1.486 5971
5.614 4.620 1.527 1760
5.461 4.495 1.467 4515
5.605 4.613 1.503 2043
5.470 4.502 1.448 2524
5.602 4.611 1.480 1898
6.002 4.940 1.553 2617
5.491 4.519 1.432 2123
5.500 4.526 1.413 2410
5.999 4.937 1.530 2240
6.177 5.084 1.547 2188
6.291 5.178 1.573 1772
6.276 5.166 1.546 2571
6.162 5.071 1.520 1828
6.267 5.158 1.519 3487
6.153 5.064 1.494 1388
6.277 5.166 1.497 4782
6.566 5.404 1.560 1788
6.286 5.173 1.475 5440
6.575 5.411 1.537 2394
6.295 5.181 1.452 4126
6.590 5.424 1.515 2294
6.304 5.188 1.430 3018
6.605 5.436 1.492 1737
6.313 5.195 1.408 3493
6.621 5.449 1.470 1750
6.376 5.247 1.396 2683
6.617 5.446 1.444 1351
6.379 5.250 1.372 2814
6.747 5.553 1.444 1190
6.375 5.247 1.347 1815
6.877 5.660 1.443 1587
6.880 5.662 1.417 1823
7.201 5.926 1.477 1749
7.204 5.929 1.450 1921
6.980 5.745 1.409 1741
7.007 5.767 1.387 1946
7.207 5.931 1.422 1888
7.016 5.774 1.361 2295
7.216 5.939 1.396 1550
7.012 5.771 1.334 1535
7.224 5.946 1.370 1528
7.227 5.948 1.343 1767
7.236 5.955 1.317 1346
7.257 5.972 1.293 1014
1.689 1.378 1.662 2594
1.783 1.455 1.750 2125
1.692 1.381 1.656 5189
1.787 1.458 1.743 4251
1.695 1.383 1.649 5189
1.791 1.461 1.736 4251
1.814 1.480 1.748 6116
1.709 1.394 1.652 5654
1.823 1.487 1.746 8279
1.712 1.397 1.646 6392
1.811 1.478 1.726 7782
1.716 1.400 1.640 4767
1.810 1.477 1.714 8106
1.906 1.555 1.800 3404
1.813 1.480 1.708 8106
1.910 1.558 1.793 3404
1.852 1.512 1.732 7455
1.949 1.590 1.817 2400
1.866 1.523 1.734 9130
1.963 1.601 1.819 1791
1.875 1.530 1.732 8259
1.972 1.609 1.816 1979
1.884 1.537 1.730 8016
1.980 1.616 1.813 2039
1.887 1.540 1.723 7347
1.984 1.619 1.806 2851
1.891 1.543 1.716 6679
1.988 1.622 1.799 3662
1.894 1.546 1.709 6900
1.992 1.625 1.791 3662
1.898 1.549 1.702 7121
2.001 1.632 1.788 4904
1.901 1.551 1.695 7097
2.009 1.640 1.785 6662
2.013 1.643 1.778 7954
1.895 1.546 1.679 6698
2.017 1.646 1.770 9326
1.898 1.549 1.672 6514
2.026 1.653 1.767 9536
1.907 1.556 1.669 5749
2.040 1.664 1.768 10015
1.915 1.563 1.667 5394
2.023 1.650 1.744 9118
1.919 1.566 1.659 4021
2.016 1.645 1.728 9092
1.917 1.564 1.648 2488
2.019 1.648 1.720 8168
2.119 1.729 1.800 2294
2.018 1.646 1.709 7323
2.117 1.727 1.788 2904
2.032 1.658 1.710 7150
2.131 1.739 1.788 3195
2.083 1.699 1.739 9391
2.097 1.711 1.740 10017
1.997 1.629 1.662 1012
2.106 1.718 1.736 10894
2.109 1.721 1.728 8203
2.134 1.741 1.737 6031
2.034 1.659 1.660 1453
2.122 1.731 1.717 5213
2.222 1.813 1.793 1352
2.120 1.730 1.705 4907
2.220 1.812 1.781 2305
2.198 1.793 1.753 5504
2.097 1.711 1.677 3059
2.207 1.801 1.748 6760
2.106 1.718 1.673 2358
2.210 1.803 1.740 6161
2.109 1.721 1.666 1887
2.214 1.806 1.732 5805
2.113 1.724 1.658 1295
2.217 1.809 1.724 6048
2.226 1.817 1.720 7191
2.230 1.820 1.711 8458
2.332 1.903 1.785 1425
2.244 1.831 1.711 6414
2.346 1.914 1.784 1022
2.269 1.852 1.718 5645
2.162 1.764 1.641 1665
2.289 1.868 1.721 4630
2.171 1.771 1.637 2154
2.319 1.893 1.731 4716
2.179 1.778 1.633 2935
2.334 1.904 1.730 4884
2.188 1.785 1.629 3294
2.343 1.912 1.725 4537
2.197 1.793 1.624 3198
2.352 1.919 1.720 4382
2.200 1.795 1.616 3554
2.204 1.798 1.608 4184
2.361 1.926 1.715 3493
2.207 1.801 1.600 4687
2.375 1.938 1.714 2610
2.205 1.799 1.588 5040
2.308 1.883 1.657 2555
2.208 1.802 1.580 4794
2.371 1.935 1.689 3864
2.446 1.996 1.727 6376
2.342 1.911 1.658 3395
2.450 1.999 1.718 7421
2.346 1.914 1.650 3415
2.470 2.015 1.720 5601
2.365 1.930 1.652 3631
2.495 2.036 1.725 4962
2.380 1.942 1.650 2792
2.488 2.030 1.708 4049
2.372 1.936 1.634 2984
2.381 1.943 1.629 3625
2.491 2.033 1.699 2753
2.396 1.955 1.627 3335
2.506 2.045 1.697 2869
2.476 2.020 1.667 3749
2.603 2.124 1.746 3204
2.513 2.050 1.678 5550
2.618 2.136 1.744 5377
2.522 2.058 1.672 7510
2.632 2.148 1.741 7462
2.641 2.155 1.734 8234
2.531 2.065 1.666 7135
2.651 2.163 1.728 6743
2.457 2.004 1.610 6073
2.654 2.166 1.718 6280
2.460 2.007 1.601 4509
2.658 2.169 1.708 7382
2.458 2.005 1.588 1902
2.656 2.167 1.695 7409
2.478 2.022 1.589 1111
2.682 2.188 1.698 8528
2.576 2.102 1.636 1386
2.691 2.196 1.692 9659
2.585 2.109 1.630 1300
2.683 2.189 1.675 6822
2.789 2.276 1.737 1260
2.675 2.183 1.659 5595
2.782 2.270 1.720 1707
2.673 2.181 1.646 4401
2.780 2.268 1.707 3800
2.772 2.262 1.690 8418
2.665 2.175 1.629 2723
2.770 2.260 1.677 10945
2.877 2.347 1.737 1773
2.779 2.267 1.669 9764
2.886 2.355 1.729 1992
2.788 2.275 1.662 9727
2.895 2.362 1.722 2119
2.791 2.278 1.652 8287
2.899 2.365 1.711 2994
2.795 2.280 1.642 4805
2.902 2.368 1.700 3640
2.894 2.362 1.683 4992
2.787 2.274 1.625 2002
2.892 2.360 1.670 10088
2.785 2.272 1.612 1357
2.896 2.363 1.659 13137
2.910 2.375 1.654 11770
2.925 2.387 1.649 10338
2.929 2.390 1.638 10760
3.037 2.478 1.694 1299
2.938 2.397 1.630 9029
3.046 2.485 1.686 1407
2.952 2.409 1.625 5947
3.061 2.498 1.681 1805
3.030 2.472 1.652 4582
2.922 2.384 1.597 2687
3.051 2.489 1.649 3604
2.942 2.401 1.595 1670
2.991 2.441 1.607 3193
3.100 2.529 1.661 2077
3.086 2.518 1.641 4712
2.977 2.429 1.587 2472
3.095 2.526 1.632 6821
2.986 2.437 1.579 2304
3.098 2.528 1.621 5721
2.989 2.439 1.568 1507
3.102 2.531 1.609 3081
3.240 2.644 1.675 1861
3.255 2.656 1.669 2907
3.145 2.567 1.617 1761
3.235 2.640 1.646 4809
3.126 2.550 1.594 1573
3.233 2.638 1.631 6596
3.383 2.760 1.701 2381
3.236 2.641 1.619 5377
3.380 2.758 1.686 3735
3.384 2.761 1.673 4635
3.234 2.639 1.604 4413
3.312 2.703 1.626 5768
3.422 2.792 1.676 1966
3.373 2.753 1.640 5492
3.246 2.649 1.583 2855
3.377 2.755 1.628 6334
3.249 2.651 1.571 1831
3.392 2.768 1.620 5625
3.282 2.678 1.571 1070
3.401 2.775 1.610 8539
3.511 2.865 1.659 1433
3.404 2.778 1.598 17933
3.515 2.868 1.645 2616
3.413 2.785 1.587 21626
3.524 2.875 1.635 2457
3.422 2.793 1.577 14389
3.533 2.883 1.624 1861
3.420 2.790 1.562 11708
3.548 2.895 1.616 2605
3.417 2.788 1.547 14012
3.575 2.917 1.613 3883
3.420 2.791 1.534 10629
3.584 2.924 1.602 3894
3.424 2.794 1.521 9110
3.722 3.037 1.643 3888
3.427 2.796 1.509 7998
3.713 3.030 1.625 4353
3.717 3.033 1.611 5580
3.430 2.799 1.496 4098
3.714 3.031 1.595 4861
3.427 2.796 1.481 1545
3.753 3.062 1.595 3693
3.756 3.065 1.581 4622
3.759 3.067 1.567 4934
3.883 3.168 1.614 2271
3.757 3.065 1.550 4551
3.880 3.166 1.597 3768
3.878 3.164 1.581 3374
3.766 3.073 1.539 2794
3.940 3.215 1.588 3049
3.786 3.090 1.531 1530
3.925 3.203 1.567 4387
3.801 3.102 1.521 1143
3.923 3.201 1.550 5288
4.153 3.389 1.634 1092
3.932 3.208 1.538 5642
4.144 3.382 1.614 1230
3.947 3.220 1.527 9204
4.154 3.389 1.601 2316
3.950 3.223 1.512 11141
4.163 3.397 1.587 2937
3.947 3.221 1.496 7863
4.160 3.395 1.570 2009
3.950 3.223 1.481 4403
4.300 3.508 1.601 3117
4.339 3.540 1.597 6430
3.953 3.226 1.466 2578
4.348 3.548 1.583 10601
4.461 3.640 1.621 2359
4.351 3.550 1.567 13778
4.470 3.647 1.606 3715
4.354 3.553 1.550 12640
4.485 3.660 1.593 4672
4.357 3.556 1.534 8621
4.500 3.672 1.580 6303
4.498 3.670 1.562 5877
4.367 3.563 1.520 5097
4.501 3.672 1.545 5297
4.811 3.925 1.643 2119
4.510 3.680 1.530 4828
4.701 3.836 1.589 2106
4.513 3.682 1.513 3735
4.835 3.945 1.612 2682
4.827 3.938 1.590 4695
4.516 3.685 1.496 2810
4.830 3.941 1.572 4059
4.698 3.834 1.533 1384
4.845 3.953 1.558 3684
4.983 4.066 1.599 1421
4.854 3.961 1.542 3578
4.974 4.059 1.576 2307
4.971 4.056 1.556 2799
4.857 3.963 1.523 2300
5.154 4.206 1.589 2853
4.968 4.054 1.536 2590
5.151 4.203 1.568 3166
4.965 4.052 1.516 1699
5.166 4.216 1.552 2561
5.280 4.309 1.583 1553
5.164 4.213 1.531 2976
5.434 4.434 1.604 2022
5.161 4.211 1.510 4074
5.437 4.436 1.584 2238
5.170 4.218 1.492 4480
5.290 4.317 1.524 2367
5.455 4.452 1.546 3783
5.179 4.226 1.474 3044
5.465 4.459 1.527 5936
5.296 4.322 1.484 2433
5.468 4.462 1.507 6677
5.305 4.329 1.466 1720
5.471 4.464 1.486 6221
5.627 4.592 1.525 1365
5.480 4.471 1.467 5114
5.625 4.589 1.503 1395
5.495 4.484 1.450 2847
6.026 4.917 1.577 1650
6.023 4.914 1.553 2596
5.522 4.506 1.435 2416
5.519 4.503 1.413 2656
6.020 4.912 1.530 2037
6.198 5.058 1.547 2278
5.516 4.501 1.391 2051
6.298 5.139 1.546 2485
6.183 5.045 1.520 1956
6.289 5.132 1.519 3604
6.174 5.038 1.494 1440
6.298 5.139 1.497 4943
6.589 5.376 1.560 1769
6.307 5.147 1.475 5366
6.598 5.384 1.537 2279
6.310 5.149 1.451 3999
6.607 5.391 1.513 2054
6.319 5.156 1.429 2836
6.628 5.408 1.492 1249
6.328 5.164 1.406 3173
6.637 5.416 1.469 1058
6.319 5.156 1.380 2472
6.768 5.522 1.469 1178
6.395 5.218 1.371 2017
6.777 5.530 1.445 1469
6.786 5.537 1.421 1614
6.349 5.180 1.338 1408
7.232 5.901 1.478 1925
6.825 5.569 1.402 1516
7.229 5.898 1.450 1814
7.016 5.725 1.411 1642
7.031 5.737 1.387 1979
7.232 5.901 1.422 1710
7.040 5.744 1.361 2275
7.235 5.903 1.395 1417
7.037 5.742 1.334 1513
7.243 5.910 1.369 1497
7.252 5.918 1.343 1823
7.261 5.925 1.317 1378
7.282 5.942 1.293 1037
1.698 1.376 1.667 2475
1.833 1.486 1.791 2000
1.702 1.379 1.660 4950
1.837 1.489 1.784 4001
1.705 1.382 1.654 4950
1.841 1.492 1.778 4001
1.713 1.389 1.652 5822
1.829 1.482 1.757 5816
1.828 1.481 1.746 7946
1.722 1.396 1.651 6880
1.836 1.488 1.744 7512
1.725 1.398 1.644 5267
1.815 1.471 1.714 7768
1.911 1.549 1.800 3716
1.818 1.474 1.708 7768
1.915 1.552 1.793 3716
1.873 1.518 1.746 8800
1.969 1.596 1.831 1295
1.871 1.517 1.734 10762
1.968 1.595 1.819 2058
1.880 1.524 1.732 10086
1.977 1.602 1.816 2151
1.889 1.531 1.730 9777
1.986 1.609 1.813 2136
1.892 1.534 1.723 10181
1.990 1.612 1.806 3002
1.896 1.537 1.716 10584
1.993 1.616 1.799 3869
1.899 1.539 1.709 10922
1.997 1.619 1.791 3869
1.903 1.542 1.702 11259
2.011 1.630 1.793 5158
1.907 1.545 1.695 11203
2.015 1.633 1.785 7091
1.905 1.544 1.683 9958
2.019 1.636 1.778 8606
2.027 1.643 1.775 10165
1.903 1.542 1.672 8982
2.036 1.650 1.771 10187
1.912 1.549 1.669 8028
2.045 1.658 1.768 10617
1.921 1.556 1.667 7463
2.033 1.648 1.748 9076
1.924 1.559 1.659 5798
2.021 1.638 1.728 8862
1.922 1.558 1.648 3999
2.025 1.641 1.720 8379
1.926 1.561 1.641 2539
2.028 1.644 1.713 7895
2.128 1.725 1.792 2942
2.037 1.651 1.710 7918
2.137 1.732 1.788 3923
2.088 1.692 1.739 10422
1.988 1.611 1.661 1109
2.102 1.704 1.740 11470
2.002 1.623 1.662 1212
2.111 1.711 1.736 13005
2.115 1.714 1.728 9579
2.140 1.734 1.737 6900
2.039 1.653 1.660 1468
2.138 1.733 1.725 6061
2.131 1.727 1.709 5578
2.232 1.809 1.785 1798
2.204 1.786 1.753 5715
2.102 1.704 1.677 3122
2.207 1.789 1.744 7309
2.106 1.707 1.669 2083
2.211 1.792 1.736 6845
2.109 1.710 1.662 1579
2.214 1.795 1.728 6822
2.113 1.712 1.654 1129
2.218 1.798 1.720 7263
2.227 1.805 1.716 8414
2.329 1.887 1.789 1502
2.236 1.812 1.711 9663
2.338 1.895 1.785 1862
2.239 1.815 1.703 7424
2.342 1.898 1.776 1758
2.254 1.827 1.702 5541
2.356 1.910 1.775 1454
2.306 1.869 1.728 5133
2.176 1.764 1.637 1027
2.326 1.885 1.731 5380
2.180 1.767 1.629 2274
2.340 1.897 1.730 5544
2.189 1.774 1.625 3181
2.355 1.908 1.729 5170
2.197 1.781 1.621 3243
2.364 1.916 1.724 5246
2.212 1.792 1.620 3138
2.373 1.923 1.719 4698
2.215 1.795 1.612 2784
2.382 1.930 1.714 3626
2.213 1.793 1.600 3009
2.211 1.792 1.588 3314
2.385 1.933 1.705 2843
2.383 1.932 1.692 4237
2.214 1.794 1.580 3480
2.381 1.930 1.680 6254
2.485 2.014 1.749 3695
2.390 1.937 1.675 6790
2.495 2.022 1.743 4220
2.493 2.020 1.730 5217
2.383 1.931 1.659 5016
2.502 2.028 1.725 4934
2.364 1.916 1.636 4106
2.362 1.914 1.624 4357
2.500 2.026 1.712 3907
2.377 1.926 1.622 4614
2.503 2.029 1.703 2938
2.385 1.933 1.617 3906
2.512 2.036 1.697 3260
2.483 2.012 1.667 3623
2.610 2.115 1.746 2918
2.525 2.046 1.682 5486
2.630 2.132 1.747 4427
2.529 2.049 1.672 6699
2.639 2.139 1.741 6066
2.649 2.147 1.734 6521
2.460 1.994 1.619 6345
2.463 1.996 1.610 6505
2.658 2.154 1.728 5239
2.466 1.999 1.601 5140
2.661 2.157 1.718 4843
2.659 2.155 1.705 6046
2.475 2.006 1.595 2465
2.663 2.158 1.695 6319
2.484 2.013 1.589 1407
2.689 2.179 1.698 6852
2.583 2.093 1.636 1824
2.698 2.187 1.692 7674
2.592 2.100 1.630 1794
2.685 2.176 1.672 5285
2.791 2.262 1.734 1754
2.677 2.169 1.656 5071
2.784 2.256 1.717 2220
2.675 2.168 1.643 4329
2.781 2.254 1.704 3894
2.779 2.253 1.690 7804
2.672 2.166 1.629 2849
2.783 2.255 1.680 10249
2.890 2.342 1.740 1762
2.786 2.258 1.669 9142
2.894 2.345 1.729 2412
2.795 2.266 1.662 8648
2.903 2.353 1.722 2445
2.799 2.268 1.652 7750
2.906 2.356 1.711 3032
2.808 2.276 1.645 4863
2.916 2.363 1.703 3327
2.896 2.347 1.680 4327
2.789 2.260 1.622 1783
2.900 2.350 1.670 8324
2.792 2.263 1.612 1254
2.903 2.353 1.659 11630
2.924 2.370 1.657 10916
2.933 2.377 1.649 9917
2.942 2.385 1.641 10247
3.051 2.472 1.697 1239
2.951 2.392 1.633 8784
3.060 2.480 1.689 1497
2.960 2.399 1.625 6176
3.069 2.487 1.681 2115
2.969 2.407 1.617 4830
3.078 2.495 1.672 2717
2.990 2.423 1.615 4203
3.099 2.512 1.669 2054
2.999 2.431 1.607 4001
3.108 2.519 1.661 2608
3.106 2.517 1.646 5000
2.997 2.429 1.593 2900
3.103 2.515 1.632 6693
2.994 2.427 1.579 2088
3.107 2.518 1.621 5397
3.216 2.607 1.673 1583
3.099 2.511 1.603 3569
3.237 2.623 1.670 2179
3.235 2.622 1.655 3131
3.102 2.514 1.592 2464
3.244 2.629 1.646 4303
3.134 2.540 1.594 1498
3.247 2.632 1.634 5056
3.392 2.749 1.701 2116
3.251 2.635 1.622 4026
3.390 2.747 1.686 3321
3.393 2.750 1.673 4192
3.248 2.633 1.607 3242
3.327 2.696 1.629 5665
3.217 2.607 1.579 1577
3.383 2.741 1.640 5316
3.261 2.643 1.585 1693
3.398 2.754 1.633 6765
3.287 2.664 1.584 1512
3.413 2.766 1.625 6629
3.302 2.676 1.577 1821
3.416 2.768 1.613 7364
3.527 2.858 1.661 1525
3.419 2.771 1.600 13391
3.530 2.861 1.648 2812
3.423 2.774 1.587 15971
3.568 2.892 1.650 3245
3.432 2.781 1.577 10407
3.566 2.890 1.634 2548
3.429 2.779 1.562 9288
3.569 2.893 1.621 3175
3.426 2.777 1.547 11571
3.579 2.900 1.610 4486
3.435 2.784 1.536 8564
3.594 2.913 1.602 4468
3.433 2.782 1.521 7207
3.597 2.915 1.588 3637
3.436 2.785 1.509 6259
3.723 3.018 1.625 3844
3.727 3.020 1.611 4839
3.439 2.787 1.496 3226
3.724 3.018 1.595 4482
3.436 2.785 1.481 1222
3.763 3.050 1.595 3573
3.772 3.057 1.583 4250
3.769 3.055 1.567 3951
3.893 3.155 1.614 2687
3.891 3.153 1.597 4655
3.773 3.058 1.553 3088
3.900 3.161 1.585 4198
3.782 3.065 1.541 2217
3.944 3.197 1.586 5687
3.809 3.087 1.536 1760
3.948 3.199 1.571 7341
3.835 3.108 1.530 1242
3.939 3.192 1.552 7543
4.170 3.380 1.636 1375
3.942 3.195 1.538 7483
4.179 3.387 1.623 1670
3.951 3.202 1.525 12889
4.171 3.380 1.603 2651
3.960 3.210 1.512 16857
4.168 3.378 1.585 3137
3.958 3.207 1.496 11521
4.302 3.487 1.615 2575
3.961 3.210 1.481 6392
4.311 3.494 1.601 3838
4.350 3.526 1.597 5560
3.964 3.212 1.466 4476
4.360 3.533 1.583 9431
3.967 3.215 1.451 2252
4.363 3.536 1.567 13830
4.482 3.632 1.606 3468
4.366 3.538 1.550 11993
4.503 3.650 1.595 4791
4.518 3.662 1.582 7889
4.369 3.541 1.534 7013
4.528 3.669 1.567 7828
4.378 3.548 1.520 4056
4.537 3.677 1.552 6926
4.824 3.909 1.643 1972
4.534 3.675 1.534 5991
4.833 3.917 1.626 1621
4.537 3.677 1.517 4439
4.842 3.924 1.610 2775
4.834 3.917 1.589 4682
4.534 3.675 1.498 3069
4.837 3.920 1.571 3731
4.543 3.682 1.483 1370
4.858 3.937 1.558 2809
4.984 4.039 1.595 1608
4.867 3.945 1.542 3166
4.981 4.037 1.575 3057
4.985 4.040 1.556 3541
4.870 3.947 1.523 2275
4.988 4.042 1.538 2718
5.168 4.188 1.589 2571
5.165 4.186 1.568 3358
4.979 4.035 1.516 1995
5.168 4.189 1.548 2701
5.283 4.281 1.580 2016
5.172 4.191 1.529 3198
5.442 4.411 1.602 1714
5.175 4.194 1.510 4231
5.446 4.414 1.582 2010
5.184 4.201 1.492 4290
5.455 4.421 1.563 2483
5.464 4.429 1.545 3918
5.187 4.204 1.473 2907
5.479 4.441 1.527 5331
5.311 4.304 1.484 2222
5.483 4.443 1.507 5955
5.320 4.311 1.466 1547
5.486 4.446 1.486 6153
5.347 4.333 1.452 1094
5.501 4.458 1.469 5901
5.912 4.791 1.569 1332
5.516 4.470 1.451 3448
5.993 4.858 1.566 1607
5.543 4.492 1.436 2754
6.033 4.890 1.552 2465
5.534 4.485 1.413 2905
6.036 4.892 1.530 1905
5.525 4.477 1.390 2571
6.215 5.037 1.547 2024
6.224 5.044 1.525 2408
6.339 5.138 1.551 1736
6.312 5.116 1.521 3586
6.197 5.022 1.495 1630
6.315 5.118 1.497 4833
6.606 5.354 1.560 1653
6.324 5.126 1.475 4773
6.616 5.362 1.537 2069
6.327 5.128 1.451 3517
6.619 5.364 1.512 1747
6.336 5.135 1.429 2451
6.616 5.362 1.486 1054
6.339 5.138 1.405 2644
6.789 5.502 1.496 1089
6.336 5.135 1.380 2226
6.804 5.515 1.473 1350
6.813 5.522 1.448 1835
6.339 5.137 1.357 1572
6.822 5.529 1.424 2213
7.260 5.884 1.507 1652
6.843 5.546 1.402 2213
7.257 5.882 1.479 2205
7.254 5.879 1.451 2042
6.846 5.549 1.376 1731
7.251 5.877 1.422 1958
7.050 5.714 1.387 1765
7.053 5.716 1.360 1955
7.254 5.879 1.395 1531
7.263 5.886 1.369 1456
7.050 5.713 1.333 1321
7.278 5.898 1.344 1875
7.281 5.901 1.317 1404
7.302 5.918 1.293 1023
1.708 1.374 1.671 2257
1.833 1.475 1.786 2096
1.711 1.377 1.665 4515
1.837 1.478 1.780 4193
1.715 1.380 1.659 4515
1.841 1.481 1.773 4193
1.844 1.484 1.766 5690
1.718 1.383 1.652 5581
1.843 1.483 1.755 7351
1.727 1.390 1.651 6810
1.852 1.490 1.753 7508
1.730 1.392 1.644 5300
1.876 1.509 1.764 8791
1.734 1.395 1.638 3790
1.879 1.512 1.757 8791
1.783 1.435 1.672 2344
1.878 1.511 1.746 10500
1.975 1.589 1.831 1411
1.882 1.514 1.739 12543
1.979 1.592 1.823 1648
1.885 1.517 1.732 12173
1.982 1.595 1.816 2259
1.894 1.524 1.730 12010
1.991 1.602 1.813 2112
1.898 1.527 1.723 12941
1.995 1.605 1.806 3108
1.901 1.530 1.716 13872
1.999 1.609 1.799 4104
1.905 1.533 1.709 13854
2.003 1.612 1.791 4104
1.908 1.536 1.702 13835
2.017 1.623 1.793 5369
1.907 1.534 1.690 13693
2.021 1.626 1.785 7319
1.910 1.537 1.683 12374
2.024 1.629 1.778 8900
1.909 1.536 1.672 11166
2.033 1.636 1.775 10478
2.042 1.643 1.771 10202
1.917 1.543 1.669 9959
2.051 1.650 1.768 10495
1.921 1.546 1.662 9006
2.055 1.653 1.761 8517
1.924 1.548 1.655 7143
2.032 1.635 1.732 7494
1.928 1.551 1.648 5279
2.031 1.634 1.720 7872
1.931 1.554 1.641 3495
2.034 1.637 1.713 8280
2.134 1.717 1.792 3135
2.048 1.648 1.714 8732
2.148 1.729 1.792 3995
2.089 1.681 1.735 11454
2.108 1.696 1.740 12429
2.008 1.616 1.662 1022
2.117 1.704 1.736 14358
2.121 1.707 1.728 10439
2.146 1.727 1.737 6954
2.045 1.645 1.660 1620
2.144 1.725 1.725 6390
2.142 1.724 1.713 6041
2.243 1.805 1.789 1415
2.210 1.778 1.753 5916
2.108 1.697 1.677 2824
2.213 1.781 1.744 7721
2.112 1.699 1.669 2201
2.217 1.784 1.736 7242
2.115 1.702 1.662 1670
2.215 1.783 1.724 6754
2.219 1.786 1.716 6791
2.233 1.797 1.716 7634
2.336 1.879 1.789 1608
2.242 1.804 1.711 8673
2.345 1.887 1.785 1936
2.246 1.807 1.703 7390
2.348 1.890 1.776 1809
2.249 1.810 1.695 6107
2.352 1.893 1.767 1682
2.318 1.865 1.732 5157
2.215 1.782 1.660 1840
2.338 1.881 1.735 5732
2.235 1.798 1.663 2874
2.347 1.888 1.730 6074
2.244 1.805 1.659 2398
2.361 1.900 1.729 5920
2.204 1.773 1.621 2699
2.370 1.907 1.724 6232
2.212 1.780 1.616 2542
2.379 1.915 1.719 5561
2.216 1.783 1.608 2063
2.388 1.922 1.714 4237
2.225 1.790 1.604 2020
2.392 1.925 1.705 3419
2.233 1.797 1.599 2051
2.390 1.923 1.692 4843
2.226 1.791 1.584 2239
2.388 1.922 1.680 7062
2.492 2.006 1.749 3215
2.392 1.924 1.671 7653
2.496 2.009 1.739 4043
2.390 1.923 1.659 5837
2.500 2.011 1.730 4774
2.366 1.903 1.632 5864
2.509 2.019 1.725 5005
2.369 1.906 1.624 6496
2.507 2.017 1.712 4447
2.378 1.913 1.618 6346
2.483 1.998 1.685 3846
2.392 1.925 1.617 4636
2.520 2.027 1.697 3691
2.523 2.030 1.688 3752
2.401 1.932 1.611 3306
2.532 2.038 1.682 5263
2.638 2.122 1.747 4043
2.541 2.045 1.676 5835
2.647 2.130 1.741 5398
2.461 1.980 1.615 5754
2.656 2.137 1.734 5518
2.470 1.988 1.610 5804
2.660 2.140 1.725 4403
2.473 1.990 1.601 4647
2.663 2.143 1.715 3586
2.667 2.146 1.705 4384
2.482 1.997 1.595 2184
2.665 2.144 1.692 4918
2.771 2.230 1.755 1377
2.702 2.174 1.702 4925
2.595 2.088 1.639 2569
2.711 2.182 1.695 5421
2.605 2.096 1.633 2622
2.681 2.157 1.666 4179
2.788 2.243 1.727 2472
2.679 2.156 1.652 4843
2.786 2.242 1.714 2626
2.682 2.158 1.643 4227
2.795 2.249 1.707 3867
2.793 2.247 1.693 7093
2.686 2.161 1.633 2879
2.791 2.246 1.680 9493
2.898 2.332 1.740 1856
2.794 2.248 1.669 8362
2.902 2.335 1.729 2618
2.803 2.256 1.662 7390
2.911 2.342 1.722 2691
2.813 2.263 1.655 6822
2.920 2.350 1.714 2654
2.816 2.266 1.645 4364
2.924 2.353 1.703 3004
2.888 2.324 1.671 4076
2.903 2.336 1.666 6771
2.912 2.343 1.659 9704
2.938 2.364 1.660 9925
2.953 2.376 1.655 9521
2.951 2.374 1.641 9643
3.059 2.462 1.697 1329
2.960 2.382 1.633 8474
3.069 2.469 1.689 1503
2.969 2.389 1.625 6280
3.078 2.477 1.681 2092
2.978 2.396 1.617 5656
3.087 2.484 1.672 2643
2.998 2.413 1.615 5322
3.108 2.501 1.669 2242
3.013 2.425 1.609 4549
3.123 2.513 1.664 2866
3.120 2.511 1.649 4879
3.011 2.423 1.595 2707
3.112 2.504 1.632 5713
3.003 2.416 1.579 1780
3.110 2.502 1.618 4890
3.225 2.595 1.673 1698
3.113 2.505 1.606 4024
3.235 2.603 1.664 2572
3.244 2.610 1.655 3630
3.111 2.503 1.592 3045
3.253 2.618 1.646 3658
3.120 2.510 1.583 1638
3.262 2.625 1.636 3367
3.396 2.732 1.698 1621
3.266 2.628 1.624 2705
3.393 2.731 1.683 2574
3.333 2.682 1.641 3627
3.223 2.593 1.591 1642
3.336 2.685 1.629 5211
3.447 2.774 1.679 1445
3.386 2.725 1.638 5028
3.276 2.636 1.588 1511
3.413 2.746 1.635 6925
3.302 2.657 1.586 1718
3.422 2.754 1.625 6842
3.311 2.665 1.577 2315
3.426 2.756 1.613 5913
3.315 2.667 1.564 1613
3.429 2.759 1.600 8720
3.540 2.849 1.648 2841
3.438 2.767 1.590 9946
3.579 2.880 1.650 4296
3.441 2.769 1.577 6173
3.582 2.882 1.637 3493
3.439 2.767 1.562 6254
3.580 2.880 1.621 3568
3.442 2.770 1.549 8095
3.589 2.888 1.610 4903
3.445 2.772 1.536 5853
3.598 2.895 1.599 4813
3.443 2.770 1.521 4704
3.601 2.898 1.586 3816
3.734 3.005 1.625 4130
3.446 2.773 1.509 3969
3.755 3.022 1.618 4438
3.631 2.922 1.569 2063
3.764 3.029 1.606 3799
3.635 2.925 1.555 1572
3.732 3.003 1.578 2906
3.777 3.039 1.581 3275
3.889 3.129 1.624 1078
3.786 3.046 1.569 3325
3.898 3.137 1.612 2724
3.908 3.144 1.600 4909
3.795 3.054 1.557 2380
3.929 3.161 1.592 5314
3.816 3.071 1.550 1796
3.956 3.183 1.586 7609
3.843 3.092 1.544 1921
3.959 3.186 1.571 9736
3.846 3.095 1.530 1416
3.956 3.183 1.554 9282
4.188 3.370 1.638 1319
3.953 3.181 1.538 7979
4.191 3.372 1.623 1664
3.969 3.193 1.527 15149
4.189 3.370 1.605 2571
3.972 3.196 1.512 21244
4.180 3.363 1.585 3098
3.969 3.194 1.496 13119
4.314 3.472 1.615 2848
3.972 3.196 1.481 7062
4.324 3.479 1.601 4053
3.975 3.198 1.466 6581
4.351 3.501 1.593 4992
4.366 3.513 1.581 7946
3.978 3.201 1.451 3326
4.369 3.516 1.565 12289
4.489 3.612 1.604 2627
4.372 3.518 1.549 9971
4.552 3.663 1.607 4835
4.537 3.651 1.584 7668
4.382 3.526 1.534 5176
4.552 3.663 1.571 9145
4.385 3.528 1.518 3112
4.556 3.666 1.554 8961
4.837 3.892 1.643 1632
4.553 3.664 1.536 6367
4.853 3.905 1.628 1387
4.550 3.661 1.517 4527
4.850 3.903 1.608 2774
4.847 3.900 1.589 4632
4.547 3.659 1.498 3091
4.851 3.903 1.571 3613
4.586 3.690 1.492 1662
4.872 3.920 1.558 2633
4.992 4.017 1.593 1807
4.995 4.020 1.575 3562
4.881 3.928 1.542 2999
4.999 4.022 1.556 3950
4.884 3.930 1.523 2328
5.183 4.170 1.589 2496
4.996 4.020 1.536 2494
5.180 4.168 1.568 3591
4.999 4.023 1.517 2185
5.177 4.166 1.547 3288
5.014 4.035 1.502 2778
5.180 4.168 1.527 3529
5.017 4.037 1.483 2101
5.189 4.176 1.510 3952
5.455 4.390 1.581 2094
5.199 4.183 1.492 3788
5.470 4.402 1.563 2973
5.480 4.409 1.545 3829
5.202 4.186 1.473 2556
5.495 4.422 1.527 4107
5.326 4.285 1.484 1899
5.498 4.424 1.507 4704
5.335 4.293 1.466 1338
5.507 4.431 1.488 5817
5.931 4.773 1.593 1028
5.522 4.444 1.470 6453
5.928 4.770 1.569 1375
5.531 4.451 1.451 4001
6.011 4.836 1.566 1620
5.559 4.473 1.436 2780
6.050 4.868 1.552 2205
5.537 4.456 1.410 3089
6.181 4.973 1.559 1656
5.534 4.453 1.388 2823
6.172 4.966 1.533 1530
6.242 5.023 1.525 2058
6.357 5.115 1.551 1455
6.330 5.094 1.521 3314
6.215 5.001 1.495 1428
6.333 5.096 1.497 4335
6.631 5.336 1.561 1541
6.342 5.103 1.475 3948
6.634 5.338 1.537 1900
6.345 5.106 1.451 2885
6.638 5.341 1.512 1575
6.348 5.108 1.428 1943
6.635 5.339 1.486 1346
6.351 5.111 1.404 1998
6.650 5.351 1.464 1424
6.348 5.108 1.379 1863
6.848 5.510 1.477 1642
6.845 5.508 1.451 2289
6.650 5.351 1.413 1526
6.848 5.510 1.425 2814
7.275 5.854 1.506 1807
6.857 5.517 1.401 2756
7.278 5.856 1.479 2297
7.281 5.859 1.452 2225
6.860 5.520 1.375 2091
7.272 5.851 1.422 2304
7.156 5.758 1.402 1569
7.275 5.854 1.395 1745
7.073 5.691 1.360 1492
7.284 5.861 1.369 1397
7.070 5.689 1.333 1082
7.299 5.873 1.344 1808
7.301 5.875 1.317 1374
1.712 1.369 1.671 2248
1.838 1.469 1.786 2121
1.716 1.371 1.665 4497
1.842 1.472 1.780 4242
1.719 1.374 1.659 4497
1.846 1.475 1.773 4242
1.728 1.381 1.657 5643
1.849 1.478 1.766 5566
1.736 1.388 1.655 6917
1.853 1.481 1.760 6889
1.862 1.488 1.757 7886
1.735 1.387 1.644 5429
1.881 1.503 1.764 10190
1.738 1.389 1.638 3944
1.884 1.506 1.757 10190
1.742 1.392 1.632 2352
1.883 1.505 1.746 12170
1.980 1.582 1.831 1513
1.887 1.508 1.739 14441
1.984 1.586 1.823 1769
1.890 1.511 1.732 14412
1.988 1.589 1.816 2275
1.899 1.518 1.730 14459
1.997 1.596 1.813 2014
1.903 1.521 1.723 16051
2.001 1.599 1.806 3004
1.906 1.524 1.716 17643
2.004 1.602 1.799 3993
1.910 1.526 1.709 17009
2.008 1.605 1.791 3993
1.913 1.529 1.702 16374
2.022 1.616 1.793 5197
1.912 1.528 1.690 16259
2.026 1.619 1.785 7111
1.910 1.527 1.679 14621
2.030 1.622 1.778 8808
1.914 1.529 1.672 13098
2.039 1.629 1.775 10480
1.922 1.536 1.669 11766
2.048 1.636 1.771 10291
2.057 1.644 1.768 10726
1.926 1.539 1.662 10676
2.060 1.647 1.761 8753
1.929 1.542 1.655 8282
2.043 1.633 1.736 7193
1.928 1.541 1.644 5933
2.041 1.631 1.725 7908
1.936 1.547 1.641 4522
2.045 1.634 1.717 8676
1.940 1.550 1.634 3155
2.054 1.641 1.714 9200
2.154 1.722 1.792 4218
2.089 1.670 1.731 12439
2.189 1.750 1.809 1376
2.109 1.685 1.736 13205
2.118 1.692 1.732 15248
2.121 1.695 1.724 11057
2.130 1.702 1.720 6919
2.139 1.710 1.717 6603
2.240 1.790 1.793 1110
2.148 1.717 1.713 6582
2.249 1.798 1.789 1384
2.152 1.720 1.705 6398
2.253 1.801 1.780 2587
2.219 1.774 1.744 7546
2.118 1.692 1.669 2390
2.223 1.777 1.736 7456
2.121 1.695 1.662 1868
2.227 1.780 1.728 7301
2.125 1.698 1.654 1386
2.236 1.787 1.724 7276
2.133 1.705 1.650 1359
2.239 1.790 1.716 8240
2.342 1.872 1.789 1657
2.243 1.793 1.707 9204
2.345 1.875 1.781 2443
2.246 1.795 1.699 8108
2.349 1.878 1.772 2251
2.255 1.803 1.695 7049
2.358 1.885 1.767 1660
2.254 1.801 1.683 5933
2.357 1.883 1.755 2917
2.344 1.873 1.735 6068
2.241 1.791 1.663 3393
2.353 1.881 1.730 6596
2.250 1.798 1.659 2841
2.368 1.892 1.729 6313
2.264 1.809 1.658 2541
2.377 1.899 1.724 6635
2.257 1.803 1.642 2011
2.386 1.907 1.719 6106
2.260 1.806 1.634 1742
2.389 1.910 1.710 4946
2.209 1.765 1.589 1420
2.393 1.912 1.701 4258
2.201 1.759 1.574 1539
2.396 1.915 1.692 5613
2.501 1.999 1.761 1631
2.395 1.914 1.680 7525
2.499 1.997 1.749 2397
2.393 1.912 1.668 8040
2.503 2.000 1.739 2946
2.390 1.910 1.655 6407
2.506 2.003 1.730 4339
2.372 1.896 1.632 7327
2.510 2.006 1.721 5401
2.381 1.903 1.627 8349
2.491 1.991 1.698 5527
2.384 1.905 1.618 7530
2.489 1.990 1.685 4424
2.393 1.913 1.613 4806
2.521 2.015 1.693 3694
2.480 1.982 1.656 3966
2.613 2.089 1.739 2229
2.539 2.029 1.682 4875
2.645 2.114 1.747 3861
2.548 2.036 1.676 5341
2.654 2.121 1.741 5064
2.462 1.968 1.612 5005
2.663 2.128 1.734 4924
2.471 1.975 1.606 4848
2.667 2.131 1.725 4197
2.480 1.982 1.601 3701
2.665 2.130 1.711 2902
2.657 2.124 1.695 3030
2.483 1.985 1.591 1674
2.661 2.127 1.685 3659
2.767 2.212 1.748 1859
2.625 2.098 1.652 3999
2.732 2.183 1.715 3740
2.628 2.101 1.643 3892
2.780 2.222 1.731 3775
2.682 2.144 1.662 3559
2.790 2.229 1.724 2820
2.686 2.147 1.652 4555
2.793 2.232 1.714 2697
2.689 2.149 1.643 4169
2.802 2.240 1.707 3767
2.800 2.238 1.693 6333
2.693 2.152 1.633 2913
2.798 2.236 1.680 8580
2.906 2.322 1.740 1770
2.802 2.239 1.669 7471
2.910 2.325 1.729 2589
2.811 2.246 1.662 6094
2.919 2.333 1.722 2822
2.826 2.258 1.658 5802
2.934 2.345 1.717 2149
2.829 2.261 1.648 3905
2.937 2.348 1.706 2371
2.901 2.319 1.674 4058
2.916 2.330 1.670 5817
2.807 2.244 1.612 1052
2.931 2.342 1.665 8471
2.957 2.363 1.666 10087
2.966 2.371 1.658 9349
2.970 2.374 1.647 8678
2.968 2.372 1.633 7812
3.077 2.459 1.689 1377
2.971 2.374 1.622 6366
3.080 2.462 1.678 2036
2.986 2.386 1.617 6519
3.095 2.474 1.672 2495
3.001 2.398 1.612 6362
3.110 2.486 1.666 2739
3.027 2.419 1.612 4750
3.137 2.507 1.666 3155
3.134 2.505 1.652 4349
3.025 2.417 1.598 2430
3.115 2.489 1.629 4335
3.005 2.402 1.576 1245
3.118 2.492 1.618 4307
3.228 2.580 1.671 1795
3.122 2.495 1.606 4321
3.237 2.587 1.661 2687
3.258 2.604 1.658 3706
3.125 2.497 1.595 3417
3.273 2.616 1.651 3074
3.128 2.500 1.583 1957
3.341 2.670 1.669 2147
3.184 2.545 1.596 1346
3.344 2.673 1.656 2000
3.210 2.566 1.595 1170
3.342 2.671 1.641 2899
3.231 2.582 1.591 1463
3.345 2.674 1.629 4457
3.456 2.762 1.679 1695
3.384 2.704 1.632 4512
3.273 2.616 1.583 1442
3.422 2.735 1.635 6202
3.311 2.646 1.586 1818
3.431 2.742 1.625 6634
3.320 2.654 1.577 2879
3.435 2.745 1.613 4873
3.323 2.656 1.564 2254
3.438 2.748 1.600 4618
3.579 2.860 1.661 2763
3.518 2.811 1.620 5787
3.406 2.722 1.572 2628
3.515 2.809 1.604 5610
3.627 2.899 1.652 2112
3.595 2.873 1.623 4218
3.483 2.784 1.577 3766
3.592 2.871 1.608 5568
3.451 2.758 1.549 4771
3.608 2.883 1.599 5087
3.454 2.761 1.536 3326
3.611 2.886 1.586 3770
3.741 2.990 1.638 3103
3.738 2.988 1.622 4156
3.614 2.888 1.573 2839
3.777 3.019 1.623 4212
3.641 2.910 1.569 2684
3.780 3.021 1.609 3729
3.644 2.913 1.555 1957
3.784 3.024 1.595 2256
3.647 2.915 1.542 1024
3.787 3.027 1.581 2070
3.899 3.116 1.624 1257
3.909 3.124 1.612 2643
3.796 3.034 1.569 2349
3.918 3.131 1.600 4777
3.805 3.041 1.557 1982
3.939 3.148 1.592 5993
3.826 3.058 1.550 1795
3.960 3.165 1.584 8295
3.847 3.075 1.542 2335
3.969 3.172 1.571 10291
3.850 3.077 1.528 1791
3.973 3.175 1.557 9773
3.836 3.066 1.507 1477
3.970 3.173 1.540 8477
4.232 3.382 1.633 1578
3.979 3.180 1.527 17291
4.212 3.366 1.609 2218
3.982 3.183 1.512 24133
4.185 3.345 1.583 2634
3.985 3.185 1.498 14092
4.320 3.452 1.613 2671
3.988 3.188 1.483 8178
4.335 3.465 1.601 3307
3.991 3.190 1.468 9331
4.356 3.482 1.591 4468
4.366 3.489 1.577 6675
3.995 3.192 1.453 4711
4.381 3.501 1.565 9223
4.531 3.621 1.614 2078
4.384 3.504 1.549 6935
4.564 3.648 1.607 5012
4.561 3.645 1.588 6439
4.387 3.506 1.532 3541
4.571 3.653 1.573 9373
4.384 3.504 1.514 3005
4.568 3.651 1.554 9942
4.376 3.497 1.494 2218
4.565 3.648 1.536 6008
4.878 3.898 1.632 1190
4.568 3.651 1.519 4020
4.863 3.887 1.608 3167
4.860 3.884 1.589 5116
4.571 3.653 1.502 2928
4.870 3.892 1.572 3993
4.592 3.670 1.490 1880
4.879 3.899 1.556 3162
5.005 4.000 1.593 1775
5.009 4.003 1.575 3521
4.894 3.911 1.542 2906
5.006 4.001 1.554 3787
4.891 3.909 1.522 2180
5.190 4.148 1.587 2522
5.009 4.003 1.536 2313
5.194 4.151 1.568 3601
5.012 4.006 1.517 2503
5.185 4.144 1.545 3681
5.021 4.013 1.500 3466
5.182 4.141 1.524 3761
5.031 4.021 1.483 2475
5.191 4.149 1.507 3522
5.470 4.371 1.581 2187
5.485 4.384 1.563 3394
5.206 4.161 1.490 3302
5.488 4.386 1.543 3771
5.215 4.168 1.473 2178
5.497 4.394 1.524 3063
5.340 4.268 1.484 1409
5.507 4.401 1.505 3679
5.622 4.493 1.534 1134
5.522 4.413 1.488 5585
5.643 4.510 1.518 1880
5.537 4.425 1.470 6641
5.653 4.518 1.498 2430
5.540 4.428 1.450 4141
5.656 4.520 1.477 1818
5.543 4.430 1.429 2945
6.060 4.843 1.551 1909
5.546 4.432 1.409 3603
6.191 4.948 1.558 1451
5.549 4.435 1.388 3166
6.194 4.951 1.535 1322
5.546 4.432 1.366 1560
6.258 5.002 1.525 1558
6.353 5.077 1.522 2805
6.060 4.844 1.458 1383
6.350 5.075 1.497 3494
6.551 5.236 1.540 1882
6.359 5.082 1.475 3025
6.652 5.316 1.537 1811
6.362 5.085 1.451 2307
6.619 5.290 1.504 1606
6.652 5.317 1.486 1633
6.365 5.087 1.428 1436
6.668 5.329 1.464 2006
6.368 5.089 1.404 1394
6.866 5.488 1.477 1916
6.671 5.331 1.439 1886
6.869 5.490 1.452 2745
6.667 5.329 1.413 1622
6.872 5.492 1.426 3369
7.123 5.693 1.474 1760
6.875 5.495 1.401 3223
7.297 5.832 1.479 2128
6.878 5.497 1.375 2403
7.294 5.830 1.451 2173
7.291 5.827 1.422 2364
6.887 5.504 1.351 1507
7.288 5.825 1.394 1712
7.410 5.923 1.416 1396
7.413 5.925 1.388 1369
7.297 5.832 1.368 1184
7.318 5.849 1.344 1612
7.321 5.851 1.317 1253
1.716 1.364 1.671 2135
1.842 1.465 1.786 2087
1.719 1.367 1.665 4270
1.845 1.468 1.780 4174
1.723 1.370 1.659 4270
1.849 1.471 1.773 4174
1.731 1.377 1.657 5398
1.853 1.473 1.766 5323
1.740 1.384 1.655 6610
1.862 1.480 1.764 6540
1.876 1.492 1.766 8486
1.743 1.386 1.649 5254
1.884 1.499 1.764 11309
1.747 1.389 1.642 3898
1.888 1.501 1.757 11309
1.760 1.400 1.645 2377
1.887 1.500 1.746 13447
1.984 1.578 1.831 1544
1.890 1.503 1.739 15802
1.988 1.581 1.823 1896
1.894 1.506 1.732 16318
1.992 1.584 1.816 2324
1.903 1.513 1.730 16855
2.001 1.591 1.813 1995
1.906 1.516 1.723 18708
2.004 1.594 1.806 2897
1.910 1.519 1.716 20561
2.008 1.597 1.799 3798
1.914 1.522 1.709 19304
2.012 1.600 1.791 3798
1.917 1.525 1.702 18048
2.016 1.603 1.784 4974
1.916 1.523 1.690 17994
2.030 1.614 1.785 6814
1.919 1.526 1.683 16210
2.034 1.617 1.778 8411
1.917 1.525 1.672 14443
2.043 1.624 1.775 10013
1.926 1.532 1.669 13125
2.052 1.631 1.771 9880
1.930 1.534 1.662 11877
2.061 1.639 1.768 10312
1.933 1.537 1.655 9310
2.064 1.642 1.761 8561
2.052 1.632 1.740 6830
1.931 1.536 1.644 6790
2.051 1.631 1.729 7844
1.940 1.543 1.641 5061
2.049 1.629 1.717 8962
1.943 1.545 1.634 3380
2.063 1.641 1.718 9507
2.163 1.720 1.796 3797
2.093 1.665 1.731 12729
1.966 1.563 1.632 1540
2.107 1.676 1.731 13535
2.122 1.687 1.732 15763
2.125 1.690 1.724 11634
2.134 1.697 1.720 7533
2.143 1.704 1.717 7168
2.245 1.785 1.793 1122
2.152 1.711 1.713 7101
2.254 1.792 1.789 1321
2.156 1.714 1.705 6621
2.258 1.795 1.780 2460
2.224 1.768 1.744 7302
2.122 1.687 1.669 2579
2.222 1.767 1.732 7433
2.120 1.686 1.658 1475
2.226 1.770 1.724 7091
2.123 1.688 1.650 1109
2.240 1.781 1.724 6752
2.138 1.700 1.650 1275
2.244 1.784 1.716 7524
2.346 1.866 1.789 1659
2.247 1.787 1.707 8297
2.350 1.869 1.781 2418
2.251 1.790 1.699 7867
2.354 1.872 1.772 2170
2.254 1.793 1.691 7437
2.358 1.875 1.763 1922
2.258 1.796 1.683 6359
2.361 1.878 1.755 2939
2.349 1.868 1.735 6469
2.245 1.785 1.663 3398
2.358 1.875 1.730 7145
2.254 1.792 1.659 2963
2.372 1.886 1.729 6467
2.268 1.804 1.658 2698
2.381 1.894 1.724 6493
2.272 1.807 1.650 1933
2.390 1.901 1.719 6535
2.281 1.814 1.645 1653
2.394 1.904 1.710 5861
2.290 1.821 1.640 1074
2.398 1.907 1.701 5134
2.502 1.990 1.771 1141
2.401 1.909 1.692 5999
2.506 1.993 1.761 1344
2.399 1.908 1.680 7140
2.504 1.991 1.749 1797
2.397 1.906 1.668 7610
2.502 1.990 1.736 2561
2.395 1.905 1.655 6304
2.506 1.993 1.727 4453
2.376 1.890 1.632 7503
2.509 1.996 1.718 6036
2.385 1.897 1.627 8533
2.491 1.981 1.694 5909
2.389 1.900 1.618 7105
2.494 1.984 1.685 4362
2.398 1.907 1.613 4050
2.531 2.013 1.697 3024
2.479 1.971 1.653 3813
2.607 2.073 1.733 2248
2.628 2.090 1.733 5126
2.460 1.956 1.630 4445
2.609 2.075 1.710 6433
2.458 1.955 1.618 4955
2.607 2.073 1.697 6381
2.461 1.957 1.609 4646
2.644 2.103 1.708 4840
2.470 1.964 1.603 4193
2.569 2.043 1.651 3526
2.687 2.137 1.722 2940
2.606 2.073 1.662 3599
2.713 2.157 1.725 2253
2.621 2.084 1.659 4091
2.728 2.169 1.722 3024
2.630 2.091 1.652 4822
2.776 2.208 1.738 4167
2.633 2.094 1.643 4805
2.780 2.211 1.728 4646
2.705 2.151 1.672 3370
2.812 2.236 1.734 2323
2.702 2.149 1.659 3891
2.821 2.244 1.727 2610
2.717 2.161 1.655 4008
2.825 2.246 1.716 3353
2.806 2.231 1.693 5415
2.698 2.146 1.633 2651
2.809 2.234 1.683 7125
2.701 2.148 1.623 1391
2.813 2.237 1.673 6139
2.921 2.323 1.732 1883
2.885 2.294 1.700 6364
2.777 2.208 1.640 2278
2.900 2.306 1.695 6078
2.791 2.220 1.636 2349
2.903 2.309 1.685 4593
2.901 2.307 1.671 4184
2.922 2.323 1.670 5119
2.813 2.237 1.612 1056
2.959 2.353 1.677 8362
2.851 2.267 1.619 1000
2.969 2.361 1.669 10397
2.978 2.368 1.661 9755
2.976 2.366 1.647 8771
2.973 2.364 1.633 7794
3.083 2.451 1.689 1279
2.977 2.367 1.622 6368
3.086 2.454 1.678 1906
2.997 2.384 1.620 6681
3.107 2.471 1.675 2396
3.007 2.391 1.612 6437
3.116 2.478 1.666 3307
3.056 2.430 1.624 4261
3.166 2.518 1.678 2292
3.152 2.507 1.658 3836
3.042 2.419 1.604 2025
3.173 2.523 1.654 3654
3.063 2.436 1.601 2219
3.124 2.484 1.618 3941
3.234 2.572 1.671 1866
3.133 2.492 1.609 4275
3.244 2.579 1.661 2466
3.270 2.601 1.661 3663
3.131 2.490 1.595 3269
3.280 2.608 1.651 3218
3.128 2.488 1.580 2108
3.336 2.653 1.663 3241
3.207 2.551 1.604 1529
3.351 2.665 1.656 2257
3.217 2.558 1.595 1636
3.313 2.635 1.626 3050
3.436 2.732 1.681 1516
3.346 2.661 1.626 4106
3.463 2.754 1.679 1882
3.373 2.682 1.625 4690
3.484 2.770 1.674 1459
3.382 2.689 1.615 5035
3.493 2.778 1.664 1433
3.438 2.734 1.625 6024
3.327 2.645 1.577 2957
3.441 2.737 1.613 4410
3.330 2.648 1.564 2541
3.521 2.800 1.633 3436
3.398 2.702 1.580 2719
3.525 2.803 1.620 6430
3.413 2.714 1.572 2264
3.522 2.801 1.604 7219
3.634 2.890 1.652 2624
3.608 2.869 1.626 4978
3.496 2.780 1.579 4006
3.599 2.862 1.608 6493
3.487 2.773 1.561 2537
3.615 2.874 1.599 5111
3.762 2.992 1.660 1933
