3.747 3.328 1.614 4336
3.634 3.227 1.569 1283
3.756 3.335 1.602 6865
3.648 3.240 1.559 1482
3.765 3.343 1.590 6927
3.873 3.439 1.632 1845
3.791 3.366 1.584 6148
3.899 3.462 1.625 1453
3.811 3.384 1.576 5838
3.919 3.480 1.617 1279
3.825 3.397 1.565 3979
3.934 3.493 1.606 1838
3.908 3.471 1.580 3911
3.800 3.375 1.540 2572
3.911 3.474 1.565 4657
4.020 3.570 1.605 2281
3.915 3.476 1.550 3534
4.029 3.578 1.592 2655
3.912 3.474 1.533 3005
4.032 3.581 1.576 2929
4.132 3.670 1.595 3558
4.024 3.573 1.556 2998
4.135 3.672 1.579 4757
4.261 3.784 1.623 3570
4.270 3.792 1.609 5059
4.150 3.685 1.567 4150
4.279 3.800 1.594 3616
4.388 3.897 1.632 2581
4.403 3.910 1.619 3954
4.282 3.803 1.578 2354
4.406 3.913 1.602 5942
4.280 3.801 1.559 2531
4.415 3.921 1.586 5890
4.547 4.038 1.630 3095
4.435 3.939 1.575 4675
4.550 4.041 1.613 4570
4.439 3.942 1.558 4362
4.565 4.054 1.599 3288
4.574 4.062 1.583 3413
4.465 3.965 1.548 2749
4.571 4.060 1.563 4513
4.704 4.177 1.605 1317
4.569 4.057 1.544 4496
4.707 4.180 1.587 2325
4.705 4.178 1.567 4256
4.583 4.070 1.530 3871
4.708 4.181 1.549 5371
4.586 4.073 1.512 3021
4.722 4.194 1.534 5482
4.584 4.070 1.492 1827
4.720 4.191 1.514 4514
4.587 4.073 1.475 1579
4.722 4.194 1.495 3563
5.110 4.538 1.608 1263
4.731 4.202 1.479 3503
4.841 4.299 1.510 1278
4.769 4.235 1.470 3308
5.099 4.528 1.563 1261
4.783 4.248 1.455 4498
5.276 4.685 1.592 1126
4.786 4.250 1.437 5244
5.285 4.693 1.573 1699
4.789 4.253 1.418 4538
5.387 4.784 1.579 1771
4.792 4.255 1.399 3293
5.401 4.797 1.561 1827
4.800 4.263 1.382 2359
5.416 4.810 1.543 1351
5.663 5.029 1.585 2116
4.803 4.265 1.364 1310
5.672 5.037 1.565 2549
5.853 5.197 1.610 1308
5.739 5.097 1.559 2589
5.856 5.200 1.588 1404
5.766 5.120 1.542 2316
5.655 5.022 1.515 1751
5.891 5.232 1.549 1788
5.769 5.123 1.520 1633
5.894 5.234 1.526 1805
6.063 5.384 1.566 1645
5.932 5.268 1.512 1781
6.160 5.470 1.565 1773
5.941 5.276 1.490 2260
6.134 5.447 1.534 1898
6.142 5.455 1.512 2367
5.950 5.284 1.468 1521
6.163 5.473 1.492 3611
5.976 5.307 1.450 1107
6.160 5.470 1.466 3664
6.604 5.865 1.563 1469
6.163 5.473 1.443 2940
6.595 5.857 1.535 1759
6.172 5.481 1.420 3196
6.604 5.865 1.510 1952
6.174 5.483 1.396 2673
6.619 5.878 1.487 1765
6.183 5.491 1.373 1373
6.622 5.881 1.461 1323
6.619 5.878 1.434 1426
7.082 6.289 1.526 1063
7.085 6.291 1.498 1117
6.622 5.880 1.409 1077
1.669 1.471 1.694 2218
1.760 1.552 1.782 1400
1.672 1.474 1.688 4437
1.764 1.555 1.775 2801
1.675 1.477 1.682 4437
1.768 1.558 1.768 2801
1.684 1.484 1.680 3871
1.776 1.565 1.766 2780
1.711 1.508 1.696 4506
1.804 1.590 1.782 1731
1.720 1.516 1.694 5065
1.812 1.597 1.780 2760
1.728 1.523 1.692 5737
1.821 1.605 1.778 3480
1.726 1.522 1.681 5737
1.819 1.604 1.766 4101
1.813 1.598 1.750 5380
1.720 1.516 1.665 4618
1.822 1.606 1.748 5863
1.718 1.515 1.654 3958
1.825 1.609 1.741 5286
1.727 1.522 1.652 2822
1.839 1.621 1.743 4780
1.745 1.538 1.659 1891
1.847 1.628 1.740 5428
1.753 1.545 1.657 1328
1.860 1.640 1.742 6161
1.766 1.557 1.659 1230
1.874 1.652 1.743 6031
1.780 1.569 1.661 1563
1.887 1.663 1.745 6955
1.793 1.580 1.663 1368
1.901 1.675 1.746 8401
1.806 1.592 1.665 1592
1.904 1.678 1.739 10908
1.809 1.595 1.658 1138
1.908 1.682 1.732 13426
1.921 1.693 1.733 11448
1.940 1.710 1.738 10251
1.844 1.626 1.658 1485
1.943 1.713 1.731 11757
1.848 1.629 1.651 1090
1.947 1.716 1.724 13263
1.955 1.723 1.720 10964
1.964 1.731 1.717 9474
2.060 1.816 1.796 1416
1.982 1.747 1.722 6787
1.886 1.663 1.644 1184
2.016 1.777 1.739 7067
1.920 1.692 1.661 1575
2.040 1.798 1.748 7602
1.944 1.713 1.670 1883
2.049 1.806 1.744 8488
1.952 1.721 1.667 2308
2.037 1.795 1.724 7822
1.848 1.629 1.574 1789
2.035 1.794 1.712 7644
1.851 1.632 1.567 1904
2.034 1.793 1.701 5601
1.855 1.635 1.560 1746
2.022 1.782 1.681 3909
2.119 1.868 1.757 2467
2.112 1.862 1.741 4009
2.015 1.776 1.665 3247
2.121 1.870 1.737 5395
2.023 1.783 1.661 2381
2.125 1.873 1.728 5442
1.851 1.632 1.520 1693
2.133 1.880 1.724 7482
1.839 1.621 1.501 1307
2.137 1.883 1.716 9375
1.832 1.614 1.486 1111
2.140 1.886 1.708 12024
2.239 1.973 1.782 1293
2.144 1.889 1.700 14673
2.242 1.976 1.773 1691
2.147 1.892 1.692 13741
2.246 1.979 1.764 2531
2.150 1.895 1.683 12809
2.249 1.982 1.756 3372
2.159 1.903 1.679 9481
2.258 1.990 1.751 5153
2.246 1.980 1.731 10872
2.147 1.892 1.659 4674
2.249 1.983 1.723 11627
2.150 1.895 1.651 3847
2.248 1.981 1.710 9265
2.148 1.893 1.639 2584
2.246 1.979 1.698 7045
2.146 1.892 1.627 1930
2.249 1.982 1.689 7405
2.149 1.894 1.619 2337
2.247 1.981 1.677 9286
2.147 1.893 1.607 2129
2.251 1.984 1.668 10774
2.351 2.072 1.738 2821
2.254 1.987 1.660 9776
2.354 2.075 1.729 3417
2.284 2.013 1.669 6527
2.384 2.101 1.738 2095
2.351 2.072 1.704 5997
2.218 1.955 1.614 2708
2.322 2.047 1.673 5587
2.434 2.145 1.748 2551
2.326 2.050 1.664 5476
2.437 2.148 1.739 3682
2.329 2.053 1.655 4533
2.435 2.146 1.726 4513
2.412 2.126 1.699 6290
2.279 2.009 1.611 2625
2.447 2.157 1.711 6849
2.277 2.007 1.599 3477
2.456 2.165 1.705 8033
2.355 2.076 1.639 4340
2.390 2.107 1.651 7758
2.492 2.196 1.716 5392
2.506 2.209 1.713 7347
2.383 2.100 1.635 6866
2.488 2.193 1.690 7746
2.386 2.103 1.626 5691
2.502 2.205 1.687 9917
2.121 1.869 1.447 5132
2.516 2.218 1.685 11365
2.124 1.872 1.439 4873
2.525 2.225 1.678 9385
2.627 2.316 1.742 4105
2.539 2.238 1.675 8140
2.641 2.328 1.738 3680
2.526 2.227 1.656 6902
2.634 2.322 1.722 4937
2.524 2.225 1.643 5779
2.643 2.330 1.715 4974
2.636 2.323 1.698 4805
2.533 2.232 1.636 4783
2.639 2.326 1.688 4657
2.536 2.235 1.627 4236
2.653 2.339 1.684 7915
2.539 2.238 1.617 3124
2.662 2.346 1.677 14145
2.553 2.251 1.614 1554
2.665 2.349 1.667 14852
2.769 2.441 1.727 2243
2.674 2.357 1.660 10034
2.778 2.448 1.720 2316
2.678 2.360 1.650 6743
2.781 2.451 1.709 2750
2.675 2.358 1.636 5437
2.779 2.450 1.695 3345
2.755 2.429 1.669 5353
2.651 2.337 1.611 2566
2.759 2.431 1.659 7931
2.655 2.340 1.601 2009
2.767 2.439 1.651 7708
2.663 2.347 1.593 1270
2.776 2.447 1.644 7544
2.886 2.544 1.704 1834
2.785 2.455 1.636 6504
2.889 2.547 1.693 2887
2.794 2.462 1.628 5214
2.898 2.555 1.685 3734
2.896 2.553 1.671 5332
2.791 2.460 1.615 4222
2.911 2.565 1.666 4988
2.806 2.473 1.610 3623
2.914 2.568 1.654 4708
2.809 2.476 1.599 2351
2.978 2.625 1.675 3871
2.873 2.532 1.620 2483
2.976 2.623 1.661 3374
2.871 2.530 1.606 1466
2.974 2.621 1.646 2937
3.010 2.653 1.652 3508
3.008 2.651 1.638 4165
3.113 2.744 1.691 1584
3.072 2.708 1.657 3976
2.967 2.615 1.604 2928
3.076 2.711 1.645 4898
2.970 2.618 1.592 1989
3.084 2.719 1.636 5740
3.190 2.812 1.688 1204
3.093 2.727 1.627 6254
3.199 2.820 1.678 1205
3.091 2.724 1.612 5532
3.197 2.818 1.663 1946
3.128 2.757 1.616 3920
3.234 2.850 1.667 1100
3.193 2.814 1.633 3966
3.086 2.720 1.583 1877
3.162 2.787 1.605 5908
3.302 2.911 1.671 1730
3.188 2.810 1.604 5499
3.322 2.928 1.666 1775
3.202 2.822 1.597 4699
3.365 2.966 1.672 2001
3.284 2.895 1.620 3239
3.408 3.004 1.677 2569
3.310 2.917 1.618 3086
3.428 3.021 1.671 2274
3.347 2.950 1.620 4512
3.454 3.044 1.668 2907
3.344 2.948 1.605 5238
3.508 3.092 1.677 3699
3.522 3.105 1.669 4690
3.415 3.010 1.622 4187
3.526 3.108 1.655 5108
3.418 3.013 1.609 2851
3.529 3.111 1.642 5638
3.422 3.016 1.595 1804
3.527 3.108 1.626 9720
3.634 3.203 1.672 2253
3.530 3.111 1.612 14905
3.637 3.206 1.658 3835
3.533 3.114 1.599 16042
3.641 3.209 1.644 5160
3.536 3.117 1.585 12372
3.650 3.217 1.632 3439
3.539 3.120 1.571 6070
3.732 3.290 1.650 2371
3.741 3.298 1.638 2902
3.537 3.117 1.555 2662
3.756 3.311 1.629 2789
3.546 3.125 1.544 2173
3.765 3.319 1.616 4443
3.549 3.128 1.530 1659
3.768 3.321 1.602 6598
3.654 3.221 1.557 1074
3.771 3.324 1.587 6450
3.886 3.425 1.632 2214
3.803 3.352 1.584 6076
3.912 3.448 1.625 1896
3.818 3.365 1.573 6383
3.926 3.461 1.615 2054
3.832 3.378 1.563 3821
3.941 3.474 1.604 2205
3.915 3.451 1.578 5536
4.024 3.547 1.618 2566
3.924 3.459 1.565 6595
4.033 3.555 1.605 2124
3.922 3.457 1.548 4574
4.042 3.563 1.592 2137
3.925 3.459 1.533 4732
4.171 3.677 1.621 2870
3.928 3.462 1.518 4671
4.169 3.675 1.603 3814
4.155 3.662 1.581 4879
4.275 3.768 1.623 4290
4.279 3.771 1.607 5709
4.164 3.670 1.567 4405
4.293 3.784 1.594 3949
4.178 3.683 1.555 2275
4.423 3.899 1.621 3736
4.297 3.787 1.578 2728
4.421 3.896 1.602 5691
4.288 3.780 1.557 2785
4.430 3.904 1.586 5586
4.562 4.021 1.630 2907
4.565 4.024 1.613 4990
4.444 3.917 1.573 4354
4.453 3.925 1.558 4049
4.580 4.037 1.599 3780
4.589 4.045 1.583 3079
4.474 3.943 1.546 2525
4.581 4.038 1.561 4221
4.720 4.160 1.605 1362
4.578 4.035 1.542 4124
4.728 4.168 1.589 2555
4.726 4.165 1.569 3906
4.593 4.048 1.528 3491
4.729 4.168 1.550 4722
4.602 4.056 1.512 2732
4.738 4.176 1.534 4643
4.599 4.053 1.492 1455
4.741 4.179 1.515 3293
5.124 4.516 1.628 1438
4.744 4.181 1.497 2566
5.121 4.514 1.606 1568
4.747 4.184 1.479 2580
5.107 4.501 1.581 1265
4.790 4.222 1.472 2816
5.122 4.514 1.565 1363
4.799 4.230 1.455 4123
5.148 4.538 1.552 1458
4.802 4.233 1.437 4639
5.297 4.668 1.571 1734
4.805 4.235 1.418 3936
5.410 4.769 1.581 2009
4.808 4.237 1.399 2704
5.419 4.777 1.561 2155
4.816 4.245 1.382 1935
5.440 4.795 1.545 1454
5.705 5.029 1.591 2044
5.513 4.859 1.542 1082
5.738 5.057 1.576 2544
5.627 4.960 1.548 1140
5.758 5.075 1.559 2916
5.525 4.870 1.501 1512
5.785 5.099 1.542 2864
5.674 5.001 1.515 1676
5.794 5.107 1.521 2089
5.911 5.210 1.549 1906
5.908 5.207 1.525 1955
5.797 5.109 1.499 1423
5.958 5.251 1.513 2203
5.817 5.127 1.480 1727
5.961 5.254 1.490 2835
6.154 5.424 1.534 2610
6.157 5.427 1.510 2897
5.969 5.261 1.468 2067
6.177 5.445 1.490 3354
5.990 5.280 1.449 1456
6.180 5.447 1.466 3219
6.626 5.840 1.563 1595
6.183 5.450 1.443 2396
6.629 5.843 1.537 1697
6.192 5.458 1.420 2453
6.661 5.871 1.518 1687
6.195 5.460 1.396 2088
6.653 5.864 1.489 1458
7.072 6.234 1.547 1186
6.197 5.462 1.372 1115
7.087 6.247 1.522 1131
6.641 5.853 1.434 1010
7.108 6.265 1.498 1124
1.674 1.465 1.694 1696
1.766 1.546 1.782 1022
1.677 1.468 1.688 3392
1.769 1.549 1.775 2045
1.681 1.471 1.682 3392
1.773 1.552 1.768 2045
1.703 1.491 1.693 3721
1.796 1.572 1.780 2028
1.717 1.503 1.696 5129
1.809 1.584 1.782 2069
1.725 1.510 1.694 5692
1.818 1.591 1.780 2872
1.728 1.513 1.687 6405
1.821 1.594 1.773 3948
1.732 1.516 1.681 6405
1.825 1.597 1.766 3948
1.730 1.514 1.670 5280
1.824 1.596 1.755 4354
1.729 1.513 1.659 4572
1.832 1.604 1.752 4434
1.831 1.602 1.741 4937
1.732 1.516 1.652 3336
1.829 1.601 1.730 5662
1.735 1.519 1.646 2100
1.838 1.609 1.727 5963
1.743 1.526 1.644 1437
1.846 1.616 1.724 6611
1.941 1.699 1.807 1130
1.879 1.645 1.743 5734
1.785 1.562 1.661 1697
1.893 1.657 1.745 6937
1.798 1.574 1.663 1624
1.902 1.664 1.742 8501
1.807 1.581 1.660 1724
1.905 1.668 1.735 11279
1.810 1.584 1.653 1209
1.914 1.675 1.732 14217
1.922 1.682 1.729 11891
1.941 1.699 1.734 10247
1.845 1.615 1.654 1000
1.949 1.706 1.731 11173
1.953 1.709 1.724 12176
1.961 1.717 1.720 9709
1.975 1.729 1.721 8204
2.071 1.813 1.800 1195
1.999 1.749 1.730 6405
1.902 1.665 1.652 1481
2.022 1.770 1.739 7013
1.926 1.686 1.661 1400
2.046 1.791 1.748 7548
1.949 1.706 1.670 1669
2.050 1.794 1.740 8451
1.953 1.709 1.663 1906
2.043 1.788 1.724 8179
1.854 1.623 1.574 1374
2.042 1.787 1.712 8297
1.852 1.621 1.563 1467
2.045 1.790 1.705 6246
1.860 1.628 1.560 1373
2.043 1.789 1.693 4264
2.141 1.874 1.769 1716
2.119 1.855 1.741 3759
2.021 1.769 1.665 3092
2.127 1.862 1.737 5608
2.029 1.776 1.661 2023
2.131 1.865 1.728 6524
1.852 1.621 1.516 1786
2.145 1.877 1.728 8787
1.850 1.619 1.505 1306
2.148 1.880 1.720 10000
2.152 1.884 1.712 12425
2.250 1.970 1.785 1209
2.155 1.887 1.704 14849
2.254 1.973 1.777 1586
2.159 1.890 1.695 13994
2.258 1.976 1.768 2089
2.162 1.893 1.687 13138
2.261 1.979 1.760 2593
2.165 1.895 1.679 9881
2.265 1.982 1.751 4939
2.253 1.972 1.731 10355
2.153 1.885 1.659 5276
2.251 1.970 1.719 11501
2.151 1.883 1.647 4045
2.254 1.973 1.710 9204
2.154 1.886 1.639 3143
2.274 1.990 1.713 7064
2.174 1.903 1.642 3654
2.256 1.975 1.689 7503
2.156 1.887 1.619 2499
2.254 1.973 1.677 9796
2.354 2.061 1.747 2439
2.252 1.971 1.665 11432
2.353 2.059 1.734 3884
2.261 1.979 1.660 9838
2.361 2.067 1.729 3746
2.291 2.005 1.669 6831
2.391 2.093 1.738 2197
2.363 2.068 1.707 5686
2.225 1.948 1.614 2247
2.361 2.067 1.695 5232
2.462 2.155 1.762 1873
2.333 2.042 1.664 4908
2.444 2.140 1.739 3646
2.443 2.138 1.726 4555
2.331 2.040 1.652 3970
2.419 2.118 1.699 6228
2.296 2.010 1.618 3371
2.455 2.149 1.711 7822
2.300 2.013 1.610 4690
2.464 2.157 1.705 9221
2.303 2.016 1.601 4826
2.397 2.098 1.651 7646
2.499 2.188 1.716 5309
2.422 2.120 1.655 6804
2.524 2.210 1.720 6178
2.490 2.180 1.687 6932
2.130 1.864 1.459 5064
2.515 2.201 1.691 9234
2.132 1.867 1.451 5213
2.524 2.209 1.685 11793
2.135 1.869 1.443 4369
2.538 2.222 1.682 9765
2.641 2.311 1.745 3965
2.558 2.239 1.682 8541
2.130 1.865 1.420 3480
2.545 2.227 1.662 6849
2.648 2.318 1.725 5259
2.537 2.221 1.646 5592
2.651 2.321 1.715 4724
2.540 2.224 1.636 4812
2.644 2.314 1.698 3825
2.544 2.227 1.627 4469
2.647 2.317 1.688 3164
2.656 2.325 1.681 5743
2.547 2.229 1.617 3470
2.670 2.337 1.677 11189
2.561 2.242 1.614 1695
2.679 2.345 1.670 12378
2.783 2.436 1.731 1610
2.677 2.343 1.657 8433
2.781 2.434 1.717 2349
2.675 2.341 1.644 5566
2.779 2.432 1.703 3193
2.683 2.349 1.636 4940
2.788 2.440 1.695 3278
2.764 2.419 1.669 4976
2.659 2.328 1.611 2331
2.767 2.422 1.659 7242
2.663 2.331 1.601 1859
2.770 2.425 1.648 6935
2.785 2.437 1.644 6342
2.889 2.529 1.701 1683
2.793 2.445 1.636 5272
2.898 2.537 1.693 2647
2.808 2.458 1.631 3985
2.913 2.549 1.688 2874
2.905 2.543 1.671 4678
2.800 2.451 1.615 3412
2.919 2.555 1.666 4503
2.814 2.463 1.610 3396
2.917 2.553 1.651 4292
2.812 2.461 1.596 2086
2.993 2.619 1.678 4010
2.887 2.527 1.623 2601
2.979 2.608 1.658 2906
2.874 2.516 1.603 1072
2.949 2.582 1.629 2140
3.055 2.674 1.683 1671
3.025 2.648 1.655 2938
2.919 2.555 1.601 1233
3.089 2.704 1.674 4079
2.984 2.612 1.621 2818
3.093 2.707 1.662 5236
2.987 2.614 1.609 3449
3.085 2.700 1.645 5934
2.979 2.608 1.592 1938
3.088 2.703 1.633 6451
3.194 2.796 1.685 1434
3.103 2.716 1.627 5960
3.209 2.809 1.678 1049
3.100 2.714 1.612 4673
3.207 2.807 1.663 1836
3.143 2.751 1.619 3747
3.249 2.844 1.670 1145
3.208 2.808 1.636 4361
3.101 2.715 1.586 1587
3.172 2.776 1.605 5508
3.301 2.889 1.666 1744
3.197 2.799 1.604 5517
3.327 2.912 1.664 1540
3.206 2.807 1.594 4949
3.409 2.984 1.687 2059
3.288 2.878 1.618 3017
3.412 2.987 1.674 2887
3.320 2.906 1.618 3230
3.438 3.010 1.671 2155
3.351 2.933 1.618 3621
3.459 3.027 1.666 2423
3.349 2.931 1.602 3943
3.524 3.085 1.680 3412
3.533 3.093 1.669 4237
3.426 2.999 1.622 3718
3.536 3.096 1.655 4639
3.355 2.937 1.577 2992
3.540 3.098 1.642 5480
3.432 3.004 1.595 1663
3.537 3.096 1.626 9876
3.645 3.191 1.672 1831
3.541 3.099 1.612 14927
3.648 3.194 1.658 2986
3.544 3.102 1.599 16234
3.652 3.197 1.644 3859
3.547 3.105 1.585 13141
3.661 3.204 1.632 2593
3.556 3.113 1.574 6498
3.744 3.277 1.650 1849
3.553 3.110 1.558 2568
3.764 3.295 1.643 2290
3.773 3.303 1.631 2674
3.556 3.113 1.544 2271
3.782 3.311 1.619 4575
3.559 3.116 1.530 1919
3.780 3.308 1.602 6292
3.557 3.113 1.515 1083
3.783 3.311 1.587 5674
3.891 3.406 1.629 2208
3.809 3.334 1.582 5813
3.918 3.429 1.623 2440
3.824 3.347 1.571 6990
3.932 3.442 1.612 3184
3.918 3.430 1.591 4854
3.809 3.335 1.550 3272
3.927 3.438 1.578 7810
4.036 3.533 1.618 2355
3.930 3.440 1.563 8963
4.040 3.536 1.603 1823
3.934 3.443 1.548 5986
4.169 3.649 1.633 1407
3.931 3.441 1.531 7008
4.178 3.657 1.619 2865
3.934 3.444 1.516 7741
4.181 3.660 1.603 3984
4.288 3.754 1.623 4802
3.937 3.446 1.500 4511
4.286 3.752 1.605 5609
4.171 3.651 1.565 3803
4.301 3.764 1.592 3563
4.439 3.886 1.640 1948
4.437 3.884 1.621 3283
4.321 3.782 1.582 2611
4.428 3.876 1.600 5026
4.301 3.765 1.557 2756
4.437 3.884 1.584 4952
4.576 4.006 1.630 2612
4.579 4.008 1.613 4948
4.469 3.912 1.577 3830
4.594 4.021 1.599 4008
4.472 3.915 1.560 3579
4.603 4.029 1.583 2943
4.487 3.928 1.546 2209
4.589 4.017 1.560 3923
4.757 4.164 1.612 1280
4.592 4.019 1.542 3436
4.749 4.157 1.590 2558
4.746 4.154 1.570 3418
4.607 4.032 1.528 2753
4.749 4.157 1.552 3826
4.615 4.040 1.512 2102
4.758 4.165 1.535 3812
4.868 4.262 1.568 1094
4.831 4.229 1.538 2760
5.139 4.499 1.628 2073
4.840 4.236 1.521 2130
5.131 4.491 1.604 2103
4.767 4.173 1.481 1539
5.128 4.489 1.583 1330
4.805 4.206 1.472 1994
5.155 4.512 1.570 1657
4.819 4.219 1.457 3135
5.158 4.515 1.550 2098
4.816 4.216 1.437 3372
5.167 4.523 1.532 1798
4.819 4.219 1.418 2779
5.427 4.750 1.581 2074
5.441 4.763 1.563 2236
4.828 4.226 1.401 1824
5.374 4.704 1.524 1656
4.831 4.229 1.382 1210
5.728 5.014 1.593 1872
5.377 4.707 1.503 1393
5.755 5.038 1.576 2515
5.533 4.843 1.520 1191
5.776 5.056 1.559 3064
5.541 4.851 1.501 1607
5.802 5.079 1.542 3180
5.550 4.858 1.481 1525
5.811 5.087 1.521 2565
5.923 5.184 1.548 1889
5.832 5.105 1.503 2092
5.943 5.202 1.529 1762
5.970 5.226 1.512 2429
5.829 5.102 1.479 1910
6.178 5.408 1.535 3227
5.979 5.233 1.490 3069
6.175 5.406 1.510 3308
5.987 5.241 1.468 2323
6.190 5.418 1.489 2882
6.002 5.254 1.448 1641
6.193 5.421 1.465 2610
6.652 5.823 1.564 1588
6.196 5.424 1.441 1712
6.655 5.825 1.538 1709
6.511 5.699 1.482 1883
6.681 5.848 1.518 1701
6.508 5.696 1.456 1821
6.213 5.439 1.396 1370
6.511 5.699 1.431 1052
7.088 6.204 1.546 1017
7.103 6.217 1.521 1035
1.688 1.468 1.703 1332
1.692 1.471 1.697 2664
1.784 1.551 1.784 1177
1.695 1.474 1.691 2664
1.788 1.555 1.778 1177
1.708 1.486 1.693 3674
1.801 1.566 1.780 1945
1.717 1.493 1.691 5116
1.810 1.574 1.778 2520
1.730 1.504 1.694 6183
1.823 1.585 1.780 2856
1.738 1.512 1.692 7586
1.831 1.593 1.778 3356
1.741 1.514 1.685 7586
1.835 1.596 1.771 3356
1.740 1.513 1.674 6158
1.834 1.595 1.759 3782
1.743 1.516 1.668 4787
1.837 1.598 1.752 3811
1.826 1.588 1.732 5269
1.732 1.506 1.648 3559
1.829 1.591 1.725 6555
1.735 1.509 1.641 2440
1.838 1.598 1.723 6590
1.743 1.516 1.639 1932
1.851 1.610 1.724 6946
1.757 1.528 1.641 1863
1.860 1.617 1.722 5549
1.765 1.535 1.639 1687
1.898 1.651 1.745 6596
1.803 1.568 1.663 1974
1.902 1.654 1.738 8212
1.807 1.571 1.656 1931
1.910 1.661 1.735 11216
1.815 1.578 1.653 1375
1.914 1.664 1.728 14309
1.927 1.676 1.729 11883
1.936 1.684 1.726 10197
1.955 1.700 1.731 10694
1.958 1.703 1.724 11496
1.967 1.710 1.720 8911
1.985 1.727 1.725 7200
1.889 1.643 1.647 1085
2.009 1.747 1.734 6078
1.913 1.663 1.656 1348
2.028 1.764 1.739 6757
2.042 1.776 1.740 7236
1.853 1.611 1.588 1061
2.056 1.788 1.740 8107
1.958 1.703 1.663 1557
2.049 1.782 1.724 8320
1.859 1.617 1.574 1409
2.047 1.780 1.712 8864
1.862 1.620 1.567 1567
2.051 1.783 1.705 6881
1.865 1.622 1.560 1286
2.054 1.786 1.697 4899
1.874 1.629 1.557 1162
2.052 1.785 1.685 3651
2.151 1.870 1.761 2431
2.128 1.851 1.733 5726
2.030 1.765 1.657 1545
2.142 1.863 1.732 7255
1.857 1.615 1.516 1657
2.151 1.870 1.728 9814
1.860 1.618 1.509 1181
2.160 1.878 1.724 10713
2.158 1.877 1.712 12488
2.257 1.963 1.785 1238
2.161 1.880 1.704 14391
2.260 1.966 1.777 1702
2.165 1.883 1.695 13680
2.264 1.969 1.768 2094
2.168 1.886 1.687 12969
2.268 1.972 1.760 2486
2.172 1.888 1.679 9863
2.271 1.975 1.751 4618
2.259 1.965 1.731 9568
2.159 1.878 1.659 5409
2.262 1.968 1.723 11005
2.163 1.881 1.651 5009
2.266 1.971 1.714 9001
2.166 1.884 1.643 4029
2.285 1.987 1.716 7816
2.185 1.900 1.646 4970
2.268 1.972 1.693 7201
2.167 1.885 1.623 2343
2.260 1.966 1.677 9348
2.361 2.053 1.747 2574
2.258 1.964 1.665 10878
2.359 2.052 1.734 4160
2.267 1.972 1.660 9200
2.368 2.059 1.729 3808
2.297 1.998 1.669 6448
2.398 2.085 1.738 2162
2.364 2.056 1.704 5261
2.221 1.931 1.607 1857
2.368 2.059 1.695 4852
2.469 2.147 1.762 1698
2.339 2.034 1.664 4253
2.451 2.132 1.739 3366
2.449 2.130 1.726 4260
2.332 2.028 1.648 3460
2.431 2.115 1.703 6025
2.298 1.998 1.615 3440
2.462 2.141 1.711 7845
2.301 2.001 1.606 4933
2.465 2.144 1.701 9092
2.304 2.004 1.597 5071
2.469 2.147 1.692 7449
2.130 1.852 1.475 5602
2.440 2.122 1.662 7036
2.133 1.855 1.467 5647
2.443 2.125 1.653 7300
2.546 2.214 1.717 5609
2.527 2.198 1.694 8422
2.425 2.109 1.630 4881
2.531 2.201 1.685 11665
2.634 2.290 1.748 5011
2.540 2.209 1.678 9506
2.643 2.298 1.742 5399
2.565 2.230 1.682 8426
2.668 2.320 1.745 2943
2.568 2.233 1.672 6962
2.671 2.323 1.735 4254
2.577 2.241 1.666 5424
2.680 2.331 1.728 3150
2.548 2.216 1.636 4450
2.651 2.306 1.698 4207
2.545 2.214 1.623 4304
2.649 2.304 1.685 3619
2.669 2.321 1.684 4750
2.554 2.221 1.617 3417
2.678 2.329 1.677 8513
2.574 2.238 1.617 1755
2.687 2.336 1.670 10276
2.791 2.427 1.731 1261
2.690 2.339 1.660 7041
2.794 2.430 1.720 1470
2.677 2.328 1.640 4573
2.781 2.419 1.700 2736
2.697 2.345 1.640 4242
2.801 2.436 1.699 2735
2.771 2.410 1.669 4585
2.667 2.319 1.611 2160
2.769 2.408 1.656 6641
2.665 2.317 1.598 1390
2.773 2.411 1.645 6310
2.787 2.424 1.641 5274
2.892 2.515 1.698 1749
2.807 2.441 1.639 4416
2.912 2.532 1.696 1955
2.816 2.449 1.631 3411
2.921 2.540 1.688 2197
2.913 2.533 1.671 3631
2.808 2.442 1.615 3073
2.928 2.546 1.666 3597
2.822 2.454 1.610 3374
2.925 2.544 1.651 3615
2.820 2.452 1.596 2103
3.001 2.610 1.678 3769
2.895 2.518 1.623 2505
2.932 2.550 1.629 3250
3.038 2.642 1.684 2610
2.930 2.548 1.615 2894
3.041 2.645 1.672 1861
3.044 2.648 1.660 2693
2.938 2.555 1.607 1694
3.098 2.694 1.674 4902
2.981 2.592 1.615 2616
3.101 2.697 1.662 6222
2.995 2.605 1.609 3155
3.094 2.690 1.645 6178
2.987 2.598 1.592 1762
3.103 2.698 1.636 6530
3.209 2.791 1.688 1317
3.111 2.706 1.627 5697
3.218 2.799 1.678 1301
3.103 2.699 1.609 4045
3.210 2.792 1.661 2586
3.191 2.775 1.638 4107
3.084 2.682 1.587 2644
3.211 2.793 1.633 4655
3.104 2.700 1.583 1388
3.226 2.805 1.626 4911
3.333 2.898 1.676 1206
3.212 2.793 1.606 5466
3.370 2.931 1.679 1061
3.215 2.796 1.594 5066
3.419 2.973 1.687 1912
3.416 2.971 1.672 2986
3.224 2.804 1.584 2732
3.340 2.905 1.623 3278
3.448 2.999 1.671 2165
3.349 2.913 1.613 3427
3.468 3.016 1.666 2043
3.370 2.930 1.607 2697
3.540 3.078 1.682 2487
3.435 2.987 1.622 3108
3.543 3.081 1.669 2934
3.546 3.084 1.655 3251
3.365 2.926 1.577 2672
3.550 3.087 1.642 4642
3.442 2.993 1.595 1559
3.553 3.090 1.628 9040
3.445 2.996 1.582 1616
3.551 3.088 1.612 12986
3.659 3.182 1.658 2051
3.548 3.086 1.596 14370
3.656 3.180 1.641 2690
3.557 3.093 1.585 12273
3.671 3.193 1.632 1973
3.566 3.101 1.574 6205
3.680 3.200 1.620 2053
3.569 3.104 1.560 2199
3.683 3.203 1.606 2178
3.761 3.271 1.622 2710
3.566 3.102 1.544 1958
3.793 3.298 1.619 4726
3.569 3.104 1.530 1785
3.796 3.301 1.604 6268
3.687 3.207 1.562 1101
3.799 3.304 1.590 5097
3.908 3.399 1.632 1833
3.820 3.322 1.582 5914
3.929 3.417 1.623 2559
3.834 3.335 1.571 6928
3.943 3.429 1.612 4026
3.929 3.417 1.591 6768
3.820 3.322 1.550 3823
3.933 3.420 1.576 9342
3.823 3.325 1.536 2440
3.942 3.428 1.563 10608
3.832 3.333 1.523 1624
3.939 3.425 1.546 8142
4.181 3.636 1.633 1161
3.936 3.423 1.529 9884
4.190 3.644 1.619 2461
3.945 3.431 1.516 10575
4.193 3.647 1.603 3522
3.942 3.428 1.498 6324
4.306 3.745 1.625 5127
4.304 3.743 1.607 4980
3.945 3.431 1.483 3341
4.330 3.766 1.598 3702
4.197 3.650 1.553 1631
4.339 3.773 1.584 3021
4.449 3.869 1.621 2615
4.435 3.857 1.598 4253
4.313 3.751 1.557 2713
4.450 3.870 1.584 4229
4.560 3.966 1.621 2498
4.586 3.989 1.611 4524
4.476 3.893 1.575 3646
4.590 3.991 1.593 3821
4.479 3.895 1.558 3212
4.575 3.979 1.570 2826
4.686 4.075 1.605 1468
4.602 4.002 1.560 3452
4.712 4.098 1.594 1170
4.605 4.005 1.542 2727
4.768 4.146 1.592 2422
4.765 4.144 1.572 2887
4.620 4.017 1.528 2041
4.768 4.147 1.554 3051
4.658 4.050 1.521 1571
4.771 4.149 1.535 3171
5.156 4.484 1.649 1285
5.159 4.487 1.629 2449
4.844 4.213 1.538 2346
5.151 4.480 1.606 2528
4.853 4.221 1.521 2353
4.862 4.228 1.504 1586
5.148 4.477 1.585 1488
5.175 4.500 1.571 2034
5.362 4.663 1.624 1742
5.172 4.498 1.550 2556
4.833 4.203 1.457 2281
4.830 4.200 1.437 2277
5.181 4.506 1.532 2193
5.448 4.738 1.582 1901
4.833 4.203 1.418 1817
5.457 4.746 1.563 2046
4.842 4.210 1.401 1131
5.395 4.692 1.525 1899
5.741 4.993 1.615 1035
5.721 4.975 1.587 1665
5.393 4.690 1.503 1520
5.795 5.039 1.582 2380
5.683 4.942 1.554 1740
5.798 5.042 1.560 3035
5.557 4.833 1.501 1560
5.819 5.060 1.542 3310
5.566 4.840 1.481 1610
5.828 5.068 1.521 2797
5.939 5.165 1.548 1786
5.848 5.086 1.503 2270
5.960 5.183 1.529 1908
5.987 5.206 1.512 2579
5.845 5.083 1.479 1929
5.990 5.209 1.489 3076
6.201 5.393 1.537 3059
6.199 5.391 1.512 3069
5.998 5.217 1.467 2319
6.202 5.393 1.488 2596
6.526 5.675 1.559 1943
6.205 5.396 1.464 2320
6.523 5.673 1.532 1788
6.532 5.681 1.509 1948
6.674 5.804 1.538 1537
6.529 5.678 1.482 2338
6.700 5.827 1.518 1670
6.532 5.681 1.457 2152
6.697 5.824 1.491 1288
6.535 5.683 1.432 1199
7.123 6.194 1.521 1052
1.698 1.466 1.708 1169
1.702 1.469 1.702 2339
1.609 1.389 1.614 1231
1.705 1.472 1.695 2339
1.612 1.392 1.608 1231
1.713 1.480 1.693 3642
1.807 1.560 1.780 1822
1.722 1.487 1.691 5234
1.815 1.567 1.778 2514
1.735 1.498 1.694 6067
1.828 1.579 1.780 2751
1.743 1.505 1.692 7086
1.837 1.586 1.778 3212
1.747 1.508 1.685 7086
1.841 1.589 1.771 3212
1.745 1.507 1.674 5689
1.839 1.588 1.759 3589
1.798 1.553 1.712 5514
1.892 1.634 1.797 3158
1.827 1.577 1.728 6000
1.732 1.496 1.644 3232
1.835 1.585 1.725 7300
1.740 1.503 1.641 2473
1.839 1.588 1.718 6999
1.933 1.669 1.802 2260
1.852 1.599 1.720 6942
1.947 1.681 1.803 1597
1.861 1.607 1.717 5294
1.765 1.524 1.635 1299
1.904 1.644 1.745 6105
1.809 1.562 1.663 1700
1.908 1.647 1.738 7799
1.812 1.565 1.656 1729
1.911 1.650 1.731 10892
1.816 1.568 1.649 1155
1.920 1.658 1.728 14091
1.928 1.665 1.725 11757
2.024 1.748 1.805 1008
1.942 1.677 1.726 10193
1.961 1.693 1.731 10127
1.969 1.700 1.728 10683
1.978 1.708 1.725 8106
2.002 1.728 1.734 6121
1.905 1.645 1.655 1327
2.015 1.740 1.734 5777
1.918 1.657 1.656 1084
2.029 1.752 1.735 6212
2.043 1.764 1.736 6522
1.858 1.605 1.588 1060
2.057 1.776 1.736 7138
1.862 1.607 1.581 1386
2.050 1.770 1.720 7797
1.865 1.610 1.574 1582
2.054 1.773 1.712 8550
1.868 1.613 1.567 1778
2.057 1.776 1.705 6772
1.876 1.620 1.564 1473
2.060 1.779 1.697 4993
1.879 1.623 1.557 1233
2.131 1.840 1.741 3953
2.033 1.755 1.665 2662
2.135 1.843 1.733 6263
2.036 1.758 1.657 1385
2.149 1.855 1.732 8506
1.863 1.608 1.516 1548
2.157 1.863 1.728 11225
1.871 1.616 1.513 1112
2.166 1.870 1.724 11639
2.164 1.869 1.712 12146
2.264 1.955 1.785 1255
2.168 1.872 1.704 12829
2.267 1.958 1.777 1631
2.171 1.875 1.695 12040
2.271 1.961 1.768 1864
2.175 1.878 1.687 11252
2.275 1.964 1.760 2097
2.178 1.881 1.679 8535
2.278 1.967 1.751 3853
2.266 1.957 1.731 8440
2.166 1.870 1.659 4435
2.269 1.960 1.723 10263
2.169 1.873 1.651 4453
2.278 1.967 1.718 8852
2.178 1.880 1.647 4348
2.287 1.975 1.713 8184
2.186 1.888 1.642 4252
2.285 1.973 1.700 6927
2.184 1.886 1.630 2701
2.267 1.958 1.677 7911
2.368 2.045 1.747 2458
2.265 1.956 1.665 9112
2.366 2.043 1.734 3906
2.274 1.964 1.660 7660
2.375 2.051 1.729 3572
2.299 1.985 1.666 5407
2.400 2.072 1.734 2571
2.377 2.052 1.707 4981
2.275 1.965 1.639 2434
2.375 2.051 1.695 4586
2.273 1.963 1.627 1640
2.352 2.031 1.668 3293
2.459 2.123 1.739 3010
2.457 2.122 1.726 3804
2.334 2.015 1.645 2743
2.439 2.106 1.703 5553
2.305 1.990 1.615 3557
2.469 2.132 1.711 7050
2.313 1.997 1.610 5251
2.473 2.135 1.701 7997
2.316 2.000 1.601 5509
2.406 2.078 1.647 6676
2.136 1.845 1.475 5290
2.447 2.113 1.662 6828
2.134 1.843 1.464 6304
2.451 2.116 1.653 7265
2.137 1.845 1.456 6232
2.541 2.194 1.698 7622
2.150 1.857 1.454 5304
2.539 2.192 1.685 11055
2.642 2.281 1.748 5471
2.542 2.195 1.675 8962
2.645 2.284 1.738 6695
2.632 2.273 1.718 7699
2.529 2.184 1.655 4607
2.576 2.224 1.672 6802
2.679 2.314 1.735 4102
2.650 2.288 1.705 6051
2.547 2.199 1.643 4255
2.659 2.296 1.698 5649
2.555 2.207 1.636 3642
2.668 2.304 1.691 5155
2.553 2.205 1.623 3661
2.677 2.312 1.684 4615
2.562 2.212 1.617 3077
2.691 2.324 1.681 6250
2.587 2.234 1.620 1898
2.700 2.332 1.673 8404
2.704 2.335 1.663 6002
2.679 2.314 1.637 3739
2.784 2.404 1.697 2047
2.705 2.336 1.640 3543
2.810 2.426 1.699 2397
2.769 2.391 1.663 4189
2.664 2.300 1.605 1216
2.772 2.394 1.653 6084
2.770 2.392 1.639 5848
2.875 2.483 1.697 1753
2.784 2.404 1.635 4459
2.890 2.495 1.692 2214
2.821 2.436 1.642 3904
2.926 2.527 1.699 1439
2.824 2.439 1.631 3327
2.930 2.530 1.688 1683
2.828 2.442 1.621 3516
2.933 2.533 1.677 2121
2.836 2.449 1.613 3643
2.959 2.555 1.677 2452
2.862 2.471 1.614 3210
2.968 2.563 1.669 2827
3.010 2.599 1.678 3161
2.904 2.508 1.623 2689
2.941 2.539 1.629 3726
3.047 2.631 1.684 2421
2.939 2.537 1.615 3603
3.045 2.629 1.669 1968
2.970 2.564 1.618 2585
3.082 2.661 1.675 2416
3.108 2.683 1.674 5648
2.990 2.582 1.615 2896
3.117 2.691 1.665 7128
3.004 2.594 1.609 2722
3.114 2.689 1.650 6255
3.008 2.597 1.598 1949
3.112 2.687 1.636 6242
3.219 2.779 1.688 1450
3.121 2.695 1.627 5625
3.228 2.787 1.678 1763
3.113 2.688 1.609 4129
3.220 2.780 1.661 3552
3.206 2.769 1.640 5607
3.099 2.676 1.590 2856
3.221 2.781 1.633 4778
3.328 2.874 1.684 1594
3.247 2.804 1.632 5093
3.140 2.711 1.582 1464
3.228 2.787 1.609 5289
3.335 2.880 1.659 1667
3.225 2.785 1.594 4901
3.333 2.878 1.643 3050
3.330 2.876 1.628 2978
3.438 2.969 1.677 2615
3.356 2.898 1.625 3855
3.464 2.991 1.674 2080
3.354 2.896 1.610 4507
3.468 2.994 1.661 1849
3.346 2.889 1.592 3564
3.477 3.002 1.650 1780
3.355 2.897 1.582 3317
3.463 2.990 1.629 2453
3.364 2.904 1.572 3439
3.472 2.998 1.618 2357
3.561 3.074 1.642 3540
3.361 2.902 1.557 2421
3.564 3.077 1.628 7592
3.455 2.984 1.582 1705
3.561 3.075 1.612 9825
3.453 2.982 1.567 1216
3.559 3.073 1.596 11057
3.668 3.167 1.641 1183
3.574 3.086 1.587 10235
3.768 3.254 1.667 1371
3.583 3.093 1.576 5355
3.691 3.187 1.620 2580
3.695 3.190 1.606 3115
3.821 3.299 1.657 1712
3.767 3.252 1.619 2944
3.583 3.094 1.546 1442
3.787 3.270 1.612 4918
3.580 3.092 1.530 1429
3.813 3.293 1.606 6489
3.704 3.199 1.564 1379
3.828 3.306 1.596 5351
3.831 3.308 1.582 5871
3.941 3.403 1.623 2072
3.846 3.321 1.571 6414
3.956 3.416 1.612 4082
3.936 3.398 1.589 8401
3.826 3.304 1.548 3310
3.945 3.406 1.576 11294
3.835 3.311 1.536 2552
3.948 3.409 1.561 12030
3.838 3.314 1.521 1632
3.945 3.407 1.544 10774
4.130 3.566 1.610 2020
3.948 3.409 1.529 13037
4.133 3.569 1.594 2611
3.951 3.412 1.514 12986
4.328 3.737 1.646 3682
3.949 3.409 1.496 8310
4.331 3.740 1.629 5828
4.346 3.753 1.617 5734
3.952 3.412 1.481 4374
4.355 3.760 1.602 5334
4.210 3.635 1.553 1281
4.358 3.763 1.585 4732
4.468 3.858 1.622 1785
4.355 3.761 1.567 3724
4.466 3.856 1.603 2885
4.498 3.884 1.596 3721
4.347 3.754 1.546 2768
4.589 3.962 1.607 3994
4.478 3.867 1.571 2792
4.598 3.970 1.591 3495
4.487 3.875 1.556 2455
4.583 3.958 1.568 2762
4.694 4.053 1.603 2109
4.616 3.986 1.560 2911
4.727 4.081 1.594 1292
4.689 4.049 1.563 2274
4.800 4.145 1.597 1831
4.704 4.062 1.549 2783
4.815 4.157 1.583 1591
4.713 4.069 1.533 2769
4.824 4.165 1.566 1673
4.786 4.133 1.535 2803
5.172 4.466 1.649 1390
5.175 4.469 1.629 2585
4.848 4.186 1.534 2348
5.167 4.461 1.606 2731
4.874 4.209 1.522 1942
5.188 4.479 1.591 1676
4.865 4.201 1.500 1522
5.191 4.482 1.571 2248
5.378 4.644 1.624 1745
5.188 4.480 1.550 2700
4.854 4.191 1.458 1552
5.197 4.488 1.532 2354
5.332 4.604 1.568 1338
5.200 4.490 1.512 1689
5.470 4.724 1.584 1571
5.479 4.731 1.564 1701
5.203 4.493 1.492 1148
5.412 4.673 1.525 2109
5.565 4.805 1.565 1116
5.415 4.676 1.504 1611
5.727 4.945 1.584 1450
5.824 5.029 1.585 2250
5.712 4.933 1.557 1649
5.821 5.027 1.562 2797
5.975 5.159 1.599 1381
5.836 5.040 1.542 3123
5.577 4.816 1.479 1418
5.845 5.047 1.521 2709
5.957 5.144 1.548 1690
5.866 5.065 1.503 2219
5.978 5.162 1.529 2096
5.999 5.180 1.510 2610
5.863 5.063 1.479 1831
6.220 5.371 1.537 2804
6.008 5.188 1.489 2798
6.224 5.374 1.513 2851
6.543 5.649 1.584 2215
6.221 5.371 1.488 2473
6.546 5.652 1.559 2333
6.218 5.369 1.463 2254
6.543 5.650 1.532 2154
6.552 5.658 1.509 2362
6.179 5.336 1.430 1818
6.549 5.655 1.482 2679
6.176 5.333 1.405 1935
6.552 5.658 1.457 2317
6.718 5.801 1.491 1294
6.549 5.655 1.431 1286
1.711 1.471 1.717 1173
1.715 1.474 1.711 2347
1.622 1.394 1.624 1902
1.718 1.477 1.704 2347
1.625 1.397 1.617 1902
1.722 1.480 1.698 3611
1.815 1.560 1.785 1726
1.725 1.483 1.691 4874
1.819 1.563 1.778 2498
1.738 1.494 1.694 5502
1.832 1.575 1.780 2670
1.747 1.501 1.692 6329
1.841 1.582 1.778 3042
1.750 1.504 1.685 6329
1.844 1.585 1.771 3042
1.803 1.550 1.723 5620
1.898 1.631 1.808 2452
1.807 1.553 1.717 6582
1.901 1.634 1.801 3633
1.825 1.569 1.723 6667
1.920 1.650 1.807 2710
1.834 1.576 1.721 7711
1.928 1.657 1.804 2455
1.842 1.583 1.718 6994
1.937 1.665 1.802 2522
1.851 1.591 1.716 6494
1.946 1.672 1.799 2436
1.864 1.602 1.717 4815
1.960 1.684 1.800 1528
1.908 1.640 1.745 5566
1.812 1.558 1.663 1649
1.911 1.643 1.738 6996
1.816 1.561 1.656 1681
1.915 1.646 1.731 10004
1.819 1.564 1.649 1126
1.919 1.649 1.723 13027
2.015 1.731 1.804 1187
1.932 1.661 1.725 10984
1.946 1.672 1.726 9878
1.965 1.689 1.731 9631
1.973 1.696 1.728 10098
1.982 1.703 1.725 7529
2.011 1.728 1.738 5558
1.914 1.645 1.659 1149
2.019 1.736 1.734 5479
2.028 1.743 1.731 5692
2.042 1.755 1.731 5757
1.867 1.605 1.592 1020
2.056 1.767 1.732 6153
1.865 1.603 1.581 1197
2.054 1.765 1.720 6846
1.868 1.606 1.574 1405
2.058 1.768 1.712 7566
1.872 1.609 1.567 1613
2.061 1.771 1.705 6069
1.875 1.611 1.560 1492
2.065 1.774 1.697 4571
1.883 1.619 1.557 1357
2.135 1.835 1.741 4314
2.037 1.751 1.665 2364
2.139 1.838 1.733 6454
1.884 1.619 1.539 1281
2.153 1.850 1.732 9310
1.877 1.613 1.524 1362
2.162 1.858 1.728 12660
2.063 1.773 1.654 1043
2.165 1.861 1.720 13018
2.035 1.749 1.623 1067
2.169 1.864 1.712 12128
2.268 1.949 1.785 1375
2.172 1.867 1.704 11237
2.272 1.953 1.777 1893
2.176 1.870 1.695 10303
2.275 1.956 1.768 1921
2.179 1.873 1.687 9369
2.279 1.959 1.760 1949
2.182 1.876 1.679 7013
2.283 1.962 1.751 3228
2.270 1.951 1.731 7455
2.170 1.865 1.659 3305
2.274 1.954 1.723 9535
2.173 1.868 1.651 2814
2.283 1.962 1.718 8661
2.182 1.875 1.647 3393
2.291 1.969 1.713 8300
2.191 1.883 1.642 3848
2.295 1.972 1.704 6685
2.194 1.886 1.634 2848
2.277 1.957 1.681 5822
2.112 1.815 1.567 2305
2.270 1.951 1.665 6607
2.371 2.038 1.734 3571
2.279 1.958 1.660 5582
2.380 2.046 1.729 3435
2.378 2.044 1.716 4258
2.277 1.957 1.648 3274
2.382 2.047 1.707 4667
2.280 1.960 1.639 2310
2.385 2.050 1.698 4288
2.283 1.962 1.630 1869
2.399 2.062 1.696 3019
2.297 1.974 1.629 1836
2.462 2.116 1.726 3493
2.327 2.000 1.638 2099
2.444 2.100 1.703 5021
2.309 1.985 1.615 3442
2.469 2.122 1.707 5789
2.318 1.992 1.610 5663
2.326 2.000 1.604 6307
2.478 2.129 1.701 6301
2.411 2.072 1.647 5716
2.308 1.984 1.582 3596
2.452 2.107 1.662 6363
2.566 2.205 1.734 5563
2.455 2.110 1.653 6826
2.569 2.208 1.724 6486
2.551 2.193 1.701 7065
2.448 2.104 1.637 5017
2.538 2.182 1.681 10157
2.641 2.270 1.745 5765
2.542 2.184 1.672 8329
2.645 2.273 1.735 6965
2.638 2.267 1.718 7347
2.534 2.178 1.655 4912
2.647 2.275 1.712 6976
2.543 2.186 1.649 4805
2.656 2.282 1.705 7205
2.552 2.193 1.643 3584
2.670 2.295 1.701 7184
2.566 2.205 1.640 2833
2.679 2.302 1.694 6824
2.575 2.213 1.633 2836
2.688 2.310 1.688 5139
2.584 2.220 1.626 2918
2.702 2.322 1.684 5099
2.598 2.233 1.623 1976
2.711 2.330 1.677 7398
2.714 2.333 1.666 5847
2.745 2.360 1.672 4411
2.641 2.270 1.612 1322
2.749 2.363 1.661 3951
2.758 2.370 1.654 4513
2.772 2.383 1.650 5602
2.877 2.473 1.708 1459
2.775 2.385 1.639 5327
2.881 2.476 1.697 2425
2.779 2.388 1.629 3983
2.884 2.479 1.686 2973
2.826 2.429 1.642 3504
2.932 2.520 1.699 1951
2.830 2.432 1.631 3361
2.935 2.523 1.688 1542
2.833 2.435 1.621 3744
2.939 2.526 1.677 1319
2.836 2.438 1.610 3872
2.965 2.548 1.677 1820
2.868 2.465 1.614 3360
2.974 2.556 1.669 2199
2.915 2.506 1.626 2819
3.022 2.597 1.681 2204
2.941 2.528 1.626 3866
3.047 2.619 1.681 2009
2.939 2.526 1.612 4162
3.045 2.617 1.666 2417
2.970 2.553 1.615 2943
3.116 2.678 1.689 2471
3.114 2.676 1.674 6277
2.996 2.575 1.615 3095
3.123 2.684 1.665 7872
3.016 2.592 1.612 2414
3.126 2.687 1.653 6505
3.019 2.595 1.601 1717
3.124 2.685 1.639 5965
3.231 2.777 1.691 1260
3.121 2.683 1.624 5610
3.229 2.775 1.676 2196
3.204 2.754 1.650 5282
3.097 2.661 1.599 3354
3.213 2.761 1.640 6896
3.105 2.669 1.590 2951
3.222 2.769 1.631 4871
3.329 2.861 1.681 1768
3.259 2.801 1.634 5182
3.151 2.709 1.584 1875
3.257 2.799 1.619 5612
3.364 2.892 1.669 2989
3.334 2.865 1.641 6745
3.226 2.773 1.591 4473
3.337 2.868 1.628 5769
3.229 2.775 1.579 2328
3.346 2.876 1.618 5500
3.454 2.969 1.666 2487
3.349 2.879 1.605 7155
3.469 2.981 1.658 1781
3.347 2.876 1.590 6375
3.569 3.067 1.687 1989
3.350 2.879 1.577 4306
3.584 3.080 1.679 2732
3.359 2.887 1.567 4113
3.581 3.078 1.663 2472
3.356 2.885 1.552 3959
3.579 3.076 1.647 3427
3.582 3.079 1.633 6309
3.474 2.986 1.587 1929
3.580 3.077 1.617 6746
3.471 2.983 1.572 1456
3.572 3.070 1.599 7392
3.581 3.078 1.587 7655
3.770 3.240 1.665 1730
3.595 3.090 1.578 4202
3.704 3.184 1.623 2798
3.702 3.182 1.606 3867
3.828 3.290 1.657 1554
3.763 3.234 1.615 3201
3.596 3.091 1.549 1029
3.789 3.257 1.610 5026
3.680 3.163 1.567 1092
3.821 3.284 1.606 6307
3.712 3.190 1.564 1414
3.841 3.302 1.598 5798
3.845 3.304 1.584 5787
3.954 3.399 1.625 1708
3.854 3.312 1.571 5474
3.963 3.406 1.612 3920
3.943 3.389 1.589 9541
3.834 3.295 1.548 2930
3.947 3.392 1.574 13008
3.837 3.298 1.533 2086
3.956 3.400 1.561 13704
4.135 3.554 1.626 2275
3.953 3.398 1.544 13585
4.138 3.557 1.610 3616
3.950 3.395 1.527 14945
4.142 3.560 1.594 4293
3.959 3.403 1.514 13287
4.145 3.562 1.579 4780
3.956 3.400 1.496 9418
4.345 3.735 1.631 6994
4.360 3.748 1.619 8019
3.959 3.403 1.481 5245
4.369 3.755 1.604 7186
4.154 3.570 1.531 1512
4.367 3.753 1.585 6838
4.501 3.868 1.630 1374
4.370 3.756 1.569 6437
4.510 3.876 1.615 2598
4.367 3.754 1.550 4106
4.513 3.879 1.598 3846
4.592 3.947 1.605 3533
4.382 3.766 1.537 2106
4.677 4.020 1.613 3049
4.549 3.909 1.573 2503
4.680 4.023 1.596 3403
4.569 3.927 1.561 1732
4.689 4.030 1.580 3658
4.800 4.126 1.614 1042
4.692 4.033 1.562 3478
4.804 4.129 1.596 1670
4.707 4.046 1.547 3331
4.818 4.141 1.581 1630
4.722 4.059 1.533 3134
4.833 4.154 1.566 1923
4.848 4.167 1.551 3023
4.737 4.071 1.518 2013
4.845 4.165 1.531 2630
5.180 4.452 1.628 2281
5.177 4.450 1.606 2594
4.919 4.228 1.532 1750
5.192 4.462 1.590 1797
4.904 4.215 1.509 1252
5.201 4.470 1.571 2136
5.395 4.637 1.625 1476
5.198 4.468 1.550 2451
5.434 4.670 1.614 1485
5.207 4.476 1.532 2261
5.454 4.688 1.598 1326
5.210 4.478 1.512 1640
5.416 4.655 1.567 1250
5.425 4.663 1.547 1771
5.796 4.982 1.644 1080
5.429 4.666 1.527 2220
5.576 4.792 1.565 1240
5.426 4.663 1.504 1581
5.850 5.028 1.612 1494
5.842 5.021 1.587 2135
5.724 4.919 1.557 1425
5.833 5.013 1.562 2510
5.992 5.150 1.601 1551
5.848 5.026 1.542 2672
5.990 5.148 1.576 1409
5.851 5.029 1.520 2306
6.046 5.196 1.566 1670
6.002 5.158 1.532 2196
5.878 5.052 1.503 1801
6.011 5.166 1.510 2499
6.165 5.298 1.546 2219
6.162 5.296 1.521 2636
6.014 5.169 1.487 2403
6.556 5.634 1.584 2307
6.236 5.360 1.513 2300
6.227 5.352 1.486 3035
6.559 5.637 1.559 2511
6.230 5.355 1.463 2921
6.556 5.635 1.532 2372
6.565 5.642 1.509 2651
6.227 5.352 1.438 1892
6.568 5.645 1.483 2802
6.740 5.793 1.519 1399
6.565 5.642 1.457 2179
6.731 5.785 1.491 1236
6.562 5.640 1.431 1248
7.064 6.071 1.503 1068
6.588 5.663 1.410 1035
1.721 1.469 1.722 1258
1.725 1.472 1.715 2516
1.631 1.393 1.628 1985
1.728 1.475 1.709 2516
1.635 1.396 1.622 1985
1.727 1.474 1.698 3303
1.820 1.554 1.785 1663
1.720 1.469 1.682 4244
1.814 1.549 1.769 2436
1.743 1.488 1.694 4486
1.837 1.569 1.780 2535
1.806 1.542 1.742 5448
1.712 1.462 1.656 2302
1.810 1.545 1.735 5448
1.716 1.465 1.650 2140
1.813 1.548 1.728 6473
1.908 1.629 1.813 2530
1.817 1.551 1.721 7497
1.912 1.632 1.806 3731
1.830 1.563 1.723 7411
1.925 1.644 1.807 2898
1.839 1.570 1.721 8046
1.934 1.651 1.804 2603
1.842 1.573 1.714 6945
1.938 1.654 1.797 2932
1.851 1.580 1.711 5928
1.946 1.662 1.794 3025
1.870 1.596 1.717 4193
1.965 1.678 1.800 1877
1.913 1.633 1.745 5041
1.818 1.552 1.663 1694
1.917 1.636 1.738 6091
1.821 1.555 1.656 1729
1.915 1.635 1.726 8852
1.924 1.642 1.723 11632
2.020 1.725 1.804 1039
1.933 1.650 1.720 9838
2.029 1.732 1.801 1141
1.951 1.666 1.726 8995
1.970 1.682 1.731 8873
1.979 1.689 1.728 9456
1.987 1.697 1.725 7086
1.996 1.704 1.721 4955
2.020 1.725 1.730 4939
2.029 1.732 1.727 5038
2.043 1.744 1.727 4765
2.056 1.756 1.728 4910
1.958 1.672 1.650 1077
2.060 1.759 1.720 5526
2.158 1.842 1.797 1062
2.064 1.762 1.712 6141
2.162 1.846 1.789 1263
2.067 1.765 1.705 4978
1.880 1.605 1.560 1275
2.065 1.763 1.693 3826
1.889 1.612 1.557 1244
2.142 1.828 1.741 4355
2.043 1.744 1.665 2157
2.150 1.836 1.737 6187
2.051 1.751 1.661 1214
2.159 1.843 1.732 9458
1.887 1.611 1.528 1123
2.163 1.846 1.724 13167
2.166 1.849 1.716 13409
2.175 1.857 1.712 11929
2.275 1.942 1.785 1397
2.178 1.860 1.704 10459
2.278 1.945 1.777 2080
2.187 1.867 1.699 8902
2.287 1.953 1.772 1747
2.191 1.870 1.691 7362
2.291 1.956 1.763 1871
2.194 1.873 1.683 5107
2.294 1.959 1.755 2293
2.272 1.939 1.727 6675
2.171 1.853 1.656 2452
2.280 1.947 1.723 8931
2.180 1.861 1.651 3261
2.284 1.950 1.714 8518
2.183 1.864 1.643 2785
2.293 1.957 1.709 8203
2.112 1.803 1.583 2841
2.296 1.960 1.700 6659
2.115 1.806 1.575 2879
2.342 2.000 1.721 4662
2.118 1.808 1.567 2779
2.346 2.003 1.712 4581
2.121 1.811 1.559 2680
2.301 1.964 1.671 3801
2.403 2.051 1.740 2197
2.385 2.036 1.716 4226
2.283 1.949 1.648 2350
2.388 2.039 1.707 4528
2.286 1.952 1.639 1938
2.392 2.042 1.698 4349
2.290 1.955 1.630 1771
2.401 2.049 1.693 3396
2.298 1.962 1.625 1659
2.474 2.112 1.729 3300
2.118 1.808 1.497 2155
2.451 2.092 1.703 4308
2.316 1.977 1.615 3110
2.324 1.984 1.610 5451
2.454 2.095 1.693 4407
2.333 1.992 1.604 6325
2.479 2.117 1.698 4255
2.336 1.995 1.596 5430
2.456 2.096 1.671 4727
2.579 2.201 1.737 6207
2.465 2.104 1.665 5739
2.582 2.204 1.728 7267
2.468 2.107 1.656 6124
2.580 2.203 1.714 7341
2.471 2.110 1.647 4802
2.540 2.168 1.678 9342
2.644 2.257 1.742 5255
2.543 2.171 1.668 7886
2.647 2.260 1.732 6301
2.645 2.258 1.718 6735
2.536 2.165 1.652 5507
2.649 2.261 1.708 6835
2.545 2.172 1.646 4671
2.663 2.273 1.705 8034
2.559 2.185 1.643 3352
2.678 2.286 1.701 8582
2.573 2.197 1.640 2437
2.687 2.293 1.694 8019
2.582 2.204 1.633 2693
2.695 2.301 1.688 5976
2.591 2.212 1.626 2982
2.710 2.313 1.684 5022
2.605 2.224 1.623 2101
2.719 2.321 1.677 7237
2.614 2.232 1.616 1043
2.733 2.333 1.673 6450
2.628 2.244 1.613 1104
2.748 2.346 1.669 5151
2.643 2.256 1.609 1291
2.757 2.353 1.661 4632
2.651 2.264 1.602 1120
2.766 2.361 1.654 4900
2.871 2.451 1.713 1228
2.775 2.369 1.647 5166
2.880 2.459 1.705 2239
2.783 2.376 1.639 4572
2.889 2.466 1.697 3129
2.876 2.455 1.677 3756
2.770 2.365 1.619 3031
2.901 2.477 1.678 3710
2.796 2.387 1.621 2133
2.894 2.470 1.661 3612
2.788 2.380 1.604 1243
2.903 2.478 1.653 4009
2.797 2.387 1.597 1289
2.845 2.428 1.610 3881
2.951 2.519 1.666 2646
2.881 2.460 1.617 3485
2.988 2.551 1.672 1670
2.918 2.491 1.623 3033
3.025 2.582 1.678 1708
2.944 2.513 1.623 3877
3.051 2.604 1.678 1607
2.947 2.516 1.612 4520
3.054 2.607 1.666 2709
3.041 2.596 1.646 3494
2.934 2.504 1.593 2405
3.117 2.661 1.671 6595
3.010 2.570 1.618 3336
3.132 2.673 1.665 8220
3.025 2.582 1.612 2350
3.135 2.676 1.653 6490
3.028 2.585 1.601 1331
3.133 2.674 1.639 5424
3.240 2.766 1.691 1092
3.130 2.672 1.624 5558
3.238 2.764 1.676 2103
3.202 2.733 1.644 6645
3.094 2.641 1.593 2374
3.222 2.751 1.640 7466
3.114 2.659 1.590 3068
3.231 2.758 1.631 4886
3.339 2.850 1.681 1813
3.274 2.795 1.637 4859
3.166 2.703 1.587 2480
3.272 2.793 1.622 5734
3.380 2.885 1.672 3861
3.349 2.859 1.643 9918
3.235 2.762 1.591 4068
3.347 2.857 1.628 8591
3.233 2.760 1.577 2079
3.356 2.865 1.618 7292
3.464 2.957 1.666 2312
3.353 2.862 1.603 9428
3.513 2.999 1.673 1801
3.356 2.865 1.590 8900
3.573 3.051 1.685 2799
3.360 2.868 1.577 5937
3.583 3.058 1.674 3817
3.363 2.871 1.564 5770
3.586 3.061 1.660 3599
3.366 2.873 1.552 5485
3.595 3.069 1.649 4031
3.598 3.072 1.635 6092
3.363 2.871 1.536 2572
3.613 3.084 1.627 6837
3.481 2.972 1.572 1392
3.593 3.068 1.603 5661
3.703 3.161 1.648 1697
3.597 3.070 1.590 5560
3.775 3.223 1.662 2065
3.704 3.162 1.618 3343
3.594 3.068 1.574 2813
3.713 3.169 1.606 4249
3.839 3.278 1.657 1242
3.762 3.211 1.610 2775
3.871 3.305 1.654 1045
3.794 3.239 1.607 4515
3.684 3.145 1.564 1179
3.803 3.247 1.595 5907
3.930 3.355 1.644 1602
3.853 3.289 1.598 5648
3.962 3.383 1.640 1425
3.862 3.296 1.586 5552
3.971 3.390 1.628 2185
3.952 3.373 1.604 5242
3.842 3.279 1.563 3164
3.955 3.376 1.589 9382
3.845 3.282 1.548 2200
3.958 3.379 1.574 11773
4.144 3.537 1.642 1920
3.961 3.382 1.559 13707
4.147 3.540 1.626 3157
3.964 3.384 1.544 15012
4.150 3.543 1.610 5060
3.962 3.382 1.527 14427
4.153 3.546 1.594 5719
3.965 3.385 1.512 12209
4.157 3.548 1.579 6081
3.962 3.382 1.494 9225
4.364 3.725 1.633 7439
4.373 3.733 1.619 9152
3.971 3.390 1.481 5224
4.376 3.736 1.602 8008
4.166 3.557 1.531 2507
4.385 3.743 1.587 8079
4.537 3.873 1.638 1463
4.382 3.741 1.569 8413
4.534 3.871 1.619 3248
4.386 3.744 1.552 5184
4.532 3.869 1.600 3775
4.605 3.931 1.605 3106
4.395 3.752 1.537 2349
4.690 4.004 1.613 3127
4.579 3.909 1.578 1834
4.688 4.002 1.594 4242
4.576 3.907 1.559 1160
4.703 4.015 1.580 5001
4.814 4.110 1.614 1068
4.706 4.017 1.562 4402
4.817 4.112 1.596 1298
4.709 4.020 1.544 3760
4.826 4.120 1.579 1598
4.730 4.038 1.531 3255
4.841 4.133 1.564 2189
4.868 4.156 1.553 3072
4.756 4.060 1.520 2162
4.859 4.148 1.531 2751
5.195 4.434 1.628 1783
5.192 4.432 1.606 2149
4.927 4.206 1.531 1895
5.207 4.445 1.590 1626
5.048 4.309 1.545 1518
5.210 4.448 1.570 1705
5.045 4.307 1.524 1254
5.219 4.456 1.552 1812
5.461 4.662 1.618 1504
5.222 4.458 1.532 1901
5.470 4.670 1.598 1293
5.225 4.461 1.512 1467
5.438 4.642 1.568 1320
5.453 4.655 1.550 1843
5.819 4.968 1.646 1120
5.444 4.648 1.527 1915
5.822 4.970 1.624 1211
5.867 5.009 1.612 1507
5.441 4.645 1.504 1354
5.858 5.001 1.587 2029
5.740 4.900 1.557 1340
5.850 4.994 1.562 2145
5.737 4.898 1.534 1606
5.859 5.002 1.541 1989
6.090 5.199 1.596 1539
6.087 5.196 1.572 1874
5.862 5.004 1.518 1716
6.019 5.138 1.532 2205
6.173 5.270 1.568 1467
6.028 5.146 1.510 2299
6.182 5.278 1.546 1714
6.185 5.280 1.522 2083
6.031 5.149 1.487 2014
6.236 5.323 1.509 2678
6.580 5.617 1.585 2004
6.245 5.331 1.486 3917
6.584 5.620 1.560 2307
6.248 5.334 1.463 3825
6.581 5.618 1.534 2317
6.584 5.620 1.509 2705
6.245 5.331 1.438 2537
6.587 5.623 1.483 2655
6.242 5.328 1.413 1265
6.584 5.620 1.457 1826
6.310 5.387 1.402 1187
6.581 5.618 1.431 1056
7.084 6.047 1.503 1045
7.123 6.080 1.482 1007
1.731 1.468 1.727 1339
1.734 1.471 1.720 2678
1.636 1.387 1.628 1687
1.738 1.474 1.714 2678
1.639 1.390 1.622 1687
1.712 1.452 1.680 3240
1.806 1.531 1.766 1776
1.715 1.455 1.673 3874
1.824 1.547 1.773 2348
1.803 1.529 1.744 4345
1.709 1.449 1.658 2903
1.806 1.532 1.737 6408
1.712 1.452 1.651 2130
1.810 1.535 1.730 6408
1.715 1.455 1.645 1759
1.818 1.542 1.728 7482
1.913 1.623 1.813 2567
1.822 1.545 1.721 8591
1.917 1.626 1.806 3814
1.836 1.557 1.723 7980
1.931 1.637 1.807 2868
1.844 1.564 1.721 8133
1.939 1.645 1.804 2504
1.848 1.567 1.714 6686
1.943 1.648 1.797 2908
1.851 1.570 1.707 5239
1.947 1.651 1.790 3311
1.905 1.616 1.743 3947
1.809 1.534 1.661 1455
1.914 1.623 1.741 4641
1.818 1.541 1.658 1555
1.917 1.626 1.733 5353
1.821 1.544 1.652 1554
1.921 1.629 1.726 7810
1.824 1.547 1.645 1012
1.924 1.632 1.719 10212
2.021 1.714 1.800 1181
1.933 1.639 1.716 8612
2.030 1.721 1.797 1391
1.952 1.655 1.722 7985
1.976 1.675 1.731 7942
1.984 1.683 1.728 8630
1.993 1.690 1.725 6618
2.002 1.698 1.721 4688
2.010 1.705 1.718 4569
2.024 1.717 1.719 4592
2.038 1.728 1.719 4189
2.052 1.740 1.720 4130
2.155 1.828 1.801 1138
2.061 1.747 1.716 4393
2.159 1.831 1.793 1451
2.069 1.755 1.712 4736
2.168 1.839 1.789 1562
2.068 1.753 1.701 3924
2.166 1.837 1.777 1633
2.071 1.756 1.693 3126
2.170 1.840 1.769 1502
2.148 1.821 1.741 4072
2.048 1.737 1.665 1734
2.156 1.829 1.737 5538
2.165 1.836 1.732 8812
2.169 1.839 1.724 12476
2.172 1.842 1.716 12812
2.176 1.845 1.708 11051
2.276 1.930 1.782 1966
2.184 1.853 1.704 9607
2.285 1.938 1.777 2324
2.193 1.860 1.699 7525
2.294 1.945 1.772 1830
2.202 1.867 1.695 5799
2.303 1.953 1.767 1491
2.264 1.920 1.728 4667
2.163 1.834 1.656 2364
2.273 1.927 1.724 6731
2.172 1.842 1.652 2728
2.281 1.935 1.719 8785
2.180 1.849 1.647 2760
2.285 1.938 1.710 8577
2.184 1.852 1.639 2268
2.288 1.941 1.702 8369
