7.327 4.270 1.506 1607
7.709 4.492 1.551 1652
8.087 4.713 1.621 1570
8.104 4.723 1.596 1606
7.692 4.483 1.521 1495
8.108 4.725 1.569 1753
7.655 4.461 1.488 1302
8.078 4.707 1.535 1557
8.081 4.709 1.508 1210
8.190 4.773 1.471 1093
8.193 4.775 1.443 1255
8.196 4.776 1.416 1099
1.976 1.143 1.736 2586
1.980 1.145 1.729 5172
2.086 1.206 1.817 1954
1.984 1.147 1.723 5172
2.090 1.209 1.810 3139
2.021 1.169 1.744 6097
2.128 1.231 1.830 1599
2.025 1.171 1.737 7812
2.132 1.233 1.823 2391
2.029 1.174 1.730 7814
2.136 1.236 1.816 3663
2.033 1.176 1.724 7816
2.140 1.238 1.809 4936
2.037 1.178 1.717 7816
2.145 1.240 1.802 4936
2.121 1.226 1.773 7897
2.013 1.164 1.688 3883
2.119 1.226 1.761 8338
2.006 1.160 1.672 2369
2.129 1.231 1.759 7881
2.021 1.169 1.674 1872
2.133 1.234 1.752 7526
2.025 1.171 1.668 1360
2.137 1.236 1.744 6027
2.192 1.268 1.777 5663
2.084 1.205 1.694 1089
2.197 1.270 1.770 5663
2.201 1.273 1.762 4775
2.147 1.242 1.712 4597
2.257 1.305 1.794 1124
2.151 1.244 1.705 4174
2.261 1.308 1.786 1375
2.155 1.247 1.698 3699
2.265 1.310 1.779 1785
2.240 1.296 1.750 3080
2.130 1.232 1.669 1562
2.244 1.298 1.743 3913
2.134 1.234 1.662 1133
2.242 1.297 1.731 5828
2.246 1.299 1.724 7847
2.357 1.363 1.803 1090
2.250 1.302 1.716 8466
2.361 1.366 1.796 1372
2.260 1.307 1.713 9157
2.371 1.371 1.792 1443
2.276 1.316 1.714 9865
2.387 1.381 1.792 1160
2.292 1.325 1.714 12044
2.403 1.390 1.793 1012
2.296 1.328 1.707 10912
2.407 1.392 1.785 1447
2.300 1.330 1.699 9780
2.411 1.395 1.777 1881
2.303 1.332 1.692 6862
2.415 1.397 1.769 2630
2.319 1.341 1.692 4057
2.431 1.406 1.769 3521
2.394 1.385 1.733 4401
2.506 1.449 1.809 1124
2.392 1.383 1.721 5199
2.510 1.452 1.801 1630
2.396 1.386 1.713 4967
2.515 1.454 1.792 1578
2.406 1.392 1.709 4755
2.519 1.457 1.784 1527
2.416 1.397 1.705 4750
2.559 1.480 1.799 1514
2.438 1.410 1.709 3754
2.569 1.486 1.795 1635
2.465 1.426 1.716 3475
2.579 1.492 1.790 1695
2.475 1.432 1.712 2637
2.589 1.497 1.785 1620
2.533 1.465 1.738 3625
2.420 1.399 1.665 2410
2.537 1.468 1.730 3355
2.423 1.402 1.657 2198
2.553 1.477 1.729 3128
2.433 1.407 1.653 2039
2.575 1.490 1.732 3160
2.461 1.423 1.660 1877
2.634 1.523 1.757 3995
2.483 1.436 1.663 1596
2.650 1.533 1.756 4786
2.535 1.466 1.685 2319
2.654 1.535 1.747 5583
2.539 1.468 1.677 2092
2.658 1.537 1.739 6381
2.543 1.471 1.668 1865
2.662 1.540 1.730 6140
2.547 1.473 1.660 1461
2.636 1.524 1.703 5048
2.751 1.591 1.772 2390
2.706 1.565 1.734 5170
2.591 1.498 1.665 1563
2.710 1.568 1.725 4893
2.595 1.501 1.656 1286
2.721 1.573 1.720 3680
2.843 1.644 1.792 1156
2.749 1.590 1.725 3825
2.865 1.657 1.793 1908
2.759 1.596 1.720 4032
2.875 1.663 1.787 3128
2.769 1.602 1.714 3832
2.886 1.669 1.781 3726
2.884 1.668 1.768 4018
2.767 1.600 1.701 3398
2.789 1.613 1.703 5294
2.906 1.681 1.769 2926
2.787 1.612 1.690 6949
2.904 1.680 1.756 2530
2.791 1.614 1.681 6933
2.908 1.682 1.746 2720
2.795 1.617 1.671 4837
2.918 1.688 1.740 3877
2.916 1.687 1.727 6868
2.799 1.619 1.662 2777
2.920 1.689 1.717 9113
2.803 1.621 1.653 2812
2.930 1.695 1.711 10099
2.807 1.623 1.643 2465
2.941 1.701 1.705 10673
3.059 1.769 1.769 3084
2.951 1.707 1.698 13486
3.069 1.775 1.762 3718
2.955 1.709 1.689 16915
3.073 1.777 1.752 3699
2.959 1.711 1.679 13976
3.102 1.794 1.755 5172
2.975 1.721 1.675 7447
3.093 1.789 1.738 7261
3.091 1.788 1.724 8029
2.910 1.683 1.630 3998
3.095 1.790 1.714 7281
2.976 1.721 1.652 3910
3.099 1.793 1.704 7568
2.980 1.724 1.643 2888
3.103 1.795 1.693 6795
3.222 1.864 1.754 3062
3.195 1.848 1.727 7984
3.076 1.779 1.667 4443
3.199 1.850 1.717 8562
3.080 1.781 1.657 2912
3.209 1.856 1.709 5960
3.090 1.787 1.650 1928
3.188 1.844 1.686 4179
3.223 1.864 1.691 7171
3.104 1.795 1.632 1575
3.227 1.867 1.680 8235
3.347 1.936 1.738 1070
3.238 1.873 1.673 5436
3.358 1.942 1.730 1909
3.324 1.922 1.701 5122
3.203 1.853 1.644 1858
3.328 1.925 1.690 5362
3.480 2.013 1.762 1533
3.332 1.927 1.679 4484
3.484 2.015 1.750 2494
3.342 1.933 1.671 4974
3.488 2.017 1.739 2704
3.365 1.946 1.669 5565
3.492 2.020 1.727 2736
3.369 1.948 1.657 6391
3.496 2.022 1.716 2911
3.366 1.947 1.643 7490
3.532 2.043 1.718 2745
3.370 1.949 1.632 6032
3.542 2.049 1.710 3813
3.546 2.051 1.698 4712
3.374 1.951 1.621 4338
3.550 2.053 1.686 4250
3.377 1.953 1.610 2765
3.573 2.067 1.683 3133
3.388 1.959 1.601 1428
3.584 2.073 1.673 2913
3.588 2.075 1.661 4300
3.710 2.145 1.714 1141
3.591 2.077 1.650 5294
3.739 2.163 1.713 1633
3.660 2.117 1.665 4326
3.537 2.046 1.613 1339
3.708 2.145 1.671 3929
3.586 2.074 1.620 1487
3.719 2.151 1.662 3269
3.841 2.222 1.713 1588
3.729 2.157 1.652 4153
3.852 2.228 1.702 2790
3.739 2.163 1.642 4441
3.869 2.237 1.695 2941
3.769 2.180 1.640 5699
3.892 2.251 1.690 3582
3.786 2.190 1.633 7751
3.909 2.261 1.682 5225
3.906 2.259 1.666 6596
3.783 2.188 1.618 5390
3.917 2.265 1.656 6444
3.793 2.194 1.608 2609
3.920 2.267 1.643 5420
3.797 2.196 1.595 1147
3.996 2.311 1.657 3891
3.872 2.240 1.610 2038
3.993 2.309 1.642 8115
3.869 2.238 1.594 1906
3.984 2.304 1.623 9297
3.860 2.232 1.577 1143
3.981 2.302 1.608 8741
4.105 2.374 1.654 1245
3.985 2.305 1.594 5458
4.122 2.384 1.645 1687
4.054 2.344 1.605 3533
4.070 2.354 1.596 4534
4.352 2.517 1.698 1359
4.074 2.356 1.583 4663
4.355 2.519 1.684 1682
4.038 2.336 1.555 4049
4.346 2.514 1.664 2171
4.048 2.342 1.544 3618
4.370 2.527 1.657 2374
4.098 2.370 1.546 2658
4.380 2.533 1.644 1880
4.417 2.555 1.641 2479
4.042 2.338 1.512 2010
4.427 2.561 1.629 3874
4.552 2.633 1.671 1975
4.431 2.563 1.614 2644
4.556 2.635 1.656 2148
4.395 2.542 1.586 2625
4.553 2.633 1.639 2574
4.511 2.609 1.608 2964
4.386 2.536 1.567 2111
4.528 2.619 1.597 2388
4.739 2.741 1.666 1151
4.591 2.655 1.601 2539
4.736 2.739 1.648 1955
4.601 2.661 1.588 2256
4.799 2.776 1.651 2072
4.803 2.778 1.635 2921
4.611 2.667 1.575 1758
4.833 2.795 1.627 2647
4.641 2.684 1.568 1352
4.870 2.817 1.621 3504
4.744 2.744 1.583 1539
4.927 2.850 1.621 4908
4.781 2.765 1.577 2305
4.944 2.859 1.609 6681
4.798 2.775 1.565 3166
4.954 2.865 1.594 6728
4.821 2.789 1.555 2696
4.958 2.867 1.578 6932
5.084 2.940 1.615 4025
4.955 2.866 1.559 6163
5.094 2.946 1.600 5608
5.038 2.914 1.565 4361
5.165 2.987 1.602 2436
5.142 2.974 1.577 3187
5.268 3.047 1.613 2895
5.278 3.053 1.597 4566
5.119 2.960 1.552 2222
5.295 3.063 1.583 4340
5.475 3.167 1.632 1673
5.473 3.165 1.612 2777
5.306 3.069 1.567 2762
5.476 3.167 1.594 3068
5.603 3.241 1.628 1551
5.480 3.169 1.576 2452
5.607 3.243 1.609 1614
5.557 3.214 1.576 2445
5.798 3.353 1.639 2004
5.808 3.359 1.622 2943
5.547 3.208 1.554 2491
5.805 3.358 1.600 3328
5.678 3.284 1.568 2406
5.809 3.360 1.581 3658
5.682 3.286 1.549 2578
5.819 3.366 1.563 4400
5.692 3.292 1.532 3140
5.823 3.368 1.544 3998
5.695 3.294 1.513 3239
5.820 3.366 1.523 2688
6.101 3.529 1.590 2514
6.105 3.531 1.570 3658
5.702 3.298 1.475 2470
6.102 3.529 1.548 3786
5.974 3.455 1.518 2223
6.105 3.531 1.527 3022
6.401 3.702 1.595 2115
6.122 3.541 1.510 3349
6.519 3.771 1.600 1997
6.126 3.543 1.489 2308
6.516 3.769 1.576 2097
6.796 3.930 1.615 1840
6.520 3.771 1.554 1421
6.645 3.843 1.559 1701
6.779 3.921 1.588 1453
6.999 4.048 1.611 2723
6.641 3.841 1.535 1603
7.002 4.050 1.587 3056
6.840 3.956 1.553 2189
7.006 4.052 1.564 2599
6.837 3.954 1.529 2115
7.010 4.054 1.540 2871
6.834 3.953 1.505 1463
7.013 4.056 1.517 2729
6.858 3.966 1.486 1464
7.003 4.050 1.491 2001
7.131 4.125 1.516 1375
7.006 4.052 1.467 1735
7.669 4.435 1.594 1445
7.030 4.066 1.447 1585
7.774 4.496 1.587 1532
7.730 4.471 1.552 1653
8.103 4.686 1.621 1390
7.700 4.453 1.520 1837
8.120 4.696 1.596 1355
8.123 4.698 1.569 1587
7.676 4.440 1.489 1466
8.086 4.677 1.534 1613
8.090 4.679 1.507 1145
8.209 4.748 1.443 1017
1.979 1.137 1.736 2276
1.983 1.140 1.729 4552
2.089 1.201 1.817 2041
1.987 1.142 1.723 4552
2.093 1.203 1.810 3233
2.030 1.167 1.748 6289
1.901 1.093 1.643 1284
2.028 1.166 1.737 8250
2.135 1.227 1.823 2380
2.032 1.168 1.730 7899
2.140 1.230 1.816 3471
2.110 1.213 1.782 7810
2.003 1.151 1.696 4398
2.114 1.215 1.775 7810
2.007 1.153 1.690 4398
2.118 1.218 1.768 8184
2.010 1.156 1.683 3243
2.122 1.220 1.761 8559
2.009 1.155 1.672 2176
2.132 1.226 1.759 7270
2.024 1.163 1.674 1596
2.142 1.231 1.756 6145
2.034 1.169 1.672 1175
2.146 1.234 1.749 4912
2.190 1.259 1.772 5759
2.194 1.261 1.765 5759
2.204 1.267 1.762 4686
2.156 1.240 1.716 4708
2.266 1.302 1.798 1095
2.155 1.239 1.705 4258
2.264 1.302 1.786 1848
2.159 1.241 1.698 3793
2.268 1.304 1.779 2458
2.244 1.290 1.750 3393
2.134 1.226 1.669 1652
2.248 1.292 1.743 4145
2.137 1.229 1.662 1013
2.246 1.291 1.731 5870
2.244 1.290 1.719 7684
2.355 1.354 1.799 1341
2.254 1.296 1.716 8154
2.365 1.359 1.796 1483
2.264 1.301 1.713 8974
2.375 1.365 1.792 1590
2.279 1.310 1.714 9972
2.391 1.374 1.792 1114
2.289 1.316 1.710 11732
2.293 1.318 1.703 10840
2.405 1.382 1.781 1386
2.297 1.320 1.695 9948
2.409 1.385 1.773 1802
2.307 1.326 1.692 6965
2.419 1.391 1.769 2171
2.323 1.335 1.692 4249
2.435 1.400 1.769 2926
2.392 1.375 1.729 4250
2.510 1.443 1.809 1153
2.396 1.377 1.721 5199
2.514 1.445 1.801 1643
2.400 1.379 1.713 5041
2.524 1.451 1.796 1609
2.404 1.382 1.705 4884
2.552 1.467 1.804 1661
2.420 1.391 1.705 4509
2.568 1.476 1.803 1798
2.441 1.403 1.709 3843
2.579 1.482 1.799 2075
2.463 1.416 1.712 3538
2.577 1.481 1.786 2340
2.449 1.408 1.692 3557
2.563 1.473 1.766 2647
2.531 1.455 1.734 4206
2.417 1.390 1.661 2816
2.535 1.457 1.726 4038
2.421 1.392 1.653 2370
2.539 1.460 1.718 3871
2.425 1.394 1.645 1890
2.567 1.476 1.724 3717
2.453 1.410 1.652 1399
2.577 1.482 1.720 3909
2.692 1.547 1.791 1094
2.569 1.477 1.704 3856
2.684 1.543 1.775 2739
2.658 1.528 1.747 4288
2.543 1.462 1.677 2208
2.662 1.530 1.739 5374
2.547 1.464 1.668 1878
2.672 1.536 1.734 5638
2.557 1.470 1.663 1623
2.694 1.549 1.736 5740
2.810 1.615 1.805 1539
2.711 1.558 1.734 6604
2.826 1.625 1.803 1420
2.715 1.560 1.725 5950
2.830 1.627 1.794 1296
2.725 1.566 1.720 4164
2.847 1.637 1.792 1199
2.753 1.583 1.725 4200
2.869 1.649 1.793 1920
2.776 1.595 1.727 4989
2.892 1.662 1.794 2734
2.786 1.601 1.721 5184
2.902 1.668 1.788 3347
2.796 1.607 1.715 4582
2.913 1.674 1.782 3135
2.800 1.609 1.706 6190
2.917 1.677 1.773 2918
2.798 1.608 1.693 8067
2.915 1.675 1.760 2694
2.802 1.610 1.684 7937
2.919 1.678 1.750 3178
2.805 1.613 1.675 5778
2.923 1.680 1.740 4648
2.945 1.693 1.741 7768
2.816 1.618 1.669 3712
2.943 1.692 1.728 9369
2.813 1.617 1.656 3790
2.947 1.694 1.718 10304
2.817 1.619 1.647 3068
2.951 1.697 1.708 11274
3.069 1.764 1.772 2463
2.955 1.699 1.698 14469
3.074 1.767 1.762 3167
2.959 1.701 1.689 17628
3.078 1.769 1.752 3598
2.969 1.707 1.682 14435
3.107 1.786 1.755 6024
3.104 1.785 1.741 8532
2.980 1.713 1.675 7809
3.102 1.783 1.727 9271
2.983 1.715 1.666 3774
3.106 1.786 1.717 8159
2.987 1.717 1.656 3577
3.110 1.788 1.707 8317
2.991 1.719 1.646 2759
3.114 1.790 1.696 7423
3.234 1.859 1.757 2775
3.200 1.839 1.727 8584
3.080 1.771 1.667 4066
3.204 1.842 1.717 9675
3.084 1.773 1.657 2429
3.214 1.848 1.709 6997
3.094 1.779 1.650 1645
3.243 1.864 1.711 5026
3.123 1.795 1.652 2957
3.241 1.863 1.697 7410
3.121 1.794 1.639 1976
3.239 1.862 1.683 7891
3.359 1.931 1.742 1033
3.243 1.864 1.673 5633
3.363 1.933 1.730 1519
3.253 1.870 1.665 5201
3.373 1.939 1.722 1817
3.263 1.876 1.657 5567
3.384 1.945 1.714 1587
3.267 1.878 1.646 5373
3.489 2.006 1.750 2179
3.353 1.928 1.674 5279
3.493 2.008 1.739 2495
3.357 1.930 1.663 5488
3.504 2.014 1.730 2664
3.374 1.939 1.657 6537
3.495 2.009 1.713 3092
3.371 1.938 1.643 7686
3.531 2.030 1.716 3021
3.375 1.940 1.632 6188
3.535 2.032 1.704 2997
3.379 1.942 1.621 4792
3.533 2.031 1.689 3238
3.383 1.944 1.610 3580
3.536 2.033 1.677 3069
3.572 2.054 1.680 2623
3.393 1.950 1.601 2004
3.589 2.063 1.673 2757
3.664 2.106 1.692 3732
3.542 2.036 1.639 1528
3.661 2.105 1.677 5237
3.539 2.034 1.625 1573
3.672 2.111 1.667 4638
3.549 2.040 1.616 1683
3.701 2.128 1.666 4035
3.579 2.057 1.615 1364
3.724 2.141 1.662 3400
3.847 2.212 1.713 1257
3.735 2.147 1.652 3965
3.858 2.218 1.702 2743
3.764 2.164 1.650 4179
3.887 2.235 1.700 3339
3.788 2.177 1.645 6721
3.911 2.248 1.695 3240
3.798 2.183 1.635 8360
3.921 2.254 1.685 4948
3.912 2.249 1.666 7298
3.789 2.178 1.618 4659
3.916 2.251 1.653 7000
3.793 2.180 1.605 2036
3.926 2.257 1.643 5230
3.803 2.186 1.595 1111
3.989 2.293 1.652 4023
3.865 2.222 1.605 1983
3.993 2.295 1.639 7108
3.869 2.224 1.592 1868
3.996 2.297 1.626 7829
3.872 2.226 1.579 1540
3.994 2.296 1.610 6770
4.063 2.335 1.621 4101
4.066 2.337 1.607 6910
4.077 2.343 1.596 6773
3.952 2.272 1.551 1350
4.080 2.345 1.583 5568
4.375 2.515 1.688 1247
4.077 2.344 1.567 4464
4.379 2.517 1.674 1849
4.088 2.350 1.555 4625
4.390 2.523 1.661 2126
4.098 2.355 1.544 4357
4.393 2.525 1.647 1765
4.424 2.543 1.641 2832
4.101 2.358 1.530 2285
4.434 2.549 1.629 4130
4.559 2.621 1.671 1928
4.438 2.551 1.614 2891
4.569 2.627 1.658 1949
4.408 2.534 1.588 3014
4.534 2.606 1.630 2240
4.498 2.586 1.602 3014
4.650 2.673 1.652 1126
4.528 2.603 1.595 2215
4.739 2.724 1.664 1311
4.604 2.647 1.604 2423
4.737 2.723 1.646 2022
4.628 2.660 1.594 2641
4.800 2.759 1.649 1960
4.810 2.765 1.635 2553
4.632 2.662 1.579 2389
4.854 2.790 1.632 2600
4.728 2.718 1.592 1967
4.871 2.800 1.619 3957
4.698 2.701 1.566 1424
4.875 2.802 1.603 4221
4.749 2.730 1.565 2222
4.951 2.846 1.609 5562
4.785 2.751 1.559 3098
4.955 2.848 1.592 5138
4.829 2.776 1.555 2222
4.959 2.850 1.576 5307
5.085 2.923 1.613 3438
5.049 2.902 1.584 5253
5.222 3.002 1.634 2817
5.046 2.901 1.565 4905
5.219 3.000 1.615 3632
5.163 2.968 1.581 3551
5.036 2.895 1.545 2942
5.287 3.039 1.597 3620
5.160 2.966 1.562 2022
5.317 3.056 1.586 4134
5.484 3.152 1.632 2018
5.488 3.154 1.614 3197
5.321 3.058 1.569 2878
5.485 3.153 1.594 3153
5.338 3.068 1.555 1528
5.488 3.155 1.576 2277
5.615 3.228 1.609 1678
5.566 3.199 1.576 2672
5.813 3.342 1.641 2099
5.817 3.344 1.622 2990
5.562 3.198 1.556 2680
5.693 3.273 1.570 3598
5.821 3.346 1.602 2909
5.690 3.271 1.549 4218
5.824 3.348 1.583 2916
5.701 3.277 1.532 4669
5.828 3.350 1.563 3780
5.711 3.283 1.514 4112
5.838 3.356 1.545 3325
6.104 3.509 1.589 2801
5.707 3.281 1.494 2730
6.101 3.507 1.567 3980
5.718 3.287 1.476 2739
6.104 3.509 1.546 4421
5.977 3.436 1.517 2575
6.108 3.511 1.526 3946
5.980 3.438 1.497 1986
6.125 3.521 1.508 3792
6.529 3.753 1.600 1850
6.135 3.527 1.489 2643
6.533 3.755 1.578 2060
6.806 3.912 1.615 2009
6.530 3.754 1.554 1840
6.790 3.903 1.588 1843
6.648 3.821 1.557 1399
7.003 4.025 1.609 2184
6.834 3.928 1.573 1912
6.851 3.938 1.553 3397
7.013 4.031 1.587 2528
6.848 3.936 1.529 3072
7.023 4.037 1.565 2256
7.020 4.035 1.540 2525
6.844 3.934 1.505 1938
7.024 4.038 1.517 2397
6.868 3.948 1.486 2010
7.007 4.028 1.489 1853
6.858 3.942 1.460 1847
7.193 4.135 1.501 1615
7.017 4.034 1.467 1508
7.474 4.297 1.529 1556
7.779 4.472 1.586 1380
8.000 4.599 1.599 1416
7.742 4.450 1.552 1394
7.719 4.437 1.521 1591
7.990 4.593 1.570 1289
8.129 4.673 1.567 1489
7.675 4.412 1.487 1459
8.099 4.655 1.534 1804
8.095 4.654 1.506 1168
2.050 1.168 1.791 2327
2.054 1.171 1.784 4655
1.897 1.081 1.656 1663
2.058 1.173 1.778 4655
1.901 1.083 1.649 1663
2.034 1.159 1.748 6592
1.905 1.086 1.643 1578
2.038 1.162 1.741 8631
2.146 1.223 1.828 1790
2.037 1.161 1.730 7845
2.144 1.222 1.816 3161
2.114 1.205 1.782 7843
2.007 1.144 1.696 4258
2.119 1.207 1.775 7843
2.011 1.146 1.690 4258
2.123 1.210 1.768 8112
2.015 1.148 1.683 3177
2.127 1.212 1.761 8381
2.013 1.147 1.672 2183
2.137 1.218 1.759 6408
2.028 1.156 1.674 1692
2.147 1.223 1.756 4794
2.038 1.161 1.672 1366
2.179 1.242 1.771 4394
2.070 1.180 1.687 1624
2.195 1.251 1.772 5459
2.199 1.253 1.765 5459
2.209 1.259 1.762 4422
2.167 1.235 1.721 3926
2.165 1.234 1.709 3506
2.275 1.296 1.791 1818
2.163 1.233 1.698 3150
2.273 1.295 1.779 2890
2.248 1.281 1.750 3714
2.138 1.218 1.669 1399
2.247 1.280 1.738 4446
2.245 1.279 1.727 5825
2.249 1.281 1.719 7369
2.360 1.345 1.799 1269
2.259 1.287 1.716 7633
2.370 1.350 1.796 1483
2.274 1.296 1.717 8676
2.386 1.359 1.796 1304
2.284 1.302 1.714 9862
2.396 1.365 1.792 1053
2.288 1.304 1.706 11260
2.400 1.368 1.784 1067
2.298 1.310 1.703 10469
2.410 1.373 1.781 1153
2.302 1.312 1.695 9828
2.414 1.376 1.773 1446
2.312 1.317 1.692 6906
2.424 1.381 1.769 1813
2.334 1.330 1.696 4503
2.446 1.394 1.773 2159
2.397 1.366 1.729 4116
2.284 1.302 1.652 1112
2.401 1.368 1.721 5085
2.526 1.439 1.805 1499
2.405 1.370 1.713 4883
2.530 1.442 1.796 1484
2.415 1.376 1.709 4740
2.564 1.461 1.808 1615
2.425 1.382 1.705 4280
2.574 1.467 1.803 1938
2.447 1.394 1.709 4155
2.584 1.473 1.799 2368
2.457 1.400 1.704 4172
2.582 1.471 1.786 2757
2.455 1.399 1.692 4632
2.587 1.474 1.778 3200
2.459 1.401 1.684 5121
2.609 1.486 1.781 3686
2.541 1.448 1.726 4612
2.426 1.383 1.653 2727
2.551 1.453 1.722 4533
2.436 1.388 1.649 2199
2.573 1.466 1.724 4384
2.458 1.401 1.652 1475
2.583 1.472 1.720 4517
2.698 1.537 1.791 1142
2.581 1.471 1.707 4372
2.696 1.536 1.779 2299
2.658 1.514 1.744 3778
2.542 1.449 1.673 1762
2.662 1.517 1.735 4667
2.546 1.451 1.664 1479
2.678 1.526 1.734 5163
2.794 1.592 1.804 1561
2.706 1.542 1.739 6733
2.822 1.608 1.809 1441
2.716 1.548 1.734 7915
2.832 1.614 1.803 1379
2.720 1.550 1.725 6931
2.837 1.616 1.794 1307
2.731 1.556 1.720 4700
2.847 1.622 1.788 1168
2.765 1.576 1.729 4644
2.882 1.642 1.797 1587
2.782 1.585 1.727 5953
2.898 1.651 1.794 2588
2.792 1.591 1.721 6430
2.909 1.657 1.788 3275
2.820 1.607 1.726 6197
2.703 1.540 1.659 1723
2.824 1.609 1.717 7674
2.707 1.543 1.650 1864
2.810 1.601 1.697 8803
2.927 1.668 1.763 2584
2.814 1.603 1.688 8630
2.931 1.670 1.753 3044
2.836 1.616 1.689 6710
2.954 1.683 1.754 4752
2.952 1.682 1.741 8588
2.828 1.611 1.672 4407
2.956 1.684 1.731 10054
2.819 1.606 1.656 4326
2.966 1.690 1.725 10673
2.823 1.609 1.647 3342
2.964 1.689 1.711 11504
2.846 1.621 1.648 1705
2.968 1.691 1.702 14250
3.086 1.759 1.765 2130
2.966 1.690 1.689 16765
3.084 1.757 1.752 3166
2.976 1.696 1.682 13695
3.113 1.774 1.755 6537
3.111 1.773 1.741 9464
2.986 1.701 1.675 7445
3.115 1.775 1.731 9941
2.990 1.704 1.666 3355
3.119 1.777 1.720 8539
3.000 1.709 1.659 2963
3.117 1.776 1.707 8304
2.960 1.687 1.626 2314
3.121 1.778 1.696 7238
3.241 1.847 1.757 2670
3.207 1.827 1.727 8788
3.087 1.759 1.667 3331
3.211 1.830 1.717 10352
3.091 1.761 1.657 1945
3.215 1.832 1.706 7715
3.095 1.763 1.647 1186
3.250 1.852 1.711 6071
3.130 1.784 1.652 2580
3.254 1.854 1.700 7955
3.134 1.786 1.642 2082
3.246 1.849 1.683 7357
3.366 1.918 1.742 1153
3.250 1.852 1.673 5162
3.370 1.920 1.730 1210
3.266 1.861 1.668 5583
3.387 1.930 1.725 1144
3.270 1.863 1.657 6740
3.391 1.932 1.714 1581
3.274 1.865 1.646 6618
3.497 1.993 1.750 1905
3.361 1.915 1.674 5654
3.507 1.999 1.742 2392
3.365 1.917 1.663 5712
3.505 1.997 1.727 2726
3.381 1.927 1.657 6943
3.503 1.996 1.713 3512
3.379 1.925 1.643 7654
3.532 2.013 1.713 3343
3.382 1.927 1.632 5999
3.536 2.015 1.701 3217
3.386 1.929 1.621 4742
3.521 2.006 1.681 3196
3.390 1.932 1.610 3822
3.525 2.008 1.669 2901
3.400 1.937 1.601 2338
3.574 2.036 1.677 2219
3.590 2.046 1.671 2958
3.607 2.055 1.664 3124
3.676 2.094 1.680 4906
3.553 2.025 1.628 1568
3.680 2.097 1.667 4752
3.557 2.027 1.616 1561
3.696 2.106 1.661 4252
3.573 2.036 1.609 1246
3.726 2.123 1.659 3761
3.603 2.053 1.608 1197
3.743 2.133 1.652 3876
3.879 2.210 1.708 2696
3.779 2.153 1.653 4521
3.902 2.224 1.703 3277
3.796 2.163 1.645 7449
3.919 2.233 1.695 3016
3.813 2.173 1.638 8382
3.936 2.243 1.687 4340
3.914 2.230 1.664 7656
3.791 2.160 1.615 3238
3.924 2.236 1.653 7339
3.801 2.166 1.605 1537
3.941 2.246 1.645 5148
3.991 2.274 1.650 4538
3.867 2.203 1.602 1891
4.001 2.280 1.639 5953
3.877 2.209 1.592 1905
4.005 2.282 1.626 6428
3.881 2.211 1.579 1699
4.009 2.284 1.613 5256
4.078 2.324 1.623 6131
3.954 2.253 1.577 1042
4.082 2.326 1.610 10112
4.085 2.328 1.596 9170
4.256 2.425 1.658 1004
4.089 2.330 1.583 6554
4.253 2.424 1.641 1034
4.086 2.328 1.567 5355
4.389 2.501 1.674 1487
4.090 2.330 1.553 6233
4.406 2.510 1.664 1803
4.107 2.340 1.544 6106
4.410 2.513 1.649 1596
4.110 2.342 1.530 3397
4.433 2.526 1.641 2834
4.450 2.536 1.631 3952
4.575 2.607 1.673 1604
4.441 2.530 1.612 2931
4.593 2.617 1.663 1717
4.418 2.517 1.588 3006
4.544 2.589 1.630 2024
4.521 2.576 1.606 2807
4.395 2.504 1.565 1546
4.538 2.586 1.595 2086
4.743 2.703 1.662 1384
4.628 2.637 1.608 2099
4.753 2.709 1.648 1935
4.638 2.643 1.594 2802
4.764 2.715 1.634 1939
4.748 2.705 1.612 2983
4.622 2.633 1.573 2291
4.751 2.707 1.597 2536
4.878 2.779 1.636 2386
4.881 2.782 1.619 3844
4.709 2.683 1.566 2016
4.885 2.784 1.603 4284
4.759 2.712 1.565 2567
4.962 2.827 1.609 4811
4.782 2.725 1.555 3388
4.946 2.818 1.586 4762
5.072 2.890 1.624 1815
4.950 2.820 1.570 5263
5.076 2.892 1.607 3779
5.053 2.879 1.582 5241
5.227 2.978 1.632 3691
5.057 2.881 1.565 4984
5.224 2.977 1.613 4574
5.207 2.967 1.590 3708
5.067 2.887 1.551 3633
5.204 2.966 1.571 2786
5.331 3.038 1.606 2597
5.335 3.040 1.588 3552
5.496 3.132 1.632 2447
5.499 3.134 1.614 3600
5.339 3.042 1.571 2910
5.497 3.132 1.594 3058
5.349 3.048 1.555 1726
5.581 3.180 1.597 2405
5.708 3.252 1.630 1556
5.578 3.178 1.576 2642
5.826 3.320 1.641 2114
5.709 3.253 1.591 2886
5.836 3.326 1.623 2744
5.706 3.251 1.570 4410
5.833 3.324 1.602 2119
5.703 3.249 1.549 5056
6.012 3.426 1.626 2513
5.713 3.255 1.532 5182
5.847 3.332 1.565 2749
5.716 3.257 1.513 4206
6.019 3.430 1.586 2644
6.110 3.482 1.587 2966
5.720 3.259 1.494 2726
6.114 3.484 1.567 3877
5.730 3.265 1.476 2666
6.111 3.482 1.545 4533
5.983 3.409 1.515 2435
6.115 3.484 1.524 4248
6.675 3.803 1.652 1819
6.138 3.498 1.508 3742
6.665 3.798 1.627 1707
6.142 3.500 1.488 2691
6.540 3.727 1.576 1803
6.537 3.725 1.553 2014
6.821 3.887 1.615 1982
6.804 3.877 1.588 2120
6.541 3.727 1.531 1253
6.842 3.899 1.572 2405
7.025 4.003 1.611 1508
6.859 3.908 1.552 3743
7.028 4.005 1.587 1824
6.869 3.914 1.530 3406
7.045 4.015 1.566 1918
6.880 3.920 1.509 2067
7.042 4.013 1.542 2054
6.883 3.922 1.486 2228
7.039 4.011 1.517 1857
6.873 3.916 1.460 2350
7.009 3.994 1.487 1435
7.202 4.104 1.499 1641
6.869 3.914 1.436 1638
7.491 4.268 1.529 1582
7.932 4.520 1.611 1396
8.044 4.584 1.604 1419
7.480 4.262 1.501 1233
8.007 4.563 1.570 1320
7.756 4.419 1.525 1232
8.147 4.642 1.567 1571
7.691 4.383 1.487 1209
8.123 4.629 1.535 1870
8.195 4.669 1.520 1388
8.185 4.664 1.490 1326
2.052 1.164 1.791 2472
2.057 1.166 1.784 4945
1.950 1.106 1.697 1784
2.061 1.169 1.778 4945
1.954 1.108 1.691 1784
2.042 1.158 1.753 6924
1.902 1.078 1.639 1445
2.047 1.160 1.746 9018
1.911 1.084 1.637 1403
2.039 1.156 1.730 7699
2.147 1.217 1.816 2906
2.111 1.197 1.778 7832
2.004 1.136 1.692 3385
2.115 1.200 1.771 7832
2.008 1.138 1.685 3385
2.120 1.202 1.764 7943
2.012 1.141 1.679 2743
2.124 1.204 1.757 8055
2.015 1.143 1.672 2100
2.134 1.210 1.754 5794
2.019 1.145 1.666 1479
2.166 1.228 1.769 3822
2.058 1.167 1.685 1508
2.182 1.237 1.771 4175
2.073 1.175 1.687 1488
2.197 1.246 1.772 5126
2.202 1.248 1.765 5126
2.211 1.254 1.762 4212
2.233 1.266 1.768 3524
2.243 1.272 1.765 3433
2.133 1.209 1.683 1309
2.264 1.284 1.770 3477
2.154 1.222 1.689 2273
2.251 1.276 1.750 4265
2.141 1.214 1.669 1092
2.249 1.275 1.738 5298
2.248 1.274 1.727 6270
2.252 1.277 1.719 7292
2.363 1.340 1.799 1142
2.261 1.282 1.716 7079
2.373 1.345 1.796 1429
2.283 1.295 1.721 8130
2.281 1.294 1.710 9407
2.393 1.357 1.788 1320
2.285 1.296 1.702 10741
2.397 1.359 1.780 1379
2.295 1.301 1.699 9863
2.407 1.365 1.776 1313
2.305 1.307 1.695 9318
2.417 1.371 1.773 1269
2.321 1.316 1.696 6715
2.433 1.380 1.773 1562
2.342 1.328 1.700 5090
2.455 1.392 1.777 1523
2.382 1.351 1.717 4315
2.398 1.360 1.717 5092
2.529 1.434 1.805 1251
2.414 1.369 1.717 4572
2.533 1.436 1.796 1246
2.424 1.374 1.713 4379
2.567 1.456 1.808 1347
2.440 1.383 1.713 4114
2.577 1.461 1.803 1909
2.456 1.392 1.713 4732
2.587 1.467 1.799 2494
2.460 1.395 1.704 5084
2.585 1.466 1.786 3103
2.464 1.397 1.696 5720
2.596 1.472 1.782 3841
2.467 1.399 1.688 6356
2.606 1.478 1.777 4360
2.544 1.442 1.726 5151
2.429 1.377 1.653 2902
2.554 1.448 1.722 5183
2.439 1.383 1.649 2337
2.576 1.461 1.724 5106
2.461 1.396 1.652 1687
2.592 1.470 1.724 5300
2.614 1.482 1.726 5226
2.655 1.505 1.740 4331
2.539 1.440 1.669 1257
2.665 1.511 1.735 4690
2.549 1.446 1.664 1151
2.675 1.517 1.730 5149
2.791 1.582 1.800 1773
2.710 1.536 1.739 7561
2.594 1.471 1.670 1714
2.714 1.539 1.730 9008
2.830 1.605 1.800 1318
2.724 1.544 1.725 7830
2.840 1.610 1.794 1212
2.734 1.550 1.720 5409
2.850 1.616 1.788 1088
2.769 1.570 1.729 5372
2.885 1.636 1.797 1260
2.791 1.583 1.730 7167
2.908 1.649 1.798 2077
2.801 1.588 1.725 7817
2.918 1.655 1.792 2605
2.818 1.598 1.722 7792
2.935 1.664 1.789 1912
2.828 1.603 1.717 9460
2.710 1.537 1.650 1804
2.819 1.599 1.700 9803
2.937 1.665 1.767 2333
2.830 1.604 1.694 9603
2.947 1.671 1.760 2359
2.846 1.614 1.692 8330
2.964 1.681 1.757 4660
2.962 1.679 1.744 8670
2.837 1.609 1.676 5478
2.966 1.682 1.734 10085
2.823 1.601 1.656 5019
2.970 1.684 1.725 10887
2.833 1.606 1.650 3867
2.980 1.690 1.718 11998
2.861 1.623 1.654 2363
2.978 1.689 1.705 13857
3.096 1.756 1.768 1488
2.975 1.687 1.692 15437
3.113 1.765 1.765 3135
2.986 1.693 1.685 12458
3.117 1.768 1.755 6783
3.115 1.766 1.741 9590
2.996 1.699 1.679 6716
3.119 1.769 1.731 10152
3.000 1.701 1.669 2871
3.129 1.774 1.724 8933
3.010 1.707 1.662 2661
3.127 1.773 1.710 8813
3.007 1.705 1.649 2452
3.125 1.772 1.696 7706
3.244 1.840 1.757 2366
3.211 1.821 1.727 8851
3.091 1.753 1.667 2936
3.215 1.823 1.717 11022
3.095 1.755 1.657 1682
3.212 1.822 1.703 8506
3.254 1.845 1.711 6890
3.134 1.777 1.652 2041
3.258 1.848 1.700 8408
3.138 1.779 1.642 1895
3.256 1.846 1.686 6849
3.135 1.778 1.628 1059
3.260 1.848 1.676 4284
3.270 1.854 1.668 5311
3.274 1.856 1.657 6814
3.395 1.925 1.714 1494
3.278 1.859 1.646 6853
3.399 1.927 1.703 1756
3.365 1.908 1.674 6252
3.505 1.988 1.739 2212
3.375 1.914 1.666 6163
3.503 1.986 1.724 2860
3.385 1.920 1.657 7155
3.507 1.989 1.713 3805
3.383 1.918 1.643 7226
3.511 1.991 1.701 3876
3.386 1.920 1.632 5314
3.521 1.997 1.692 4268
3.525 1.999 1.681 4210
3.397 1.926 1.624 4194
3.394 1.925 1.610 3516
3.529 2.001 1.669 3226
3.572 2.025 1.674 2631
3.404 1.930 1.601 2182
3.588 2.035 1.668 3577
3.711 2.104 1.721 1287
3.624 2.055 1.670 3054
3.680 2.087 1.680 4489
3.544 2.010 1.622 1560
3.690 2.093 1.670 4670
3.561 2.019 1.616 1588
3.701 2.098 1.661 4428
3.578 2.029 1.609 1590
3.718 2.108 1.654 4497
3.893 2.207 1.726 1283
3.747 2.125 1.652 4054
3.890 2.206 1.710 2642
3.777 2.142 1.650 5181
3.901 2.212 1.700 3487
3.800 2.155 1.645 7369
3.924 2.225 1.695 2819
3.824 2.168 1.641 7413
3.947 2.238 1.690 3497
3.919 2.222 1.664 7325
3.795 2.152 1.615 2022
3.929 2.228 1.653 7397
3.959 2.245 1.651 5551
3.983 2.258 1.645 5474
3.858 2.188 1.597 1622
3.993 2.264 1.634 5414
3.869 2.194 1.587 1689
4.003 2.270 1.623 5929
3.879 2.199 1.577 1636
4.027 2.283 1.617 4531
4.083 2.315 1.623 8042
3.958 2.245 1.577 1119
4.087 2.317 1.610 12875
4.257 2.414 1.672 1567
4.090 2.319 1.596 10992
4.261 2.416 1.658 1623
4.094 2.321 1.583 7038
4.265 2.418 1.644 1387
4.091 2.320 1.567 5659
4.348 2.465 1.657 1198
4.095 2.322 1.553 7296
4.411 2.501 1.664 1473
4.105 2.328 1.542 7589
4.289 2.432 1.606 1751
4.115 2.333 1.530 4588
4.438 2.517 1.641 2771
4.455 2.526 1.631 3647
4.105 2.328 1.512 1858
4.466 2.532 1.618 3258
4.228 2.397 1.539 2462
4.423 2.508 1.588 2804
4.225 2.396 1.522 2765
4.526 2.567 1.606 2489
4.228 2.398 1.508 2341
4.550 2.580 1.597 1981
4.232 2.400 1.494 1556
4.739 2.687 1.642 1869
4.580 2.597 1.591 1705
4.730 2.682 1.622 3000
4.604 2.610 1.582 1564
4.747 2.692 1.610 4285
4.621 2.620 1.571 2116
4.750 2.694 1.594 3181
4.877 2.765 1.634 2092
4.881 2.768 1.617 3379
4.714 2.673 1.566 2276
4.891 2.773 1.603 4095
4.764 2.702 1.565 2456
4.915 2.787 1.593 4397
4.788 2.715 1.555 3007
4.945 2.804 1.584 4991
5.072 2.876 1.622 1644
4.955 2.810 1.570 6802
5.082 2.882 1.607 3195
4.966 2.816 1.555 6449
5.226 2.964 1.630 4156
5.230 2.966 1.613 5293
5.070 2.875 1.567 4606
5.227 2.964 1.594 3878
5.073 2.877 1.551 3598
5.244 2.974 1.580 2603
5.010 2.841 1.515 2355
5.341 3.029 1.588 2992
5.502 3.120 1.632 2983
5.499 3.118 1.612 3952
5.345 3.031 1.571 3039
5.503 3.121 1.594 3116
5.355 3.037 1.555 1906
5.701 3.233 1.627 2387
5.574 3.161 1.593 1994
5.705 3.235 1.608 2841
5.833 3.307 1.641 2054
5.716 3.241 1.591 3350
5.843 3.313 1.623 2498
5.712 3.239 1.570 4423
6.022 3.415 1.648 1917
5.709 3.238 1.549 4914
6.026 3.417 1.628 2736
5.720 3.243 1.532 4818
6.023 3.415 1.606 2140
5.723 3.245 1.513 3679
6.026 3.417 1.586 2808
6.030 3.419 1.566 3169
5.727 3.247 1.494 2401
6.115 3.467 1.565 3055
5.737 3.253 1.476 2347
6.111 3.466 1.543 4185
5.983 3.393 1.513 2114
6.122 3.471 1.524 4163
6.682 3.789 1.652 2040
6.146 3.485 1.508 3133
6.423 3.642 1.571 1787
6.142 3.483 1.486 2447
6.791 3.851 1.630 1600
6.545 3.711 1.553 2087
6.829 3.872 1.615 2025
6.819 3.867 1.589 2061
6.542 3.709 1.530 1312
6.850 3.884 1.572 2318
7.080 4.015 1.621 1205
6.867 3.894 1.552 3611
7.070 4.009 1.594 1152
6.877 3.900 1.530 3355
7.061 4.004 1.568 1369
6.888 3.906 1.509 2212
7.179 4.071 1.567 2077
6.884 3.904 1.485 2423
7.190 4.077 1.545 1849
6.881 3.902 1.460 2601
7.221 4.094 1.526 1559
6.878 3.900 1.436 1788
7.217 4.093 1.501 1462
7.948 4.507 1.612 1772
7.493 4.249 1.527 1514
7.952 4.509 1.586 1916
8.081 4.582 1.609 1618
8.160 4.627 1.596 1814
7.962 4.515 1.560 1520
8.156 4.625 1.567 2119
8.153 4.623 1.539 2157
8.184 4.641 1.516 2005
8.187 4.643 1.489 2009
8.191 4.645 1.462 1258
8.180 4.639 1.432 1113
8.184 4.641 1.405 1246
8.194 4.646 1.379 1019
2.030 1.139 1.768 2640
2.034 1.141 1.761 5280
1.910 1.072 1.660 1030
2.038 1.144 1.755 5280
1.914 1.074 1.654 1030
2.048 1.149 1.753 7211
1.912 1.073 1.643 1202
2.052 1.151 1.746 9242
1.916 1.075 1.637 1387
2.067 1.160 1.748 7482
1.920 1.077 1.631 1627
2.117 1.188 1.778 7736
2.009 1.127 1.692 3030
2.121 1.190 1.771 7736
2.013 1.129 1.685 3030
2.125 1.192 1.764 7736
2.017 1.132 1.679 2356
2.123 1.192 1.752 7754
2.015 1.131 1.668 1619
2.127 1.194 1.745 5998
1.939 1.088 1.599 1191
2.109 1.183 1.721 4394
2.218 1.244 1.804 2785
2.187 1.227 1.771 4178
2.078 1.166 1.687 1372
2.209 1.240 1.777 4951
2.099 1.178 1.694 1061
2.213 1.242 1.770 4951
2.223 1.247 1.767 4179
2.244 1.259 1.772 3658
2.134 1.198 1.690 1109
2.248 1.262 1.765 3591
2.276 1.277 1.775 3553
2.165 1.215 1.693 1591
2.251 1.263 1.746 4876
2.249 1.262 1.734 6387
2.253 1.264 1.727 6842
2.257 1.267 1.719 7297
2.369 1.329 1.799 1002
2.267 1.272 1.716 6729
2.379 1.335 1.796 1306
2.289 1.284 1.721 7692
2.287 1.283 1.710 8795
2.399 1.346 1.788 1266
2.291 1.286 1.702 10041
2.403 1.349 1.780 1403
2.295 1.288 1.695 9012
2.407 1.351 1.772 1683
2.317 1.300 1.699 8572
2.332 1.309 1.700 6583
2.445 1.372 1.777 1397
2.360 1.324 1.708 6184
2.376 1.333 1.709 5139
2.398 1.346 1.713 5387
2.535 1.423 1.805 1071
2.408 1.351 1.709 4347
2.539 1.425 1.796 1083
2.430 1.364 1.713 4024
2.543 1.427 1.788 1095
2.446 1.373 1.713 4281
2.584 1.450 1.803 1824
2.462 1.381 1.713 5383
2.588 1.452 1.795 2596
2.466 1.384 1.704 5767
2.592 1.455 1.786 3384
2.470 1.386 1.696 6492
2.602 1.460 1.782 4257
2.474 1.388 1.688 7217
2.612 1.466 1.777 4734
2.478 1.390 1.680 5677
2.592 1.455 1.753 4155
2.566 1.440 1.725 5498
2.451 1.376 1.653 2822
2.588 1.453 1.728 5538
2.473 1.388 1.656 2387
2.629 1.475 1.742 6154
2.627 1.474 1.730 6246
2.637 1.480 1.725 5329
2.753 1.545 1.796 1269
2.672 1.499 1.735 5177
2.787 1.564 1.805 1113
2.682 1.505 1.730 5487
2.798 1.570 1.800 1699
2.716 1.524 1.739 8011
2.600 1.459 1.670 1827
2.727 1.530 1.734 9814
2.610 1.465 1.665 1267
2.731 1.532 1.725 8484
2.847 1.598 1.794 1079
2.753 1.545 1.727 6033
2.776 1.558 1.729 5830
2.659 1.492 1.661 1413
2.804 1.574 1.734 8070
2.687 1.508 1.666 2027
2.808 1.576 1.725 8962
2.926 1.642 1.792 2250
2.825 1.585 1.722 8985
2.707 1.519 1.655 1760
2.841 1.594 1.720 9959
2.723 1.528 1.654 1977
2.839 1.593 1.707 9912
2.975 1.670 1.784 1783
2.843 1.595 1.698 10262
2.979 1.672 1.774 2310
2.853 1.601 1.692 9564
2.971 1.667 1.757 4616
2.969 1.666 1.744 8094
2.851 1.600 1.679 6536
2.973 1.668 1.734 9289
2.842 1.595 1.663 4495
2.983 1.674 1.728 10484
2.852 1.601 1.657 3753
2.994 1.680 1.722 11793
2.875 1.613 1.658 2946
2.991 1.679 1.708 12797
2.872 1.612 1.645 1607
2.989 1.677 1.695 13581
3.121 1.751 1.765 2906
2.993 1.680 1.685 11363
3.125 1.754 1.755 6230
3.123 1.752 1.741 9240
3.003 1.685 1.679 6996
3.127 1.755 1.731 9814
3.007 1.688 1.669 3338
3.156 1.771 1.733 8777
3.036 1.704 1.672 3928
3.141 1.763 1.713 8312
3.021 1.695 1.652 2522
3.133 1.758 1.696 6951
3.253 1.825 1.757 2009
3.212 1.803 1.724 8880
3.092 1.735 1.664 2155
3.216 1.805 1.714 11516
3.096 1.737 1.654 1301
3.220 1.807 1.703 9330
3.262 1.831 1.711 7035
3.142 1.763 1.652 1626
3.273 1.837 1.703 8543
3.152 1.769 1.645 1489
3.270 1.835 1.689 6823
3.274 1.838 1.679 3922
3.285 1.843 1.671 4704
3.289 1.845 1.660 5945
3.410 1.914 1.717 1033
3.292 1.848 1.649 6169
3.414 1.916 1.706 1175
3.373 1.893 1.674 6741
3.508 1.968 1.736 1882
3.383 1.899 1.666 6622
3.505 1.967 1.721 2856
3.394 1.904 1.657 7122
3.516 1.973 1.713 3824
3.391 1.903 1.643 6728
3.513 1.972 1.698 4218
3.530 1.981 1.692 5086
3.395 1.905 1.632 4640
3.534 1.983 1.681 5122
3.405 1.911 1.624 3684
3.538 1.985 1.669 3838
3.409 1.913 1.612 3229
3.580 2.009 1.674 3139
3.406 1.912 1.598 1898
3.591 2.015 1.665 4178
3.714 2.084 1.718 2180
3.685 2.068 1.692 3624
3.562 1.999 1.639 2419
3.689 2.070 1.680 4049
3.547 1.990 1.619 1705
3.700 2.076 1.670 4310
3.563 2.000 1.613 1573
3.710 2.082 1.661 4378
3.587 2.013 1.609 1723
3.727 2.091 1.654 4997
3.850 2.161 1.705 1490
3.763 2.112 1.655 4390
3.906 2.192 1.713 2411
3.780 2.121 1.648 6119
3.904 2.191 1.698 3282
3.797 2.131 1.640 6761
3.921 2.200 1.690 3194
3.840 2.155 1.643 5999
3.964 2.224 1.692 2473
3.929 2.205 1.664 6754
3.805 2.135 1.615 1512
3.932 2.207 1.651 7484
3.808 2.137 1.603 1262
3.976 2.231 1.653 5870
3.851 2.161 1.605 1261
3.993 2.241 1.645 6121
3.868 2.171 1.597 2065
3.990 2.239 1.629 5411
3.865 2.169 1.582 1347
4.013 2.252 1.623 5913
3.889 2.182 1.577 1514
4.037 2.265 1.617 4759
4.093 2.297 1.623 8767
3.968 2.227 1.577 1654
4.097 2.299 1.610 13831
4.268 2.395 1.672 2004
4.101 2.301 1.596 11572
4.272 2.397 1.658 2027
4.104 2.303 1.583 6873
4.269 2.396 1.641 1559
4.101 2.302 1.567 5238
4.352 2.442 1.655 1228
4.112 2.307 1.555 7491
4.263 2.393 1.608 1538
4.115 2.309 1.542 8085
4.280 2.402 1.599 2332
4.119 2.311 1.528 5058
4.443 2.493 1.639 2733
4.447 2.495 1.624 3292
4.116 2.310 1.512 2120
4.477 2.512 1.618 3492
4.238 2.379 1.539 3307
4.235 2.377 1.522 3832
4.448 2.496 1.593 2741
4.239 2.379 1.508 3189
4.551 2.554 1.610 2188
4.594 2.578 1.608 2145
4.242 2.381 1.494 1981
4.585 2.573 1.589 1941
4.751 2.666 1.642 1579
4.742 2.661 1.622 3505
4.615 2.590 1.582 1770
4.752 2.667 1.608 5464
4.625 2.596 1.569 1789
4.762 2.673 1.594 3737
4.889 2.744 1.634 1860
4.893 2.746 1.617 2816
4.726 2.652 1.566 2330
4.903 2.752 1.603 3677
4.776 2.680 1.565 1796
4.927 2.765 1.593 4066
4.793 2.690 1.553 1695
4.964 2.786 1.586 4288
5.091 2.857 1.624 1274
4.981 2.795 1.574 7761
5.222 2.931 1.644 2271
4.985 2.797 1.557 7859
5.239 2.940 1.630 3803
5.243 2.942 1.613 5172
5.082 2.852 1.567 3849
5.247 2.944 1.596 3816
5.052 2.835 1.541 3201
5.277 2.962 1.586 2948
5.029 2.822 1.517 2662
5.509 3.092 1.630 2875
5.274 2.960 1.566 2838
5.513 3.094 1.612 3789
5.359 3.007 1.571 2852
5.510 3.092 1.592 3215
5.369 3.013 1.555 1938
5.716 3.208 1.627 2568
5.574 3.128 1.590 2347
5.719 3.210 1.608 2938
5.592 3.138 1.575 1937
5.723 3.212 1.589 3225
5.851 3.284 1.622 2323
5.727 3.214 1.570 3778
6.030 3.384 1.646 1822
5.724 3.212 1.549 4014
6.041 3.390 1.628 2608
5.734 3.218 1.532 3866
6.045 3.392 1.608 1933
5.738 3.220 1.513 2796
6.048 3.394 1.588 2631
6.045 3.393 1.566 3161
5.741 3.222 1.494 1776
6.049 3.395 1.546 2903
5.751 3.228 1.476 1710
6.113 3.431 1.540 3414
6.411 3.598 1.609 1998
6.124 3.436 1.521 3547
6.699 3.760 1.652 1984
6.432 3.610 1.569 2225
6.154 3.454 1.507 2213
6.151 3.452 1.485 2243
6.436 3.612 1.548 2023
6.568 3.686 1.554 1874
6.141 3.446 1.462 1871
6.857 3.848 1.593 1351
6.707 3.764 1.562 1259
6.874 3.858 1.573 1788
7.105 3.987 1.622 1375
6.891 3.867 1.553 3080
7.109 3.989 1.598 1408
6.895 3.869 1.530 3228
7.194 4.037 1.591 1297
6.898 3.871 1.508 2613
7.198 4.039 1.567 2206
6.895 3.869 1.483 2571
7.208 4.045 1.545 1931
6.898 3.871 1.460 2339
7.334 4.116 1.544 1878
8.169 4.584 1.677 1818
6.895 3.869 1.436 1662
7.968 4.472 1.612 2060
8.179 4.590 1.652 1907
7.972 4.474 1.586 2255
8.176 4.588 1.623 2107
8.180 4.591 1.596 2474
7.982 4.480 1.560 1916
8.177 4.589 1.567 2645
7.979 4.478 1.533 1074
8.180 4.591 1.540 2620
8.198 4.600 1.515 2923
8.201 4.602 1.488 2923
8.205 4.604 1.461 1929
8.194 4.598 1.431 1903
8.204 4.604 1.405 2098
8.214 4.610 1.379 1687
2.033 1.133 1.768 2796
2.037 1.135 1.761 5593
1.919 1.069 1.665 1499
2.041 1.138 1.755 5593
1.923 1.072 1.659 1499
2.045 1.140 1.748 7220
1.915 1.067 1.643 1586
2.055 1.145 1.746 9017
1.919 1.070 1.637 1734
2.070 1.154 1.748 7174
1.923 1.072 1.631 1923
2.114 1.178 1.773 7537
2.006 1.118 1.687 2385
2.119 1.181 1.766 7537
2.010 1.120 1.681 2385
2.123 1.183 1.759 7440
2.014 1.123 1.674 1910
2.121 1.182 1.748 7359
1.938 1.080 1.606 1626
2.131 1.188 1.745 6486
1.942 1.082 1.599 1236
2.141 1.193 1.743 5645
2.250 1.254 1.826 1061
2.151 1.199 1.740 5226
2.260 1.260 1.823 1352
2.160 1.204 1.737 5106
2.270 1.265 1.820 1384
2.228 1.242 1.778 4997
2.118 1.181 1.696 1553
2.238 1.247 1.775 4425
2.128 1.186 1.693 1336
2.248 1.253 1.772 4119
2.138 1.191 1.690 1355
2.252 1.255 1.765 4049
2.142 1.194 1.683 1222
2.221 1.238 1.732 4083
2.249 1.253 1.742 5765
2.253 1.256 1.734 7743
2.257 1.258 1.727 7785
2.261 1.260 1.719 7827
2.271 1.266 1.716 6965
2.383 1.328 1.796 1242
2.293 1.278 1.721 7148
2.291 1.277 1.710 8081
2.403 1.339 1.788 1254
2.289 1.276 1.698 9254
2.401 1.338 1.776 1910
2.299 1.281 1.695 8135
2.411 1.344 1.772 1744
2.320 1.293 1.699 7744
2.433 1.356 1.777 1152
2.336 1.302 1.700 6595
2.449 1.365 1.777 1562
2.364 1.318 1.708 7575
2.380 1.326 1.709 6439
2.390 1.332 1.705 6131
2.394 1.334 1.697 4609
2.537 1.414 1.792 1090
2.422 1.350 1.705 3378
2.536 1.413 1.780 1185
2.456 1.369 1.717 4275
2.582 1.439 1.799 1770
2.466 1.374 1.713 5923
2.592 1.445 1.795 2805
2.470 1.376 1.704 6447
2.590 1.444 1.782 3787
2.474 1.379 1.696 7116
2.606 1.453 1.782 4522
2.478 1.381 1.688 7785
2.617 1.458 1.777 4837
2.482 1.383 1.680 6135
2.597 1.447 1.753 4222
2.570 1.433 1.725 5173
2.455 1.368 1.653 2973
2.641 1.472 1.759 5750
2.490 1.387 1.664 3016
2.639 1.471 1.746 7269
2.487 1.386 1.652 1123
2.637 1.470 1.734 7097
2.647 1.476 1.729 6395
2.763 1.540 1.800 1005
2.670 1.488 1.731 6272
2.786 1.553 1.802 1094
2.686 1.497 1.730 6423
2.802 1.562 1.800 1489
2.715 1.513 1.736 8258
2.598 1.448 1.666 1483
2.725 1.519 1.730 10050
2.735 1.524 1.725 8653
2.852 1.589 1.794 1110
2.758 1.537 1.727 6540
2.786 1.553 1.732 6419
2.669 1.488 1.664 1719
2.809 1.565 1.734 9011
2.692 1.500 1.666 2046
2.813 1.568 1.725 9847
2.930 1.633 1.792 1958
2.823 1.573 1.719 8839
2.941 1.639 1.786 1943
2.846 1.586 1.720 9381
2.728 1.520 1.654 1691
2.844 1.585 1.707 10049
2.980 1.661 1.784 2038
2.848 1.587 1.698 10820
2.984 1.663 1.774 2686
2.858 1.593 1.692 10314
2.976 1.659 1.757 4441
2.862 1.595 1.683 7476
2.980 1.661 1.748 6997
2.984 1.663 1.738 8128
2.866 1.597 1.673 4978
2.988 1.665 1.728 9500
2.869 1.599 1.664 4359
2.999 1.671 1.722 10874
2.880 1.605 1.658 3354
3.003 1.673 1.712 11335
2.883 1.607 1.648 1928
2.994 1.669 1.695 11645
3.126 1.742 1.765 2858
2.998 1.671 1.685 10209
3.124 1.741 1.751 5225
3.128 1.743 1.741 7636
3.008 1.677 1.679 7049
3.138 1.749 1.734 8572
3.018 1.682 1.672 3651
3.161 1.762 1.733 8244
3.041 1.695 1.672 3496
3.153 1.757 1.716 7884
3.033 1.690 1.655 2690
3.144 1.752 1.700 6316
3.024 1.685 1.639 1546
3.211 1.790 1.721 8552
3.091 1.723 1.661 1705
3.222 1.796 1.714 11026
3.101 1.728 1.654 1210
3.226 1.798 1.703 9009
3.054 1.702 1.619 1255
3.268 1.821 1.711 6771
3.147 1.754 1.652 1240
3.272 1.823 1.700 8667
3.151 1.756 1.642 1156
3.276 1.826 1.689 7583
3.299 1.839 1.688 5259
3.309 1.844 1.680 5090
3.320 1.850 1.672 4678
3.362 1.874 1.679 5538
3.484 1.942 1.736 1127
3.372 1.879 1.671 7074
3.494 1.947 1.727 1772
3.383 1.885 1.663 6760
3.505 1.953 1.718 2873
3.399 1.895 1.657 6934
3.521 1.963 1.713 3809
3.397 1.893 1.643 6273
3.519 1.961 1.698 4631
3.529 1.967 1.689 5672
3.394 1.892 1.629 4318
3.540 1.973 1.681 5843
3.411 1.901 1.624 2920
3.537 1.971 1.666 4697
3.415 1.903 1.612 2629
3.535 1.970 1.652 3639
3.677 2.049 1.713 3343
3.681 2.051 1.701 5410
3.558 1.983 1.648 3496
3.691 2.057 1.692 4622
3.568 1.989 1.639 3131
3.702 2.063 1.682 3809
3.546 1.976 1.617 2335
3.706 2.065 1.670 3888
3.569 1.989 1.613 1765
3.716 2.071 1.661 4365
3.593 2.002 1.609 1619
3.739 2.084 1.656 5150
3.863 2.153 1.707 1626
3.808 2.123 1.671 5392
3.685 2.054 1.620 1704
3.786 2.110 1.648 7323
3.910 2.179 1.698 2754
3.784 2.109 1.632 8006
3.914 2.181 1.685 3465
3.827 2.133 1.635 6106
3.951 2.202 1.685 2952
3.850 2.146 1.631 6555
3.974 2.215 1.679 2976
3.939 2.195 1.651 6921
3.815 2.126 1.603 3374
3.982 2.219 1.653 5952
3.818 2.128 1.590 2613
3.999 2.229 1.645 6416
3.874 2.159 1.597 2644
4.003 2.231 1.632 5786
3.878 2.161 1.585 1809
4.013 2.237 1.621 6570
3.888 2.167 1.574 1343
4.037 2.250 1.615 5383
3.912 2.180 1.569 1034
4.106 2.289 1.626 8550
3.981 2.219 1.580 2364
4.104 2.287 1.610 13342
4.275 2.383 1.672 2308
4.107 2.289 1.596 11114
4.272 2.381 1.655 2433
4.111 2.291 1.583 6320
4.276 2.383 1.641 1783
4.115 2.293 1.569 4620
4.273 2.382 1.625 1582
4.112 2.292 1.553 6918
4.277 2.384 1.611 2133
4.122 2.297 1.542 7422
4.281 2.386 1.597 2728
4.132 2.303 1.530 4742
4.450 2.480 1.639 3214
4.447 2.479 1.622 3548
4.242 2.364 1.553 2437
4.245 2.366 1.539 3805
4.484 2.499 1.618 3612
4.249 2.368 1.525 4471
4.481 2.498 1.601 3049
4.246 2.366 1.508 3650
4.612 2.570 1.628 2342
4.609 2.569 1.610 2387
4.249 2.368 1.494 2211
4.592 2.559 1.589 1959
4.752 2.649 1.640 1758
4.749 2.647 1.622 4128
4.623 2.576 1.582 1861
4.760 2.653 1.608 6295
4.633 2.582 1.569 1710
4.770 2.659 1.594 4142
4.904 2.733 1.636 1746
4.901 2.731 1.617 2489
4.734 2.638 1.566 2201
4.918 2.741 1.605 3334
4.778 2.663 1.563 1478
4.935 2.751 1.593 3420
4.808 2.680 1.555 1503
5.013 2.794 1.598 3792
4.825 2.689 1.543 1053
4.996 2.784 1.576 7530
5.231 2.915 1.644 1588
4.993 2.783 1.557 7321
5.248 2.925 1.630 2735
5.252 2.927 1.613 4055
5.017 2.796 1.546 4029
5.034 2.805 1.534 4124
5.262 2.933 1.598 3201
5.286 2.946 1.586 3186
5.037 2.807 1.517 2866
5.290 2.948 1.568 2712
5.518 3.076 1.630 2318
5.515 3.074 1.610 3502
5.374 2.995 1.572 2252
5.512 3.072 1.590 3601
5.721 3.189 1.646 1894
5.509 3.071 1.570 2658
5.725 3.191 1.627 2463
5.729 3.193 1.608 2663
5.857 3.264 1.641 1852
5.739 3.199 1.591 2629
5.868 3.270 1.623 2199
5.736 3.197 1.570 2703
5.878 3.276 1.606 2320
5.733 3.195 1.549 2659
5.882 3.278 1.586 2426
5.737 3.197 1.530 2507
6.061 3.378 1.610 1796
6.058 3.376 1.588 2482
5.747 3.203 1.513 1668
6.055 3.375 1.566 3139
5.750 3.205 1.494 1003
6.059 3.377 1.546 2964
6.425 3.581 1.632 1384
6.110 3.405 1.537 3695
6.422 3.579 1.609 2262
6.127 3.415 1.520 3723
6.425 3.581 1.587 2347
6.436 3.587 1.568 2936
6.110 3.405 1.495 2290
6.446 3.593 1.548 2659
6.113 3.407 1.474 2547
6.599 3.678 1.559 1666
6.124 3.413 1.456 1627
6.718 3.744 1.562 1525
6.848 3.816 1.589 1214
7.117 3.966 1.622 1438
6.729 3.750 1.541 1336
6.909 3.851 1.555 2216
7.120 3.968 1.598 1533
6.906 3.849 1.530 2577
7.260 4.046 1.602 1468
6.903 3.847 1.506 2327
7.223 4.026 1.570 2133
6.906 3.849 1.483 2110
7.240 4.035 1.549 1964
7.353 4.098 1.546 2308
7.223 4.026 1.521 1721
8.182 4.560 1.677 2561
7.268 4.051 1.505 1865
8.186 4.562 1.650 2714
7.981 4.448 1.612 2219
8.190 4.564 1.623 2742
7.985 4.450 1.586 2432
8.193 4.566 1.596 3097
7.995 4.456 1.560 2144
8.190 4.565 1.567 3244
7.999 4.458 1.534 1276
8.201 4.571 1.541 3302
8.211 4.576 1.515 3984
8.215 4.578 1.488 3958
8.211 4.576 1.460 2717
8.208 4.574 1.431 2692
8.211 4.576 1.404 2841
8.221 4.582 1.378 2316
8.238 4.591 1.352 1232
2.031 1.124 1.763 2930
2.035 1.126 1.757 5860
1.911 1.057 1.656 1886
2.039 1.128 1.750 5860
1.915 1.059 1.649 1886
2.049 1.134 1.748 7204
1.918 1.062 1.643 2019
2.059 1.139 1.746 8620
1.917 1.061 1.632 2158
2.051 1.135 1.730 6765
2.159 1.195 1.816 2527
2.118 1.172 1.773 6625
1.930 1.068 1.624 2084
2.122 1.174 1.766 6625
1.934 1.070 1.618 1768
2.126 1.177 1.759 6508
1.937 1.072 1.612 1451
2.107 1.166 1.734 6716
1.941 1.074 1.606 1451
2.135 1.181 1.745 6409
1.945 1.076 1.599 1061
2.139 1.183 1.738 6428
2.248 1.244 1.822 1564
2.148 1.189 1.736 5898
2.258 1.250 1.819 1987
2.158 1.194 1.733 5614
2.268 1.255 1.816 2123
2.238 1.238 1.783 5197
2.128 1.177 1.700 1878
2.248 1.244 1.780 4814
2.137 1.183 1.697 1495
2.258 1.249 1.777 4658
2.147 1.188 1.695 1774
2.256 1.248 1.765 4523
2.145 1.187 1.683 1424
2.225 1.231 1.732 5080
2.336 1.293 1.813 1061
2.235 1.237 1.729 6708
2.251 1.246 1.730 8879
2.261 1.251 1.727 8560
2.265 1.253 1.719 8327
2.275 1.259 1.716 7365
2.387 1.321 1.796 1198
2.290 1.267 1.717 6816
2.403 1.329 1.796 1020
2.289 1.266 1.706 7569
2.401 1.329 1.784 1579
2.293 1.269 1.698 8426
2.405 1.331 1.776 1843
2.302 1.274 1.695 7128
2.415 1.336 1.772 1780
2.330 1.289 1.703 6837
2.455 1.358 1.789 1289
2.358 1.305 1.712 6777
2.471 1.367 1.789 1233
2.368 1.310 1.708 8589
2.481 1.373 1.785 1027
2.378 1.316 1.705 7581
2.388 1.321 1.701 7048
2.392 1.324 1.693 5626
2.536 1.403 1.788 1178
2.390 1.322 1.681 4274
2.534 1.402 1.776 1412
2.460 1.361 1.717 4329
2.580 1.428 1.795 1952
2.470 1.367 1.713 6342
2.590 1.433 1.791 3115
2.474 1.369 1.704 6919
2.595 1.436 1.782 4122
2.478 1.371 1.696 7416
2.599 1.438 1.774 4558
2.482 1.373 1.688 7913
2.621 1.450 1.777 4470
2.486 1.376 1.680 6108
2.625 1.453 1.768 4141
2.490 1.378 1.672 4303
2.605 1.442 1.744 4027
2.646 1.464 1.759 6273
2.494 1.380 1.664 2911
2.644 1.463 1.746 7904
2.491 1.379 1.652 1074
2.642 1.462 1.734 7455
2.658 1.471 1.733 6909
2.680 1.483 1.735 6979
2.691 1.489 1.730 7077
2.807 1.553 1.800 1344
2.719 1.505 1.736 8191
2.836 1.569 1.805 1024
2.729 1.510 1.730 9837
2.740 1.516 1.725 8685
2.857 1.581 1.794 1110
2.762 1.529 1.727 7008
2.772 1.534 1.722 6284
2.655 1.469 1.653 1202
2.820 1.560 1.737 8144
2.702 1.495 1.670 2234
2.824 1.563 1.728 8855
2.706 1.497 1.661 1980
2.840 1.572 1.726 8289
2.716 1.503 1.655 1672
2.851 1.577 1.720 8594
2.969 1.643 1.787 1571
2.848 1.576 1.707 9813
2.979 1.648 1.780 2224
2.852 1.578 1.698 10751
2.989 1.654 1.774 2890
2.863 1.584 1.692 10730
2.981 1.650 1.757 4288
2.866 1.586 1.683 8377
2.985 1.652 1.748 6085
2.996 1.658 1.741 7028
2.877 1.592 1.677 6198
3.000 1.660 1.731 8124
2.881 1.594 1.667 5287
3.004 1.662 1.722 8659
2.884 1.596 1.658 3743
3.001 1.661 1.708 8780
2.882 1.595 1.645 2051
2.999 1.660 1.695 9198
3.131 1.733 1.765 2557
3.003 1.662 1.685 9032
3.135 1.735 1.755 4202
3.013 1.667 1.679 7514
3.133 1.734 1.741 6062
3.144 1.740 1.734 7046
3.024 1.673 1.672 4423
3.154 1.745 1.727 7137
3.034 1.679 1.665 3555
3.152 1.744 1.713 7344
3.031 1.677 1.652 2602
3.149 1.743 1.700 6033
3.029 1.676 1.639 1238
3.210 1.777 1.718 7962
3.090 1.710 1.658 2121
3.221 1.782 1.710 9904
3.068 1.698 1.635 1379
3.225 1.784 1.700 8072
3.078 1.703 1.628 1238
3.273 1.811 1.711 6066
3.277 1.814 1.700 8316
3.288 1.819 1.692 8290
3.304 1.829 1.688 7393
3.321 1.838 1.683 5992
3.332 1.844 1.675 4755
3.368 1.863 1.679 5643
3.489 1.931 1.736 1213
3.378 1.869 1.671 6747
3.500 1.937 1.727 1613
3.388 1.875 1.663 6207
3.510 1.943 1.718 2665
3.405 1.884 1.657 6573
3.527 1.952 1.713 3598
3.402 1.883 1.643 5965
3.525 1.951 1.698 4768
3.535 1.956 1.689 5796
3.393 1.878 1.626 4421
3.539 1.959 1.678 5992
3.404 1.883 1.618 2482
3.537 1.957 1.663 5226
3.414 1.889 1.610 1722
3.528 1.952 1.646 4073
3.677 2.035 1.711 3881
3.687 2.040 1.701 6417
3.564 1.972 1.648 3455
3.704 2.050 1.695 5514
3.581 1.981 1.642 3235
3.721 2.059 1.688 3900
3.559 1.969 1.619 2465
3.725 2.061 1.676 3625
3.575 1.978 1.613 1626
3.716 2.056 1.658 4435
3.840 2.125 1.709 1509
3.746 2.073 1.656 4909
3.870 2.141 1.707 1793
3.815 2.111 1.671 6394
3.691 2.042 1.620 1502
3.793 2.099 1.648 8528
3.917 2.167 1.698 2203
3.790 2.097 1.632 10554
3.921 2.170 1.685 3048
3.813 2.110 1.628 9250
3.938 2.179 1.677 3026
3.830 2.120 1.620 8994
3.955 2.188 1.669 3597
