2.181 3.174 1.565 4396
2.261 3.290 1.618 1571
2.183 3.177 1.554 4172
2.276 3.312 1.615 2527
2.228 3.242 1.570 3542
2.308 3.358 1.622 1516
2.230 3.245 1.559 2707
2.310 3.362 1.610 1826
2.300 3.347 1.591 3493
2.220 3.230 1.539 2046
2.298 3.344 1.576 4816
2.378 3.461 1.627 2777
2.296 3.341 1.562 4299
2.381 3.464 1.615 3895
2.387 3.474 1.605 3464
2.290 3.332 1.545 2851
2.390 3.477 1.593 2895
2.292 3.336 1.533 2499
2.396 3.487 1.584 3271
2.299 3.345 1.524 2031
2.407 3.503 1.577 3670
2.405 3.500 1.562 3650
2.486 3.618 1.610 1238
2.391 3.479 1.539 4964
2.472 3.596 1.587 3160
2.397 3.488 1.530 4474
2.478 3.606 1.577 3401
2.463 3.585 1.555 3545
2.383 3.467 1.508 1446
2.508 3.650 1.567 3475
2.589 3.768 1.614 1393
2.507 3.647 1.552 3289
2.592 3.771 1.600 2234
2.500 3.638 1.534 3784
2.594 3.775 1.587 2988
2.507 3.648 1.524 5038
2.618 3.810 1.586 3042
2.513 3.657 1.513 4034
2.633 3.832 1.580 3358
2.563 3.729 1.526 3669
2.644 3.848 1.571 2430
2.599 3.782 1.532 3630
2.518 3.664 1.488 1129
2.610 3.798 1.523 2907
2.718 3.954 1.581 1792
2.660 3.870 1.535 2748
2.741 3.989 1.578 1526
2.666 3.880 1.524 2749
2.782 4.049 1.585 1476
2.707 3.940 1.530 2675
2.789 4.058 1.573 1547
2.748 3.999 1.536 3391
2.667 3.880 1.494 1382
2.751 4.003 1.522 4527
2.863 4.166 1.579 1579
2.753 4.006 1.508 5076
2.865 4.169 1.565 2427
2.760 4.015 1.496 3541
2.842 4.135 1.537 2554
2.848 4.144 1.525 3098
2.766 4.025 1.485 2128
2.872 4.179 1.521 2927
2.790 4.060 1.481 1467
2.874 4.182 1.506 2316
3.004 4.371 1.569 1862
2.993 4.356 1.547 3576
2.855 4.154 1.481 1723
2.996 4.359 1.532 4756
2.913 4.239 1.493 1637
3.007 4.375 1.521 3422
2.920 4.249 1.480 1926
3.039 4.423 1.519 3084
2.914 4.240 1.461 1591
3.089 4.495 1.525 3669
3.007 4.375 1.488 1871
3.083 4.486 1.506 3931
3.205 4.663 1.560 3652
3.207 4.667 1.544 6128
3.124 4.546 1.507 4480
3.209 4.670 1.527 6214
3.127 4.550 1.491 3883
3.212 4.673 1.511 6625
3.129 4.553 1.475 2666
3.214 4.677 1.495 6492
3.362 4.892 1.558 2017
3.225 4.693 1.482 5132
3.373 4.908 1.544 3037
3.223 4.689 1.464 4153
3.375 4.912 1.527 4021
3.373 4.909 1.508 3050
3.221 4.686 1.445 2503
3.446 5.014 1.519 2742
3.363 4.893 1.485 1819
3.457 5.030 1.505 3273
3.373 4.909 1.472 1823
3.555 5.173 1.525 3019
3.454 5.027 1.486 2578
3.435 4.998 1.459 2644
3.544 5.157 1.502 2533
3.437 5.001 1.442 2007
3.520 5.122 1.474 1716
3.698 5.381 1.522 2127
3.514 5.113 1.452 1975
3.696 5.378 1.501 2165
3.577 5.205 1.457 1977
3.579 5.208 1.439 1678
3.742 5.445 1.499 1604
3.722 5.416 1.471 1978
3.814 5.550 1.505 1218
3.812 5.547 1.484 1923
3.896 5.669 1.513 1585
3.885 5.653 1.489 3914
3.801 5.531 1.460 2525
3.887 5.656 1.469 4936
3.786 5.509 1.434 2285
3.902 5.678 1.454 3432
4.043 5.883 1.501 2032
3.940 5.733 1.445 2651
4.112 5.983 1.503 2421
3.951 5.749 1.428 2683
4.114 5.986 1.482 2225
4.032 5.867 1.434 2509
3.948 5.745 1.406 2220
4.202 6.114 1.466 2632
4.017 5.845 1.407 1931
4.187 6.092 1.439 2160
4.284 6.233 1.470 1787
4.281 6.230 1.446 2359
4.198 6.108 1.421 2196
4.208 6.124 1.402 3573
4.429 6.445 1.469 2596
4.206 6.120 1.379 2780
4.436 6.455 1.447 2777
4.443 6.464 1.426 3190
4.328 6.297 1.392 2063
4.436 6.455 1.401 3048
4.520 6.577 1.425 2492
4.531 6.593 1.404 2600
4.420 6.432 1.373 2038
4.591 6.680 1.397 2287
4.506 6.557 1.373 1497
4.597 6.689 1.374 1797
4.442 6.464 1.332 1372
4.621 6.724 1.357 2025
4.723 6.873 1.384 1428
4.610 6.708 1.330 1582
4.801 6.986 1.379 1490
4.794 6.976 1.352 1444
4.918 7.156 1.384 1115
4.783 6.959 1.324 1262
4.942 7.192 1.364 1180
4.953 7.208 1.341 1192
5.273 7.673 1.419 1139
5.280 7.682 1.393 1227
4.964 7.223 1.318 1207
5.322 7.744 1.376 1191
5.319 7.740 1.347 1548
5.321 7.743 1.320 1356
5.332 7.759 1.295 1058
1.312 1.899 1.754 2614
1.209 1.751 1.625 1835
1.314 1.903 1.748 5228
1.212 1.754 1.619 3671
1.317 1.907 1.741 5228
1.214 1.758 1.613 3671
1.316 1.905 1.730 5118
1.220 1.767 1.611 2501
1.315 1.904 1.719 5149
1.245 1.802 1.632 1445
1.314 1.902 1.708 7074
1.384 2.004 1.793 1528
1.317 1.906 1.701 9017
1.387 2.008 1.787 2417
1.319 1.910 1.694 9017
1.390 2.012 1.780 2417
1.318 1.908 1.683 9036
1.389 2.010 1.768 2725
1.321 1.912 1.677 9121
1.395 2.019 1.766 2863
1.323 1.915 1.670 6492
1.394 2.018 1.754 3398
1.382 2.000 1.730 5357
1.311 1.897 1.646 3498
1.388 2.009 1.727 5741
1.317 1.906 1.644 2706
1.398 2.024 1.729 6713
1.327 1.921 1.646 2266
1.405 2.033 1.726 5227
1.333 1.930 1.643 2091
1.419 2.054 1.732 4077
1.347 1.950 1.650 2073
1.425 2.063 1.729 4304
1.353 1.959 1.647 1895
1.428 2.067 1.722 4259
1.356 1.963 1.640 1260
1.438 2.081 1.723 4312
1.366 1.977 1.642 1097
1.437 2.080 1.712 5387
1.420 2.056 1.683 6710
1.493 2.161 1.764 1968
1.469 2.126 1.727 7582
1.396 2.021 1.647 3884
1.475 2.135 1.724 10801
1.402 2.030 1.644 4566
1.478 2.139 1.716 13463
1.405 2.034 1.637 3119
1.480 2.143 1.709 16124
1.407 2.037 1.630 1672
1.483 2.147 1.701 12599
1.410 2.041 1.623 1144
1.485 2.150 1.694 9073
1.476 2.137 1.674 6064
1.550 2.243 1.752 1101
1.456 2.107 1.642 4808
1.529 2.214 1.720 2837
1.509 2.184 1.688 5628
1.435 2.077 1.611 1707
1.507 2.182 1.676 8066
1.434 2.075 1.599 1103
1.510 2.186 1.668 9621
1.583 2.292 1.745 1261
1.512 2.189 1.661 11175
1.586 2.296 1.737 1652
1.511 2.187 1.649 9173
1.585 2.294 1.725 2659
1.513 2.191 1.642 5147
1.588 2.298 1.717 3186
1.571 2.274 1.689 4931
1.496 2.166 1.614 1992
1.585 2.294 1.693 5256
1.511 2.187 1.619 2573
1.595 2.309 1.693 6114
1.521 2.202 1.619 2897
1.606 2.324 1.692 4512
1.531 2.216 1.619 2213
1.624 2.351 1.700 4382
1.549 2.243 1.627 1665
1.627 2.355 1.692 5055
1.552 2.246 1.619 1941
1.625 2.353 1.680 5737
1.550 2.244 1.607 1562
1.620 2.345 1.664 6284
1.626 2.354 1.659 5233
1.633 2.364 1.655 3762
1.639 2.373 1.650 2946
1.670 2.417 1.668 4031
1.594 2.308 1.598 2019
1.668 2.415 1.656 6074
1.593 2.305 1.586 1190
1.667 2.413 1.644 10798
1.742 2.522 1.714 2456
1.665 2.411 1.632 13797
1.741 2.520 1.701 3894
1.672 2.420 1.627 12265
1.748 2.530 1.696 3390
1.662 2.406 1.608 8797
1.738 2.516 1.676 5289
1.657 2.398 1.592 8813
1.753 2.537 1.678 6627
1.763 2.553 1.677 6454
1.659 2.401 1.584 6277
1.770 2.562 1.671 6917
1.681 2.434 1.593 2898
1.777 2.572 1.666 7129
1.692 2.449 1.592 2401
1.783 2.581 1.661 8437
1.690 2.447 1.580 2334
1.794 2.597 1.658 8804
1.870 2.708 1.725 2049
1.808 2.618 1.660 8216
1.885 2.729 1.726 1895
1.831 2.651 1.668 7526
1.754 2.539 1.602 2303
1.846 2.672 1.669 9595
1.769 2.560 1.604 2888
1.848 2.676 1.660 10221
1.771 2.564 1.595 2550
1.851 2.679 1.650 8644
1.774 2.567 1.586 1794
1.882 2.724 1.664 7995
1.804 2.612 1.601 2053
1.876 2.716 1.648 6627
1.954 2.828 1.712 2058
1.928 2.791 1.679 7163
1.817 2.631 1.589 2414
1.939 2.806 1.675 7798
1.820 2.634 1.580 1754
1.945 2.816 1.669 7232
1.867 2.703 1.607 1964
1.927 2.790 1.643 6823
2.005 2.903 1.705 2589
1.979 2.865 1.672 7626
1.901 2.752 1.610 3333
1.977 2.862 1.659 7451
1.899 2.749 1.598 2373
1.980 2.866 1.649 7019
1.902 2.753 1.588 1211
1.991 2.882 1.645 7492
2.001 2.897 1.641 9817
2.080 3.011 1.701 1060
2.008 2.907 1.634 11130
2.087 3.020 1.694 1245
2.006 2.904 1.621 8992
2.085 3.018 1.680 1769
2.009 2.908 1.611 6021
2.088 3.022 1.669 2809
2.028 2.935 1.613 5887
2.107 3.050 1.671 3000
2.034 2.945 1.606 6647
2.113 3.059 1.663 3643
2.095 3.033 1.638 9533
2.016 2.918 1.580 3238
2.102 3.042 1.630 9215
2.023 2.928 1.573 1677
2.113 3.058 1.625 7947
2.033 2.943 1.569 1749
2.115 3.062 1.615 5531
2.036 2.947 1.558 1346
2.142 3.101 1.622 4762
2.063 2.986 1.566 2938
2.137 3.093 1.605 5673
2.057 2.978 1.549 1283
2.118 3.066 1.580 5330
2.198 3.181 1.635 1620
2.116 3.063 1.566 3002
2.229 3.227 1.643 1380
2.161 3.128 1.584 2724
2.291 3.316 1.672 1401
2.167 3.137 1.576 2634
2.247 3.253 1.629 1543
2.224 3.220 1.601 4130
2.304 3.335 1.654 1326
2.193 3.174 1.568 4716
2.311 3.345 1.646 1865
2.191 3.172 1.554 4513
2.271 3.288 1.606 2365
2.193 3.175 1.543 3433
2.282 3.303 1.600 2970
2.238 3.240 1.559 2463
2.318 3.356 1.610 2145
2.312 3.347 1.593 3072
2.232 3.231 1.542 1855
2.310 3.345 1.579 4045
2.391 3.461 1.630 2568
2.389 3.458 1.615 4007
2.296 3.323 1.557 3897
2.387 3.456 1.600 4054
2.294 3.321 1.542 3061
2.386 3.453 1.585 3961
2.301 3.330 1.533 2880
2.396 3.469 1.579 3631
2.307 3.340 1.524 2509
2.416 3.497 1.577 4563
2.318 3.355 1.518 1274
2.410 3.488 1.559 5098
2.491 3.605 1.608 1658
2.403 3.479 1.542 5404
2.485 3.596 1.590 3570
2.474 3.581 1.570 4623
2.393 3.464 1.522 3753
2.472 3.579 1.555 4220
2.588 3.746 1.622 1577
2.513 3.638 1.564 2945
2.594 3.755 1.611 1524
2.503 3.623 1.544 3378
2.597 3.759 1.598 2620
2.505 3.626 1.532 4224
2.599 3.762 1.585 3847
2.511 3.635 1.521 4755
2.610 3.778 1.576 3458
2.643 3.825 1.580 3905
2.522 3.651 1.513 3283
2.559 3.704 1.519 3375
2.654 3.841 1.571 2803
2.613 3.782 1.534 2926
2.531 3.664 1.490 1475
2.619 3.792 1.523 2892
2.727 3.948 1.581 1704
2.630 3.808 1.514 2690
2.729 3.951 1.567 2363
2.719 3.936 1.546 2531
2.637 3.817 1.503 2064
2.717 3.933 1.530 2762
2.799 4.052 1.573 1698
2.758 3.993 1.536 3516
2.676 3.874 1.494 1434
2.760 3.996 1.522 4731
2.877 4.165 1.582 1480
2.763 3.999 1.508 5166
2.884 4.175 1.569 2107
2.769 4.009 1.496 3339
2.891 4.184 1.557 2607
2.889 4.181 1.540 3582
2.806 4.062 1.499 1856
2.891 4.185 1.525 3163
2.787 4.034 1.475 1162
3.015 4.364 1.569 2082
2.863 4.144 1.496 2018
3.004 4.349 1.547 3686
2.865 4.147 1.481 1944
3.006 4.352 1.532 5444
2.924 4.232 1.493 2032
3.013 4.362 1.519 4134
3.096 4.481 1.557 1934
3.089 4.472 1.537 3411
3.002 4.346 1.497 2336
3.096 4.482 1.523 4155
3.013 4.362 1.486 1694
3.146 4.554 1.529 4376
3.055 4.422 1.488 2248
3.153 4.564 1.515 5502
3.236 4.684 1.552 3429
3.225 4.668 1.529 5395
3.142 4.548 1.493 4019
3.223 4.665 1.511 6529
3.140 4.545 1.475 2378
3.225 4.669 1.495 7168
3.370 4.878 1.556 1760
3.236 4.685 1.482 5529
3.381 4.894 1.542 3076
3.387 4.903 1.527 4451
3.234 4.682 1.464 3920
3.390 4.907 1.510 3167
3.232 4.678 1.445 2496
3.379 4.891 1.487 2039
3.462 5.012 1.521 1972
3.473 5.028 1.507 2564
3.390 4.907 1.474 1838
3.568 5.164 1.525 2995
3.484 5.044 1.492 2415
3.574 5.174 1.509 2312
3.442 4.983 1.458 2267
3.638 5.266 1.514 1991
3.449 4.993 1.442 1809
3.526 5.104 1.452 2158
3.645 5.276 1.497 1797
3.704 5.362 1.500 1983
3.528 5.107 1.434 1759
3.830 5.544 1.526 1860
3.707 5.365 1.481 1584
3.735 5.407 1.471 2063
3.837 5.554 1.508 1936
3.830 5.544 1.485 2165
3.923 5.678 1.518 1615
3.898 5.643 1.489 3577
3.815 5.522 1.460 2465
3.901 5.647 1.469 4920
4.086 5.915 1.533 2232
3.916 5.669 1.454 3560
4.000 5.790 1.482 1966
3.949 5.717 1.444 2981
4.126 5.973 1.503 2529
3.960 5.733 1.427 2914
4.128 5.976 1.482 2256
3.967 5.742 1.408 2475
4.060 5.877 1.438 2390
4.208 6.091 1.464 2615
3.973 5.752 1.389 2060
4.192 6.069 1.437 2645
4.299 6.223 1.470 1973
4.226 6.117 1.425 2390
4.438 6.425 1.490 1901
4.223 6.114 1.402 3613
4.445 6.435 1.469 2986
4.452 6.444 1.447 3072
4.221 6.110 1.379 2865
4.458 6.454 1.426 3342
4.343 6.287 1.392 2378
4.452 6.444 1.401 3158
4.349 6.296 1.371 2196
4.551 6.588 1.405 2538
4.436 6.421 1.373 2212
4.549 6.585 1.381 1896
4.451 6.443 1.354 1541
4.640 6.717 1.382 1803
4.458 6.453 1.332 1550
4.638 6.713 1.357 2202
4.762 6.894 1.390 1156
4.631 6.703 1.331 1785
4.818 6.974 1.379 1340
4.811 6.964 1.352 1373
4.633 6.706 1.307 1063
4.799 6.947 1.324 1325
4.960 7.180 1.364 1263
4.966 7.189 1.340 1303
5.292 7.660 1.419 1260
5.294 7.663 1.392 1481
4.977 7.205 1.317 1034
5.345 7.737 1.377 1523
5.064 7.330 1.311 1022
5.342 7.734 1.348 1889
5.344 7.736 1.321 1766
5.351 7.746 1.295 1512
5.353 7.748 1.267 1121
1.318 1.895 1.754 2655
1.219 1.752 1.630 1667
1.320 1.899 1.748 5311
1.221 1.756 1.624 3334
1.323 1.903 1.741 5311
1.224 1.759 1.617 3334
1.322 1.901 1.730 4986
1.226 1.763 1.611 2220
1.321 1.900 1.719 4792
1.251 1.798 1.632 1204
1.324 1.903 1.712 6535
1.394 2.005 1.798 1434
1.323 1.902 1.701 8319
1.393 2.003 1.787 2549
1.325 1.906 1.694 8319
1.396 2.007 1.780 2549
1.324 1.904 1.683 8257
1.395 2.006 1.768 2788
1.327 1.908 1.677 8404
1.401 2.015 1.766 2827
1.329 1.911 1.670 6013
1.400 2.014 1.754 3425
1.388 1.996 1.730 5392
1.317 1.893 1.646 3202
1.402 2.016 1.736 5662
1.330 1.913 1.652 2936
1.408 2.025 1.733 7066
1.337 1.922 1.650 2690
1.415 2.034 1.730 5925
1.343 1.931 1.648 2458
1.421 2.044 1.728 4862
1.349 1.940 1.645 2032
1.424 2.047 1.721 4917
1.352 1.944 1.639 1646
1.434 2.062 1.722 4369
1.362 1.958 1.640 1031
1.441 2.071 1.719 4134
1.447 2.081 1.716 5127
1.427 2.052 1.683 6355
1.499 2.156 1.764 2172
1.479 2.127 1.731 8090
1.406 2.022 1.651 4172
1.482 2.131 1.724 11622
1.409 2.026 1.644 4204
1.484 2.134 1.716 14769
1.411 2.029 1.637 2850
1.487 2.138 1.709 17917
1.414 2.033 1.630 1496
1.490 2.142 1.701 14234
1.416 2.037 1.623 1094
1.488 2.140 1.690 10623
1.491 2.144 1.682 7700
1.466 2.108 1.646 5048
1.540 2.214 1.724 2405
1.511 2.173 1.684 7758
1.438 2.067 1.607 1592
1.514 2.177 1.676 10608
1.440 2.071 1.599 1324
1.517 2.181 1.668 11470
1.591 2.287 1.745 1272
1.519 2.184 1.661 12331
1.593 2.291 1.737 1779
1.518 2.183 1.649 9792
1.592 2.289 1.725 2838
1.520 2.186 1.642 5601
1.595 2.293 1.717 3403
1.582 2.274 1.693 4528
1.507 2.167 1.618 2890
1.600 2.301 1.701 5116
1.525 2.193 1.626 3610
1.606 2.310 1.697 6236
1.532 2.203 1.623 3356
1.617 2.325 1.696 4856
1.534 2.206 1.615 2317
1.627 2.340 1.696 4544
1.552 2.232 1.623 1379
1.630 2.344 1.688 5100
1.555 2.236 1.615 1560
1.629 2.342 1.676 5686
1.553 2.234 1.603 1189
1.627 2.340 1.664 6818
1.630 2.344 1.656 6614
1.640 2.359 1.655 5585
1.643 2.362 1.647 3880
1.718 2.471 1.718 1126
1.681 2.417 1.672 3419
1.605 2.308 1.601 1846
1.672 2.404 1.652 5394
1.748 2.513 1.723 1001
1.670 2.402 1.640 10392
1.746 2.511 1.710 2809
1.673 2.405 1.632 13305
1.749 2.515 1.701 3888
1.675 2.409 1.624 12019
1.752 2.519 1.692 4028
1.666 2.395 1.604 10071
1.742 2.505 1.673 6679
1.664 2.393 1.592 10528
1.749 2.514 1.668 7999
1.670 2.402 1.588 7928
1.771 2.547 1.677 7109
1.778 2.557 1.671 7053
1.685 2.423 1.590 3485
1.789 2.572 1.670 6791
1.712 2.461 1.603 2001
1.795 2.581 1.664 8246
1.714 2.465 1.594 1920
1.802 2.591 1.658 8595
1.879 2.702 1.725 1569
1.812 2.606 1.656 7918
1.890 2.717 1.722 1555
1.839 2.645 1.668 7092
1.762 2.534 1.602 2251
1.846 2.654 1.662 8615
1.923 2.766 1.727 1897
1.853 2.664 1.656 9161
1.930 2.776 1.721 2152
1.851 2.662 1.643 8406
1.929 2.773 1.708 2529
1.870 2.689 1.648 7206
1.948 2.801 1.711 1559
1.885 2.710 1.648 5971
1.807 2.598 1.585 2029
1.936 2.785 1.679 7709
1.826 2.625 1.589 2358
1.943 2.794 1.672 8266
1.828 2.629 1.580 1749
1.950 2.804 1.666 7546
1.872 2.691 1.603 1915
1.936 2.784 1.643 6967
2.014 2.896 1.705 2258
1.988 2.858 1.672 7529
1.909 2.746 1.610 3716
1.990 2.862 1.662 7527
1.912 2.749 1.601 3141
1.989 2.860 1.649 7012
1.910 2.747 1.588 1358
2.000 2.875 1.645 6964
2.010 2.891 1.641 9209
2.089 3.004 1.701 1091
2.017 2.900 1.634 10519
2.096 3.014 1.694 1308
2.015 2.898 1.621 8474
2.094 3.012 1.680 1889
2.018 2.902 1.611 5561
2.097 3.015 1.669 2715
2.041 2.935 1.616 6063
2.120 3.049 1.674 2469
2.048 2.945 1.609 6510
2.127 3.059 1.666 3079
2.104 3.026 1.638 8668
2.025 2.912 1.580 2692
2.111 3.036 1.630 8411
2.032 2.922 1.573 1512
2.122 3.051 1.625 7065
2.042 2.937 1.569 1902
2.124 3.055 1.615 5238
2.045 2.940 1.558 1514
2.148 3.089 1.619 4017
2.068 2.974 1.563 2920
2.142 3.080 1.602 4858
2.062 2.965 1.547 1255
2.123 3.053 1.577 5085
2.203 3.168 1.632 1921
2.126 3.057 1.566 3042
2.252 3.239 1.652 1435
2.175 3.127 1.587 2553
2.297 3.303 1.669 1569
2.228 3.203 1.610 2834
2.308 3.319 1.663 1372
2.230 3.207 1.598 4587
2.310 3.322 1.652 1893
2.203 3.168 1.568 4921
2.321 3.338 1.646 2556
2.201 3.165 1.554 4779
2.328 3.348 1.637 2568
2.199 3.162 1.540 3326
2.280 3.278 1.592 3105
2.337 3.361 1.616 2477
2.257 3.245 1.564 2097
2.327 3.346 1.596 2726
2.246 3.230 1.545 1569
2.325 3.343 1.582 3336
2.406 3.460 1.632 2331
2.400 3.451 1.615 4221
2.306 3.316 1.557 3665
2.394 3.442 1.598 4905
2.304 3.314 1.542 3174
2.392 3.440 1.583 4982
2.311 3.323 1.533 2963
2.403 3.455 1.576 4158
2.317 3.332 1.524 2802
2.422 3.483 1.574 4913
2.328 3.348 1.518 1590
2.420 3.481 1.559 5875
2.502 3.598 1.608 1782
2.414 3.472 1.542 5354
2.496 3.589 1.590 3888
2.485 3.574 1.570 4882
2.404 3.457 1.522 3588
2.483 3.571 1.555 4400
2.599 3.738 1.622 1777
2.490 3.581 1.545 3016
2.602 3.741 1.609 1649
2.518 3.621 1.547 3613
2.608 3.751 1.598 2719
2.516 3.618 1.532 4270
2.611 3.754 1.585 4127
2.518 3.621 1.519 4222
2.618 3.764 1.574 4147
2.650 3.811 1.577 4529
2.568 3.693 1.532 2627
2.661 3.827 1.569 3537
2.566 3.690 1.517 3217
2.568 3.693 1.504 2599
2.651 3.811 1.548 2066
2.640 3.796 1.528 2798
2.739 3.939 1.581 1855
2.651 3.812 1.519 3045
2.742 3.943 1.567 2945
2.735 3.934 1.549 2824
2.653 3.815 1.506 2214
2.725 3.918 1.528 2862
2.812 4.043 1.573 1922
2.766 3.978 1.534 3533
2.684 3.859 1.492 1266
2.773 3.987 1.522 4704
2.890 4.156 1.582 1539
2.775 3.991 1.508 4843
2.906 4.178 1.573 1978
2.899 4.169 1.554 2961
2.782 4.000 1.496 2900
2.902 4.172 1.540 4148
2.819 4.053 1.499 1780
2.908 4.182 1.527 3273
3.030 4.357 1.586 1064
3.028 4.355 1.569 2384
2.880 4.141 1.498 2230
3.022 4.345 1.549 3322
2.882 4.145 1.483 2092
3.020 4.343 1.532 4879
2.937 4.223 1.493 2385
3.022 4.346 1.517 4207
3.105 4.465 1.555 2097
3.103 4.462 1.537 3918
3.016 4.337 1.497 2619
3.127 4.497 1.531 4364
3.044 4.378 1.494 1857
3.156 4.538 1.527 5078
3.068 4.412 1.488 1992
3.167 4.554 1.515 4927
3.250 4.674 1.552 2565
3.248 4.671 1.533 4668
3.161 4.545 1.495 3520
3.251 4.674 1.517 6082
3.365 4.839 1.566 1974
3.240 4.659 1.495 7032
3.367 4.842 1.549 1658
3.251 4.675 1.482 5589
3.396 4.883 1.542 2864
3.407 4.899 1.529 4278
3.249 4.671 1.464 3697
3.405 4.896 1.510 3205
3.246 4.668 1.445 2646
3.394 4.880 1.487 2366
3.478 5.001 1.521 1698
3.498 5.030 1.510 1891
3.581 5.150 1.543 1803
3.584 5.153 1.525 2777
3.500 5.033 1.492 2195
3.590 5.163 1.509 2150
3.507 5.042 1.476 2013
3.655 5.255 1.514 2388
3.478 5.001 1.447 1755
3.657 5.258 1.495 2332
3.546 5.100 1.454 2255
3.544 5.096 1.434 1911
3.717 5.344 1.498 1885
3.852 5.538 1.527 2283
3.723 5.354 1.481 1734
3.854 5.542 1.508 2744
3.748 5.389 1.470 2042
3.852 5.539 1.487 2665
3.936 5.660 1.517 1871
3.929 5.650 1.493 3576
3.841 5.523 1.463 2446
3.923 5.641 1.470 4742
4.109 5.909 1.534 2488
3.934 5.657 1.454 3634
4.018 5.778 1.482 2026
3.963 5.698 1.442 3275
4.145 5.960 1.503 2421
3.974 5.714 1.425 2995
4.147 5.963 1.482 2014
3.985 5.730 1.408 2418
4.189 6.024 1.474 2355
4.187 6.021 1.451 2658
3.991 5.739 1.389 2014
4.216 6.062 1.438 2530
4.318 6.209 1.470 2089
4.254 6.117 1.427 2345
4.458 6.411 1.490 2142
4.238 6.094 1.400 3347
4.465 6.421 1.469 3123
4.472 6.430 1.447 3090
4.240 6.097 1.379 2752
4.474 6.433 1.425 3237
4.358 6.267 1.391 2526
4.472 6.430 1.401 2898
4.369 6.282 1.371 2388
4.576 6.581 1.406 2515
4.456 6.407 1.373 2206
4.507 6.481 1.364 1864
4.592 6.603 1.387 1512
4.661 6.702 1.382 1857
4.478 6.439 1.332 1746
4.658 6.699 1.357 2221
4.475 6.435 1.308 1195
4.651 6.689 1.331 1855
4.844 6.965 1.380 1147
4.823 6.936 1.350 1183
4.658 6.698 1.308 1129
4.982 7.164 1.364 1343
4.817 6.926 1.323 1314
4.989 7.174 1.340 1413
5.365 7.714 1.431 1220
5.313 7.640 1.391 1591
5.076 7.299 1.335 1049
5.369 7.720 1.377 1835
5.082 7.308 1.310 1069
5.366 7.717 1.348 2265
5.373 7.726 1.322 2150
5.375 7.729 1.295 1900
5.372 7.725 1.266 1442
1.330 1.894 1.759 2728
1.227 1.746 1.630 1398
1.333 1.898 1.752 5456
1.229 1.750 1.624 2797
1.336 1.902 1.746 5456
1.232 1.754 1.617 2797
1.335 1.900 1.734 4841
1.264 1.799 1.648 1893
1.352 1.925 1.746 4525
1.278 1.819 1.655 1426
1.336 1.902 1.717 5518
1.407 2.003 1.803 1289
1.335 1.901 1.705 6815
1.406 2.002 1.791 2402
1.338 1.905 1.699 6815
1.409 2.006 1.784 2402
1.337 1.903 1.688 6749
1.408 2.005 1.773 2758
1.336 1.901 1.677 6939
1.411 2.008 1.766 2800
1.342 1.910 1.674 5121
1.414 2.012 1.759 3347
1.397 1.989 1.730 5358
1.326 1.887 1.646 2730
1.415 2.015 1.740 6110
1.343 1.912 1.657 3008
1.418 2.018 1.733 7995
1.346 1.916 1.650 2835
1.421 2.022 1.726 7174
1.348 1.919 1.643 2280
1.423 2.026 1.719 6284
1.351 1.923 1.637 1725
1.426 2.030 1.712 6198
1.353 1.927 1.630 1315
1.417 2.017 1.692 4867
1.490 2.121 1.773 1176
1.466 2.086 1.736 3703
1.393 1.983 1.655 1942
1.457 2.074 1.716 4367
1.436 2.045 1.683 5384
1.509 2.149 1.764 2264
1.489 2.120 1.731 8503
1.416 2.015 1.651 3519
1.492 2.123 1.724 12270
1.418 2.019 1.644 3555
1.494 2.127 1.716 16134
1.421 2.023 1.637 2436
1.493 2.126 1.705 20021
1.420 2.021 1.626 1104
1.496 2.129 1.697 16419
1.498 2.133 1.690 12816
1.505 2.142 1.686 10428
1.507 2.146 1.679 8179
1.522 2.166 1.684 10999
1.448 2.061 1.607 1704
1.524 2.170 1.676 14156
1.450 2.064 1.599 1523
1.527 2.174 1.668 13873
1.601 2.280 1.745 1305
1.530 2.177 1.661 13589
1.604 2.284 1.737 1937
1.528 2.175 1.649 10435
1.603 2.282 1.725 2941
1.527 2.173 1.638 6331
1.602 2.280 1.713 3826
1.533 2.182 1.634 5046
1.608 2.289 1.709 3750
1.615 2.299 1.705 5185
1.536 2.186 1.626 4566
1.617 2.302 1.697 6363
1.538 2.190 1.619 4086
1.628 2.317 1.696 5143
1.541 2.193 1.611 2879
1.635 2.327 1.692 4534
1.547 2.202 1.607 1729
1.637 2.330 1.684 5307
1.561 2.223 1.611 1441
1.636 2.328 1.672 6180
1.634 2.326 1.660 7933
1.641 2.336 1.656 8847
1.651 2.351 1.655 8859
1.662 2.366 1.654 7403
1.738 2.474 1.725 1159
1.673 2.381 1.653 7000
1.749 2.490 1.724 1067
1.671 2.379 1.641 7888
1.748 2.488 1.711 2059
1.678 2.388 1.637 10870
1.754 2.497 1.706 3460
1.684 2.397 1.632 12979
1.761 2.507 1.701 3885
1.683 2.395 1.620 12077
1.759 2.505 1.689 5262
1.677 2.387 1.604 11739
1.754 2.497 1.673 8635
1.679 2.391 1.596 12692
1.757 2.500 1.664 10005
1.682 2.394 1.588 10195
1.767 2.516 1.662 7755
1.790 2.548 1.671 7040
1.692 2.409 1.586 5398
1.805 2.569 1.673 6675
1.703 2.424 1.585 2755
1.807 2.573 1.664 7982
1.701 2.422 1.573 2262
1.818 2.588 1.662 8283
1.732 2.466 1.589 1508
1.825 2.598 1.656 7286
1.747 2.487 1.591 1339
1.844 2.625 1.661 5902
1.766 2.514 1.596 1588
1.859 2.646 1.662 7594
1.781 2.535 1.597 1705
1.857 2.643 1.649 9025
1.935 2.755 1.714 2674
1.864 2.653 1.643 8728
1.942 2.764 1.708 2560
1.870 2.662 1.638 7483
1.949 2.774 1.701 3183
1.947 2.772 1.688 5982
1.869 2.660 1.625 4106
1.950 2.775 1.679 7804
1.871 2.664 1.616 2166
1.956 2.785 1.672 8216
1.878 2.673 1.609 1906
1.963 2.794 1.666 7589
1.884 2.682 1.603 2467
1.945 2.769 1.640 6858
2.024 2.881 1.701 2618
1.947 2.772 1.630 7126
2.026 2.884 1.691 3552
2.004 2.853 1.662 7165
1.925 2.740 1.601 3569
2.007 2.856 1.652 6338
1.927 2.744 1.591 1975
2.017 2.872 1.648 6045
2.028 2.887 1.644 8325
2.031 2.891 1.634 9697
2.110 3.004 1.694 1228
2.033 2.894 1.624 8053
2.113 3.008 1.683 1432
2.040 2.904 1.617 5536
2.120 3.017 1.676 1890
2.068 2.943 1.625 7218
2.147 3.057 1.683 1643
2.066 2.941 1.612 6717
2.146 3.054 1.670 3046
2.123 3.022 1.641 6979
2.043 2.908 1.583 2329
2.130 3.032 1.633 6705
2.050 2.918 1.576 1688
2.132 3.035 1.622 5318
2.052 2.921 1.566 1452
2.139 3.045 1.615 4620
2.059 2.931 1.558 1569
2.137 3.042 1.601 4209
2.218 3.157 1.657 1191
2.131 3.034 1.584 4811
2.212 3.148 1.640 2557
2.134 3.037 1.574 4686
2.214 3.152 1.629 3339
2.195 3.125 1.603 3508
2.115 3.010 1.549 1973
2.194 3.123 1.589 2287
2.291 3.262 1.655 1728
2.243 3.193 1.610 3548
2.162 3.078 1.556 1704
2.245 3.196 1.598 5233
2.326 3.311 1.652 2930
2.214 3.151 1.565 4779
2.333 3.321 1.643 3726
2.212 3.148 1.551 4733
2.344 3.337 1.637 3583
2.351 3.346 1.628 3619
2.218 3.158 1.543 3363
2.353 3.350 1.616 3030
2.225 3.167 1.534 2076
2.356 3.353 1.604 2701
2.240 3.189 1.531 1181
2.358 3.357 1.592 3239
2.439 3.473 1.643 1575
2.412 3.433 1.612 4992
2.322 3.305 1.557 3473
2.406 3.425 1.595 5719
2.324 3.309 1.545 3111
2.404 3.422 1.580 5230
2.322 3.306 1.531 2557
2.411 3.432 1.571 4073
2.329 3.315 1.522 2580
2.426 3.453 1.566 4797
2.344 3.337 1.518 1900
2.437 3.469 1.559 6309
2.519 3.586 1.608 1907
2.439 3.472 1.547 4891
2.521 3.589 1.595 3517
2.507 3.568 1.572 4703
2.424 3.451 1.525 3296
2.505 3.565 1.557 4371
2.613 3.719 1.619 2014
2.503 3.562 1.542 3087
2.619 3.729 1.609 1774
2.522 3.590 1.539 3317
2.626 3.738 1.598 2420
2.525 3.594 1.527 3694
2.629 3.742 1.585 3441
2.635 3.751 1.574 4471
2.527 3.597 1.514 3124
2.664 3.792 1.575 5393
2.581 3.675 1.530 3477
2.675 3.808 1.566 4593
2.584 3.678 1.517 2984
2.682 3.817 1.555 3316
2.586 3.681 1.504 2078
2.680 3.815 1.539 3504
2.762 3.932 1.583 1766
2.760 3.930 1.567 3740
2.673 3.805 1.521 3526
2.763 3.933 1.553 3432
2.676 3.809 1.508 2474
2.743 3.905 1.528 2936
2.835 4.036 1.575 2184
2.785 3.964 1.534 3819
2.868 4.083 1.576 1396
2.792 3.974 1.522 4668
2.901 4.130 1.577 1881
2.794 3.977 1.508 4189
2.903 4.133 1.563 2331
2.910 4.143 1.550 3298
2.796 3.981 1.494 2209
2.921 4.159 1.540 4454
2.838 4.040 1.499 2441
2.928 4.168 1.527 3377
3.047 4.337 1.584 1386
3.049 4.340 1.569 2957
2.966 4.221 1.529 2165
3.051 4.344 1.553 3001
2.963 4.218 1.512 2039
3.041 4.328 1.532 3446
2.957 4.209 1.493 2136
3.038 4.325 1.515 3514
3.131 4.457 1.557 1927
3.124 4.448 1.537 4084
3.036 4.322 1.497 2352
3.166 4.507 1.539 4875
3.250 4.627 1.577 1831
3.173 4.517 1.525 5655
3.257 4.636 1.562 2168
3.242 4.614 1.538 4827
3.131 4.457 1.490 4246
3.284 4.674 1.539 5435
3.200 4.555 1.503 2942
3.286 4.678 1.522 6964
3.202 4.558 1.487 2089
3.280 4.668 1.502 6366
3.395 4.832 1.550 1754
3.273 4.659 1.482 5324
3.424 4.873 1.544 2465
3.435 4.889 1.531 3831
3.271 4.656 1.464 3780
3.437 4.893 1.513 3007
3.269 4.653 1.445 2864
3.404 4.845 1.482 2638
3.488 4.965 1.516 1842
3.406 4.849 1.465 2000
3.490 4.969 1.498 1866
3.537 5.035 1.498 2600
3.622 5.155 1.530 1997
3.526 5.019 1.475 2888
3.615 5.146 1.509 1876
3.666 5.219 1.509 2540
3.519 5.010 1.454 2236
3.673 5.228 1.492 2848
3.571 5.083 1.454 1806
3.724 5.301 1.492 2372
3.550 5.054 1.428 1902
3.878 5.520 1.527 2714
3.731 5.311 1.474 2032
3.880 5.523 1.508 3566
3.755 5.346 1.464 1913
3.882 5.527 1.488 3086
3.967 5.647 1.518 1901
3.956 5.631 1.493 3836
3.867 5.504 1.463 2103
3.958 5.635 1.474 4310
4.142 5.895 1.536 2642
3.965 5.644 1.455 3692
4.050 5.765 1.483 2203
3.985 5.673 1.441 3552
4.177 5.947 1.504 2303
3.996 5.689 1.424 2850
4.220 6.007 1.496 1698
4.213 5.998 1.472 2545
4.043 5.755 1.418 2146
4.211 5.994 1.449 3384
4.332 6.166 1.487 1763
4.213 5.997 1.428 2625
4.352 6.195 1.471 2109
4.489 6.390 1.490 2364
4.287 6.103 1.429 2040
4.496 6.399 1.469 3127
4.267 6.074 1.400 2718
4.502 6.409 1.447 2727
4.264 6.070 1.378 2352
4.388 6.246 1.391 2553
4.509 6.418 1.426 2544
4.394 6.255 1.370 2532
4.498 6.402 1.399 2273
4.612 6.565 1.408 2675
4.491 6.392 1.374 2084
4.502 6.408 1.354 2051
4.614 6.568 1.384 1766
4.508 6.417 1.332 1857
4.693 6.680 1.382 1691
4.690 6.677 1.357 2080
4.843 6.894 1.397 1368
4.688 6.673 1.332 1913
5.363 7.634 1.505 1203
5.307 7.554 1.463 1178
4.690 6.676 1.308 1172
5.305 7.551 1.435 1254
4.849 6.903 1.323 1240
5.415 7.708 1.434 1398
5.023 7.150 1.340 1275
5.345 7.608 1.390 1691
5.431 7.730 1.410 1385
5.406 7.695 1.377 2233
5.320 7.573 1.357 1044
5.403 7.691 1.348 2838
5.410 7.701 1.322 2768
5.412 7.703 1.295 2498
5.409 7.700 1.266 2010
5.402 7.689 1.237 1221
1.332 1.885 1.754 2661
1.232 1.743 1.630 1140
1.335 1.889 1.748 5323
1.234 1.746 1.624 2280
1.338 1.892 1.741 5323
1.237 1.750 1.617 2280
1.340 1.896 1.734 4571
1.269 1.796 1.648 1660
1.358 1.921 1.746 4289
1.287 1.821 1.660 1279
1.342 1.898 1.717 4588
1.413 1.999 1.803 1227
1.345 1.902 1.710 5414
1.416 2.003 1.796 2026
1.347 1.906 1.703 5414
1.419 2.007 1.789 2026
1.346 1.904 1.692 5294
1.418 2.006 1.777 2450
1.345 1.903 1.681 5545
1.417 2.004 1.766 2671
1.397 1.976 1.732 4311
1.325 1.874 1.648 2480
1.403 1.985 1.730 5286
1.331 1.883 1.646 2287
1.417 2.005 1.736 6379
1.345 1.903 1.652 2431
1.424 2.014 1.733 8473
1.351 1.912 1.650 2821
1.427 2.018 1.726 7747
1.354 1.915 1.643 2272
1.425 2.016 1.715 7055
1.353 1.914 1.632 1438
1.424 2.015 1.703 7006
1.419 2.008 1.688 5238
1.492 2.111 1.769 1282
1.422 2.011 1.681 3508
1.495 2.115 1.762 1767
1.428 2.020 1.678 3758
1.501 2.124 1.759 2584
1.489 2.106 1.734 4607
1.415 2.002 1.654 2439
1.495 2.115 1.731 8316
1.422 2.011 1.651 2971
1.498 2.119 1.724 12052
1.424 2.015 1.644 3024
1.501 2.123 1.716 16228
1.427 2.019 1.637 2123
1.499 2.121 1.705 20513
1.425 2.017 1.626 1009
1.502 2.125 1.697 17094
1.505 2.129 1.690 13675
1.511 2.138 1.686 11846
1.514 2.141 1.679 10154
1.524 2.156 1.680 12706
1.450 2.051 1.603 1286
1.531 2.165 1.676 15673
1.456 2.060 1.599 1445
1.533 2.169 1.668 14629
1.608 2.275 1.745 1303
1.536 2.173 1.661 13585
1.611 2.279 1.737 1937
1.534 2.171 1.649 10218
1.610 2.277 1.725 2789
1.533 2.169 1.638 6348
1.608 2.275 1.713 3449
1.536 2.172 1.630 5332
1.611 2.279 1.705 3528
1.625 2.300 1.709 4976
1.542 2.182 1.626 4872
1.628 2.303 1.701 5986
1.545 2.185 1.619 4412
1.635 2.313 1.696 4902
1.547 2.189 1.611 3177
1.641 2.322 1.692 4211
1.561 2.209 1.615 2118
1.640 2.320 1.680 5350
1.564 2.213 1.607 1581
1.643 2.324 1.672 6637
1.641 2.322 1.660 8613
1.652 2.337 1.659 10100
1.662 2.352 1.659 10870
1.673 2.367 1.658 10019
1.749 2.475 1.729 1108
1.679 2.376 1.653 10182
1.756 2.484 1.724 1113
1.678 2.374 1.641 10691
1.755 2.483 1.711 2152
1.681 2.377 1.633 12059
1.757 2.486 1.703 4111
1.687 2.387 1.628 13026
1.764 2.496 1.698 4514
1.690 2.390 1.620 12182
1.767 2.499 1.689 5648
1.684 2.382 1.604 12151
1.761 2.492 1.673 9608
1.686 2.386 1.596 13295
1.764 2.495 1.664 10920
1.693 2.395 1.591 11140
1.770 2.505 1.659 8343
1.798 2.543 1.671 6657
1.699 2.404 1.586 6476
1.812 2.564 1.673 6474
1.706 2.413 1.581 3516
1.819 2.573 1.668 7662
1.704 2.411 1.569 2791
1.826 2.583 1.662 8024
1.740 2.461 1.589 1598
1.828 2.586 1.653 6946
1.906 2.697 1.719 1245
1.835 2.596 1.647 5644
1.913 2.706 1.713 1536
1.870 2.646 1.665 6537
1.792 2.535 1.600 2077
1.869 2.644 1.653 8324
1.947 2.755 1.717 2097
1.876 2.653 1.647 8416
1.954 2.764 1.711 2293
1.878 2.657 1.638 7456
1.957 2.768 1.701 3564
1.943 2.748 1.678 6072
1.864 2.637 1.615 3033
1.958 2.770 1.679 7163
1.879 2.658 1.616 2941
1.965 2.779 1.672 7505
1.886 2.668 1.609 2395
1.971 2.789 1.666 7107
1.892 2.677 1.603 2611
1.953 2.763 1.640 6501
2.032 2.875 1.701 2519
1.956 2.766 1.630 6880
2.035 2.879 1.691 3464
2.016 2.853 1.665 6588
1.937 2.740 1.604 4187
2.015 2.850 1.652 5480
1.935 2.738 1.591 2196
2.026 2.866 1.648 5448
1.946 2.753 1.588 1042
2.037 2.881 1.644 7940
2.043 2.891 1.637 9354
2.046 2.894 1.627 7943
2.053 2.904 1.620 5871
2.133 3.017 1.679 1511
2.080 2.943 1.628 7966
2.160 3.056 1.686 1468
2.079 2.941 1.615 6992
2.159 3.054 1.673 2897
2.132 3.016 1.641 5790
2.052 2.902 1.583 2104
2.092 2.960 1.600 5596
2.172 3.073 1.657 2079
2.095 2.963 1.590 5134
2.175 3.077 1.646 1884
2.144 3.033 1.612 4031
2.063 2.919 1.555 1074
2.138 3.024 1.595 4635
2.218 3.138 1.651 1830
2.136 3.022 1.582 4902
2.217 3.136 1.637 3563
2.202 3.115 1.614 6233
2.121 3.001 1.559 3356
2.200 3.113 1.600 4953
2.281 3.227 1.655 1843
2.198 3.110 1.587 3053
2.301 3.255 1.655 1693
2.248 3.180 1.607 3588
2.167 3.065 1.553 1880
2.250 3.183 1.596 5295
2.331 3.298 1.649 3373
2.253 3.187 1.584 4917
2.338 3.308 1.640 4128
2.225 3.148 1.554 4528
2.354 3.330 1.637 3792
2.360 3.339 1.628 3786
2.223 3.145 1.540 3012
2.367 3.349 1.619 2946
2.281 3.228 1.564 2262
2.365 3.346 1.604 2821
2.271 3.213 1.545 1399
2.372 3.356 1.595 3742
2.454 3.472 1.646 1458
2.422 3.426 1.612 5392
2.332 3.298 1.557 3428
2.420 3.424 1.598 5823
2.338 3.308 1.548 3061
2.410 3.409 1.578 4762
2.328 3.293 1.528 2149
2.421 3.425 1.571 3674
2.339 3.308 1.522 2318
2.436 3.446 1.566 4397
2.354 3.330 1.518 1811
2.447 3.462 1.559 6006
2.529 3.578 1.608 2056
2.454 3.471 1.550 4473
2.536 3.588 1.598 3250
2.517 3.561 1.572 4206
2.435 3.444 1.525 2531
2.515 3.558 1.557 4190
2.619 3.705 1.617 2027
2.513 3.555 1.542 2925
2.630 3.721 1.609 1813
2.520 3.565 1.532 2848
2.637 3.731 1.598 2056
2.587 3.660 1.556 3514
2.505 3.543 1.510 2058
2.594 3.670 1.545 4623
2.677 3.787 1.591 3362
2.671 3.778 1.573 5789
2.588 3.661 1.528 3889
2.686 3.800 1.566 5065
2.594 3.670 1.517 2713
2.693 3.810 1.555 3823
2.601 3.680 1.506 1629
2.695 3.813 1.542 3950
2.778 3.930 1.585 1389
2.772 3.921 1.567 3828
2.689 3.804 1.524 3620
2.770 3.919 1.551 3643
2.687 3.801 1.508 2363
2.755 3.897 1.528 3010
2.847 4.027 1.575 2234
2.801 3.963 1.536 3840
2.884 4.080 1.578 1730
2.803 3.966 1.522 4553
2.900 4.103 1.571 2236
2.806 3.969 1.508 3844
2.907 4.112 1.558 3001
2.918 4.128 1.548 3375
2.834 4.010 1.507 2197
2.938 4.156 1.542 4320
2.854 4.038 1.502 2931
2.945 4.166 1.529 3268
3.028 4.284 1.569 1695
3.009 4.256 1.544 3380
3.092 4.375 1.583 1847
3.060 4.328 1.551 3327
2.976 4.210 1.512 1931
3.049 4.313 1.530 3781
2.965 4.194 1.491 1769
3.051 4.316 1.515 3314
3.135 4.435 1.553 1662
3.137 4.438 1.537 4142
3.053 4.320 1.499 1910
3.180 4.498 1.539 5034
3.264 4.617 1.577 2395
3.186 4.508 1.525 5619
3.270 4.627 1.562 3246
3.255 4.605 1.538 6557
3.144 4.448 1.490 4514
3.253 4.602 1.520 6198
3.147 4.451 1.474 2218
3.304 4.674 1.524 6643
3.220 4.555 1.489 2736
3.302 4.671 1.506 5783
3.409 4.822 1.550 1673
3.291 4.656 1.484 4761
3.384 4.788 1.522 2266
3.284 4.646 1.464 3621
3.449 4.879 1.531 3375
3.411 4.826 1.497 2987
3.282 4.643 1.445 2784
3.414 4.829 1.480 3065
3.512 4.968 1.519 2004
3.416 4.832 1.463 2313
3.500 4.952 1.496 2101
3.547 5.018 1.496 2184
3.632 5.138 1.529 1931
3.536 5.003 1.473 3046
3.679 5.205 1.527 1735
3.681 5.208 1.509 2495
3.538 5.006 1.455 2365
3.693 5.224 1.494 2777
3.545 5.015 1.439 1494
3.740 5.290 1.492 2392
3.561 5.037 1.426 1843
3.894 5.509 1.527 2704
3.746 5.300 1.474 2195
3.896 5.512 1.508 3756
3.762 5.322 1.460 1719
3.903 5.522 1.490 3119
3.706 5.243 1.421 1679
3.977 5.626 1.495 3639
4.156 5.880 1.557 1804
3.979 5.629 1.475 3828
4.163 5.890 1.537 2502
3.982 5.633 1.455 3563
4.179 5.912 1.521 2503
3.997 5.655 1.439 3419
4.190 5.928 1.503 2423
4.058 5.741 1.438 2980
4.179 5.912 1.477 1461
4.222 5.973 1.469 2492
4.060 5.744 1.418 2129
4.224 5.976 1.448 3498
4.368 6.179 1.493 1590
4.226 5.979 1.427 2598
4.370 6.182 1.471 2077
4.507 6.377 1.490 2254
4.314 6.103 1.431 1768
4.514 6.386 1.469 2781
4.280 6.055 1.399 2207
4.521 6.396 1.447 2255
4.282 6.058 1.378 2001
4.410 6.239 1.392 2428
4.532 6.412 1.427 2019
4.629 6.549 1.431 2569
4.417 6.249 1.371 2494
4.631 6.552 1.408 2758
4.509 6.379 1.374 1709
4.520 6.395 1.354 1815
4.638 6.561 1.386 1623
4.527 6.404 1.332 1731
4.694 6.641 1.377 1537
4.714 6.669 1.358 1920
4.954 7.008 1.420 1444
4.707 6.659 1.332 1827
4.942 6.992 1.392 1332
5.324 7.532 1.462 1222
4.967 7.027 1.373 1140
5.327 7.535 1.435 1522
4.870 6.889 1.323 1158
5.446 7.705 1.437 1645
5.329 7.538 1.408 1448
5.444 7.702 1.408 1932
5.358 7.580 1.388 1457
5.423 7.673 1.376 2323
5.337 7.551 1.356 1112
5.426 7.675 1.348 2948
5.330 7.541 1.327 1111
5.432 7.685 1.322 2988
5.439 7.694 1.296 2749
5.431 7.684 1.266 2308
5.424 7.674 1.237 1688
5.481 7.753 1.221 1062
1.334 1.875 1.750 2664
1.337 1.879 1.743 5328
1.266 1.779 1.656 1816
1.340 1.883 1.736 5328
1.269 1.783 1.649 1816
1.346 1.892 1.734 4333
1.275 1.792 1.648 1519
1.364 1.917 1.746 3974
1.293 1.817 1.660 1485
1.367 1.921 1.739 3747
1.295 1.820 1.653 1239
1.400 1.967 1.769 3792
1.328 1.866 1.683 1756
1.402 1.971 1.762 3792
1.330 1.870 1.676 1756
1.398 1.964 1.746 3682
1.325 1.863 1.661 1678
1.351 1.898 1.681 3936
1.423 2.000 1.766 2659
1.403 1.972 1.732 4572
1.331 1.870 1.648 1859
1.409 1.981 1.730 5577
1.337 1.879 1.646 1851
1.424 2.001 1.736 7041
1.351 1.899 1.652 2153
1.430 2.010 1.733 9288
1.357 1.908 1.650 2769
1.429 2.008 1.722 8547
1.356 1.906 1.639 1804
1.424 2.001 1.706 8141
1.423 2.000 1.695 8126
1.422 1.998 1.683 5901
1.495 2.101 1.765 1207
1.416 1.991 1.668 3883
1.490 2.094 1.749 1738
1.431 2.011 1.674 3301
1.504 2.114 1.754 2766
1.499 2.107 1.738 4440
1.425 2.003 1.658 2564
1.502 2.111 1.731 8041
1.428 2.007 1.651 2414
1.505 2.114 1.724 11642
1.431 2.010 1.644 2264
1.503 2.113 1.712 16243
1.429 2.009 1.633 1418
1.506 2.116 1.705 20863
1.509 2.120 1.697 17758
1.511 2.124 1.690 14653
1.518 2.133 1.686 13566
1.524 2.142 1.683 12723
1.531 2.151 1.680 14711
1.456 2.046 1.603 1104
1.537 2.161 1.676 17096
1.462 2.055 1.599 1329
1.540 2.164 1.668 15017
1.615 2.270 1.745 1286
1.543 2.168 1.661 12937
1.618 2.274 1.737 1867
1.541 2.166 1.649 9405
1.617 2.272 1.725 2475
1.540 2.164 1.638 5957
1.615 2.270 1.713 2810
1.542 2.168 1.630 5361
1.626 2.285 1.713 3174
1.545 2.171 1.623 5116
1.633 2.294 1.709 4404
1.635 2.298 1.701 5023
1.551 2.180 1.619 4917
1.642 2.308 1.696 4192
1.558 2.189 1.615 3703
1.649 2.317 1.692 3575
1.572 2.210 1.619 3056
1.647 2.315 1.680 5545
1.571 2.208 1.607 2130
1.650 2.319 1.672 7575
1.652 2.322 1.664 9673
1.659 2.331 1.659 11913
1.670 2.346 1.659 13613
1.680 2.361 1.658 13410
1.757 2.470 1.729 1143
1.683 2.365 1.650 14113
1.760 2.473 1.720 1383
1.685 2.369 1.641 14429
1.763 2.477 1.711 2229
1.688 2.372 1.633 14247
1.765 2.481 1.703 4110
1.690 2.376 1.625 13750
1.768 2.484 1.694 5145
1.697 2.385 1.620 12478
1.775 2.494 1.689 6068
1.695 2.383 1.608 12153
1.773 2.492 1.676 9871
1.694 2.380 1.596 13492
1.772 2.490 1.664 11727
1.700 2.390 1.591 11878
1.778 2.499 1.659 9076
1.707 2.399 1.586 7538
1.785 2.508 1.654 6532
1.775 2.495 1.634 6590
1.697 2.385 1.567 3909
1.831 2.573 1.671 7416
1.708 2.400 1.566 3404
1.838 2.583 1.665 7748
1.710 2.403 1.557 1721
1.836 2.581 1.653 6792
1.915 2.691 1.719 1732
1.835 2.579 1.640 6093
1.913 2.689 1.706 3552
1.891 2.658 1.676 6919
1.812 2.547 1.611 3981
1.885 2.650 1.660 8922
1.807 2.539 1.595 3340
1.888 2.653 1.650 8987
1.809 2.542 1.586 2473
1.890 2.657 1.641 7701
1.969 2.768 1.705 3742
1.951 2.742 1.678 5972
1.872 2.631 1.615 3343
1.954 2.746 1.669 6027
1.875 2.635 1.606 2939
1.969 2.767 1.669 6078
1.890 2.656 1.606 2922
1.988 2.794 1.672 6167
1.909 2.683 1.610 3391
2.016 2.833 1.682 6302
1.936 2.722 1.620 4900
2.023 2.843 1.675 6808
1.943 2.731 1.614 5296
2.025 2.846 1.665 6176
1.946 2.734 1.604 4607
2.028 2.850 1.655 4472
1.948 2.738 1.594 2723
2.035 2.860 1.648 5189
1.955 2.747 1.588 1167
2.046 2.875 1.644 8208
2.052 2.884 1.637 9791
2.055 2.888 1.627 8478
2.062 2.897 1.620 6598
2.142 3.010 1.679 1461
2.090 2.937 1.628 8646
2.170 3.050 1.686 1453
2.088 2.934 1.615 7500
2.168 3.047 1.673 2739
2.112 2.968 1.619 5066
2.192 3.081 1.677 1041
2.101 2.953 1.600 5323
2.182 3.067 1.657 1850
2.104 2.957 1.590 4971
2.193 3.082 1.652 2257
2.191 3.080 1.638 4043
2.110 2.966 1.582 3775
2.143 3.011 1.592 4918
2.224 3.125 1.648 2439
2.205 3.099 1.622 5499
2.124 2.985 1.567 3479
2.212 3.108 1.614 8557
2.131 2.994 1.559 2639
2.210 3.106 1.600 6766
2.291 3.220 1.655 1678
2.204 3.097 1.584 4912
2.315 3.254 1.658 1557
2.211 3.107 1.576 4185
2.331 3.275 1.655 1849
2.247 3.158 1.587 4711
2.337 3.285 1.646 3454
2.241 3.150 1.570 5122
2.340 3.289 1.634 4231
2.235 3.141 1.554 4363
2.355 3.310 1.631 3586
2.315 3.253 1.592 3767
2.233 3.138 1.540 2352
2.378 3.342 1.619 3189
2.283 3.208 1.559 3138
2.380 3.345 1.607 3788
2.285 3.212 1.547 1970
2.383 3.349 1.595 4530
2.465 3.464 1.646 1503
2.433 3.419 1.612 5431
2.346 3.297 1.559 3510
2.431 3.416 1.598 5385
2.349 3.301 1.548 2947
2.420 3.401 1.578 4284
2.338 3.286 1.528 1997
2.431 3.417 1.571 3585
2.349 3.301 1.522 1995
2.451 3.445 1.569 4537
2.360 3.317 1.515 1633
2.462 3.460 1.562 5230
2.545 3.576 1.610 2296
2.469 3.470 1.552 3717
2.552 3.586 1.600 2952
2.528 3.553 1.572 3837
2.445 3.437 1.525 1767
2.526 3.550 1.557 4027
2.609 3.666 1.604 2167
2.524 3.547 1.542 2413
2.642 3.713 1.609 1866
2.588 3.637 1.564 2435
2.505 3.520 1.518 1829
2.603 3.658 1.558 3980
2.520 3.542 1.512 1915
2.610 3.668 1.548 5674
2.693 3.785 1.593 2565
2.678 3.764 1.570 5712
2.595 3.647 1.525 3787
2.693 3.785 1.564 4935
2.610 3.668 1.519 2446
2.705 3.801 1.555 3781
2.801 3.937 1.606 1158
2.707 3.804 1.542 3642
2.790 3.922 1.585 1400
2.784 3.913 1.567 3278
2.701 3.795 1.524 2927
2.778 3.904 1.549 3312
2.694 3.786 1.506 2046
2.762 3.882 1.526 2888
2.859 4.019 1.575 2309
2.813 3.954 1.536 3884
2.897 4.071 1.578 1980
2.816 3.957 1.522 4488
2.904 4.081 1.566 2807
2.818 3.960 1.508 3709
2.915 4.097 1.556 3576
2.926 4.113 1.546 3147
2.842 3.995 1.505 1984
2.955 4.153 1.544 4133
2.871 4.035 1.504 3032
2.962 4.163 1.531 3434
3.046 4.281 1.571 2070
3.022 4.247 1.544 4908
3.106 4.365 1.583 1605
3.060 4.300 1.545 3978
2.971 4.176 1.504 2051
3.062 4.303 1.530 5410
2.978 4.185 1.491 1789
3.060 4.301 1.513 3785
3.144 4.419 1.551 1660
3.138 4.410 1.531 4533
3.049 4.285 1.491 1840
3.140 4.413 1.516 5021
3.260 4.582 1.569 3251
3.267 4.592 1.554 5136
3.147 4.423 1.502 4099
3.269 4.595 1.538 6885
3.158 4.438 1.490 4117
3.272 4.598 1.522 7033
3.370 4.736 1.564 1830
3.314 4.658 1.522 5372
3.230 4.539 1.487 2634
3.321 4.667 1.508 5090
3.424 4.812 1.550 1710
3.310 4.652 1.486 3765
3.426 4.815 1.533 2170
3.464 4.868 1.531 3034
3.294 4.630 1.462 2781
3.426 4.815 1.497 3561
3.301 4.639 1.447 2255
3.424 4.812 1.478 3495
3.536 4.969 1.523 2255
3.431 4.822 1.463 2474
3.516 4.941 1.496 2064
3.482 4.894 1.465 2141
3.639 5.114 1.525 1759
3.552 4.992 1.473 2875
3.691 5.187 1.526 1918
3.693 5.190 1.507 2542
3.554 4.995 1.455 2222
3.700 5.200 1.490 2439
3.561 5.004 1.439 1417
3.738 5.253 1.485 2138
3.639 5.115 1.449 1788
3.911 5.497 1.527 2336
3.646 5.124 1.433 2252
3.918 5.506 1.510 3444
3.657 5.140 1.418 1867
3.925 5.516 1.491 3036
3.718 5.225 1.420 1942
3.999 5.620 1.497 3032
4.179 5.873 1.558 1577
4.001 5.623 1.477 3162
4.186 5.883 1.539 2237
3.999 5.620 1.455 3266
4.193 5.893 1.519 2916
4.015 5.642 1.439 2890
4.204 5.909 1.501 2742
4.076 5.728 1.438 3042
4.211 5.918 1.482 1758
4.231 5.947 1.466 2576
4.073 5.725 1.416 2144
4.238 5.956 1.447 3412
4.414 6.204 1.501 1883
4.240 5.959 1.425 2479
4.394 6.175 1.472 2000
4.482 6.299 1.476 2270
4.396 6.178 1.450 1454
4.484 6.302 1.454 2084
4.398 6.181 1.429 1729
4.477 6.293 1.429 2374
4.391 6.172 1.404 1784
4.480 6.296 1.406 2758
4.566 6.417 1.431 2161
4.645 6.528 1.430 2984
4.436 6.235 1.371 2402
4.652 6.537 1.408 2835
4.438 6.238 1.349 1334
4.658 6.547 1.386 1446
4.545 6.387 1.355 1420
4.556 6.403 1.335 1509
4.973 6.990 1.445 1488
4.976 6.993 1.420 1700
4.735 6.655 1.358 1615
4.728 6.645 1.332 1636
4.969 6.983 1.393 1570
4.989 7.011 1.373 1583
5.348 7.516 1.462 1227
5.350 7.519 1.435 1700
5.477 7.698 1.466 1459
5.479 7.701 1.439 2467
5.352 7.522 1.408 1716
5.482 7.704 1.411 3058
5.354 7.525 1.382 1372
5.484 7.707 1.384 3006
5.397 7.585 1.364 1295
5.449 7.659 1.348 2830
5.358 7.531 1.328 1430
5.470 7.687 1.325 3448
5.351 7.521 1.299 1146
5.481 7.703 1.299 3509
5.496 7.725 1.275 3108
5.498 7.727 1.247 2889
5.500 7.730 1.220 1912
1.329 1.855 1.736 2714
1.332 1.859 1.729 5428
1.334 1.863 1.723 5428
1.341 1.872 1.721 4184
1.370 1.913 1.746 3529
1.298 1.812 1.660 1675
1.376 1.922 1.744 3249
1.305 1.821 1.658 1409
1.406 1.963 1.769 3629
1.334 1.862 1.683 2010
1.408 1.966 1.762 3629
1.336 1.866 1.676 2010
1.404 1.960 1.746 3629
1.331 1.859 1.661 1996
1.406 1.964 1.739 3690
1.334 1.862 1.654 2037
1.413 1.973 1.736 4682
1.340 1.871 1.652 1981
1.393 1.944 1.703 5794
1.430 1.996 1.736 7301
1.357 1.894 1.652 1957
1.436 2.005 1.733 9433
1.363 1.903 1.650 2509
1.435 2.004 1.722 8652
1.362 1.902 1.639 1602
1.426 1.991 1.702 8295
1.429 1.995 1.695 8270
1.424 1.988 1.679 6049
1.505 2.102 1.769 1100
1.423 1.986 1.668 4022
1.508 2.105 1.762 1543
1.433 2.001 1.669 3268
1.507 2.104 1.750 2853
1.506 2.102 1.738 4379
1.432 1.999 1.658 2592
1.504 2.101 1.727 7580
1.430 1.997 1.647 1847
1.507 2.104 1.719 10804
1.433 2.001 1.640 1352
1.510 2.108 1.712 15393
1.435 2.004 1.633 1068
1.513 2.112 1.705 19982
1.515 2.115 1.697 17344
1.518 2.119 1.690 14706
1.524 2.128 1.686 14063
1.531 2.138 1.683 13755
1.538 2.147 1.680 15126
1.544 2.156 1.676 16805
1.469 2.051 1.599 1109
1.547 2.160 1.668 14070
1.622 2.265 1.745 1180
1.549 2.163 1.661 11336
1.625 2.269 1.737 1662
1.552 2.167 1.653 7914
1.628 2.273 1.729 1981
1.543 2.154 1.634 4939
1.630 2.276 1.721 2300
1.549 2.163 1.630 4632
1.633 2.280 1.713 2812
1.556 2.172 1.626 4686
1.640 2.289 1.709 3573
1.558 2.175 1.619 4865
1.642 2.293 1.701 3783
1.569 2.190 1.619 3995
1.649 2.302 1.696 3535
1.583 2.211 1.623 3753
1.660 2.317 1.696 3244
1.654 2.310 1.680 5833
1.578 2.203 1.607 2545
1.657 2.313 1.672 8277
1.580 2.206 1.600 1091
1.660 2.317 1.664 10297
1.666 2.326 1.659 12754
1.677 2.341 1.659 14814
1.684 2.351 1.654 14981
1.761 2.458 1.725 1202
1.690 2.360 1.650 15961
1.768 2.468 1.720 1391
1.693 2.363 1.641 16027
1.770 2.472 1.711 2136
1.695 2.367 1.633 15212
1.773 2.475 1.703 3804
1.698 2.370 1.625 14331
1.776 2.479 1.694 4728
1.700 2.374 1.616 12234
1.778 2.483 1.685 6708
1.703 2.377 1.608 11211
1.781 2.486 1.676 9704
1.701 2.375 1.596 12610
1.779 2.484 1.664 11518
1.704 2.379 1.588 11524
1.782 2.488 1.655 9764
1.776 2.480 1.639 7977
1.698 2.371 1.572 6247
1.783 2.489 1.634 7558
1.704 2.380 1.567 4310
1.843 2.574 1.675 7238
1.765 2.464 1.608 3741
1.846 2.577 1.665 7563
1.718 2.398 1.557 1896
1.844 2.575 1.653 6780
1.923 2.685 1.719 1864
1.843 2.573 1.640 6348
1.922 2.683 1.706 3837
1.903 2.658 1.679 7158
1.824 2.547 1.614 4903
1.898 2.650 1.663 9355
1.819 2.539 1.598 4133
1.896 2.647 1.650 9196
1.975 2.758 1.714 2600
1.899 2.651 1.641 7346
1.978 2.762 1.705 4325
1.964 2.742 1.682 5417
1.885 2.631 1.618 4083
1.933 2.699 1.645 5657
2.013 2.810 1.708 1983
1.940 2.708 1.639 6053
2.019 2.820 1.702 3217
2.014 2.812 1.685 5871
1.934 2.700 1.623 5069
2.021 2.821 1.679 6770
1.941 2.710 1.617 4627
2.032 2.836 1.675 6963
1.952 2.725 1.614 5223
2.034 2.840 1.665 5882
1.954 2.728 1.604 4542
2.041 2.850 1.658 4079
1.961 2.738 1.598 2723
2.044 2.853 1.648 5302
1.963 2.741 1.588 1112
2.055 2.869 1.644 8488
2.061 2.878 1.637 10048
2.064 2.882 1.627 8731
2.071 2.891 1.620 6862
2.151 3.004 1.679 1528
2.099 2.930 1.628 8695
2.179 3.043 1.686 1314
2.097 2.928 1.615 7707
2.178 3.041 1.673 2305
2.121 2.961 1.619 4938
2.202 3.074 1.677 1071
2.115 2.953 1.603 4893
2.196 3.066 1.660 2045
2.117 2.956 1.593 4747
2.198 3.069 1.649 2912
2.201 3.073 1.638 4915
2.120 2.959 1.582 3852
2.148 2.999 1.589 5089
2.229 3.112 1.645 2711
2.215 3.092 1.622 6358
2.133 2.978 1.567 3337
2.221 3.101 1.614 9513
2.140 2.988 1.559 2031
2.220 3.099 1.600 7562
2.301 3.213 1.655 1433
2.213 3.090 1.584 5895
2.312 3.228 1.649 1384
2.224 3.106 1.578 5147
2.341 3.268 1.655 1663
2.244 3.133 1.579 4738
2.348 3.278 1.646 3153
2.251 3.143 1.570 4947
2.350 3.281 1.634 4011
2.297 3.206 1.587 4779
2.379 3.321 1.639 2751
2.325 3.246 1.592 4695
2.243 3.131 1.540 1836
2.336 3.262 1.586 3872
2.418 3.376 1.638 1515
2.391 3.338 1.607 4811
2.300 3.211 1.550 2467
2.393 3.341 1.595 5210
2.475 3.456 1.646 1430
2.443 3.411 1.612 4527
2.361 3.296 1.562 3521
2.446 3.415 1.600 3942
2.363 3.299 1.550 2931
2.426 3.388 1.575 3526
2.344 3.272 1.525 1802
2.494 3.482 1.602 3488
2.368 3.306 1.527 1965
2.466 3.443 1.571 4908
2.379 3.322 1.520 1476
2.473 3.453 1.562 4978
2.556 3.569 1.610 2306
2.545 3.554 1.590 3421
2.462 3.438 1.542 2363
2.543 3.551 1.575 3645
2.626 3.667 1.622 1409
2.537 3.542 1.557 3775
2.620 3.658 1.604 2055
2.539 3.546 1.545 2088
2.653 3.705 1.609 1805
2.599 3.629 1.564 2222
2.516 3.512 1.518 1695
2.614 3.650 1.558 3713
2.531 3.534 1.512 1767
2.630 3.672 1.552 5844
2.714 3.789 1.598 1927
2.641 3.688 1.544 5707
2.725 3.804 1.589 2477
2.705 3.777 1.564 4753
2.622 3.660 1.519 2308
2.716 3.793 1.555 3733
2.809 3.922 1.604 1423
2.719 3.796 1.542 3223
2.820 3.938 1.595 1627
2.796 3.904 1.567 2695
2.712 3.787 1.524 2333
2.763 3.858 1.535 3217
2.847 3.975 1.578 2199
2.819 3.936 1.548 3020
2.903 4.053 1.591 1805
2.826 3.945 1.536 3697
2.910 4.062 1.578 1970
2.832 3.955 1.525 4514
2.917 4.072 1.566 2946
2.835 3.958 1.511 3678
2.928 4.088 1.556 3402
2.979 4.159 1.565 2950
2.895 4.042 1.524 2313
2.990 4.175 1.555 3426
2.884 4.026 1.504 2736
3.006 4.197 1.546 3688
2.922 4.079 1.506 1619
3.035 4.238 1.544 5376
2.951 4.120 1.504 1405
3.055 4.266 1.537 4361
2.971 4.148 1.498 2178
3.080 4.300 1.532 6052
2.995 4.182 1.493 1508
3.078 4.297 1.515 4000
3.163 4.415 1.553 1327
3.152 4.400 1.531 5116
3.058 4.269 1.489 2025
3.154 4.403 1.516 6520
3.239 4.522 1.553 3056
3.156 4.407 1.500 5297
3.277 4.575 1.552 3715
3.284 4.585 1.538 5132
3.167 4.422 1.488 4020
3.291 4.594 1.524 6562
3.380 4.719 1.562 1708
3.297 4.604 1.509 5698
3.382 4.723 1.545 1937
3.331 4.651 1.506 4575
3.439 4.801 1.550 1702
3.356 4.685 1.498 3298
3.459 4.829 1.541 2337
3.466 4.839 1.525 3274
3.376 4.714 1.489 2444
3.441 4.805 1.497 3939
3.315 4.629 1.447 1658
3.439 4.801 1.478 3562
3.578 4.996 1.533 2227
3.450 4.817 1.465 2528
3.576 4.993 1.514 2094
3.493 4.877 1.463 2664
