-0.490 5.355 1.539 4090
-0.505 5.523 1.583 3129
-0.505 5.527 1.567 5410
-0.492 5.382 1.529 3736
-0.506 5.531 1.551 7044
-0.492 5.386 1.514 2164
-0.507 5.543 1.537 6243
-0.520 5.688 1.574 1622
-0.508 5.555 1.523 4752
-0.521 5.700 1.559 1732
-0.507 5.551 1.505 3866
-0.521 5.696 1.541 2730
-0.518 5.670 1.517 3393
-0.505 5.524 1.481 1525
-0.522 5.712 1.510 2508
-0.509 5.567 1.474 1383
-0.523 5.724 1.495 2514
-0.539 5.893 1.535 1988
-0.549 6.004 1.543 2692
-0.530 5.797 1.494 2586
-0.549 6.008 1.526 2681
-0.536 5.862 1.492 2457
-0.552 6.035 1.514 2693
-0.538 5.889 1.480 1970
-0.551 6.024 1.493 4351
-0.537 5.878 1.460 2207
-0.551 6.028 1.475 3709
-0.538 5.881 1.442 2264
-0.561 6.139 1.481 2444
-0.541 5.916 1.432 2132
-0.562 6.143 1.464 3690
-0.575 6.290 1.495 3636
-0.576 6.301 1.479 4132
-0.562 6.147 1.446 3442
-0.576 6.305 1.461 3752
-0.562 6.143 1.426 1922
-0.575 6.293 1.439 3151
-0.589 6.440 1.470 1605
-0.576 6.305 1.422 2362
-0.590 6.452 1.452 1682
-0.597 6.533 1.449 2585
-0.584 6.386 1.420 2175
-0.600 6.568 1.436 3919
-0.587 6.421 1.407 2581
-0.601 6.579 1.419 4495
-0.615 6.726 1.448 2520
-0.601 6.575 1.398 2955
-0.615 6.722 1.427 2064
-0.605 6.617 1.386 1672
-0.629 6.881 1.437 1167
-0.605 6.613 1.366 1584
-0.623 6.815 1.403 1512
-0.632 6.911 1.401 1581
-0.605 6.617 1.347 1095
-0.632 6.915 1.381 2033
-0.667 7.295 1.449 1590
-0.666 7.283 1.425 2129
-0.683 7.470 1.459 1820
-0.683 7.474 1.437 3083
-0.665 7.279 1.403 2501
-0.684 7.477 1.415 2955
-0.665 7.275 1.380 2536
-0.686 7.504 1.397 2334
-0.673 7.357 1.372 1937
-0.687 7.516 1.377 2094
-0.674 7.368 1.352 1461
-0.694 7.597 1.368 1781
-0.681 7.449 1.343 1594
-0.703 7.686 1.359 1638
-0.688 7.523 1.333 1159
-0.717 7.846 1.361 1429
-0.704 7.698 1.338 1270
-0.718 7.857 1.340 1498
-0.703 7.693 1.314 1145
-0.783 8.562 1.423 1454
-0.719 7.868 1.318 1415
-0.782 8.558 1.396 2015
-0.797 8.722 1.421 1675
-0.780 8.530 1.367 1758
-0.798 8.725 1.395 1496
-0.795 8.698 1.365 1497
-0.817 8.932 1.399 1345
-0.795 8.701 1.340 1542
-0.817 8.936 1.373 1375
-0.819 8.963 1.350 1680
-0.676 7.400 1.137 1372
-0.820 8.974 1.325 1919
-0.677 7.411 1.117 1828
-0.678 7.414 1.095 2030
-0.821 8.985 1.299 1304
-0.678 7.416 1.074 1956
-0.679 7.427 1.053 1784
-0.680 7.437 1.032 1588
-0.680 7.440 1.011 1259
-0.686 7.503 0.775 1029
-0.686 7.505 0.754 1329
-0.197 2.196 1.680 3865
-0.208 2.318 1.768 1103
-0.198 2.201 1.674 7730
-0.208 2.323 1.761 2207
-0.198 2.205 1.668 7730
-0.209 2.327 1.755 2207
-0.204 2.274 1.707 6228
-0.193 2.152 1.620 2852
-0.206 2.292 1.710 8035
-0.195 2.169 1.623 2857
-0.207 2.303 1.708 7086
-0.218 2.426 1.793 2759
-0.208 2.320 1.710 6870
-0.219 2.443 1.796 2421
-0.209 2.325 1.703 6870
-0.220 2.448 1.789 2421
-0.210 2.342 1.706 5263
-0.221 2.466 1.790 1319
-0.214 2.386 1.726 5475
-0.214 2.384 1.714 5801
-0.214 2.389 1.707 6146
-0.226 2.513 1.791 1236
-0.218 2.426 1.723 5409
-0.219 2.437 1.720 6368
-0.208 2.312 1.637 1097
-0.220 2.448 1.717 5390
-0.209 2.323 1.635 1346
-0.220 2.453 1.710 4473
-0.209 2.327 1.628 1120
-0.221 2.457 1.703 4476
-0.224 2.495 1.718 5109
-0.213 2.369 1.636 2547
-0.225 2.506 1.715 6070
-0.214 2.380 1.634 2362
-0.227 2.524 1.716 6884
-0.215 2.398 1.635 1926
-0.227 2.529 1.709 7931
-0.216 2.402 1.628 1149
-0.228 2.540 1.706 6493
-0.231 2.578 1.719 6314
-0.220 2.451 1.640 1263
-0.232 2.589 1.716 5250
-0.221 2.462 1.637 1044
-0.230 2.560 1.688 4695
-0.234 2.612 1.710 6352
-0.223 2.484 1.631 1086
-0.235 2.616 1.702 8336
-0.235 2.621 1.695 9960
-0.247 2.749 1.772 1553
-0.236 2.625 1.687 11584
-0.247 2.754 1.764 2603
-0.237 2.637 1.684 12020
-0.248 2.765 1.761 3266
-0.237 2.641 1.676 12476
-0.249 2.770 1.753 4086
-0.238 2.652 1.672 11331
-0.250 2.782 1.749 4122
-0.240 2.671 1.673 10803
-0.251 2.800 1.749 3400
-0.240 2.675 1.665 9399
-0.252 2.805 1.741 3997
-0.240 2.673 1.654 6998
-0.252 2.802 1.729 5216
-0.240 2.677 1.646 5947
-0.252 2.807 1.721 4456
-0.241 2.681 1.638 4643
-0.255 2.839 1.728 3415
-0.256 2.850 1.724 3977
-0.239 2.658 1.615 3607
-0.257 2.862 1.720 3950
-0.241 2.690 1.623 3538
-0.258 2.873 1.715 4204
-0.243 2.708 1.623 3897
-0.264 2.940 1.741 4483
-0.244 2.719 1.619 4014
-0.265 2.952 1.737 5454
-0.245 2.731 1.615 5176
-0.245 2.735 1.607 6140
-0.265 2.949 1.724 5422
-0.266 2.961 1.720 8676
-0.250 2.788 1.625 4692
-0.266 2.965 1.711 12015
-0.254 2.834 1.640 3943
-0.267 2.977 1.706 11018
-0.255 2.838 1.632 3008
-0.269 2.995 1.705 10697
-0.246 2.745 1.572 2553
-0.272 3.028 1.711 9843
-0.247 2.749 1.564 2605
-0.273 3.046 1.710 9189
-0.246 2.746 1.552 1799
-0.273 3.044 1.698 7673
-0.279 3.105 1.718 7498
-0.267 2.971 1.649 2973
-0.280 3.123 1.716 14208
-0.268 2.990 1.648 3712
-0.281 3.128 1.707 17761
-0.269 2.994 1.639 2931
-0.282 3.146 1.705 14635
-0.270 3.013 1.638 2414
-0.283 3.158 1.700 9164
-0.271 3.024 1.632 1569
-0.284 3.170 1.694 6446
-0.272 3.035 1.627 1732
-0.286 3.181 1.689 8731
-0.273 3.047 1.622 1679
-0.285 3.179 1.676 11465
-0.297 3.313 1.742 1466
-0.286 3.183 1.667 12423
-0.298 3.318 1.733 1853
-0.286 3.187 1.658 10423
-0.298 3.322 1.723 5150
-0.295 3.291 1.696 12199
-0.283 3.156 1.631 5363
-0.296 3.296 1.687 12215
-0.284 3.161 1.622 5837
-0.288 3.208 1.633 11450
-0.300 3.343 1.698 6131
-0.289 3.219 1.627 8472
-0.301 3.355 1.691 4699
-0.304 3.388 1.695 6453
-0.292 3.252 1.632 4300
-0.304 3.392 1.685 7578
-0.292 3.256 1.622 2439
-0.304 3.390 1.672 8273
-0.292 3.254 1.609 1828
-0.301 3.358 1.646 7875
-0.314 3.495 1.708 2989
-0.304 3.384 1.646 7425
-0.316 3.521 1.708 3107
-0.305 3.403 1.643 8598
-0.318 3.540 1.704 3144
-0.306 3.415 1.636 8046
-0.319 3.552 1.697 3345
-0.317 3.527 1.674 6787
-0.304 3.390 1.614 5586
-0.315 3.510 1.654 9775
-0.303 3.373 1.594 2278
-0.315 3.514 1.644 11063
-0.328 3.652 1.704 1175
-0.317 3.533 1.640 10440
-0.321 3.574 1.646 8540
-0.308 3.436 1.587 2128
-0.323 3.600 1.645 7644
-0.311 3.462 1.586 2215
-0.325 3.619 1.640 8030
-0.312 3.481 1.582 2156
-0.328 3.660 1.645 9147
-0.316 3.521 1.587 1903
-0.325 3.620 1.616 8299
-0.337 3.759 1.674 2775
-0.334 3.719 1.645 8869
-0.321 3.581 1.588 5104
-0.333 3.709 1.628 10658
-0.320 3.570 1.572 1573
-0.334 3.721 1.621 12718
-0.346 3.860 1.677 1869
-0.334 3.725 1.610 12736
-0.347 3.864 1.666 3886
-0.344 3.832 1.640 8930
-0.331 3.693 1.584 6320
-0.344 3.836 1.629 9324
-0.332 3.697 1.574 4753
-0.345 3.848 1.621 7567
-0.333 3.708 1.566 3281
-0.346 3.860 1.612 6460
-0.334 3.720 1.558 1777
-0.347 3.871 1.604 7862
-0.335 3.731 1.550 1767
-0.346 3.853 1.584 8020
-0.358 3.993 1.638 2170
-0.347 3.865 1.576 6693
-0.359 4.005 1.629 1852
-0.355 3.958 1.598 9883
-0.343 3.817 1.545 1661
-0.355 3.955 1.584 13706
-0.356 3.966 1.575 15818
-0.356 3.970 1.564 14387
-0.357 3.975 1.552 11465
-0.357 3.979 1.541 9168
-0.370 4.120 1.591 1136
-0.357 3.983 1.529 7828
-0.370 4.124 1.579 1998
-0.358 3.987 1.518 6540
-0.371 4.128 1.567 2530
-0.366 4.080 1.537 5175
-0.369 4.107 1.533 4714
-0.372 4.140 1.531 5735
-0.371 4.137 1.517 7180
-0.371 4.133 1.502 7662
-0.371 4.130 1.488 5865
-0.383 4.272 1.535 1646
-0.373 4.156 1.483 4193
-0.396 4.411 1.567 1509
-0.378 4.213 1.488 5608
-0.402 4.475 1.574 3206
-0.401 4.472 1.558 6291
-0.379 4.224 1.479 5796
-0.400 4.454 1.538 8880
-0.379 4.221 1.464 4631
-0.400 4.458 1.525 12156
-0.379 4.224 1.452 2679
-0.401 4.469 1.515 10164
-0.417 4.642 1.569 1644
-0.401 4.466 1.499 5597
-0.416 4.639 1.553 2734
-0.401 4.470 1.486 3832
-0.416 4.635 1.537 3498
-0.416 4.632 1.521 5543
-0.402 4.481 1.476 2833
-0.416 4.636 1.508 6788
-0.400 4.455 1.454 2598
-0.416 4.640 1.494 4437
-0.401 4.466 1.443 2875
-0.408 4.545 1.452 2525
-0.421 4.689 1.494 1554
-0.419 4.663 1.472 3085
-0.406 4.519 1.430 1283
-0.419 4.667 1.458 4061
-0.406 4.523 1.417 1034
-0.419 4.671 1.445 3709
-0.467 5.202 1.595 1212
-0.420 4.674 1.431 2929
-0.467 5.206 1.580 1758
-0.420 4.678 1.418 2675
-0.469 5.225 1.569 2092
-0.469 5.222 1.552 2529
-0.422 4.697 1.408 2143
-0.469 5.226 1.537 4013
-0.482 5.371 1.576 1943
-0.479 5.337 1.550 4313
-0.466 5.192 1.512 3006
-0.479 5.341 1.535 4131
-0.496 5.524 1.583 3445
-0.496 5.528 1.567 6222
-0.483 5.383 1.529 3619
-0.497 5.532 1.551 7747
-0.484 5.387 1.514 2179
-0.497 5.536 1.535 7091
-0.510 5.681 1.572 1334
-0.498 5.548 1.521 5159
-0.459 5.112 1.411 1469
-0.498 5.552 1.505 3635
-0.511 5.697 1.541 2701
-0.509 5.671 1.517 3347
-0.496 5.525 1.481 1276
-0.515 5.736 1.515 2177
-0.501 5.583 1.478 1327
-0.515 5.740 1.498 2237
-0.529 5.893 1.535 1979
-0.530 5.905 1.520 2520
-0.513 5.713 1.475 2504
-0.539 6.009 1.526 2653
-0.519 5.779 1.472 2485
-0.542 6.036 1.514 2595
-0.528 5.882 1.478 2087
-0.541 6.032 1.494 4088
-0.528 5.886 1.461 2252
-0.542 6.036 1.477 3591
-0.529 5.890 1.444 2679
-0.552 6.148 1.483 2410
-0.531 5.917 1.432 2306
-0.564 6.283 1.494 3749
-0.551 6.136 1.462 3428
-0.566 6.302 1.479 4059
-0.552 6.156 1.447 3324
-0.566 6.306 1.461 3583
-0.551 6.144 1.426 1899
-0.565 6.294 1.439 3228
-0.591 6.588 1.500 1628
-0.566 6.306 1.422 2695
-0.589 6.561 1.475 1940
-0.586 6.534 1.449 2894
-0.573 6.387 1.420 2104
-0.590 6.568 1.436 4288
-0.576 6.422 1.407 2494
-0.591 6.580 1.419 4637
-0.604 6.727 1.448 2381
-0.591 6.584 1.400 3409
-0.604 6.731 1.428 1958
-0.592 6.595 1.382 2173
-0.594 6.614 1.366 1902
-0.612 6.816 1.403 1462
-0.620 6.912 1.401 1513
-0.594 6.618 1.347 1377
-0.620 6.908 1.379 2035
-0.654 7.289 1.448 1453
-0.653 7.277 1.424 2060
-0.671 7.471 1.459 1732
-0.671 7.475 1.437 3026
-0.653 7.273 1.402 2373
-0.672 7.486 1.416 2785
-0.653 7.276 1.380 2433
-0.675 7.521 1.400 2347
-0.662 7.373 1.375 2049
-0.675 7.525 1.378 2132
-0.662 7.377 1.354 1639
-0.680 7.575 1.364 1790
-0.667 7.427 1.340 1557
-0.682 7.594 1.344 1662
-0.668 7.438 1.319 1101
-0.705 7.855 1.362 1482
-0.683 7.613 1.325 1404
-0.706 7.866 1.341 1626
-0.727 8.100 1.377 1196
-0.706 7.869 1.318 1395
-0.769 8.563 1.423 1321
-0.768 8.559 1.396 1899
-0.783 8.723 1.421 1421
-0.765 8.524 1.366 1766
-0.783 8.727 1.395 1407
-0.781 8.699 1.365 1492
-0.765 8.520 1.340 1318
-0.781 8.703 1.340 1481
-0.802 8.937 1.373 1317
-0.809 9.019 1.357 1767
-0.779 8.675 1.310 1026
-0.806 8.983 1.326 1873
-0.807 8.994 1.300 1288
-0.671 7.477 0.817 1044
-0.671 7.479 0.795 1151
-0.190 2.216 1.694 3592
-0.191 2.221 1.688 7185
-0.201 2.343 1.775 1780
-0.191 2.225 1.682 7185
-0.202 2.348 1.768 1780
-0.196 2.275 1.707 6308
-0.206 2.397 1.794 2026
-0.197 2.292 1.710 8216
-0.208 2.415 1.796 2598
-0.199 2.310 1.712 7130
-0.209 2.433 1.798 2388
-0.199 2.321 1.710 6674
-0.210 2.444 1.796 2373
-0.200 2.325 1.703 6674
-0.211 2.449 1.789 2373
-0.201 2.337 1.701 5068
-0.211 2.460 1.786 1712
-0.206 2.393 1.730 4380
-0.206 2.391 1.719 4911
-0.205 2.383 1.703 5707
-0.216 2.507 1.787 1720
-0.209 2.433 1.727 5330
-0.198 2.309 1.644 1233
-0.211 2.451 1.729 6695
-0.200 2.326 1.646 2243
-0.212 2.469 1.730 6110
-0.201 2.344 1.648 3050
-0.213 2.480 1.728 5904
-0.202 2.355 1.645 3129
-0.214 2.485 1.721 5918
-0.203 2.359 1.639 2941
-0.214 2.489 1.713 6385
-0.203 2.363 1.632 2338
-0.216 2.507 1.715 7054
-0.205 2.381 1.634 2305
-0.216 2.518 1.712 7706
-0.206 2.392 1.631 1606
-0.217 2.530 1.709 8726
-0.207 2.403 1.628 1064
-0.218 2.534 1.702 7277
-0.222 2.579 1.719 6691
-0.211 2.452 1.640 1112
-0.220 2.563 1.700 6448
-0.221 2.568 1.692 6823
-0.224 2.606 1.706 6772
-0.225 2.617 1.702 8641
-0.225 2.622 1.695 9652
-0.236 2.750 1.772 1331
-0.226 2.633 1.691 10750
-0.237 2.762 1.769 2063
-0.227 2.638 1.684 11221
-0.238 2.766 1.761 2708
-0.228 2.649 1.680 11709
-0.239 2.778 1.757 3049
-0.229 2.660 1.676 11731
-0.240 2.789 1.753 2938
-0.230 2.671 1.673 12796
-0.241 2.801 1.749 2682
-0.230 2.676 1.665 12067
-0.241 2.806 1.741 2822
-0.230 2.680 1.657 9577
-0.242 2.810 1.733 2963
-0.231 2.685 1.650 7897
-0.242 2.815 1.725 2516
-0.231 2.689 1.642 6285
-0.245 2.847 1.732 2765
-0.231 2.687 1.630 4648
-0.246 2.858 1.728 3508
-0.232 2.698 1.627 4949
-0.247 2.870 1.723 3856
-0.233 2.716 1.627 5562
-0.248 2.888 1.723 4479
-0.253 2.941 1.741 5335
-0.237 2.755 1.638 4688
-0.253 2.946 1.733 6413
-0.238 2.766 1.634 5041
-0.254 2.957 1.728 6161
-0.239 2.784 1.633 5019
-0.255 2.969 1.724 9065
-0.242 2.816 1.641 5435
-0.256 2.973 1.715 12185
-0.244 2.835 1.640 5772
-0.257 2.985 1.710 10750
-0.244 2.839 1.632 4795
-0.258 3.003 1.709 9875
-0.245 2.850 1.627 3424
-0.260 3.029 1.711 10591
-0.245 2.847 1.615 2413
-0.261 3.040 1.706 10149
-0.243 2.824 1.593 1548
-0.262 3.045 1.698 8373
-0.242 2.821 1.581 1282
-0.266 3.099 1.714 7394
-0.255 2.965 1.645 3638
-0.269 3.124 1.716 13716
-0.257 2.991 1.648 5487
-0.269 3.129 1.707 17149
-0.257 2.995 1.639 4644
-0.270 3.140 1.702 14136
-0.258 3.007 1.634 3330
-0.272 3.166 1.703 9793
-0.261 3.032 1.636 1988
-0.273 3.171 1.694 7551
-0.261 3.036 1.627 1935
-0.273 3.175 1.685 8752
-0.261 3.041 1.618 1801
-0.273 3.180 1.676 11999
-0.285 3.314 1.742 1413
-0.274 3.184 1.667 14130
-0.285 3.319 1.733 1792
-0.275 3.196 1.661 13160
-0.286 3.331 1.726 4561
-0.283 3.293 1.696 14556
-0.271 3.157 1.631 6194
-0.284 3.304 1.690 15218
-0.272 3.169 1.626 8473
-0.284 3.309 1.681 12230
-0.273 3.173 1.616 6993
-0.277 3.227 1.631 10292
-0.289 3.363 1.695 4081
-0.291 3.389 1.695 7263
-0.280 3.253 1.632 5483
-0.291 3.386 1.682 9689
-0.279 3.250 1.619 2091
-0.292 3.398 1.675 9863
-0.280 3.262 1.613 2357
-0.292 3.403 1.666 8366
-0.281 3.266 1.603 2354
-0.292 3.400 1.653 8418
-0.304 3.536 1.714 2283
-0.293 3.411 1.646 10230
-0.305 3.548 1.707 2519
-0.294 3.416 1.636 9453
-0.305 3.553 1.697 2974
-0.295 3.435 1.633 7082
-0.307 3.572 1.693 2403
-0.301 3.504 1.651 10442
-0.289 3.367 1.591 1701
-0.302 3.516 1.644 12116
-0.314 3.653 1.704 1181
-0.304 3.534 1.640 11634
-0.316 3.672 1.700 1222
-0.308 3.582 1.649 9754
-0.296 3.444 1.590 2329
-0.310 3.608 1.648 8820
-0.298 3.470 1.589 2694
-0.311 3.620 1.640 8184
-0.299 3.482 1.582 2560
-0.317 3.690 1.657 8990
-0.305 3.552 1.600 2457
-0.319 3.709 1.653 10312
-0.307 3.570 1.595 4573
-0.320 3.721 1.645 10161
-0.308 3.582 1.588 4008
-0.319 3.710 1.628 10953
-0.307 3.572 1.572 1460
-0.320 3.722 1.621 13558
-0.332 3.861 1.677 2310
-0.321 3.734 1.613 13991
-0.333 3.873 1.669 3893
-0.330 3.841 1.643 11297
-0.318 3.701 1.587 4756
-0.330 3.838 1.629 12206
-0.318 3.698 1.574 3409
-0.331 3.849 1.621 10652
-0.319 3.710 1.566 3391
-0.332 3.861 1.612 8699
-0.320 3.721 1.558 2398
-0.333 3.880 1.607 10022
-0.321 3.740 1.553 2501
-0.332 3.862 1.587 9562
-0.344 4.002 1.640 1514
-0.332 3.859 1.573 8158
-0.344 3.999 1.626 3219
-0.340 3.959 1.598 12285
-0.328 3.819 1.545 1818
-0.340 3.956 1.584 16797
-0.340 3.960 1.572 17375
-0.352 4.101 1.624 1306
-0.341 3.972 1.564 15357
-0.353 4.113 1.615 1433
-0.342 3.976 1.552 12452
-0.354 4.117 1.603 1659
-0.342 3.980 1.541 10155
-0.354 4.121 1.591 2236
-0.342 3.984 1.529 8643
-0.355 4.125 1.579 2781
-0.343 3.988 1.518 6793
-0.355 4.129 1.567 2948
-0.351 4.089 1.540 5291
-0.339 3.947 1.490 1494
-0.353 4.108 1.533 4790
-0.357 4.157 1.536 5111
-0.355 4.131 1.514 5612
-0.355 4.127 1.500 4966
-0.367 4.270 1.547 1241
-0.355 4.131 1.488 3608
-0.367 4.274 1.535 1952
-0.359 4.180 1.491 4075
-0.379 4.413 1.567 2001
-0.363 4.222 1.491 5889
-0.382 4.439 1.561 2552
-0.363 4.226 1.479 6767
-0.384 4.466 1.556 4660
-0.383 4.455 1.538 7174
-0.364 4.229 1.466 4992
-0.383 4.452 1.523 9259
-0.364 4.233 1.454 2839
-0.383 4.456 1.510 7135
-0.395 4.599 1.554 1285
-0.383 4.460 1.497 4722
-0.396 4.603 1.541 1679
-0.384 4.471 1.486 3299
-0.400 4.652 1.542 1723
-0.398 4.634 1.521 3996
-0.385 4.482 1.476 1901
-0.399 4.638 1.508 5947
-0.382 4.441 1.449 2020
-0.399 4.641 1.494 4221
-0.382 4.445 1.436 1926
-0.391 4.555 1.454 2833
-0.404 4.698 1.497 1935
-0.402 4.672 1.474 3465
-0.389 4.528 1.432 1874
-0.401 4.668 1.458 3551
-0.389 4.524 1.417 1159
-0.402 4.672 1.445 2995
-0.449 5.219 1.600 1323
-0.401 4.668 1.429 2618
-0.448 5.215 1.582 1630
-0.451 5.242 1.573 2646
-0.401 4.664 1.414 2370
-0.451 5.247 1.558 3374
-0.392 4.562 1.371 2120
-0.451 5.251 1.543 3923
-0.392 4.558 1.356 1782
-0.458 5.323 1.546 5892
-0.445 5.178 1.507 1723
-0.458 5.327 1.531 4033
-0.474 5.518 1.581 3536
-0.475 5.530 1.567 6765
-0.463 5.385 1.529 3024
-0.476 5.534 1.551 7953
-0.463 5.389 1.514 1759
-0.476 5.538 1.535 7971
-0.464 5.393 1.498 1406
-0.476 5.542 1.519 6420
-0.489 5.687 1.555 1662
-0.486 5.653 1.529 4030
-0.473 5.508 1.493 2128
-0.487 5.665 1.515 3660
-0.499 5.811 1.551 2253
-0.496 5.776 1.524 2685
-0.484 5.631 1.489 1930
-0.498 5.788 1.509 2635
-0.510 5.934 1.544 1407
-0.495 5.761 1.485 3118
-0.508 5.907 1.520 2160
-0.496 5.765 1.469 3473
-0.508 5.911 1.503 2610
-0.498 5.792 1.457 2942
-0.520 6.046 1.516 2131
-0.520 6.050 1.498 3204
-0.507 5.904 1.465 2009
-0.520 6.046 1.479 3240
-0.507 5.900 1.446 2591
-0.509 5.919 1.432 2299
-0.529 6.150 1.483 2102
-0.540 6.285 1.494 3843
-0.528 6.138 1.462 2845
-0.541 6.289 1.476 4176
-0.528 6.142 1.444 2567
-0.541 6.293 1.457 3220
-0.528 6.146 1.426 1521
-0.541 6.289 1.437 3171
-0.566 6.582 1.499 2357
-0.542 6.308 1.422 3246
-0.565 6.571 1.476 2577
-0.564 6.567 1.456 3432
-0.545 6.335 1.409 2284
-0.564 6.563 1.435 4872
-0.551 6.408 1.404 2069
-0.566 6.590 1.420 4765
-0.550 6.404 1.384 1647
-0.567 6.601 1.403 4250
-0.591 6.880 1.457 1560
-0.568 6.605 1.384 3015
-0.589 6.853 1.431 1480
-0.569 6.624 1.367 2225
-0.587 6.833 1.406 1281
-0.593 6.899 1.398 1696
-0.570 6.628 1.348 1676
-0.593 6.895 1.376 2442
-0.624 7.260 1.442 1527
-0.624 7.256 1.420 2329
-0.606 7.046 1.383 1956
-0.625 7.267 1.400 2539
-0.643 7.477 1.437 2500
-0.649 7.551 1.427 3081
-0.625 7.271 1.379 2651
-0.648 7.539 1.403 2664
-0.625 7.275 1.358 1918
-0.648 7.535 1.379 2224
-0.635 7.387 1.355 1594
-0.650 7.562 1.361 1955
-0.637 7.414 1.337 1461
-0.652 7.589 1.343 1867
-0.640 7.441 1.319 1085
-0.655 7.623 1.326 1849
-0.676 7.865 1.364 1432
-0.676 7.868 1.341 1608
-0.656 7.635 1.305 1401
-0.734 8.543 1.419 1503
-0.677 7.880 1.319 1351
-0.736 8.562 1.396 1779
-0.687 7.992 1.312 1098
-0.733 8.527 1.366 1723
-0.751 8.737 1.396 1070
-0.734 8.538 1.342 1452
-0.748 8.702 1.365 1171
-0.776 9.026 1.384 1398
-0.749 8.713 1.341 1098
-0.775 9.022 1.357 1984
-0.745 8.670 1.309 1042
-0.772 8.986 1.326 1814
-0.773 8.997 1.300 1422
-0.792 9.216 1.329 1020
-0.211 2.227 1.703 3367
-0.212 2.232 1.697 6735
-0.223 2.354 1.784 1177
-0.212 2.236 1.691 6735
-0.224 2.358 1.778 1177
-0.216 2.273 1.707 6117
-0.227 2.395 1.794 1919
-0.217 2.290 1.710 7875
-0.229 2.413 1.796 2509
-0.219 2.308 1.712 6731
-0.231 2.431 1.798 2311
-0.220 2.319 1.710 6110
-0.232 2.442 1.796 2312
-0.220 2.324 1.703 6110
-0.232 2.447 1.789 2312
-0.221 2.328 1.697 4724
-0.233 2.452 1.781 2012
-0.223 2.346 1.699 3455
-0.236 2.483 1.792 1420
-0.223 2.350 1.692 4093
-0.235 2.474 1.776 2280
-0.226 2.381 1.703 5171
-0.238 2.505 1.787 1861
-0.233 2.458 1.744 5334
-0.221 2.333 1.661 3420
-0.234 2.462 1.737 7103
-0.222 2.337 1.654 3363
-0.235 2.474 1.735 7013
-0.223 2.348 1.652 3265
-0.235 2.478 1.728 7055
-0.223 2.353 1.645 2829
-0.235 2.476 1.716 6929
-0.223 2.351 1.634 2202
-0.236 2.487 1.713 7043
-0.224 2.361 1.632 2039
-0.237 2.499 1.711 7469
-0.225 2.372 1.629 1885
-0.238 2.510 1.708 7905
-0.226 2.383 1.627 1348
-0.240 2.528 1.709 8868
-0.241 2.539 1.706 7531
-0.244 2.570 1.715 6855
-0.243 2.561 1.700 7084
-0.243 2.566 1.692 7651
-0.246 2.597 1.701 6931
-0.248 2.615 1.702 8080
-0.249 2.620 1.695 8814
-0.261 2.748 1.772 1167
-0.250 2.631 1.691 9589
-0.262 2.759 1.769 1753
-0.250 2.636 1.684 9975
-0.262 2.764 1.761 2250
-0.251 2.647 1.680 10475
-0.263 2.776 1.757 2500
-0.252 2.658 1.676 11204
-0.264 2.787 1.753 2503
-0.253 2.669 1.673 12907
-0.266 2.799 1.749 2371
-0.254 2.674 1.665 12606
-0.266 2.803 1.741 2380
-0.254 2.678 1.657 10406
-0.266 2.808 1.733 2388
-0.255 2.683 1.650 8594
-0.267 2.813 1.725 1985
-0.255 2.687 1.642 7108
-0.271 2.851 1.736 2463
-0.255 2.691 1.634 5534
-0.271 2.856 1.728 3274
-0.256 2.703 1.630 5795
-0.273 2.874 1.727 3794
-0.258 2.721 1.630 6295
-0.276 2.913 1.738 4831
-0.278 2.932 1.738 5614
-0.259 2.732 1.626 4896
-0.279 2.943 1.733 6626
-0.262 2.757 1.630 4077
-0.280 2.955 1.728 6540
-0.263 2.768 1.626 3960
-0.281 2.966 1.724 9316
-0.268 2.821 1.644 5039
-0.282 2.971 1.715 12011
-0.268 2.825 1.636 5723
-0.283 2.983 1.710 10298
-0.269 2.837 1.632 4701
-0.287 3.022 1.720 9356
-0.270 2.848 1.627 3353
-0.287 3.027 1.711 10544
-0.271 2.852 1.619 2310
-0.288 3.038 1.706 10030
-0.276 2.905 1.637 1211
-0.289 3.050 1.701 8094
-0.293 3.089 1.711 6778
-0.280 2.956 1.642 3548
-0.296 3.122 1.716 12390
-0.284 2.988 1.648 6488
-0.297 3.126 1.707 15581
-0.284 2.993 1.639 5614
-0.298 3.138 1.702 13067
-0.285 3.004 1.634 3905
-0.300 3.164 1.703 10163
-0.287 3.030 1.636 2233
-0.301 3.168 1.694 8538
-0.288 3.034 1.627 2093
-0.301 3.173 1.685 8902
-0.288 3.038 1.618 1982
-0.301 3.177 1.676 12114
-0.289 3.043 1.610 1526
-0.303 3.189 1.670 15016
-0.315 3.323 1.736 1538
-0.303 3.193 1.661 14839
-0.316 3.328 1.726 4018
-0.312 3.290 1.696 14635
-0.299 3.155 1.631 6298
-0.313 3.302 1.690 15783
-0.300 3.166 1.626 8422
-0.314 3.306 1.681 12656
-0.301 3.171 1.616 6913
-0.307 3.232 1.634 10913
-0.320 3.368 1.698 4025
-0.320 3.372 1.688 7838
-0.307 3.236 1.625 5521
-0.320 3.377 1.679 11212
-0.305 3.219 1.606 2004
-0.321 3.388 1.672 10662
-0.309 3.252 1.609 1956
-0.323 3.407 1.669 8856
-0.310 3.271 1.607 2935
-0.323 3.404 1.656 8438
-0.336 3.541 1.718 1796
-0.323 3.409 1.646 10075
-0.336 3.545 1.707 2296
-0.324 3.413 1.636 9296
-0.337 3.550 1.697 2747
-0.326 3.432 1.633 7024
-0.339 3.569 1.693 1994
-0.332 3.501 1.651 10043
-0.319 3.364 1.591 1512
-0.333 3.513 1.644 11762
-0.346 3.650 1.704 1489
-0.335 3.532 1.640 11477
-0.348 3.669 1.700 1494
-0.341 3.594 1.655 10343
-0.328 3.456 1.596 3090
-0.343 3.613 1.651 9180
-0.330 3.475 1.592 3266
-0.344 3.624 1.643 7879
-0.331 3.486 1.585 3123
-0.351 3.702 1.663 8843
-0.338 3.563 1.606 2781
-0.352 3.706 1.653 10601
-0.338 3.568 1.595 3614
-0.353 3.718 1.645 9995
-0.340 3.579 1.588 3002
-0.352 3.707 1.628 10100
-0.365 3.846 1.685 1310
-0.353 3.719 1.621 12638
-0.366 3.858 1.677 2427
-0.354 3.731 1.613 13403
-0.367 3.870 1.669 4140
-0.363 3.830 1.640 11868
-0.345 3.640 1.564 4555
-0.364 3.835 1.629 13182
-0.351 3.695 1.574 2435
-0.365 3.846 1.621 11576
-0.352 3.707 1.566 3229
-0.367 3.865 1.615 9490
-0.353 3.725 1.561 3051
-0.369 3.884 1.610 11136
-0.355 3.744 1.556 3022
-0.367 3.866 1.590 10031
-0.354 3.726 1.537 1039
-0.366 3.856 1.573 8382
-0.379 3.996 1.626 3251
-0.375 3.956 1.598 12636
-0.362 3.816 1.545 1876
-0.375 3.953 1.584 17198
-0.388 4.093 1.636 1136
-0.375 3.957 1.572 16859
-0.389 4.098 1.624 1651
-0.377 3.969 1.564 14733
-0.390 4.109 1.615 1727
-0.377 3.973 1.552 12055
-0.390 4.114 1.603 2240
-0.377 3.977 1.541 9675
-0.391 4.118 1.591 3118
-0.378 3.981 1.529 7943
-0.391 4.122 1.579 3396
-0.378 3.985 1.518 6000
-0.391 4.126 1.567 3288
-0.388 4.093 1.542 5410
-0.375 3.952 1.493 1781
-0.389 4.097 1.530 4864
-0.395 4.161 1.539 5122
-0.391 4.120 1.512 5375
-0.391 4.124 1.500 5066
-0.405 4.266 1.547 1162
-0.392 4.135 1.490 5080
-0.406 4.278 1.537 1625
-0.395 4.162 1.486 4028
-0.418 4.409 1.567 2267
-0.400 4.218 1.491 5771
-0.419 4.421 1.557 2502
-0.401 4.222 1.479 7204
-0.423 4.462 1.556 3940
-0.422 4.451 1.538 6090
-0.401 4.226 1.466 4780
-0.422 4.448 1.523 7322
-0.402 4.237 1.456 2655
-0.422 4.452 1.510 5792
-0.436 4.595 1.554 1675
-0.423 4.463 1.499 4667
-0.437 4.607 1.543 1293
-0.424 4.467 1.486 4022
-0.443 4.671 1.549 1136
-0.439 4.630 1.521 2994
-0.424 4.471 1.473 2197
-0.440 4.634 1.508 5145
-0.426 4.490 1.465 1923
-0.439 4.630 1.492 3930
-0.426 4.487 1.450 1963
-0.432 4.551 1.454 2726
-0.445 4.695 1.497 2137
-0.444 4.676 1.476 3189
-0.430 4.532 1.435 2354
-0.443 4.672 1.461 2992
-0.430 4.528 1.419 1364
-0.444 4.676 1.447 2534
-0.495 5.215 1.600 1398
-0.443 4.665 1.429 2199
-0.497 5.242 1.591 1562
-0.497 5.238 1.573 2773
-0.441 4.653 1.412 2003
-0.497 5.242 1.558 3667
-0.432 4.558 1.371 2009
-0.503 5.300 1.557 4290
-0.432 4.554 1.356 1696
-0.505 5.319 1.546 6414
-0.448 4.725 1.387 1206
-0.504 5.315 1.529 4047
-0.523 5.514 1.581 3121
-0.524 5.518 1.565 5658
-0.510 5.373 1.527 2496
-0.525 5.530 1.551 6830
-0.511 5.385 1.514 1301
-0.525 5.534 1.535 7375
-0.539 5.679 1.572 1581
-0.525 5.538 1.519 6374
-0.539 5.683 1.555 1930
-0.536 5.649 1.529 4593
-0.522 5.503 1.493 2094
-0.537 5.660 1.515 3911
-0.551 5.806 1.551 2483
-0.547 5.764 1.523 3183
-0.533 5.618 1.487 1541
-0.548 5.776 1.508 2919
-0.562 5.921 1.542 1376
-0.546 5.757 1.485 3297
-0.560 5.902 1.520 1680
-0.547 5.761 1.469 3864
-0.560 5.906 1.503 2463
-0.549 5.787 1.457 3643
-0.563 5.933 1.491 1911
-0.552 5.814 1.446 2435
-0.576 6.068 1.503 2392
-0.576 6.072 1.486 2965
-0.562 5.926 1.453 2434
-0.574 6.053 1.463 2264
-0.560 5.906 1.431 2111
-0.595 6.272 1.492 3825
-0.581 6.126 1.460 2094
-0.595 6.276 1.474 4313
-0.582 6.130 1.442 1775
-0.596 6.280 1.456 3014
-0.624 6.573 1.518 1341
-0.595 6.276 1.436 3005
-0.623 6.569 1.497 2555
-0.598 6.303 1.422 3497
-0.623 6.565 1.476 2817
-0.623 6.562 1.456 3564
-0.600 6.322 1.407 2404
-0.623 6.565 1.436 4429
-0.605 6.380 1.399 1898
-0.626 6.600 1.423 4323
-0.607 6.399 1.384 1360
-0.626 6.596 1.403 4320
-0.652 6.875 1.457 1744
-0.626 6.600 1.384 3283
-0.640 6.747 1.412 1973
-0.628 6.619 1.367 2345
-0.642 6.766 1.395 1723
-0.628 6.622 1.348 1758
-0.653 6.886 1.396 1712
-0.654 6.890 1.376 2558
-0.688 7.246 1.441 1602
-0.687 7.242 1.419 2487
-0.667 7.033 1.381 2062
-0.700 7.378 1.421 2648
-0.686 7.230 1.395 2233
-0.715 7.537 1.426 3323
-0.689 7.265 1.379 2722
-0.715 7.533 1.403 2867
-0.690 7.269 1.358 1931
-0.714 7.529 1.379 2268
-0.700 7.381 1.355 1373
-0.717 7.556 1.361 2046
-0.703 7.408 1.337 1421
-0.719 7.575 1.342 2003
-0.745 7.855 1.387 1127
-0.723 7.617 1.326 2065
-0.746 7.859 1.364 1418
-0.724 7.628 1.305 1613
-0.747 7.870 1.342 1564
-0.810 8.536 1.419 1733
-0.748 7.881 1.320 1424
-0.811 8.547 1.395 1700
-0.758 7.994 1.313 1037
-0.809 8.528 1.367 1631
-0.810 8.539 1.343 1473
-0.827 8.718 1.369 1021
-0.855 9.011 1.383 1334
-0.855 9.014 1.357 1926
-0.832 8.764 1.323 1052
-0.853 8.987 1.327 1693
-0.833 8.776 1.299 1120
-0.852 8.982 1.299 1394
-0.874 9.209 1.329 1024
-0.205 2.228 1.703 3334
-0.205 2.232 1.697 6668
-0.216 2.354 1.784 1135
-0.206 2.237 1.691 6668
-0.217 2.359 1.778 1135
-0.208 2.261 1.698 6096
-0.220 2.390 1.789 1812
-0.210 2.291 1.710 7448
-0.222 2.414 1.796 2448
-0.211 2.302 1.708 6385
-0.223 2.425 1.793 2577
-0.213 2.313 1.705 5717
-0.224 2.436 1.791 2699
-0.213 2.318 1.699 5717
-0.224 2.441 1.784 2699
-0.213 2.322 1.692 4593
-0.225 2.446 1.777 2222
-0.214 2.327 1.686 3470
-0.225 2.451 1.770 1746
-0.216 2.351 1.692 4059
-0.227 2.475 1.776 2380
-0.218 2.375 1.699 4958
-0.230 2.499 1.782 2350
-0.226 2.458 1.744 5690
-0.214 2.334 1.661 3561
-0.226 2.463 1.737 7873
-0.215 2.338 1.654 3290
-0.227 2.468 1.730 8143
-0.215 2.342 1.648 2611
-0.228 2.479 1.728 8424
-0.216 2.353 1.645 2256
-0.228 2.477 1.716 8392
-0.216 2.351 1.634 1726
-0.228 2.481 1.709 8101
-0.216 2.355 1.628 1285
-0.230 2.499 1.711 8050
-0.218 2.373 1.629 1491
-0.231 2.510 1.708 8204
-0.219 2.384 1.627 1089
-0.232 2.528 1.709 9168
-0.233 2.540 1.706 8005
-0.236 2.571 1.715 7362
-0.236 2.569 1.704 7798
-0.236 2.573 1.696 8348
-0.238 2.591 1.697 7399
-0.240 2.609 1.698 7578
-0.241 2.620 1.695 8292
-0.241 2.625 1.687 9032
-0.253 2.753 1.764 1383
-0.242 2.636 1.684 8752
-0.254 2.765 1.761 1719
-0.243 2.648 1.680 8782
-0.255 2.776 1.757 1916
-0.245 2.666 1.680 10114
-0.257 2.795 1.757 1820
-0.246 2.677 1.677 12120
-0.258 2.806 1.753 1861
-0.246 2.674 1.665 12070
-0.258 2.804 1.741 2154
-0.246 2.679 1.657 10377
-0.258 2.809 1.733 2144
-0.247 2.690 1.654 8776
-0.259 2.820 1.728 1851
-0.248 2.695 1.646 7682
-0.263 2.859 1.740 2842
-0.248 2.699 1.638 6414
-0.263 2.864 1.732 3513
-0.248 2.703 1.630 6278
-0.265 2.882 1.731 4080
-0.247 2.694 1.615 6223
-0.268 2.914 1.738 5218
-0.269 2.933 1.738 5687
-0.250 2.719 1.619 5087
-0.270 2.944 1.733 6487
-0.252 2.744 1.622 4281
-0.272 2.956 1.728 6663
-0.252 2.748 1.615 4105
-0.273 2.967 1.724 9359
-0.259 2.822 1.644 4425
-0.273 2.972 1.715 11565
-0.260 2.833 1.640 5177
-0.274 2.983 1.710 9835
-0.261 2.837 1.632 4452
-0.278 3.023 1.720 9188
-0.262 2.849 1.627 3172
-0.278 3.027 1.711 10318
-0.266 2.895 1.641 2244
-0.279 3.039 1.706 9313
-0.267 2.906 1.637 1246
-0.280 3.050 1.701 7238
-0.276 2.999 1.663 6784
-0.288 3.132 1.732 4058
-0.287 3.123 1.716 10381
-0.275 2.989 1.648 7397
-0.287 3.127 1.707 13325
-0.275 2.994 1.639 6585
-0.288 3.139 1.702 11627
-0.276 3.005 1.634 4461
-0.291 3.164 1.703 10806
-0.278 3.031 1.636 2630
-0.291 3.169 1.694 10074
-0.279 3.035 1.627 2432
-0.292 3.173 1.685 9495
-0.279 3.039 1.618 2236
-0.293 3.185 1.679 12411
-0.280 3.051 1.613 2129
-0.293 3.190 1.670 15928
-0.305 3.324 1.736 1676
-0.294 3.201 1.664 16361
-0.306 3.336 1.730 2744
-0.294 3.205 1.655 13770
-0.307 3.341 1.720 5251
-0.303 3.302 1.690 15417
-0.291 3.167 1.626 7916
-0.304 3.307 1.681 12446
-0.291 3.171 1.616 6543
-0.298 3.240 1.638 11560
-0.310 3.376 1.701 4667
-0.308 3.352 1.678 9966
-0.295 3.216 1.615 4825
-0.310 3.370 1.675 13514
-0.296 3.227 1.609 1978
-0.311 3.382 1.669 11782
-0.298 3.246 1.606 2092
-0.314 3.415 1.672 9702
-0.301 3.279 1.610 3558
-0.314 3.420 1.662 8715
-0.302 3.283 1.600 2089
-0.315 3.424 1.652 9482
-0.327 3.561 1.714 1840
-0.314 3.421 1.639 8575
-0.327 3.558 1.700 2452
-0.323 3.512 1.668 6474
-0.310 3.375 1.607 3946
-0.322 3.502 1.651 8684
-0.334 3.639 1.712 1787
-0.323 3.514 1.644 10158
-0.335 3.651 1.704 2014
-0.331 3.598 1.669 10749
-0.318 3.460 1.609 3946
-0.332 3.609 1.661 11746
-0.319 3.472 1.602 3849
-0.334 3.636 1.660 9781
-0.321 3.498 1.601 3920
-0.334 3.640 1.650 7448
-0.322 3.502 1.591 3667
-0.333 3.623 1.630 8238
-0.346 3.761 1.688 2557
-0.341 3.707 1.653 10077
-0.328 3.569 1.595 2935
-0.342 3.719 1.645 9001
-0.329 3.580 1.588 2016
-0.341 3.708 1.628 8327
-0.353 3.847 1.685 1408
-0.342 3.720 1.621 10345
-0.355 3.859 1.677 2544
-0.344 3.739 1.616 11624
-0.356 3.878 1.671 3309
-0.352 3.831 1.640 12090
-0.335 3.648 1.567 4510
-0.352 3.836 1.629 13337
-0.338 3.674 1.565 2121
-0.353 3.847 1.621 11431
-0.341 3.708 1.566 3032
-0.356 3.874 1.618 9868
-0.343 3.734 1.564 3787
-0.357 3.885 1.610 12199
-0.344 3.745 1.556 3032
-0.357 3.882 1.596 10256
-0.344 3.742 1.542 1557
-0.354 3.857 1.573 7687
-0.367 3.997 1.626 3528
-0.364 3.964 1.601 12409
-0.351 3.824 1.548 2417
-0.364 3.961 1.586 16660
-0.377 4.102 1.639 1192
-0.364 3.958 1.572 15339
-0.377 4.099 1.624 1958
-0.365 3.970 1.564 13091
-0.378 4.110 1.615 1930
-0.365 3.974 1.552 10737
-0.378 4.115 1.603 2650
-0.365 3.978 1.541 8350
-0.378 4.119 1.591 3937
-0.366 3.989 1.532 6169
-0.379 4.131 1.582 4164
-0.378 4.112 1.562 4409
-0.365 3.971 1.512 3831
-0.377 4.102 1.545 5890
-0.364 3.960 1.496 1524
-0.377 4.106 1.533 5023
-0.383 4.169 1.541 5924
-0.383 4.174 1.529 5779
-0.384 4.178 1.517 4861
-0.404 4.402 1.592 1307
-0.383 4.174 1.503 5052
-0.405 4.406 1.580 2401
-0.382 4.163 1.486 4143
-0.406 4.418 1.569 3011
-0.388 4.219 1.491 5564
-0.406 4.422 1.557 2974
-0.389 4.231 1.481 7504
-0.409 4.456 1.553 3899
-0.410 4.460 1.540 5221
-0.390 4.242 1.471 5198
-0.408 4.442 1.520 5316
-0.390 4.246 1.459 2947
-0.409 4.453 1.510 4545
-0.422 4.596 1.554 2351
-0.410 4.465 1.499 4843
-0.423 4.608 1.543 2500
-0.411 4.469 1.486 4806
-0.424 4.612 1.530 1699
-0.411 4.473 1.473 2904
-0.425 4.631 1.521 2807
-0.425 4.628 1.506 4328
-0.412 4.484 1.463 2235
-0.425 4.624 1.490 3766
-0.412 4.480 1.448 2393
-0.418 4.552 1.454 2623
-0.431 4.696 1.497 2250
-0.430 4.685 1.479 2978
-0.417 4.541 1.437 2709
-0.430 4.681 1.463 2642
-0.417 4.537 1.422 1613
-0.430 4.677 1.447 2523
-0.476 5.186 1.591 2032
-0.429 4.673 1.431 2394
-0.476 5.182 1.574 2260
-0.479 5.217 1.567 2524
-0.430 4.685 1.420 1841
-0.482 5.251 1.560 3516
-0.419 4.559 1.371 1541
-0.487 5.301 1.557 4804
-0.418 4.555 1.356 1241
-0.488 5.313 1.544 6228
-0.501 5.458 1.583 1317
-0.487 5.302 1.525 4411
-0.500 5.447 1.563 2322
-0.499 5.428 1.541 3481
-0.485 5.283 1.503 2492
-0.507 5.523 1.549 4964
-0.494 5.378 1.512 1654
-0.509 5.535 1.535 5511
-0.522 5.680 1.572 2340
-0.509 5.539 1.519 4605
-0.522 5.685 1.555 2197
-0.519 5.650 1.529 4733
-0.506 5.505 1.493 1744
-0.520 5.662 1.515 4143
-0.534 5.808 1.551 2228
-0.528 5.750 1.519 3551
-0.542 5.896 1.554 1228
-0.527 5.731 1.497 3262
-0.540 5.877 1.531 1759
-0.529 5.758 1.485 2812
-0.542 5.904 1.520 1516
-0.529 5.762 1.469 3475
-0.543 5.908 1.503 1962
-0.532 5.789 1.457 3826
-0.549 5.973 1.500 1720
-0.533 5.801 1.442 2520
-0.560 6.093 1.508 2385
-0.559 6.089 1.489 2855
-0.546 5.943 1.456 1867
-0.556 6.047 1.461 2113
-0.577 6.278 1.512 1606
-0.575 6.259 1.489 3674
-0.558 6.074 1.449 1795
-0.576 6.270 1.472 4455
-0.560 6.093 1.434 1614
-0.576 6.274 1.454 2932
-0.562 6.112 1.420 1324
-0.577 6.278 1.436 2739
-0.602 6.556 1.494 2536
-0.579 6.297 1.421 3388
-0.603 6.560 1.475 2892
-0.603 6.563 1.456 3450
-0.581 6.324 1.407 2301
-0.604 6.575 1.438 3443
-0.620 6.753 1.473 2442
-0.607 6.610 1.425 3675
-0.621 6.764 1.455 2214
-0.607 6.606 1.404 4209
-0.620 6.753 1.433 2120
-0.606 6.602 1.384 3284
-0.620 6.749 1.412 2785
-0.621 6.760 1.393 2592
-0.608 6.613 1.366 1934
-0.622 6.772 1.375 1842
-0.636 6.919 1.402 1405
-0.633 6.891 1.376 2210
-0.666 7.248 1.441 1580
-0.666 7.244 1.419 2430
-0.646 7.035 1.381 2074
-0.679 7.388 1.422 3028
-0.665 7.240 1.396 2369
-0.692 7.531 1.424 3327
-0.668 7.267 1.379 2462
-0.692 7.535 1.403 2935
-0.669 7.279 1.359 1653
-0.693 7.539 1.381 2294
-0.679 7.391 1.356 1174
-0.694 7.550 1.360 2007
-0.680 7.402 1.336 1211
-0.696 7.577 1.342 1905
-0.722 7.857 1.387 1176
-0.699 7.604 1.323 2079
-0.722 7.861 1.364 1217
-0.697 7.592 1.299 1635
-0.722 7.864 1.341 1392
-0.784 8.530 1.418 1668
-0.724 7.876 1.319 1482
-0.785 8.542 1.394 1462
-0.799 8.698 1.417 1293
-0.784 8.538 1.368 1453
-0.802 8.733 1.396 1034
-0.785 8.549 1.344 1423
-0.802 8.729 1.370 1050
-0.827 9.006 1.382 1275
-0.802 8.732 1.344 1068
-0.828 9.017 1.357 1812
-0.805 8.767 1.323 1246
-0.828 9.013 1.330 1611
-0.806 8.778 1.299 1198
-0.825 8.985 1.299 1298
-0.200 2.235 1.708 3307
-0.200 2.239 1.702 6615
-0.201 2.244 1.695 6615
-0.202 2.261 1.698 6046
-0.214 2.390 1.789 1636
-0.204 2.285 1.705 6911
-0.215 2.408 1.791 2387
-0.206 2.303 1.708 6048
-0.217 2.426 1.793 2384
-0.207 2.314 1.705 5589
-0.218 2.437 1.791 2543
-0.207 2.318 1.699 5589
-0.218 2.442 1.784 2543
-0.208 2.323 1.692 4610
-0.219 2.447 1.777 2158
-0.208 2.327 1.686 3632
-0.220 2.464 1.779 1868
-0.210 2.345 1.688 4302
-0.221 2.469 1.772 2306
-0.211 2.356 1.685 5132
-0.222 2.480 1.769 2649
-0.219 2.452 1.740 5637
-0.208 2.328 1.657 3471
-0.220 2.464 1.737 7960
-0.209 2.339 1.654 3159
-0.221 2.468 1.730 8463
-0.209 2.343 1.648 2310
-0.221 2.473 1.723 9048
-0.210 2.347 1.641 1461
-0.222 2.477 1.716 9017
-0.210 2.352 1.634 1234
-0.222 2.482 1.709 8571
-0.223 2.493 1.706 8334
-0.225 2.511 1.708 8083
-0.227 2.536 1.713 9166
-0.228 2.547 1.710 8158
-0.230 2.571 1.715 7473
-0.230 2.576 1.708 7880
-0.231 2.581 1.701 8288
-0.232 2.599 1.701 7428
-0.234 2.617 1.702 7428
-0.234 2.621 1.695 8316
-0.235 2.626 1.687 9203
-0.247 2.761 1.769 1119
-0.236 2.637 1.684 8176
-0.247 2.766 1.761 1440
-0.237 2.655 1.684 7605
-0.249 2.784 1.761 1477
-0.238 2.666 1.680 8931
-0.250 2.795 1.757 1672
-0.239 2.677 1.677 10870
-0.251 2.807 1.753 1840
-0.240 2.682 1.669 11156
-0.251 2.811 1.745 1918
-0.240 2.686 1.661 9803
-0.252 2.816 1.737 1995
-0.241 2.698 1.658 8304
-0.253 2.828 1.732 2352
-0.241 2.695 1.646 7799
-0.256 2.860 1.740 3237
-0.241 2.693 1.634 7383
-0.256 2.864 1.732 3671
-0.241 2.697 1.627 7407
-0.258 2.883 1.731 4185
-0.242 2.701 1.619 7431
-0.260 2.908 1.734 5209
-0.242 2.706 1.611 6285
-0.262 2.926 1.734 5373
-0.263 2.945 1.733 5932
-0.245 2.738 1.619 4525
-0.264 2.956 1.728 6205
-0.246 2.749 1.615 4103
-0.265 2.968 1.724 8746
-0.252 2.822 1.644 3636
-0.266 2.973 1.715 10587
-0.253 2.834 1.640 3992
-0.267 2.984 1.710 9328
-0.254 2.838 1.632 3652
-0.270 3.023 1.720 8770
-0.259 2.891 1.650 2940
-0.271 3.028 1.711 9618
-0.259 2.895 1.641 2447
-0.272 3.047 1.710 8081
-0.261 2.914 1.640 1557
-0.273 3.058 1.705 6106
-0.262 2.925 1.636 1166
-0.268 2.993 1.660 6614
-0.279 3.126 1.729 3486
-0.279 3.123 1.716 8618
-0.267 2.990 1.648 7474
-0.280 3.128 1.707 11270
-0.268 2.994 1.639 6773
-0.281 3.139 1.702 10196
-0.269 3.006 1.634 4560
-0.283 3.165 1.703 10851
-0.271 3.031 1.636 2894
-0.283 3.163 1.691 10763
-0.271 3.028 1.624 1996
-0.284 3.174 1.685 9708
-0.272 3.040 1.618 2360
-0.285 3.193 1.683 12133
-0.273 3.058 1.617 2657
-0.285 3.190 1.670 15426
-0.297 3.325 1.736 1758
-0.286 3.202 1.664 16296
-0.298 3.337 1.730 2556
-0.287 3.213 1.659 13867
-0.299 3.348 1.724 4166
-0.295 3.303 1.690 14260
-0.283 3.168 1.626 7298
-0.297 3.322 1.687 11655
-0.285 3.186 1.623 8079
-0.290 3.248 1.641 11281
-0.303 3.384 1.705 4588
-0.299 3.345 1.675 11229
-0.287 3.209 1.612 4065
-0.301 3.364 1.672 14304
-0.289 3.228 1.609 1939
-0.302 3.376 1.666 12018
-0.290 3.239 1.603 2223
-0.305 3.416 1.672 10018
-0.293 3.279 1.610 3953
-0.306 3.420 1.662 8766
-0.294 3.284 1.600 2040
-0.307 3.432 1.656 8965
-0.319 3.569 1.717 1650
-0.307 3.429 1.643 7653
-0.319 3.566 1.704 2297
-0.314 3.513 1.668 5829
-0.302 3.376 1.607 3573
-0.313 3.503 1.651 7152
-0.325 3.640 1.712 2191
-0.321 3.594 1.679 8679
-0.309 3.457 1.619 4134
-0.322 3.598 1.669 11718
-0.309 3.461 1.609 4031
-0.323 3.610 1.661 12293
-0.310 3.472 1.602 3833
-0.325 3.636 1.660 9812
-0.313 3.498 1.601 3868
-0.326 3.641 1.650 6796
-0.313 3.503 1.591 3667
-0.323 3.616 1.627 8272
-0.336 3.754 1.685 3354
-0.332 3.715 1.656 8932
-0.320 3.577 1.598 3036
-0.333 3.720 1.645 7645
-0.320 3.581 1.588 1700
-0.331 3.702 1.625 6595
-0.343 3.841 1.682 1551
-0.333 3.721 1.621 7903
-0.345 3.860 1.677 2474
-0.335 3.747 1.619 9398
-0.323 3.608 1.563 3187
-0.343 3.832 1.640 11500
-0.327 3.656 1.570 4510
-0.343 3.836 1.629 12158
-0.331 3.697 1.574 2215
-0.344 3.848 1.621 10105
-0.332 3.708 1.566 2838
-0.347 3.882 1.621 9363
-0.335 3.742 1.567 4050
-0.348 3.893 1.612 11900
-0.336 3.754 1.559 3023
-0.349 3.898 1.601 10062
-0.336 3.758 1.548 1980
-0.345 3.858 1.573 6181
-0.357 3.998 1.626 4050
-0.355 3.965 1.601 11788
-0.342 3.825 1.548 1958
-0.354 3.962 1.586 15285
-0.367 4.103 1.639 1113
-0.355 3.966 1.575 13638
-0.367 4.107 1.627 1846
-0.355 3.970 1.564 11086
-0.368 4.111 1.615 1912
-0.355 3.975 1.552 8866
-0.368 4.116 1.603 2719
-0.356 3.979 1.541 6791
-0.368 4.120 1.591 4200
-0.367 4.102 1.571 5002
-0.354 3.960 1.521 3413
-0.367 4.106 1.559 4678
-0.354 3.964 1.510 2201
-0.367 4.103 1.545 5568
-0.371 4.151 1.548 4925
-0.374 4.178 1.544 6069
-0.374 4.182 1.532 6442
-0.374 4.179 1.517 5047
-0.394 4.403 1.592 1492
-0.374 4.182 1.505 4231
-0.395 4.415 1.582 2684
-0.376 4.201 1.498 3324
-0.395 4.419 1.569 3268
-0.377 4.220 1.491 5016
-0.395 4.423 1.557 3172
-0.379 4.239 1.483 6950
-0.399 4.457 1.553 4014
-0.380 4.251 1.473 5220
-0.399 4.461 1.540 4784
-0.397 4.443 1.520 4141
-0.384 4.292 1.473 2948
-0.398 4.454 1.510 3744
-0.411 4.597 1.554 2560
-0.399 4.466 1.499 4511
-0.412 4.609 1.543 3192
-0.400 4.470 1.486 4813
-0.412 4.613 1.530 2238
-0.400 4.474 1.473 3235
-0.414 4.625 1.519 2624
-0.414 4.629 1.506 3847
-0.401 4.485 1.463 2429
-0.412 4.610 1.486 3764
-0.399 4.466 1.443 1910
-0.413 4.621 1.474 2841
-0.400 4.477 1.432 1580
-0.406 4.542 1.437 2945
-0.419 4.686 1.479 2507
-0.408 4.561 1.428 2213
-0.421 4.705 1.469 1943
-0.418 4.671 1.445 2750
-0.463 5.179 1.589 2515
-0.463 5.183 1.574 3221
-0.417 4.667 1.429 2693
-0.464 5.188 1.559 3295
-0.419 4.686 1.420 2002
-0.472 5.275 1.567 3220
-0.420 4.697 1.408 1908
-0.473 5.295 1.555 4550
-0.422 4.724 1.401 1428
-0.474 5.306 1.542 5148
-0.487 5.451 1.581 1564
-0.473 5.295 1.523 4130
-0.487 5.448 1.563 3129
-0.488 5.460 1.549 3976
-0.474 5.299 1.507 2829
-0.494 5.525 1.549 4630
-0.481 5.380 1.512 2330
-0.496 5.544 1.537 4174
-0.509 5.689 1.574 2283
-0.504 5.632 1.542 4210
-0.491 5.487 1.505 1807
-0.505 5.644 1.527 4133
-0.492 5.499 1.491 1237
-0.506 5.663 1.515 3353
-0.519 5.809 1.551 2009
-0.512 5.721 1.511 3969
-0.525 5.867 1.547 1495
-0.512 5.725 1.495 3795
-0.525 5.871 1.530 1866
-0.525 5.867 1.511 2238
-0.512 5.721 1.476 1670
-0.525 5.871 1.494 2784
-0.512 5.725 1.460 1759
-0.522 5.836 1.468 3800
-0.535 5.982 1.501 1662
-0.522 5.833 1.449 3148
-0.545 6.094 1.508 2354
-0.545 6.098 1.491 2733
-0.532 5.952 1.458 1655
-0.541 6.048 1.461 2150
-0.528 5.902 1.429 1648
-0.560 6.260 1.489 3219
-0.543 6.075 1.449 1602
-0.560 6.264 1.471 4131
-0.545 6.094 1.434 1588
-0.561 6.275 1.454 2836
-0.546 6.106 1.418 1571
-0.561 6.279 1.436 2540
-0.585 6.542 1.490 2470
-0.563 6.298 1.421 3078
-0.585 6.538 1.470 2809
-0.584 6.534 1.449 2998
-0.565 6.318 1.406 2104
-0.605 6.762 1.475 2793
-0.589 6.584 1.440 2676
-0.592 6.619 1.426 3231
-0.605 6.766 1.455 2508
-0.591 6.607 1.404 3669
-0.604 6.754 1.433 2287
-0.604 6.750 1.412 2821
-0.590 6.603 1.384 2768
-0.605 6.762 1.393 2645
-0.591 6.607 1.364 1520
-0.605 6.765 1.374 1978
-0.625 6.990 1.415 1542
-0.616 6.885 1.375 1901
-0.629 7.033 1.402 1472
-0.639 7.145 1.401 2005
-0.660 7.386 1.443 1884
-0.661 7.389 1.422 3092
-0.674 7.537 1.448 2210
-0.674 7.533 1.424 3014
-0.650 7.269 1.379 2331
-0.674 7.537 1.403 2758
-0.654 7.319 1.366 1772
-0.674 7.540 1.381 2252
-0.657 7.346 1.348 1286
-0.675 7.552 1.360 1809
-0.662 7.404 1.336 1244
-0.681 7.618 1.348 1795
-0.703 7.859 1.387 1221
-0.680 7.605 1.323 1892
-0.703 7.863 1.364 1106
-0.679 7.593 1.299 1532
-0.703 7.858 1.340 1239
-0.777 8.688 1.441 1492
-0.704 7.870 1.318 1443
-0.778 8.700 1.417 1432
-0.764 8.544 1.394 1281
-0.764 8.540 1.368 1301
-0.780 8.727 1.395 1027
-0.770 8.613 1.353 1342
-0.769 8.601 1.326 1204
-0.806 9.015 1.383 1197
-0.806 9.019 1.357 1674
-0.785 8.777 1.324 1225
-0.807 9.022 1.331 1537
-0.786 8.788 1.300 1158
-0.807 9.026 1.305 1151
-0.193 2.235 1.708 3439
-0.193 2.240 1.702 6878
-0.183 2.118 1.614 1216
-0.194 2.244 1.695 6878
-0.183 2.122 1.608 1216
-0.195 2.262 1.698 6238
-0.185 2.139 1.611 1550
-0.197 2.279 1.701 6424
-0.207 2.402 1.787 2170
-0.199 2.303 1.708 5958
-0.209 2.426 1.793 2168
-0.199 2.308 1.701 5906
-0.210 2.431 1.787 2458
-0.199 2.312 1.694 5906
-0.210 2.436 1.780 2458
-0.200 2.317 1.688 5022
-0.211 2.447 1.777 2259
-0.201 2.328 1.686 4141
-0.212 2.458 1.774 2185
-0.202 2.339 1.683 4940
-0.212 2.463 1.767 2265
-0.203 2.350 1.681 5954
-0.215 2.494 1.778 2135
-0.212 2.453 1.740 5571
-0.201 2.328 1.657 4077
-0.213 2.464 1.737 7817
-0.202 2.339 1.654 3313
-0.213 2.469 1.730 8558
-0.202 2.344 1.648 2141
-0.213 2.473 1.723 9522
-0.213 2.471 1.712 9671
-0.214 2.476 1.705 9121
-0.224 2.602 1.786 1343
-0.215 2.487 1.702 8760
-0.225 2.613 1.783 1365
-0.217 2.512 1.708 7875
-0.220 2.550 1.722 9409
-0.221 2.561 1.718 8397
-0.221 2.565 1.711 7427
-0.223 2.583 1.712 7692
-0.223 2.588 1.705 8102
-0.225 2.613 1.710 7817
-0.226 2.624 1.706 8078
-0.227 2.629 1.699 8950
-0.227 2.633 1.691 9823
-0.228 2.644 1.688 8277
-0.239 2.773 1.765 1158
-0.229 2.656 1.684 7069
-0.240 2.785 1.761 1288
-0.231 2.674 1.685 7958
-0.242 2.803 1.761 1429
-0.232 2.685 1.681 9528
-0.243 2.814 1.757 1707
-0.231 2.683 1.669 9884
-0.243 2.812 1.745 2005
-0.232 2.687 1.661 9047
-0.244 2.831 1.744 2257
-0.233 2.698 1.658 7750
-0.245 2.835 1.736 3150
-0.233 2.696 1.646 7644
-0.246 2.854 1.736 3776
-0.232 2.693 1.634 7991
-0.247 2.865 1.732 3882
-0.233 2.698 1.627 8235
-0.249 2.883 1.731 4227
-0.233 2.702 1.619 8478
-0.251 2.909 1.734 5094
-0.234 2.713 1.615 7432
-0.252 2.920 1.730 4981
-0.236 2.731 1.615 5624
-0.253 2.939 1.729 5227
-0.255 2.957 1.728 5480
-0.237 2.749 1.615 5003
-0.256 2.969 1.724 7841
-0.238 2.754 1.607 3314
-0.256 2.973 1.715 9334
-0.244 2.834 1.640 2464
-0.257 2.978 1.706 8904
-0.245 2.846 1.636 2540
-0.254 2.948 1.679 9550
-0.266 3.080 1.750 1569
-0.259 3.001 1.697 8719
-0.247 2.868 1.627 2182
-0.258 2.991 1.681 6920
-0.247 2.859 1.611 1335
-0.257 2.982 1.665 5651
-0.258 2.993 1.660 6669
-0.270 3.127 1.729 2710
-0.260 3.019 1.662 8073
-0.272 3.152 1.731 5067
-0.270 3.129 1.707 9193
-0.258 2.995 1.639 6655
-0.271 3.140 1.702 8713
-0.259 3.007 1.634 4577
-0.273 3.166 1.703 10738
-0.262 3.032 1.636 3299
-0.273 3.163 1.691 11347
-0.261 3.029 1.624 2378
-0.273 3.168 1.682 9976
-0.262 3.034 1.615 1963
-0.275 3.194 1.683 11678
-0.264 3.059 1.617 2730
-0.276 3.198 1.674 14180
-0.264 3.063 1.608 2014
-0.277 3.210 1.668 15193
-0.288 3.345 1.733 2210
-0.277 3.214 1.659 13333
-0.289 3.349 1.724 4673
-0.286 3.311 1.694 12736
-0.274 3.176 1.629 7494
-0.287 3.323 1.687 10821
-0.275 3.187 1.623 7311
-0.280 3.249 1.641 10449
-0.292 3.384 1.705 5129
-0.289 3.346 1.675 12026
-0.277 3.210 1.612 3560
-0.290 3.365 1.672 14489
-0.278 3.229 1.609 1884
-0.291 3.376 1.666 11809
-0.279 3.240 1.603 2589
-0.294 3.410 1.669 9947
-0.282 3.273 1.607 4500
-0.295 3.421 1.662 8795
-0.283 3.285 1.600 2136
-0.297 3.440 1.659 8622
-0.309 3.577 1.720 1540
-0.297 3.444 1.649 6544
-0.309 3.581 1.710 2071
-0.303 3.514 1.668 5384
-0.291 3.377 1.607 2954
-0.302 3.504 1.651 5369
-0.314 3.641 1.712 2341
-0.310 3.595 1.679 9290
-0.298 3.458 1.619 3690
-0.310 3.599 1.669 12377
-0.299 3.462 1.609 3920
-0.311 3.611 1.661 12368
-0.300 3.473 1.602 3643
-0.314 3.637 1.660 9488
-0.302 3.499 1.601 3973
-0.314 3.642 1.650 5740
-0.302 3.504 1.591 3753
-0.312 3.617 1.627 7630
-0.324 3.755 1.685 3251
-0.314 3.636 1.623 8442
-0.326 3.774 1.680 3345
-0.315 3.648 1.615 7868
-0.327 3.786 1.672 3285
-0.315 3.652 1.604 6454
-0.327 3.791 1.661 2505
-0.315 3.656 1.594 5498
-0.330 3.824 1.662 3159
-0.330 3.829 1.651 7282
-0.315 3.653 1.580 5221
-0.330 3.826 1.637 10745
-0.315 3.657 1.570 4340
-0.330 3.830 1.626 10375
-0.318 3.691 1.571 2155
-0.332 3.849 1.621 8180
-0.320 3.710 1.566 2593
-0.335 3.883 1.621 8446
-0.323 3.743 1.567 3838
-0.336 3.895 1.612 10937
-0.324 3.755 1.559 2829
-0.338 3.914 1.607 9922
-0.325 3.773 1.553 2132
-0.339 3.925 1.598 6428
-0.326 3.785 1.545 1353
-0.343 3.974 1.603 11243
-0.331 3.833 1.551 1529
-0.342 3.971 1.589 14156
-0.342 3.967 1.575 12062
-0.354 4.108 1.627 1720
-0.343 3.972 1.564 8761
-0.355 4.112 1.615 1822
-0.344 3.991 1.557 6729
-0.356 4.132 1.608 1737
-0.345 4.002 1.549 5493
-0.357 4.143 1.599 2928
-0.353 4.095 1.569 5395
-0.341 3.954 1.519 2040
-0.354 4.100 1.557 4792
-0.341 3.958 1.507 1122
-0.354 4.104 1.545 4830
-0.354 4.108 1.533 4578
-0.360 4.179 1.544 6076
-0.348 4.037 1.496 1340
-0.361 4.183 1.532 6939
-0.361 4.187 1.520 5023
-0.380 4.404 1.592 1532
-0.360 4.176 1.503 3287
-0.381 4.416 1.582 2712
-0.382 4.428 1.572 3283
-0.361 4.188 1.493 2543
-0.363 4.214 1.488 4164
-0.382 4.432 1.559 3204
-0.366 4.240 1.483 6110
-0.384 4.451 1.551 4013
-0.367 4.252 1.473 4708
-0.385 4.462 1.540 4337
-0.383 4.444 1.520 3422
-0.371 4.301 1.475 2798
-0.384 4.455 1.510 3104
-0.397 4.599 1.554 2582
-0.396 4.595 1.539 3766
-0.384 4.452 1.495 3532
-0.385 4.463 1.484 4360
-0.397 4.607 1.528 2456
-0.387 4.482 1.476 3586
-0.399 4.626 1.519 2384
-0.399 4.622 1.503 3624
-0.386 4.479 1.460 2587
-0.398 4.611 1.486 3814
-0.385 4.467 1.443 1691
-0.392 4.539 1.450 3149
-0.404 4.683 1.492 2011
-0.392 4.543 1.437 3744
-0.404 4.687 1.479 1959
-0.392 4.547 1.424 2989
-0.405 4.691 1.465 1957
-0.403 4.672 1.445 2914
-0.447 5.181 1.589 2586
-0.447 5.185 1.574 3886
-0.403 4.668 1.429 2577
-0.447 5.181 1.557 4656
-0.405 4.695 1.422 1774
-0.447 5.185 1.542 4110
-0.460 5.330 1.581 2109
-0.457 5.296 1.555 3914
-0.444 5.151 1.516 1564
-0.457 5.300 1.540 3668
-0.470 5.445 1.579 1469
-0.471 5.465 1.567 4093
-0.457 5.297 1.523 3243
-0.473 5.484 1.555 5600
-0.458 5.308 1.509 2496
-0.477 5.526 1.549 5736
-0.464 5.381 1.512 2718
-0.478 5.538 1.535 4195
-0.490 5.683 1.572 2154
-0.485 5.626 1.540 5076
-0.473 5.481 1.503 2657
-0.485 5.623 1.522 4085
-0.472 5.477 1.486 1424
-0.495 5.734 1.532 3567
-0.482 5.588 1.496 1847
-0.493 5.715 1.510 4255
-0.505 5.861 1.545 1040
-0.493 5.719 1.493 3863
-0.506 5.865 1.528 1810
-0.504 5.838 1.503 2983
-0.491 5.692 1.469 1560
-0.503 5.826 1.483 3017
-0.515 5.972 1.517 1155
-0.502 5.823 1.464 2906
-0.516 5.984 1.501 1397
-0.502 5.819 1.446 2375
-0.526 6.103 1.510 2160
-0.527 6.107 1.492 2599
-0.504 5.838 1.432 1895
-0.520 6.034 1.458 2315
-0.533 6.181 1.490 1833
-0.540 6.262 1.489 2458
-0.521 6.038 1.440 1800
-0.540 6.266 1.471 3409
-0.528 6.119 1.439 1351
-0.535 6.200 1.438 3233
-0.551 6.385 1.477 1660
-0.538 6.242 1.428 2350
-0.563 6.528 1.487 2290
-0.543 6.300 1.421 2555
-0.563 6.532 1.468 2527
-0.563 6.528 1.448 2881
-0.546 6.327 1.407 1955
-0.563 6.524 1.427 2803
