2.030 2.087 1.633 3154
2.121 2.180 1.690 8501
2.028 2.085 1.621 2129
2.139 2.199 1.692 7981
2.046 2.103 1.624 2421
2.152 2.212 1.691 8211
2.059 2.116 1.622 1718
2.131 2.190 1.664 7668
2.224 2.286 1.732 1061
2.164 2.224 1.677 8529
2.177 2.237 1.675 7571
2.185 2.245 1.670 5636
2.279 2.342 1.737 1402
2.193 2.254 1.664 5449
2.287 2.350 1.731 2042
2.196 2.257 1.655 5893
2.290 2.354 1.721 3691
2.194 2.255 1.642 6693
2.288 2.352 1.708 5614
2.197 2.258 1.633 5665
2.291 2.355 1.699 5490
2.324 2.389 1.710 6095
2.210 2.271 1.631 3459
2.338 2.403 1.707 6930
2.218 2.280 1.626 2464
2.296 2.360 1.667 8965
2.391 2.457 1.731 1914
2.314 2.378 1.668 10261
2.409 2.476 1.732 1660
2.317 2.381 1.658 8318
2.412 2.479 1.722 2112
2.370 2.436 1.682 11168
2.275 2.338 1.619 1671
2.368 2.434 1.669 11988
2.356 2.422 1.649 10019
2.452 2.520 1.711 1312
2.420 2.487 1.679 5310
2.324 2.389 1.617 2376
2.423 2.490 1.669 6102
2.327 2.392 1.607 1644
2.431 2.499 1.662 8393
2.335 2.400 1.601 1569
2.439 2.507 1.655 9934
2.343 2.408 1.594 1239
2.437 2.505 1.642 6196
2.533 2.604 1.702 2131
2.440 2.508 1.632 3366
2.537 2.607 1.692 2650
2.453 2.522 1.628 3446
2.550 2.621 1.687 2688
2.497 2.567 1.643 4007
2.594 2.666 1.702 1178
2.510 2.580 1.639 7747
2.612 2.685 1.700 1975
2.518 2.588 1.631 9177
2.615 2.688 1.689 3616
2.572 2.644 1.651 7413
2.476 2.544 1.593 2691
2.581 2.652 1.644 5599
2.678 2.752 1.701 1774
2.635 2.708 1.663 6497
2.533 2.603 1.603 2736
2.638 2.711 1.652 6868
2.541 2.611 1.596 2018
2.595 2.667 1.615 6480
2.692 2.767 1.671 2716
2.598 2.670 1.604 5751
2.695 2.770 1.660 3284
2.678 2.752 1.637 5225
2.580 2.652 1.582 2110
2.676 2.750 1.623 4908
2.773 2.850 1.678 3034
2.720 2.796 1.635 4581
2.622 2.695 1.580 1487
2.713 2.788 1.618 4409
2.810 2.889 1.672 2016
2.736 2.812 1.618 5039
2.834 2.913 1.672 1404
2.719 2.794 1.596 4992
2.817 2.895 1.649 3370
2.835 2.914 1.646 4343
2.737 2.813 1.593 3666
2.849 2.928 1.639 4645
2.750 2.827 1.587 3016
2.852 2.931 1.628 3126
2.753 2.830 1.576 1492
2.850 2.929 1.613 3469
2.979 3.062 1.681 1863
2.847 2.926 1.599 4524
2.987 3.071 1.671 2318
2.985 3.068 1.656 3369
2.850 2.930 1.587 3350
2.988 3.072 1.644 4779
2.890 2.970 1.594 2520
2.992 3.075 1.632 5148
2.893 2.973 1.582 3287
3.000 3.083 1.622 4489
2.901 2.981 1.572 2605
3.003 3.086 1.610 3322
3.102 3.188 1.659 1467
2.995 3.079 1.592 3820
3.095 3.181 1.641 2188
3.145 3.232 1.651 4768
3.003 3.087 1.582 3369
3.148 3.235 1.638 6665
3.048 3.133 1.590 2071
3.219 3.308 1.657 5381
3.119 3.206 1.610 3704
3.206 3.295 1.637 4301
3.065 3.150 1.570 1888
3.235 3.325 1.636 5744
3.136 3.223 1.589 2226
3.228 3.318 1.617 9254
3.128 3.215 1.571 1077
3.226 3.315 1.602 9454
3.326 3.418 1.647 1513
3.223 3.313 1.586 8065
3.344 3.437 1.641 2096
3.221 3.311 1.570 7889
3.321 3.413 1.615 3176
3.224 3.314 1.557 5012
3.324 3.417 1.601 3764
3.327 3.420 1.588 4609
3.227 3.317 1.543 2001
3.325 3.417 1.572 6255
3.224 3.314 1.528 1091
3.328 3.420 1.558 6116
3.331 3.423 1.544 5714
3.333 3.426 1.530 6576
3.336 3.429 1.516 9129
3.339 3.432 1.503 11003
3.342 3.435 1.489 9770
3.345 3.437 1.475 9908
3.347 3.440 1.461 12088
3.613 3.714 1.567 1588
3.350 3.443 1.447 11336
3.611 3.711 1.550 2032
3.347 3.440 1.431 9478
3.608 3.709 1.533 2608
3.355 3.448 1.420 8217
3.595 3.695 1.512 2319
3.358 3.451 1.406 5431
3.571 3.670 1.487 1729
3.366 3.459 1.394 2462
3.569 3.668 1.470 2205
3.988 4.099 1.611 3980
3.593 3.692 1.463 3196
3.991 4.102 1.594 4815
3.595 3.695 1.449 3881
3.999 4.110 1.580 5405
3.598 3.698 1.434 4156
4.008 4.119 1.565 4716
3.595 3.695 1.417 3173
4.150 4.265 1.598 3352
4.021 4.133 1.552 2165
4.131 4.246 1.573 3687
4.233 4.351 1.609 2685
4.231 4.348 1.589 4201
4.118 4.233 1.550 1929
4.239 4.357 1.574 3675
4.280 4.399 1.569 3482
4.446 4.570 1.625 1214
4.261 4.379 1.544 2385
4.363 4.484 1.578 1362
4.291 4.410 1.535 1807
4.474 4.598 1.595 1204
4.294 4.413 1.517 1641
4.606 4.734 1.618 1274
4.604 4.731 1.597 2795
4.436 4.560 1.544 1722
4.606 4.734 1.578 2810
4.493 4.618 1.543 1497
4.609 4.737 1.559 2497
4.496 4.621 1.524 1594
4.618 4.746 1.542 2169
4.742 4.874 1.580 1505
4.756 4.888 1.563 2698
4.620 4.749 1.523 1811
4.758 4.891 1.544 3696
4.618 4.746 1.502 1905
4.740 4.871 1.517 2655
5.026 5.166 1.601 1490
4.883 5.019 1.538 1953
5.013 5.152 1.576 1943
5.005 5.144 1.552 2149
4.886 5.022 1.518 1649
5.068 5.208 1.548 1983
4.965 5.103 1.519 1368
5.049 5.189 1.521 2123
5.152 5.295 1.549 1781
5.117 5.259 1.518 2582
5.377 5.526 1.588 1889
5.374 5.524 1.564 3054
5.119 5.262 1.496 2571
5.377 5.527 1.542 2831
5.122 5.264 1.475 1534
5.396 5.546 1.524 1985
5.174 5.318 1.466 1884
5.579 5.734 1.547 2101
5.459 5.611 1.517 1967
5.581 5.737 1.524 2150
5.446 5.597 1.490 1829
5.546 5.700 1.491 2189
5.405 5.555 1.457 1658
5.582 5.737 1.476 2790
5.478 5.630 1.451 2299
5.584 5.740 1.453 4447
5.481 5.633 1.428 2097
5.592 5.748 1.431 5568
5.903 6.067 1.503 2149
5.600 5.756 1.409 4580
5.900 6.064 1.477 2463
5.603 5.759 1.386 3308
5.919 6.084 1.457 2451
5.938 6.103 1.435 2976
5.600 5.756 1.361 1826
5.941 6.106 1.411 2076
6.487 6.667 1.528 1405
5.927 6.092 1.383 1621
6.069 6.238 1.413 1282
5.930 6.095 1.358 1727
6.066 6.235 1.386 1278
6.610 6.794 1.471 1815
6.506 6.687 1.450 1340
6.613 6.796 1.443 1665
6.509 6.690 1.422 1369
6.582 6.765 1.409 1434
6.514 6.695 1.368 1439
6.618 6.802 1.388 1116
6.522 6.703 1.342 1399
1.610 1.645 1.750 2650
1.613 1.648 1.743 5301
1.616 1.652 1.736 5301
1.624 1.660 1.734 7448
1.636 1.672 1.737 10172
1.649 1.685 1.739 10503
1.652 1.688 1.733 11306
1.739 1.777 1.818 1321
1.655 1.691 1.726 11306
1.742 1.780 1.811 1321
1.659 1.695 1.719 9016
1.745 1.784 1.804 2299
1.653 1.689 1.703 7194
1.740 1.778 1.788 3628
1.656 1.692 1.697 4766
1.743 1.781 1.781 3315
1.756 1.794 1.782 3161
1.664 1.700 1.694 2369
1.764 1.802 1.780 3539
1.667 1.703 1.687 2061
1.767 1.805 1.772 3922
1.665 1.702 1.676 1769
1.770 1.809 1.765 3922
1.664 1.700 1.665 1711
1.769 1.807 1.754 4813
1.662 1.699 1.654 1716
1.763 1.801 1.738 5868
1.665 1.702 1.647 1496
1.789 1.828 1.752 7921
1.701 1.738 1.670 1429
1.797 1.837 1.749 10750
1.709 1.746 1.668 1740
1.796 1.835 1.737 10595
1.707 1.744 1.657 1246
1.795 1.834 1.726 10835
1.798 1.837 1.718 8130
1.787 1.826 1.699 5581
1.876 1.917 1.778 1465
1.818 1.858 1.716 7638
1.831 1.871 1.717 11883
1.839 1.879 1.714 13250
1.929 1.971 1.792 1133
1.847 1.887 1.710 15211
1.937 1.979 1.789 1422
1.850 1.890 1.703 10909
1.940 1.982 1.781 2187
1.882 1.923 1.720 8478
1.972 2.015 1.797 1296
1.894 1.936 1.720 7325
1.985 2.028 1.797 1056
1.907 1.949 1.720 7110
1.817 1.856 1.644 1105
1.910 1.952 1.713 6201
2.001 2.045 1.789 1134
1.899 1.941 1.693 5578
1.990 2.034 1.769 1943
1.902 1.944 1.685 6795
1.993 2.037 1.761 3224
1.906 1.947 1.677 7934
1.997 2.040 1.752 4505
1.914 1.955 1.673 8817
2.005 2.049 1.748 4548
1.917 1.958 1.666 8770
2.008 2.052 1.740 5684
1.920 1.962 1.658 7690
2.011 2.055 1.732 6075
2.005 2.049 1.716 8992
1.913 1.955 1.642 5629
2.013 2.057 1.711 11571
1.921 1.963 1.638 4304
2.016 2.060 1.703 10901
1.924 1.966 1.630 3384
2.015 2.059 1.691 10382
1.922 1.964 1.619 1762
2.018 2.062 1.683 7836
1.925 1.967 1.611 1033
2.026 2.070 1.678 4522
2.118 2.164 1.750 2172
2.087 2.133 1.715 6069
2.110 2.156 1.721 6764
2.017 2.061 1.650 3424
2.118 2.164 1.716 8344
2.025 2.069 1.646 5081
2.121 2.168 1.708 7866
2.028 2.073 1.638 4477
2.130 2.176 1.703 8050
2.036 2.081 1.633 3418
2.128 2.174 1.690 8544
2.034 2.079 1.621 2275
2.141 2.188 1.689 8005
2.047 2.092 1.620 2244
2.154 2.201 1.687 8261
2.060 2.105 1.619 1660
2.157 2.204 1.678 8008
2.170 2.217 1.677 8898
2.178 2.226 1.671 8183
2.272 2.322 1.739 1104
2.186 2.234 1.666 6207
2.280 2.330 1.733 1503
2.194 2.242 1.661 5833
2.289 2.339 1.727 2027
2.197 2.245 1.652 6444
2.292 2.342 1.718 3852
2.200 2.248 1.642 7302
2.295 2.345 1.708 5534
2.203 2.252 1.633 5915
2.298 2.348 1.699 5527
2.296 2.347 1.686 5833
2.202 2.250 1.621 2903
2.295 2.345 1.673 6440
2.390 2.442 1.738 1622
2.303 2.353 1.667 8680
2.398 2.450 1.731 2185
2.316 2.366 1.664 10053
2.411 2.464 1.728 2064
2.374 2.426 1.692 8953
2.279 2.328 1.628 2462
2.382 2.434 1.685 11902
2.287 2.337 1.622 1946
2.386 2.438 1.675 12340
2.290 2.340 1.613 1258
2.368 2.420 1.653 9319
2.464 2.518 1.715 1075
2.422 2.475 1.675 5657
2.326 2.377 1.613 1339
2.425 2.478 1.665 6236
2.438 2.492 1.662 8164
2.342 2.393 1.601 1246
2.447 2.500 1.655 9734
2.350 2.402 1.594 1247
2.455 2.508 1.648 6354
2.551 2.607 1.708 1739
2.468 2.522 1.644 3735
2.564 2.620 1.704 1838
2.466 2.520 1.631 3635
2.563 2.618 1.690 2470
2.505 2.559 1.643 4320
2.601 2.658 1.702 1204
2.523 2.578 1.642 7266
2.620 2.677 1.700 2135
2.536 2.592 1.637 8719
2.633 2.691 1.696 3362
2.580 2.636 1.651 8497
2.483 2.537 1.593 2620
2.583 2.640 1.641 5953
2.681 2.739 1.698 1954
2.643 2.700 1.663 5713
2.540 2.596 1.603 3075
2.646 2.703 1.652 6168
2.548 2.604 1.596 2163
2.603 2.659 1.615 5859
2.700 2.759 1.671 2675
2.606 2.662 1.604 5403
2.703 2.762 1.660 3184
2.701 2.760 1.646 4874
2.603 2.660 1.590 2849
2.720 2.779 1.643 5205
2.622 2.679 1.588 1706
2.728 2.788 1.635 4601
2.630 2.687 1.580 1532
2.747 2.806 1.632 4410
2.648 2.706 1.578 1277
2.744 2.804 1.618 5503
2.843 2.905 1.672 1234
2.732 2.792 1.598 5468
2.830 2.892 1.652 3274
2.823 2.885 1.634 4660
2.725 2.784 1.582 3322
2.857 2.920 1.639 4063
2.759 2.819 1.587 2676
2.865 2.928 1.630 2503
2.767 2.827 1.578 1393
2.863 2.926 1.616 2450
2.993 3.059 1.684 1523
2.924 2.987 1.634 3430
2.825 2.886 1.582 2555
2.937 3.001 1.627 3566
2.838 2.900 1.576 2160
2.945 3.009 1.618 4008
3.044 3.111 1.668 1601
2.943 3.007 1.603 4850
3.074 3.141 1.669 2007
3.004 3.069 1.619 4709
2.904 2.968 1.570 2203
3.012 3.077 1.610 4256
2.912 2.976 1.560 1966
3.004 3.070 1.592 3860
3.104 3.171 1.641 2114
3.154 3.223 1.651 3349
3.002 3.067 1.577 2918
3.157 3.226 1.638 5400
3.257 3.328 1.686 1857
3.155 3.224 1.622 4435
3.255 3.326 1.670 3171
3.237 3.307 1.647 3743
3.137 3.205 1.599 2027
3.245 3.316 1.636 6135
3.145 3.214 1.589 1518
3.243 3.314 1.620 8757
3.241 3.311 1.604 8406
3.341 3.414 1.650 1396
3.233 3.304 1.586 6781
3.333 3.406 1.631 1943
3.231 3.301 1.570 6641
3.331 3.404 1.615 2488
3.239 3.310 1.559 4296
3.339 3.412 1.604 3090
3.342 3.415 1.590 4250
3.242 3.313 1.546 1643
3.335 3.407 1.572 5919
3.338 3.410 1.558 6009
3.341 3.413 1.544 5880
3.343 3.416 1.530 6131
3.346 3.419 1.516 8997
3.349 3.422 1.503 12446
3.352 3.425 1.489 12459
3.355 3.428 1.475 13023
3.357 3.430 1.461 14977
3.629 3.708 1.570 1119
3.360 3.433 1.447 14905
3.627 3.706 1.552 1524
3.357 3.430 1.431 13447
3.619 3.698 1.533 2168
3.365 3.439 1.420 11292
3.600 3.679 1.510 2291
3.368 3.441 1.406 7522
3.587 3.665 1.489 1891
3.370 3.444 1.392 3913
3.783 3.865 1.547 2178
4.000 4.087 1.611 3455
3.609 3.687 1.465 2495
4.003 4.090 1.594 4243
3.606 3.685 1.449 3322
4.011 4.099 1.580 4680
3.609 3.687 1.434 3386
4.014 4.102 1.563 3978
3.606 3.685 1.417 2467
4.130 4.220 1.586 3821
4.232 4.324 1.623 2136
4.133 4.223 1.569 4087
4.246 4.338 1.609 2981
4.249 4.342 1.591 4757
4.125 4.215 1.549 2472
4.252 4.345 1.574 3853
4.128 4.218 1.531 1073
4.265 4.359 1.560 3544
4.384 4.480 1.600 1264
4.274 4.367 1.544 2991
4.473 4.571 1.610 1162
4.304 4.397 1.535 1827
4.482 4.579 1.593 1029
4.306 4.400 1.517 1585
4.587 4.687 1.608 1411
4.617 4.718 1.597 2969
4.444 4.541 1.542 1528
4.615 4.716 1.577 3013
4.507 4.605 1.543 1315
4.618 4.718 1.558 2535
4.504 4.602 1.522 1406
4.675 4.777 1.555 2084
4.902 5.009 1.624 1257
4.770 4.874 1.563 2915
4.667 4.769 1.532 1295
4.773 4.877 1.544 3997
4.908 5.015 1.584 1098
4.754 4.858 1.517 2725
4.884 4.991 1.556 1427
5.028 5.138 1.576 1854
4.898 5.005 1.538 1843
5.025 5.135 1.554 2241
4.901 5.007 1.518 1500
5.088 5.199 1.549 1877
4.985 5.094 1.521 1210
5.145 5.258 1.543 1985
5.031 5.141 1.512 1589
5.137 5.249 1.519 2399
5.268 5.383 1.554 2308
5.391 5.508 1.564 2731
5.129 5.241 1.495 2518
5.393 5.511 1.542 2550
5.197 5.311 1.491 1500
5.483 5.603 1.542 2042
5.380 5.497 1.515 1747
5.475 5.595 1.517 2288
5.595 5.717 1.547 1785
5.598 5.720 1.524 2383
5.467 5.587 1.491 1810
5.601 5.723 1.501 3108
5.497 5.617 1.475 1495
5.604 5.726 1.477 3528
5.500 5.620 1.452 2007
5.601 5.723 1.453 5218
5.497 5.617 1.428 1677
5.604 5.726 1.430 6388
5.915 6.044 1.502 2621
5.606 5.729 1.406 4398
5.913 6.041 1.476 3382
5.932 6.061 1.455 3245
5.620 5.742 1.386 2347
5.956 6.086 1.435 3900
5.617 5.739 1.361 1335
5.959 6.089 1.411 2993
6.506 6.648 1.528 1487
5.945 6.075 1.383 2518
6.498 6.640 1.499 1308
5.947 6.077 1.358 2510
6.496 6.637 1.471 1132
5.950 6.080 1.333 1549
6.630 6.774 1.471 1517
6.523 6.665 1.421 1428
6.632 6.777 1.443 1413
6.564 6.707 1.402 1336
6.561 6.704 1.373 1266
6.541 6.684 1.342 1220
1.615 1.640 1.750 2687
1.618 1.643 1.743 5375
1.622 1.646 1.736 5375
1.629 1.654 1.734 7553
1.642 1.667 1.737 10463
1.654 1.679 1.739 10805
1.741 1.767 1.825 1049
1.657 1.683 1.733 11618
1.744 1.771 1.818 1686
1.661 1.686 1.726 11618
1.748 1.774 1.811 1686
1.664 1.689 1.719 9349
1.751 1.778 1.804 2595
1.658 1.683 1.703 7339
1.745 1.772 1.788 4034
1.661 1.687 1.697 4807
1.749 1.775 1.781 3434
1.771 1.798 1.791 3041
1.669 1.695 1.694 2283
1.774 1.801 1.784 3015
1.672 1.698 1.687 2115
1.777 1.804 1.777 2990
1.689 1.715 1.694 1962
1.781 1.808 1.770 2990
1.674 1.699 1.670 1886
1.784 1.811 1.762 4001
1.672 1.698 1.658 1917
1.773 1.800 1.742 5099
1.675 1.701 1.652 1752
1.800 1.827 1.756 7021
1.707 1.733 1.670 1677
1.803 1.831 1.749 9443
1.714 1.741 1.668 1810
1.802 1.829 1.737 8754
1.713 1.739 1.657 1386
1.800 1.828 1.726 8537
1.799 1.826 1.714 6709
1.797 1.825 1.703 5021
1.887 1.916 1.782 1352
1.829 1.857 1.720 6833
1.837 1.865 1.717 10602
1.845 1.873 1.714 12060
1.935 1.965 1.792 1120
1.853 1.881 1.710 14095
1.943 1.973 1.789 1442
1.861 1.889 1.707 10186
1.951 1.981 1.785 2017
1.888 1.917 1.720 7991
1.978 2.009 1.797 1340
1.901 1.930 1.720 6820
1.991 2.022 1.797 1039
1.913 1.943 1.720 6650
1.823 1.850 1.644 1123
1.912 1.941 1.709 6245
2.003 2.033 1.785 1170
1.906 1.935 1.693 6331
1.997 2.027 1.769 1798
1.909 1.938 1.685 7255
2.000 2.031 1.761 3138
1.912 1.941 1.677 7753
2.003 2.034 1.752 4479
1.920 1.949 1.673 7952
2.011 2.042 1.748 4287
1.923 1.952 1.666 7135
2.015 2.045 1.740 4921
1.999 2.029 1.716 5925
1.907 1.936 1.642 3932
2.012 2.042 1.716 7970
1.919 1.949 1.642 4113
2.020 2.050 1.711 10454
1.927 1.957 1.638 3109
2.018 2.049 1.699 9651
1.926 1.955 1.626 2280
2.021 2.052 1.691 8959
1.929 1.958 1.619 1116
2.024 2.055 1.683 7142
2.047 2.078 1.690 5271
2.140 2.173 1.761 1421
2.094 2.126 1.715 6948
2.001 2.032 1.644 1104
2.112 2.144 1.718 7114
2.019 2.050 1.647 3086
2.125 2.158 1.716 8462
2.032 2.063 1.646 5672
2.128 2.161 1.708 7625
2.035 2.066 1.638 4904
2.137 2.169 1.703 7676
2.043 2.074 1.633 3523
2.135 2.167 1.690 8480
2.041 2.072 1.621 2178
2.143 2.176 1.685 8209
2.049 2.080 1.616 1964
2.156 2.189 1.684 8493
2.062 2.094 1.615 1543
2.164 2.197 1.678 8417
2.172 2.205 1.673 9131
2.185 2.219 1.671 8936
2.280 2.314 1.739 1235
2.188 2.222 1.662 7413
2.283 2.318 1.729 1545
2.191 2.225 1.654 6713
2.286 2.321 1.720 2131
2.200 2.233 1.648 6663
2.294 2.329 1.714 3828
2.208 2.241 1.642 7367
2.303 2.338 1.708 5121
2.211 2.244 1.633 5858
2.306 2.341 1.699 5347
2.304 2.339 1.686 5787
2.209 2.243 1.621 2725
2.302 2.337 1.673 6134
2.397 2.434 1.738 2035
2.310 2.346 1.667 8154
2.406 2.442 1.731 2624
2.323 2.359 1.664 9138
2.419 2.456 1.728 2500
2.382 2.418 1.692 9942
2.286 2.321 1.628 2287
2.390 2.427 1.685 13016
2.294 2.329 1.622 1679
2.393 2.430 1.675 13237
2.297 2.332 1.613 1152
2.412 2.448 1.675 9055
2.425 2.462 1.672 6189
2.433 2.470 1.665 6411
2.441 2.479 1.659 7688
2.460 2.497 1.658 9078
2.363 2.399 1.598 1524
2.468 2.506 1.651 6740
2.565 2.604 1.712 1300
2.476 2.514 1.644 4690
2.573 2.612 1.704 1646
2.479 2.517 1.634 4068
2.576 2.615 1.694 2269
2.508 2.546 1.640 4523
2.605 2.645 1.699 1426
2.536 2.575 1.645 6498
2.634 2.674 1.703 2007
2.555 2.594 1.643 8033
2.457 2.495 1.585 2681
2.583 2.623 1.648 9420
2.486 2.524 1.590 2569
2.592 2.631 1.641 6628
2.689 2.730 1.698 2063
2.651 2.692 1.663 4770
2.548 2.587 1.603 3425
2.654 2.695 1.652 5295
2.557 2.596 1.596 2598
2.611 2.651 1.615 5013
2.709 2.750 1.671 2422
2.614 2.654 1.604 4956
2.712 2.754 1.660 2773
2.715 2.757 1.649 4311
2.617 2.657 1.593 3221
2.734 2.776 1.646 4876
2.636 2.676 1.591 2418
2.737 2.779 1.635 4547
2.639 2.679 1.580 1740
2.750 2.792 1.629 4766
2.652 2.692 1.575 1410
2.753 2.796 1.618 5979
2.852 2.896 1.672 1094
2.746 2.788 1.601 5583
2.845 2.888 1.654 3164
2.827 2.870 1.632 5504
2.728 2.770 1.579 2877
2.861 2.905 1.637 3895
2.762 2.805 1.584 2582
2.875 2.919 1.630 2397
2.776 2.818 1.578 1329
2.935 2.980 1.648 2719
2.836 2.879 1.597 1415
2.938 2.983 1.636 4392
2.839 2.882 1.585 1895
2.941 2.986 1.624 4755
3.041 3.087 1.675 1818
2.950 2.995 1.615 4407
3.049 3.096 1.665 1710
2.953 2.998 1.603 4911
3.094 3.141 1.674 1602
3.013 3.059 1.619 4765
2.914 2.958 1.570 2443
3.022 3.068 1.610 5133
2.922 2.967 1.560 2802
3.019 3.066 1.595 3581
3.119 3.167 1.643 1992
3.112 3.159 1.625 2841
3.001 3.047 1.572 1971
3.167 3.216 1.638 4319
3.267 3.317 1.686 1633
3.181 3.230 1.630 3745
3.281 3.331 1.677 1900
3.258 3.308 1.652 4094
3.158 3.206 1.604 1332
3.256 3.306 1.636 6688
3.259 3.309 1.622 8201
3.251 3.301 1.604 6819
3.352 3.403 1.650 1779
3.244 3.293 1.586 5041
3.344 3.395 1.631 2395
3.241 3.291 1.570 5092
3.342 3.393 1.615 2075
3.250 3.299 1.559 3309
3.350 3.402 1.604 2604
3.353 3.405 1.590 4242
3.252 3.302 1.546 1175
3.346 3.397 1.572 6246
3.349 3.400 1.558 6474
3.362 3.413 1.549 6087
3.360 3.411 1.532 5378
3.362 3.414 1.519 7958
3.360 3.411 1.503 11930
3.363 3.414 1.489 12847
3.365 3.417 1.475 13629
3.363 3.414 1.459 15482
3.502 3.556 1.514 1070
3.371 3.422 1.447 16691
3.842 3.901 1.632 1350
3.374 3.425 1.433 15987
3.845 3.904 1.617 2086
3.376 3.428 1.420 12981
3.612 3.667 1.510 2021
3.379 3.430 1.406 8570
3.862 3.921 1.589 2213
3.381 3.433 1.392 4800
3.795 3.853 1.547 2505
3.798 3.856 1.531 2534
4.008 4.069 1.609 2476
4.011 4.072 1.592 3181
3.623 3.679 1.451 2265
4.019 4.080 1.578 3672
3.621 3.676 1.434 2297
4.022 4.083 1.561 3027
4.167 4.231 1.613 2385
4.154 4.218 1.590 4062
4.257 4.322 1.626 2280
4.146 4.210 1.569 3963
4.260 4.325 1.609 3847
4.263 4.328 1.591 5861
4.139 4.202 1.549 2746
4.271 4.336 1.575 4768
4.147 4.210 1.533 1268
4.279 4.345 1.560 4653
4.404 4.471 1.601 1142
4.282 4.348 1.542 4251
4.418 4.485 1.587 1042
4.296 4.362 1.528 2005
4.464 4.532 1.583 1043
4.597 4.667 1.606 1547
4.326 4.392 1.519 1457
4.632 4.703 1.597 2863
4.453 4.522 1.541 1345
4.630 4.701 1.577 2917
4.413 4.480 1.509 1402
4.627 4.698 1.556 2196
4.731 4.803 1.588 1297
4.690 4.762 1.555 2299
4.918 4.993 1.624 1146
4.791 4.864 1.565 2861
4.688 4.759 1.534 1551
4.794 4.867 1.545 4040
4.775 4.848 1.519 2498
4.895 4.969 1.554 1222
5.044 5.122 1.576 1581
4.908 4.983 1.537 1386
5.042 5.119 1.554 2366
4.840 4.914 1.497 1361
5.039 5.116 1.531 1992
5.192 5.271 1.574 1496
5.168 5.247 1.545 1952
5.288 5.369 1.578 1673
5.291 5.371 1.556 2531
5.165 5.244 1.522 2172
5.141 5.219 1.493 2415
5.408 5.491 1.564 2082
5.411 5.494 1.542 2036
5.214 5.294 1.491 1574
5.501 5.585 1.542 2346
5.397 5.480 1.515 1784
5.493 5.577 1.517 2514
5.389 5.472 1.490 1922
5.611 5.697 1.523 3003
5.485 5.569 1.491 1980
5.614 5.700 1.499 4174
5.510 5.594 1.474 1226
5.622 5.708 1.477 4225
5.518 5.602 1.452 1513
5.619 5.705 1.453 5610
5.515 5.599 1.428 1347
5.622 5.708 1.430 6761
5.935 6.025 1.502 2811
5.619 5.705 1.405 4737
5.932 6.023 1.476 4175
5.946 6.036 1.454 4168
5.627 5.713 1.383 1894
5.976 6.067 1.435 5113
6.525 6.625 1.555 1051
5.978 6.070 1.411 4122
6.528 6.627 1.528 1289
5.964 6.056 1.383 3427
6.519 6.619 1.499 1230
5.967 6.058 1.358 3159
6.517 6.616 1.471 1085
5.969 6.061 1.333 1782
6.541 6.641 1.448 1221
6.544 6.644 1.421 1572
6.654 6.756 1.443 1198
6.547 6.647 1.394 1371
6.651 6.753 1.414 1028
6.555 6.655 1.368 1211
6.563 6.663 1.342 1132
1.615 1.630 1.745 2733
1.619 1.634 1.738 5467
1.622 1.637 1.732 5467
1.708 1.724 1.819 1076
1.634 1.649 1.734 7442
1.647 1.662 1.737 10311
1.659 1.675 1.739 10678
1.746 1.762 1.825 1270
1.667 1.682 1.737 11526
1.754 1.770 1.823 1656
1.670 1.686 1.730 11526
1.758 1.774 1.815 1656
1.669 1.684 1.719 9330
1.757 1.773 1.804 2860
1.668 1.683 1.708 7310
1.755 1.771 1.792 4134
1.671 1.686 1.701 4741
1.759 1.775 1.785 3521
1.730 1.746 1.747 4228
1.642 1.657 1.663 1352
1.728 1.744 1.736 3772
1.732 1.748 1.729 3368
1.820 1.837 1.812 1116
1.730 1.746 1.717 2745
1.819 1.835 1.800 1285
1.794 1.811 1.767 3533
1.705 1.721 1.684 2164
1.793 1.809 1.755 4508
1.704 1.720 1.673 2110
1.805 1.822 1.756 6149
1.716 1.732 1.675 2176
1.813 1.830 1.753 8047
1.724 1.740 1.672 2263
1.812 1.829 1.742 7031
1.723 1.739 1.661 1610
1.801 1.818 1.722 6225
1.804 1.821 1.714 5272
1.686 1.702 1.609 1009
1.808 1.824 1.707 4320
1.694 1.710 1.606 1162
1.839 1.856 1.725 6190
1.697 1.713 1.599 1160
1.843 1.860 1.717 9081
1.700 1.716 1.593 1157
1.851 1.868 1.714 10599
1.941 1.959 1.792 1110
1.859 1.876 1.710 12673
1.949 1.967 1.789 1484
1.871 1.889 1.711 9376
1.962 1.980 1.789 1809
1.889 1.906 1.716 7666
1.980 1.998 1.793 1655
1.902 1.919 1.716 6640
1.993 2.011 1.793 1293
1.914 1.932 1.716 6266
1.908 1.926 1.701 6462
1.999 2.018 1.777 1589
1.907 1.924 1.689 7004
1.998 2.016 1.765 1997
1.915 1.932 1.685 7475
2.006 2.025 1.761 2878
1.918 1.935 1.677 7313
2.009 2.028 1.752 4088
1.989 2.007 1.725 7002
1.897 1.914 1.650 2353
1.997 2.015 1.720 6245
1.905 1.922 1.646 2549
2.005 2.023 1.716 5238
1.913 1.930 1.642 2632
2.018 2.036 1.716 7023
1.925 1.943 1.642 2794
2.026 2.044 1.711 9374
1.933 1.951 1.638 2153
2.024 2.043 1.699 8496
1.931 1.949 1.626 1490
2.027 2.046 1.691 7677
2.035 2.054 1.687 6386
2.058 2.077 1.693 5793
2.151 2.171 1.765 1277
2.101 2.120 1.715 7452
2.007 2.026 1.644 1010
2.114 2.133 1.714 7310
2.020 2.039 1.643 2552
2.132 2.151 1.716 8372
2.038 2.057 1.646 6117
2.135 2.155 1.708 7177
2.041 2.060 1.638 5036
2.138 2.158 1.699 6991
2.044 2.063 1.629 2954
2.136 2.156 1.687 8068
2.042 2.061 1.617 1763
2.149 2.169 1.685 8013
2.055 2.074 1.616 1623
2.163 2.182 1.684 8294
2.068 2.087 1.615 1294
2.171 2.191 1.678 8294
2.184 2.204 1.677 8942
2.187 2.207 1.668 9314
2.282 2.303 1.735 1421
2.190 2.210 1.659 8407
2.285 2.306 1.726 1569
2.198 2.218 1.654 7497
2.293 2.314 1.720 1990
2.206 2.227 1.648 6672
2.301 2.322 1.714 3597
2.214 2.235 1.642 6942
2.310 2.331 1.708 4749
2.217 2.238 1.633 5562
2.313 2.334 1.699 5188
2.316 2.337 1.689 5770
2.221 2.241 1.624 2757
2.314 2.335 1.677 5984
2.410 2.432 1.741 2256
2.317 2.339 1.667 7443
2.413 2.435 1.731 3067
2.336 2.357 1.668 7962
2.431 2.454 1.732 2665
2.389 2.411 1.692 10412
2.293 2.314 1.628 2081
2.397 2.419 1.685 13424
2.301 2.322 1.622 1563
2.406 2.428 1.679 13483
2.309 2.331 1.616 1328
2.424 2.446 1.679 9737
2.328 2.349 1.616 1509
2.432 2.455 1.672 6710
2.336 2.357 1.610 1134
2.435 2.458 1.662 6790
2.444 2.466 1.655 7406
2.467 2.490 1.658 8280
2.370 2.392 1.598 1529
2.475 2.498 1.651 6972
2.572 2.596 1.712 1150
2.484 2.506 1.644 5430
2.581 2.604 1.704 1562
2.487 2.510 1.634 4563
2.584 2.608 1.694 2222
2.510 2.533 1.636 4422
2.608 2.632 1.695 1724
2.554 2.578 1.651 5745
2.457 2.479 1.592 3172
2.568 2.591 1.647 7464
2.470 2.493 1.588 3124
2.591 2.615 1.648 9721
2.494 2.517 1.590 2392
2.594 2.618 1.638 7161
2.692 2.717 1.695 2127
2.613 2.637 1.636 4215
2.721 2.746 1.699 2173
2.632 2.656 1.634 4170
2.730 2.755 1.691 2046
2.614 2.638 1.612 4012
2.712 2.737 1.668 2359
2.622 2.646 1.604 4027
2.720 2.745 1.660 2385
2.724 2.749 1.649 3644
2.625 2.649 1.593 2849
2.737 2.762 1.643 4138
2.638 2.663 1.588 2124
2.740 2.765 1.632 3952
2.641 2.666 1.577 1559
2.748 2.774 1.624 4509
2.847 2.873 1.678 1322
2.757 2.782 1.615 6028
2.856 2.882 1.669 1261
2.754 2.780 1.601 5749
2.853 2.880 1.654 3208
2.836 2.862 1.632 5780
2.737 2.762 1.579 2902
2.865 2.891 1.634 3350
2.766 2.791 1.581 2250
2.884 2.910 1.630 2151
2.779 2.805 1.576 1006
2.944 2.971 1.648 2777
2.947 2.974 1.636 4736
2.848 2.874 1.585 1297
2.950 2.977 1.624 5407
3.050 3.078 1.675 1838
2.959 2.986 1.615 4669
3.058 3.086 1.665 1703
2.962 2.989 1.603 4776
3.104 3.132 1.674 1444
3.023 3.050 1.619 4975
2.923 2.949 1.570 2769
3.031 3.059 1.610 5975
2.931 2.958 1.560 3134
3.034 3.062 1.597 3740
3.134 3.163 1.646 2448
3.174 3.203 1.651 2925
3.074 3.102 1.603 1493
3.182 3.212 1.640 4166
2.992 3.020 1.550 1272
3.196 3.225 1.632 3843
3.296 3.327 1.680 1606
3.263 3.293 1.649 4726
3.162 3.191 1.602 1050
3.266 3.296 1.636 6843
3.269 3.299 1.622 7504
3.266 3.296 1.606 5447
3.367 3.398 1.652 1449
3.323 3.353 1.617 4489
3.222 3.251 1.572 1741
3.251 3.281 1.570 3555
3.352 3.383 1.615 1725
3.259 3.289 1.559 2247
3.361 3.391 1.604 2037
3.353 3.384 1.585 3891
3.356 3.387 1.572 6321
3.364 3.395 1.560 6996
3.372 3.403 1.549 6400
3.375 3.406 1.535 5009
3.373 3.404 1.519 6644
3.370 3.401 1.503 10260
3.373 3.404 1.489 11606
3.376 3.407 1.475 12186
3.373 3.404 1.459 13906
3.507 3.540 1.512 1270
3.381 3.412 1.447 15966
3.854 3.889 1.632 1650
3.384 3.415 1.433 15765
3.857 3.892 1.617 2527
3.387 3.418 1.420 12099
3.860 3.895 1.601 2350
3.389 3.420 1.406 7730
3.868 3.904 1.587 2608
3.392 3.423 1.392 4308
3.888 3.923 1.577 2707
3.955 3.992 1.585 2457
3.804 3.839 1.529 2403
3.969 4.005 1.573 2733
3.866 3.902 1.535 1497
4.010 4.047 1.570 3013
4.193 4.232 1.636 1878
4.180 4.219 1.613 2441
4.018 4.055 1.555 2242
4.172 4.211 1.592 3935
4.275 4.314 1.628 2542
4.273 4.312 1.609 5103
4.170 4.208 1.573 3501
4.270 4.310 1.589 7111
4.151 4.189 1.549 2557
4.284 4.323 1.575 5931
4.159 4.198 1.533 1172
4.292 4.332 1.560 5880
4.412 4.452 1.600 1134
4.295 4.335 1.542 5041
4.415 4.455 1.581 1109
4.304 4.343 1.526 2693
4.611 4.653 1.606 1511
4.415 4.456 1.543 1480
4.647 4.689 1.597 2753
4.413 4.453 1.523 1948
4.649 4.692 1.578 2771
4.426 4.467 1.509 1989
4.620 4.662 1.549 1946
4.723 4.767 1.581 1685
4.704 4.748 1.555 2280
4.601 4.643 1.524 1634
4.811 4.855 1.567 2629
4.707 4.751 1.536 1732
4.814 4.858 1.547 3783
4.795 4.839 1.521 2158
5.011 5.057 1.562 1608
4.852 4.897 1.517 1381
5.052 5.098 1.552 2419
4.855 4.900 1.497 1458
5.055 5.101 1.531 2164
5.213 5.261 1.575 1634
5.183 5.231 1.545 1921
5.304 5.353 1.578 1722
5.307 5.356 1.556 2398
5.186 5.234 1.523 1967
5.151 5.198 1.492 2084
5.299 5.347 1.531 1797
5.515 5.566 1.565 1772
5.230 5.278 1.491 1584
5.518 5.569 1.542 2430
5.622 5.674 1.569 1880
5.510 5.561 1.517 2468
5.614 5.666 1.543 2329
5.623 5.674 1.521 3542
5.507 5.558 1.493 1888
5.631 5.683 1.499 4816
5.527 5.577 1.474 1031
5.634 5.686 1.476 4512
5.952 6.007 1.552 1278
5.636 5.688 1.453 5311
5.961 6.016 1.529 1398
5.639 5.691 1.430 6371
5.953 6.007 1.502 2760
5.636 5.688 1.405 4836
5.950 6.005 1.476 4654
5.964 6.018 1.454 5027
5.639 5.691 1.382 1940
5.994 6.049 1.435 6050
5.658 5.710 1.362 1015
5.997 6.052 1.411 5044
5.655 5.707 1.338 1274
5.983 6.038 1.383 4069
6.539 6.599 1.499 1081
5.985 6.040 1.358 3513
6.377 6.435 1.438 1026
5.993 6.048 1.334 1933
6.561 6.622 1.448 1281
6.564 6.624 1.421 1784
6.001 6.056 1.311 1058
6.567 6.627 1.394 1544
6.569 6.630 1.367 1093
1.621 1.624 1.745 2789
1.625 1.628 1.738 5579
1.628 1.631 1.732 5579
1.715 1.718 1.819 1340
1.640 1.643 1.734 7145
1.727 1.730 1.821 1197
1.653 1.656 1.737 9667
1.665 1.668 1.739 10137
1.753 1.756 1.825 1666
1.673 1.676 1.737 11146
1.761 1.764 1.823 2076
1.677 1.680 1.730 11146
1.764 1.767 1.815 2076
1.675 1.678 1.719 9058
1.763 1.766 1.804 3281
1.674 1.677 1.708 7159
1.762 1.765 1.792 4683
1.737 1.741 1.759 6459
1.649 1.652 1.674 3076
1.736 1.739 1.747 6465
1.648 1.651 1.663 1208
1.739 1.743 1.740 5467
1.738 1.741 1.729 4475
1.741 1.744 1.722 3941
1.782 1.785 1.749 3499
1.688 1.691 1.663 2420
1.804 1.807 1.759 4064
1.715 1.718 1.677 2948
1.812 1.815 1.756 5153
1.723 1.726 1.675 3027
1.820 1.823 1.753 6469
1.731 1.734 1.672 3087
1.828 1.831 1.750 5235
1.739 1.742 1.669 2222
1.855 1.858 1.764 4306
1.765 1.769 1.683 1878
1.858 1.862 1.756 4188
1.688 1.691 1.605 1393
1.857 1.860 1.745 4126
1.691 1.694 1.598 1621
1.851 1.854 1.729 5433
1.699 1.702 1.595 1865
1.849 1.853 1.717 6918
1.702 1.705 1.588 2136
1.862 1.866 1.718 8626
1.705 1.708 1.582 1916
1.870 1.874 1.714 10987
1.713 1.716 1.579 1731
1.883 1.886 1.715 8795
1.974 1.978 1.793 1564
1.896 1.899 1.716 7592
1.987 1.991 1.793 1623
1.904 1.907 1.712 6907
1.995 1.999 1.789 1528
1.912 1.915 1.708 6463
2.003 2.007 1.785 1380
1.915 1.919 1.701 7205
2.007 2.010 1.777 1427
1.914 1.917 1.689 8037
2.005 2.009 1.765 1843
1.917 1.920 1.681 7917
2.009 2.012 1.757 2947
1.925 1.928 1.677 6846
2.017 2.020 1.752 3356
1.996 1.999 1.725 6414
1.904 1.907 1.650 2207
2.004 2.008 1.720 5817
1.912 1.915 1.646 1789
2.012 2.016 1.716 4759
1.920 1.923 1.642 1360
2.025 2.029 1.716 6237
1.932 1.936 1.642 1478
2.033 2.037 1.711 8165
1.940 1.944 1.638 1291
2.032 2.035 1.699 7208
2.030 2.034 1.687 6354
2.048 2.052 1.690 5699
2.066 2.070 1.693 6319
2.159 2.163 1.765 1330
2.103 2.107 1.711 7888
2.117 2.120 1.710 7537
2.023 2.026 1.639 1597
2.140 2.143 1.716 8150
2.046 2.049 1.646 5313
2.078 2.082 1.660 6637
2.172 2.176 1.730 3346
2.106 2.110 1.670 7107
2.201 2.204 1.739 2057
2.119 2.123 1.668 7891
2.214 2.218 1.738 2328
2.152 2.156 1.682 7610
2.058 2.062 1.613 1237
2.166 2.169 1.680 8060
2.260 2.264 1.749 1032
2.174 2.178 1.675 7850
2.268 2.273 1.743 1242
2.192 2.196 1.677 8322
2.287 2.291 1.745 1072
2.195 2.199 1.668 9461
2.290 2.294 1.735 1479
2.198 2.202 1.659 9439
2.293 2.297 1.726 1565
2.206 2.210 1.654 8179
2.327 2.331 1.738 2025
2.214 2.218 1.648 6530
2.325 2.329 1.725 3105
2.223 2.227 1.642 6361
2.318 2.322 1.708 4051
2.341 2.346 1.713 5444
2.236 2.240 1.640 5249
2.345 2.349 1.703 6182
2.249 2.253 1.638 4357
2.333 2.337 1.683 6005
2.429 2.433 1.748 2086
2.331 2.335 1.671 6277
2.427 2.431 1.735 3253
2.380 2.384 1.691 8010
2.283 2.288 1.627 2635
2.398 2.402 1.692 10393
2.302 2.306 1.628 2019
2.411 2.416 1.689 13465
2.315 2.319 1.625 1699
2.420 2.424 1.682 13566
2.323 2.327 1.619 1710
2.428 2.432 1.675 10578
2.331 2.335 1.613 1623
2.436 2.441 1.669 7291
2.339 2.344 1.607 1344
2.439 2.444 1.659 7180
2.536 2.541 1.720 1046
2.448 2.452 1.652 7329
2.350 2.355 1.591 1027
2.476 2.481 1.658 6855
2.379 2.383 1.598 1451
2.485 2.489 1.651 6718
2.493 2.497 1.644 6135
2.590 2.595 1.704 1370
2.501 2.506 1.637 5241
2.599 2.603 1.697 1866
2.504 2.509 1.627 4630
2.602 2.607 1.686 2557
2.574 2.579 1.657 5024
2.476 2.481 1.598 3514
2.582 2.587 1.650 6936
2.484 2.489 1.591 3198
2.596 2.600 1.645 9461
2.498 2.502 1.587 1819
2.599 2.604 1.635 7731
2.697 2.702 1.692 2322
2.617 2.622 1.633 4674
2.731 2.736 1.699 2085
2.610 2.615 1.616 3735
2.709 2.714 1.673 2626
2.613 2.618 1.606 3463
2.712 2.717 1.662 2830
2.720 2.725 1.654 3200
2.621 2.626 1.598 2834
2.676 2.681 1.617 3296
2.791 2.796 1.681 2789
2.794 2.799 1.669 3285
2.679 2.684 1.606 2575
2.808 2.813 1.664 4232
2.709 2.713 1.609 2266
2.806 2.811 1.649 4201
2.691 2.696 1.587 1571
2.767 2.772 1.615 5129
2.866 2.871 1.669 1410
2.833 2.838 1.638 5071
2.733 2.738 1.584 2236
2.851 2.857 1.634 5792
2.752 2.757 1.582 2845
2.854 2.860 1.623 3396
2.755 2.760 1.570 1424
2.889 2.894 1.628 2126
2.897 2.903 1.619 2858
2.953 2.958 1.634 4690
2.853 2.858 1.582 1123
2.961 2.967 1.624 5826
3.061 3.067 1.675 1825
2.970 2.975 1.615 4776
3.070 3.075 1.665 1675
2.973 2.978 1.603 4342
3.110 3.115 1.671 1795
2.981 2.986 1.593 4669
3.113 3.119 1.659 2797
3.031 3.037 1.604 6037
3.132 3.138 1.654 3385
3.050 3.056 1.600 3559
3.151 3.157 1.649 3259
3.186 3.192 1.651 3500
3.069 3.075 1.595 1575
3.205 3.211 1.645 4872
3.104 3.110 1.598 1671
3.208 3.214 1.632 4308
3.309 3.315 1.680 1562
3.269 3.275 1.647 5248
3.168 3.174 1.599 1407
3.278 3.284 1.636 6530
3.177 3.182 1.589 1695
3.281 3.287 1.622 6832
3.180 3.185 1.576 1087
3.279 3.284 1.606 4230
3.380 3.386 1.652 1162
3.335 3.341 1.617 3729
3.234 3.239 1.572 1161
3.333 3.339 1.601 2029
3.357 3.363 1.597 1490
3.360 3.366 1.583 3161
3.368 3.374 1.572 6136
3.377 3.383 1.560 8042
3.390 3.396 1.551 6883
3.393 3.399 1.537 4514
3.385 3.391 1.519 4803
3.388 3.394 1.505 7934
3.385 3.392 1.489 8839
3.388 3.394 1.475 8335
3.496 3.502 1.518 1063
3.391 3.397 1.461 10176
3.515 3.521 1.510 1503
3.394 3.400 1.447 13128
3.512 3.519 1.494 1866
3.396 3.403 1.433 12990
3.871 3.878 1.617 2555
3.399 3.405 1.420 9101
3.502 3.508 1.459 2653
3.402 3.408 1.406 5381
3.883 3.890 1.587 2552
3.404 3.410 1.392 2911
3.961 3.969 1.599 2251
3.970 3.977 1.585 2123
4.078 4.085 1.625 2122
3.989 3.996 1.575 2331
4.092 4.099 1.612 2246
4.008 4.015 1.564 2678
4.236 4.244 1.646 2122
4.255 4.263 1.634 2588
4.093 4.100 1.577 2245
4.269 4.277 1.621 3919
4.166 4.174 1.584 2935
4.278 4.285 1.605 7294
4.174 4.182 1.569 2575
4.281 4.288 1.587 8808
4.172 4.179 1.550 1926
4.289 4.297 1.572 7517
4.308 4.316 1.560 7005
4.412 4.420 1.594 2045
4.311 4.319 1.542 5241
4.415 4.423 1.576 1885
4.314 4.322 1.524 3508
4.434 4.442 1.563 1775
4.426 4.434 1.542 2360
4.317 4.325 1.507 2208
4.429 4.437 1.523 2718
4.664 4.672 1.597 2383
4.437 4.445 1.507 2555
4.667 4.675 1.578 2403
4.626 4.634 1.546 2808
4.446 4.454 1.490 1882
4.634 4.643 1.528 3507
4.738 4.747 1.560 2212
4.637 4.645 1.509 2590
4.834 4.843 1.568 2277
4.832 4.840 1.547 3067
4.640 4.648 1.490 1227
4.818 4.827 1.522 1733
5.029 5.038 1.562 1742
5.139 5.148 1.593 1552
5.060 5.069 1.549 2242
5.230 5.239 1.597 1371
5.068 5.077 1.530 2048
5.172 5.182 1.559 1942
5.170 5.179 1.536 2420
5.329 5.339 1.579 1634
5.326 5.336 1.556 2127
5.162 5.171 1.512 1966
5.219 5.229 1.505 1877
5.324 5.333 1.533 1667
5.536 5.546 1.565 1809
5.167 5.176 1.469 1446
5.539 5.549 1.542 2413
5.643 5.653 1.569 2129
5.635 5.645 1.543 2796
5.530 5.540 1.517 2369
5.638 5.648 1.520 3815
5.528 5.538 1.493 1910
5.652 5.662 1.499 4702
5.823 5.833 1.541 1511
5.655 5.665 1.476 4074
5.831 5.842 1.518 1764
5.657 5.668 1.453 4328
5.983 5.994 1.529 1737
5.660 5.670 1.430 5309
5.980 5.991 1.503 2742
5.977 5.988 1.477 4931
5.657 5.667 1.405 4561
5.986 5.997 1.454 5837
5.654 5.664 1.381 2319
6.011 6.021 1.434 7044
5.673 5.684 1.361 1129
6.013 6.024 1.410 6008
5.681 5.692 1.339 1222
6.010 6.021 1.384 4502
6.569 6.581 1.500 1074
6.007 6.018 1.358 3560
6.015 6.026 1.334 2021
6.586 6.598 1.448 1395
6.588 6.600 1.421 1951
6.023 6.034 1.311 1043
6.585 6.597 1.393 1697
6.577 6.589 1.364 1031
1.626 1.619 1.745 2609
1.630 1.623 1.738 5219
1.633 1.626 1.732 5219
1.720 1.713 1.819 1486
1.641 1.634 1.730 6338
1.728 1.721 1.816 1649
1.658 1.651 1.737 8357
1.745 1.738 1.823 1075
1.670 1.663 1.739 9103
1.758 1.751 1.825 1959
1.678 1.671 1.737 10266
1.766 1.759 1.823 2383
1.682 1.675 1.730 10266
1.769 1.762 1.815 2383
1.680 1.673 1.719 8419
1.768 1.761 1.804 3519
1.744 1.737 1.770 8607
1.656 1.649 1.686 4962
1.743 1.735 1.759 8127
1.654 1.647 1.674 2971
1.741 1.734 1.747 7920
1.653 1.646 1.663 1250
1.745 1.737 1.740 6501
1.656 1.649 1.657 1076
1.753 1.745 1.737 5111
1.664 1.657 1.654 1034
1.751 1.744 1.726 5063
1.662 1.655 1.643 1312
1.750 1.742 1.715 4982
1.661 1.654 1.632 1499
1.748 1.741 1.703 4904
1.838 1.830 1.785 2109
1.756 1.749 1.701 5211
1.846 1.838 1.782 2757
1.774 1.766 1.706 5911
1.684 1.677 1.625 2425
1.777 1.769 1.699 4332
1.867 1.859 1.780 2925
1.861 1.853 1.764 4153
1.771 1.763 1.683 2241
1.859 1.852 1.752 4057
1.688 1.681 1.601 1521
1.858 1.850 1.740 4158
1.691 1.684 1.594 1835
1.856 1.849 1.729 4596
1.699 1.692 1.591 2042
1.860 1.852 1.721 5119
1.702 1.695 1.584 2330
1.877 1.869 1.726 7158
1.710 1.703 1.582 2190
1.885 1.877 1.723 9613
1.718 1.710 1.579 2119
1.893 1.886 1.719 8370
1.716 1.709 1.568 1818
1.902 1.894 1.716 7464
1.714 1.707 1.557 1600
1.905 1.897 1.708 7230
1.996 1.988 1.785 1809
1.913 1.905 1.704 7120
2.005 1.996 1.781 1662
1.916 1.908 1.697 7909
2.008 2.000 1.773 1760
1.919 1.911 1.689 8697
2.011 2.003 1.765 1858
1.923 1.914 1.681 8098
2.015 2.006 1.757 2581
1.926 1.918 1.673 6442
2.018 2.010 1.748 3304
2.002 1.993 1.725 5536
1.909 1.901 1.650 2220
2.010 2.002 1.720 5305
1.917 1.909 1.646 1467
2.018 2.010 1.716 4657
2.031 2.023 1.716 5989
2.034 2.026 1.707 7495
2.033 2.024 1.695 6868
2.036 2.027 1.687 6391
2.054 2.045 1.690 5568
2.072 2.063 1.693 6304
2.166 2.157 1.765 1174
2.115 2.106 1.715 7682
2.123 2.114 1.710 7282
2.029 2.020 1.639 1595
2.141 2.132 1.713 7378
2.047 2.038 1.642 4269
2.090 2.081 1.663 6163
2.184 2.175 1.734 2492
2.113 2.104 1.670 7491
2.207 2.198 1.739 1989
2.121 2.112 1.665 8557
2.215 2.206 1.734 2203
2.154 2.145 1.678 7077
2.249 2.239 1.747 1293
2.167 2.158 1.676 7791
2.262 2.252 1.745 1514
2.175 2.166 1.671 7532
2.270 2.261 1.739 1869
2.193 2.184 1.673 7506
2.289 2.279 1.741 1529
2.207 2.197 1.671 9148
2.302 2.292 1.739 1273
2.205 2.195 1.659 9697
2.300 2.291 1.726 1789
2.213 2.204 1.654 8156
2.339 2.329 1.741 2437
2.226 2.217 1.652 6164
2.347 2.337 1.735 3425
2.234 2.225 1.646 5822
2.350 2.340 1.726 4229
2.354 2.344 1.716 5900
2.253 2.243 1.647 4996
2.352 2.342 1.703 6835
2.256 2.246 1.638 4308
2.355 2.345 1.694 6666
2.259 2.249 1.629 3776
2.353 2.343 1.681 6137
2.257 2.247 1.616 3047
2.382 2.372 1.688 7708
2.285 2.276 1.624 2681
2.405 2.395 1.692 9486
2.309 2.299 1.628 2172
2.419 2.408 1.689 12502
2.322 2.312 1.625 1773
2.427 2.417 1.682 12914
2.330 2.320 1.619 1887
2.435 2.425 1.675 10634
2.338 2.328 1.613 1934
2.444 2.433 1.669 7393
2.346 2.336 1.607 1607
2.442 2.431 1.656 7102
2.539 2.528 1.717 1170
2.450 2.439 1.649 7132
2.479 2.468 1.655 5838
2.381 2.371 1.594 1369
2.497 2.487 1.654 5999
2.500 2.490 1.644 6062
2.598 2.587 1.704 1061
2.509 2.498 1.637 5571
2.606 2.595 1.697 1514
2.512 2.501 1.627 4458
2.610 2.599 1.686 2323
2.582 2.571 1.657 4328
2.484 2.473 1.598 3084
2.585 2.574 1.647 6128
2.487 2.476 1.588 2410
2.598 2.587 1.642 8481
2.697 2.685 1.700 1473
2.607 2.596 1.635 7635
2.705 2.694 1.692 2105
2.625 2.614 1.633 5237
2.740 2.728 1.699 1779
2.618 2.607 1.616 4321
2.717 2.705 1.673 2321
2.621 2.610 1.606 3430
2.746 2.734 1.677 2849
2.749 2.738 1.666 3803
2.619 2.608 1.592 2556
2.695 2.684 1.622 3482
2.794 2.782 1.678 2134
2.808 2.796 1.672 2838
2.708 2.697 1.617 2442
2.816 2.804 1.664 4453
2.717 2.705 1.609 2072
2.819 2.807 1.652 4587
2.720 2.708 1.598 1563
2.780 2.769 1.618 4356
2.880 2.868 1.672 1346
2.841 2.829 1.638 4313
2.741 2.730 1.584 1813
2.860 2.848 1.634 5313
2.760 2.749 1.582 2376
2.858 2.846 1.620 3580
2.758 2.746 1.568 1037
2.898 2.886 1.628 2498
2.798 2.786 1.576 1205
2.906 2.894 1.619 3338
2.957 2.944 1.631 4282
3.057 3.044 1.682 1189
2.970 2.958 1.624 5743
3.071 3.058 1.675 1857
2.979 2.966 1.615 4572
3.079 3.066 1.665 1831
2.976 2.964 1.600 3645
3.119 3.106 1.671 2040
3.006 2.993 1.601 4098
3.122 3.109 1.659 3233
3.041 3.028 1.604 5808
3.141 3.128 1.654 4022
3.160 3.147 1.649 3938
3.054 3.041 1.597 3769
3.195 3.182 1.651 3719
3.078 3.066 1.595 1724
3.214 3.201 1.645 4906
3.113 3.100 1.598 1949
3.223 3.209 1.635 4335
3.122 3.109 1.587 1745
3.269 3.255 1.642 5114
3.167 3.154 1.594 1163
3.282 3.268 1.633 5870
3.181 3.168 1.586 1472
3.291 3.277 1.622 5976
3.189 3.176 1.576 1040
3.288 3.275 1.606 3382
3.350 3.336 1.619 3320
3.238 3.224 1.569 1096
3.353 3.339 1.606 2027
3.367 3.353 1.597 1299
3.381 3.367 1.588 2547
3.384 3.370 1.574 5902
3.392 3.378 1.562 8572
3.400 3.386 1.551 6751
3.409 3.394 1.539 3724
3.401 3.386 1.521 4086
3.409 3.395 1.509 7644
3.412 3.397 1.495 6995
3.409 3.395 1.479 4647
3.512 3.497 1.520 1201
3.412 3.398 1.465 7180
3.520 3.505 1.508 1418
3.409 3.395 1.449 9872
3.517 3.503 1.491 1910
3.407 3.392 1.433 9185
3.515 3.500 1.475 2719
3.409 3.395 1.420 5910
3.512 3.497 1.459 2934
3.417 3.403 1.408 3108
3.520 3.506 1.446 2560
3.512 3.497 1.428 2408
4.011 3.994 1.613 2244
4.090 4.073 1.625 3594
3.515 3.500 1.414 2164
4.093 4.076 1.608 3715
4.197 4.179 1.645 1580
4.102 4.085 1.593 3321
4.265 4.247 1.652 3011
4.263 4.245 1.632 4406
4.094 4.077 1.573 3193
4.277 4.259 1.619 6156
4.173 4.156 1.583 2843
4.280 4.262 1.601 9418
4.176 4.159 1.566 2156
4.283 4.265 1.584 10295
4.179 4.161 1.549 1393
4.291 4.273 1.568 8532
4.417 4.398 1.610 1812
4.310 4.292 1.556 7190
4.414 4.396 1.590 3832
4.308 4.290 1.537 5073
4.412 4.393 1.571 3107
4.316 4.298 1.521 3941
4.447 4.429 1.563 2317
4.439 4.421 1.542 2871
4.325 4.306 1.505 2775
4.442 4.424 1.523 3099
4.656 4.636 1.591 2210
4.642 4.623 1.566 2881
4.451 4.432 1.507 2837
4.640 4.620 1.546 3725
4.514 4.495 1.507 2339
4.648 4.629 1.528 4719
4.752 4.732 1.560 2364
4.651 4.632 1.509 3734
4.854 4.834 1.570 1786
4.841 4.820 1.545 2160
4.654 4.634 1.490 1993
4.833 4.812 1.522 1404
4.662 4.643 1.473 1384
4.989 4.968 1.546 1768
5.154 5.133 1.593 1552
5.069 5.048 1.547 2017
5.174 5.152 1.577 1564
5.182 5.160 1.557 2108
5.078 5.056 1.528 1865
5.180 5.158 1.534 2723
5.350 5.328 1.581 1514
5.183 5.161 1.513 2103
5.348 5.325 1.557 1943
5.235 5.213 1.505 2112
5.340 5.317 1.533 1470
5.552 5.529 1.565 1555
5.199 5.177 1.474 1553
5.655 5.631 1.567 2129
5.550 5.526 1.541 2058
5.652 5.628 1.543 2872
5.547 5.524 1.517 1973
5.655 5.631 1.520 3755
5.550 5.527 1.494 1634
5.663 5.639 1.498 4106
5.840 5.816 1.541 2006
5.677 5.653 1.477 2942
5.843 5.819 1.517 2247
5.680 5.656 1.454 2877
6.006 5.981 1.530 2155
5.677 5.653 1.430 4153
6.004 5.978 1.504 2935
6.001 5.976 1.479 4702
5.674 5.650 1.405 4288
6.009 5.984 1.455 5784
5.671 5.647 1.381 2661
6.029 6.003 1.434 7057
5.679 5.655 1.359 1295
6.031 6.006 1.410 6212
5.698 5.674 1.339 1059
6.028 6.003 1.384 4439
6.594 6.567 1.501 1105
6.031 6.006 1.359 3303
6.597 6.569 1.474 1069
6.039 6.014 1.335 2052
6.611 6.583 1.450 1505
6.608 6.580 1.421 2053
6.041 6.016 1.311 1132
6.605 6.577 1.393 1779
6.597 6.569 1.364 1047
1.629 1.608 1.740 2752
1.632 1.611 1.734 5504
1.719 1.697 1.821 1016
1.635 1.614 1.727 5504
1.723 1.701 1.814 1836
1.648 1.627 1.730 5554
1.735 1.713 1.816 2064
1.670 1.648 1.741 6148
1.582 1.562 1.655 1786
1.678 1.656 1.739 6989
1.765 1.743 1.825 2502
1.741 1.719 1.791 8356
1.653 1.632 1.705 4735
1.745 1.722 1.784 8356
1.656 1.635 1.699 4735
1.748 1.726 1.777 9988
1.660 1.638 1.692 4618
1.751 1.729 1.770 11621
1.663 1.642 1.686 4500
1.750 1.728 1.759 10505
1.661 1.640 1.674 2873
1.753 1.731 1.752 9456
1.665 1.643 1.668 1476
1.757 1.734 1.744 7472
1.668 1.646 1.661 1373
1.760 1.738 1.737 5487
1.671 1.649 1.654 1270
1.763 1.741 1.730 6701
1.674 1.653 1.648 1364
1.762 1.739 1.719 7932
1.672 1.651 1.637 1272
1.761 1.738 1.708 7911
1.671 1.649 1.626 1338
1.764 1.741 1.701 8222
1.854 1.830 1.782 1992
1.777 1.754 1.702 9049
1.867 1.843 1.783 2273
1.789 1.766 1.703 6605
1.880 1.856 1.784 2169
1.807 1.784 1.709 4936
1.897 1.873 1.789 1296
1.863 1.839 1.748 3869
1.772 1.749 1.668 1660
1.866 1.842 1.740 3559
1.694 1.672 1.590 2065
1.879 1.855 1.741 3596
1.702 1.680 1.587 2073
1.887 1.863 1.738 3997
1.709 1.688 1.584 2141
1.890 1.866 1.730 6048
1.712 1.691 1.577 1945
1.898 1.874 1.727 8280
1.725 1.703 1.579 1791
1.902 1.877 1.719 7857
1.718 1.696 1.564 1789
1.905 1.881 1.712 7434
1.997 1.971 1.789 2034
1.913 1.889 1.708 7765
2.005 1.979 1.785 1972
1.916 1.892 1.700 8112
2.008 1.983 1.777 2264
1.924 1.900 1.697 8592
2.017 1.991 1.773 1833
1.928 1.903 1.689 9199
2.020 1.994 1.765 1859
1.931 1.906 1.681 7889
2.023 1.997 1.757 1957
1.934 1.909 1.673 5629
2.027 2.001 1.748 2055
2.001 1.975 1.717 3996
1.908 1.883 1.642 1219
2.019 1.993 1.720 4119
1.926 1.901 1.646 1345
2.051 2.025 1.736 4883
1.958 1.933 1.662 1448
2.040 2.014 1.716 5953
2.038 2.012 1.704 7593
2.042 2.015 1.695 7776
2.040 2.014 1.683 8033
2.058 2.032 1.687 6706
2.081 2.054 1.693 6202
2.175 2.147 1.765 1091
2.124 2.097 1.715 6825
2.030 2.004 1.644 1481
2.127 2.100 1.706 6457
2.033 2.007 1.636 1446
2.135 2.108 1.702 6196
2.041 2.015 1.631 1714
2.129 2.101 1.686 6154
2.127 2.100 1.673 8041
2.222 2.193 1.743 1540
2.130 2.103 1.665 9278
2.225 2.196 1.734 1636
2.143 2.116 1.663 7099
2.238 2.210 1.732 1782
2.176 2.149 1.676 7261
2.272 2.243 1.745 1657
2.175 2.147 1.664 7394
2.270 2.241 1.732 3218
2.188 2.160 1.662 6562
2.283 2.254 1.730 3568
2.216 2.188 1.671 8149
2.312 2.282 1.739 1567
2.219 2.191 1.662 9350
2.315 2.286 1.729 2180
2.228 2.199 1.657 7473
2.349 2.319 1.741 2747
2.241 2.212 1.655 5416
2.352 2.322 1.732 4066
2.360 2.330 1.726 5295
2.249 2.220 1.649 4765
2.364 2.333 1.716 6644
2.257 2.228 1.644 4122
2.367 2.337 1.707 7560
2.270 2.241 1.642 4029
2.370 2.340 1.697 7861
2.274 2.244 1.632 4052
2.368 2.338 1.684 6526
2.272 2.242 1.620 3569
2.387 2.356 1.685 6578
2.290 2.261 1.621 3167
2.426 2.395 1.698 8311
2.313 2.284 1.625 2777
2.434 2.403 1.692 10952
2.337 2.307 1.629 2602
2.437 2.406 1.682 11406
2.340 2.310 1.619 2178
2.446 2.414 1.675 9708
2.348 2.318 1.613 1701
2.449 2.418 1.666 6955
2.351 2.321 1.604 1261
2.452 2.421 1.656 6406
2.455 2.424 1.646 6570
2.553 2.520 1.707 1383
2.463 2.432 1.639 5206
2.561 2.529 1.700 1517
2.513 2.481 1.658 4910
2.521 2.489 1.651 5889
2.530 2.497 1.644 6349
2.628 2.594 1.703 1000
2.538 2.505 1.636 4753
2.636 2.603 1.695 1877
2.588 2.555 1.654 3808
2.489 2.457 1.595 2040
2.591 2.558 1.643 4865
2.492 2.460 1.585 1487
2.594 2.561 1.633 6172
2.693 2.658 1.691 1697
2.628 2.595 1.641 6562
2.727 2.692 1.698 1755
2.637 2.603 1.633 5599
2.736 2.701 1.690 1509
2.635 2.601 1.619 4702
2.755 2.719 1.688 2108
2.763 2.728 1.680 3824
2.632 2.599 1.606 3444
2.766 2.731 1.669 4794
2.635 2.602 1.595 2898
2.769 2.734 1.657 3920
2.649 2.615 1.590 3641
2.814 2.778 1.669 2930
2.715 2.680 1.614 2519
2.823 2.787 1.661 5148
2.723 2.688 1.606 1845
2.831 2.795 1.652 5000
2.731 2.696 1.598 1704
2.834 2.798 1.641 3375
2.734 2.699 1.587 1731
2.838 2.801 1.629 2648
2.732 2.697 1.573 1655
2.878 2.841 1.637 3683
2.777 2.742 1.584 1716
2.844 2.807 1.606 3784
2.944 2.906 1.659 1379
2.847 2.810 1.595 3172
2.947 2.909 1.647 1738
2.924 2.886 1.621 3508
2.823 2.787 1.570 1381
2.980 2.942 1.636 3386
2.858 2.821 1.574 1333
2.988 2.950 1.627 5263
2.888 2.851 1.576 1928
2.991 2.953 1.615 4412
3.092 3.053 1.665 2365
3.026 2.988 1.619 2647
3.138 3.098 1.674 2372
3.035 2.996 1.609 3880
3.141 3.101 1.661 3619
3.048 3.009 1.602 5226
3.150 3.109 1.651 4605
3.174 3.133 1.649 4339
3.067 3.028 1.597 3797
3.209 3.168 1.651 3571
3.108 3.068 1.603 2138
3.234 3.192 1.648 4501
3.132 3.092 1.600 2334
3.242 3.201 1.637 4890
3.140 3.100 1.590 1601
3.251 3.209 1.627 5862
3.368 3.325 1.681 1219
3.248 3.207 1.611 6235
3.382 3.339 1.673 1350
3.300 3.257 1.620 4922
3.303 3.260 1.606 2849
3.370 3.327 1.622 3861
3.257 3.216 1.572 1136
3.373 3.330 1.608 3167
3.398 3.354 1.604 2307
3.406 3.363 1.592 3468
3.404 3.360 1.576 6307
3.407 3.363 1.562 8191
3.509 3.464 1.606 1174
3.420 3.377 1.553 5807
3.523 3.478 1.596 1250
3.461 3.417 1.555 3602
3.426 3.382 1.525 5394
3.540 3.495 1.572 1490
3.429 3.385 1.511 9590
3.537 3.492 1.555 1640
3.437 3.393 1.500 7427
3.540 3.495 1.541 1729
3.446 3.402 1.488 4506
3.635 3.589 1.563 1723
3.438 3.394 1.470 5643
3.638 3.592 1.548 2091
3.435 3.391 1.454 5437
3.647 3.600 1.536 2655
3.427 3.383 1.435 3784
3.731 3.683 1.552 3216
3.734 3.686 1.537 3401
3.435 3.391 1.424 2622
3.938 3.888 1.597 2767
3.748 3.700 1.526 2728
4.105 4.052 1.641 3213
3.527 3.482 1.428 2455
4.108 4.055 1.625 5487
3.535 3.490 1.416 1993
4.116 4.064 1.610 7691
4.280 4.225 1.669 1806
4.120 4.067 1.593 6728
4.283 4.229 1.652 4638
4.286 4.232 1.634 7231
4.123 4.070 1.577 4417
4.290 4.235 1.617 9429
4.169 4.116 1.575 3182
4.293 4.238 1.599 11836
4.178 4.124 1.560 2322
4.296 4.241 1.582 11783
4.400 4.343 1.617 1969
4.304 4.249 1.566 9496
4.430 4.373 1.608 3352
4.307 4.252 1.549 7787
4.428 4.371 1.589 6178
4.304 4.249 1.529 5080
4.420 4.363 1.567 4483
4.324 4.268 1.517 3556
4.472 4.415 1.565 2917
4.459 4.401 1.542 3207
4.343 4.288 1.505 2414
4.659 4.600 1.585 4150
4.461 4.404 1.523 2924
4.662 4.603 1.566 4982
4.525 4.467 1.524 2909
4.660 4.600 1.546 5471
4.528 4.470 1.506 2995
4.668 4.608 1.528 6272
4.536 4.478 1.489 2504
4.671 4.611 1.509 5102
4.908 4.845 1.580 2051
4.674 4.614 1.490 3010
4.845 4.783 1.540 1517
4.677 4.617 1.471 2014
5.052 4.987 1.579 1394
5.011 4.947 1.546 2171
4.906 4.843 1.517 1209
5.019 4.955 1.527 2372
5.246 5.179 1.591 1775
5.238 5.171 1.566 2149
5.094 5.029 1.527 1724
5.196 5.130 1.533 2768
5.302 5.234 1.561 1709
5.288 5.220 1.535 2294
5.183 5.116 1.507 1807
5.258 5.190 1.505 2693
5.368 5.300 1.534 1146
5.244 5.177 1.479 2009
5.571 5.499 1.563 1323
5.574 5.502 1.541 1896
5.679 5.606 1.567 1726
5.682 5.609 1.544 2819
5.854 5.779 1.587 2167
5.679 5.607 1.520 3654
5.857 5.782 1.563 2310
5.677 5.604 1.495 3645
5.865 5.790 1.541 2491
5.674 5.601 1.471 2887
5.868 5.793 1.517 2514
