1.221 3.129 1.617 8375
1.271 3.257 1.678 1596
1.228 3.147 1.614 7039
1.278 3.275 1.675 1774
1.256 3.218 1.636 12432
1.306 3.346 1.696 1253
1.263 3.236 1.632 11978
1.313 3.364 1.692 1197
1.275 3.267 1.635 9422
1.325 3.395 1.695 1195
1.279 3.278 1.628 9005
1.329 3.406 1.687 1358
1.281 3.282 1.618 8417
1.331 3.411 1.677 1410
1.279 3.279 1.605 6849
1.330 3.408 1.663 2748
1.310 3.358 1.628 7742
1.260 3.228 1.570 1626
1.306 3.348 1.612 7822
1.357 3.477 1.670 1757
1.340 3.434 1.638 6988
1.289 3.304 1.580 1701
1.339 3.431 1.624 7644
1.288 3.301 1.567 1178
1.335 3.421 1.607 7424
1.334 3.419 1.594 7618
1.385 3.549 1.650 1122
1.338 3.429 1.586 7782
1.389 3.560 1.642 1780
1.342 3.440 1.579 6337
1.393 3.570 1.634 2749
1.376 3.526 1.603 4058
1.325 3.396 1.548 1087
1.383 3.544 1.598 3640
1.406 3.603 1.609 6789
1.355 3.472 1.555 1812
1.413 3.621 1.604 9547
1.362 3.490 1.550 2497
1.417 3.632 1.596 8714
1.366 3.501 1.542 2170
1.419 3.636 1.584 5723
1.470 3.767 1.637 1956
1.420 3.640 1.573 4725
1.472 3.771 1.626 3782
1.446 3.706 1.586 8013
1.395 3.574 1.534 1911
1.448 3.710 1.575 8045
1.499 3.841 1.627 1784
1.460 3.741 1.574 5629
1.409 3.610 1.523 1796
1.467 3.759 1.568 6448
1.518 3.891 1.619 1630
1.479 3.791 1.567 5745
1.428 3.659 1.517 1639
1.486 3.809 1.561 4530
1.538 3.941 1.611 2595
1.526 3.910 1.585 4337
1.474 3.778 1.536 2807
1.503 3.851 1.550 4922
1.554 3.983 1.599 1470
1.512 3.876 1.546 4155
1.564 4.008 1.595 1930
1.517 3.887 1.536 3939
1.568 4.019 1.585 2564
1.554 3.981 1.557 4520
1.605 4.114 1.605 1532
1.555 3.985 1.545 5343
1.623 4.160 1.607 2073
1.587 4.066 1.560 5128
1.535 3.933 1.513 3181
1.588 4.070 1.547 5178
1.640 4.203 1.594 2605
1.592 4.081 1.537 4745
1.644 4.214 1.583 2485
1.597 4.091 1.527 4202
1.649 4.225 1.573 2594
1.628 4.173 1.540 3450
1.576 4.039 1.495 1527
1.632 4.183 1.530 5155
1.580 4.050 1.485 1576
1.642 4.208 1.524 4985
1.694 4.342 1.569 1402
1.652 4.233 1.518 5726
1.704 4.367 1.562 1120
1.656 4.244 1.507 6455
1.666 4.269 1.501 4740
1.718 4.403 1.544 1523
1.678 4.301 1.497 4429
1.731 4.435 1.540 1135
1.707 4.375 1.506 5681
1.760 4.510 1.548 1770
1.712 4.386 1.494 4528
1.764 4.521 1.536 1946
1.710 4.383 1.479 3564
1.763 4.517 1.520 2071
1.753 4.493 1.497 3124
1.701 4.358 1.456 1923
1.755 4.496 1.484 3478
1.824 4.674 1.537 2453
1.825 4.678 1.523 2467
1.762 4.514 1.474 2461
1.824 4.674 1.506 3399
1.766 4.525 1.462 2354
1.853 4.749 1.512 5097
1.800 4.614 1.473 1848
1.863 4.774 1.504 4400
1.810 4.639 1.465 2333
1.870 4.792 1.493 4613
1.923 4.927 1.532 2354
1.874 4.803 1.480 5331
1.927 4.938 1.519 3436
1.876 4.806 1.465 5126
1.929 4.942 1.503 4023
1.947 4.989 1.500 4537
1.880 4.817 1.452 2309
1.951 4.999 1.486 4671
2.004 5.135 1.523 1729
1.952 5.003 1.471 3451
2.014 5.161 1.513 2548
1.931 4.949 1.440 2848
2.001 5.128 1.488 2539
2.084 5.340 1.526 3163
1.966 5.039 1.447 1845
2.080 5.329 1.506 5154
2.007 5.143 1.458 1490
2.078 5.326 1.487 4844
2.025 5.189 1.453 1418
2.077 5.322 1.469 2132
2.150 5.509 1.516 1857
2.154 5.520 1.501 3442
2.098 5.376 1.465 2421
2.155 5.523 1.484 3754
2.099 5.380 1.448 2102
2.191 5.613 1.487 2870
2.137 5.477 1.454 1437
2.203 5.646 1.477 3057
2.257 5.783 1.510 1233
2.241 5.743 1.481 3931
2.188 5.606 1.449 2285
2.245 5.754 1.465 2868
2.299 5.891 1.497 2133
2.295 5.880 1.476 3659
2.348 6.017 1.507 1800
2.299 5.891 1.459 2603
2.352 6.028 1.490 2110
2.345 6.010 1.466 2089
2.266 5.808 1.421 1355
2.313 5.927 1.429 2341
2.386 6.115 1.470 2174
2.399 6.147 1.457 2096
2.314 5.930 1.410 1852
2.392 6.129 1.433 2587
2.482 6.361 1.483 1817
2.393 6.133 1.414 2916
2.481 6.357 1.461 1978
2.474 6.339 1.437 2537
2.380 6.100 1.388 2052
2.483 6.364 1.422 2628
2.537 6.502 1.450 1315
2.536 6.498 1.428 2286
2.482 6.360 1.401 1762
2.540 6.509 1.409 2682
2.605 6.676 1.442 1826
2.606 6.679 1.421 2970
2.541 6.512 1.389 2217
2.608 6.683 1.401 3292
2.704 6.930 1.448 1620
2.618 6.708 1.384 2353
2.779 7.122 1.461 2089
2.630 6.740 1.368 2060
2.735 7.009 1.418 2009
2.756 7.064 1.405 2028
2.691 6.896 1.375 1513
2.758 7.067 1.383 2269
2.903 7.438 1.449 1627
2.904 7.442 1.426 1985
2.759 7.070 1.361 1638
2.905 7.445 1.403 1767
3.070 7.868 1.475 1458
2.961 7.587 1.403 1708
3.069 7.864 1.449 1579
2.956 7.576 1.377 1691
3.070 7.867 1.425 1583
3.157 8.090 1.435 1796
3.074 7.878 1.401 1497
3.090 7.918 1.383 1740
3.155 8.086 1.409 1562
3.085 7.907 1.356 1844
3.259 8.352 1.425 1321
3.420 8.765 1.461 1430
3.084 7.903 1.330 1418
3.424 8.775 1.434 1703
3.165 8.111 1.336 1265
3.429 8.786 1.408 1782
3.374 8.647 1.388 1196
3.393 8.695 1.367 1488
3.447 8.833 1.387 1071
3.426 8.778 1.351 1268
3.424 8.774 1.323 1203
0.820 2.081 1.703 4013
0.822 2.086 1.697 8027
0.742 1.882 1.541 1601
0.824 2.090 1.691 8027
0.746 1.892 1.540 1440
0.825 2.094 1.684 10038
0.747 1.895 1.534 1299
0.827 2.098 1.678 12049
0.749 1.899 1.528 1299
0.831 2.108 1.676 10005
0.849 2.155 1.701 10033
0.804 2.040 1.615 1156
0.851 2.159 1.694 10033
0.806 2.044 1.609 1160
0.846 2.145 1.674 10598
0.891 2.261 1.759 1102
0.847 2.149 1.668 12062
0.893 2.265 1.752 1609
0.849 2.154 1.661 11153
0.895 2.270 1.745 2379
0.850 2.158 1.655 10245
0.896 2.274 1.738 3150
0.855 2.168 1.652 7961
0.900 2.284 1.736 3822
0.892 2.264 1.711 7952
0.846 2.147 1.628 4003
0.892 2.262 1.700 9478
0.846 2.145 1.617 2714
0.891 2.260 1.689 11236
0.840 2.131 1.598 1895
0.893 2.265 1.682 11201
0.846 2.147 1.600 1546
0.894 2.269 1.675 12050
0.941 2.386 1.756 1317
0.896 2.273 1.668 12934
0.942 2.391 1.749 1540
0.898 2.277 1.661 12596
0.944 2.395 1.742 1754
0.902 2.287 1.658 12468
0.948 2.406 1.738 1918
0.901 2.285 1.647 12314
0.957 2.429 1.744 2568
0.900 2.283 1.636 12539
0.959 2.433 1.736 3347
0.902 2.287 1.629 12273
0.953 2.419 1.716 4310
0.903 2.291 1.622 12007
0.955 2.423 1.709 5741
0.907 2.301 1.619 10804
0.964 2.446 1.714 7567
0.966 2.450 1.706 10454
0.911 2.312 1.616 9848
0.967 2.454 1.699 10779
0.913 2.316 1.609 7848
0.967 2.452 1.687 11272
0.914 2.320 1.602 5847
0.973 2.469 1.688 10044
0.916 2.324 1.594 4140
0.982 2.492 1.692 10527
0.918 2.328 1.587 2433
0.989 2.509 1.693 11774
0.919 2.332 1.580 1676
0.993 2.520 1.689 13898
1.041 2.641 1.765 1347
0.995 2.524 1.681 12393
1.043 2.645 1.757 1422
0.999 2.535 1.677 10090
1.047 2.656 1.752 1248
1.008 2.558 1.681 7433
1.056 2.679 1.756 1513
0.997 2.530 1.654 6811
1.045 2.652 1.728 4151
0.999 2.534 1.646 7982
1.047 2.656 1.720 4932
1.003 2.545 1.642 7060
1.051 2.667 1.716 6975
1.053 2.671 1.707 9158
1.005 2.549 1.634 6274
1.055 2.675 1.699 10575
1.006 2.553 1.626 4369
1.059 2.686 1.695 12063
1.010 2.563 1.622 1786
1.058 2.684 1.683 12634
1.106 2.807 1.755 1493
1.060 2.688 1.675 12529
1.108 2.811 1.746 1994
1.066 2.705 1.674 12446
1.115 2.828 1.745 1421
1.068 2.709 1.665 8424
1.117 2.833 1.736 2161
1.100 2.791 1.702 5627
1.052 2.668 1.631 2335
1.099 2.789 1.689 5990
1.051 2.665 1.619 1117
1.101 2.793 1.681 5680
1.150 2.917 1.750 1139
1.100 2.791 1.668 4981
1.149 2.915 1.738 2189
1.133 2.874 1.703 4582
1.084 2.749 1.634 1950
1.134 2.878 1.695 4828
1.085 2.753 1.626 1324
1.141 2.895 1.693 4646
1.092 2.771 1.625 1219
1.151 2.919 1.695 4255
1.101 2.794 1.627 1859
1.152 2.923 1.686 6899
1.103 2.798 1.618 1329
1.151 2.921 1.673 9819
1.201 3.046 1.740 1039
1.156 2.932 1.668 10105
1.106 2.806 1.601 1035
1.160 2.943 1.662 7610
1.180 2.993 1.677 7095
1.130 2.867 1.611 1477
1.179 2.991 1.664 6909
1.173 2.975 1.645 6376
1.222 3.101 1.710 1547
1.200 3.045 1.670 6763
1.151 2.919 1.605 1603
1.205 3.056 1.664 5578
1.155 2.930 1.600 1435
1.219 3.094 1.671 5117
1.169 2.967 1.607 1170
1.221 3.098 1.662 5725
1.223 3.102 1.652 5851
1.222 3.099 1.639 6766
1.272 3.227 1.702 1321
1.223 3.103 1.630 9907
1.273 3.231 1.692 1469
1.228 3.114 1.623 10660
1.278 3.242 1.685 1628
1.232 3.125 1.617 9309
1.282 3.253 1.678 1914
1.263 3.203 1.643 7760
1.212 3.075 1.582 1405
1.267 3.214 1.636 12425
1.317 3.342 1.696 1454
1.271 3.225 1.629 11285
1.322 3.353 1.689 1623
1.286 3.262 1.635 9089
1.337 3.391 1.695 1245
1.290 3.273 1.628 9825
1.341 3.402 1.687 1372
1.292 3.277 1.618 9573
1.343 3.406 1.677 1494
1.291 3.274 1.605 7232
1.341 3.403 1.663 2781
1.319 3.346 1.625 7416
1.268 3.217 1.567 1544
1.321 3.350 1.615 7923
1.372 3.480 1.673 1783
1.352 3.429 1.638 6853
1.301 3.300 1.580 1557
1.353 3.433 1.627 7667
1.302 3.304 1.570 1142
1.350 3.424 1.610 7552
1.348 3.421 1.597 6775
1.400 3.551 1.653 1285
1.353 3.432 1.589 6429
1.404 3.562 1.645 1596
1.378 3.497 1.605 5710
1.388 3.522 1.603 6394
1.392 3.533 1.595 5607
1.397 3.543 1.587 6736
1.448 3.674 1.641 1111
1.423 3.609 1.601 9124
1.371 3.478 1.547 1633
1.430 3.627 1.596 8156
1.378 3.496 1.542 2197
1.431 3.631 1.584 5685
1.483 3.762 1.637 2061
1.427 3.621 1.568 5174
1.479 3.752 1.620 4140
1.459 3.701 1.586 8186
1.407 3.570 1.534 1854
1.460 3.705 1.575 8508
1.512 3.836 1.627 1774
1.470 3.729 1.572 5978
1.522 3.861 1.623 2416
1.474 3.740 1.563 5838
1.526 3.872 1.614 2452
1.495 3.793 1.570 4814
1.443 3.661 1.519 1730
1.496 3.797 1.558 3664
1.548 3.928 1.608 2137
1.512 3.835 1.559 4511
1.460 3.703 1.510 1949
1.516 3.846 1.550 5891
1.568 3.978 1.599 2172
1.531 3.885 1.551 4979
1.583 4.017 1.600 2258
1.535 3.895 1.541 5365
1.588 4.028 1.590 2428
1.573 3.990 1.562 5215
1.520 3.857 1.514 2939
1.571 3.987 1.547 5658
1.640 4.161 1.610 2455
1.598 4.054 1.557 5407
1.545 3.921 1.510 2864
1.599 4.057 1.545 4972
1.652 4.190 1.591 2715
1.606 4.075 1.537 4830
1.659 4.208 1.583 1731
1.611 4.086 1.527 4714
1.663 4.219 1.573 1523
1.642 4.167 1.540 3355
1.590 4.034 1.495 1650
1.647 4.178 1.530 5369
1.594 4.044 1.485 1701
1.657 4.203 1.524 5682
1.709 4.336 1.569 1428
1.666 4.228 1.518 5814
1.719 4.361 1.562 1551
1.671 4.238 1.507 6053
1.723 4.372 1.551 1453
1.678 4.256 1.499 4045
1.730 4.390 1.542 1626
1.715 4.352 1.515 4791
1.719 4.362 1.503 6542
1.772 4.497 1.546 1935
1.727 4.380 1.494 5089
1.779 4.515 1.536 2242
1.725 4.377 1.479 3781
1.778 4.511 1.520 2306
1.729 4.387 1.467 2898
1.782 4.522 1.508 1926
1.767 4.483 1.481 2298
1.854 4.703 1.548 1724
1.844 4.678 1.525 2092
1.785 4.529 1.480 1785
1.860 4.718 1.521 3322
1.784 4.526 1.464 2235
1.867 4.736 1.510 5198
1.783 4.522 1.448 1743
1.871 4.746 1.498 4248
1.935 4.910 1.545 1400
1.889 4.793 1.495 4659
1.942 4.928 1.534 1912
1.893 4.804 1.482 5785
1.947 4.939 1.521 2537
1.895 4.807 1.467 4898
1.948 4.943 1.505 3315
1.964 4.982 1.500 4305
1.893 4.804 1.451 1638
1.965 4.986 1.484 4448
2.019 5.121 1.521 1864
1.958 4.968 1.463 3564
2.031 5.154 1.513 2638
2.036 5.164 1.499 2902
1.948 4.943 1.440 2739
2.096 5.318 1.522 3009
2.037 5.168 1.483 1858
2.095 5.315 1.504 5391
2.154 5.465 1.543 1776
2.096 5.319 1.487 4670
2.156 5.469 1.526 1813
2.058 5.222 1.446 2101
2.123 5.387 1.487 2034
2.173 5.512 1.501 3479
2.119 5.376 1.467 2598
2.171 5.509 1.482 4434
2.118 5.373 1.448 1918
2.173 5.513 1.465 2823
2.227 5.649 1.498 2019
2.256 5.725 1.498 2572
2.203 5.588 1.465 1520
2.266 5.750 1.485 4189
2.213 5.613 1.453 1826
2.271 5.761 1.469 3050
2.217 5.624 1.437 1872
2.315 5.872 1.476 3675
2.369 6.009 1.507 2023
2.322 5.890 1.461 2773
2.376 6.027 1.492 1973
2.335 5.923 1.449 2529
2.281 5.786 1.418 1585
2.333 5.919 1.429 2891
2.410 6.114 1.471 1966
2.334 5.923 1.410 2212
2.420 6.139 1.457 2048
2.421 6.143 1.438 2484
2.367 6.005 1.409 1453
2.417 6.132 1.416 2892
2.500 6.341 1.460 1468
2.492 6.323 1.436 2175
2.407 6.106 1.391 1924
2.548 6.464 1.444 2100
2.494 6.327 1.416 2086
2.558 6.489 1.428 2062
2.475 6.279 1.386 1745
2.568 6.515 1.412 2065
2.628 6.667 1.442 1709
2.626 6.663 1.420 3119
2.572 6.525 1.393 1678
2.631 6.674 1.401 3244
2.725 6.913 1.446 1556
2.729 6.924 1.426 2118
2.784 7.062 1.452 1979
2.762 7.007 1.419 2192
2.656 6.739 1.370 1716
2.778 7.047 1.404 2166
2.932 7.439 1.475 1539
2.782 7.058 1.383 2585
2.931 7.435 1.450 1744
2.780 7.054 1.360 1905
2.929 7.432 1.426 1560
2.954 7.493 1.413 1515
3.097 7.857 1.475 1474
2.989 7.584 1.404 1634
3.098 7.861 1.450 1431
3.160 8.017 1.451 1465
2.994 7.595 1.382 1443
3.184 8.079 1.435 1586
3.104 7.875 1.403 1477
3.117 7.907 1.383 1967
3.183 8.075 1.409 1514
3.115 7.904 1.357 2125
3.285 8.334 1.423 1512
3.450 8.753 1.461 1867
3.275 8.308 1.393 1486
3.454 8.764 1.434 2244
3.196 8.107 1.337 1219
3.456 8.767 1.407 2363
3.200 8.118 1.313 1186
3.457 8.771 1.380 1807
3.450 8.752 1.349 1220
0.821 2.067 1.694 3760
0.823 2.072 1.688 7520
0.747 1.880 1.541 1470
0.824 2.076 1.682 7520
0.748 1.884 1.535 1441
0.828 2.086 1.680 9787
0.750 1.887 1.529 1412
0.830 2.090 1.673 12131
0.751 1.891 1.524 1412
0.829 2.088 1.662 10373
0.875 2.203 1.748 1129
0.828 2.086 1.651 9028
0.874 2.201 1.737 1658
0.857 2.157 1.694 8580
0.811 2.042 1.609 1259
0.849 2.137 1.670 9365
0.894 2.252 1.755 1241
0.853 2.147 1.668 10682
0.899 2.263 1.752 1498
0.854 2.151 1.661 9928
0.900 2.267 1.745 2276
0.856 2.156 1.655 9174
0.902 2.272 1.738 3055
0.860 2.166 1.652 7057
0.906 2.282 1.736 3707
0.898 2.262 1.711 8056
0.852 2.145 1.628 3384
0.897 2.260 1.700 9220
0.851 2.143 1.617 2381
0.899 2.264 1.693 10494
0.853 2.147 1.611 1690
0.898 2.262 1.682 10485
0.844 2.126 1.587 1517
0.900 2.266 1.675 11278
0.846 2.130 1.580 1430
0.902 2.271 1.668 12062
0.848 2.134 1.574 1215
0.903 2.275 1.661 12143
0.950 2.393 1.742 1622
0.907 2.285 1.658 12390
0.954 2.403 1.738 2066
0.907 2.283 1.647 12657
0.961 2.420 1.740 2647
0.906 2.281 1.636 13118
0.965 2.431 1.736 3450
0.907 2.285 1.629 12794
0.967 2.435 1.729 3826
0.909 2.289 1.622 12470
0.959 2.414 1.705 4714
0.913 2.299 1.619 11498
0.970 2.444 1.714 6895
0.915 2.303 1.612 10561
0.975 2.454 1.710 9640
0.974 2.452 1.699 9684
0.916 2.307 1.605 8464
0.970 2.444 1.683 9968
0.918 2.311 1.597 6368
0.985 2.479 1.696 9146
0.922 2.321 1.594 4364
0.989 2.490 1.692 10308
0.923 2.325 1.587 2402
0.995 2.507 1.693 11913
0.925 2.329 1.580 1541
1.000 2.517 1.689 14107
1.048 2.638 1.765 1267
1.001 2.522 1.681 12687
1.049 2.643 1.757 1342
1.003 2.526 1.673 10407
1.051 2.647 1.748 1418
1.002 2.524 1.662 7621
1.050 2.645 1.736 2340
1.001 2.521 1.650 6980
1.052 2.649 1.728 3654
1.005 2.532 1.646 7887
1.054 2.653 1.720 4363
1.010 2.542 1.642 7091
1.058 2.664 1.716 6790
1.060 2.668 1.707 9335
1.011 2.546 1.634 6552
1.064 2.679 1.703 10255
1.015 2.557 1.630 4651
1.066 2.683 1.695 11348
1.017 2.561 1.622 1736
1.065 2.681 1.683 11824
1.113 2.804 1.755 1370
1.066 2.685 1.675 12095
1.115 2.808 1.746 1811
1.073 2.702 1.674 12199
1.122 2.826 1.745 1254
1.077 2.713 1.669 8060
1.126 2.836 1.740 1722
1.097 2.763 1.687 5308
1.048 2.639 1.616 1357
1.104 2.780 1.686 4966
1.055 2.656 1.615 1104
1.108 2.791 1.681 4355
1.157 2.914 1.750 1116
1.107 2.788 1.668 3888
1.157 2.912 1.738 2026
1.140 2.871 1.703 4436
1.091 2.747 1.634 1828
1.144 2.882 1.698 4842
1.085 2.731 1.615 1348
1.149 2.892 1.693 4892
1.086 2.735 1.607 1062
1.155 2.910 1.691 4386
1.106 2.785 1.623 1203
1.160 2.921 1.686 7067
1.110 2.796 1.618 1175
1.159 2.918 1.673 9921
1.209 3.043 1.740 1265
1.163 2.929 1.668 10559
1.167 2.940 1.662 8154
1.217 3.065 1.728 1048
1.187 2.990 1.677 7191
1.137 2.864 1.611 1338
1.189 2.994 1.668 6810
1.206 3.038 1.679 7074
1.156 2.912 1.614 2170
1.208 3.042 1.670 7183
1.158 2.916 1.605 1907
1.212 3.053 1.664 5885
1.162 2.927 1.600 1635
1.227 3.091 1.671 5965
1.177 2.964 1.607 1088
1.229 3.095 1.662 6952
1.231 3.099 1.652 7031
1.232 3.103 1.642 7522
1.283 3.230 1.705 1342
1.234 3.107 1.633 10277
1.284 3.234 1.695 1634
1.235 3.111 1.623 10941
1.286 3.238 1.685 2061
1.240 3.122 1.617 9408
1.290 3.249 1.678 2332
1.271 3.200 1.643 7825
1.220 3.072 1.582 1526
1.275 3.211 1.636 11952
1.326 3.338 1.696 1591
1.277 3.215 1.626 10560
1.327 3.343 1.686 1992
1.294 3.259 1.635 8516
1.345 3.387 1.695 1332
1.299 3.270 1.628 10063
1.350 3.398 1.687 1383
1.300 3.274 1.618 10005
1.351 3.403 1.677 1663
1.302 3.278 1.608 7461
1.353 3.407 1.666 2801
1.328 3.343 1.625 7195
1.276 3.214 1.567 1473
1.329 3.347 1.615 7585
1.380 3.476 1.673 1963
1.360 3.426 1.638 6507
1.309 3.297 1.580 1488
1.362 3.430 1.627 7368
1.311 3.300 1.570 1076
1.358 3.420 1.610 7191
1.360 3.424 1.600 6133
1.411 3.554 1.656 1129
1.386 3.490 1.616 7194
1.390 3.500 1.608 8235
1.397 3.518 1.603 8520
1.401 3.529 1.595 7063
1.406 3.540 1.587 7223
1.457 3.670 1.641 1066
1.432 3.606 1.601 8717
1.380 3.475 1.547 1416
1.439 3.623 1.596 7513
1.387 3.493 1.542 2028
1.440 3.627 1.584 5363
1.492 3.758 1.637 1941
1.436 3.617 1.568 5141
1.489 3.748 1.620 3726
1.468 3.697 1.586 7991
1.416 3.566 1.534 1867
1.470 3.701 1.575 8727
1.522 3.832 1.627 1885
1.477 3.719 1.569 6234
1.529 3.850 1.620 3046
1.481 3.730 1.560 5387
1.533 3.861 1.611 3192
1.480 3.726 1.546 4154
1.532 3.858 1.596 2845
1.517 3.820 1.569 3690
1.465 3.689 1.519 1780
1.521 3.831 1.559 5358
1.469 3.699 1.510 1866
1.526 3.842 1.550 6253
1.578 3.974 1.599 2900
1.547 3.895 1.556 5961
1.599 4.027 1.605 2107
1.548 3.898 1.544 6241
1.601 4.031 1.592 2316
1.586 3.993 1.565 5736
1.533 3.860 1.517 3300
1.590 4.004 1.555 6154
1.654 4.164 1.612 2488
1.608 4.049 1.557 5717
1.555 3.917 1.510 2344
1.607 4.046 1.542 4610
1.660 4.179 1.589 2367
1.614 4.064 1.535 4711
1.667 4.197 1.581 1675
1.621 4.082 1.527 4652
1.674 4.215 1.573 1320
1.653 4.163 1.540 3585
1.600 4.030 1.495 1320
1.660 4.181 1.532 5025
1.607 4.047 1.487 1662
1.667 4.198 1.524 5728
1.720 4.332 1.569 1363
1.677 4.223 1.518 5709
1.730 4.357 1.562 1688
1.681 4.234 1.507 5577
1.734 4.368 1.551 1655
1.688 4.252 1.499 3211
1.742 4.386 1.542 1593
1.724 4.340 1.512 5283
1.728 4.351 1.501 6479
1.787 4.499 1.548 1990
1.738 4.376 1.494 5378
1.791 4.510 1.536 2619
1.739 4.379 1.481 4696
1.792 4.514 1.522 2908
1.741 4.383 1.467 3498
1.794 4.517 1.508 2268
1.781 4.486 1.484 1743
1.871 4.712 1.552 1502
1.873 4.716 1.538 1816
1.794 4.518 1.478 1621
1.874 4.720 1.523 2913
1.793 4.514 1.462 1950
1.876 4.724 1.508 4451
1.794 4.518 1.448 1392
1.877 4.727 1.494 3912
1.931 4.862 1.533 1420
1.907 4.802 1.499 4725
1.853 4.667 1.461 2032
1.908 4.806 1.484 5743
1.962 4.941 1.523 1765
1.910 4.809 1.469 4674
1.964 4.945 1.507 3018
1.976 4.977 1.500 3976
1.923 4.842 1.462 2058
1.978 4.981 1.484 4341
2.060 5.187 1.541 2048
1.974 4.970 1.465 3628
2.047 5.156 1.515 2987
2.052 5.166 1.501 3622
2.106 5.302 1.537 2740
2.110 5.313 1.522 2957
2.056 5.177 1.487 2331
2.109 5.310 1.504 4958
2.168 5.460 1.543 2176
2.110 5.313 1.487 4113
2.170 5.464 1.526 2171
2.072 5.217 1.446 2209
2.134 5.374 1.485 2077
2.187 5.507 1.501 3218
2.133 5.371 1.467 2549
2.185 5.503 1.482 4434
2.240 5.640 1.516 1728
2.184 5.500 1.463 2961
2.238 5.636 1.496 1853
2.274 5.726 1.499 2788
2.220 5.590 1.467 1579
2.281 5.744 1.485 4021
2.224 5.600 1.451 1209
2.285 5.755 1.469 2991
2.340 5.892 1.501 1573
2.330 5.866 1.476 3270
2.384 6.003 1.507 2003
2.342 5.899 1.464 2917
2.288 5.762 1.433 1333
2.347 5.910 1.447 3027
2.292 5.773 1.416 1573
2.345 5.906 1.427 3093
2.431 6.122 1.475 1738
2.381 5.996 1.427 2349
2.438 6.140 1.459 1866
2.440 6.144 1.440 2256
2.385 6.007 1.410 2035
2.435 6.133 1.417 2768
2.516 6.335 1.460 1366
2.431 6.122 1.395 1886
2.557 6.440 1.461 1880
2.564 6.458 1.444 2230
2.504 6.306 1.413 1655
2.577 6.490 1.430 1833
2.491 6.273 1.386 1380
2.590 6.523 1.415 1587
2.645 6.660 1.442 1543
2.643 6.656 1.420 3058
2.554 6.432 1.376 1337
2.645 6.660 1.399 3186
2.711 6.826 1.431 1409
2.747 6.917 1.426 1998
2.801 7.055 1.452 1996
2.783 7.007 1.420 2201
2.676 6.739 1.371 1425
2.796 7.040 1.404 2072
2.954 7.439 1.476 1930
2.797 7.043 1.382 2463
2.953 7.435 1.452 2015
2.795 7.039 1.359 1815
2.951 7.432 1.427 1344
2.976 7.493 1.414 1470
3.117 7.849 1.475 1385
3.015 7.591 1.406 1519
3.118 7.853 1.450 1238
3.180 8.009 1.451 1413
3.016 7.594 1.383 1312
3.133 7.889 1.406 1396
3.205 8.071 1.435 1320
3.137 7.900 1.383 1871
3.201 8.060 1.408 1481
3.135 7.896 1.357 2004
3.303 8.318 1.422 1463
3.472 8.744 1.461 2060
3.296 8.300 1.393 1706
3.474 8.748 1.433 2517
3.303 8.318 1.369 1137
3.478 8.758 1.407 2597
3.217 8.102 1.311 1083
3.479 8.762 1.380 1995
3.472 8.743 1.349 1259
0.828 2.065 1.694 3591
0.830 2.069 1.688 7183
0.750 1.871 1.536 1602
0.831 2.073 1.682 7183
0.752 1.875 1.530 1542
0.833 2.077 1.675 9694
0.756 1.885 1.529 1484
0.835 2.081 1.669 12206
0.757 1.889 1.524 1484
0.836 2.085 1.662 11145
0.882 2.200 1.748 1092
0.835 2.084 1.651 10167
0.881 2.198 1.737 1584
0.840 2.094 1.650 7964
0.886 2.209 1.735 1233
0.856 2.134 1.670 8515
0.902 2.249 1.755 1088
0.857 2.138 1.663 9727
0.904 2.254 1.748 1566
0.862 2.149 1.661 8843
0.908 2.264 1.745 2165
0.863 2.153 1.655 8076
0.910 2.269 1.738 3044
0.902 2.249 1.714 6778
0.855 2.132 1.630 4283
0.903 2.253 1.707 7862
0.857 2.136 1.624 2850
0.905 2.257 1.700 8899
0.858 2.140 1.617 2408
0.907 2.261 1.693 9936
0.860 2.144 1.611 1967
0.906 2.259 1.682 9921
0.856 2.136 1.596 1704
0.908 2.263 1.675 10792
0.853 2.128 1.580 1578
0.909 2.268 1.668 11649
0.857 2.138 1.578 1500
0.911 2.272 1.661 11400
0.958 2.390 1.742 1734
0.915 2.282 1.658 11441
0.962 2.400 1.738 2401
0.914 2.280 1.647 11355
0.969 2.417 1.740 3083
0.916 2.284 1.640 11557
0.973 2.427 1.736 3973
0.915 2.282 1.629 11291
0.975 2.432 1.729 4089
0.917 2.286 1.622 11087
0.979 2.442 1.725 4212
0.921 2.296 1.619 10418
0.981 2.447 1.718 6494
0.925 2.306 1.616 9910
0.983 2.451 1.710 8776
0.982 2.449 1.699 8512
0.926 2.310 1.609 8117
0.979 2.440 1.683 8738
0.928 2.314 1.602 6325
0.995 2.482 1.700 8521
0.930 2.318 1.594 4380
1.000 2.493 1.696 10335
0.929 2.316 1.583 2442
1.004 2.504 1.693 11897
0.930 2.320 1.576 1624
1.008 2.514 1.689 13961
1.056 2.635 1.765 1182
1.010 2.518 1.681 12669
1.058 2.639 1.757 1248
1.011 2.522 1.673 10667
1.060 2.643 1.748 1314
1.008 2.514 1.658 8131
1.057 2.635 1.732 2061
1.010 2.518 1.650 7253
1.058 2.639 1.724 2984
1.011 2.522 1.642 7769
1.060 2.644 1.716 3823
1.051 2.622 1.692 7187
1.003 2.500 1.619 3787
1.063 2.652 1.700 9521
1.015 2.530 1.627 5859
1.070 2.669 1.699 9588
1.021 2.547 1.626 4818
1.075 2.680 1.695 10116
1.025 2.557 1.622 1718
1.074 2.678 1.683 10613
1.123 2.800 1.755 1089
1.075 2.682 1.675 11285
1.125 2.804 1.746 1547
1.082 2.699 1.674 11588
1.131 2.822 1.745 1227
1.089 2.716 1.673 7679
1.138 2.839 1.744 1669
1.106 2.759 1.687 5533
1.057 2.636 1.616 1673
1.108 2.763 1.678 4486
1.158 2.887 1.748 1033
1.115 2.780 1.677 3231
1.164 2.904 1.747 1240
1.148 2.863 1.712 3840
1.083 2.700 1.621 2919
1.150 2.867 1.703 4161
1.087 2.710 1.616 2468
1.154 2.878 1.698 4706
1.091 2.721 1.612 1634
1.158 2.889 1.693 4987
1.093 2.725 1.603 1111
1.165 2.906 1.691 4472
1.115 2.781 1.623 1034
1.170 2.917 1.686 7206
1.220 3.041 1.753 1048
1.171 2.921 1.677 10021
1.221 3.046 1.744 1202
1.173 2.925 1.668 11054
1.223 3.050 1.734 1075
1.177 2.936 1.662 8995
1.227 3.061 1.728 1406
1.197 2.986 1.677 7199
1.147 2.861 1.611 1258
1.204 3.003 1.675 6873
1.154 2.878 1.609 1344
1.217 3.034 1.679 7474
1.166 2.908 1.614 2490
1.218 3.038 1.670 7028
1.168 2.912 1.605 2283
1.223 3.049 1.664 5743
1.172 2.923 1.600 1921
1.238 3.086 1.671 6858
1.187 2.960 1.607 1084
1.239 3.091 1.662 8391
1.244 3.101 1.655 8495
1.243 3.099 1.642 8256
1.293 3.226 1.705 1357
1.241 3.096 1.630 10143
1.292 3.223 1.692 2306
1.246 3.107 1.623 10558
1.297 3.234 1.685 2357
1.247 3.111 1.614 8997
1.298 3.238 1.675 2892
1.281 3.195 1.643 7540
1.230 3.068 1.582 1631
1.283 3.200 1.633 10868
1.334 3.327 1.693 1934
1.285 3.204 1.623 9357
1.336 3.332 1.683 2219
1.308 3.262 1.638 7838
1.256 3.133 1.578 1446
1.309 3.266 1.628 10182
1.361 3.394 1.687 1363
1.311 3.270 1.618 10347
1.363 3.398 1.677 1807
1.313 3.274 1.608 7774
1.364 3.402 1.666 3197
1.341 3.345 1.628 7110
1.290 3.217 1.570 1766
1.340 3.343 1.615 6944
1.392 3.471 1.673 2012
1.372 3.421 1.638 5772
1.320 3.292 1.580 1362
1.373 3.425 1.627 6847
1.370 3.416 1.610 6841
1.377 3.433 1.606 6114
1.397 3.485 1.616 9111
1.402 3.496 1.608 10438
1.409 3.513 1.603 10407
1.413 3.524 1.595 8156
1.420 3.542 1.589 7649
1.441 3.594 1.598 8474
1.389 3.463 1.545 1303
1.448 3.612 1.593 6883
1.396 3.481 1.539 1490
1.455 3.629 1.587 4882
1.508 3.760 1.640 1430
1.451 3.619 1.570 5038
1.504 3.750 1.623 2637
1.480 3.692 1.586 7033
1.428 3.561 1.534 2035
1.482 3.696 1.575 8696
1.535 3.827 1.627 1848
1.484 3.700 1.564 6993
1.536 3.831 1.615 3854
1.488 3.711 1.555 5126
1.541 3.842 1.606 4172
1.492 3.721 1.546 4334
1.545 3.853 1.596 3270
1.533 3.822 1.571 4114
1.480 3.691 1.521 2079
1.534 3.826 1.559 6119
1.590 3.965 1.612 2257
1.539 3.837 1.550 6048
1.591 3.969 1.599 3644
1.560 3.889 1.556 6885
1.613 4.021 1.605 2392
1.561 3.893 1.544 7022
1.614 4.025 1.592 2519
1.599 3.988 1.565 5792
1.546 3.855 1.517 2860
1.609 4.012 1.560 6389
1.668 4.159 1.612 2137
1.622 4.044 1.557 5770
1.568 3.911 1.510 2050
1.620 4.041 1.542 4582
1.567 3.908 1.496 1295
1.625 4.052 1.532 5132
1.678 4.185 1.578 1837
1.635 4.076 1.527 4607
1.688 4.209 1.573 1753
1.670 4.164 1.543 3894
1.616 4.031 1.497 1439
1.680 4.189 1.537 5033
1.626 4.056 1.492 1893
1.684 4.200 1.526 5729
1.738 4.333 1.571 1119
1.691 4.218 1.518 5326
1.745 4.351 1.562 1627
1.695 4.228 1.507 4639
1.749 4.362 1.551 1547
1.742 4.345 1.530 3287
1.688 4.211 1.487 2043
1.741 4.341 1.515 6176
1.742 4.345 1.501 6500
1.802 4.493 1.548 2068
1.752 4.370 1.494 5330
1.806 4.504 1.536 3049
1.754 4.374 1.481 4999
1.810 4.515 1.525 3589
1.752 4.370 1.465 3349
1.815 4.526 1.513 2897
1.808 4.508 1.492 2045
1.862 4.642 1.533 1545
1.806 4.505 1.476 2029
1.891 4.717 1.540 1900
1.904 4.749 1.533 2511
1.847 4.607 1.491 1934
1.892 4.717 1.508 3015
1.838 4.583 1.469 1541
1.927 4.806 1.518 3773
1.873 4.671 1.479 2101
1.929 4.810 1.503 5479
1.875 4.675 1.465 2295
1.927 4.807 1.486 5644
1.981 4.942 1.525 1335
1.934 4.824 1.475 4818
1.994 4.974 1.517 2750
1.982 4.942 1.492 4908
1.927 4.807 1.454 2114
1.989 4.960 1.480 5238
2.077 5.181 1.541 2546
1.993 4.971 1.467 3914
2.107 5.256 1.544 3343
2.069 5.160 1.501 4279
2.123 5.295 1.537 2872
2.085 5.199 1.494 3065
2.139 5.335 1.530 1942
2.126 5.303 1.504 3662
2.186 5.453 1.543 2500
2.128 5.306 1.487 3029
2.188 5.456 1.526 2240
2.146 5.353 1.482 2193
2.089 5.210 1.446 2070
2.202 5.492 1.499 3053
2.148 5.356 1.465 2383
2.204 5.496 1.482 4595
2.258 5.632 1.516 1764
2.205 5.500 1.465 3195
2.294 5.722 1.519 2201
2.296 5.726 1.501 2623
2.233 5.568 1.463 1566
2.303 5.744 1.487 3141
2.234 5.571 1.446 1364
2.304 5.747 1.469 2960
2.359 5.884 1.501 1617
2.349 5.859 1.476 2492
2.404 5.995 1.507 1741
2.365 5.898 1.465 3114
2.310 5.762 1.434 1545
2.366 5.902 1.447 3473
2.312 5.765 1.416 1867
2.365 5.898 1.427 3251
2.454 6.121 1.476 1495
2.398 5.981 1.426 2671
2.459 6.132 1.459 1610
2.402 5.991 1.409 2402
2.460 6.136 1.440 2096
2.459 6.132 1.419 2752
2.537 6.327 1.460 1864
2.457 6.128 1.398 1947
2.576 6.424 1.460 1931
2.589 6.456 1.445 2146
2.522 6.290 1.412 1322
2.596 6.474 1.428 1561
2.563 6.391 1.391 1431
2.661 6.637 1.439 1407
2.663 6.640 1.419 2812
2.567 6.402 1.372 1126
2.667 6.651 1.399 2985
2.763 6.890 1.445 1401
2.808 7.002 1.444 1999
2.665 6.647 1.377 1605
2.806 6.998 1.420 2359
2.980 7.433 1.501 1531
2.979 7.429 1.476 2303
2.816 7.023 1.403 1929
2.980 7.433 1.453 2370
2.820 7.034 1.382 2225
2.819 7.030 1.359 1781
2.985 7.443 1.431 1346
2.910 7.258 1.375 1573
3.003 7.490 1.415 1362
3.043 7.588 1.408 1469
2.897 7.225 1.347 1421
3.207 7.998 1.451 1234
3.041 7.584 1.383 1200
3.165 7.893 1.408 1301
3.034 7.566 1.355 1267
3.166 7.896 1.384 1657
3.225 8.042 1.407 1416
3.162 7.885 1.357 1767
3.503 8.736 1.489 1496
3.501 8.732 1.461 2099
3.323 8.289 1.393 1870
3.500 8.729 1.432 2552
3.328 8.299 1.368 1283
3.504 8.739 1.406 2497
3.244 8.091 1.311 1023
3.506 8.743 1.379 2015
3.504 8.739 1.350 1456
0.831 2.056 1.690 3422
0.785 1.943 1.602 1107
0.833 2.061 1.683 6844
0.787 1.947 1.596 2214
0.834 2.065 1.677 6844
0.788 1.951 1.590 2214
0.836 2.069 1.671 9581
0.790 1.955 1.584 1742
0.838 2.073 1.664 12319
0.791 1.959 1.578 1270
0.839 2.077 1.658 11805
0.886 2.192 1.744 1356
0.841 2.081 1.651 11291
0.887 2.196 1.737 1627
0.845 2.091 1.650 9006
0.891 2.206 1.735 1335
0.861 2.132 1.670 7751
0.863 2.136 1.663 8872
0.910 2.251 1.748 1361
0.867 2.146 1.661 7777
0.914 2.262 1.745 1921
0.871 2.156 1.659 7027
0.918 2.272 1.743 2080
0.908 2.246 1.714 6137
0.861 2.130 1.630 3760
0.909 2.250 1.707 7057
0.852 2.110 1.606 3098
0.911 2.255 1.700 8137
0.864 2.138 1.617 2313
0.913 2.259 1.693 9218
0.865 2.142 1.611 1926
0.912 2.257 1.682 9199
0.865 2.140 1.600 1740
0.914 2.261 1.675 10054
0.866 2.144 1.593 1678
0.915 2.265 1.668 10890
0.868 2.148 1.587 1662
0.917 2.269 1.661 10659
0.964 2.387 1.742 1908
0.921 2.280 1.658 10653
0.969 2.398 1.738 2572
0.920 2.278 1.647 10618
0.973 2.408 1.735 3369
0.922 2.282 1.640 10810
0.977 2.419 1.732 4340
0.921 2.279 1.629 10241
0.981 2.429 1.729 4282
0.923 2.283 1.622 9701
0.986 2.440 1.725 4296
0.927 2.294 1.619 9198
0.987 2.444 1.718 6169
0.928 2.298 1.612 8856
0.989 2.448 1.710 8042
0.988 2.446 1.699 7650
0.932 2.308 1.609 7188
0.982 2.432 1.679 7941
0.934 2.312 1.602 5547
1.002 2.480 1.700 8083
0.936 2.316 1.594 3792
1.006 2.490 1.696 10195
0.937 2.320 1.587 2038
1.010 2.501 1.693 11456
0.936 2.317 1.576 1360
1.015 2.511 1.689 13170
1.063 2.632 1.765 1033
1.016 2.516 1.681 11923
1.065 2.636 1.757 1074
1.018 2.520 1.673 10212
1.067 2.641 1.748 1115
1.015 2.511 1.658 8258
1.063 2.632 1.732 1703
1.014 2.509 1.646 7336
1.063 2.630 1.720 2655
1.018 2.519 1.642 7406
1.067 2.641 1.716 3127
1.058 2.619 1.692 7096
1.009 2.498 1.619 3915
1.065 2.636 1.692 9459
1.016 2.515 1.619 4548
1.077 2.666 1.699 8582
1.028 2.544 1.626 4974
1.082 2.677 1.695 8598
1.032 2.555 1.622 1766
1.081 2.675 1.683 9218
1.082 2.679 1.675 10146
1.132 2.802 1.746 1371
1.089 2.696 1.674 10529
1.139 2.819 1.745 1407
1.099 2.720 1.677 7336
1.148 2.843 1.747 1705
1.114 2.756 1.687 5622
1.064 2.633 1.616 1839
1.113 2.754 1.675 4646
1.162 2.877 1.745 1426
1.093 2.706 1.637 3792
1.154 2.855 1.721 3303
1.090 2.697 1.621 4052
1.155 2.860 1.712 3945
1.157 2.864 1.703 4021
1.094 2.707 1.616 3316
1.161 2.875 1.698 4604
1.101 2.724 1.615 1961
1.163 2.879 1.689 5049
1.097 2.715 1.600 1155
1.162 2.877 1.677 4546
1.213 3.001 1.745 1637
1.177 2.914 1.686 6998
1.127 2.789 1.618 1178
1.179 2.918 1.677 9631
1.128 2.793 1.610 1338
1.181 2.922 1.668 10969
1.231 3.047 1.734 1149
1.185 2.933 1.662 9457
1.235 3.058 1.728 1607
1.205 2.983 1.677 7181
1.155 2.858 1.611 1211
1.218 3.014 1.682 6913
1.167 2.888 1.616 2180
1.225 3.031 1.679 7254
1.174 2.905 1.614 2707
1.226 3.035 1.670 6452
1.175 2.909 1.605 2584
1.231 3.046 1.664 5304
1.180 2.920 1.600 2168
1.246 3.083 1.671 7120
1.195 2.957 1.607 1220
1.247 3.087 1.662 8868
1.252 3.098 1.655 8993
1.251 3.096 1.642 8387
1.302 3.222 1.705 1242
1.250 3.093 1.630 9526
1.301 3.220 1.692 2233
1.254 3.104 1.623 9379
1.305 3.231 1.685 2362
1.256 3.108 1.614 7943
1.307 3.235 1.675 2853
1.292 3.199 1.646 6412
1.241 3.071 1.585 2293
1.291 3.196 1.633 9092
1.343 3.324 1.693 1859
1.290 3.193 1.620 8156
1.345 3.328 1.683 2270
1.319 3.265 1.641 6990
1.267 3.137 1.581 1570
1.318 3.262 1.628 9697
1.370 3.390 1.687 1285
1.320 3.266 1.618 10075
1.371 3.394 1.677 1798
1.324 3.277 1.611 7824
1.376 3.405 1.669 3086
1.356 3.355 1.634 7012
1.304 3.227 1.576 2308
1.352 3.346 1.618 6193
1.404 3.475 1.676 1546
1.381 3.418 1.638 5107
1.329 3.289 1.580 1266
1.382 3.422 1.627 6334
1.381 3.419 1.613 6619
1.397 3.457 1.618 6665
1.407 3.481 1.616 9658
1.354 3.352 1.560 1020
1.411 3.492 1.608 11215
1.418 3.510 1.603 11321
1.422 3.521 1.595 8567
1.430 3.538 1.589 7827
1.448 3.583 1.595 8567
1.395 3.453 1.542 1190
1.455 3.601 1.590 6761
1.402 3.470 1.537 1141
1.468 3.632 1.590 4452
1.415 3.502 1.537 1273
1.461 3.616 1.570 4752
1.514 3.746 1.623 1943
1.490 3.688 1.586 6245
1.437 3.557 1.534 2292
1.492 3.692 1.575 8658
1.545 3.823 1.627 1609
1.491 3.689 1.561 7966
1.544 3.820 1.612 3972
1.498 3.707 1.555 5274
1.551 3.838 1.606 4190
1.505 3.724 1.549 4343
1.558 3.856 1.599 3357
1.543 3.818 1.571 4530
1.490 3.687 1.521 2242
1.544 3.822 1.559 6292
1.600 3.961 1.612 2565
1.568 3.881 1.568 6151
1.495 3.701 1.501 1588
1.570 3.885 1.556 7678
1.623 4.017 1.605 2308
1.571 3.889 1.544 7856
1.625 4.021 1.592 2542
1.612 3.990 1.567 5236
1.559 3.858 1.519 2842
1.628 4.029 1.567 5840
1.574 3.897 1.520 2078
1.632 4.040 1.557 5792
1.579 3.907 1.510 2100
1.631 4.037 1.542 5030
1.577 3.904 1.496 1563
1.635 4.047 1.532 5635
1.689 4.180 1.578 2098
1.676 4.149 1.553 4313
1.623 4.016 1.507 2550
1.681 4.160 1.543 4210
1.627 4.027 1.497 1368
1.694 4.192 1.539 5136
1.640 4.059 1.494 1899
1.695 4.195 1.526 5139
1.641 4.062 1.482 1064
1.705 4.220 1.520 4274
1.759 4.354 1.564 1323
1.707 4.224 1.507 3272
1.761 4.357 1.551 1326
1.754 4.340 1.530 3478
1.700 4.207 1.487 1534
1.752 4.337 1.515 6389
1.812 4.485 1.562 1067
1.757 4.348 1.503 6315
1.813 4.488 1.548 2007
1.767 4.372 1.497 5540
1.821 4.506 1.539 3219
1.768 4.376 1.483 5209
1.822 4.510 1.525 3939
1.827 4.521 1.513 3229
1.767 4.373 1.467 3133
1.819 4.503 1.492 2466
1.874 4.638 1.533 1789
1.818 4.500 1.476 2192
1.904 4.712 1.540 1871
1.865 4.617 1.496 2498
1.920 4.751 1.536 2272
1.933 4.783 1.529 2856
1.864 4.613 1.479 2764
1.940 4.801 1.518 4047
1.874 4.638 1.471 1899
1.941 4.805 1.503 5595
1.887 4.670 1.465 2093
1.943 4.809 1.488 5276
1.888 4.674 1.450 1280
1.950 4.826 1.477 5292
2.007 4.968 1.517 2548
1.992 4.930 1.490 5880
2.049 5.072 1.529 2094
1.996 4.940 1.476 5853
2.051 5.075 1.513 2724
2.118 5.243 1.542 3905
2.009 4.972 1.469 3680
2.082 5.154 1.501 4327
2.137 5.289 1.537 2772
2.090 5.172 1.489 3073
2.144 5.307 1.524 1745
2.103 5.204 1.480 2322
2.204 5.454 1.545 2281
2.101 5.201 1.462 2344
2.156 5.336 1.497 2001
2.155 5.333 1.478 2478
2.100 5.197 1.444 1782
2.220 5.494 1.501 2798
2.165 5.358 1.467 2444
2.218 5.490 1.482 4454
2.273 5.626 1.516 1696
2.220 5.494 1.465 3223
2.312 5.723 1.521 2302
2.314 5.727 1.503 2332
2.244 5.555 1.461 1665
2.341 5.795 1.500 2353
2.283 5.651 1.466 1782
2.320 5.741 1.469 2986
2.380 5.892 1.504 1710
2.324 5.752 1.452 2667
2.382 5.895 1.485 2294
2.381 5.892 1.465 3025
2.325 5.755 1.434 1885
2.379 5.888 1.445 3414
2.324 5.752 1.415 1703
2.380 5.892 1.427 3111
2.325 5.755 1.397 1551
2.411 5.967 1.424 2816
2.475 6.126 1.459 1234
2.418 5.985 1.409 2506
2.476 6.129 1.440 1820
2.472 6.118 1.417 2513
2.553 6.320 1.460 2268
2.558 6.331 1.442 2176
2.470 6.114 1.397 1853
2.606 6.450 1.445 2024
2.530 6.262 1.407 1332
2.575 6.374 1.409 1685
2.651 6.561 1.447 1201
2.577 6.377 1.389 1664
2.679 6.630 1.439 1222
2.680 6.633 1.419 2465
2.581 6.388 1.371 1227
2.684 6.644 1.399 2651
2.781 6.882 1.445 1401
2.823 6.987 1.442 2074
2.683 6.640 1.377 1429
2.822 6.983 1.419 2428
3.003 7.432 1.502 1589
2.998 7.421 1.476 2532
2.802 6.936 1.388 1812
3.000 7.425 1.453 2669
2.839 7.026 1.382 1850
2.834 7.015 1.357 1716
3.004 7.436 1.431 1533
2.929 7.251 1.375 1676
3.064 7.584 1.433 1329
2.919 7.225 1.348 1493
3.066 7.587 1.409 1492
3.193 7.903 1.437 1163
3.090 7.649 1.395 1159
3.095 7.660 1.372 1386
3.039 7.522 1.350 1270
3.296 8.157 1.426 1442
3.187 7.888 1.384 1437
3.182 7.877 1.357 1564
3.529 8.734 1.490 1488
3.521 8.716 1.460 1962
3.345 8.280 1.393 1874
3.520 8.712 1.431 2283
3.347 8.283 1.367 1343
3.524 8.723 1.405 2048
3.526 8.726 1.378 1948
3.393 8.399 1.331 1051
3.530 8.737 1.351 1866
3.534 8.747 1.325 1386
0.835 2.048 1.685 3167
0.837 2.052 1.679 6335
0.791 1.938 1.591 1183
0.839 2.056 1.672 6335
0.792 1.942 1.585 1174
0.843 2.066 1.671 8907
0.845 2.070 1.664 11600
0.846 2.074 1.658 11639
0.893 2.189 1.744 1270
0.850 2.084 1.656 11884
0.897 2.199 1.742 1419
0.852 2.089 1.650 9681
0.899 2.203 1.735 1419
0.856 2.099 1.648 7440
0.903 2.214 1.732 1653
0.868 2.127 1.659 8464
0.915 2.242 1.743 1413
0.872 2.137 1.657 7047
0.919 2.253 1.741 2195
0.879 2.153 1.659 6137
0.926 2.269 1.743 1937
0.913 2.237 1.709 5733
0.858 2.103 1.613 3782
0.917 2.247 1.707 6295
0.860 2.107 1.606 3785
0.919 2.251 1.700 7150
0.861 2.111 1.600 2953
0.918 2.250 1.689 8055
0.870 2.133 1.606 2385
0.920 2.254 1.682 8030
0.872 2.137 1.600 2350
0.921 2.258 1.675 8801
0.873 2.141 1.593 2316
0.923 2.262 1.668 9598
0.875 2.145 1.587 2176
0.925 2.266 1.661 9086
0.973 2.384 1.742 2220
0.929 2.276 1.658 8760
0.977 2.394 1.738 2878
0.928 2.274 1.647 8786
0.981 2.405 1.735 3939
0.927 2.272 1.636 9031
0.983 2.409 1.728 5052
0.929 2.276 1.629 8336
0.987 2.420 1.725 4787
0.930 2.280 1.622 7641
0.991 2.430 1.721 4616
0.935 2.291 1.619 7131
0.996 2.441 1.718 6030
0.998 2.445 1.710 7490
0.939 2.301 1.616 7129
0.997 2.443 1.699 7114
0.940 2.305 1.609 5920
0.993 2.434 1.683 7631
0.942 2.309 1.602 4711
1.010 2.476 1.700 7813
0.944 2.313 1.594 3165
1.015 2.487 1.696 10207
0.945 2.317 1.587 1619
1.019 2.497 1.693 10942
0.947 2.320 1.580 1137
1.021 2.502 1.685 12077
1.070 2.622 1.761 1150
1.025 2.512 1.681 10742
1.027 2.516 1.673 9300
1.023 2.508 1.658 8182
1.072 2.629 1.732 1493
1.022 2.505 1.646 7210
1.072 2.626 1.720 2440
1.027 2.516 1.642 6723
1.076 2.637 1.716 2605
1.067 2.616 1.692 6926
1.018 2.494 1.619 3973
1.069 2.620 1.684 9446
1.019 2.498 1.611 3156
1.073 2.631 1.680 8321
1.024 2.509 1.607 2955
1.078 2.641 1.676 7248
1.028 2.519 1.603 1314
1.085 2.658 1.675 7748
1.092 2.675 1.675 8734
1.141 2.798 1.746 1304
1.109 2.718 1.689 9334
1.059 2.595 1.617 1745
1.113 2.729 1.684 7474
1.063 2.606 1.613 1802
1.123 2.752 1.687 6141
1.073 2.629 1.616 1931
1.114 2.731 1.663 5712
1.164 2.854 1.734 2617
1.103 2.702 1.637 5017
1.163 2.852 1.721 3633
1.099 2.693 1.621 5277
1.165 2.856 1.712 4218
1.103 2.704 1.616 4164
1.170 2.867 1.707 4140
1.169 2.864 1.695 4658
1.113 2.727 1.619 2288
1.168 2.862 1.682 5352
1.117 2.738 1.614 1306
1.169 2.866 1.673 4931
1.220 2.990 1.741 1714
1.184 2.903 1.682 6570
1.134 2.778 1.615 1352
1.189 2.914 1.677 8893
1.138 2.789 1.610 1501
1.191 2.918 1.668 10495
1.140 2.793 1.601 1195
1.192 2.922 1.658 9823
1.243 3.047 1.725 2145
1.199 2.939 1.656 8132
1.250 3.064 1.722 2386
1.228 3.009 1.682 7106
1.177 2.884 1.616 2049
1.235 3.027 1.679 7323
1.184 2.901 1.614 2756
1.234 3.024 1.666 6485
1.183 2.898 1.602 2160
1.241 3.042 1.664 5237
1.190 2.916 1.600 2279
1.256 3.079 1.671 7198
1.205 2.953 1.607 1423
1.258 3.083 1.662 9010
1.260 3.087 1.652 9315
1.259 3.085 1.639 8525
1.310 3.211 1.702 1492
1.257 3.082 1.626 8520
1.309 3.209 1.689 2266
1.262 3.093 1.620 7378
1.314 3.220 1.682 2478
1.266 3.103 1.614 6027
1.318 3.230 1.675 2714
1.306 3.201 1.649 5168
1.254 3.074 1.588 2487
1.302 3.192 1.633 6321
1.354 3.319 1.693 1802
1.301 3.189 1.620 6018
1.353 3.317 1.680 2308
1.330 3.260 1.641 5911
1.278 3.132 1.581 1404
1.332 3.264 1.631 8375
1.334 3.268 1.621 8885
1.386 3.396 1.680 1536
1.335 3.272 1.611 7346
1.387 3.401 1.669 3070
1.367 3.351 1.634 7191
1.315 3.222 1.576 1981
1.366 3.348 1.621 5958
1.418 3.476 1.679 1062
1.381 3.386 1.626 4962
1.391 3.410 1.624 6017
1.393 3.414 1.613 6984
1.406 3.445 1.615 7342
1.416 3.470 1.613 9437
1.423 3.487 1.608 11028
1.427 3.498 1.600 11692
1.437 3.523 1.598 8375
1.384 3.393 1.543 1127
1.444 3.540 1.592 7874
1.457 3.571 1.593 9015
1.464 3.589 1.587 7219
1.480 3.627 1.590 4070
1.427 3.497 1.537 1324
1.484 3.638 1.581 4530
1.538 3.769 1.634 1087
1.466 3.594 1.551 5913
1.520 3.724 1.603 3001
1.504 3.687 1.575 8519
1.451 3.556 1.523 1747
1.503 3.684 1.561 9115
1.557 3.815 1.612 4247
1.544 3.784 1.587 6554
1.491 3.653 1.536 3681
1.540 3.775 1.570 5136
1.487 3.643 1.519 1298
1.556 3.813 1.571 4835
1.502 3.682 1.521 2114
1.554 3.810 1.557 6017
1.614 3.955 1.612 2839
1.584 3.883 1.571 6191
1.508 3.696 1.501 1476
1.583 3.880 1.556 8418
1.637 4.012 1.605 2070
1.585 3.884 1.544 8408
1.638 4.016 1.592 2523
1.592 3.901 1.537 5038
1.646 4.033 1.585 3105
1.644 4.030 1.570 5208
1.591 3.898 1.522 2504
1.646 4.034 1.557 5499
1.592 3.902 1.510 2414
1.648 4.038 1.545 5799
1.702 4.170 1.591 2560
1.649 4.042 1.532 6215
1.703 4.174 1.578 2765
1.691 4.143 1.553 3793
1.636 4.011 1.507 2844
1.701 4.168 1.548 4314
1.646 4.035 1.502 1579
1.708 4.186 1.539 5116
1.654 4.053 1.494 1576
1.709 4.190 1.526 4309
1.764 4.323 1.571 1109
1.731 4.242 1.530 3164
1.741 4.267 1.523 3160
1.757 4.306 1.521 3292
1.770 4.338 1.517 5893
1.824 4.471 1.560 1095
1.771 4.341 1.503 5902
1.829 4.482 1.548 1821
1.782 4.366 1.497 5899
1.836 4.500 1.539 3183
1.789 4.384 1.487 5321
1.843 4.518 1.529 3712
1.845 4.522 1.515 3474
1.790 4.388 1.474 2655
1.835 4.497 1.492 2487
1.890 4.631 1.533 1753
1.882 4.614 1.512 2274
1.828 4.480 1.472 2153
1.881 4.610 1.496 3501
1.939 4.752 1.538 2160
1.883 4.614 1.481 4148
1.952 4.784 1.531 2871
1.956 4.795 1.518 4144
1.875 4.596 1.461 2734
1.958 4.798 1.503 5345
1.903 4.664 1.465 1742
1.962 4.809 1.490 4648
1.907 4.674 1.452 1423
1.969 4.827 1.479 5677
2.024 4.962 1.517 2630
2.009 4.923 1.490 7428
2.066 5.065 1.529 2258
2.010 4.926 1.475 6981
2.065 5.061 1.512 3293
2.133 5.229 1.540 4319
2.029 4.973 1.471 3484
2.103 5.154 1.503 3774
2.158 5.289 1.539 2398
2.104 5.158 1.487 3052
2.049 5.022 1.451 1702
2.123 5.204 1.482 2469
2.222 5.446 1.545 2024
2.119 5.193 1.462 2419
2.227 5.457 1.530 1942
2.179 5.340 1.482 2645
2.249 5.511 1.525 1930
2.244 5.500 1.504 3124
2.189 5.365 1.470 2694
2.240 5.490 1.484 4498
2.330 5.711 1.538 1664
2.241 5.493 1.467 3346
2.332 5.715 1.521 2252
2.336 5.726 1.504 2060
2.263 5.547 1.461 1947
2.361 5.787 1.500 2197
2.268 5.558 1.446 2012
2.342 5.740 1.470 3134
2.398 5.876 1.502 1807
2.347 5.751 1.454 3459
2.402 5.887 1.485 2147
2.401 5.884 1.465 2567
2.345 5.747 1.434 2164
2.402 5.887 1.447 2921
2.346 5.751 1.416 1751
2.406 5.898 1.430 2931
2.351 5.762 1.400 1567
2.425 5.945 1.421 2625
2.572 6.304 1.499 1446
2.439 5.977 1.409 2157
2.574 6.307 1.480 2044
2.578 6.318 1.461 2626
2.490 6.102 1.416 2124
2.582 6.329 1.443 2789
2.527 6.192 1.415 1759
2.596 6.361 1.429 2197
2.540 6.225 1.401 1591
2.600 6.372 1.411 1903
2.679 6.567 1.450 1199
2.595 6.361 1.388 1788
2.684 6.577 1.431 1178
2.706 6.631 1.420 1947
2.600 6.372 1.369 1410
2.707 6.635 1.399 2310
2.763 6.772 1.425 1747
2.841 6.963 1.440 2406
2.708 6.638 1.378 1501
2.842 6.967 1.418 2633
3.022 7.407 1.499 1623
3.024 7.411 1.476 2750
2.829 6.934 1.389 1864
3.022 7.407 1.452 2975
2.833 6.944 1.369 1711
2.847 6.977 1.352 1829
3.027 7.418 1.430 1715
2.951 7.233 1.374 1715
3.090 7.573 1.433 1546
3.094 7.584 1.410 1575
2.944 7.215 1.348 1398
3.114 7.631 1.394 1484
3.057 7.493 1.371 1164
3.121 7.649 1.372 1697
3.319 8.135 1.451 1479
3.323 8.145 1.426 1990
3.102 7.601 1.340 1342
3.328 8.156 1.402 1405
3.562 8.729 1.491 1373
3.374 8.268 1.393 1709
3.548 8.696 1.458 1578
3.544 8.685 1.429 1897
3.375 8.272 1.367 1348
3.551 8.703 1.404 1632
3.489 8.551 1.382 1019
3.561 8.729 1.380 2239
3.422 8.387 1.331 1038
3.563 8.732 1.352 2944
3.567 8.742 1.326 2489
3.571 8.753 1.299 1684
0.836 2.033 1.676 2996
0.838 2.038 1.669 5992
0.885 2.151 1.757 1064
0.840 2.042 1.663 5992
0.886 2.155 1.750 1064
0.846 2.058 1.666 8201
0.800 1.944 1.579 1288
0.850 2.068 1.664 10608
0.804 1.954 1.578 1224
0.855 2.078 1.662 11126
0.808 1.964 1.577 1042
0.856 2.082 1.656 12028
0.903 2.197 1.742 1301
0.858 2.086 1.650 10014
0.905 2.201 1.735 1301
0.862 2.096 1.648 8006
0.909 2.211 1.732 1495
0.871 2.119 1.654 8448
0.919 2.234 1.739 1240
0.878 2.135 1.657 6879
0.925 2.250 1.741 1882
0.885 2.151 1.659 5969
0.932 2.267 1.743 1747
0.919 2.234 1.709 5229
0.864 2.100 1.613 4249
0.921 2.239 1.703 5619
0.865 2.104 1.606 4347
0.922 2.243 1.696 6107
0.867 2.108 1.600 3519
0.922 2.241 1.684 6603
0.874 2.124 1.602 2813
0.923 2.245 1.677 6599
0.875 2.128 1.596 2910
0.925 2.249 1.670 7216
0.877 2.132 1.589 3007
0.927 2.253 1.664 7836
0.879 2.136 1.582 2884
0.931 2.264 1.661 7214
0.979 2.381 1.742 2464
0.935 2.274 1.658 6728
0.984 2.391 1.738 3175
0.934 2.272 1.647 6817
0.985 2.396 1.731 4376
0.936 2.276 1.640 6968
0.987 2.400 1.724 5577
0.935 2.274 1.629 5972
0.986 2.398 1.712 5253
0.985 2.396 1.701 5122
0.934 2.271 1.617 5104
1.000 2.432 1.714 5949
0.941 2.288 1.619 4508
1.002 2.436 1.706 7038
0.948 2.304 1.620 4384
1.001 2.434 1.695 7009
0.949 2.308 1.613 3704
1.000 2.432 1.683 7570
0.951 2.312 1.606 3024
1.015 2.467 1.696 7657
0.953 2.316 1.598 2056
1.019 2.478 1.692 10045
0.952 2.314 1.587 1115
1.023 2.488 1.689 10333
1.028 2.499 1.685 10868
1.032 2.509 1.681 9122
1.049 2.551 1.697 8372
1.000 2.431 1.622 2647
1.051 2.556 1.689 8074
1.001 2.435 1.614 1906
1.029 2.503 1.646 6456
1.079 2.623 1.720 2443
1.031 2.507 1.638 5657
1.081 2.628 1.712 2700
1.075 2.613 1.692 6563
1.025 2.491 1.619 3589
1.074 2.611 1.681 9349
1.024 2.489 1.607 2297
1.078 2.621 1.676 8289
1.028 2.499 1.603 2241
1.080 2.625 1.668 7296
1.089 2.649 1.671 6911
1.107 2.691 1.686 7702
1.157 2.814 1.757 1230
1.119 2.721 1.692 8378
1.069 2.599 1.621 2029
1.121 2.726 1.684 7337
1.071 2.603 1.613 1748
1.128 2.743 1.683 6388
1.077 2.620 1.613 1538
1.122 2.727 1.663 6628
1.172 2.850 1.734 2754
1.110 2.699 1.637 5855
1.174 2.855 1.725 3778
1.106 2.690 1.621 5979
1.173 2.853 1.712 4333
1.111 2.701 1.616 4549
1.178 2.863 1.707 4273
1.177 2.861 1.695 4813
1.123 2.731 1.622 2426
1.176 2.859 1.682 5645
1.125 2.735 1.614 1445
1.177 2.863 1.673 5362
1.229 2.987 1.741 1501
1.193 2.900 1.682 6014
1.141 2.775 1.615 1706
1.194 2.904 1.673 7940
1.143 2.779 1.606 1475
1.199 2.914 1.668 9555
1.147 2.790 1.601 1331
1.203 2.925 1.662 9663
1.254 3.050 1.728 1914
1.210 2.942 1.660 8918
1.262 3.068 1.726 2050
1.234 2.999 1.678 7264
1.182 2.874 1.613 1215
1.243 3.023 1.679 7744
1.192 2.898 1.614 2460
1.245 3.027 1.670 7429
1.193 2.902 1.605 2515
1.252 3.045 1.667 6020
1.201 2.919 1.603 2523
1.265 3.075 1.671 7018
1.213 2.949 1.607 1609
1.264 3.073 1.658 8507
1.266 3.077 1.649 8996
1.317 3.203 1.712 1239
1.264 3.074 1.636 8423
1.316 3.201 1.698 1558
1.266 3.078 1.626 7424
1.318 3.205 1.689 1462
1.271 3.089 1.620 5381
1.323 3.216 1.682 1889
1.272 3.093 1.610 3931
1.324 3.220 1.672 2363
1.318 3.204 1.652 4075
1.266 3.077 1.591 2039
1.325 3.222 1.649 4809
1.273 3.094 1.588 1265
1.335 3.246 1.648 4256
1.283 3.118 1.588 1294
1.339 3.257 1.641 5292
1.287 3.129 1.581 1228
1.341 3.261 1.631 6644
1.340 3.258 1.618 7132
1.393 3.386 1.677 1537
1.372 3.336 1.642 6541
1.319 3.208 1.583 2399
1.363 3.313 1.619 7232
1.415 3.441 1.677 2440
1.375 3.344 1.621 6046
1.391 3.382 1.626 5045
1.401 3.406 1.624 5832
1.403 3.410 1.613 7118
1.413 3.435 1.612 7529
1.423 3.459 1.610 8611
1.430 3.476 1.605 9893
1.437 3.494 1.600 11047
1.442 3.505 1.592 7764
1.457 3.543 1.595 7436
1.467 3.567 1.593 9050
1.474 3.585 1.587 7324
1.493 3.630 1.593 3732
1.439 3.500 1.540 1542
1.500 3.648 1.587 4619
1.447 3.517 1.534 1518
1.476 3.590 1.551 5559
1.530 3.720 1.603 3094
1.515 3.683 1.575 8162
1.461 3.552 1.523 1733
1.513 3.680 1.561 9344
1.567 3.811 1.612 4139
1.549 3.766 1.582 7526
1.495 3.635 1.531 2945
1.551 3.770 1.570 5981
1.497 3.639 1.519 1473
1.552 3.774 1.558 5021
1.629 3.960 1.629 2016
1.559 3.792 1.551 5668
1.625 3.951 1.612 2485
1.595 3.879 1.571 6080
1.541 3.747 1.522 1574
1.594 3.875 1.556 8825
1.648 4.007 1.605 1657
1.596 3.879 1.544 8540
1.650 4.011 1.592 2449
1.603 3.897 1.537 5277
1.657 4.029 1.585 2689
1.659 4.033 1.572 4405
1.604 3.901 1.525 3184
1.657 4.030 1.557 5119
1.603 3.897 1.510 2500
1.659 4.033 1.545 6070
1.713 4.166 1.591 3613
1.660 4.037 1.532 6057
1.715 4.170 1.578 3623
1.656 4.027 1.515 3474
1.711 4.159 1.561 3329
1.715 4.170 1.550 4308
1.661 4.038 1.505 1572
1.720 4.181 1.539 4866
1.665 4.048 1.494 1307
1.721 4.185 1.526 3509
1.776 4.318 1.571 1206
1.751 4.258 1.537 2844
1.756 4.269 1.526 3338
1.769 4.301 1.521 2882
1.782 4.333 1.517 4843
1.789 4.351 1.508 5295
1.844 4.484 1.550 1587
1.800 4.375 1.501 6128
1.854 4.509 1.543 2489
1.804 4.386 1.489 5297
1.859 4.520 1.531 3139
1.858 4.516 1.515 3315
1.803 4.383 1.474 2658
1.813 4.407 1.466 2468
1.888 4.591 1.522 1865
1.892 4.601 1.510 2637
1.837 4.467 1.470 1973
1.894 4.605 1.496 4027
1.961 4.767 1.544 1859
1.896 4.609 1.481 4831
1.968 4.785 1.533 2632
1.967 4.782 1.516 3386
1.894 4.605 1.465 3257
1.971 4.793 1.503 4062
1.901 4.623 1.454 1901
1.976 4.803 1.490 3627
1.917 4.662 1.450 1412
1.986 4.828 1.481 5261
2.041 4.963 1.519 2425
2.022 4.917 1.490 8005
2.078 5.052 1.527 2215
2.024 4.921 1.475 7493
2.079 5.056 1.512 3483
2.145 5.215 1.538 4173
2.081 5.059 1.496 3711
2.141 5.205 1.518 3915
2.085 5.070 1.482 3337
2.136 5.194 1.498 2877
2.081 5.059 1.462 2833
2.138 5.198 1.482 2923
2.240 5.447 1.547 1759
2.137 5.195 1.464 2627
2.192 5.330 1.498 2067
2.258 5.490 1.522 2707
2.194 5.334 1.482 2556
2.260 5.494 1.504 3788
2.204 5.359 1.470 2641
2.258 5.491 1.485 4626
2.202 5.355 1.452 1701
2.260 5.494 1.468 3574
2.348 5.708 1.521 2082
2.264 5.505 1.453 2257
2.338 5.684 1.496 1793
2.283 5.551 1.446 2302
