1.215 2.749 1.726 3741
1.217 2.753 1.718 4246
1.155 2.613 1.636 3800
1.221 2.764 1.713 4810
1.159 2.623 1.631 3206
1.218 2.755 1.697 5179
1.164 2.633 1.627 2517
1.217 2.753 1.684 7000
1.163 2.631 1.615 2102
1.221 2.763 1.679 7876
1.167 2.641 1.610 2047
1.226 2.774 1.674 7442
1.280 2.896 1.743 1840
1.231 2.784 1.669 7127
1.285 2.907 1.738 2705
1.229 2.782 1.657 6910
1.284 2.905 1.725 3990
1.231 2.786 1.648 6179
1.286 2.909 1.716 4915
1.270 2.874 1.686 8152
1.216 2.751 1.618 2157
1.275 2.885 1.680 8522
1.220 2.762 1.613 2731
1.285 2.908 1.682 7508
1.231 2.785 1.615 2849
1.293 2.926 1.679 5721
1.238 2.802 1.613 1751
1.266 2.864 1.636 5252
1.332 3.014 1.715 2842
1.305 2.953 1.671 5782
1.250 2.829 1.606 1921
1.316 2.977 1.672 12328
1.370 3.101 1.737 2241
1.317 2.981 1.663 16343
1.372 3.105 1.728 3171
1.322 2.992 1.657 13090
1.377 3.116 1.721 3135
1.336 3.022 1.661 6939
1.369 3.098 1.688 5237
1.314 2.973 1.625 1808
1.368 3.096 1.675 4862
1.313 2.971 1.612 1338
1.370 3.100 1.666 4041
1.315 2.975 1.603 1186
1.372 3.104 1.656 4268
1.427 3.229 1.718 1037
1.376 3.114 1.649 5396
1.432 3.240 1.711 1442
1.384 3.132 1.646 5993
1.440 3.257 1.707 1055
1.400 3.169 1.652 8179
1.345 3.043 1.591 1180
1.402 3.173 1.642 10563
1.407 3.183 1.635 7469
1.426 3.227 1.644 4604
1.371 3.101 1.584 1063
1.434 3.245 1.640 4336
1.378 3.118 1.581 1366
1.433 3.242 1.627 4552
1.489 3.369 1.686 1486
1.437 3.253 1.620 6582
1.493 3.379 1.679 1985
1.442 3.263 1.613 7685
1.498 3.390 1.671 2174
1.447 3.274 1.606 6427
1.503 3.401 1.663 1920
1.455 3.291 1.601 5052
1.511 3.418 1.659 2321
1.501 3.396 1.636 4638
1.444 3.268 1.579 2560
1.502 3.400 1.625 4639
1.446 3.272 1.569 1547
1.504 3.403 1.615 4453
1.448 3.276 1.558 1008
1.509 3.414 1.607 4998
1.565 3.542 1.663 1202
1.511 3.418 1.596 5551
1.567 3.546 1.651 2034
1.533 3.469 1.606 5075
1.538 3.480 1.598 7340
1.537 3.477 1.584 5964
1.593 3.605 1.638 1180
1.562 3.535 1.595 4400
1.567 3.545 1.587 5488
1.510 3.417 1.534 1051
1.566 3.543 1.573 3819
1.623 3.671 1.626 1056
1.606 3.635 1.598 3874
1.549 3.506 1.545 1699
1.611 3.645 1.589 6500
1.554 3.516 1.537 2184
1.610 3.642 1.575 9315
1.667 3.772 1.627 2071
1.611 3.646 1.564 8089
1.678 3.796 1.623 2354
1.637 3.704 1.573 4634
1.694 3.834 1.624 1606
1.639 3.708 1.562 4608
1.696 3.838 1.612 1777
1.641 3.712 1.550 3675
1.716 3.883 1.616 2353
1.672 3.784 1.565 4699
1.730 3.914 1.614 3005
1.680 3.802 1.558 6338
1.738 3.932 1.607 3677
1.739 3.936 1.595 4203
1.682 3.805 1.546 3430
1.744 3.946 1.585 3785
1.671 3.782 1.524 1046
1.746 3.950 1.572 3631
1.685 3.813 1.522 1242
1.778 4.023 1.585 3614
1.720 3.892 1.537 3013
1.728 3.910 1.530 3745
1.786 4.040 1.577 3277
1.729 3.913 1.518 3909
1.787 4.044 1.564 3005
1.774 4.013 1.539 3872
1.832 4.144 1.586 1641
1.775 4.017 1.527 4078
1.833 4.148 1.573 2405
1.792 4.055 1.526 4462
1.850 4.186 1.572 1664
1.803 4.080 1.520 5797
1.861 4.211 1.565 2279
1.808 4.090 1.510 3815
1.866 4.222 1.554 2988
1.864 4.219 1.539 4779
1.806 4.087 1.495 2013
1.869 4.229 1.528 5388
1.811 4.098 1.484 2286
1.877 4.247 1.519 3098
1.819 4.115 1.476 1351
1.918 4.341 1.535 2668
1.926 4.358 1.526 3974
1.931 4.369 1.514 3236
1.872 4.237 1.472 1032
1.908 4.317 1.483 2713
1.966 4.449 1.525 1868
1.974 4.467 1.515 2625
1.916 4.334 1.474 1953
1.991 4.505 1.511 3419
1.929 4.366 1.469 1767
1.996 4.516 1.499 3795
1.937 4.383 1.459 1581
1.997 4.519 1.485 3417
2.071 4.687 1.536 2188
2.079 4.705 1.525 3894
2.017 4.565 1.483 3705
2.078 4.701 1.508 3730
2.019 4.569 1.469 2694
2.107 4.768 1.512 3841
2.048 4.635 1.473 3434
2.118 4.793 1.502 4817
2.053 4.646 1.460 2873
2.126 4.810 1.491 6626
2.185 4.943 1.529 2798
2.155 4.877 1.494 6771
2.214 5.010 1.531 1727
2.157 4.881 1.478 7514
2.269 5.133 1.549 2415
2.155 4.877 1.461 5764
2.273 5.144 1.534 2986
2.219 5.021 1.484 3338
2.151 4.867 1.442 2243
2.227 5.039 1.472 3451
2.326 5.264 1.532 1895
2.284 5.169 1.489 3031
2.225 5.035 1.454 2661
2.373 5.370 1.524 3390
2.289 5.180 1.475 3255
2.372 5.367 1.505 5740
2.284 5.169 1.455 1874
2.373 5.370 1.488 4923
2.280 5.159 1.435 1204
2.384 5.395 1.477 2810
2.444 5.529 1.510 1373
2.420 5.476 1.479 2437
2.342 5.300 1.435 1135
2.415 5.466 1.458 1994
2.455 5.554 1.461 1823
2.395 5.420 1.429 1072
2.462 5.572 1.447 1773
2.403 5.437 1.415 1368
2.467 5.582 1.431 1209
2.408 5.448 1.399 1174
2.395 5.419 1.357 1096
2.396 5.422 1.340 1181
2.974 6.729 1.543 1079
2.433 5.506 1.286 1057
2.975 6.732 1.522 1995
2.428 5.494 1.266 1441
2.977 6.736 1.501 1646
2.492 5.640 1.277 1555
2.982 6.747 1.481 1593
2.491 5.636 1.258 1544
2.993 6.772 1.464 2198
2.879 6.515 1.413 1619
2.988 6.761 1.439 2124
2.515 5.691 1.232 1297
2.986 6.757 1.417 1954
3.046 6.893 1.442 1555
3.045 6.889 1.419 1962
3.196 7.232 1.483 1936
3.049 6.900 1.399 3101
3.166 7.164 1.447 2583
3.054 6.910 1.378 3254
3.209 7.260 1.441 2787
3.239 7.328 1.430 2437
3.059 6.921 1.357 1783
3.246 7.346 1.409 2540
3.310 7.489 1.434 2170
3.311 7.492 1.410 2035
3.242 7.335 1.383 1636
3.313 7.495 1.386 1642
3.243 7.338 1.360 1394
3.257 7.370 1.341 1772
3.384 7.656 1.388 1618
3.255 7.366 1.317 1990
3.426 7.753 1.379 1522
3.722 8.423 1.460 1935
3.254 7.362 1.292 1823
3.727 8.433 1.434 2059
3.258 7.372 1.270 1545
3.729 8.437 1.407 1743
3.668 8.300 1.387 1367
3.670 8.304 1.360 1108
3.730 8.440 1.380 1093
3.671 8.307 1.334 1126
3.809 8.619 1.351 1203
0.877 1.967 1.643 4371
0.926 2.079 1.731 1035
0.878 1.971 1.637 8742
0.928 2.083 1.725 2070
0.880 1.975 1.631 8742
0.930 2.087 1.718 2070
0.882 1.979 1.625 7059
0.932 2.091 1.712 3097
0.923 2.072 1.687 5920
0.873 1.959 1.601 4042
0.925 2.076 1.680 5802
0.875 1.963 1.595 3080
0.922 2.068 1.665 5741
0.871 1.955 1.579 1461
0.923 2.072 1.659 6112
0.873 1.959 1.573 1295
0.939 2.106 1.674 6914
0.888 1.993 1.590 3021
0.943 2.116 1.672 8472
0.892 2.003 1.588 3363
0.950 2.132 1.674 9299
0.899 2.018 1.590 2735
0.952 2.136 1.668 10450
0.901 2.022 1.584 1598
0.954 2.141 1.661 9983
0.903 2.026 1.578 1017
0.958 2.151 1.659 9686
0.963 2.161 1.656 9107
0.965 2.165 1.650 8765
0.969 2.175 1.647 7728
0.971 2.179 1.640 6070
0.973 2.183 1.634 5442
1.024 2.299 1.715 1205
0.983 2.205 1.640 8127
1.048 2.352 1.742 1562
0.984 2.209 1.633 11485
1.047 2.350 1.730 2408
0.981 2.201 1.617 10196
1.043 2.342 1.714 3906
1.010 2.266 1.652 10539
0.958 2.150 1.573 3306
1.014 2.276 1.650 10124
1.066 2.393 1.729 2922
1.019 2.286 1.647 10235
1.071 2.403 1.725 3656
1.023 2.297 1.644 9318
1.076 2.414 1.722 3892
1.031 2.313 1.645 9178
1.086 2.437 1.727 4476
1.079 2.422 1.707 6426
1.027 2.305 1.629 5946
1.081 2.426 1.699 8395
1.029 2.309 1.622 3170
1.083 2.431 1.692 10449
1.031 2.313 1.615 3486
1.082 2.428 1.680 12527
1.029 2.310 1.603 3553
1.087 2.439 1.676 15472
1.034 2.320 1.600 3182
1.089 2.443 1.669 18442
1.036 2.324 1.593 2214
1.093 2.453 1.665 18546
1.146 2.572 1.741 1759
1.098 2.464 1.661 15882
1.151 2.583 1.737 1652
1.100 2.468 1.654 12676
1.153 2.587 1.728 1589
1.104 2.478 1.650 10212
1.157 2.597 1.724 1176
1.128 2.532 1.673 8814
1.075 2.413 1.599 1633
1.133 2.543 1.669 7331
1.080 2.423 1.596 1603
1.141 2.559 1.669 6326
1.087 2.439 1.596 2084
1.145 2.570 1.665 5710
1.092 2.450 1.592 1983
1.147 2.574 1.657 5200
1.203 2.701 1.733 1185
1.149 2.578 1.649 4915
1.202 2.698 1.721 2298
1.153 2.588 1.644 4732
1.207 2.709 1.716 3174
1.158 2.599 1.640 4981
1.220 2.739 1.723 3498
1.163 2.609 1.636 4567
1.225 2.749 1.718 3889
1.227 2.753 1.709 4303
1.167 2.619 1.631 3705
1.223 2.745 1.693 5053
1.169 2.623 1.623 2556
1.228 2.755 1.688 7071
1.174 2.634 1.618 1842
1.230 2.760 1.679 8348
1.175 2.638 1.610 1729
1.234 2.770 1.674 7924
1.180 2.648 1.605 1582
1.236 2.774 1.666 7443
1.291 2.896 1.734 2593
1.238 2.778 1.657 7267
1.293 2.901 1.725 3843
1.274 2.860 1.691 6429
1.220 2.737 1.623 2064
1.279 2.870 1.686 9231
1.224 2.747 1.618 2273
1.281 2.874 1.677 9370
1.226 2.751 1.610 2270
1.283 2.879 1.668 7760
1.338 3.002 1.734 1677
1.279 2.870 1.652 6159
1.337 2.999 1.721 1975
1.278 2.867 1.639 6221
1.344 3.017 1.719 2090
1.314 2.949 1.671 5354
1.259 2.826 1.606 2032
1.322 2.966 1.669 11078
1.377 3.090 1.734 2607
1.327 2.977 1.663 14776
1.382 3.101 1.728 3081
1.331 2.988 1.657 11794
1.387 3.112 1.721 3132
1.348 3.024 1.664 6446
1.379 3.094 1.688 6101
1.323 2.969 1.625 1641
1.378 3.091 1.675 6263
1.322 2.967 1.612 1191
1.382 3.102 1.669 5933
1.327 2.977 1.606 1076
1.387 3.113 1.662 6822
1.389 3.117 1.653 7816
1.445 3.242 1.714 1147
1.394 3.127 1.646 8071
1.450 3.253 1.707 1040
1.407 3.158 1.649 8310
1.409 3.162 1.639 9690
1.414 3.173 1.632 6568
1.433 3.216 1.641 4398
1.438 3.227 1.634 4873
1.440 3.231 1.624 4914
1.496 3.357 1.683 1551
1.442 3.235 1.614 5963
1.498 3.361 1.672 2636
1.449 3.252 1.610 6081
1.506 3.379 1.668 2289
1.463 3.283 1.612 5002
1.519 3.410 1.670 1169
1.465 3.287 1.601 4453
1.521 3.414 1.659 3007
1.511 3.391 1.636 6540
1.454 3.264 1.579 2065
1.513 3.395 1.625 7313
1.456 3.268 1.569 1322
1.515 3.399 1.615 6057
1.519 3.409 1.607 5604
1.576 3.537 1.663 1033
1.521 3.413 1.596 5771
1.578 3.541 1.651 1606
1.544 3.464 1.606 5557
1.549 3.475 1.598 8314
1.544 3.465 1.581 6752
1.601 3.594 1.635 1697
1.579 3.544 1.601 4745
1.522 3.415 1.547 1960
1.581 3.547 1.590 5510
1.524 3.419 1.537 1514
1.576 3.538 1.573 3946
1.634 3.666 1.626 1558
1.617 3.630 1.598 4272
1.560 3.501 1.545 1746
1.622 3.640 1.589 6751
1.565 3.511 1.537 2335
1.621 3.637 1.575 8800
1.678 3.766 1.627 2061
1.623 3.641 1.564 7575
1.686 3.784 1.620 2492
1.658 3.720 1.582 5028
1.600 3.591 1.531 1624
1.653 3.710 1.564 4925
1.711 3.839 1.615 1768
1.646 3.693 1.545 3492
1.725 3.871 1.613 2281
1.675 3.759 1.557 4191
1.733 3.888 1.606 3401
1.683 3.776 1.550 4967
1.744 3.913 1.602 3417
1.712 3.841 1.561 4488
1.770 3.971 1.610 2427
1.723 3.866 1.557 3364
1.781 3.996 1.605 1740
1.733 3.890 1.552 2982
1.791 4.020 1.600 2720
1.790 4.017 1.585 3934
1.732 3.887 1.537 3838
1.737 3.897 1.528 4306
1.795 4.028 1.575 4158
1.741 3.908 1.518 4427
1.800 4.039 1.564 3503
1.789 4.015 1.542 4092
1.731 3.884 1.496 1934
1.794 4.025 1.532 4456
1.852 4.156 1.577 1951
1.805 4.050 1.526 5027
1.863 4.181 1.572 1538
1.816 4.074 1.520 5735
1.874 4.205 1.565 1818
1.820 4.085 1.510 3682
1.879 4.216 1.554 3030
1.874 4.206 1.537 5344
1.816 4.075 1.492 1348
1.879 4.217 1.526 5957
1.820 4.085 1.482 1411
1.887 4.234 1.517 3180
1.932 4.335 1.535 2341
1.936 4.345 1.524 3967
1.938 4.349 1.510 3570
1.921 4.311 1.483 3538
1.980 4.443 1.525 1743
1.994 4.475 1.519 2413
1.926 4.322 1.471 2156
2.002 4.492 1.509 3269
1.943 4.360 1.469 1901
1.982 4.447 1.480 3682
2.041 4.579 1.521 1525
2.011 4.513 1.485 3190
2.086 4.681 1.536 2182
2.091 4.691 1.523 3998
2.031 4.559 1.483 3121
2.092 4.695 1.508 4423
2.033 4.562 1.469 2372
2.103 4.720 1.499 4853
2.044 4.587 1.461 2296
2.123 4.765 1.496 4975
2.064 4.632 1.458 2875
2.137 4.797 1.489 5987
2.197 4.930 1.527 3152
2.170 4.870 1.494 6018
2.236 5.017 1.535 1572
2.172 4.874 1.478 6584
2.237 5.021 1.519 2241
2.177 4.885 1.465 5383
2.236 5.018 1.501 2995
2.231 5.007 1.482 3480
2.172 4.874 1.446 2116
2.239 5.025 1.470 3123
2.299 5.158 1.505 2068
2.241 5.028 1.454 2502
2.300 5.162 1.489 2479
2.387 5.356 1.522 3594
2.311 5.187 1.478 2317
2.385 5.352 1.503 6322
2.291 5.141 1.449 1341
2.387 5.356 1.487 5053
2.446 5.490 1.521 1118
2.413 5.416 1.484 2795
2.473 5.550 1.517 1154
2.434 5.462 1.477 3142
2.439 5.472 1.461 2324
2.468 5.539 1.459 2754
2.409 5.405 1.427 1142
2.479 5.564 1.447 2415
2.420 5.430 1.415 1361
2.484 5.575 1.431 1662
2.424 5.440 1.399 1036
2.588 5.808 1.447 1369
2.416 5.422 1.341 1007
2.453 5.505 1.288 1046
2.814 6.315 1.458 1018
2.996 6.723 1.522 1681
2.448 5.494 1.267 1384
2.998 6.727 1.501 1415
2.510 5.632 1.277 1304
2.898 6.503 1.434 1692
3.002 6.738 1.481 1345
3.013 6.762 1.464 2090
2.896 6.499 1.412 2010
3.009 6.752 1.439 2031
2.910 6.531 1.396 1273
3.004 6.741 1.415 1833
3.064 6.876 1.441 1647
3.180 7.136 1.467 2322
3.063 6.873 1.418 1966
3.188 7.154 1.447 3147
3.067 6.883 1.397 2965
3.072 6.894 1.377 3057
3.196 7.172 1.427 2808
3.220 7.225 1.413 2578
3.077 6.904 1.356 1716
3.336 7.486 1.435 2262
3.259 7.314 1.405 2145
3.337 7.489 1.411 2355
3.264 7.325 1.383 1920
3.265 7.328 1.360 1956
3.339 7.492 1.388 1935
3.270 7.338 1.338 1821
3.401 7.632 1.386 1388
3.278 7.356 1.317 2050
3.450 7.742 1.379 1564
3.279 7.359 1.293 2362
3.694 8.289 1.440 2062
3.699 8.300 1.415 2252
3.281 7.362 1.270 1933
3.697 8.296 1.388 1995
3.758 8.432 1.408 1605
3.695 8.292 1.360 1572
3.756 8.429 1.380 1046
3.697 8.296 1.334 1551
3.698 8.299 1.308 1336
0.885 1.963 1.643 4567
0.936 2.075 1.731 1050
0.887 1.967 1.637 9135
0.938 2.079 1.725 2101
0.889 1.971 1.631 9135
0.939 2.083 1.718 2101
0.891 1.975 1.625 7664
0.941 2.087 1.712 2840
0.895 1.985 1.623 6261
0.946 2.097 1.710 2938
0.932 2.066 1.676 5080
0.881 1.953 1.590 3044
0.931 2.064 1.665 4946
0.880 1.951 1.579 1721
0.933 2.068 1.659 5317
0.882 1.955 1.573 1438
0.951 2.108 1.679 6523
0.900 1.995 1.594 3514
0.955 2.118 1.677 8640
0.904 2.005 1.592 3733
0.960 2.128 1.674 9639
0.909 2.014 1.590 2824
0.962 2.132 1.668 10814
0.910 2.018 1.584 1799
0.963 2.136 1.661 10734
0.912 2.022 1.578 1044
0.968 2.146 1.659 10761
0.970 2.150 1.652 10124
0.974 2.160 1.650 9710
0.976 2.164 1.643 8224
0.981 2.174 1.640 6250
1.033 2.290 1.722 1042
0.983 2.178 1.634 5773
1.035 2.294 1.715 1556
0.995 2.207 1.644 8821
1.056 2.341 1.737 1621
0.997 2.211 1.637 11887
1.058 2.345 1.730 2526
1.013 2.245 1.651 10724
1.065 2.361 1.731 3040
1.017 2.255 1.648 11053
1.070 2.372 1.728 3115
1.025 2.272 1.650 10430
1.077 2.388 1.729 2729
1.029 2.282 1.647 10775
1.082 2.399 1.725 3182
1.037 2.298 1.648 10171
1.089 2.415 1.726 3271
1.044 2.315 1.649 10446
1.097 2.432 1.727 4036
1.046 2.319 1.641 7047
1.099 2.436 1.719 5105
1.092 2.422 1.699 7370
1.039 2.304 1.622 3662
1.094 2.426 1.692 9364
1.041 2.308 1.615 3998
1.093 2.424 1.680 11462
1.040 2.306 1.603 3900
1.098 2.434 1.676 14206
1.044 2.316 1.600 3705
1.100 2.438 1.669 17055
1.046 2.320 1.593 2702
1.104 2.448 1.665 17505
1.051 2.330 1.590 2028
1.109 2.459 1.661 15721
1.162 2.577 1.737 1560
1.111 2.463 1.654 12856
1.164 2.582 1.728 1633
1.115 2.473 1.650 10586
1.169 2.592 1.724 1466
1.140 2.527 1.673 9530
1.086 2.408 1.599 1694
1.142 2.531 1.665 7937
1.088 2.412 1.592 1203
1.149 2.548 1.665 6595
1.095 2.428 1.592 1373
1.154 2.558 1.661 5454
1.100 2.438 1.588 1411
1.159 2.569 1.657 4484
1.213 2.689 1.729 1011
1.189 2.636 1.687 4573
1.135 2.516 1.615 1282
1.168 2.589 1.648 5004
1.222 2.710 1.720 3064
1.173 2.600 1.644 5776
1.227 2.720 1.715 3166
1.174 2.604 1.636 5167
1.229 2.725 1.706 3581
1.182 2.620 1.635 4176
1.237 2.742 1.705 3930
1.236 2.739 1.693 5017
1.181 2.618 1.623 2632
1.240 2.750 1.688 7296
1.185 2.628 1.618 1652
1.245 2.760 1.683 8772
1.190 2.639 1.614 1697
1.247 2.764 1.674 8173
1.192 2.643 1.605 1491
1.249 2.769 1.666 7620
1.304 2.891 1.734 2196
1.251 2.773 1.657 7667
1.306 2.895 1.725 3635
1.287 2.854 1.691 7224
1.232 2.732 1.623 2808
1.292 2.865 1.686 10429
1.237 2.742 1.618 2512
1.294 2.869 1.677 10236
1.238 2.746 1.610 2109
1.293 2.866 1.664 8380
1.348 2.989 1.731 2049
1.292 2.864 1.652 6950
1.347 2.987 1.718 2194
1.293 2.868 1.642 7270
1.349 2.991 1.708 2025
1.307 2.898 1.647 6277
1.369 3.034 1.720 2393
1.332 2.954 1.665 9814
1.388 3.077 1.731 2885
1.337 2.964 1.660 12952
1.393 3.088 1.724 3486
1.342 2.975 1.654 10243
1.398 3.099 1.718 3830
1.385 3.070 1.691 6996
1.329 2.946 1.627 3912
1.390 3.081 1.685 6934
1.334 2.957 1.622 1540
1.392 3.085 1.675 7741
1.335 2.961 1.612 1179
1.396 3.096 1.669 8157
1.401 3.107 1.662 9905
1.406 3.117 1.656 10438
1.408 3.121 1.646 10046
1.464 3.246 1.707 1083
1.412 3.132 1.639 9151
1.423 3.156 1.639 8750
1.428 3.166 1.632 5916
1.485 3.292 1.692 1022
1.436 3.183 1.629 4458
1.493 3.309 1.688 1450
1.447 3.207 1.628 5513
1.503 3.333 1.687 1251
1.448 3.211 1.618 5482
1.505 3.337 1.677 2097
1.450 3.215 1.608 5545
1.507 3.341 1.666 3365
1.494 3.312 1.640 4828
1.437 3.186 1.582 2424
1.487 3.296 1.621 5061
1.485 3.293 1.607 4792
1.543 3.420 1.665 3101
1.526 3.384 1.636 8350
1.469 3.257 1.579 1770
1.525 3.381 1.622 9826
1.527 3.385 1.612 7914
1.535 3.403 1.607 6162
1.539 3.413 1.599 5527
1.559 3.457 1.606 5663
1.561 3.461 1.595 8677
1.619 3.589 1.649 1251
1.557 3.452 1.578 7105
1.614 3.580 1.632 2438
1.595 3.536 1.601 5634
1.537 3.408 1.547 2204
1.597 3.540 1.590 5702
1.539 3.412 1.537 1534
1.598 3.544 1.579 4365
1.656 3.672 1.632 1841
1.634 3.622 1.598 5068
1.576 3.494 1.545 1700
1.642 3.640 1.592 7438
1.584 3.511 1.540 3106
1.637 3.630 1.575 8096
1.695 3.759 1.627 2073
1.639 3.634 1.564 6936
1.697 3.763 1.615 2795
1.677 3.719 1.584 6032
1.619 3.590 1.533 2221
1.670 3.703 1.564 5322
1.728 3.832 1.615 2379
1.696 3.761 1.574 3606
1.638 3.631 1.524 2093
1.695 3.758 1.559 4272
1.753 3.887 1.609 3117
1.693 3.755 1.545 3871
1.752 3.884 1.594 3150
1.729 3.834 1.561 6136
1.788 3.963 1.610 1954
1.734 3.844 1.552 5258
1.792 3.974 1.600 1737
1.745 3.868 1.547 3915
1.806 4.005 1.598 2674
1.750 3.879 1.537 4612
1.808 4.009 1.585 4297
1.754 3.890 1.528 4787
1.813 4.020 1.575 4734
1.812 4.017 1.559 4434
1.753 3.886 1.513 3779
1.826 4.048 1.557 4484
1.767 3.917 1.510 3286
1.831 4.059 1.546 5824
1.889 4.189 1.592 1462
1.829 4.055 1.531 5527
1.888 4.186 1.576 1686
1.834 4.066 1.520 5473
1.893 4.197 1.565 1846
1.836 4.070 1.508 3922
1.895 4.201 1.552 3399
1.890 4.191 1.534 5980
1.831 4.059 1.490 1537
1.898 4.208 1.526 6296
1.839 4.077 1.482 1281
1.903 4.219 1.514 4020
1.936 4.291 1.524 2635
1.956 4.337 1.524 3877
1.897 4.205 1.481 1249
1.942 4.306 1.499 4430
2.001 4.437 1.541 1270
1.940 4.302 1.483 4414
2.000 4.434 1.525 2247
1.945 4.313 1.471 2372
2.014 4.466 1.519 2269
2.019 4.476 1.507 3035
1.959 4.344 1.466 1726
2.002 4.438 1.480 4280
2.061 4.570 1.521 1244
2.006 4.449 1.468 3621
2.072 4.595 1.512 2585
2.112 4.682 1.523 3593
2.030 4.501 1.469 2138
2.116 4.692 1.510 4529
2.038 4.518 1.459 1741
2.124 4.710 1.499 5824
2.065 4.578 1.461 2334
2.129 4.721 1.486 4643
2.202 4.881 1.533 3295
2.197 4.871 1.513 5959
2.137 4.738 1.475 3001
2.195 4.868 1.496 5954
2.135 4.735 1.458 2322
2.197 4.871 1.480 6204
2.260 5.011 1.519 1730
2.205 4.889 1.469 6193
2.265 5.022 1.505 1975
2.232 4.948 1.468 3526
2.301 5.102 1.510 2404
2.300 5.099 1.492 3601
2.240 4.966 1.457 2550
2.301 5.103 1.476 2659
2.380 5.278 1.523 2492
2.407 5.338 1.520 3877
2.265 5.022 1.438 2242
2.409 5.341 1.503 6728
2.349 5.208 1.469 1464
2.408 5.338 1.485 5309
2.468 5.472 1.519 1406
2.454 5.440 1.493 3155
2.393 5.306 1.459 1807
2.458 5.451 1.477 3707
2.398 5.317 1.444 1389
2.495 5.532 1.479 2620
2.435 5.398 1.446 1686
2.497 5.535 1.461 3539
2.436 5.401 1.429 1267
2.504 5.553 1.447 2932
2.565 5.687 1.479 1424
2.512 5.570 1.433 2064
2.573 5.704 1.464 1499
2.619 5.807 1.469 1536
2.514 5.574 1.415 1292
2.614 5.796 1.447 2096
2.613 5.793 1.427 1381
2.833 6.281 1.495 1432
2.673 5.927 1.418 1115
2.834 6.284 1.475 1799
2.671 5.923 1.398 1366
2.842 6.302 1.458 1645
2.903 6.437 1.486 1217
2.924 6.483 1.475 1343
2.473 5.483 1.267 1265
2.929 6.493 1.456 1557
3.028 6.713 1.501 1026
2.927 6.490 1.434 2262
2.860 6.341 1.404 1348
2.925 6.486 1.412 2478
3.044 6.749 1.464 1816
3.039 6.738 1.439 1976
2.930 6.497 1.392 1459
3.034 6.727 1.415 1954
3.201 7.097 1.486 1756
3.212 7.122 1.467 2669
3.090 6.852 1.416 1801
3.220 7.140 1.447 3416
3.098 6.869 1.397 2538
3.228 7.157 1.427 2943
3.103 6.880 1.377 2593
3.249 7.204 1.412 2751
3.104 6.883 1.355 1548
3.250 7.207 1.389 2202
3.369 7.471 1.435 2038
3.371 7.474 1.411 2326
3.233 7.167 1.359 1692
3.369 7.470 1.386 2159
3.305 7.328 1.362 1556
3.310 7.338 1.340 1841
3.371 7.473 1.363 1385
3.314 7.348 1.318 2311
3.730 8.269 1.467 1857
3.312 7.344 1.293 2864
3.731 8.273 1.440 2863
3.736 8.283 1.415 3220
3.314 7.347 1.270 2637
3.737 8.287 1.389 2873
3.312 7.343 1.246 2201
3.736 8.283 1.361 2159
3.313 7.346 1.222 1840
3.734 8.279 1.334 1955
3.314 7.349 1.199 1463
3.735 8.282 1.308 1644
3.319 7.359 1.177 1084
3.737 8.285 1.281 1020
0.891 1.961 1.643 4404
0.942 2.072 1.731 1002
0.893 1.965 1.637 8808
0.944 2.076 1.725 2005
0.895 1.969 1.631 8808
0.946 2.080 1.718 2005
0.897 1.972 1.625 7617
0.948 2.084 1.712 2693
0.901 1.982 1.623 6488
0.952 2.094 1.710 2866
0.903 1.986 1.617 5252
0.954 2.099 1.703 3488
0.937 2.061 1.665 4481
0.886 1.949 1.579 2435
0.939 2.065 1.659 4830
0.888 1.952 1.573 1885
0.960 2.111 1.683 6445
0.908 1.998 1.599 3721
0.962 2.115 1.677 8780
0.910 2.002 1.592 3721
0.966 2.125 1.674 9848
0.915 2.012 1.590 2721
0.968 2.129 1.668 11008
0.916 2.016 1.584 1704
0.970 2.133 1.661 10991
0.918 2.019 1.578 1007
0.972 2.137 1.654 10974
0.976 2.147 1.652 10117
0.981 2.157 1.650 9475
0.983 2.161 1.643 7924
0.995 2.190 1.653 5903
1.000 2.200 1.651 5914
1.005 2.210 1.648 8909
1.057 2.325 1.729 1548
1.012 2.226 1.650 12169
1.065 2.342 1.730 2401
1.019 2.242 1.651 11435
1.072 2.358 1.731 2948
1.024 2.252 1.648 11437
1.077 2.369 1.728 3098
1.031 2.269 1.650 10400
1.084 2.385 1.729 2505
1.039 2.285 1.651 11026
1.092 2.402 1.730 2469
1.046 2.301 1.652 10639
1.099 2.418 1.730 2723
1.051 2.311 1.649 11064
1.104 2.428 1.727 3487
1.055 2.322 1.646 7548
1.109 2.439 1.723 4116
1.099 2.418 1.699 6248
1.046 2.301 1.622 3909
1.101 2.422 1.692 8120
1.048 2.305 1.615 4138
1.097 2.414 1.676 10133
1.044 2.296 1.599 3338
1.105 2.431 1.676 12524
1.051 2.313 1.600 3814
1.107 2.435 1.669 15056
1.053 2.316 1.593 2886
1.111 2.445 1.665 15683
1.058 2.327 1.590 2253
1.116 2.455 1.661 14625
1.051 2.312 1.570 1354
1.118 2.459 1.654 12128
1.172 2.578 1.728 1498
1.123 2.470 1.650 10155
1.177 2.589 1.724 1700
1.147 2.524 1.673 9937
1.093 2.405 1.599 1553
1.149 2.528 1.665 8410
1.095 2.408 1.592 1090
1.154 2.538 1.661 6999
1.208 2.658 1.734 1329
1.161 2.555 1.661 5191
1.107 2.435 1.588 1186
1.195 2.628 1.695 4377
1.135 2.496 1.615 1163
1.197 2.632 1.687 5466
1.142 2.512 1.615 1404
1.199 2.637 1.678 5247
1.144 2.516 1.607 1442
1.180 2.596 1.644 5945
1.235 2.717 1.715 2809
1.185 2.607 1.639 5236
1.240 2.727 1.710 3300
1.193 2.623 1.638 4285
1.248 2.744 1.709 3184
1.244 2.736 1.693 4878
1.189 2.615 1.623 2521
1.251 2.753 1.692 7237
1.196 2.631 1.622 1781
1.253 2.757 1.683 8748
1.198 2.635 1.614 1555
1.258 2.767 1.678 7971
1.203 2.645 1.609 1512
1.260 2.771 1.669 7378
1.315 2.893 1.738 1913
1.259 2.769 1.657 7620
1.314 2.891 1.725 3389
1.293 2.844 1.687 8000
1.237 2.721 1.620 2711
1.300 2.861 1.686 11273
1.245 2.738 1.618 2654
1.302 2.865 1.677 10793
1.247 2.742 1.610 1951
1.301 2.862 1.664 8704
1.357 2.985 1.731 2135
1.303 2.866 1.655 7418
1.359 2.989 1.721 2460
1.305 2.870 1.646 8107
1.361 2.994 1.712 2480
1.316 2.894 1.647 7276
1.375 3.024 1.716 2336
1.338 2.943 1.662 8590
1.394 3.067 1.727 2973
1.343 2.954 1.656 11127
1.399 3.078 1.721 3749
1.348 2.964 1.650 8782
1.404 3.088 1.714 4445
1.391 3.060 1.688 7224
1.335 2.936 1.624 3058
1.399 3.077 1.685 6915
1.342 2.953 1.622 1740
1.401 3.081 1.675 7962
1.344 2.957 1.612 1455
1.406 3.092 1.669 9152
1.349 2.967 1.606 1314
1.410 3.102 1.662 11797
1.415 3.113 1.656 11947
1.420 3.124 1.649 11008
1.422 3.128 1.639 9392
1.479 3.253 1.700 1001
1.430 3.145 1.636 7876
1.487 3.270 1.696 1178
1.437 3.162 1.632 5475
1.494 3.287 1.692 1274
1.448 3.186 1.632 4627
1.505 3.311 1.692 1678
1.456 3.203 1.628 5482
1.513 3.329 1.687 1525
1.458 3.207 1.618 5536
1.515 3.333 1.677 2153
1.460 3.211 1.608 5134
1.517 3.337 1.666 3161
1.501 3.301 1.637 5389
1.443 3.175 1.579 1599
1.499 3.298 1.624 6179
1.495 3.289 1.607 5709
1.553 3.416 1.665 3555
1.536 3.380 1.636 8701
1.479 3.253 1.579 1963
1.535 3.377 1.622 10468
1.537 3.381 1.612 8495
1.542 3.391 1.604 6142
1.600 3.519 1.660 1000
1.547 3.402 1.596 4865
1.573 3.459 1.609 5314
1.574 3.463 1.598 8076
1.632 3.591 1.652 1248
1.567 3.447 1.578 6691
1.625 3.575 1.632 2684
1.605 3.532 1.601 6162
1.547 3.404 1.547 2119
1.610 3.542 1.593 5535
1.552 3.414 1.539 1879
1.609 3.539 1.579 4602
1.667 3.668 1.632 1878
1.645 3.617 1.598 5644
1.586 3.489 1.545 1623
1.652 3.635 1.592 7765
1.594 3.506 1.540 3236
1.651 3.632 1.578 7438
1.710 3.761 1.629 2060
1.650 3.629 1.564 6524
1.708 3.758 1.615 3138
1.692 3.721 1.587 6636
1.633 3.592 1.536 2809
1.690 3.718 1.572 5607
1.749 3.847 1.623 1773
1.707 3.756 1.574 4212
1.649 3.627 1.524 1829
1.706 3.753 1.559 4330
1.765 3.882 1.609 2908
1.742 3.831 1.576 4989
1.683 3.702 1.527 1351
1.743 3.835 1.564 7421
1.802 3.965 1.613 1280
1.748 3.846 1.554 6223
1.807 3.975 1.603 1327
1.756 3.863 1.547 4472
1.815 3.993 1.595 2549
1.758 3.867 1.535 5056
1.820 4.004 1.585 4023
1.763 3.877 1.525 5117
1.822 4.008 1.572 4307
1.774 3.902 1.520 4315
1.833 4.032 1.567 3505
1.838 4.042 1.557 4991
1.778 3.912 1.510 3581
1.843 4.053 1.546 6695
1.783 3.923 1.500 1772
1.844 4.057 1.533 5798
1.904 4.187 1.579 2025
1.846 4.061 1.520 5160
1.905 4.191 1.565 2014
1.898 4.174 1.545 3964
1.838 4.044 1.500 3050
1.902 4.185 1.534 6130
1.843 4.054 1.490 1832
1.907 4.195 1.523 6191
1.973 4.340 1.572 1381
1.912 4.206 1.512 4557
1.972 4.337 1.556 1288
1.933 4.251 1.512 3281
1.992 4.382 1.555 1140
1.963 4.317 1.519 4177
1.903 4.186 1.477 1483
1.952 4.293 1.497 5020
2.011 4.424 1.539 1673
1.953 4.297 1.483 4788
2.013 4.428 1.525 2699
2.008 4.418 1.506 2666
1.949 4.286 1.465 2124
2.010 4.422 1.492 3074
2.070 4.553 1.533 1128
2.012 4.425 1.478 4158
2.087 4.592 1.529 1620
2.020 4.443 1.468 3493
2.092 4.602 1.517 3149
2.100 4.620 1.506 3560
2.031 4.467 1.460 2030
2.115 4.651 1.500 3975
2.045 4.498 1.455 1548
2.138 4.704 1.499 5582
2.078 4.571 1.461 2020
2.143 4.714 1.486 4210
2.219 4.882 1.535 3325
2.215 4.871 1.515 6216
2.154 4.739 1.477 3025
2.213 4.868 1.498 6811
2.153 4.735 1.460 2748
2.218 4.879 1.484 7109
2.157 4.746 1.447 1684
2.223 4.889 1.471 6782
2.318 5.099 1.528 1381
2.231 4.907 1.459 3989
2.316 5.095 1.510 2880
2.315 5.092 1.492 4118
2.248 4.945 1.453 2625
2.396 5.271 1.523 3238
2.320 5.103 1.478 3035
2.417 5.317 1.517 4012
2.280 5.015 1.438 2102
2.425 5.334 1.503 6325
2.364 5.201 1.469 1478
2.420 5.324 1.483 4957
2.481 5.457 1.517 1590
2.470 5.433 1.493 3310
2.409 5.299 1.459 2531
2.471 5.436 1.475 3638
2.411 5.303 1.442 1604
2.515 5.531 1.480 3067
2.454 5.398 1.448 1828
2.513 5.528 1.461 3808
2.452 5.394 1.429 1289
2.518 5.538 1.445 2989
2.579 5.672 1.477 1800
2.529 5.563 1.433 2151
2.590 5.697 1.464 1787
2.636 5.799 1.469 1913
2.530 5.566 1.415 1472
2.635 5.795 1.449 2585
2.630 5.785 1.427 1758
2.710 5.961 1.467 1327
2.705 5.951 1.445 1261
2.628 5.781 1.407 1088
2.851 6.272 1.495 2076
2.681 5.898 1.413 1250
2.853 6.276 1.475 2479
2.689 5.915 1.398 1584
2.858 6.286 1.457 2052
2.919 6.421 1.485 1495
2.940 6.467 1.473 1578
2.866 6.304 1.439 1381
2.948 6.485 1.456 1736
2.822 6.208 1.399 1272
2.950 6.488 1.435 2337
2.875 6.325 1.402 1455
2.941 6.470 1.410 2438
3.064 6.740 1.464 1378
3.059 6.729 1.439 1780
2.946 6.481 1.391 1394
3.057 6.725 1.417 2168
3.222 7.087 1.486 1845
3.233 7.112 1.467 2682
3.149 6.928 1.433 1680
3.241 7.130 1.447 3241
3.154 6.938 1.412 2447
3.262 7.176 1.432 2833
3.123 6.870 1.377 1918
3.270 7.194 1.412 2736
3.199 7.037 1.384 1404
3.272 7.197 1.389 2443
3.395 7.468 1.436 2050
3.396 7.471 1.413 2270
3.257 7.165 1.360 1644
3.395 7.467 1.388 1933
3.508 7.717 1.429 1508
3.519 7.741 1.408 1806
3.328 7.321 1.339 1628
3.754 8.258 1.467 2553
3.521 7.745 1.384 1999
3.756 8.262 1.440 3714
3.334 7.334 1.293 2086
3.761 8.272 1.415 4209
3.336 7.337 1.270 1846
3.762 8.275 1.389 3738
3.697 8.133 1.367 1502
3.760 8.272 1.361 2731
3.699 8.136 1.341 1299
3.759 8.268 1.334 2283
3.697 8.132 1.314 1118
3.760 8.271 1.308 1821
3.761 8.274 1.281 1139
0.897 1.958 1.643 4359
0.899 1.962 1.637 8718
0.950 2.073 1.725 1588
0.901 1.966 1.631 8718
0.952 2.077 1.718 1588
0.905 1.976 1.630 7648
0.957 2.087 1.716 2181
0.907 1.980 1.623 6601
0.959 2.092 1.710 3084
0.906 1.978 1.613 5228
0.958 2.090 1.699 3921
0.941 2.053 1.660 4941
0.889 1.940 1.575 2507
0.945 2.062 1.659 5191
0.894 1.950 1.573 2018
0.966 2.108 1.683 6502
0.914 1.995 1.599 3735
0.971 2.118 1.681 8739
0.919 2.005 1.597 3740
0.973 2.122 1.674 9330
0.921 2.009 1.590 2778
0.977 2.132 1.672 9989
0.925 2.019 1.589 1827
0.976 2.130 1.661 9522
0.924 2.017 1.578 1129
0.978 2.134 1.654 9122
0.980 2.138 1.648 7919
1.032 2.253 1.730 1080
0.985 2.148 1.645 7125
0.986 2.152 1.639 6141
1.008 2.199 1.662 5306
1.012 2.209 1.659 6439
1.014 2.213 1.652 9813
1.067 2.328 1.733 1385
1.019 2.223 1.650 13476
1.072 2.339 1.730 2116
1.023 2.233 1.647 12639
1.076 2.349 1.727 2993
1.028 2.243 1.644 12186
1.081 2.359 1.724 3565
1.035 2.259 1.645 10503
1.089 2.376 1.725 2708
1.049 2.288 1.655 11644
0.995 2.171 1.576 2775
1.056 2.304 1.656 11312
1.003 2.188 1.577 3120
1.061 2.314 1.653 11642
1.114 2.431 1.731 2691
1.065 2.324 1.650 8021
1.119 2.442 1.727 3118
1.073 2.341 1.650 5657
1.127 2.458 1.728 2694
1.109 2.419 1.692 6522
1.055 2.302 1.615 4017
1.102 2.405 1.672 8430
1.048 2.287 1.595 2823
1.110 2.421 1.672 10323
1.056 2.303 1.596 3193
1.111 2.425 1.665 12324
1.057 2.307 1.589 2480
1.119 2.442 1.665 13064
1.065 2.323 1.590 2448
1.124 2.452 1.661 12867
1.069 2.333 1.586 1437
1.126 2.456 1.654 10849
1.180 2.575 1.728 1179
1.130 2.466 1.650 9346
1.185 2.585 1.724 1950
1.155 2.520 1.673 10711
1.060 2.313 1.545 1277
1.157 2.524 1.665 9281
1.162 2.535 1.661 7916
1.216 2.654 1.734 1185
1.169 2.551 1.661 5221
1.224 2.671 1.734 1069
1.200 2.618 1.691 5044
1.142 2.492 1.615 1244
1.205 2.629 1.687 6383
1.150 2.509 1.615 1531
1.207 2.633 1.678 6301
1.152 2.513 1.607 1552
1.191 2.599 1.647 5692
1.246 2.719 1.719 2092
1.193 2.603 1.639 4943
1.248 2.724 1.710 2949
1.241 2.709 1.690 4536
1.186 2.588 1.620 2556
1.249 2.725 1.689 4930
1.194 2.604 1.619 1925
1.260 2.749 1.692 7141
1.204 2.628 1.622 1682
1.265 2.759 1.687 8537
1.209 2.638 1.617 1690
1.269 2.770 1.682 7544
1.214 2.648 1.613 1581
1.271 2.774 1.673 6910
1.327 2.895 1.741 1698
1.264 2.759 1.653 7415
1.320 2.880 1.722 3508
1.301 2.840 1.687 9054
1.246 2.718 1.620 3090
1.309 2.857 1.686 12305
1.253 2.734 1.618 2815
1.311 2.861 1.677 11527
1.255 2.738 1.610 1842
1.310 2.858 1.664 9099
1.366 2.981 1.731 2157
1.312 2.862 1.655 7872
1.368 2.985 1.721 3023
1.317 2.873 1.649 9089
1.373 2.996 1.715 3194
1.321 2.883 1.644 8270
1.378 3.007 1.709 3257
1.344 2.933 1.659 6878
1.401 3.056 1.724 2902
1.352 2.950 1.656 8606
1.409 3.073 1.721 3237
1.390 3.032 1.687 7866
1.333 2.908 1.623 3314
1.400 3.056 1.688 7649
1.344 2.932 1.624 2682
1.408 3.073 1.685 6591
1.351 2.949 1.622 2209
1.410 3.077 1.675 7380
1.353 2.953 1.612 2033
1.415 3.087 1.669 9514
1.358 2.963 1.606 1908
1.420 3.098 1.662 13316
1.363 2.974 1.600 1101
1.428 3.115 1.659 13347
1.433 3.126 1.652 12047
1.434 3.130 1.643 9386
1.492 3.255 1.704 1282
1.433 3.127 1.629 6905
1.491 3.252 1.690 1911
1.450 3.164 1.635 4964
1.508 3.289 1.696 1499
1.458 3.181 1.632 4480
1.515 3.307 1.692 2046
1.463 3.192 1.625 4912
1.520 3.317 1.684 2150
1.468 3.202 1.618 5160
1.525 3.328 1.677 2274
1.512 3.299 1.651 4885
1.454 3.173 1.592 2893
1.511 3.296 1.637 5482
1.453 3.170 1.579 1340
1.510 3.294 1.624 7182
1.505 3.284 1.607 6787
1.563 3.411 1.665 3685
1.547 3.375 1.636 7884
1.489 3.248 1.579 2546
1.545 3.372 1.622 9695
1.487 3.245 1.566 1083
1.547 3.376 1.612 8058
1.605 3.503 1.668 1132
1.549 3.380 1.601 5697
1.607 3.507 1.657 1687
1.554 3.390 1.593 4028
1.612 3.518 1.649 1198
1.592 3.475 1.617 5224
1.534 3.347 1.562 1223
1.591 3.472 1.603 7044
1.602 3.496 1.601 7112
1.613 3.520 1.598 6688
1.555 3.392 1.545 1338
1.615 3.524 1.587 4864
1.674 3.652 1.640 1058
1.620 3.534 1.579 4579
1.679 3.662 1.632 1559
1.656 3.612 1.598 6133
1.597 3.484 1.545 1718
1.664 3.630 1.592 7857
1.605 3.501 1.540 3346
1.668 3.640 1.583 7135
1.610 3.512 1.532 2312
1.661 3.624 1.564 6296
1.720 3.752 1.615 3543
1.706 3.722 1.590 7118
1.647 3.594 1.539 3567
1.705 3.720 1.575 5725
1.646 3.591 1.525 1675
1.719 3.750 1.574 4334
1.660 3.622 1.524 1461
1.717 3.747 1.559 4223
1.777 3.877 1.609 2770
1.754 3.826 1.576 5249
1.694 3.697 1.527 1314
1.755 3.830 1.564 8215
1.760 3.840 1.554 7060
1.819 3.970 1.603 1286
1.768 3.858 1.547 5080
1.827 3.987 1.595 2694
1.770 3.862 1.535 5477
1.829 3.991 1.582 3812
1.771 3.865 1.523 4805
1.834 4.002 1.572 3515
1.786 3.896 1.520 3862
1.845 4.026 1.567 3166
1.853 4.044 1.559 4829
1.794 3.914 1.513 4193
1.858 4.054 1.549 5929
1.798 3.924 1.503 2663
1.860 4.058 1.536 5170
1.920 4.188 1.581 2424
1.858 4.055 1.520 4656
1.918 4.185 1.565 2387
1.907 4.162 1.543 4552
1.847 4.031 1.498 2709
1.915 4.179 1.534 6474
1.855 4.048 1.490 2174
1.920 4.190 1.523 6293
1.990 4.341 1.574 1508
1.925 4.200 1.512 4716
1.985 4.331 1.556 1395
1.949 4.252 1.515 3959
2.009 4.383 1.558 1481
1.973 4.304 1.517 4824
1.912 4.173 1.474 1482
1.968 4.294 1.499 5475
2.028 4.425 1.541 1760
1.966 4.291 1.483 4739
2.027 4.422 1.525 3259
2.028 4.426 1.511 3367
1.968 4.294 1.469 2053
2.027 4.422 1.494 3071
2.093 4.568 1.539 1777
2.025 4.419 1.478 3650
2.095 4.571 1.525 2818
2.106 4.596 1.517 4167
2.033 4.436 1.468 3521
2.108 4.600 1.502 3866
2.041 4.454 1.458 2210
2.126 4.638 1.498 4706
2.186 4.770 1.537 1800
2.121 4.628 1.479 4768
2.181 4.760 1.518 3133
2.119 4.624 1.462 3405
2.234 4.875 1.535 3048
2.226 4.858 1.513 6301
2.166 4.725 1.475 3171
2.228 4.861 1.498 8049
2.167 4.729 1.460 3435
2.233 4.872 1.484 8455
2.172 4.739 1.447 2239
2.238 4.882 1.471 6971
2.334 5.092 1.528 1723
2.246 4.900 1.459 4198
2.332 5.088 1.510 3354
2.330 5.085 1.492 4511
2.414 5.267 1.541 3226
2.412 5.263 1.523 4098
2.335 5.096 1.478 3270
2.417 5.274 1.508 4031
2.343 5.113 1.465 2359
2.441 5.327 1.503 5640
2.351 5.131 1.453 1568
2.433 5.309 1.481 4388
2.494 5.443 1.515 1655
2.425 5.292 1.459 3249
2.490 5.432 1.494 2969
2.488 5.429 1.475 3362
2.424 5.288 1.440 1823
2.535 5.531 1.482 3120
2.474 5.397 1.449 1885
2.530 5.520 1.461 3479
2.591 5.654 1.493 1260
2.535 5.531 1.445 2694
2.596 5.664 1.477 1812
2.549 5.562 1.434 2099
2.610 5.696 1.466 1729
2.657 5.798 1.470 2292
2.551 5.566 1.416 1595
2.656 5.794 1.450 3083
2.717 5.928 1.481 1276
2.651 5.784 1.429 2041
2.728 5.953 1.467 1679
2.723 5.942 1.445 1498
2.866 6.253 1.513 1354
2.871 6.263 1.495 2657
2.696 5.882 1.412 1273
2.872 6.267 1.475 2983
2.704 5.900 1.396 1652
2.874 6.271 1.455 2351
2.786 6.080 1.415 1817
2.960 6.458 1.473 1801
2.843 6.203 1.420 1689
2.968 6.476 1.456 1918
2.841 6.200 1.399 1724
2.969 6.479 1.435 2421
2.895 6.316 1.402 1489
2.958 6.454 1.409 2401
2.896 6.320 1.382 1159
3.076 6.713 1.438 1586
2.956 6.450 1.387 1393
3.078 6.716 1.417 2366
3.240 7.070 1.484 1759
3.291 7.180 1.482 2428
3.073 6.705 1.392 1870
3.263 7.120 1.447 2553
3.179 6.936 1.413 2546
3.284 7.166 1.432 2355
3.216 7.017 1.405 1793
3.292 7.184 1.412 2573
3.217 7.020 1.383 1596
3.294 7.187 1.389 2636
3.421 7.464 1.438 1950
3.423 7.468 1.414 2392
3.292 7.183 1.365 1707
3.421 7.464 1.389 1784
3.776 8.239 1.519 1646
3.778 8.243 1.493 2382
3.543 7.731 1.408 1937
3.779 8.247 1.467 3222
3.548 7.741 1.385 2042
3.784 8.257 1.442 4313
3.549 7.744 1.360 1555
3.786 8.261 1.415 4969
3.557 7.762 1.338 1390
3.787 8.264 1.389 4543
3.872 8.449 1.417 1478
3.786 8.260 1.361 3298
3.871 8.446 1.389 1456
3.784 8.256 1.334 2433
3.866 8.435 1.360 1245
3.785 8.259 1.308 1777
3.787 8.262 1.281 1104
0.908 1.967 1.653 4051
0.910 1.971 1.647 8102
0.859 1.860 1.559 1422
0.912 1.975 1.640 8102
0.861 1.863 1.553 1392
0.911 1.973 1.630 7143
0.963 2.085 1.716 1988
0.910 1.971 1.619 6277
0.962 2.083 1.705 3541
0.945 2.046 1.667 5341
0.893 1.934 1.581 3841
0.947 2.050 1.660 5241
0.895 1.937 1.575 2928
0.949 2.054 1.654 5367
0.897 1.941 1.569 2093
0.975 2.111 1.688 6268
0.923 1.998 1.603 3842
0.977 2.115 1.681 8388
0.925 2.002 1.597 3842
0.982 2.125 1.679 8755
0.929 2.012 1.595 3077
0.984 2.129 1.672 9134
0.931 2.016 1.589 2338
0.983 2.127 1.661 8137
0.930 2.014 1.578 1586
0.982 2.125 1.650 7569
1.034 2.239 1.733 1428
0.986 2.135 1.648 6652
1.039 2.250 1.730 1280
0.991 2.145 1.645 6037
1.044 2.260 1.728 1108
0.993 2.149 1.639 5309
1.046 2.264 1.721 1122
1.020 2.208 1.670 5897
0.967 2.093 1.589 1534
1.019 2.206 1.659 7415
0.966 2.091 1.578 1187
1.024 2.216 1.657 10766
1.077 2.331 1.737 1092
1.025 2.220 1.650 14259
1.079 2.335 1.730 1681
1.030 2.230 1.647 13221
1.083 2.346 1.727 2577
1.035 2.240 1.644 12365
1.088 2.356 1.724 3255
1.042 2.256 1.645 10291
1.096 2.372 1.725 2401
1.058 2.291 1.659 12051
1.004 2.175 1.580 4095
1.063 2.301 1.656 11541
1.009 2.185 1.577 3177
1.068 2.311 1.653 11520
1.121 2.428 1.731 2107
1.072 2.321 1.650 8024
1.126 2.438 1.727 2650
1.080 2.338 1.650 5350
1.134 2.455 1.728 2520
1.084 2.348 1.647 5243
1.139 2.465 1.724 2915
1.106 2.395 1.668 6716
1.052 2.278 1.591 2555
1.114 2.412 1.668 8082
1.060 2.294 1.592 2525
1.116 2.416 1.661 9546
1.061 2.298 1.585 1790
1.126 2.438 1.665 10123
1.072 2.320 1.590 2401
1.131 2.448 1.661 10563
1.076 2.330 1.586 1589
1.130 2.446 1.650 9038
1.052 2.278 1.544 1226
1.161 2.513 1.681 8335
1.106 2.394 1.607 2569
1.163 2.517 1.673 10885
1.064 2.304 1.541 1511
1.164 2.521 1.665 9685
1.063 2.301 1.530 1166
1.169 2.531 1.661 8545
1.224 2.650 1.734 1079
1.177 2.548 1.661 5492
1.232 2.667 1.734 1133
1.208 2.615 1.691 5249
1.153 2.495 1.619 1310
1.213 2.625 1.687 6840
1.157 2.505 1.615 1727
1.212 2.623 1.675 7122
1.267 2.743 1.746 1392
1.213 2.627 1.666 5851
1.269 2.747 1.738 1603
1.215 2.631 1.658 4884
1.271 2.752 1.729 1599
1.246 2.699 1.687 4985
1.191 2.578 1.616 1677
1.251 2.709 1.682 5215
1.307 2.830 1.752 1582
1.268 2.745 1.692 6598
1.212 2.624 1.622 1643
1.276 2.762 1.690 7826
1.220 2.641 1.621 1903
1.278 2.766 1.682 6844
1.222 2.645 1.613 1410
1.285 2.783 1.680 6283
1.342 2.904 1.749 1214
1.272 2.755 1.653 6758
1.329 2.877 1.722 3366
1.310 2.836 1.687 9630
1.254 2.714 1.620 3197
1.318 2.853 1.686 12821
1.261 2.731 1.618 2821
1.320 2.857 1.677 11904
1.251 2.709 1.595 1722
1.318 2.854 1.664 9126
1.375 2.977 1.731 1954
1.320 2.858 1.655 7869
1.377 2.981 1.721 3297
1.325 2.869 1.649 9510
1.382 2.992 1.715 4023
1.330 2.879 1.644 8688
1.387 3.002 1.709 4180
1.335 2.890 1.638 6411
1.392 3.013 1.703 5722
1.379 2.985 1.677 7587
1.322 2.861 1.612 2867
1.399 3.028 1.687 8134
1.342 2.904 1.623 3085
1.406 3.045 1.685 7902
1.349 2.921 1.621 2026
1.414 3.062 1.682 5932
1.357 2.938 1.618 2349
1.419 3.073 1.675 6064
1.362 2.949 1.612 2697
1.424 3.083 1.669 8761
1.367 2.959 1.606 2530
1.429 3.094 1.662 13183
1.372 2.969 1.600 1455
1.440 3.117 1.662 13802
1.382 2.993 1.600 1146
1.448 3.135 1.659 13045
1.390 3.010 1.597 1371
1.447 3.132 1.646 9581
1.504 3.257 1.707 1315
1.442 3.123 1.629 6009
1.500 3.248 1.690 2376
1.444 3.127 1.620 4148
1.502 3.252 1.680 2550
1.467 3.177 1.632 3879
1.525 3.302 1.692 2085
1.469 3.181 1.622 4285
1.527 3.306 1.681 2617
1.474 3.191 1.615 4630
1.532 3.317 1.674 2718
1.519 3.288 1.648 4484
1.461 3.162 1.589 2320
1.514 3.279 1.631 5389
1.516 3.283 1.621 7405
1.574 3.409 1.679 1150
1.515 3.280 1.607 7235
1.573 3.406 1.665 3617
1.563 3.384 1.642 6467
1.504 3.257 1.585 4230
1.555 3.367 1.622 7773
1.497 3.241 1.566 1211
1.557 3.371 1.612 6703
1.616 3.498 1.668 1398
1.559 3.375 1.601 5078
1.618 3.502 1.657 2172
1.561 3.379 1.590 4052
1.620 3.506 1.646 2130
1.603 3.470 1.617 5362
1.544 3.343 1.562 1288
1.605 3.474 1.606 6431
1.613 3.491 1.601 7655
1.554 3.364 1.547 1180
1.617 3.502 1.593 7032
1.622 3.512 1.584 4588
1.624 3.516 1.573 4535
1.683 3.644 1.626 1320
1.663 3.601 1.595 6111
1.722 3.729 1.648 1339
1.674 3.625 1.592 7502
1.615 3.497 1.540 3382
1.679 3.635 1.583 6885
1.620 3.507 1.532 2334
1.675 3.626 1.566 6367
1.734 3.754 1.618 3092
1.717 3.717 1.590 7105
1.658 3.589 1.539 3653
1.719 3.721 1.578 5285
1.659 3.593 1.527 1945
1.761 3.813 1.600 3925
1.699 3.678 1.548 3222
1.729 3.742 1.559 3771
1.788 3.871 1.609 2351
1.765 3.821 1.576 5220
1.705 3.692 1.527 1300
1.767 3.825 1.564 8432
1.771 3.835 1.554 7379
1.831 3.964 1.603 1388
1.780 3.853 1.547 5426
1.839 3.982 1.595 2904
1.781 3.856 1.535 5307
1.841 3.986 1.582 3794
1.783 3.860 1.523 4329
1.843 3.990 1.570 2706
1.794 3.884 1.518 3803
1.867 4.041 1.574 2979
1.808 3.915 1.515 4513
1.868 4.045 1.561 4044
1.870 4.049 1.549 4414
1.810 3.919 1.503 3283
1.878 4.066 1.540 4493
1.938 4.196 1.586 2358
1.877 4.063 1.525 4215
1.937 4.193 1.570 1986
1.916 4.149 1.540 4935
1.856 4.019 1.496 2218
1.928 4.173 1.534 6380
1.867 4.043 1.490 2250
1.933 4.184 1.523 6103
2.006 4.342 1.576 1319
1.937 4.194 1.512 4613
2.011 4.353 1.565 1419
1.961 4.246 1.515 4575
2.022 4.377 1.558 1698
1.985 4.298 1.517 5360
1.925 4.167 1.474 1508
1.981 4.288 1.499 5581
2.041 4.419 1.541 2343
2.033 4.402 1.520 4503
1.973 4.271 1.479 3682
2.041 4.420 1.511 3948
1.981 4.288 1.469 1629
2.040 4.416 1.494 3309
2.104 4.555 1.537 2705
2.109 4.565 1.525 3766
2.042 4.420 1.480 3513
2.114 4.576 1.512 4670
2.050 4.437 1.470 3900
2.112 4.572 1.496 4112
2.051 4.441 1.456 2738
2.146 4.645 1.502 4513
2.207 4.777 1.541 1933
2.135 4.621 1.479 4849
2.199 4.760 1.520 3212
2.136 4.625 1.464 3206
2.249 4.868 1.535 2575
2.241 4.851 1.513 5419
2.160 4.677 1.463 2956
2.242 4.855 1.498 7404
2.162 4.680 1.449 2570
2.247 4.865 1.484 8001
2.312 5.004 1.523 2719
2.252 4.876 1.471 6105
2.313 5.008 1.507 2453
2.260 4.893 1.459 3971
2.344 5.074 1.508 3210
2.346 5.078 1.492 4252
2.429 5.260 1.541 3658
2.428 5.256 1.523 4230
2.354 5.096 1.480 3556
2.430 5.260 1.506 3740
2.362 5.113 1.467 3039
2.457 5.319 1.503 4639
2.367 5.124 1.453 1905
2.446 5.295 1.479 3979
2.507 5.428 1.513 1821
2.441 5.285 1.459 3537
2.506 5.425 1.494 2637
2.504 5.421 1.475 2741
2.443 5.288 1.442 2106
2.551 5.523 1.482 2719
2.490 5.390 1.449 1482
2.520 5.456 1.447 2970
2.653 5.744 1.517 1171
2.522 5.460 1.430 2472
2.610 5.649 1.475 1733
2.611 5.653 1.457 2113
2.523 5.463 1.413 1272
2.674 5.790 1.470 2349
2.567 5.558 1.416 1534
2.679 5.801 1.453 3164
2.741 5.934 1.484 1278
2.668 5.776 1.429 2021
2.733 5.917 1.460 1733
2.741 5.934 1.445 1617
2.884 6.244 1.513 1454
2.889 6.255 1.495 2855
2.827 6.121 1.466 1290
2.888 6.251 1.474 3062
2.806 6.075 1.436 1653
2.889 6.255 1.454 2453
2.808 6.079 1.416 2281
2.861 6.195 1.420 2104
2.979 6.449 1.473 1921
2.860 6.191 1.399 2083
2.987 6.467 1.456 2017
2.989 6.470 1.435 2474
2.868 6.209 1.382 1380
2.977 6.445 1.409 2324
2.873 6.219 1.364 1135
3.096 6.703 1.438 1599
2.975 6.442 1.387 1420
3.098 6.707 1.417 2327
3.255 7.047 1.482 1553
3.312 7.171 1.482 2176
3.191 6.909 1.433 1870
3.202 6.933 1.414 2525
3.311 7.167 1.458 2097
3.234 7.000 1.404 2020
3.309 7.163 1.434 1850
3.317 7.181 1.413 2426
3.238 7.011 1.383 1618
3.319 7.184 1.390 2726
3.453 7.475 1.441 1930
3.451 7.472 1.416 2518
3.320 7.188 1.367 1777
3.453 7.475 1.392 1764
3.564 7.717 1.433 1445
3.802 8.232 1.493 2015
3.566 7.720 1.408 1662
3.804 8.235 1.467 2624
3.574 7.738 1.386 1683
3.809 8.246 1.442 3625
3.576 7.741 1.361 1443
3.810 8.249 1.415 4276
3.580 7.751 1.338 1443
3.812 8.253 1.389 3969
3.680 7.968 1.345 1489
3.810 8.249 1.361 2853
3.896 8.434 1.389 1501
3.808 8.245 1.334 2016
3.891 8.423 1.360 1438
3.810 8.248 1.308 1421
0.925 1.980 1.667 3732
0.874 1.869 1.579 1013
0.927 1.984 1.660 7464
0.876 1.873 1.573 2027
0.929 1.988 1.654 7464
0.877 1.877 1.567 1958
0.934 1.998 1.652 6585
0.882 1.887 1.566 2131
0.949 2.031 1.669 6051
0.897 1.920 1.583 4732
0.951 2.036 1.662 5611
0.899 1.924 1.577 3731
0.953 2.040 1.656 5171
0.901 1.927 1.570 2730
0.958 2.049 1.654 5125
0.905 1.937 1.569 2318
0.987 2.113 1.692 6218
0.935 2.000 1.607 4112
0.989 2.117 1.686 8491
0.937 2.004 1.601 4112
0.994 2.127 1.683 8838
0.941 2.014 1.599 3706
0.996 2.131 1.677 9225
0.943 2.018 1.593 3288
0.995 2.129 1.666 7893
0.942 2.016 1.582 2136
0.991 2.121 1.650 6993
1.044 2.235 1.733 1773
0.999 2.137 1.652 6335
1.052 2.251 1.735 1172
1.003 2.147 1.650 5994
1.057 2.261 1.732 1102
1.003 2.145 1.639 5567
1.056 2.259 1.721 1371
1.030 2.203 1.670 6692
0.976 2.089 1.589 1626
1.029 2.201 1.659 8364
0.975 2.086 1.578 1254
1.034 2.211 1.657 11109
1.038 2.221 1.654 14193
1.095 2.343 1.738 1085
1.040 2.225 1.647 13125
1.094 2.341 1.727 2033
1.045 2.235 1.644 12127
1.099 2.351 1.724 2789
1.049 2.245 1.641 10056
1.104 2.361 1.720 2512
1.071 2.292 1.663 12629
1.017 2.176 1.584 2986
1.076 2.302 1.660 11776
1.022 2.186 1.582 2201
1.081 2.312 1.657 11343
1.135 2.429 1.735 1613
1.086 2.323 1.654 8086
1.140 2.439 1.731 2029
1.087 2.327 1.646 5076
1.142 2.443 1.724 2625
1.092 2.337 1.643 4265
1.147 2.454 1.720 3068
1.114 2.384 1.664 4861
1.059 2.267 1.587 2755
1.119 2.394 1.660 5744
1.064 2.277 1.584 2009
1.124 2.404 1.657 6708
1.179 2.522 1.733 1809
1.146 2.452 1.677 7255
1.091 2.334 1.602 2592
1.145 2.450 1.665 7925
1.090 2.332 1.590 2017
1.141 2.441 1.650 6796
1.196 2.559 1.725 1516
1.172 2.507 1.681 7941
1.117 2.389 1.607 2551
1.174 2.512 1.673 10770
1.072 2.293 1.537 1417
1.176 2.516 1.665 9907
1.073 2.297 1.530 1105
1.181 2.526 1.661 9177
1.236 2.645 1.734 1167
1.188 2.542 1.661 6138
1.244 2.662 1.734 1295
1.211 2.590 1.680 6007
1.221 2.613 1.683 7512
1.166 2.494 1.611 1628
1.223 2.618 1.675 8301
1.279 2.737 1.746 1412
1.225 2.622 1.666 6996
1.281 2.742 1.738 1557
1.227 2.626 1.658 5427
1.283 2.746 1.729 1688
1.253 2.680 1.679 5681
1.309 2.801 1.750 1257
1.252 2.678 1.667 6131
1.311 2.805 1.741 1844
1.283 2.746 1.695 5742
1.227 2.625 1.626 2553
1.288 2.756 1.690 6804
1.232 2.635 1.621 2038
1.293 2.767 1.685 6013
1.236 2.645 1.616 1763
1.316 2.815 1.702 6283
1.259 2.694 1.633 2111
1.318 2.819 1.693 6188
1.261 2.698 1.625 2706
1.323 2.830 1.687 10006
1.266 2.708 1.620 3170
1.328 2.840 1.682 13147
1.271 2.719 1.615 2525
1.332 2.851 1.677 12210
1.266 2.710 1.599 1759
1.331 2.849 1.664 9025
1.388 2.971 1.731 1903
1.333 2.853 1.655 7359
1.390 2.975 1.721 3544
1.338 2.863 1.649 9002
1.395 2.986 1.715 4821
1.343 2.873 1.644 8180
1.400 2.996 1.709 5106
1.399 2.994 1.696 7188
1.342 2.871 1.631 5902
1.398 2.991 1.683 9024
1.341 2.868 1.619 4225
1.409 3.015 1.684 8986
1.352 2.892 1.620 3584
1.420 3.039 1.685 9077
1.362 2.915 1.621 2060
1.425 3.049 1.678 5985
1.367 2.926 1.615 2126
1.442 3.086 1.685 5246
1.384 2.962 1.622 3966
1.441 3.083 1.672 7507
1.383 2.959 1.609 3208
1.446 3.094 1.666 11745
1.388 2.970 1.603 2108
1.457 3.117 1.666 13900
1.399 2.993 1.604 1642
1.462 3.128 1.659 14032
1.404 3.004 1.597 1377
1.464 3.132 1.649 10278
1.522 3.257 1.710 1140
1.460 3.123 1.633 5099
1.518 3.248 1.693 2452
1.511 3.232 1.673 3340
1.452 3.107 1.613 3008
1.469 3.144 1.619 3166
1.528 3.269 1.679 2768
1.474 3.154 1.612 4125
1.533 3.280 1.672 3416
1.482 3.171 1.608 4078
1.541 3.297 1.667 3327
1.530 3.274 1.645 3866
1.472 3.149 1.586 1969
1.529 3.272 1.631 5096
1.531 3.276 1.621 7082
1.590 3.402 1.679 1231
1.530 3.273 1.607 7272
1.589 3.399 1.665 3423
1.532 3.277 1.597 5974
1.590 3.403 1.654 4263
1.568 3.354 1.619 5111
1.509 3.228 1.563 1211
1.572 3.364 1.612 4875
1.632 3.491 1.668 1583
1.571 3.362 1.598 4601
1.630 3.488 1.654 3069
1.617 3.459 1.628 4831
1.557 3.332 1.573 2527
1.622 3.469 1.620 5727
1.562 3.343 1.565 1674
1.623 3.473 1.609 6267
1.564 3.346 1.555 1162
1.625 3.477 1.598 7620
1.566 3.350 1.544 1106
1.630 3.488 1.590 6933
1.632 3.492 1.579 4708
1.691 3.619 1.632 1009
1.640 3.509 1.573 4625
1.679 3.593 1.595 5620
1.620 3.465 1.543 1328
1.687 3.610 1.589 6950
1.628 3.483 1.537 2703
1.696 3.628 1.583 6760
1.636 3.500 1.532 2342
1.726 3.692 1.596 6680
1.666 3.564 1.545 2960
1.734 3.710 1.590 6731
1.674 3.581 1.539 3392
1.736 3.713 1.578 4332
1.676 3.585 1.527 1933
1.772 3.792 1.595 3770
1.712 3.663 1.545 2857
1.780 3.809 1.588 3234
1.720 3.680 1.538 2181
1.782 3.813 1.576 4715
1.722 3.684 1.527 1244
1.784 3.817 1.564 8225
1.789 3.827 1.554 7355
1.849 3.956 1.603 1582
1.800 3.851 1.550 5836
1.860 3.980 1.598 2438
1.802 3.855 1.537 5166
1.862 3.984 1.585 3135
1.803 3.859 1.525 3814
1.889 4.043 1.592 3056
1.815 3.883 1.520 4220
1.888 4.040 1.577 3692
1.826 3.907 1.515 4851
1.887 4.037 1.561 3343
1.837 3.931 1.510 4235
1.908 4.081 1.563 2703
1.903 4.071 1.545 4256
1.842 3.941 1.500 1976
1.924 4.116 1.546 4703
1.863 3.986 1.501 2025
1.929 4.127 1.536 5376
1.868 3.997 1.491 1452
1.946 4.165 1.534 5878
1.886 4.034 1.490 2070
1.948 4.168 1.521 5794
2.009 4.299 1.565 1262
1.982 4.241 1.530 5376
1.921 4.110 1.487 1192
1.984 4.244 1.517 4864
2.045 4.375 1.560 1636
2.005 4.289 1.517 5378
1.944 4.158 1.474 1512
2.000 4.279 1.499 5484
2.061 4.410 1.541 3046
2.053 4.393 1.520 5036
1.992 4.262 1.479 2684
2.058 4.403 1.508 4097
2.126 4.548 1.554 2263
2.057 4.400 1.492 3956
2.124 4.545 1.537 3172
2.065 4.417 1.482 4717
2.126 4.549 1.523 3788
2.128 4.552 1.508 5152
2.066 4.421 1.468 4906
2.129 4.556 1.494 6000
