3.780 3.588 1.576 1993
3.788 3.597 1.563 2483
3.655 3.470 1.512 2424
3.802 3.610 1.552 2055
4.007 3.805 1.629 1743
3.999 3.797 1.609 2307
3.816 3.623 1.541 1990
4.002 3.800 1.593 4128
3.830 3.637 1.530 1903
4.011 3.808 1.579 4309
4.200 3.987 1.647 4141
4.203 3.990 1.631 6344
4.014 3.811 1.563 3307
4.206 3.993 1.614 8884
4.100 3.893 1.577 2212
4.209 3.996 1.597 9827
4.103 3.896 1.560 1807
4.218 4.004 1.582 7933
4.346 4.126 1.627 1702
4.221 4.007 1.565 5574
4.349 4.129 1.609 2538
4.408 4.185 1.611 3039
4.218 4.005 1.547 2602
4.439 4.214 1.602 3587
4.333 4.114 1.567 1961
4.431 4.207 1.581 3458
4.537 4.307 1.616 1465
4.506 4.279 1.587 4457
4.400 4.178 1.552 1942
4.504 4.276 1.567 4652
4.398 4.175 1.533 1824
4.518 4.290 1.553 3869
4.412 4.189 1.519 1750
4.471 4.245 1.519 3172
4.583 4.351 1.554 3104
4.524 4.295 1.517 3046
4.726 4.487 1.579 1408
4.577 4.346 1.514 2663
4.740 4.500 1.563 2162
4.586 4.354 1.497 3056
4.749 4.508 1.546 2835
4.746 4.506 1.525 2195
4.589 4.357 1.479 1849
4.754 4.514 1.508 1762
4.878 4.631 1.544 1542
4.971 4.720 1.550 1524
4.769 4.527 1.492 1214
4.974 4.722 1.530 1323
5.258 4.992 1.588 1474
4.999 4.747 1.517 1313
5.273 5.006 1.570 2555
5.160 4.899 1.540 1556
5.281 5.014 1.551 2849
5.157 4.896 1.518 2331
5.374 5.103 1.554 2245
5.222 4.958 1.513 1906
5.377 5.105 1.532 2900
5.564 5.282 1.581 2026
5.296 5.028 1.489 2237
5.572 5.290 1.560 1837
5.440 5.165 1.504 1572
5.598 5.315 1.543 1512
5.765 5.473 1.562 2195
5.985 5.682 1.617 1466
5.768 5.476 1.539 2723
5.982 5.680 1.591 2055
5.776 5.484 1.517 3649
5.657 5.371 1.489 1957
5.779 5.487 1.494 5537
5.988 5.686 1.543 2814
6.003 5.699 1.522 5941
5.782 5.490 1.471 5224
6.006 5.702 1.498 7848
5.790 5.498 1.449 3725
6.014 5.710 1.475 5626
5.793 5.500 1.426 3633
5.796 5.503 1.403 3524
6.023 5.718 1.452 2572
5.798 5.505 1.380 2351
6.258 5.941 1.478 1865
6.493 6.165 1.503 2172
6.272 5.955 1.456 1669
6.411 6.087 1.459 1938
6.275 5.958 1.431 1925
6.408 6.084 1.432 1917
6.272 5.955 1.404 1585
6.871 6.524 1.498 2113
6.411 6.087 1.407 1460
6.874 6.526 1.471 2221
6.877 6.529 1.443 1567
6.880 6.532 1.416 1242
6.882 6.534 1.388 1092
1.698 1.601 1.773 2340
1.609 1.517 1.685 1360
1.702 1.604 1.766 4681
1.613 1.520 1.679 2721
1.705 1.607 1.759 4681
1.616 1.523 1.672 2721
1.718 1.619 1.762 6033
1.629 1.535 1.675 3477
1.722 1.622 1.755 7608
1.632 1.538 1.669 3143
1.739 1.639 1.762 7322
1.640 1.545 1.667 4248
1.771 1.669 1.782 8899
1.643 1.549 1.660 5139
1.775 1.672 1.775 8899
1.646 1.552 1.654 5200
1.783 1.680 1.773 9405
1.650 1.555 1.648 5281
1.791 1.688 1.770 10326
1.658 1.562 1.646 5329
1.794 1.691 1.763 9453
1.656 1.561 1.635 4033
1.798 1.694 1.756 8580
1.659 1.564 1.628 2767
1.801 1.698 1.749 7720
1.662 1.567 1.622 1900
1.805 1.701 1.742 6860
1.713 1.615 1.659 1235
1.808 1.704 1.735 8651
1.717 1.618 1.652 1645
1.802 1.698 1.719 10394
1.710 1.612 1.637 1723
1.800 1.697 1.708 10336
1.892 1.783 1.789 2005
1.809 1.704 1.705 10920
1.717 1.618 1.623 2518
1.817 1.712 1.702 12300
1.725 1.625 1.621 3002
1.830 1.724 1.703 9715
1.733 1.633 1.618 3679
1.867 1.760 1.726 12020
1.736 1.636 1.612 4136
1.871 1.763 1.718 10918
1.739 1.639 1.605 4752
1.874 1.766 1.711 9817
1.742 1.642 1.598 5369
1.882 1.774 1.708 7475
1.745 1.645 1.591 4909
1.900 1.791 1.713 5299
1.748 1.647 1.584 4449
1.913 1.803 1.714 5873
1.751 1.650 1.577 3253
1.931 1.820 1.719 7445
1.749 1.649 1.566 2093
1.955 1.842 1.727 6272
1.757 1.656 1.564 2866
1.963 1.850 1.724 6115
1.760 1.659 1.557 3675
1.966 1.853 1.716 4541
1.768 1.666 1.554 4130
1.771 1.669 1.547 4085
1.940 1.828 1.684 4040
2.023 1.906 1.741 4411
1.774 1.672 1.540 3390
2.026 1.909 1.733 5513
1.777 1.675 1.533 2302
2.029 1.912 1.725 6909
1.805 1.701 1.546 1644
2.033 1.916 1.717 8306
1.768 1.666 1.507 1289
2.041 1.924 1.713 7106
1.771 1.669 1.500 1204
2.064 1.946 1.720 6599
1.969 1.856 1.646 1046
2.068 1.949 1.712 7151
1.972 1.859 1.638 1334
2.076 1.957 1.708 6510
1.981 1.867 1.634 1216
2.079 1.960 1.700 5924
2.083 1.963 1.692 5761
2.081 1.961 1.680 5650
2.177 2.052 1.752 1716
2.089 1.969 1.675 4676
2.185 2.060 1.747 2075
2.174 2.048 1.727 4815
2.077 1.958 1.656 2529
2.177 2.052 1.719 5977
2.081 1.961 1.647 2344
2.180 2.055 1.710 5726
2.084 1.964 1.639 3009
2.179 2.053 1.698 5493
2.082 1.962 1.627 3226
2.105 1.984 1.634 4647
2.202 2.075 1.704 3625
2.231 2.103 1.714 5692
2.114 1.992 1.629 3667
2.234 2.106 1.705 7222
2.117 1.995 1.621 2361
2.238 2.109 1.696 6323
2.120 1.998 1.613 2654
2.190 2.064 1.651 6319
2.297 2.165 1.727 3020
2.198 2.072 1.646 6320
2.306 2.173 1.722 4001
2.309 2.176 1.712 5604
2.206 2.079 1.641 5313
2.313 2.179 1.703 7342
2.215 2.087 1.636 3279
2.311 2.178 1.691 7235
2.213 2.085 1.624 1882
2.309 2.176 1.678 7822
2.211 2.083 1.611 1462
2.322 2.189 1.676 7610
2.421 2.281 1.742 1598
2.331 2.197 1.670 7136
2.429 2.290 1.736 2011
2.334 2.200 1.661 6714
2.433 2.293 1.726 3014
2.322 2.188 1.642 5906
2.426 2.286 1.710 3193
2.320 2.186 1.629 5345
2.424 2.284 1.697 2579
2.438 2.297 1.694 3858
2.333 2.199 1.627 3731
2.446 2.305 1.688 8315
2.347 2.212 1.624 3015
2.465 2.323 1.688 9982
2.366 2.230 1.625 3234
2.479 2.336 1.685 10607
2.379 2.242 1.622 2373
2.487 2.344 1.679 7648
2.388 2.250 1.616 1698
2.501 2.357 1.675 4234
2.401 2.263 1.613 1284
2.552 2.405 1.695 4482
2.555 2.408 1.685 6960
2.574 2.426 1.684 8890
2.474 2.331 1.623 1011
2.588 2.439 1.681 9801
2.488 2.344 1.620 1164
2.602 2.452 1.677 6720
2.642 2.490 1.688 4307
2.541 2.395 1.629 1699
2.661 2.508 1.687 5053
2.555 2.408 1.625 1320
2.664 2.511 1.677 6217
2.558 2.411 1.615 1308
2.668 2.514 1.666 6116
2.567 2.419 1.608 1604
2.671 2.517 1.656 6787
2.570 2.422 1.598 1686
2.674 2.520 1.645 7414
2.775 2.615 1.703 1107
2.672 2.518 1.632 5724
2.794 2.633 1.701 1636
2.675 2.521 1.621 4135
2.798 2.637 1.690 1753
2.705 2.549 1.625 4080
2.806 2.645 1.682 1506
2.713 2.557 1.618 4713
2.815 2.653 1.674 2009
2.716 2.560 1.607 4484
2.818 2.656 1.663 3892
2.827 2.664 1.654 4811
2.714 2.558 1.593 3162
2.851 2.687 1.655 4321
2.728 2.571 1.588 1829
2.860 2.695 1.646 4923
2.758 2.599 1.592 1214
2.874 2.708 1.641 5263
2.772 2.612 1.587 1398
2.893 2.727 1.638 5016
2.791 2.630 1.584 1829
2.907 2.740 1.632 5146
2.805 2.643 1.579 2208
2.916 2.748 1.623 6214
2.813 2.651 1.570 1271
2.919 2.751 1.612 6167
3.032 2.858 1.670 1936
2.917 2.749 1.597 5330
3.046 2.871 1.663 2530
2.963 2.792 1.608 5487
3.125 2.945 1.689 2278
2.966 2.795 1.596 5127
3.096 2.918 1.661 2707
3.094 2.916 1.646 2943
2.980 2.808 1.590 2596
3.097 2.919 1.633 3441
3.200 3.016 1.684 2139
3.149 2.968 1.645 4179
3.035 2.860 1.590 2403
3.152 2.971 1.632 4883
3.049 2.873 1.583 2024
3.101 2.922 1.594 3649
3.210 3.025 1.646 3543
3.278 3.090 1.664 4246
3.175 2.992 1.615 2813
3.282 3.093 1.651 3946
3.178 2.995 1.603 2726
3.345 3.152 1.666 4864
3.236 3.049 1.615 3767
3.348 3.155 1.652 5240
3.239 3.052 1.602 2637
3.362 3.169 1.644 2500
3.258 3.071 1.597 1165
3.316 3.125 1.609 2792
3.420 3.223 1.655 1820
3.319 3.128 1.595 3346
3.423 3.226 1.642 1602
3.427 3.229 1.628 2926
3.322 3.131 1.582 1996
3.430 3.232 1.615 3959
3.534 3.331 1.660 1057
3.444 3.246 1.606 2768
3.497 3.295 1.613 2610
3.472 3.272 1.588 2781
3.599 3.392 1.641 1631
3.525 3.322 1.595 2464
3.630 3.421 1.638 1545
3.550 3.346 1.590 3788
3.564 3.359 1.580 2836
3.611 3.403 1.584 2956
3.614 3.406 1.570 3817
3.634 3.425 1.562 4503
3.739 3.524 1.603 1459
3.654 3.443 1.554 3918
3.759 3.543 1.595 1719
3.651 3.441 1.537 2637
3.756 3.540 1.578 1441
3.654 3.444 1.523 2991
3.932 3.705 1.629 1371
3.668 3.457 1.512 2060
3.946 3.719 1.618 1787
3.910 3.685 1.587 2016
3.804 3.585 1.548 1676
4.008 3.777 1.607 2273
3.824 3.604 1.539 2200
4.022 3.790 1.595 3796
3.849 3.628 1.532 2140
4.025 3.793 1.579 3620
4.175 3.935 1.633 3343
4.223 3.980 1.633 4824
4.028 3.796 1.563 2134
4.226 3.983 1.616 7059
4.109 3.873 1.575 1670
4.229 3.986 1.599 8504
4.352 4.102 1.642 1637
4.233 3.989 1.582 7146
4.355 4.105 1.625 1609
4.236 3.992 1.565 4379
4.353 4.102 1.605 2876
4.390 4.137 1.599 2921
4.233 3.989 1.547 1570
4.393 4.140 1.582 4273
4.499 4.240 1.617 1421
4.401 4.148 1.566 4422
4.525 4.264 1.607 2612
4.522 4.262 1.587 4433
4.404 4.151 1.549 2375
4.520 4.259 1.567 4503
4.402 4.148 1.529 1638
4.590 4.326 1.570 4629
4.483 4.225 1.537 3907
4.593 4.329 1.552 5365
4.486 4.228 1.519 3545
4.596 4.332 1.534 3675
4.489 4.231 1.501 2781
4.593 4.329 1.514 4476
4.486 4.228 1.481 2415
4.596 4.332 1.495 5154
4.760 4.486 1.544 1794
4.599 4.334 1.477 2935
4.881 4.600 1.560 1676
4.608 4.342 1.461 1771
4.788 4.512 1.513 1555
4.616 4.350 1.444 1494
5.090 4.797 1.579 1307
4.991 4.704 1.530 1110
5.277 4.973 1.588 1609
5.141 4.845 1.551 1515
5.291 4.986 1.570 2451
5.167 4.869 1.537 2276
5.175 4.877 1.518 2585
5.300 4.995 1.551 2488
5.393 5.083 1.554 2220
5.178 4.880 1.497 1723
5.391 5.080 1.531 2630
5.589 5.267 1.582 1750
5.393 5.083 1.509 2174
5.603 5.280 1.563 1987
5.391 5.080 1.486 1723
5.617 5.294 1.543 1579
5.785 5.452 1.562 1987
5.456 5.142 1.480 1440
5.788 5.455 1.539 2300
6.009 5.663 1.593 1691
5.796 5.463 1.517 2982
6.012 5.666 1.569 2014
5.799 5.465 1.494 4276
6.015 5.669 1.545 3262
6.024 5.677 1.522 6139
5.802 5.468 1.471 3780
6.032 5.685 1.499 8172
5.811 5.476 1.449 2691
6.041 5.693 1.477 6047
5.819 5.484 1.427 2846
6.044 5.696 1.452 3221
6.431 6.060 1.537 2950
6.439 6.069 1.513 3337
6.058 5.709 1.431 2522
6.436 6.066 1.486 3429
6.061 5.712 1.407 1878
6.434 6.063 1.459 3028
6.297 5.934 1.431 1540
6.436 6.066 1.433 2805
6.875 6.479 1.522 1545
6.439 6.068 1.408 2257
6.878 6.482 1.495 2176
6.898 6.501 1.471 2106
6.442 6.071 1.382 1242
6.901 6.504 1.443 1445
6.904 6.506 1.416 1180
6.906 6.509 1.388 1054
1.638 1.533 1.708 2533
1.727 1.617 1.796 1528
1.641 1.537 1.702 5066
1.731 1.620 1.789 3138
1.645 1.540 1.695 5066
1.734 1.624 1.782 3218
1.723 1.614 1.762 5887
1.634 1.530 1.675 3925
1.727 1.617 1.755 7236
1.637 1.533 1.669 3481
1.740 1.629 1.757 6809
1.645 1.540 1.667 4690
1.772 1.659 1.778 7721
1.648 1.543 1.660 5665
1.775 1.662 1.771 7721
1.651 1.546 1.654 5782
1.788 1.674 1.773 8067
1.655 1.549 1.648 5833
1.797 1.682 1.770 8906
1.658 1.552 1.641 5768
1.800 1.685 1.763 8208
1.661 1.555 1.635 4475
1.803 1.689 1.756 7511
1.664 1.558 1.628 3182
1.807 1.692 1.749 7625
1.663 1.557 1.617 2192
1.810 1.695 1.742 7739
1.666 1.560 1.611 1255
1.814 1.698 1.735 9387
1.722 1.612 1.652 1065
1.807 1.692 1.719 10776
1.899 1.778 1.801 1706
1.806 1.691 1.708 10629
1.898 1.777 1.789 2222
1.814 1.699 1.705 11105
1.722 1.612 1.623 1529
1.822 1.706 1.702 12170
1.730 1.620 1.621 1837
1.831 1.714 1.699 9667
1.738 1.627 1.618 2430
1.873 1.754 1.726 12423
1.736 1.626 1.607 2902
1.876 1.757 1.718 11738
1.744 1.633 1.605 3449
1.885 1.764 1.715 11245
1.747 1.636 1.598 4015
1.888 1.768 1.708 8748
1.750 1.639 1.591 3633
1.896 1.775 1.705 6490
1.753 1.642 1.584 3251
1.914 1.792 1.710 6664
1.757 1.645 1.577 2262
1.932 1.809 1.714 7904
2.026 1.897 1.793 1470
1.936 1.812 1.707 6669
1.758 1.646 1.560 2131
1.969 1.843 1.724 5537
1.761 1.649 1.553 2898
1.942 1.819 1.692 4620
1.769 1.656 1.550 3543
1.941 1.817 1.680 3816
1.772 1.659 1.543 3702
2.029 1.899 1.741 4391
1.775 1.662 1.536 3096
2.032 1.903 1.733 5805
1.778 1.664 1.529 2174
2.036 1.906 1.725 7308
1.811 1.695 1.546 1586
2.039 1.909 1.717 8812
1.774 1.661 1.507 1334
2.047 1.917 1.713 7605
1.776 1.663 1.500 1277
2.071 1.939 1.720 6803
1.975 1.849 1.646 1015
2.074 1.942 1.712 6921
1.978 1.852 1.638 1219
2.082 1.950 1.708 5958
1.987 1.860 1.634 1126
2.091 1.958 1.704 5126
2.089 1.956 1.692 4698
2.092 1.959 1.683 4330
2.189 2.049 1.756 1533
2.111 1.976 1.687 3957
2.207 2.067 1.759 1040
2.180 2.041 1.727 4696
2.084 1.951 1.656 2088
2.184 2.044 1.719 5630
2.087 1.954 1.647 2667
2.182 2.043 1.706 5477
2.085 1.952 1.636 2581
2.185 2.046 1.698 5342
2.088 1.955 1.627 3050
2.194 2.054 1.693 3885
2.097 1.963 1.623 3404
2.238 2.095 1.714 5738
2.141 2.004 1.644 3292
2.241 2.098 1.705 7185
2.144 2.007 1.636 4018
2.245 2.102 1.696 6196
2.147 2.010 1.627 4342
2.196 2.057 1.651 5310
2.304 2.158 1.727 2966
2.205 2.064 1.646 4660
2.308 2.161 1.718 3594
2.311 2.164 1.709 5054
2.208 2.067 1.638 4620
2.315 2.167 1.700 6618
2.206 2.065 1.625 3550
2.318 2.170 1.691 6507
2.204 2.064 1.613 2566
2.321 2.173 1.682 6910
2.218 2.076 1.611 2114
2.330 2.181 1.676 6892
2.231 2.089 1.610 1728
2.343 2.194 1.674 6834
2.245 2.102 1.608 1858
2.341 2.192 1.661 6524
2.440 2.285 1.726 2430
2.329 2.181 1.642 6270
2.428 2.273 1.707 2742
2.327 2.179 1.629 5851
2.426 2.271 1.694 2683
2.341 2.191 1.627 3919
2.440 2.284 1.691 3480
2.448 2.292 1.685 7952
2.349 2.199 1.621 2633
2.467 2.310 1.685 9766
2.368 2.217 1.622 2934
2.486 2.328 1.685 10900
2.381 2.230 1.619 2127
2.490 2.331 1.675 8100
2.390 2.238 1.613 1494
2.514 2.354 1.679 4868
2.414 2.260 1.616 1479
2.554 2.391 1.692 5780
2.438 2.283 1.620 1094
2.557 2.394 1.682 8648
2.452 2.296 1.617 1008
2.582 2.417 1.684 9942
2.596 2.430 1.681 11345
2.610 2.443 1.677 8399
2.645 2.476 1.685 4603
2.544 2.382 1.625 1223
2.669 2.499 1.687 5035
2.568 2.405 1.628 1615
2.678 2.507 1.680 6190
2.577 2.413 1.621 1682
2.681 2.510 1.669 6438
2.580 2.416 1.611 1682
2.684 2.513 1.659 7247
2.583 2.418 1.601 1606
2.682 2.511 1.645 7632
2.680 2.509 1.632 6505
2.782 2.604 1.689 1101
2.683 2.512 1.621 4745
2.785 2.607 1.678 1140
2.718 2.545 1.628 3551
2.820 2.641 1.685 1000
2.727 2.553 1.621 4182
2.829 2.649 1.677 1790
2.730 2.556 1.610 4071
2.832 2.652 1.666 3730
2.835 2.655 1.654 4841
2.723 2.549 1.593 2713
2.860 2.678 1.655 5010
2.731 2.557 1.585 1464
2.869 2.686 1.646 6358
2.766 2.590 1.592 1132
2.877 2.694 1.638 6846
2.980 2.790 1.692 1432
2.886 2.702 1.629 5717
2.988 2.798 1.683 1523
2.911 2.725 1.629 5483
2.808 2.629 1.576 2170
2.925 2.738 1.623 6360
2.822 2.642 1.570 1449
2.928 2.741 1.612 5923
3.047 2.853 1.673 1798
2.926 2.739 1.597 4737
3.056 2.861 1.663 2726
2.972 2.783 1.608 4899
3.140 2.940 1.692 2341
2.981 2.791 1.599 4746
3.160 2.959 1.688 2612
3.103 2.906 1.646 3156
3.000 2.809 1.595 2558
3.107 2.909 1.633 3645
3.210 3.005 1.684 2027
3.175 2.973 1.653 4352
3.072 2.876 1.603 2568
3.173 2.971 1.638 4088
3.069 2.874 1.588 2217
3.220 3.015 1.646 3386
3.111 2.912 1.594 3063
3.289 3.079 1.664 3780
3.185 2.982 1.615 2627
3.292 3.082 1.651 3791
3.182 2.980 1.600 2684
3.355 3.141 1.666 4636
3.246 3.039 1.615 3827
3.358 3.144 1.652 4965
3.249 3.042 1.602 2802
3.406 3.189 1.659 2589
3.301 3.091 1.612 2163
3.332 3.120 1.611 2947
3.436 3.217 1.658 1697
3.330 3.117 1.595 3465
3.434 3.215 1.642 1703
3.437 3.218 1.628 3319
3.333 3.120 1.582 2131
3.435 3.216 1.612 4077
3.540 3.314 1.658 1518
3.432 3.214 1.596 2976
3.537 3.312 1.641 2025
3.458 3.237 1.592 2518
3.562 3.336 1.637 1251
3.466 3.245 1.581 2718
3.615 3.385 1.643 1680
3.536 3.310 1.595 2958
3.641 3.409 1.638 1959
3.561 3.334 1.590 4111
3.456 3.236 1.546 1255
3.569 3.342 1.578 3072
3.675 3.441 1.621 1264
3.639 3.407 1.591 2637
3.631 3.400 1.572 3313
3.736 3.498 1.614 1032
3.651 3.418 1.564 4134
3.756 3.517 1.606 1445
3.665 3.431 1.554 3661
3.770 3.530 1.595 1745
3.662 3.429 1.537 2513
3.768 3.528 1.578 1512
3.665 3.432 1.523 2458
3.949 3.698 1.631 1569
3.958 3.706 1.618 2315
3.730 3.492 1.531 1611
3.928 3.677 1.589 2227
3.822 3.578 1.550 1833
4.014 3.759 1.605 2302
3.830 3.586 1.537 2114
4.029 3.772 1.593 3319
4.185 3.918 1.650 2525
4.183 3.916 1.631 3794
4.037 3.780 1.579 2956
4.175 3.909 1.611 4269
4.052 3.793 1.567 1521
4.245 3.974 1.618 5593
4.094 3.833 1.565 1425
4.248 3.977 1.601 7161
4.366 4.088 1.642 1698
4.251 3.980 1.584 5751
4.369 4.090 1.625 1821
4.372 4.093 1.607 3289
4.254 3.983 1.567 3051
4.386 4.107 1.594 3544
4.212 3.944 1.535 1200
4.406 4.126 1.582 4711
4.513 4.225 1.617 1241
4.409 4.128 1.564 5032
4.539 4.249 1.607 2376
4.542 4.252 1.589 4082
4.412 4.131 1.547 2779
4.534 4.245 1.567 4022
4.410 4.129 1.528 1854
4.604 4.311 1.570 5958
4.497 4.211 1.537 3663
4.607 4.314 1.552 6976
4.500 4.213 1.519 3242
4.610 4.316 1.534 4717
4.503 4.216 1.501 2582
4.608 4.314 1.514 5872
4.500 4.214 1.481 2486
4.610 4.317 1.495 6774
4.774 4.470 1.544 1363
4.613 4.319 1.477 3676
4.896 4.584 1.560 1391
4.622 4.327 1.461 2147
4.814 4.507 1.516 1435
4.630 4.335 1.444 1995
5.111 4.786 1.581 1588
4.633 4.338 1.425 1359
5.012 4.693 1.532 1349
5.163 4.834 1.552 2176
5.021 4.701 1.513 1715
5.183 4.852 1.537 2948
5.307 4.969 1.570 2144
5.191 4.860 1.518 2909
5.316 4.977 1.551 1960
5.410 5.065 1.554 1996
5.188 4.858 1.495 1810
5.407 5.063 1.531 2353
5.526 5.174 1.562 1550
5.410 5.065 1.509 2201
5.626 5.267 1.564 2087
5.407 5.063 1.486 1801
5.623 5.265 1.541 1582
5.803 5.433 1.562 1734
5.473 5.124 1.480 1523
5.800 5.430 1.537 1860
5.658 5.297 1.503 1528
5.814 5.444 1.517 2204
6.042 5.657 1.571 2128
6.034 5.649 1.545 3209
5.817 5.446 1.494 2899
6.042 5.657 1.522 5605
5.814 5.444 1.470 2376
6.051 5.665 1.499 7512
6.427 6.018 1.585 2338
6.059 5.673 1.477 5987
6.442 6.031 1.562 3530
6.450 6.039 1.537 4195
6.068 5.681 1.454 3702
6.453 6.042 1.511 4826
6.076 5.689 1.431 3067
6.456 6.045 1.486 4734
6.073 5.686 1.405 2266
6.453 6.042 1.459 3962
6.888 6.449 1.548 1529
6.462 6.050 1.434 3606
6.891 6.452 1.521 1743
6.459 6.047 1.408 3039
6.899 6.460 1.495 2173
6.914 6.473 1.469 1877
6.467 6.055 1.383 1839
6.905 6.465 1.440 1313
6.464 6.052 1.356 1143
6.902 6.462 1.411 1279
6.928 6.486 1.388 1026
1.642 1.529 1.708 3036
1.732 1.612 1.796 1440
1.646 1.532 1.702 6073
1.735 1.615 1.789 2950
1.649 1.535 1.695 6073
1.739 1.618 1.782 3019
1.728 1.608 1.762 5387
1.638 1.525 1.675 4587
1.732 1.612 1.755 6590
1.642 1.528 1.669 3918
1.740 1.619 1.753 6307
1.650 1.535 1.667 5246
1.777 1.654 1.778 6993
1.653 1.538 1.660 6341
1.780 1.657 1.771 6993
1.656 1.541 1.654 6468
1.793 1.669 1.773 7116
1.659 1.544 1.648 6370
1.802 1.677 1.770 7872
1.663 1.547 1.641 6145
1.805 1.680 1.763 7164
1.666 1.550 1.635 4837
1.809 1.683 1.756 6455
1.669 1.553 1.628 3529
1.812 1.686 1.749 7521
1.667 1.552 1.617 2464
1.815 1.689 1.742 8587
1.670 1.555 1.611 1443
1.819 1.693 1.735 9917
1.727 1.607 1.652 1051
1.817 1.691 1.723 10818
1.910 1.777 1.806 1303
1.816 1.690 1.712 10551
1.908 1.776 1.794 1716
1.819 1.693 1.705 10611
1.912 1.779 1.786 1400
1.827 1.701 1.702 11130
1.875 1.745 1.733 9549
1.782 1.658 1.652 2083
1.878 1.748 1.726 12596
1.746 1.625 1.612 2166
1.887 1.756 1.723 12631
1.749 1.628 1.605 2648
1.890 1.759 1.715 12733
1.752 1.631 1.598 3130
1.898 1.766 1.712 10350
1.755 1.634 1.591 2689
1.906 1.774 1.709 8068
1.758 1.636 1.584 2247
1.920 1.787 1.710 7673
1.752 1.630 1.569 1722
1.933 1.799 1.710 8499
2.027 1.886 1.789 1820
1.936 1.802 1.703 7602
2.031 1.890 1.781 2531
1.935 1.800 1.691 6716
2.029 1.888 1.769 3286
1.938 1.804 1.684 5401
2.033 1.892 1.761 3104
1.941 1.807 1.676 4086
1.777 1.653 1.543 3011
2.039 1.898 1.745 4604
1.945 1.810 1.668 3011
2.043 1.901 1.737 6285
1.778 1.654 1.525 1969
2.041 1.900 1.725 7745
1.761 1.638 1.502 1608
2.045 1.903 1.717 9248
1.774 1.650 1.503 1366
2.053 1.911 1.713 8125
1.781 1.658 1.500 1246
2.077 1.932 1.720 7080
1.981 1.843 1.646 1251
2.080 1.936 1.712 6813
1.984 1.846 1.638 1518
2.088 1.943 1.708 5666
1.992 1.854 1.634 1407
2.097 1.951 1.704 4925
2.001 1.862 1.630 1076
2.100 1.954 1.695 4889
2.103 1.957 1.687 4853
2.200 2.047 1.760 1325
2.117 1.970 1.687 5005
2.214 2.060 1.759 1200
2.186 2.035 1.727 5026
2.090 1.945 1.656 1780
2.185 2.033 1.715 6253
2.088 1.943 1.644 1310
2.183 2.031 1.703 5287
2.086 1.941 1.632 1219
2.202 2.049 1.705 4398
2.104 1.958 1.635 1776
2.210 2.057 1.700 3523
2.113 1.966 1.630 2171
2.244 2.089 1.714 5575
2.136 1.988 1.637 2997
2.248 2.092 1.705 6940
2.109 1.962 1.606 3114
2.256 2.100 1.700 6260
2.117 1.970 1.602 3727
2.265 2.107 1.695 5196
2.120 1.973 1.593 3451
2.263 2.106 1.682 4657
2.123 1.976 1.585 2516
2.282 2.123 1.684 5649
2.121 1.974 1.573 1604
2.306 2.146 1.689 6483
2.207 2.054 1.622 1894
2.324 2.163 1.691 6171
2.226 2.071 1.624 2660
2.328 2.166 1.682 6225
2.229 2.074 1.615 2374
2.336 2.174 1.676 5810
2.237 2.082 1.610 1620
2.355 2.192 1.677 6151
2.256 2.100 1.611 1746
2.358 2.195 1.668 5861
2.207 2.054 1.568 2038
2.330 2.169 1.638 5795
2.430 2.261 1.703 2565
2.334 2.172 1.629 5594
2.433 2.264 1.694 2724
2.394 2.228 1.657 4192
2.504 2.331 1.728 2450
2.450 2.280 1.681 7280
2.209 2.055 1.527 2076
2.469 2.298 1.682 9017
2.369 2.205 1.618 1985
2.493 2.320 1.685 10644
2.393 2.227 1.622 1630
2.497 2.323 1.675 8238
2.397 2.230 1.613 1288
2.526 2.351 1.682 5658
2.426 2.258 1.620 1481
2.556 2.379 1.688 7445
2.456 2.285 1.626 1296
2.565 2.387 1.682 10661
2.459 2.288 1.617 1240
2.584 2.405 1.681 11497
2.603 2.422 1.681 13468
2.617 2.435 1.677 10544
2.620 2.438 1.666 5221
2.677 2.491 1.687 4750
2.576 2.397 1.628 2018
2.685 2.499 1.680 6074
2.584 2.405 1.621 2369
2.694 2.507 1.672 7150
2.593 2.413 1.614 1858
2.697 2.510 1.662 7862
2.596 2.416 1.604 1063
2.695 2.508 1.648 7659
2.688 2.501 1.632 7252
2.691 2.504 1.621 5538
2.689 2.502 1.607 3614
2.740 2.550 1.624 3867
2.848 2.650 1.683 1605
2.743 2.553 1.613 3388
2.846 2.648 1.669 3022
2.849 2.651 1.657 4297
2.736 2.546 1.596 2042
2.868 2.669 1.655 5550
2.733 2.544 1.582 1067
2.877 2.677 1.646 7803
2.774 2.582 1.592 1088
2.885 2.685 1.638 8351
2.988 2.781 1.692 1483
2.894 2.693 1.629 6493
2.997 2.789 1.683 1607
2.919 2.716 1.629 5792
2.816 2.621 1.576 2309
2.928 2.724 1.621 6430
3.031 2.820 1.673 1472
2.936 2.732 1.612 5507
3.066 2.854 1.678 1858
2.939 2.735 1.600 4165
3.070 2.857 1.666 3125
2.980 2.774 1.608 3960
3.084 2.870 1.659 2626
2.994 2.787 1.601 4018
3.169 2.949 1.688 2799
3.107 2.891 1.643 3155
3.003 2.795 1.592 2402
3.093 2.879 1.623 3698
3.197 2.975 1.673 2824
3.184 2.963 1.653 4337
3.080 2.867 1.603 2783
3.187 2.966 1.640 3625
3.083 2.869 1.591 2149
3.234 3.010 1.648 3330
3.119 2.903 1.594 2274
3.287 3.059 1.659 3389
3.183 2.962 1.610 2053
3.301 3.072 1.651 3485
3.197 2.975 1.603 2141
3.255 3.029 1.615 4170
3.359 3.126 1.663 3994
3.362 3.129 1.650 4212
3.258 3.032 1.602 3084
3.421 3.183 1.661 2679
3.294 3.066 1.604 1966
3.330 3.099 1.606 2512
3.435 3.197 1.653 1973
3.339 3.107 1.595 3047
3.444 3.205 1.642 1786
3.452 3.213 1.631 3739
3.348 3.115 1.585 1951
3.434 3.195 1.607 4350
3.538 3.293 1.653 2143
3.431 3.193 1.591 3678
3.536 3.291 1.636 2437
3.467 3.227 1.592 2991
3.573 3.325 1.637 1477
3.554 3.307 1.613 3003
3.448 3.209 1.569 2669
3.557 3.310 1.599 3774
3.451 3.212 1.555 2579
3.565 3.318 1.587 4378
3.460 3.220 1.544 1793
3.574 3.326 1.576 3474
3.680 3.424 1.619 1737
3.660 3.407 1.595 2669
3.555 3.308 1.553 1342
3.652 3.399 1.576 2884
3.758 3.497 1.618 1067
3.661 3.407 1.564 3581
3.767 3.506 1.606 1451
3.675 3.420 1.554 3080
3.781 3.519 1.595 1652
3.678 3.423 1.539 2056
3.784 3.522 1.580 1497
3.966 3.691 1.633 1848
3.676 3.421 1.523 1586
3.969 3.694 1.618 2939
3.746 3.486 1.533 1655
3.978 3.702 1.604 2558
3.827 3.561 1.548 2324
4.026 3.746 1.605 2327
3.835 3.569 1.535 2058
4.029 3.749 1.589 3020
4.197 3.906 1.650 2930
4.189 3.898 1.629 4536
4.026 3.747 1.571 2767
4.186 3.896 1.611 5690
4.080 3.797 1.573 1804
4.268 3.972 1.622 4066
4.161 3.873 1.584 2257
4.271 3.975 1.605 5661
4.378 4.074 1.642 1767
4.269 3.973 1.586 4888
4.376 4.072 1.623 2212
4.390 4.085 1.609 4190
4.204 3.913 1.546 3196
4.399 4.094 1.594 4754
4.224 3.931 1.535 1620
4.413 4.107 1.580 4731
4.520 4.207 1.615 1824
4.416 4.110 1.563 5159
4.523 4.209 1.597 2304
4.583 4.265 1.598 3693
4.419 4.113 1.545 3358
4.603 4.284 1.585 4344
4.496 4.184 1.551 3036
4.612 4.292 1.569 7040
4.504 4.192 1.535 3070
4.620 4.300 1.552 8126
4.513 4.200 1.519 2449
4.623 4.302 1.534 5456
4.516 4.202 1.501 1800
4.621 4.300 1.514 6967
4.513 4.200 1.481 2115
4.623 4.303 1.495 7766
5.009 4.661 1.609 1789
4.621 4.300 1.476 3940
5.017 4.669 1.591 1819
4.635 4.313 1.461 2491
5.140 4.783 1.606 1707
4.655 4.332 1.447 2811
5.126 4.770 1.581 1732
4.657 4.334 1.429 1860
5.157 4.799 1.568 1682
5.177 4.818 1.552 2968
5.035 4.686 1.513 1889
5.197 4.837 1.537 3562
5.322 4.953 1.570 1898
5.200 4.839 1.516 3074
5.450 5.072 1.583 2113
5.203 4.842 1.495 2138
5.436 5.059 1.557 1791
5.548 5.163 1.563 2132
5.417 5.041 1.529 1926
5.545 5.160 1.540 2672
5.431 5.054 1.511 2088
5.480 5.099 1.501 1963
5.633 5.243 1.539 1566
5.813 5.410 1.560 1522
5.488 5.107 1.480 1495
5.674 5.280 1.503 1721
6.062 5.641 1.597 1405
6.070 5.649 1.574 2354
5.688 5.293 1.483 1347
6.056 5.636 1.546 2924
5.834 5.429 1.494 1396
6.059 5.639 1.522 4467
6.448 6.001 1.611 2095
6.074 5.652 1.501 6030
6.457 6.009 1.587 3107
6.077 5.655 1.477 5114
6.460 6.012 1.562 4442
6.469 6.020 1.537 5398
6.079 5.658 1.452 3458
6.472 6.023 1.511 6370
6.094 5.671 1.431 3322
6.474 6.025 1.486 6089
6.096 5.673 1.407 2606
6.472 6.023 1.459 4920
6.907 6.428 1.548 1798
6.480 6.031 1.434 4250
6.904 6.425 1.520 1892
6.483 6.033 1.409 3557
6.919 6.439 1.495 1993
6.486 6.036 1.383 2286
6.927 6.447 1.468 1644
6.488 6.038 1.357 1369
6.919 6.439 1.439 1299
6.916 6.436 1.410 1483
6.913 6.433 1.382 1203
1.650 1.521 1.708 3660
1.739 1.604 1.796 1432
1.653 1.524 1.702 7321
1.743 1.607 1.789 2916
1.656 1.527 1.695 7321
1.747 1.610 1.782 2968
1.655 1.526 1.684 5797
1.745 1.609 1.771 4401
1.739 1.603 1.755 5885
1.649 1.520 1.669 4226
1.657 1.527 1.667 5650
1.748 1.611 1.753 5538
1.660 1.530 1.660 6870
1.784 1.645 1.778 5770
1.663 1.533 1.654 7001
1.788 1.648 1.771 5770
1.667 1.536 1.648 6753
1.801 1.660 1.773 5887
1.809 1.668 1.770 6717
1.665 1.535 1.637 6402
1.818 1.676 1.767 6182
1.673 1.542 1.635 5031
1.821 1.679 1.760 5667
1.676 1.545 1.628 3689
1.820 1.678 1.749 7383
1.675 1.544 1.617 2602
1.823 1.681 1.742 9215
1.678 1.547 1.611 1559
1.827 1.684 1.735 10373
1.681 1.550 1.604 1035
1.825 1.683 1.723 11026
1.918 1.768 1.806 1396
1.824 1.681 1.712 10703
1.917 1.767 1.794 1880
1.827 1.685 1.705 10447
1.920 1.770 1.786 1455
1.835 1.692 1.702 10406
1.888 1.740 1.737 9434
1.795 1.654 1.657 2497
1.891 1.744 1.730 12491
1.798 1.657 1.650 1962
1.895 1.747 1.723 13124
1.757 1.620 1.605 1702
1.903 1.754 1.719 13892
1.760 1.622 1.598 2068
1.906 1.758 1.712 11614
1.763 1.625 1.591 1756
1.915 1.765 1.709 9533
2.009 1.852 1.788 1534
1.923 1.773 1.706 8648
2.017 1.860 1.784 2212
1.941 1.790 1.710 8754
2.036 1.877 1.789 1911
1.945 1.793 1.703 8295
2.039 1.880 1.781 2743
1.943 1.791 1.691 7844
2.038 1.879 1.769 3812
1.946 1.794 1.684 6176
2.041 1.882 1.761 3468
1.950 1.797 1.676 4509
2.045 1.885 1.753 3125
2.048 1.888 1.745 4899
1.953 1.801 1.668 3179
2.052 1.892 1.737 6672
1.780 1.641 1.521 1939
2.055 1.895 1.729 8005
1.773 1.635 1.506 1715
2.059 1.898 1.721 9337
1.781 1.642 1.503 1432
2.062 1.901 1.713 8284
1.814 1.673 1.520 1291
2.081 1.918 1.716 6825
1.817 1.676 1.513 1085
2.084 1.921 1.708 6232
1.988 1.832 1.634 1216
2.092 1.929 1.704 5049
1.996 1.840 1.630 1092
2.111 1.946 1.707 4524
2.014 1.857 1.634 1037
2.109 1.945 1.695 4166
2.206 2.034 1.768 1166
2.113 1.948 1.687 3894
2.209 2.037 1.760 1703
2.187 2.017 1.732 4244
2.090 1.927 1.660 1438
2.196 2.024 1.727 6205
2.199 2.028 1.719 6799
2.208 2.035 1.714 5857
2.110 1.946 1.643 1069
2.216 2.043 1.709 5015
2.119 1.953 1.638 1494
2.194 2.023 1.682 4957
2.292 2.113 1.752 1368
2.192 2.021 1.670 5777
2.290 2.111 1.739 2511
2.257 2.081 1.705 6370
2.159 1.991 1.636 3278
2.261 2.084 1.696 5842
2.162 1.994 1.627 3731
2.269 2.092 1.691 5104
2.171 2.001 1.622 3806
2.278 2.100 1.686 5045
2.174 2.004 1.614 3360
2.291 2.113 1.684 6132
2.182 2.012 1.609 2557
2.310 2.130 1.686 6702
2.212 2.039 1.618 2645
2.335 2.152 1.691 5880
2.230 2.056 1.620 3100
2.333 2.150 1.678 5669
2.233 2.059 1.611 2468
2.341 2.158 1.672 4696
2.116 1.951 1.523 2170
2.376 2.190 1.684 5393
2.125 1.959 1.518 1888
2.395 2.208 1.685 6154
2.295 2.116 1.620 1884
2.398 2.211 1.676 6309
2.214 2.042 1.556 2299
2.401 2.214 1.666 5301
2.218 2.044 1.547 2511
2.405 2.217 1.657 4580
2.221 2.047 1.539 2604
2.450 2.259 1.674 7131
2.224 2.050 1.530 2585
2.464 2.272 1.672 8084
2.226 2.053 1.521 2256
2.504 2.309 1.685 9478
2.229 2.055 1.513 1539
2.508 2.312 1.675 7562
2.608 2.404 1.738 1392
2.537 2.339 1.682 6170
2.437 2.246 1.620 1441
2.567 2.367 1.688 8425
2.466 2.274 1.626 1732
2.576 2.375 1.682 11927
2.475 2.282 1.620 1489
2.595 2.392 1.681 12853
2.483 2.289 1.614 1096
2.614 2.410 1.681 15550
2.628 2.423 1.677 12546
2.632 2.426 1.666 6703
2.672 2.464 1.678 4117
2.571 2.370 1.619 1407
2.702 2.491 1.683 5562
2.601 2.398 1.624 3477
2.706 2.494 1.672 7689
2.604 2.401 1.614 2481
2.704 2.492 1.659 8530
2.707 2.495 1.648 7930
2.715 2.503 1.641 8389
2.729 2.516 1.636 6876
2.743 2.529 1.631 4732
2.846 2.624 1.688 1087
2.757 2.542 1.626 4221
2.903 2.677 1.706 1670
2.761 2.545 1.616 2755
2.901 2.675 1.692 2601
2.861 2.638 1.657 3428
2.753 2.538 1.599 1530
2.881 2.656 1.655 5619
2.889 2.664 1.646 8327
2.786 2.569 1.592 1170
2.898 2.672 1.638 8715
3.001 2.767 1.692 1507
2.907 2.680 1.629 6530
3.010 2.775 1.683 1791
2.932 2.703 1.629 5501
2.828 2.607 1.576 2105
2.940 2.711 1.621 5940
3.044 2.806 1.673 1875
2.949 2.719 1.612 4700
3.080 2.839 1.678 2095
2.957 2.727 1.603 3721
3.083 2.842 1.666 3560
3.075 2.835 1.648 3727
2.972 2.739 1.597 3079
3.024 2.788 1.609 3884
3.183 2.934 1.688 2919
3.076 2.836 1.622 3652
3.191 2.942 1.678 2231
3.090 2.849 1.615 3755
3.200 2.950 1.668 2749
3.203 2.953 1.655 3898
3.099 2.857 1.605 2926
3.207 2.956 1.643 3142
3.102 2.860 1.593 1799
3.259 3.005 1.654 3525
3.155 2.909 1.604 2376
3.274 3.018 1.646 3117
3.169 2.922 1.597 1786
3.282 3.026 1.636 3219
3.387 3.123 1.684 1506
3.269 3.014 1.615 3522
3.374 3.110 1.663 3003
3.372 3.108 1.647 3257
3.267 3.012 1.600 2755
3.430 3.162 1.659 2903
3.292 3.035 1.597 2303
3.433 3.165 1.645 2687
3.306 3.048 1.589 2066
3.376 3.112 1.605 2150
3.481 3.209 1.651 1412
3.473 3.202 1.633 3979
3.368 3.105 1.587 1633
3.493 3.220 1.627 5202
3.387 3.123 1.581 1702
3.435 3.167 1.587 4915
3.563 3.284 1.641 2105
3.444 3.175 1.576 3336
3.571 3.293 1.630 2293
3.575 3.295 1.616 3871
3.469 3.198 1.571 2776
3.578 3.298 1.602 4615
3.472 3.201 1.558 2920
3.581 3.301 1.587 4346
3.475 3.204 1.544 2108
3.584 3.304 1.573 3543
3.690 3.402 1.616 2460
3.688 3.400 1.600 3356
3.581 3.302 1.557 1814
3.702 3.413 1.590 2968
3.677 3.390 1.564 3039
3.783 3.488 1.606 1313
3.691 3.403 1.554 2387
3.798 3.501 1.595 1601
3.784 3.488 1.574 1510
3.677 3.390 1.533 1196
3.983 3.672 1.633 2091
3.854 3.553 1.584 1560
3.992 3.680 1.620 3194
3.846 3.546 1.565 1542
3.990 3.678 1.602 2732
3.844 3.543 1.548 2394
4.043 3.728 1.605 2457
3.852 3.551 1.535 1917
4.041 3.725 1.587 3412
4.215 3.886 1.650 2659
4.201 3.873 1.627 4457
4.010 3.697 1.559 3912
4.199 3.871 1.609 5768
4.019 3.705 1.545 2629
4.202 3.874 1.592 4252
4.309 3.973 1.630 2177
4.296 3.960 1.607 3996
4.188 3.861 1.570 2888
4.214 3.885 1.561 4881
4.372 4.031 1.615 2534
4.415 4.070 1.611 4973
4.228 3.898 1.548 3322
4.424 4.078 1.596 6075
4.243 3.911 1.535 1862
4.427 4.081 1.578 4931
4.534 4.180 1.613 2084
4.435 4.089 1.563 5057
4.543 4.188 1.597 2222
4.438 4.092 1.545 4136
4.614 4.254 1.601 3475
4.623 4.262 1.585 4171
4.515 4.163 1.551 2808
4.632 4.270 1.569 6932
4.524 4.171 1.535 2832
4.640 4.278 1.552 7820
4.532 4.179 1.519 1897
4.643 4.281 1.534 5180
4.535 4.181 1.501 1327
4.641 4.278 1.514 7022
4.533 4.179 1.481 1690
4.638 4.276 1.494 7557
5.030 4.638 1.609 2049
4.641 4.278 1.476 3621
5.039 4.646 1.591 2301
4.666 4.302 1.464 3081
5.168 4.764 1.607 1904
4.675 4.310 1.447 3786
5.165 4.762 1.585 1832
4.683 4.318 1.430 2948
5.185 4.780 1.570 2376
5.205 4.799 1.554 3401
4.692 4.326 1.413 1856
5.220 4.812 1.537 3705
5.340 4.923 1.569 1554
5.223 4.815 1.516 2866
5.468 5.041 1.581 2015
5.226 4.818 1.495 2328
5.466 5.039 1.558 1627
5.572 5.137 1.563 2480
5.240 4.831 1.478 2066
5.569 5.134 1.540 3058
5.460 5.034 1.512 2031
5.509 5.079 1.502 2351
5.658 5.216 1.539 1479
5.690 5.245 1.524 1598
5.518 5.087 1.482 1451
5.698 5.253 1.503 1866
6.088 5.613 1.597 1322
6.091 5.615 1.573 2240
5.776 5.325 1.498 1458
6.088 5.613 1.547 2385
6.479 5.973 1.638 1644
6.086 5.610 1.522 2959
6.476 5.970 1.611 2383
6.112 5.634 1.503 4019
6.485 5.979 1.587 3507
6.488 5.981 1.562 4912
6.109 5.632 1.478 4013
6.497 5.989 1.537 6022
6.094 5.618 1.450 3097
6.500 5.992 1.511 7244
6.109 5.632 1.428 2721
6.503 5.995 1.486 6836
6.117 5.639 1.405 2553
6.500 5.992 1.459 5405
6.937 6.395 1.548 2054
6.508 6.000 1.434 4493
6.934 6.393 1.520 2024
6.511 6.003 1.409 3715
6.949 6.406 1.495 1833
6.514 6.005 1.383 2376
6.958 6.414 1.468 1438
6.511 6.002 1.356 1349
6.949 6.406 1.439 1254
6.940 6.398 1.409 1618
6.937 6.395 1.381 1336
1.654 1.516 1.708 4053
1.744 1.598 1.796 1483
1.658 1.519 1.702 8106
1.748 1.602 1.789 3000
1.661 1.522 1.695 8106
1.751 1.605 1.782 3034
1.660 1.521 1.684 6230
1.750 1.604 1.771 4032
1.744 1.598 1.755 5099
1.653 1.515 1.669 4469
1.661 1.522 1.667 5959
1.752 1.606 1.753 4832
1.669 1.530 1.665 7279
1.761 1.613 1.751 4591
1.668 1.528 1.654 7384
1.759 1.612 1.739 4680
1.671 1.531 1.648 6936
1.806 1.655 1.773 4392
1.670 1.530 1.637 6468
1.819 1.667 1.774 5521
1.823 1.670 1.767 5287
1.673 1.533 1.630 5095
1.841 1.687 1.774 5262
1.681 1.540 1.628 3762
1.830 1.677 1.753 7226
1.679 1.539 1.617 2669
1.828 1.675 1.742 9436
1.682 1.542 1.611 1615
1.832 1.679 1.735 10489
1.739 1.594 1.652 1134
1.830 1.677 1.723 10988
1.923 1.762 1.806 1387
1.829 1.676 1.712 10634
1.922 1.761 1.794 1889
1.832 1.679 1.705 10240
1.925 1.764 1.786 1444
1.841 1.687 1.702 9878
1.893 1.735 1.737 9173
1.800 1.649 1.657 2513
1.897 1.738 1.730 12076
1.803 1.652 1.650 1945
1.905 1.746 1.727 13182
1.811 1.660 1.647 1583
1.908 1.749 1.719 14511
1.760 1.613 1.594 1232
1.912 1.752 1.712 12330
2.006 1.838 1.791 1543
1.920 1.759 1.709 10520
2.015 1.846 1.788 1776
1.928 1.767 1.706 9197
2.023 1.854 1.784 2476
1.947 1.784 1.710 8633
2.042 1.871 1.789 1994
1.950 1.787 1.703 8642
2.045 1.874 1.781 2867
1.954 1.790 1.695 8651
2.049 1.877 1.773 3741
1.952 1.789 1.684 6759
2.047 1.876 1.761 3820
1.955 1.792 1.676 4924
2.051 1.879 1.753 3478
2.054 1.882 1.745 5006
1.958 1.795 1.668 3412
2.057 1.885 1.737 6533
1.780 1.631 1.517 1968
2.061 1.888 1.729 7736
1.778 1.629 1.506 1819
2.064 1.892 1.721 8940
1.827 1.674 1.535 1598
2.068 1.895 1.713 7980
1.820 1.667 1.520 1598
2.081 1.907 1.713 6561
1.823 1.670 1.513 1243
2.085 1.910 1.704 5955
2.093 1.918 1.700 4870
2.190 2.007 1.774 1103
2.122 1.944 1.711 4893
2.025 1.856 1.638 1413
2.130 1.952 1.707 3703
2.033 1.863 1.634 1132
2.180 1.997 1.733 3467
2.199 2.015 1.736 4744
2.101 1.925 1.664 1508
2.202 2.018 1.727 7153
2.105 1.928 1.656 1749
2.205 2.021 1.719 7972
2.108 1.931 1.647 1777
2.214 2.029 1.714 6382
2.116 1.939 1.643 2097
2.223 2.037 1.709 5049
2.125 1.947 1.638 2205
2.195 2.011 1.678 5907
2.293 2.101 1.748 1828
2.198 2.014 1.670 6590
2.296 2.104 1.739 2456
2.207 2.022 1.665 6067
2.108 1.932 1.595 2324
2.262 2.073 1.692 4679
2.163 1.982 1.624 2815
2.276 2.085 1.691 4792
2.177 1.995 1.622 3008
2.284 2.093 1.686 5457
2.185 2.002 1.617 3695
2.298 2.106 1.684 6133
2.199 2.015 1.616 3848
2.317 2.123 1.686 6523
2.218 2.032 1.618 4016
2.341 2.145 1.691 5770
2.237 2.049 1.620 4125
2.334 2.139 1.675 5639
2.234 2.048 1.608 2827
2.337 2.142 1.665 4427
2.437 2.233 1.732 1881
2.393 2.193 1.691 5196
2.293 2.101 1.625 1648
2.402 2.201 1.685 6638
2.302 2.109 1.620 1923
2.405 2.204 1.676 7184
2.221 2.035 1.556 2838
2.403 2.202 1.663 6244
2.224 2.038 1.547 3173
2.411 2.210 1.657 4794
2.227 2.040 1.539 2963
2.452 2.247 1.671 6985
2.230 2.043 1.530 2948
2.460 2.254 1.665 7614
2.233 2.046 1.521 2608
2.517 2.306 1.689 8122
2.236 2.049 1.513 1785
2.520 2.309 1.679 6575
2.621 2.401 1.741 1705
2.544 2.332 1.682 6647
2.443 2.239 1.620 1556
2.574 2.359 1.688 9000
2.473 2.266 1.626 2669
2.588 2.372 1.685 12762
2.487 2.279 1.623 2232
2.602 2.385 1.681 13982
2.496 2.287 1.617 1593
2.622 2.402 1.681 17000
2.520 2.309 1.620 1272
2.630 2.410 1.673 13875
2.639 2.418 1.666 7584
2.642 2.421 1.656 4864
2.640 2.419 1.643 5116
2.742 2.513 1.702 2181
2.713 2.486 1.672 7735
2.611 2.393 1.614 3314
2.711 2.484 1.659 8916
2.609 2.391 1.601 1299
2.714 2.487 1.648 8312
2.833 2.596 1.715 1005
2.723 2.495 1.641 9704
2.842 2.604 1.707 1224
2.737 2.508 1.636 8295
2.850 2.612 1.699 1413
2.756 2.526 1.634 5901
2.859 2.620 1.691 1596
2.765 2.534 1.626 4849
2.868 2.628 1.683 1749
2.768 2.537 1.616 2691
2.915 2.671 1.695 2283
2.853 2.614 1.649 2445
2.956 2.709 1.704 1464
2.889 2.647 1.655 5049
2.785 2.552 1.600 1301
2.897 2.655 1.646 7869
2.794 2.560 1.592 1525
2.906 2.663 1.638 8204
3.010 2.758 1.692 1564
2.915 2.671 1.629 6226
3.018 2.766 1.683 1880
2.945 2.699 1.632 4852
2.842 2.604 1.579 2029
2.948 2.702 1.621 5044
3.052 2.797 1.673 2077
2.957 2.710 1.612 3826
3.094 2.835 1.681 2249
3.086 2.828 1.663 3776
2.971 2.723 1.606 3602
3.084 2.826 1.648 4334
2.980 2.730 1.597 2987
3.032 2.779 1.609 4318
3.191 2.924 1.688 2623
3.090 2.832 1.624 3991
3.206 2.938 1.681 1795
3.094 2.835 1.612 3867
3.209 2.941 1.668 2059
3.207 2.939 1.653 3242
3.102 2.843 1.603 2523
3.271 2.997 1.669 2860
3.160 2.896 1.617 2787
3.274 3.000 1.656 3523
3.169 2.904 1.607 3339
3.277 3.003 1.643 2768
3.172 2.907 1.595 2237
3.292 3.016 1.636 3213
3.408 3.122 1.689 1338
3.295 3.019 1.623 3246
3.400 3.115 1.671 2065
3.375 3.093 1.645 2986
3.270 2.997 1.597 1922
3.440 3.152 1.659 3098
3.318 3.040 1.604 3072
3.432 3.145 1.641 3229
3.315 3.038 1.589 2850
3.402 3.117 1.613 2431
3.507 3.214 1.659 1314
3.494 3.201 1.638 4480
3.388 3.105 1.592 1903
3.503 3.210 1.627 6902
3.397 3.113 1.581 1941
3.444 3.156 1.587 6344
3.589 3.289 1.648 2110
3.453 3.164 1.576 4166
3.593 3.292 1.634 2589
3.590 3.290 1.618 4639
3.484 3.193 1.574 2285
3.588 3.288 1.602 5354
3.482 3.190 1.558 2380
3.591 3.290 1.587 3934
3.697 3.388 1.631 1939
3.689 3.380 1.612 3481
3.583 3.283 1.569 2870
3.698 3.388 1.600 4280
3.586 3.286 1.555 1928
3.718 3.407 1.592 3625
3.600 3.299 1.545 1183
3.687 3.379 1.564 2465
3.769 3.454 1.580 2315
3.881 3.556 1.623 1197
3.873 3.549 1.604 2311
3.761 3.446 1.561 1638
3.871 3.547 1.587 2695
3.994 3.660 1.633 2162
4.009 3.673 1.622 3050
3.862 3.539 1.567 2155
4.012 3.676 1.606 2786
3.854 3.532 1.548 2386
4.049 3.710 1.603 2826
3.863 3.540 1.535 1885
4.029 3.692 1.579 4100
4.204 3.853 1.642 2261
4.016 3.680 1.557 5114
4.213 3.861 1.627 4249
4.211 3.858 1.609 5690
4.030 3.693 1.545 3338
4.214 3.861 1.592 5090
4.061 3.721 1.539 1756
4.223 3.869 1.578 5050
4.330 3.968 1.615 1958
4.226 3.872 1.561 5191
4.384 4.017 1.615 2784
4.433 4.062 1.613 5695
4.229 3.875 1.545 3293
4.436 4.065 1.596 7057
4.328 3.966 1.560 1778
4.439 4.068 1.578 5148
4.547 4.166 1.613 1516
4.448 4.076 1.563 4891
4.556 4.174 1.597 1675
4.451 4.078 1.545 4556
4.633 4.245 1.603 2587
4.562 4.180 1.562 3429
4.454 4.081 1.528 3091
4.645 4.256 1.569 5354
4.536 4.157 1.535 3313
4.653 4.264 1.552 6016
4.545 4.165 1.519 2122
4.656 4.267 1.534 3914
4.548 4.168 1.501 1293
4.659 4.269 1.515 5995
4.551 4.170 1.483 1666
4.657 4.267 1.495 6521
5.050 4.628 1.611 1936
4.665 4.275 1.479 3573
5.053 4.630 1.591 2374
4.685 4.293 1.465 4113
5.188 4.754 1.609 1831
4.694 4.301 1.449 4840
5.185 4.751 1.587 1873
4.702 4.309 1.432 4296
5.200 4.765 1.570 2605
4.705 4.311 1.413 3388
5.220 4.783 1.554 3195
5.234 4.796 1.537 3339
4.713 4.319 1.396 2895
4.716 4.322 1.378 2961
5.237 4.799 1.516 2463
5.240 4.802 1.495 2448
4.713 4.319 1.358 1960
5.587 5.120 1.563 2635
5.255 4.815 1.478 2560
5.590 5.123 1.541 3174
5.481 5.023 1.514 2068
5.530 5.068 1.504 2605
5.668 5.194 1.538 1385
5.573 5.107 1.492 1455
5.705 5.228 1.524 1452
5.714 5.236 1.503 1807
6.088 5.578 1.593 1454
6.102 5.592 1.571 2029
5.792 5.307 1.498 1793
6.077 5.568 1.541 2252
6.497 5.953 1.638 1636
6.085 5.576 1.518 2803
6.500 5.956 1.613 2186
6.509 5.964 1.588 3401
6.094 5.584 1.495 2889
6.506 5.962 1.562 4761
6.097 5.587 1.472 3596
6.509 5.964 1.536 5800
6.094 5.584 1.446 3591
6.518 5.972 1.511 7082
6.103 5.592 1.424 3170
6.521 5.975 1.486 6610
6.111 5.600 1.401 2572
6.518 5.973 1.459 5150
6.957 6.374 1.548 2016
6.526 5.980 1.434 4191
6.954 6.372 1.520 1868
6.529 5.983 1.409 3375
6.639 6.083 1.430 1561
6.532 5.985 1.383 2075
6.988 6.404 1.471 1262
6.529 5.983 1.356 1180
6.945 6.364 1.434 1099
6.954 6.372 1.408 1529
6.950 6.369 1.380 1275
1.664 1.515 1.713 4463
1.754 1.597 1.800 1081
1.667 1.518 1.706 8927
1.758 1.601 1.794 2221
1.670 1.521 1.700 8927
1.761 1.604 1.787 2280
1.674 1.524 1.693 6743
1.765 1.607 1.780 2684
1.682 1.532 1.691 4740
1.773 1.615 1.778 2568
1.666 1.517 1.667 5936
1.757 1.600 1.753 4223
1.674 1.525 1.665 7402
1.766 1.608 1.751 3854
1.677 1.528 1.659 7450
1.769 1.611 1.744 3854
1.676 1.526 1.648 6728
1.768 1.610 1.732 3573
1.674 1.525 1.637 6153
1.829 1.666 1.779 4708
1.838 1.673 1.776 4906
1.678 1.528 1.630 4790
1.846 1.681 1.774 5161
1.686 1.535 1.628 3496
1.840 1.675 1.758 7099
1.684 1.533 1.617 2431
1.839 1.674 1.746 9219
1.741 1.585 1.659 1771
1.842 1.677 1.739 10065
1.744 1.588 1.652 1443
1.841 1.676 1.728 10429
1.738 1.582 1.637 1122
1.839 1.675 1.716 10043
1.932 1.760 1.798 1278
1.838 1.673 1.705 9616
1.931 1.758 1.786 1379
1.846 1.681 1.702 9204
1.899 1.729 1.737 8980
1.805 1.643 1.657 2424
1.902 1.732 1.730 11342
1.808 1.646 1.650 1751
1.910 1.740 1.727 12869
1.816 1.654 1.647 1464
1.914 1.743 1.719 14439
1.922 1.750 1.716 12447
2.017 1.836 1.796 1466
1.931 1.758 1.713 10798
2.025 1.844 1.792 1593
1.934 1.761 1.706 9121
2.029 1.847 1.784 2803
1.992 1.814 1.743 8294
1.897 1.728 1.665 1665
1.956 1.781 1.703 8564
2.051 1.868 1.781 3097
1.959 1.784 1.695 8970
2.054 1.871 1.773 4072
1.957 1.782 1.684 6918
2.053 1.869 1.761 4272
1.961 1.785 1.676 5017
2.056 1.873 1.753 3880
2.060 1.876 1.745 4970
1.964 1.788 1.668 3503
2.068 1.884 1.741 6082
1.972 1.796 1.665 2012
2.067 1.882 1.729 6971
1.788 1.628 1.510 1770
2.070 1.885 1.721 7883
1.832 1.668 1.535 1662
2.074 1.888 1.713 6838
1.825 1.662 1.520 1684
2.082 1.896 1.709 5384
1.828 1.664 1.513 1263
2.091 1.904 1.704 4998
1.994 1.816 1.630 1115
2.119 1.930 1.716 4772
2.022 1.842 1.642 1952
2.138 1.947 1.719 5546
2.041 1.859 1.646 1070
2.147 1.955 1.715 4353
2.160 1.967 1.714 3383
2.200 2.003 1.732 4655
2.102 1.914 1.660 1876
2.208 2.011 1.727 7166
2.111 1.922 1.656 2248
2.212 2.014 1.719 7822
2.114 1.925 1.647 1778
2.220 2.022 1.714 5827
2.122 1.933 1.643 1539
2.255 2.053 1.728 4807
2.156 1.964 1.657 1573
2.258 2.056 1.719 4503
2.160 1.967 1.649 1930
2.210 2.012 1.673 5423
2.308 2.102 1.743 2157
2.218 2.020 1.668 5456
2.317 2.110 1.738 1709
2.211 2.013 1.653 4639
2.310 2.103 1.722 1633
2.277 2.073 1.687 4734
2.110 1.921 1.572 1673
2.285 2.081 1.682 5403
2.186 1.991 1.614 2218
2.226 2.027 1.630 5531
2.325 2.117 1.698 4435
2.234 2.035 1.625 5751
2.334 2.125 1.693 5411
2.243 2.042 1.620 5128
2.348 2.138 1.691 5014
2.330 2.122 1.668 5727
2.230 2.031 1.601 3109
2.333 2.125 1.658 5530
2.433 2.216 1.725 2255
2.405 2.190 1.694 4866
2.305 2.099 1.629 2245
2.408 2.193 1.685 6628
2.308 2.102 1.620 2052
2.412 2.196 1.676 7701
2.232 2.033 1.559 2310
2.410 2.194 1.663 7194
2.510 2.286 1.728 3289
2.418 2.202 1.657 5100
2.519 2.294 1.721 3528
2.459 2.239 1.671 6461
2.559 2.331 1.735 3094
2.467 2.247 1.665 7038
2.568 2.339 1.728 2839
2.524 2.298 1.689 6918
2.242 2.042 1.513 1605
2.527 2.301 1.679 5603
2.628 2.393 1.741 2236
2.552 2.324 1.682 6558
2.450 2.231 1.620 1775
2.587 2.356 1.692 8839
2.486 2.263 1.630 3800
2.596 2.364 1.685 12832
2.494 2.271 1.623 2933
2.615 2.381 1.684 14657
2.513 2.289 1.623 2230
2.629 2.394 1.681 17796
2.527 2.301 1.620 1501
2.638 2.402 1.673 14337
2.641 2.405 1.663 7640
2.650 2.413 1.656 4778
2.752 2.506 1.715 1061
2.642 2.406 1.640 5075
2.745 2.499 1.699 2546
2.716 2.473 1.669 7644
2.613 2.380 1.611 3176
2.719 2.476 1.659 8996
2.616 2.382 1.601 1731
2.722 2.479 1.648 8518
2.825 2.572 1.706 1057
2.731 2.487 1.641 10540
2.850 2.595 1.707 1429
2.745 2.499 1.636 9120
2.859 2.603 1.699 1912
2.764 2.517 1.634 6681
2.867 2.611 1.691 2227
2.768 2.520 1.624 5533
2.871 2.614 1.680 2318
2.771 2.523 1.613 3158
2.934 2.672 1.701 1992
2.834 2.580 1.634 2529
2.937 2.675 1.689 1647
2.897 2.638 1.655 4275
2.793 2.544 1.600 1657
2.911 2.651 1.649 6846
2.807 2.557 1.595 1899
2.914 2.654 1.638 6994
3.018 2.748 1.692 1794
2.918 2.657 1.627 5638
3.021 2.751 1.680 2369
2.954 2.690 1.632 3891
3.058 2.784 1.685 1500
2.957 2.693 1.621 3971
3.061 2.787 1.673 2211
2.955 2.690 1.606 3153
3.059 2.785 1.659 2438
3.089 2.813 1.661 3823
2.985 2.718 1.608 3529
3.027 2.756 1.616 4671
3.131 2.851 1.667 2049
3.035 2.764 1.607 4699
3.140 2.859 1.658 2666
3.110 2.832 1.630 3884
3.006 2.737 1.579 1865
3.102 2.825 1.612 3463
3.207 2.920 1.663 1655
3.205 2.918 1.648 2860
3.100 2.823 1.598 2571
3.175 2.891 1.619 3275
3.286 2.992 1.672 2970
3.178 2.894 1.607 4101
3.283 2.990 1.656 3410
3.187 2.902 1.597 2841
3.292 2.998 1.646 2287
3.306 3.011 1.638 3367
3.417 3.112 1.689 1369
3.310 3.014 1.625 3926
3.415 3.110 1.673 2402
3.385 3.082 1.645 3392
3.280 2.986 1.597 1680
3.427 3.121 1.649 3606
3.277 2.984 1.582 2125
3.408 3.104 1.626 3475
3.302 3.007 1.579 1983
3.489 3.177 1.647 2924
3.384 3.081 1.600 2158
3.504 3.191 1.638 5442
3.398 3.094 1.592 1860
3.507 3.193 1.624 8636
3.613 3.290 1.670 1876
3.499 3.186 1.606 8305
3.605 3.283 1.651 2848
3.480 3.169 1.583 4679
3.608 3.286 1.637 3049
3.600 3.279 1.618 4958
3.494 3.182 1.574 1435
3.604 3.281 1.604 5487
3.710 3.378 1.648 1502
3.607 3.284 1.590 3079
3.713 3.381 1.633 2093
3.705 3.374 1.614 3957
3.599 3.277 1.571 1985
3.708 3.377 1.600 5034
3.596 3.275 1.555 1720
3.734 3.400 1.594 4228
3.610 3.288 1.545 1433
3.748 3.413 1.584 3109
3.855 3.511 1.625 1125
3.768 3.431 1.576 3236
3.881 3.534 1.619 1511
3.884 3.537 1.604 2995
3.766 3.429 1.559 2716
3.882 3.535 1.587 3665
3.989 3.632 1.627 2212
3.873 3.527 1.567 2935
4.020 3.661 1.622 2641
4.029 3.669 1.608 2724
3.871 3.525 1.550 2556
3.993 3.636 1.578 3075
3.885 3.538 1.539 2107
4.007 3.649 1.566 4343
4.205 3.829 1.638 2308
4.027 3.667 1.557 5353
4.220 3.842 1.625 4111
4.223 3.845 1.609 5121
4.041 3.680 1.545 3537
4.232 3.853 1.594 5077
4.073 3.709 1.539 1987
4.235 3.856 1.578 4996
4.388 3.996 1.630 1730
4.232 3.854 1.559 4345
4.397 4.004 1.615 2629
4.445 4.048 1.613 5836
4.241 3.862 1.545 2735
4.449 4.051 1.596 7012
4.341 3.952 1.560 1664
4.457 4.059 1.580 5167
4.349 3.960 1.545 1397
4.472 4.072 1.566 4875
4.364 3.974 1.531 1286
4.469 4.070 1.547 4356
4.577 4.168 1.581 2074
4.506 4.104 1.540 3646
4.615 4.202 1.574 2277
4.521 4.117 1.526 4696
4.663 4.247 1.570 3527
4.667 4.249 1.552 3699
4.530 4.125 1.510 3000
4.607 4.195 1.515 3061
4.673 4.255 1.515 4156
4.564 4.156 1.483 1706
4.681 4.263 1.499 5500
4.573 4.164 1.467 1613
4.707 4.286 1.487 4539
5.068 4.615 1.591 1970
4.704 4.284 1.467 5048
5.203 4.737 1.609 1646
4.707 4.286 1.449 5415
5.206 4.740 1.589 1710
4.716 4.294 1.432 5250
5.215 4.748 1.570 2170
4.724 4.302 1.415 4790
5.235 4.767 1.554 2283
4.727 4.304 1.396 4338
5.244 4.775 1.535 2461
4.730 4.307 1.378 4430
5.247 4.778 1.515 2083
4.726 4.304 1.358 2884
5.255 4.785 1.495 2404
5.598 5.097 1.562 2537
5.270 4.799 1.478 2512
5.606 5.105 1.541 2957
5.497 5.006 1.514 2121
5.546 5.050 1.504 2504
5.655 5.150 1.531 1437
5.595 5.095 1.493 1511
5.860 5.336 1.558 1327
6.082 5.538 1.587 2308
5.730 5.218 1.503 1587
6.097 5.552 1.566 2761
5.762 5.247 1.487 1915
6.094 5.549 1.541 3279
5.932 5.402 1.503 1912
6.097 5.552 1.517 4323
6.524 5.941 1.614 1831
6.106 5.560 1.494 4667
6.527 5.944 1.588 3034
6.109 5.563 1.470 4816
6.525 5.941 1.562 4177
6.528 5.944 1.536 5035
6.111 5.565 1.446 4699
6.536 5.952 1.511 6333
6.114 5.568 1.422 4199
6.539 5.955 1.486 5899
6.117 5.570 1.398 3276
6.536 5.952 1.459 4463
6.114 5.567 1.373 2039
6.545 5.960 1.434 3574
6.985 6.361 1.522 1620
6.548 5.962 1.409 2766
6.658 6.063 1.430 1512
6.545 5.960 1.382 1559
6.672 6.076 1.406 1136
6.968 6.345 1.407 1283
6.965 6.342 1.379 1092
1.669 1.509 1.713 4712
1.672 1.513 1.706 9425
1.763 1.595 1.794 2006
1.675 1.516 1.700 9425
1.767 1.598 1.787 2105
1.684 1.523 1.698 7171
1.775 1.605 1.785 2234
1.692 1.530 1.696 5125
1.783 1.613 1.782 2171
1.690 1.529 1.685 6016
1.782 1.612 1.771 2271
1.684 1.523 1.669 7290
1.776 1.606 1.755 2888
1.687 1.526 1.663 7242
1.779 1.610 1.748 2888
1.681 1.521 1.648 6186
1.773 1.604 1.732 3486
1.679 1.519 1.637 5496
1.840 1.664 1.783 4339
1.843 1.667 1.776 4726
1.683 1.522 1.630 4257
1.842 1.666 1.765 5133
1.691 1.529 1.628 3084
1.841 1.665 1.753 7028
1.748 1.581 1.670 2303
1.844 1.668 1.746 9010
1.746 1.579 1.659 2121
1.848 1.671 1.739 9635
1.744 1.578 1.648 1662
1.846 1.670 1.728 9820
1.738 1.572 1.632 1306
1.845 1.669 1.716 9486
1.938 1.753 1.798 1185
