0.341 2.537 1.691 12957
0.343 2.548 1.688 13166
0.360 2.675 1.767 1303
0.343 2.552 1.681 10456
0.362 2.693 1.767 1884
0.345 2.563 1.677 7754
0.364 2.704 1.764 2616
0.345 2.568 1.670 5760
0.364 2.709 1.756 2686
0.349 2.599 1.679 4507
0.367 2.727 1.756 2686
0.351 2.610 1.676 4417
0.368 2.738 1.753 2415
0.355 2.642 1.684 5470
0.372 2.770 1.761 1719
0.358 2.660 1.685 5624
0.375 2.788 1.761 1541
0.359 2.671 1.681 6145
0.376 2.800 1.757 1772
0.366 2.723 1.701 5985
0.349 2.594 1.625 2391
0.368 2.734 1.697 7957
0.385 2.863 1.772 1603
0.369 2.745 1.693 7443
0.387 2.875 1.768 1998
0.382 2.839 1.736 6727
0.364 2.709 1.662 2732
0.380 2.830 1.720 8012
0.363 2.700 1.646 1476
0.373 2.773 1.677 6641
0.390 2.903 1.751 3081
0.374 2.784 1.673 7694
0.392 2.914 1.746 3410
0.375 2.788 1.665 6461
0.392 2.919 1.738 4370
0.390 2.903 1.718 6213
0.373 2.772 1.645 4811
0.391 2.907 1.709 5984
0.373 2.776 1.637 4651
0.390 2.898 1.693 6078
0.372 2.767 1.622 2833
0.389 2.896 1.681 6682
0.372 2.764 1.610 1526
0.390 2.900 1.673 6326
0.408 3.032 1.744 1513
0.400 2.974 1.702 8058
0.382 2.842 1.631 3048
0.402 2.992 1.700 8358
0.385 2.860 1.630 3358
0.404 3.004 1.695 7084
0.386 2.872 1.626 2555
0.397 2.952 1.657 6640
0.379 2.820 1.588 1925
0.405 3.013 1.678 6368
0.383 2.845 1.591 2126
0.409 3.045 1.684 8616
0.383 2.849 1.583 1768
0.410 3.049 1.675 9855
0.384 2.854 1.574 1569
0.413 3.068 1.673 7624
0.430 3.201 1.741 1267
0.420 3.121 1.689 8313
0.402 2.988 1.622 1636
0.421 3.133 1.684 10495
0.403 2.999 1.617 1289
0.423 3.144 1.678 12023
0.441 3.278 1.745 1363
0.428 3.184 1.686 13357
0.410 3.050 1.620 2868
0.430 3.196 1.681 14272
0.412 3.062 1.615 3333
0.430 3.200 1.671 12178
0.412 3.066 1.606 2788
0.428 3.183 1.652 8313
0.446 3.318 1.717 1825
0.432 3.216 1.656 6265
0.414 3.081 1.592 2410
0.429 3.192 1.633 6592
0.447 3.327 1.698 2761
0.430 3.196 1.624 6616
0.448 3.331 1.688 4219
0.449 3.343 1.682 5389
0.429 3.193 1.612 4382
0.451 3.354 1.675 5912
0.430 3.198 1.602 2662
0.452 3.359 1.666 6478
0.433 3.223 1.603 2302
0.449 3.342 1.646 5955
0.448 3.332 1.630 5856
0.449 3.336 1.620 6684
0.467 3.472 1.682 1007
0.451 3.355 1.617 6308
0.470 3.498 1.681 1002
0.456 3.388 1.620 6978
0.458 3.406 1.616 5761
0.467 3.475 1.635 6501
0.486 3.612 1.695 1294
0.469 3.487 1.628 7976
0.487 3.624 1.687 1292
0.469 3.491 1.618 8579
0.488 3.628 1.677 1340
0.480 3.568 1.639 10512
0.461 3.430 1.580 2762
0.481 3.579 1.631 10078
0.463 3.442 1.573 3113
0.483 3.591 1.624 6954
0.464 3.453 1.566 3698
0.486 3.617 1.623 6488
0.468 3.479 1.565 3130
0.486 3.614 1.609 4765
0.504 3.752 1.666 2286
0.504 3.749 1.652 3937
0.485 3.604 1.593 3596
0.505 3.753 1.641 5055
0.486 3.615 1.585 3929
0.488 3.627 1.578 4982
0.506 3.765 1.633 3816
0.488 3.631 1.567 4601
0.507 3.769 1.622 3084
0.510 3.795 1.620 4491
0.490 3.642 1.559 2165
0.511 3.800 1.609 5154
0.530 3.939 1.664 1973
0.510 3.797 1.595 3376
0.529 3.936 1.649 2445
0.520 3.867 1.610 2989
0.539 4.006 1.663 1713
0.520 3.864 1.596 3893
0.538 4.003 1.649 2365
0.533 3.963 1.621 4312
0.514 3.824 1.568 1801
0.532 3.953 1.603 5337
0.550 4.093 1.656 2179
0.526 3.913 1.576 4967
0.547 4.068 1.633 2366
0.538 3.998 1.594 3714
0.563 4.190 1.665 3258
0.564 4.194 1.653 4279
0.539 4.010 1.585 3498
0.565 4.199 1.640 4160
0.541 4.021 1.576 3189
0.567 4.218 1.633 3125
0.541 4.025 1.564 2544
0.563 4.185 1.608 4505
0.582 4.326 1.658 2086
0.565 4.204 1.601 7317
0.584 4.345 1.651 2357
0.567 4.216 1.591 6830
0.586 4.357 1.641 3237
0.570 4.242 1.587 4242
0.589 4.383 1.636 2961
0.584 4.343 1.608 5152
0.565 4.202 1.559 1625
0.585 4.347 1.595 6934
0.604 4.488 1.643 1211
0.586 4.359 1.585 7100
0.605 4.500 1.632 1669
0.587 4.363 1.572 6833
0.606 4.504 1.619 1581
0.587 4.367 1.559 6422
0.606 4.509 1.606 1881
0.605 4.498 1.588 3534
0.586 4.356 1.542 3405
0.606 4.510 1.577 5207
0.575 4.278 1.503 4911
0.608 4.521 1.567 4130
0.577 4.289 1.493 3843
0.607 4.518 1.551 2212
0.577 4.293 1.480 2175
0.633 4.709 1.597 2748
0.608 4.522 1.538 1404
0.636 4.729 1.588 2579
0.638 4.748 1.578 2840
0.575 4.275 1.433 1411
0.640 4.759 1.567 4227
0.574 4.271 1.419 2612
0.645 4.794 1.562 6436
0.575 4.275 1.406 3478
0.647 4.813 1.553 7318
0.575 4.278 1.394 3391
0.647 4.809 1.536 4829
0.576 4.282 1.381 2465
0.647 4.813 1.522 3626
0.575 4.278 1.367 1655
0.651 4.840 1.515 3441
0.675 5.021 1.567 2930
0.678 5.040 1.557 3335
0.654 4.867 1.507 2704
0.667 4.961 1.519 2846
0.686 5.105 1.559 1579
0.678 5.041 1.525 2284
0.698 5.192 1.567 2132
0.699 5.196 1.552 3436
0.677 5.037 1.508 2037
0.700 5.208 1.539 4627
0.679 5.049 1.496 1520
0.701 5.212 1.524 4499
0.681 5.068 1.485 2457
0.711 5.284 1.527 5307
0.683 5.079 1.472 1991
0.713 5.303 1.515 3670
0.694 5.159 1.477 1802
0.724 5.383 1.519 3844
0.704 5.239 1.482 1005
0.723 5.380 1.502 4725
0.743 5.524 1.539 1997
0.730 5.429 1.498 5440
0.711 5.285 1.461 2927
0.733 5.448 1.486 4256
0.713 5.304 1.449 3476
0.747 5.559 1.496 2897
0.715 5.315 1.436 1815
0.745 5.540 1.474 2812
0.725 5.395 1.439 1201
0.751 5.582 1.467 2739
0.731 5.437 1.432 1763
0.749 5.571 1.447 4047
0.773 5.746 1.489 2082
0.750 5.574 1.431 6239
0.773 5.750 1.472 3010
0.750 5.578 1.415 3837
0.788 5.861 1.480 3119
0.789 5.865 1.463 4091
0.763 5.673 1.419 1663
0.788 5.861 1.444 4609
0.814 6.052 1.487 1552
0.790 5.872 1.429 5609
0.815 6.064 1.471 3549
0.791 5.884 1.413 5101
0.817 6.075 1.455 3851
0.819 6.095 1.441 2724
0.800 5.949 1.409 2427
0.822 6.114 1.426 2856
0.802 5.968 1.395 2107
0.820 6.102 1.405 1829
0.840 6.248 1.436 1501
0.853 6.344 1.437 2650
0.833 6.198 1.406 2027
0.854 6.348 1.418 2427
0.834 6.202 1.388 2148
0.872 6.482 1.426 2762
0.852 6.336 1.396 1895
0.872 6.486 1.407 2503
0.896 6.663 1.442 2024
0.872 6.482 1.386 2193
0.896 6.667 1.422 2065
0.900 6.694 1.407 1881
0.871 6.478 1.366 1837
0.907 6.743 1.396 2642
0.926 6.890 1.424 1932
0.907 6.747 1.377 3721
0.927 6.894 1.404 2017
0.908 6.751 1.357 3760
0.950 7.067 1.414 1971
0.907 6.746 1.336 2370
0.950 7.063 1.392 2152
1.006 7.484 1.445 2732
0.949 7.059 1.370 2006
1.007 7.488 1.423 3249
0.981 7.295 1.390 2795
0.981 7.298 1.368 3207
1.006 7.484 1.400 2631
0.983 7.309 1.348 2437
1.009 7.503 1.381 2372
1.010 7.514 1.360 2635
1.036 7.708 1.392 2541
1.040 7.735 1.373 2891
1.010 7.510 1.337 1690
1.040 7.738 1.350 2607
1.068 7.940 1.382 1845
1.078 8.021 1.371 1766
1.132 8.416 1.432 1547
1.132 8.420 1.407 1992
1.088 8.094 1.358 1359
1.134 8.432 1.384 2077
1.193 8.874 1.449 1432
1.133 8.427 1.358 2000
1.194 8.878 1.423 1144
1.130 8.408 1.330 1779
1.198 8.913 1.402 1363
1.196 8.893 1.373 2375
1.166 8.675 1.342 1225
1.195 8.889 1.345 3328
1.264 9.402 1.416 1152
1.196 8.892 1.319 2808
1.241 9.227 1.364 1186
1.197 8.903 1.294 1445
1.239 9.214 1.335 1337
1.242 9.233 1.310 1300
1.207 8.977 1.277 1277
0.304 2.217 1.703 2371
0.320 2.338 1.791 1559
0.304 2.221 1.697 4742
0.321 2.342 1.784 3118
0.305 2.226 1.691 4742
0.322 2.347 1.778 3118
0.320 2.333 1.757 4116
0.303 2.211 1.671 2939
0.322 2.350 1.760 4218
0.305 2.228 1.673 2534
0.326 2.381 1.771 4721
0.309 2.258 1.685 2735
0.329 2.398 1.773 6305
0.312 2.276 1.687 2614
0.329 2.403 1.766 6305
0.312 2.280 1.681 2614
0.330 2.408 1.759 6758
0.313 2.285 1.674 3144
0.331 2.412 1.752 7211
0.314 2.289 1.668 3674
0.330 2.410 1.741 7035
0.313 2.287 1.657 2541
0.331 2.415 1.734 6931
0.314 2.291 1.650 1979
0.332 2.420 1.727 6870
0.315 2.296 1.644 1421
0.333 2.431 1.724 6897
0.316 2.307 1.641 1140
0.338 2.468 1.739 5158
0.321 2.344 1.656 2125
0.341 2.486 1.741 5398
0.324 2.361 1.658 1944
0.341 2.491 1.733 5991
0.324 2.366 1.652 1940
0.338 2.469 1.709 7480
0.321 2.344 1.628 1055
0.338 2.467 1.698 9706
0.339 2.471 1.691 10361
0.340 2.482 1.688 11130
0.344 2.513 1.697 11228
0.346 2.524 1.694 13913
0.347 2.536 1.691 13699
0.365 2.662 1.770 1102
0.349 2.547 1.688 14034
0.366 2.674 1.767 1529
0.350 2.551 1.681 11469
0.368 2.685 1.763 1993
0.350 2.556 1.673 8905
0.370 2.703 1.764 2666
0.352 2.567 1.670 6520
0.370 2.701 1.752 2609
0.356 2.598 1.679 5254
0.374 2.726 1.756 2295
0.358 2.616 1.680 5181
0.376 2.744 1.757 2025
0.362 2.641 1.684 6192
0.379 2.769 1.761 1424
0.364 2.659 1.685 6261
0.382 2.787 1.761 1048
0.366 2.670 1.681 6817
0.383 2.799 1.757 1061
0.372 2.715 1.697 6387
0.354 2.586 1.621 2365
0.374 2.726 1.693 8206
0.356 2.597 1.618 1554
0.376 2.745 1.693 7515
0.394 2.874 1.768 1536
0.378 2.756 1.689 6531
0.395 2.885 1.763 1851
0.387 2.822 1.716 8079
0.369 2.692 1.642 1360
0.387 2.826 1.708 6758
0.369 2.696 1.634 1488
0.381 2.783 1.673 7774
0.399 2.913 1.746 3077
0.382 2.787 1.665 6332
0.400 2.918 1.738 3794
0.397 2.895 1.714 5637
0.379 2.764 1.641 4165
0.383 2.796 1.649 5062
0.401 2.927 1.721 4145
0.397 2.897 1.693 5165
0.379 2.766 1.622 3323
0.396 2.888 1.677 6473
0.378 2.756 1.606 1787
0.396 2.892 1.669 5982
0.414 3.024 1.740 1668
0.408 2.980 1.705 6644
0.390 2.848 1.635 3518
0.410 2.991 1.700 7472
0.392 2.859 1.630 3345
0.411 3.003 1.695 7012
0.393 2.871 1.626 2399
0.416 3.035 1.701 5449
0.398 2.903 1.632 3013
0.414 3.019 1.682 7153
0.390 2.844 1.591 2226
0.417 3.044 1.684 9809
0.390 2.848 1.583 1789
0.418 3.048 1.675 11022
0.391 2.853 1.574 1674
0.420 3.067 1.673 8718
0.438 3.200 1.741 1440
0.428 3.120 1.689 8534
0.409 2.987 1.622 2048
0.429 3.132 1.684 10489
0.411 2.998 1.617 1537
0.431 3.143 1.678 11965
0.449 3.277 1.745 1582
0.436 3.183 1.686 12704
0.418 3.049 1.620 2747
0.438 3.194 1.681 13509
0.419 3.060 1.615 3055
0.437 3.192 1.668 11869
0.419 3.058 1.602 1899
0.437 3.189 1.655 9249
0.455 3.324 1.720 1173
0.441 3.222 1.660 8789
0.423 3.087 1.595 2265
0.443 3.233 1.654 7491
0.425 3.099 1.589 1825
0.444 3.238 1.644 6474
0.462 3.373 1.708 2146
0.448 3.271 1.648 6034
0.467 3.406 1.712 1139
0.450 3.282 1.642 6631
0.458 3.343 1.659 7434
0.440 3.208 1.596 2393
0.458 3.341 1.646 7018
0.439 3.205 1.584 1129
0.457 3.338 1.633 6331
0.459 3.349 1.627 7329
0.460 3.361 1.620 7532
0.464 3.387 1.620 8196
0.466 3.398 1.613 7065
0.477 3.481 1.638 5334
0.458 3.345 1.578 1116
0.478 3.486 1.628 7024
0.496 3.623 1.687 1411
0.478 3.490 1.618 7606
0.497 3.627 1.677 1628
0.489 3.567 1.639 9838
0.470 3.429 1.580 2740
0.490 3.578 1.631 10051
0.471 3.441 1.573 2473
0.493 3.597 1.627 8111
0.474 3.459 1.569 2696
0.494 3.608 1.619 7156
0.476 3.471 1.562 2242
0.495 3.613 1.609 5209
0.514 3.751 1.666 2456
0.512 3.733 1.646 4463
0.493 3.595 1.590 4079
0.513 3.745 1.638 5110
0.494 3.607 1.582 4006
0.511 3.727 1.619 5198
0.492 3.589 1.563 2817
0.511 3.732 1.608 5145
0.530 3.870 1.663 2646
0.517 3.772 1.611 4344
0.497 3.626 1.554 1721
0.520 3.798 1.609 5170
0.539 3.937 1.664 1750
0.521 3.803 1.598 3776
0.540 3.942 1.652 2102
0.524 3.822 1.593 2908
0.543 3.961 1.646 2255
0.543 3.965 1.635 3572
0.524 3.826 1.582 2751
0.544 3.969 1.623 4183
0.525 3.830 1.570 1577
0.544 3.974 1.612 4789
0.564 4.113 1.664 1481
0.544 3.971 1.597 5290
0.573 4.184 1.677 1716
0.546 3.982 1.589 4494
0.574 4.188 1.665 2931
0.573 4.185 1.650 4187
0.548 4.001 1.582 3047
0.574 4.190 1.638 3674
0.551 4.020 1.576 2808
0.552 4.032 1.567 2945
0.572 4.172 1.618 2878
0.573 4.184 1.608 5352
0.554 4.043 1.558 2455
0.576 4.203 1.601 8140
0.556 4.055 1.549 1384
0.577 4.214 1.591 7755
0.597 4.355 1.641 2837
0.595 4.345 1.623 5205
0.576 4.204 1.574 3751
0.595 4.341 1.608 6684
0.576 4.200 1.559 1522
0.595 4.346 1.595 8079
0.576 4.204 1.547 1223
0.597 4.357 1.585 8710
0.616 4.499 1.632 1302
0.598 4.361 1.572 8858
0.617 4.503 1.619 1433
0.598 4.366 1.559 8489
0.618 4.507 1.606 1665
0.597 4.355 1.542 4853
0.616 4.497 1.588 2963
0.586 4.277 1.503 5027
0.619 4.516 1.580 4063
0.588 4.288 1.493 4084
0.620 4.527 1.569 3052
0.644 4.704 1.610 2781
0.588 4.292 1.480 2475
0.646 4.715 1.599 3292
0.589 4.296 1.468 1446
0.636 4.644 1.562 3120
0.656 4.787 1.606 1312
0.651 4.754 1.581 3157
0.632 4.611 1.537 1655
0.653 4.765 1.569 5003
0.585 4.270 1.419 1914
0.656 4.784 1.560 6812
0.586 4.273 1.406 3014
0.658 4.804 1.550 7033
0.586 4.277 1.394 2731
0.659 4.808 1.536 5067
0.587 4.281 1.381 1747
0.659 4.812 1.522 3424
0.679 4.955 1.564 1503
0.674 4.921 1.539 2914
0.694 5.065 1.580 1743
0.681 4.971 1.537 3543
0.661 4.827 1.496 1690
0.681 4.967 1.521 3423
0.700 5.111 1.561 1589
0.691 5.047 1.527 3352
0.711 5.190 1.567 1925
0.692 5.051 1.512 2997
0.712 5.194 1.552 2956
0.712 5.198 1.537 4763
0.693 5.055 1.498 1801
0.713 5.202 1.522 5077
0.693 5.058 1.483 1967
0.724 5.282 1.527 5370
0.704 5.138 1.488 1806
0.731 5.332 1.523 4514
0.711 5.188 1.485 3014
0.734 5.359 1.514 5053
0.714 5.214 1.476 1190
0.736 5.370 1.500 5916
0.756 5.515 1.537 1698
0.738 5.389 1.488 4947
0.758 5.534 1.525 3362
0.729 5.317 1.453 3795
0.748 5.462 1.489 3536
0.756 5.519 1.487 2111
0.736 5.374 1.451 1319
0.752 5.485 1.461 2292
0.774 5.652 1.502 1498
0.767 5.595 1.471 2611
0.747 5.450 1.436 2001
0.763 5.569 1.447 3659
0.788 5.752 1.491 2323
0.762 5.565 1.429 5846
0.789 5.756 1.474 2844
0.764 5.576 1.415 3591
0.803 5.859 1.480 2705
0.803 5.863 1.463 3394
0.778 5.679 1.421 2089
0.803 5.859 1.444 4331
0.778 5.675 1.403 1535
0.804 5.870 1.429 5704
0.831 6.062 1.471 2754
0.807 5.889 1.415 5259
0.831 6.066 1.454 2957
0.815 5.947 1.409 3670
0.835 6.093 1.441 1976
0.817 5.966 1.395 2972
0.837 6.112 1.426 2243
0.817 5.962 1.376 1937
0.854 6.231 1.433 1728
0.850 6.203 1.408 2473
0.870 6.349 1.438 2275
0.848 6.192 1.387 2616
0.869 6.346 1.418 2593
0.887 6.472 1.424 2852
0.867 6.326 1.395 2007
0.870 6.353 1.381 2443
0.913 6.661 1.442 1959
0.886 6.464 1.383 1975
0.912 6.657 1.421 1816
0.899 6.560 1.382 2108
0.924 6.745 1.417 1561
0.924 6.741 1.396 2482
0.895 6.533 1.357 2139
0.924 6.745 1.377 3576
0.944 6.891 1.404 1682
0.925 6.748 1.357 3385
0.945 6.895 1.383 2092
0.946 6.906 1.365 2063
0.969 7.068 1.394 1977
1.025 7.482 1.445 2328
0.967 7.057 1.370 1981
1.026 7.485 1.423 2653
0.999 7.292 1.390 2621
1.001 7.303 1.370 2944
1.026 7.489 1.401 2089
1.002 7.315 1.350 2223
1.029 7.508 1.382 2210
1.055 7.698 1.390 2663
1.030 7.519 1.361 2533
1.059 7.732 1.373 2653
1.092 7.972 1.411 1921
1.059 7.728 1.349 2348
1.096 7.999 1.392 2045
1.098 8.010 1.370 2038
1.054 7.693 1.320 1549
1.154 8.425 1.408 1862
1.096 7.998 1.344 1394
1.156 8.436 1.385 2040
1.217 8.879 1.451 1690
1.155 8.432 1.359 1945
1.217 8.883 1.425 1394
1.152 8.405 1.330 1604
1.221 8.909 1.402 1536
1.218 8.890 1.373 2760
1.189 8.680 1.343 1021
1.217 8.886 1.345 3958
1.189 8.676 1.317 1130
1.218 8.889 1.319 3386
1.285 9.379 1.385 1214
1.218 8.892 1.293 1773
1.283 9.367 1.355 1135
1.230 8.974 1.277 1144
0.325 2.311 1.773 2745
0.308 2.190 1.685 1185
0.326 2.316 1.766 5491
0.309 2.194 1.679 2370
0.327 2.320 1.759 5491
0.310 2.199 1.672 2370
0.327 2.325 1.753 5330
0.310 2.203 1.666 1612
0.329 2.336 1.750 5282
0.312 2.214 1.664 1113
0.334 2.373 1.766 4948
0.317 2.251 1.680 2754
0.337 2.391 1.769 6430
0.319 2.268 1.683 2450
0.337 2.395 1.762 6430
0.320 2.272 1.676 2450
0.338 2.400 1.755 6747
0.321 2.277 1.670 2726
0.339 2.405 1.748 7064
0.321 2.281 1.663 3003
0.339 2.409 1.741 7082
0.322 2.286 1.657 2454
0.339 2.407 1.730 7187
0.321 2.284 1.646 1437
0.340 2.418 1.727 6988
0.323 2.294 1.644 1335
0.342 2.430 1.724 7014
0.345 2.454 1.730 5055
0.328 2.329 1.648 1255
0.350 2.485 1.741 5035
0.332 2.360 1.658 1700
0.350 2.489 1.733 5636
0.333 2.364 1.652 1776
0.347 2.468 1.709 7144
0.347 2.465 1.698 9316
0.349 2.477 1.695 9977
0.349 2.481 1.688 10845
0.354 2.512 1.697 11239
0.355 2.523 1.694 13866
0.357 2.534 1.691 13822
0.375 2.661 1.770 1265
0.358 2.546 1.688 14134
0.376 2.672 1.767 1781
0.359 2.550 1.681 11706
0.378 2.684 1.763 2162
0.360 2.554 1.673 9277
0.379 2.695 1.760 2726
0.361 2.566 1.670 6767
0.379 2.693 1.748 2615
0.366 2.597 1.679 5459
0.384 2.725 1.756 1896
0.368 2.615 1.680 5374
0.386 2.743 1.757 1593
0.372 2.639 1.684 6457
0.390 2.768 1.761 1049
0.374 2.657 1.685 6471
0.377 2.675 1.685 7130
0.381 2.707 1.693 6606
0.363 2.578 1.617 2074
0.384 2.725 1.693 8110
0.365 2.596 1.618 1545
0.386 2.743 1.693 7077
0.404 2.872 1.768 1229
0.396 2.816 1.724 6085
0.378 2.686 1.650 1746
0.397 2.820 1.716 7910
0.379 2.691 1.642 1558
0.398 2.825 1.708 6688
0.379 2.695 1.634 1550
0.392 2.781 1.673 7070
0.410 2.912 1.746 2790
0.393 2.793 1.669 5867
0.412 2.923 1.741 3014
0.407 2.893 1.714 5119
0.389 2.763 1.641 3691
0.394 2.802 1.652 5197
0.413 2.932 1.724 3232
0.396 2.813 1.648 5183
0.414 2.944 1.720 2961
0.405 2.879 1.674 6331
0.387 2.748 1.602 1758
0.406 2.884 1.665 5714
0.424 3.015 1.736 1716
0.419 2.978 1.705 5215
0.401 2.847 1.635 3325
0.421 2.990 1.700 6432
0.402 2.858 1.630 3097
0.423 3.008 1.699 7076
0.405 2.876 1.629 2274
0.427 3.033 1.701 6471
0.400 2.839 1.599 2652
0.427 3.031 1.689 7924
0.400 2.843 1.591 2334
0.428 3.042 1.684 10358
0.401 2.847 1.583 1752
0.430 3.054 1.678 11629
0.401 2.851 1.574 1489
0.432 3.065 1.673 9351
0.450 3.198 1.741 1577
0.438 3.112 1.686 8439
0.419 2.979 1.618 2032
0.441 3.130 1.684 10178
0.422 2.997 1.617 1820
0.442 3.142 1.678 11639
0.461 3.275 1.745 1643
0.446 3.167 1.679 12212
0.427 3.033 1.613 1545
0.449 3.193 1.681 13071
0.431 3.059 1.615 2774
0.449 3.190 1.668 12040
0.430 3.056 1.602 1687
0.450 3.195 1.659 10000
0.431 3.060 1.594 1163
0.454 3.227 1.663 10874
0.435 3.093 1.598 1813
0.456 3.239 1.657 9715
0.437 3.104 1.593 1535
0.458 3.250 1.651 8663
0.477 3.385 1.715 1660
0.460 3.269 1.648 7475
0.479 3.404 1.712 1317
0.462 3.280 1.642 8239
0.470 3.342 1.659 8797
0.451 3.206 1.596 2413
0.472 3.353 1.653 8093
0.453 3.218 1.590 1930
0.474 3.365 1.646 7627
0.455 3.229 1.584 1002
0.473 3.362 1.633 8736
0.474 3.366 1.623 8583
0.476 3.378 1.617 8830
0.478 3.396 1.613 7831
0.503 3.576 1.692 1186
0.489 3.472 1.635 4123
0.508 3.609 1.695 1306
0.489 3.477 1.625 5770
0.509 3.614 1.684 1742
0.491 3.488 1.618 6297
0.510 3.625 1.677 1747
0.502 3.565 1.639 8764
0.483 3.428 1.580 3102
0.503 3.576 1.631 9492
0.484 3.439 1.573 2304
0.506 3.595 1.627 8700
0.487 3.458 1.569 1696
0.508 3.607 1.619 7811
0.527 3.744 1.677 2075
0.507 3.604 1.606 5828
0.527 3.741 1.663 3583
0.525 3.731 1.646 5277
0.506 3.593 1.590 4844
0.526 3.736 1.635 5457
0.506 3.597 1.579 3975
0.524 3.725 1.619 6322
0.505 3.587 1.563 2486
0.525 3.730 1.608 6901
0.545 3.868 1.663 2443
0.528 3.748 1.603 5229
0.547 3.887 1.658 2155
0.536 3.804 1.612 5673
0.555 3.943 1.666 1468
0.534 3.793 1.595 4742
0.554 3.932 1.649 2037
0.536 3.805 1.587 3477
0.555 3.944 1.641 2421
0.558 3.963 1.635 3666
0.538 3.824 1.582 2690
0.560 3.975 1.626 4111
0.533 3.784 1.554 1617
0.560 3.979 1.615 4597
0.580 4.119 1.667 1331
0.560 3.976 1.600 5481
0.579 4.116 1.652 1840
0.558 3.965 1.583 4810
0.578 4.105 1.635 3773
0.579 4.110 1.623 4435
0.556 3.947 1.564 2583
0.587 4.173 1.632 3920
0.566 4.018 1.576 2414
0.585 4.155 1.612 3797
0.565 4.015 1.562 2733
0.588 4.174 1.605 5887
0.568 4.034 1.555 2289
0.591 4.200 1.601 8437
0.569 4.045 1.546 1271
0.593 4.212 1.591 8333
0.613 4.353 1.641 3181
0.610 4.335 1.620 6685
0.590 4.194 1.571 3405
0.611 4.339 1.608 7814
0.591 4.198 1.559 1638
0.611 4.343 1.595 8819
0.592 4.202 1.547 1475
0.613 4.355 1.585 9344
0.633 4.496 1.632 1324
0.614 4.359 1.572 9701
0.634 4.501 1.619 1556
0.613 4.356 1.557 9500
0.633 4.497 1.604 1643
0.612 4.345 1.539 5672
0.632 4.487 1.586 2475
0.601 4.267 1.500 5035
0.635 4.513 1.580 2886
0.601 4.271 1.488 4382
0.642 4.562 1.581 2311
0.662 4.701 1.610 2861
0.600 4.260 1.471 2391
0.663 4.713 1.599 3299
0.597 4.241 1.451 1326
0.654 4.642 1.562 3469
0.674 4.784 1.606 1392
0.669 4.751 1.581 3041
0.649 4.609 1.537 1863
0.671 4.763 1.569 5137
0.598 4.245 1.412 1682
0.672 4.774 1.558 6622
0.599 4.256 1.402 1952
0.675 4.794 1.548 6261
0.602 4.275 1.394 1892
0.676 4.805 1.536 4763
0.697 4.948 1.578 1995
0.677 4.809 1.522 2933
0.697 4.952 1.564 2123
0.692 4.919 1.539 2800
0.713 5.062 1.580 1838
0.699 4.968 1.537 3424
0.679 4.825 1.496 1443
0.700 4.972 1.523 3823
0.721 5.123 1.565 1993
0.711 5.052 1.529 4147
0.731 5.195 1.569 1404
0.711 5.048 1.512 3887
0.731 5.192 1.552 1687
0.730 5.188 1.535 3729
0.710 5.044 1.496 2173
0.730 5.185 1.518 5450
0.710 5.041 1.479 1680
0.733 5.204 1.507 5390
0.753 5.348 1.545 3294
0.750 5.329 1.523 5134
0.730 5.185 1.485 3217
0.753 5.348 1.512 5591
0.733 5.204 1.474 1376
0.755 5.360 1.498 6415
0.775 5.504 1.535 1533
0.751 5.333 1.475 4973
0.771 5.478 1.511 2943
0.749 5.322 1.455 3954
0.770 5.467 1.491 3018
0.771 5.478 1.477 2113
0.771 5.474 1.459 2493
0.796 5.657 1.504 1603
0.792 5.623 1.478 2986
0.771 5.478 1.443 2643
0.794 5.642 1.465 3815
0.774 5.497 1.431 2202
0.783 5.562 1.429 4906
0.810 5.753 1.474 2726
0.785 5.573 1.415 3231
0.812 5.764 1.459 2514
0.825 5.860 1.463 2913
0.800 5.684 1.423 1945
0.824 5.856 1.444 4066
0.845 6.001 1.477 1356
0.826 5.867 1.429 5423
0.851 6.043 1.468 1931
0.829 5.886 1.415 4837
0.851 6.047 1.450 2027
0.837 5.944 1.409 4192
0.857 6.089 1.441 1239
0.839 5.963 1.395 3304
0.860 6.108 1.426 1643
0.840 5.966 1.378 2181
0.889 6.312 1.450 1882
0.873 6.200 1.408 2437
0.907 6.446 1.459 2029
0.871 6.189 1.387 2765
0.909 6.458 1.441 2489
0.896 6.361 1.403 2912
0.870 6.177 1.366 1861
0.895 6.357 1.382 2467
0.936 6.650 1.440 1631
0.925 6.569 1.404 2552
0.904 6.422 1.376 1939
0.923 6.557 1.382 3272
0.949 6.742 1.417 1424
0.923 6.553 1.361 2773
0.949 6.738 1.396 2049
0.949 6.741 1.377 2894
0.923 6.556 1.342 1934
0.950 6.745 1.357 2597
0.970 6.891 1.383 2060
0.972 6.903 1.365 2144
0.994 7.057 1.392 1575
1.054 7.486 1.446 2071
0.993 7.053 1.370 1720
1.012 7.188 1.372 2528
1.054 7.489 1.424 2321
1.028 7.300 1.370 2359
1.055 7.493 1.403 1941
1.059 7.520 1.385 2211
1.082 7.682 1.412 2180
1.082 7.686 1.389 2542
1.058 7.516 1.361 2489
1.085 7.705 1.369 2241
1.123 7.976 1.413 1920
1.124 7.987 1.391 2209
1.086 7.716 1.348 1984
1.126 7.999 1.368 2139
1.082 7.689 1.320 1371
1.187 8.428 1.410 1711
1.125 7.994 1.344 1369
1.187 8.432 1.385 1872
1.249 8.874 1.451 1744
1.188 8.436 1.360 1720
1.250 8.878 1.425 1519
1.253 8.897 1.401 1647
1.188 8.439 1.335 1332
1.251 8.885 1.373 2868
1.222 8.683 1.344 1231
1.250 8.881 1.345 4083
1.221 8.671 1.317 1282
1.251 8.884 1.319 3488
1.320 9.374 1.385 1274
1.251 8.888 1.293 1830
1.319 9.370 1.356 1341
1.313 9.327 1.323 1240
0.334 2.310 1.773 3860
0.317 2.189 1.685 1060
0.335 2.314 1.766 7720
0.317 2.193 1.679 2120
0.335 2.319 1.759 7720
0.318 2.198 1.672 2120
0.336 2.324 1.753 7744
0.318 2.202 1.666 1392
0.335 2.316 1.737 7822
0.338 2.340 1.744 7559
0.321 2.217 1.658 1160
0.341 2.357 1.746 7692
0.323 2.235 1.660 2149
0.342 2.362 1.739 7692
0.324 2.239 1.654 1994
0.342 2.366 1.732 7460
0.324 2.243 1.648 1564
0.344 2.377 1.730 7321
0.326 2.254 1.646 1647
0.345 2.388 1.728 7427
0.328 2.265 1.644 1375
0.347 2.400 1.725 7623
0.329 2.276 1.641 1030
0.349 2.411 1.723 6822
0.351 2.428 1.724 6667
0.353 2.439 1.722 4649
0.359 2.483 1.741 4288
0.341 2.359 1.658 2064
0.360 2.488 1.733 4878
0.342 2.363 1.652 2263
0.357 2.466 1.709 6542
0.355 2.458 1.693 8714
0.358 2.475 1.695 9381
0.360 2.486 1.692 10381
0.378 2.612 1.772 1126
0.363 2.511 1.697 10947
0.365 2.522 1.694 13211
0.383 2.648 1.774 1004
0.366 2.533 1.691 13277
0.385 2.660 1.770 1393
0.367 2.537 1.684 13650
0.385 2.664 1.763 2004
0.369 2.549 1.681 11235
0.387 2.676 1.759 2325
0.369 2.553 1.673 8994
0.389 2.687 1.756 2797
0.371 2.564 1.670 6617
0.389 2.692 1.748 2631
0.375 2.595 1.679 5467
0.394 2.723 1.756 1565
0.378 2.613 1.680 5570
0.382 2.638 1.684 7108
0.384 2.656 1.685 6782
0.387 2.674 1.685 7332
0.389 2.692 1.685 6866
0.371 2.563 1.610 1373
0.393 2.717 1.689 7846
0.374 2.588 1.614 1302
0.396 2.735 1.689 6287
0.414 2.864 1.764 1195
0.406 2.807 1.720 5620
0.387 2.678 1.646 2033
0.407 2.812 1.712 7343
0.388 2.682 1.638 1856
0.407 2.817 1.704 6277
0.389 2.687 1.630 1756
0.403 2.787 1.677 5869
0.422 2.917 1.750 2270
0.409 2.826 1.688 5191
0.390 2.695 1.615 1765
0.409 2.830 1.680 5169
0.390 2.700 1.607 1790
0.408 2.821 1.664 5439
0.427 2.951 1.736 1949
0.409 2.825 1.656 5403
0.428 2.956 1.727 2276
0.415 2.871 1.670 6104
0.396 2.740 1.599 2188
0.416 2.875 1.662 5205
0.397 2.744 1.591 1694
0.417 2.887 1.657 4320
0.437 3.018 1.728 1795
0.432 2.988 1.700 5027
0.413 2.856 1.630 2504
0.437 3.020 1.706 7250
0.418 2.888 1.637 2316
0.438 3.032 1.701 7707
0.408 2.823 1.592 2353
0.438 3.029 1.689 8533
0.410 2.834 1.587 2335
0.441 3.048 1.687 10197
0.422 2.915 1.619 1898
0.441 3.052 1.678 11649
0.461 3.185 1.747 1237
0.444 3.071 1.677 9947
0.463 3.203 1.745 1487
0.448 3.096 1.678 8295
0.429 2.963 1.611 1657
0.452 3.129 1.684 9342
0.433 2.995 1.617 2243
0.454 3.140 1.678 10787
0.435 3.007 1.611 1772
0.459 3.173 1.683 12035
0.440 3.039 1.617 2306
0.461 3.184 1.677 13528
0.441 3.050 1.611 2360
0.461 3.188 1.668 12923
0.442 3.054 1.602 1629
0.464 3.207 1.665 11158
0.467 3.226 1.663 12870
0.447 3.091 1.598 1087
0.468 3.237 1.657 12742
0.449 3.102 1.593 1079
0.469 3.241 1.648 11659
0.488 3.376 1.711 1888
0.471 3.260 1.645 8799
0.491 3.395 1.708 2030
0.475 3.286 1.645 9217
0.483 3.340 1.659 9790
0.463 3.205 1.596 2288
0.484 3.344 1.649 9448
0.464 3.209 1.587 1506
0.486 3.363 1.646 9545
0.487 3.367 1.636 10817
0.487 3.364 1.623 9695
0.506 3.500 1.684 1231
0.487 3.369 1.614 9250
0.507 3.505 1.674 1847
0.490 3.387 1.610 8144
0.510 3.524 1.670 1251
0.494 3.413 1.610 4711
0.518 3.578 1.682 1905
0.502 3.468 1.622 4333
0.521 3.604 1.681 1766
0.501 3.465 1.608 4289
0.521 3.602 1.667 2602
0.516 3.570 1.642 6387
0.496 3.433 1.583 3970
0.517 3.574 1.631 7781
0.497 3.437 1.573 3137
0.520 3.593 1.627 8670
0.500 3.456 1.569 2273
0.520 3.597 1.616 8315
0.540 3.735 1.674 3691
0.538 3.718 1.654 6965
0.518 3.580 1.597 5409
0.538 3.722 1.643 7024
0.518 3.584 1.587 5278
0.539 3.726 1.632 6384
0.519 3.588 1.576 4241
0.540 3.731 1.622 7105
0.520 3.592 1.566 2755
0.540 3.735 1.611 8196
0.520 3.596 1.555 2049
0.541 3.739 1.600 6311
0.561 3.878 1.655 2390
0.551 3.809 1.615 6345
0.571 3.948 1.669 1308
0.547 3.784 1.592 5720
0.567 3.923 1.646 1808
0.548 3.788 1.581 4295
0.568 3.927 1.635 2024
0.574 3.968 1.638 3589
0.552 3.814 1.579 2321
0.576 3.980 1.629 4783
0.547 3.782 1.554 1884
0.576 3.984 1.617 5565
0.550 3.801 1.548 1434
0.575 3.974 1.600 6426
0.595 4.113 1.652 2346
0.572 3.956 1.580 5673
0.592 4.096 1.632 4509
0.595 4.115 1.626 5450
0.572 3.953 1.566 3343
0.600 4.148 1.624 4860
0.573 3.964 1.557 2156
0.602 4.160 1.615 5018
0.581 4.020 1.564 2238
0.602 4.164 1.603 6398
0.582 4.024 1.553 1713
0.607 4.198 1.601 8136
0.628 4.339 1.651 1626
0.611 4.225 1.597 9543
0.631 4.365 1.646 2079
0.626 4.325 1.618 7918
0.605 4.184 1.569 2903
0.626 4.329 1.605 8444
0.606 4.188 1.557 1539
0.628 4.341 1.595 9032
0.607 4.200 1.547 1737
0.630 4.353 1.585 8845
0.609 4.211 1.537 1388
0.630 4.357 1.572 8690
0.651 4.498 1.619 1301
0.629 4.346 1.555 9172
0.651 4.502 1.606 1326
0.627 4.335 1.537 6128
0.665 4.596 1.622 1586
0.614 4.242 1.493 4027
0.661 4.571 1.599 1553
0.614 4.246 1.481 4561
0.662 4.575 1.586 1590
0.615 4.250 1.468 4341
0.680 4.699 1.610 2222
0.681 4.710 1.599 2610
0.615 4.254 1.456 2584
0.671 4.640 1.562 3236
0.613 4.235 1.437 1303
0.671 4.636 1.546 2450
0.612 4.231 1.422 2351
0.688 4.760 1.569 4278
0.611 4.228 1.407 2799
0.690 4.772 1.558 5611
0.612 4.231 1.395 2509
0.697 4.821 1.557 4654
0.614 4.242 1.385 1797
0.699 4.833 1.545 3891
0.720 4.976 1.587 1494
0.717 4.957 1.566 2770
0.694 4.799 1.520 2178
0.722 4.991 1.560 3452
0.695 4.803 1.506 1161
0.722 4.996 1.546 3348
0.698 4.830 1.499 1324
0.719 4.969 1.523 4001
0.741 5.120 1.565 2967
0.729 5.041 1.527 5422
0.750 5.185 1.567 1640
0.730 5.045 1.512 5570
0.750 5.189 1.552 1646
0.749 5.178 1.533 3924
0.728 5.034 1.494 3116
0.749 5.182 1.518 6650
0.729 5.038 1.479 2169
0.750 5.186 1.502 5653
0.771 5.330 1.541 3251
0.770 5.326 1.523 4156
0.749 5.182 1.485 3183
0.773 5.345 1.512 4982
0.752 5.201 1.474 2002
0.774 5.349 1.496 5858
0.795 5.494 1.533 1687
0.773 5.346 1.478 4505
0.794 5.490 1.515 2409
0.770 5.327 1.457 3341
0.791 5.471 1.493 2609
0.798 5.521 1.489 2485
0.770 5.323 1.440 1488
0.791 5.471 1.459 2744
0.814 5.631 1.498 1419
0.817 5.650 1.486 3637
0.793 5.483 1.445 2700
0.817 5.647 1.467 6021
0.796 5.502 1.433 1986
0.817 5.650 1.451 4704
0.842 5.818 1.490 1598
0.820 5.670 1.438 3031
0.845 5.845 1.478 2002
0.821 5.673 1.421 2927
0.847 5.857 1.463 2789
0.848 5.860 1.446 3451
0.822 5.685 1.406 1866
0.849 5.872 1.431 4122
0.884 6.109 1.483 1232
0.853 5.899 1.418 4102
0.874 6.044 1.450 1392
0.859 5.941 1.409 3957
0.880 6.086 1.441 1052
0.863 5.967 1.397 2932
0.916 6.335 1.475 1716
0.911 6.301 1.449 2429
0.864 5.971 1.379 2241
0.912 6.304 1.430 2431
0.933 6.450 1.460 1846
0.915 6.324 1.415 2306
0.892 6.170 1.384 2306
0.920 6.358 1.403 3197
0.894 6.181 1.367 1498
0.933 6.454 1.402 2933
0.912 6.308 1.373 1175
0.947 6.550 1.401 4339
0.926 6.404 1.373 1570
0.948 6.553 1.382 5036
1.015 7.015 1.470 1225
0.948 6.557 1.363 4661
0.998 6.904 1.428 1401
0.949 6.560 1.344 3691
0.974 6.738 1.377 1762
0.950 6.572 1.326 1963
0.996 6.888 1.383 1897
0.999 6.907 1.366 2246
1.056 7.300 1.437 1664
1.038 7.180 1.393 1998
1.004 6.941 1.351 1698
1.038 7.176 1.371 2242
1.084 7.493 1.426 1749
1.085 7.504 1.405 1726
1.035 7.157 1.346 1624
1.087 7.516 1.385 1947
1.110 7.678 1.412 1781
1.143 7.906 1.426 2012
1.111 7.682 1.389 2008
1.142 7.894 1.400 1846
1.166 8.064 1.428 1571
1.155 7.983 1.391 2157
1.200 8.300 1.441 1265
1.155 7.987 1.367 2069
1.201 8.304 1.416 1308
1.221 8.439 1.412 1503
1.154 7.982 1.343 1340
1.202 8.311 1.368 1929
1.283 8.869 1.451 1505
1.258 8.695 1.399 1703
1.200 8.299 1.341 1697
1.258 8.698 1.373 2143
1.286 8.892 1.401 1929
1.285 8.888 1.374 3039
1.256 8.686 1.345 2316
1.284 8.876 1.345 3709
1.255 8.674 1.318 2268
1.284 8.880 1.319 3014
1.253 8.662 1.290 2062
1.287 8.899 1.295 1590
1.254 8.673 1.266 1539
1.347 9.314 1.322 1609
1.355 9.372 1.301 1030
0.341 2.315 1.777 4234
0.323 2.194 1.690 1100
0.341 2.320 1.771 8468
0.323 2.199 1.683 2200
0.342 2.325 1.764 8468
0.324 2.203 1.677 2200
0.342 2.323 1.753 8505
0.324 2.201 1.666 1372
0.341 2.315 1.737 8733
0.344 2.339 1.744 8695
0.326 2.216 1.658 1163
0.345 2.343 1.737 8976
0.327 2.221 1.651 1103
0.345 2.348 1.730 8976
0.327 2.225 1.645 1082
0.347 2.359 1.728 8577
0.329 2.236 1.643 1296
0.348 2.364 1.721 8207
0.330 2.240 1.637 1087
0.348 2.368 1.714 8053
0.350 2.379 1.712 7914
0.353 2.397 1.714 6477
0.357 2.427 1.724 5992
0.355 2.412 1.704 4244
0.351 2.384 1.676 3935
0.369 2.509 1.758 2276
0.365 2.480 1.729 4303
0.347 2.356 1.647 2152
0.363 2.465 1.709 6099
0.362 2.463 1.698 8240
0.364 2.474 1.695 8853
0.382 2.600 1.776 1056
0.366 2.485 1.692 9879
0.384 2.611 1.772 1344
0.369 2.510 1.697 10340
0.388 2.636 1.777 1016
0.371 2.521 1.694 12286
0.373 2.532 1.691 12355
0.391 2.659 1.770 1299
0.373 2.537 1.684 12740
0.392 2.663 1.763 1850
0.374 2.541 1.677 10431
0.393 2.675 1.759 2264
0.375 2.552 1.673 8266
0.394 2.679 1.751 2724
0.377 2.563 1.670 6205
0.396 2.691 1.748 2469
0.382 2.595 1.679 5402
0.400 2.722 1.756 1359
0.385 2.619 1.684 5621
0.388 2.637 1.684 7187
0.391 2.655 1.685 6615
0.393 2.673 1.685 7087
0.396 2.691 1.685 6903
0.377 2.562 1.610 1221
0.400 2.716 1.689 7648
0.381 2.587 1.614 1154
0.401 2.727 1.685 6000
0.420 2.856 1.760 1234
0.412 2.800 1.716 5069
0.393 2.670 1.642 2156
0.414 2.811 1.712 6598
0.394 2.681 1.638 2268
0.414 2.816 1.704 5681
0.395 2.686 1.630 1994
0.410 2.786 1.677 5446
0.429 2.916 1.750 2047
0.416 2.825 1.688 5109
0.396 2.694 1.615 1903
0.416 2.829 1.680 5455
0.397 2.699 1.607 2077
0.414 2.813 1.660 5846
0.433 2.943 1.732 2141
0.414 2.817 1.652 5551
0.434 2.948 1.724 2386
0.422 2.870 1.670 5571
0.403 2.739 1.599 2244
0.424 2.881 1.665 4649
0.405 2.750 1.594 1735
0.434 2.948 1.690 4478
0.411 2.796 1.609 1402
0.436 2.966 1.689 4780
0.417 2.834 1.619 1499
0.444 3.019 1.706 7067
0.425 2.887 1.637 2213
0.445 3.024 1.698 7846
0.425 2.892 1.628 2197
0.445 3.028 1.689 8205
0.426 2.896 1.620 2289
0.448 3.047 1.687 9568
0.429 2.914 1.619 2050
0.450 3.058 1.682 11060
0.430 2.925 1.614 1475
0.452 3.069 1.677 9819
0.432 2.937 1.609 1553
0.454 3.088 1.675 8250
0.474 3.221 1.742 1398
0.461 3.134 1.687 8791
0.442 3.001 1.620 2588
0.462 3.139 1.678 10128
0.442 3.005 1.611 1895
0.467 3.171 1.683 12023
0.447 3.038 1.617 2349
0.468 3.183 1.677 13836
0.449 3.049 1.611 2303
0.469 3.187 1.668 13111
0.449 3.053 1.602 1701
0.472 3.206 1.665 11281
0.475 3.232 1.666 13064
0.456 3.097 1.602 1061
0.476 3.236 1.657 13114
0.456 3.101 1.593 1091
0.477 3.240 1.648 12208
0.497 3.375 1.711 1620
0.477 3.245 1.638 9025
0.497 3.380 1.702 2988
0.482 3.277 1.642 8574
0.502 3.413 1.705 1154
0.491 3.339 1.659 9167
0.471 3.203 1.596 2063
0.492 3.343 1.649 9401
0.472 3.208 1.587 1432
0.495 3.362 1.646 9771
0.495 3.366 1.636 11069
0.495 3.363 1.623 9870
0.515 3.499 1.684 1371
0.495 3.367 1.614 9205
0.515 3.504 1.674 1992
0.498 3.386 1.610 7617
0.518 3.522 1.670 1131
0.504 3.426 1.616 4955
0.526 3.577 1.682 1653
0.510 3.466 1.622 4812
0.530 3.603 1.681 1565
0.511 3.471 1.612 4092
0.531 3.608 1.671 2101
0.525 3.569 1.642 5031
0.505 3.432 1.583 3850
0.526 3.573 1.631 6466
0.505 3.436 1.573 3523
0.528 3.592 1.627 7759
0.508 3.454 1.569 2604
0.529 3.596 1.616 7694
0.549 3.734 1.674 3969
0.546 3.709 1.651 7481
0.525 3.571 1.594 4685
0.547 3.721 1.643 7346
0.527 3.583 1.587 5194
0.548 3.725 1.632 6494
0.528 3.587 1.576 4219
0.549 3.729 1.622 6940
0.528 3.591 1.566 2621
0.550 3.741 1.614 8081
0.530 3.602 1.558 1903
0.551 3.745 1.603 6183
0.571 3.884 1.658 2257
0.560 3.808 1.615 6303
0.581 3.946 1.669 1243
0.555 3.775 1.589 5987
0.576 3.914 1.644 1923
0.556 3.780 1.578 4708
0.576 3.919 1.632 1843
0.584 3.967 1.638 2988
0.556 3.776 1.565 2358
0.585 3.978 1.629 4477
0.556 3.781 1.554 1957
0.586 3.983 1.617 5528
0.560 3.807 1.551 1695
0.584 3.972 1.600 6180
0.605 4.112 1.652 2485
0.582 3.954 1.580 5337
0.603 4.102 1.635 4000
0.605 4.113 1.626 4667
0.581 3.951 1.566 3175
0.610 4.147 1.624 4538
0.589 4.007 1.573 2087
0.612 4.159 1.615 5348
0.591 4.018 1.564 1839
0.612 4.163 1.603 6483
0.633 4.303 1.653 1799
0.617 4.197 1.601 7257
0.638 4.337 1.651 1512
0.622 4.231 1.599 9567
0.643 4.371 1.648 1527
0.635 4.316 1.615 7808
0.614 4.175 1.566 2281
0.637 4.328 1.605 7965
0.616 4.187 1.557 1537
0.638 4.340 1.595 8333
0.618 4.198 1.547 1682
0.639 4.344 1.582 7964
0.618 4.203 1.535 1189
0.641 4.355 1.572 7443
0.620 4.214 1.525 1361
0.639 4.345 1.555 8132
0.662 4.501 1.606 1058
0.638 4.334 1.537 5815
0.617 4.192 1.491 1559
0.624 4.241 1.493 4717
0.672 4.569 1.599 1220
0.626 4.252 1.483 4445
0.673 4.573 1.586 1243
0.626 4.256 1.471 4474
0.691 4.697 1.610 1758
0.627 4.260 1.458 3221
0.694 4.716 1.601 2150
0.682 4.638 1.562 2583
0.631 4.286 1.453 1656
0.621 4.222 1.420 2085
0.682 4.635 1.546 2014
0.700 4.759 1.569 3642
0.620 4.211 1.403 2765
0.702 4.770 1.558 4857
0.620 4.215 1.390 2542
0.710 4.827 1.559 4003
0.624 4.241 1.385 1723
0.712 4.838 1.547 3285
0.733 4.981 1.590 1425
0.729 4.955 1.566 3161
0.705 4.790 1.518 1726
0.734 4.990 1.560 3926
0.705 4.794 1.504 1057
0.735 4.994 1.546 3540
0.710 4.828 1.499 1251
0.734 4.990 1.529 3311
0.755 5.134 1.570 2715
0.739 5.024 1.523 5432
0.760 5.168 1.563 2279
0.742 5.044 1.512 5810
0.763 5.187 1.552 2261
0.761 5.176 1.533 4402
0.740 5.032 1.494 3526
0.762 5.180 1.518 6645
0.741 5.036 1.479 2674
0.763 5.184 1.502 5357
0.784 5.328 1.541 2232
0.771 5.241 1.501 4629
0.792 5.385 1.539 1572
0.785 5.336 1.510 5163
0.764 5.192 1.472 2234
0.787 5.347 1.496 5822
0.765 5.203 1.459 1943
0.787 5.351 1.480 4105
0.809 5.496 1.517 2122
0.806 5.477 1.495 2851
0.784 5.332 1.459 2559
0.813 5.526 1.490 3010
0.782 5.313 1.438 1314
0.812 5.523 1.472 2674
0.832 5.656 1.487 3475
0.809 5.496 1.449 2694
0.832 5.652 1.469 6112
0.810 5.507 1.435 1963
0.832 5.656 1.453 4297
0.853 5.801 1.487 1778
0.834 5.668 1.438 2325
0.855 5.813 1.471 1754
0.834 5.671 1.421 2737
0.861 5.855 1.463 2370
0.862 5.858 1.446 3132
0.835 5.675 1.405 1785
0.864 5.870 1.431 3720
0.898 6.107 1.483 1299
0.869 5.904 1.420 3810
0.847 5.759 1.388 1391
0.874 5.938 1.409 3463
0.896 6.092 1.442 1372
0.878 5.965 1.397 2589
0.929 6.318 1.472 1740
0.919 6.245 1.437 2587
0.878 5.969 1.379 2138
0.926 6.295 1.429 2462
0.901 6.126 1.394 2052
0.930 6.321 1.415 2596
0.905 6.152 1.380 2126
0.935 6.356 1.403 3355
0.908 6.171 1.366 1413
0.949 6.452 1.402 2957
0.928 6.305 1.373 1095
0.961 6.532 1.398 5262
0.937 6.371 1.367 1451
0.963 6.543 1.381 5801
1.016 6.905 1.450 1304
0.963 6.547 1.361 5438
1.015 6.901 1.428 1486
0.965 6.558 1.344 4293
0.990 6.728 1.375 1145
0.966 6.569 1.326 2065
1.013 6.885 1.383 1725
1.018 6.920 1.369 2350
1.055 7.174 1.414 1712
1.055 7.170 1.392 2009
1.022 6.946 1.353 1873
1.052 7.151 1.367 2122
1.104 7.506 1.429 1530
1.051 7.146 1.345 1474
1.104 7.502 1.405 1435
1.163 7.907 1.450 1722
1.105 7.513 1.385 1624
1.163 7.903 1.426 2078
1.127 7.664 1.387 1641
1.161 7.891 1.400 1867
1.186 8.062 1.428 1364
1.174 7.980 1.391 1868
1.221 8.297 1.441 1567
1.173 7.976 1.366 1693
1.221 8.301 1.416 1641
1.223 8.313 1.393 1827
1.245 8.460 1.415 1293
1.222 8.308 1.368 2384
1.278 8.688 1.424 1493
1.221 8.296 1.341 2001
1.279 8.692 1.399 1997
1.279 8.695 1.373 2501
1.309 8.897 1.402 2109
1.307 8.885 1.374 3086
1.277 8.683 1.345 2767
1.307 8.881 1.347 3383
1.276 8.671 1.318 2781
1.274 8.659 1.290 2678
1.307 8.884 1.320 2587
1.276 8.670 1.266 2118
1.372 9.323 1.351 1539
1.370 9.311 1.322 1691
1.275 8.666 1.240 1200
1.378 9.368 1.301 1037
0.346 2.314 1.777 5003
0.347 2.319 1.771 10007
0.329 2.198 1.683 1467
0.348 2.324 1.764 10007
0.330 2.202 1.677 1467
0.348 2.322 1.753 9886
0.329 2.200 1.666 1063
0.346 2.314 1.737 10038
0.349 2.331 1.739 10511
0.351 2.342 1.737 11232
0.332 2.220 1.651 1221
0.351 2.347 1.730 11232
0.333 2.224 1.645 1053
0.352 2.352 1.723 10871
0.283 1.892 1.407 1129
0.353 2.356 1.717 10509
0.371 2.479 1.801 1226
0.353 2.361 1.710 10170
0.372 2.484 1.794 1184
0.354 2.365 1.703 9832
0.373 2.489 1.787 1142
0.356 2.376 1.701 7795
0.374 2.500 1.784 1311
0.357 2.387 1.698 6049
0.376 2.511 1.781 1362
0.357 2.385 1.687 5053
0.376 2.510 1.770 1574
0.357 2.383 1.676 4400
0.375 2.508 1.758 2121
0.356 2.381 1.665 4347
0.375 2.506 1.746 2770
0.369 2.464 1.709 5839
0.350 2.339 1.628 1000
0.369 2.462 1.698 7893
0.387 2.588 1.779 1032
0.370 2.473 1.695 8277
0.389 2.599 1.776 1438
0.372 2.485 1.692 9107
0.391 2.610 1.772 1680
0.376 2.509 1.697 9275
0.394 2.635 1.777 1034
0.377 2.520 1.694 10633
0.379 2.531 1.691 10654
0.398 2.658 1.770 1069
0.380 2.536 1.684 11030
0.399 2.669 1.767 1564
0.380 2.540 1.677 8840
0.399 2.667 1.755 2347
0.382 2.551 1.673 6729
0.401 2.678 1.751 2994
0.385 2.569 1.674 5415
0.404 2.696 1.752 2195
0.388 2.594 1.679 5244
0.407 2.721 1.756 1234
0.393 2.625 1.688 6034
0.395 2.636 1.684 7489
0.397 2.654 1.685 6472
0.401 2.679 1.689 6840
0.403 2.690 1.685 6947
0.406 2.715 1.689 7315
0.407 2.719 1.681 5697
0.426 2.848 1.756 1201
0.419 2.799 1.716 4160
0.400 2.669 1.642 1982
0.420 2.803 1.708 5400
0.400 2.674 1.634 1825
0.420 2.808 1.700 4835
0.401 2.678 1.627 2290
0.416 2.778 1.673 5520
0.435 2.908 1.746 1982
0.418 2.789 1.669 5284
0.437 2.919 1.741 2105
0.423 2.828 1.680 6323
0.403 2.691 1.603 3926
0.423 2.826 1.668 6415
0.403 2.695 1.596 4086
0.422 2.816 1.652 5487
0.402 2.685 1.580 2910
0.429 2.869 1.670 4564
0.410 2.738 1.599 3722
0.440 2.942 1.699 3952
0.410 2.742 1.591 2481
0.442 2.954 1.694 5013
0.422 2.822 1.624 1249
0.444 2.965 1.689 5061
0.417 2.785 1.593 1152
0.452 3.018 1.706 6859
0.432 2.886 1.637 2203
0.452 3.023 1.698 7876
0.433 2.891 1.628 2494
0.453 3.027 1.689 7356
0.433 2.895 1.620 2519
0.457 3.052 1.691 8506
0.437 2.920 1.622 2419
0.458 3.057 1.682 10165
0.438 2.924 1.614 1510
0.459 3.068 1.677 9854
0.439 2.936 1.609 1681
0.461 3.080 1.671 8837
0.481 3.213 1.739 1323
0.469 3.133 1.687 8282
0.449 3.000 1.620 2260
0.471 3.145 1.682 9422
0.451 3.011 1.615 1959
0.475 3.170 1.683 12580
0.455 3.037 1.617 2348
0.476 3.182 1.677 14853
0.455 3.041 1.608 2207
0.477 3.186 1.668 13594
0.457 3.052 1.602 1682
0.481 3.212 1.669 11123
0.461 3.078 1.604 1136
0.484 3.230 1.666 12812
0.463 3.096 1.602 1007
0.484 3.235 1.657 12871
0.464 3.100 1.593 1254
0.485 3.239 1.648 12383
0.505 3.374 1.711 1129
0.485 3.243 1.638 9401
0.506 3.378 1.702 2266
0.488 3.262 1.635 7373
0.508 3.397 1.698 2087
0.500 3.337 1.659 7109
0.479 3.202 1.596 2094
0.499 3.335 1.646 8876
0.479 3.199 1.584 1321
0.503 3.360 1.646 9975
0.483 3.225 1.584 1013
0.505 3.372 1.639 11147
0.504 3.369 1.626 10117
0.525 3.505 1.688 1342
0.504 3.366 1.614 8989
0.524 3.502 1.674 2012
0.506 3.378 1.607 6484
0.526 3.514 1.667 1255
0.516 3.446 1.625 6406
0.536 3.583 1.685 1632
0.519 3.465 1.622 6720
0.539 3.602 1.681 1676
0.521 3.484 1.618 5759
0.542 3.621 1.677 1788
0.521 3.481 1.605 5705
0.542 3.618 1.663 2883
0.522 3.485 1.594 6929
0.542 3.622 1.653 3163
0.526 3.511 1.593 7700
0.546 3.648 1.651 2550
0.536 3.580 1.610 6146
0.556 3.718 1.668 5374
0.555 3.708 1.651 8266
0.534 3.570 1.594 4320
0.556 3.712 1.640 8064
0.535 3.574 1.584 4123
0.556 3.716 1.629 6644
0.536 3.578 1.573 3444
0.559 3.735 1.624 6015
0.538 3.597 1.569 2462
0.561 3.747 1.617 6843
0.540 3.608 1.561 1317
0.560 3.744 1.603 5374
0.581 3.882 1.658 2337
0.571 3.814 1.618 5876
0.550 3.675 1.563 1616
0.565 3.774 1.589 5969
0.586 3.913 1.644 2592
0.566 3.778 1.578 5045
0.586 3.917 1.632 2250
0.565 3.775 1.565 2592
0.589 3.936 1.626 2329
0.595 3.977 1.629 4161
0.574 3.838 1.576 2598
0.596 3.981 1.617 5634
0.575 3.842 1.565 2482
0.595 3.978 1.603 5751
0.616 4.118 1.655 2112
0.592 3.953 1.580 4606
0.614 4.100 1.635 2954
0.615 4.112 1.626 3295
0.591 3.950 1.566 2639
0.619 4.138 1.622 4183
0.598 3.998 1.571 1778
0.622 4.157 1.615 6111
0.643 4.297 1.665 1780
0.623 4.161 1.603 6824
0.644 4.302 1.653 2085
0.636 4.247 1.619 7317
0.615 4.106 1.570 2158
0.634 4.236 1.602 8923
0.655 4.377 1.651 1348
0.640 4.278 1.602 7574
0.619 4.137 1.554 1470
0.645 4.311 1.600 6470
0.624 4.171 1.552 1052
0.648 4.330 1.592 6246
0.627 4.189 1.545 1416
0.650 4.342 1.582 5923
0.629 4.201 1.535 1404
0.651 4.346 1.570 5277
0.629 4.205 1.523 1367
0.649 4.335 1.552 5998
0.648 4.332 1.537 5115
0.627 4.191 1.491 1590
0.639 4.269 1.503 5591
0.699 4.672 1.633 1003
0.640 4.273 1.490 5038
0.700 4.676 1.619 1122
0.640 4.277 1.478 4645
0.703 4.695 1.610 1512
0.640 4.273 1.463 3774
0.706 4.714 1.601 1878
0.640 4.277 1.450 1957
0.694 4.636 1.562 1413
0.630 4.206 1.415 1660
0.721 4.820 1.604 1406
0.712 4.757 1.569 3038
0.630 4.209 1.403 2533
0.714 4.768 1.558 3824
0.630 4.206 1.388 2482
0.724 4.840 1.564 3309
0.623 4.164 1.363 1321
0.739 4.934 1.576 3391
0.617 4.123 1.337 2048
0.740 4.946 1.564 3888
0.619 4.134 1.327 1869
0.745 4.980 1.558 3994
0.620 4.144 1.317 1339
0.746 4.984 1.544 3651
0.768 5.128 1.585 1202
0.750 5.011 1.536 2640
0.772 5.154 1.576 1658
0.752 5.023 1.523 5138
0.773 5.166 1.563 2169
0.755 5.042 1.512 6104
0.776 5.185 1.552 2919
0.773 5.167 1.531 4499
0.752 5.023 1.492 3520
0.774 5.171 1.516 5519
0.752 5.027 1.477 2569
0.776 5.182 1.502 4562
0.754 5.038 1.464 1491
0.785 5.247 1.503 6080
0.762 5.087 1.461 1262
0.787 5.258 1.490 6643
0.814 5.440 1.537 1517
0.786 5.254 1.473 5852
0.815 5.444 1.521 2097
0.787 5.258 1.457 5048
0.815 5.448 1.505 3340
0.821 5.482 1.497 3804
0.789 5.270 1.444 2590
0.827 5.524 1.490 3062
0.805 5.380 1.455 2158
0.827 5.528 1.474 2664
0.806 5.384 1.439 1891
0.847 5.662 1.489 3936
0.825 5.509 1.453 2916
0.847 5.658 1.471 5923
0.825 5.513 1.436 2441
0.846 5.654 1.453 3679
0.868 5.799 1.487 2381
0.864 5.772 1.463 3142
0.834 5.574 1.417 1630
0.868 5.799 1.451 2360
0.846 5.654 1.418 1814
0.877 5.856 1.446 2155
0.849 5.673 1.405 1593
0.883 5.898 1.437 2904
0.914 6.105 1.483 1490
0.885 5.910 1.422 3437
0.863 5.764 1.390 1468
0.887 5.929 1.408 3011
0.910 6.082 1.441 1810
0.893 5.963 1.397 2111
0.943 6.300 1.469 1811
0.931 6.219 1.433 2456
0.894 5.974 1.381 1708
0.946 6.323 1.435 2595
0.917 6.123 1.394 2044
0.947 6.327 1.416 3252
0.917 6.127 1.376 1989
0.952 6.361 1.404 3867
0.974 6.507 1.433 1674
0.976 6.518 1.416 3683
0.953 6.365 1.385 3357
0.976 6.522 1.397 7177
0.954 6.376 1.368 1603
0.977 6.526 1.378 7374
1.034 6.910 1.451 1518
0.978 6.537 1.360 6515
1.037 6.929 1.434 1600
0.980 6.548 1.342 4645
1.039 6.941 1.415 1252
0.983 6.567 1.326 1910
1.041 6.952 1.396 1836
1.039 6.940 1.373 2980
1.061 7.087 1.399 1846
1.041 6.952 1.354 2222
1.068 7.137 1.387 2173
1.068 7.133 1.364 2237
1.148 7.673 1.458 1616
1.181 7.893 1.472 1401
1.068 7.136 1.343 1284
1.184 7.912 1.452 1720
1.145 7.649 1.408 1274
1.183 7.900 1.426 1994
1.144 7.645 1.384 1466
1.181 7.888 1.400 1754
1.242 8.298 1.466 1586
1.243 8.302 1.442 2071
1.210 8.085 1.408 1414
1.242 8.298 1.416 2160
1.210 8.081 1.383 1409
1.244 8.309 1.393 2366
1.204 8.046 1.353 1254
1.244 8.313 1.369 2885
1.300 8.685 1.424 1714
1.301 8.688 1.399 2372
1.243 8.301 1.342 2237
1.301 8.692 1.373 2946
1.330 8.886 1.401 2574
1.331 8.890 1.375 3427
1.300 8.688 1.347 3243
1.296 8.660 1.317 3451
1.329 8.878 1.347 3226
1.296 8.656 1.290 3563
1.330 8.889 1.322 2369
1.296 8.659 1.265 2950
1.334 8.915 1.298 1949
1.297 8.662 1.240 1755
1.392 9.299 1.321 1519
1.390 9.287 1.292 1148
0.352 2.314 1.777 5197
0.353 2.318 1.771 10395
0.335 2.197 1.683 1694
0.354 2.323 1.764 10395
0.335 2.202 1.677 1694
0.353 2.321 1.753 10075
0.335 2.200 1.666 1185
0.352 2.313 1.737 9950
0.355 2.330 1.739 10831
0.356 2.335 1.733 11863
0.374 2.457 1.818 1024
0.356 2.340 1.726 11863
0.375 2.462 1.811 1024
0.358 2.351 1.723 11695
0.377 2.474 1.808 1140
0.359 2.355 1.717 11534
0.377 2.478 1.801 1378
0.359 2.360 1.710 10990
0.378 2.483 1.794 1398
0.360 2.364 1.703 10446
0.379 2.488 1.787 1419
0.361 2.369 1.696 8459
0.380 2.493 1.780 1595
0.363 2.386 1.698 6763
0.382 2.510 1.781 1434
0.363 2.384 1.687 5415
0.382 2.509 1.770 1633
0.363 2.382 1.676 4265
0.382 2.507 1.758 2185
0.362 2.380 1.665 4218
0.381 2.505 1.746 2809
0.375 2.463 1.709 5589
0.356 2.338 1.628 1024
0.375 2.461 1.698 7354
0.394 2.587 1.779 1185
0.377 2.479 1.699 7554
0.397 2.605 1.780 1405
0.379 2.490 1.696 8084
0.398 2.616 1.777 1533
0.381 2.501 1.693 7998
0.400 2.627 1.773 1252
0.384 2.519 1.694 8806
0.385 2.530 1.691 8830
0.387 2.541 1.688 9222
0.406 2.668 1.767 1278
0.388 2.546 1.681 7203
0.407 2.673 1.759 2153
0.389 2.557 1.677 5204
0.409 2.684 1.756 2640
0.392 2.575 1.678 4633
0.411 2.702 1.756 1659
0.400 2.626 1.699 5389
0.401 2.631 1.692 6445
0.401 2.635 1.684 7500
0.404 2.653 1.685 6178
0.408 2.678 1.689 6176
0.409 2.689 1.685 6126
0.413 2.714 1.689 6310
0.414 2.718 1.681 4989
0.415 2.723 1.673 3388
0.434 2.852 1.748 1675
0.427 2.802 1.708 4220
0.407 2.673 1.634 2564
0.422 2.772 1.681 4161
0.402 2.643 1.607 1434
0.422 2.770 1.669 5212
0.442 2.900 1.742 2104
0.430 2.822 1.688 5100
0.409 2.685 1.611 2634
0.431 2.834 1.683 6569
0.410 2.690 1.603 3430
0.431 2.831 1.671 6436
0.411 2.701 1.599 3846
0.424 2.788 1.637 6012
0.444 2.918 1.708 2733
0.423 2.778 1.621 5571
0.450 2.957 1.719 3233
0.424 2.782 1.613 4628
0.450 2.955 1.706 4299
0.451 2.959 1.698 5405
0.425 2.794 1.609 3023
0.452 2.971 1.693 5270
0.426 2.798 1.601 2259
0.458 3.010 1.703 6385
0.427 2.802 1.593 1729
0.460 3.021 1.698 7320
0.440 2.889 1.628 2511
0.461 3.026 1.689 6318
0.441 2.894 1.620 2417
0.465 3.051 1.691 7494
0.444 2.919 1.622 2332
0.465 3.056 1.682 9177
0.445 2.923 1.614 1484
0.467 3.067 1.677 9538
0.447 2.934 1.609 1716
0.469 3.079 1.671 9138
0.448 2.946 1.604 1307
0.470 3.090 1.666 8225
0.491 3.223 1.733 1655
0.479 3.144 1.682 8789
0.458 3.010 1.615 1670
0.483 3.169 1.683 12619
0.462 3.036 1.617 2126
0.483 3.174 1.674 15253
0.463 3.040 1.608 1899
0.484 3.178 1.664 13484
0.463 3.044 1.599 1384
0.489 3.211 1.669 10369
0.468 3.076 1.604 1021
0.492 3.229 1.666 11775
0.492 3.233 1.657 11472
0.472 3.099 1.593 1163
0.493 3.238 1.648 11361
0.494 3.242 1.638 9140
0.514 3.377 1.702 1739
0.494 3.246 1.629 6727
0.515 3.382 1.692 2486
0.497 3.265 1.626 6198
0.518 3.400 1.689 1891
0.506 3.326 1.643 8327
0.486 3.191 1.580 1397
0.510 3.352 1.643 9702
0.490 3.216 1.581 1140
0.513 3.371 1.639 10524
0.513 3.368 1.626 9735
0.533 3.504 1.688 1290
0.511 3.358 1.610 8284
0.532 3.494 1.671 2045
0.520 3.412 1.623 5701
0.546 3.584 1.699 1130
0.525 3.445 1.625 7237
0.545 3.582 1.685 1846
0.527 3.464 1.622 7438
0.548 3.600 1.681 2053
0.530 3.483 1.618 7083
0.551 3.619 1.677 2014
0.531 3.487 1.608 7443
0.552 3.624 1.666 2703
0.532 3.491 1.598 7699
0.552 3.628 1.656 2739
0.533 3.502 1.590 7820
0.554 3.640 1.648 2840
0.536 3.521 1.586 6305
0.564 3.702 1.662 5378
0.563 3.699 1.648 8215
0.542 3.561 1.591 3274
0.564 3.703 1.637 8183
0.543 3.566 1.581 2756
0.565 3.708 1.626 6098
0.544 3.570 1.570 2414
0.568 3.734 1.624 4417
0.547 3.596 1.569 1925
